0	1395	1395	1390	1381	1359	1363	1355	1355	1351	1356	1390	1420	1437	1437	1440	1422	1396	1376	1366	1368	1368	1367	1372	1390	1403	1414	1419	1419	1404	1398	1389	1396	1400	1393	1371	1378	1378	1355	1362	1378	1400	1397	1387	1376	1374	1399	1399	1436	1457	1457	1443	1415	1398	1389	1392	1389	1399	1407	1424	1426	1426	1423	1410	1393	1381	1367	1361	1377	1387	1390	1384	1387	1396	1408	1422	1431	1443	1438	1434	1424	1425	1417	1422	1422	1416	1408	1399	1403	1411	1426	1421	1418	1408	1407	1429	1439	1448	1449	1453	1455	1450	1433	1433	1434	1440	1447	1456	1453	1447	1438	1449	1460	1460	1445	1432	1425	1420	1417	1412	1409	1412	1423	1435	1437	1423	1413	1412	1405	1396	1395	1406	1419	1444	1439	1435	1429	1429	1436	1443	1442	1442	1445	1449	1448	1445	1445	1452	1457	1446	1432	1419	1443	1438	1440	1460	1475	1495	1487	1476	1459	1448	1432	1430	1440	1461	1490	1495	1463	1453	1456	1446	1437	1433	1448	1468	1475	1456	1445	1443	1458	1472	1474	1467	1460	1457	1449	1440	1443	1436	1427	1402	1369	1327	1273	1207	1159	1106	1052	1025	1006	996	975	960	956	953	963	963	956	940	930	925	921	925	931	968	986	990	985	981	977	986	989	988	984	993	997	1005	1000	1000	996	991	990	1004	1009	1008	1008	1017	1017	1003	982	983	1000	1018	1033	1042	1056	1061	1058	1048	0	0	0	0	0	0	0	0	0	0	0	0	0	1436	1454	1485	1490	1489	1486	1494	1507	1518	1521	1514	1513	1514	1518	1531	1536	1536	1523	1500	1493	1492	1504	1499	1511	1510	1509	1504	1500	1484	1489	1507	1495	1500	1497	1511	1524	1524	1526	1524	1514	1505	1486	1469	1457	1462	1503	1492	1493	1498	1502	1508	1485	1483	1486	1473	1480	1503	1514	1526	1538	1546	1554	1554	1545	1528	1514	1498	1490	1494	1499	1552	1557	1543	1534	1527	1518	1519	1509	1503	1505	1508	1487	1491	1542	1537	1543	1536	1520	1511	1495	1494	1504	1532	1544	1533	1519	1512	1503	1487	1479	1506	1524	1533	1523	1529	1530	1536	1547	1559	1540	1517	1502	1521	1542	1551	1542	1535	1520	1520	1516	1505	1502	1510	1523	1532	1533	1534	1537	1541	1544	1536	1523	1510	1499	1504	1505	1506	1508	1513	1515	1517	1518	1519	1531	1543	1547	1544	1537	1508	0	0	0	0	0	0	0	0	0	0	0	0	941	931	927	935	942	948	959	984	1000	1015	1026	1032	1038	1031	1011	998	999	1009	1027	1016	1006	1000	983	973	968	979	978	971	964	961	961	956	964	0	0	0	0	0	0	0	0	0	0	0	0	0	0	0	0	1006	1007	1007	1008	1014	1018	1024	1050	1106	1181	1301	1397	1429	1482	1524	1541	1546	1545	1550	1558	1565	1574	1583	1584	1584	1578	1562	1555	1552	1546	1537	1542	1565	1580	1597	1598	1599	1574	1553	1563	1559	1572	1574	1593	1622	1612	1574	1548	1539	1541	1567	1592	1590	1571	1549	1520	1522	1538	1540	1539	1541	1541	1555	1556	1562	1558	1559	1563	1554	1538	1540	1547	1546	1538	1531	1536	1543	1548	1534	1528	1530	1535	1538	1540	1540	1545	1570	1580	1581	1571	1553	1549	1538	1541	1553	1543	1535	1539	1537	1557	1579	1578	1575	1563	1564	1561	1587	1592	1581	1567	1561	1561	1562	1569	1574	1580	1570	1557	1540	1528	1520	1506	1516	1534	1562	1584	1594	1594	1579	1557	1556	1564	1568	1565	1564	1552	0	0	0	0	0	0	0	1529	1520	1520	1510	1514	1554	1575	1562	1554	1545	1543	1538	0	0	0	0	0	1524	0	0	0	0	0	0
0	1365	1365	1360	1352	1339	1353	1347	1347	1346	1344	1381	1408	1432	1432	1433	1406	1370	1352	1352	1353	1353	1362	1375	1397	1404	1415	1411	1411	1394	1376	1380	1392	1407	1409	1400	1389	1389	1379	1394	1412	1424	1419	1401	1376	1371	1389	1418	1418	1433	1432	1423	1412	1398	1393	1390	1389	1394	1402	1417	1427	1426	1426	1409	1399	1382	1368	1360	1375	1388	1392	1394	1391	1394	1400	1413	1431	1440	1437	1440	1420	1412	1414	1414	1409	1403	1389	1377	1389	1408	1422	1426	1419	1413	1417	1425	1440	1435	1429	1430	1438	1438	1440	1433	1437	1454	1459	1461	1456	1441	1441	1452	1456	1456	1443	1428	1429	1433	1435	1429	1424	1427	1434	1438	1439	1423	1412	1408	1408	1405	1403	1404	1421	1439	1445	1437	1429	1430	1438	1443	1443	1445	1450	1455	1454	1446	1446	1453	1464	1447	1431	1425	1437	1444	1449	1464	1479	1497	1491	1472	1467	1449	1434	1430	1439	1454	1474	1492	1452	1445	1438	1441	1431	1433	1446	1462	1478	1469	1455	1451	1462	1467	1473	1479	1470	1459	1448	1434	1420	1404	1368	1331	1272	1203	1128	1090	1057	1030	1005	973	969	960	956	944	941	942	946	941	937	932	925	921	922	926	938	958	969	971	976	972	975	979	985	978	975	972	973	980	981	988	983	981	990	999	1021	1040	1046	1043	1038	1031	1030	1044	1029	1050	1065	1075	1066	0	0	0	0	0	0	0	0	0	0	0	0	0	0	0	1438	1452	1472	1490	1498	1501	1487	1479	1496	1505	1512	1513	1513	1506	1512	1523	1530	1530	1521	1487	1485	1498	1499	1507	1524	1520	1514	1510	1506	1506	1509	1522	1525	1496	1499	1500	1526	1528	1549	1522	1502	1496	1496	1490	1478	1477	1499	1504	1503	1505	1504	1508	1484	1483	1490	1481	1493	1508	1524	1538	1542	1546	1557	1561	1558	1539	1512	1505	1490	1486	1527	1536	1519	1514	1514	1514	1514	1499	1500	1506	1514	1516	1510	1518	1552	1557	1570	1562	1544	1523	1503	1493	1492	1491	1497	1516	1512	1522	1511	1504	1526	1513	1527	1528	1529	1513	1521	1536	1552	1567	1549	1531	1517	1522	1537	1547	1550	1539	1536	1529	1524	1515	1509	1515	1524	1535	1537	1533	1539	1541	1533	1529	1519	1511	1506	1498	1506	1509	1511	1514	1509	1504	1505	1510	1515	1524	1534	1532	1534	1537	1521	0	0	0	0	0	0	0	0	0	0	0	0	937	918	910	912	919	930	948	975	1005	1014	1027	1027	1020	1003	992	992	1006	1019	1023	1016	1002	983	967	960	966	958	949	939	937	932	927	935	0	0	0	0	0	0	0	936	947	0	0	0	0	0	0	0	977	987	995	993	994	990	1001	1016	1038	1068	1100	1112	1229	1391	1434	1504	1523	1531	1538	1543	1553	1571	1590	1594	1598	1577	1562	1531	1530	1536	1532	1536	1556	1575	1577	1593	1595	1586	1565	1557	1556	1558	1555	1572	1614	1607	1589	1565	1556	1564	1589	1601	1592	1566	1543	1530	1540	1544	1558	1555	1553	1545	1557	1569	1586	1579	1567	1552	1542	1525	1523	1538	1541	1530	1541	1546	1543	1541	1522	1520	1517	1519	1522	1531	1539	1552	1568	1577	1568	1551	1540	1529	1536	1531	1538	1539	1546	1541	1545	1563	1570	1581	1579	1587	1585	1571	1569	1567	1574	1576	1569	1559	1556	1553	1572	1572	1563	1562	1549	1537	1527	1517	1513	1524	1536	1553	1553	1570	1564	1557	1556	1557	1560	1558	1547	1531	1513	0	0	0	0	0	1540	1530	1512	1512	1512	1519	1535	1581	1570	1552	1545	1540	1535	1522	1520	1520	1530	1532	1526	0	0	0	0	0	0
0	1340	1340	1333	1328	1340	1343	1339	1339	1325	1335	1353	1390	1416	1416	1412	1374	1357	1353	1345	1352	1352	1356	1370	1394	1411	1409	1403	1378	1378	1357	1362	1370	1398	1404	1389	1384	1384	1387	1402	1423	1437	1426	1401	1375	1368	1380	1400	1400	1411	1414	1414	1415	1407	1403	1382	1381	1385	1394	1412	1427	1422	1422	1408	1395	1381	1368	1369	1375	1389	1397	1406	1401	1398	1401	1409	1416	1423	1412	1407	1407	1404	1409	1413	1411	1406	1391	1382	1376	1399	1425	1425	1416	1406	1410	1425	1429	1422	1415	1409	1417	1425	1429	1435	1448	1462	1465	1462	1462	1440	1445	1442	1445	1433	1428	1435	1441	1454	1450	1448	1443	1444	1445	1442	1440	1427	1417	1405	1400	1406	1404	1414	1425	1438	1437	1430	1425	1422	1431	1438	1437	1445	1449	1459	1467	1457	1455	1450	1456	1441	1431	1432	1446	1446	1454	1455	1458	1460	1467	1472	1467	1452	1440	1429	1438	1451	1472	1479	1451	1439	1442	1439	1434	1435	1440	1454	1471	1473	1458	1452	1445	1443	1462	1463	1458	1448	1413	1391	1362	1323	1284	1214	1144	1080	1032	1007	996	990	981	945	936	937	939	937	925	919	922	932	937	929	927	923	927	933	943	954	960	963	971	971	969	973	978	971	968	961	964	966	972	974	963	974	982	995	1025	1038	1046	1062	1064	1065	1067	1078	1075	1068	1077	1069	0	0	0	0	0	0	0	0	0	0	0	0	0	0	0	1407	1445	1458	1472	1485	1495	1486	1472	1475	1482	1486	1502	1507	1511	1517	1518	1519	1518	1517	1489	1475	1474	1481	1496	1518	1525	1524	1518	1503	1505	1519	1518	1540	1525	1517	1505	1493	1513	1543	1514	1514	1498	1488	1492	1502	1500	1499	1489	1506	1512	1540	1534	1489	1478	1478	1479	1497	1495	1526	1536	1522	1520	1516	1515	1516	1509	1521	1509	1503	1488	1512	1513	1492	1508	1502	1501	1497	1490	1486	1527	1536	1539	1530	1534	1551	1559	1570	1566	1529	1532	1537	1531	1529	1532	1528	1491	1491	1514	1513	1509	1514	1516	1524	1508	1513	1518	1535	1533	1545	1553	1561	1548	1538	1525	1519	1521	1530	1537	1540	1534	1529	1528	1528	1523	1520	1527	1528	1532	1522	1521	1524	1534	1528	1517	1514	1515	1510	1511	1513	1512	1510	1503	1501	1501	1497	1502	1506	1517	1521	1524	1524	1530	0	0	0	0	0	0	0	0	0	0	0	0	0	0	895	895	904	914	937	936	967	998	1015	1019	1014	1004	990	984	990	1004	1007	999	988	970	946	934	944	934	921	913	912	911	909	918	924	0	0	0	0	0	923	933	940	945	0	0	0	0	0	0	952	970	990	989	982	975	978	996	1012	1023	1017	1013	1016	1123	1221	1379	1470	1501	1517	1528	1536	1559	1576	1564	1563	1553	1539	1533	1532	1535	1536	1549	1556	1560	1566	1575	1578	1571	1554	1548	1536	1538	1536	1558	1578	1596	1587	1585	1584	1594	1602	1607	1598	1562	1552	1552	1558	1555	1569	1567	1559	1557	1563	1574	1596	1597	1588	1552	1519	1509	1512	1525	1538	1539	1547	1555	1540	1523	1507	1505	1508	1517	1526	1534	1547	1561	1575	1574	1565	1547	1537	1534	1525	1532	1534	1543	1559	1564	1568	1569	1566	1573	1578	1576	1565	1565	1561	1560	1568	1577	1568	1558	1545	1536	1535	1543	1563	1561	1564	1543	1532	1526	1524	1524	1525	1533	1533	1548	1558	1554	1548	1541	1537	1538	1528	1501	1490	1490	1502	1524	1532	1550	1554	1542	1542	1524	1523	1527	1535	1545	1547	1539	1522	1520	1531	1531	1531	1526	1525	1531	1536	0	0	0	0	0	0
0	1339	1339	1334	1331	1361	1356	1350	1350	1338	1341	1357	1378	1398	1398	1400	1387	1363	1361	1374	1366	1366	1363	1367	1384	1404	1407	1392	1361	1361	1353	1354	1362	1377	1392	1379	1379	1382	1382	1397	1414	1411	1408	1391	1377	1371	1381	1386	1386	1399	1404	1408	1421	1420	1402	1382	1380	1383	1392	1405	1420	1417	1417	1409	1394	1392	1387	1380	1383	1391	1399	1406	1404	1403	1408	1412	1414	1409	1406	1399	1399	1401	1405	1411	1421	1421	1410	1399	1389	1408	1422	1431	1421	1410	1413	1423	1433	1431	1417	1400	1404	1407	1416	1436	1455	1463	1467	1464	1453	1443	1437	1433	1421	1431	1435	1438	1449	1454	1448	1443	1445	1447	1454	1457	1446	1442	1416	1405	1397	1396	1397	1411	1417	1425	1429	1430	1427	1431	1428	1434	1435	1439	1453	1465	1461	1462	1463	1460	1451	1441	1436	1435	1435	1441	1446	1442	1427	1428	1449	1465	1471	1462	1441	1435	1439	1447	1461	1464	1458	1434	1440	1435	1436	1429	1437	1444	1455	1457	1455	1441	1431	1415	1395	1364	1333	1393	1363	1324	1289	1218	1154	1094	1053	1019	985	970	959	964	961	922	910	918	925	924	917	912	919	937	951	950	942	937	934	942	948	951	960	970	973	971	967	964	963	964	953	950	954	959	964	960	959	964	976	990	1006	1010	1024	1044	1054	1057	1063	1069	1059	1037	0	0	0	0	0	0	0	0	0	0	0	0	0	0	0	0	1372	1449	1458	1463	1478	1485	1481	1479	1471	1465	1471	1475	1484	1487	1495	1520	1521	1518	1515	1511	1493	1480	1466	1478	1498	1514	1518	1515	1499	1485	1492	1520	1538	1526	1516	1512	1512	1511	1497	1498	1509	1508	1501	1497	1478	1515	1509	1501	1492	1502	1518	1540	1527	1519	1486	1480	1495	1504	1512	1529	1510	1505	1503	1495	1506	1506	1503	1509	1522	1514	1489	1506	1502	1500	1493	1488	1492	1500	1510	1518	1522	1535	1543	1536	1542	1553	1564	1561	1531	1536	1537	1536	1531	1528	1527	1525	1507	1500	1523	1537	1519	1525	1541	1549	1545	1539	1554	1560	1576	1551	1552	1545	1530	1531	1528	1519	1508	1507	1523	1524	1518	1520	1530	1536	1545	1545	1534	1530	1523	1517	1516	1516	1520	1526	1535	1540	1537	1532	1528	1524	1522	1513	1510	1500	1507	1511	1503	1501	1503	1509	1524	1543	1548	1526	0	0	0	0	0	0	0	0	0	0	0	0	0	0	884	891	877	883	899	937	973	998	1009	1013	1010	998	986	983	989	986	979	967	943	932	919	920	918	909	902	902	893	895	886	900	914	912	0	893	902	916	926	936	937	0	0	0	0	0	0	0	960	980	985	980	960	961	977	992	993	979	965	967	984	1011	1069	1283	1390	1462	1483	1434	1473	1505	1529	1537	1549	1552	1543	1542	1540	1550	1555	1555	1552	1555	1557	1559	1535	1538	1526	1523	1524	1536	1551	1572	1581	1581	1581	1586	1595	1596	1595	1592	1565	1557	1568	1566	1571	1569	1576	1568	1564	1566	1582	1610	1613	1590	1563	1525	1514	1516	1540	1558	1560	1565	1555	1547	1522	1505	1511	1519	1523	1527	1528	1550	1562	1568	1575	1558	1545	1535	1536	1534	1531	1545	1560	1588	1587	1576	1563	1553	1544	1535	1528	1539	1551	1551	1551	1559	1569	1559	1549	1531	1521	1522	1530	1533	1546	1564	1553	1542	1540	1533	1524	1526	1526	1532	1541	1553	1553	1552	1534	1517	1512	1513	1500	1488	1494	1509	1520	1538	1542	1547	1552	1552	1548	1541	1531	1534	1537	1531	1522	1499	1498	1510	1525	1525	1530	1531	1535	1540	0	0	0	0	0	0
0	0	0	0	1358	1395	1385	1369	1369	1366	1363	1367	1377	1391	1399	1399	1392	1386	1386	1388	1387	1387	1381	1385	1395	1402	1398	1387	1364	1364	1360	1366	1371	1383	1380	1376	1367	1373	1373	1386	1393	1402	1400	1392	1380	1375	1384	1389	1389	1393	1398	1407	1420	1426	1415	1400	1388	1386	1394	1411	1419	1424	1413	1413	1416	1419	1411	1398	1380	1377	1388	1397	1401	1402	1411	1413	1414	1411	1406	1405	1406	1402	1407	1409	1421	1427	1426	1417	1418	1424	1434	1445	1430	1420	1418	1421	1435	1434	1427	1411	1401	1402	1410	1435	1455	1466	1464	1454	1446	1436	1428	1419	1413	1416	1423	1442	1461	1453	1442	1435	1435	1442	1455	1463	1458	1447	1415	1400	1389	1393	1389	1391	1393	1426	1427	1435	1435	1446	1448	1443	1440	1439	1451	1464	1454	1458	1461	1456	1453	1452	1445	1443	1433	1435	1445	1434	1429	1423	1440	1462	1465	1462	1454	1442	1440	1446	1449	1452	1448	1444	1440	1440	1435	1432	1432	1435	1443	1445	1436	1410	1388	1357	1319	1290	1170	1092	1071	1042	1110	1088	1063	1030	1000	986	961	951	953	954	956	947	904	908	915	915	912	915	930	952	962	961	948	941	942	943	948	950	965	974	976	971	960	950	948	945	941	946	950	950	951	946	946	954	972	991	994	989	998	1020	1031	1031	1026	1027	1016	0	0	0	0	0	0	0	0	0	0	0	0	0	0	0	0	1344	1476	1471	1471	1474	1483	1478	1470	1463	1468	1465	1474	1485	1486	1487	1496	1512	1531	1537	1525	1517	1510	1501	1493	1491	1489	1511	1527	1536	1529	1517	1507	1495	1488	1486	1486	1487	1500	1490	1503	1490	1497	1500	1501	1494	1476	1513	1513	1507	1491	1499	1514	1524	1547	1559	1543	1512	1506	1500	1512	1498	1496	1497	1504	1500	1508	1512	1504	1509	1512	1509	1519	1496	1495	1502	1494	1490	1497	1502	1510	1493	1494	1518	1524	1536	1539	1550	1553	1532	1539	1541	1540	1535	1526	1523	1524	1520	1503	1518	1523	1544	1538	1541	1548	1553	1548	1539	1551	1579	1547	1542	1545	1531	1527	1524	1529	1506	1493	1497	1507	1508	1507	1515	1520	1538	1566	1562	1544	1531	1527	1521	1524	1516	1516	1521	1528	1541	1543	1545	1545	1544	1533	1527	1520	1523	1534	1540	1524	1509	1504	1521	1544	1561	1566	1563	1534	0	0	0	0	0	0	0	0	0	0	0	0	0	0	877	862	858	874	910	953	983	998	1005	1006	995	984	973	967	961	956	948	936	931	920	917	913	903	900	892	885	873	870	886	904	908	897	889	894	903	920	927	925	0	0	0	0	885	901	923	949	965	968	957	952	954	967	983	974	957	940	941	949	961	976	990	965	998	1069	1324	1396	1431	1456	1484	1519	1544	1556	1556	1571	1581	1583	1561	1553	1547	1538	1541	1513	1506	1512	1515	1522	1534	1551	1564	1578	1571	1574	1581	1586	1584	1584	1584	1574	1561	1564	1575	1574	1582	1579	1570	1564	1567	1579	1588	1599	1583	1568	1550	1536	1538	1572	1596	1588	1571	1565	1547	1528	1517	1533	1552	1553	1542	1543	1555	1542	1558	1559	1550	1537	1535	1543	1543	1540	1550	1574	1593	1590	1574	1548	1524	1506	1500	1512	1522	1534	1541	1548	1556	1558	1551	1534	1534	1524	1516	1512	1515	1520	1526	1523	1542	1535	1527	1526	1531	1531	1540	1538	1548	1561	1555	1536	1501	1492	1492	1493	1497	1503	1518	1525	1531	1532	1541	1556	1556	1566	1566	1548	1531	1523	1512	1497	1474	1481	1491	1510	1510	1531	1527	1534	1547	0	0	0	0	0	0
0	0	0	0	0	0	1411	1392	1392	1392	1387	1398	1399	1403	1398	1398	1391	1391	1394	1396	1396	1395	1395	1395	1400	1398	1391	1390	1382	1382	1387	1393	1394	1391	1380	1371	1365	1363	1363	1381	1393	1401	1396	1386	1380	1378	1376	1378	1392	1392	1394	1403	1422	1434	1428	1416	1398	1395	1403	1419	1426	1430	1430	1430	1436	1444	1435	1407	1379	1370	1370	1383	1389	1404	1424	1420	1412	1401	1403	1406	1414	1412	1406	1407	1417	1425	1426	1417	1413	1413	1422	1433	1433	1426	1418	1419	1430	1434	1434	1414	1405	1405	1408	1432	1448	1469	1464	1454	1438	1429	1421	1413	1410	1411	1423	1440	1453	1442	1431	1423	1425	1441	1452	1459	1453	1431	1405	1395	1393	1396	1398	1380	1387	1424	1413	1419	1447	1462	1465	1449	1443	1442	1453	1471	1471	1460	1449	1453	1464	1467	1463	1456	1450	1458	1464	1456	1445	1431	1436	1449	1461	1460	1454	1440	1432	1438	1438	1440	1443	1466	1466	1457	1444	1433	1425	1423	1423	1403	1387	1353	1315	1272	1217	1154	1000	998	999	1000	990	985	981	997	981	965	951	945	942	947	947	943	911	911	911	912	907	919	935	950	961	959	950	944	942	939	941	947	967	973	970	960	950	944	946	935	933	939	943	943	943	944	952	963	981	1002	1005	981	985	1003	1004	1000	989	974	0	0	0	0	0	0	0	0	0	0	0	0	0	0	0	0	1348	1490	1481	1473	1473	1478	1479	1471	1464	1458	1461	1463	1480	1485	1493	1489	1493	1514	1531	1538	1531	1518	1514	1507	1499	1490	1488	1504	1528	1531	1523	1513	1500	1489	1483	1475	1485	1484	1488	1489	1493	1485	1491	1493	1490	1490	1492	1497	1510	1499	1502	1505	1513	1516	1522	1559	1542	1521	1512	1500	1496	1495	1498	1503	1511	1519	1524	1519	1509	1503	1500	1508	1518	1525	1518	1508	1509	1511	1524	1522	1508	1501	1506	1503	1504	1506	1514	1529	1541	1549	1552	1546	1540	1531	1526	1521	1521	1515	1509	1503	1520	1523	1524	1524	1521	1517	1514	1506	1503	1516	1528	1534	1538	1521	1520	1525	1524	1503	1487	1481	1490	1503	1504	1502	1516	1536	1558	1560	1550	1537	1530	1535	1528	1524	1525	1529	1540	1547	1545	1552	1551	1552	1539	1531	1533	1540	1556	1564	1543	1527	1521	1541	1565	1575	1577	1572	1556	0	0	0	0	0	0	0	0	0	0	0	0	0	0	0	873	851	868	901	937	966	982	986	988	980	976	959	946	936	935	939	940	937	930	925	917	910	898	889	875	857	855	877	898	908	896	891	890	896	0	0	912	892	872	858	857	867	890	913	929	946	949	953	949	954	967	975	970	946	929	923	928	929	929	932	937	956	991	1083	1140	1283	1346	1368	1439	1494	1542	1567	1587	1611	1601	1577	1558	1545	1532	1509	1499	1501	1506	1522	1528	1537	1550	1561	1577	1579	1573	1561	1562	1565	1569	1576	1575	1560	1557	1568	1576	1576	1574	1569	1565	1560	1563	1566	1568	1578	1579	1566	1561	1565	1589	1614	1606	1581	1562	1544	1535	1532	1556	1575	1585	1577	1564	1563	1542	1538	1537	1542	1542	1541	1549	1557	1561	1567	1581	1599	1583	1558	1532	1510	1492	1486	1497	1509	1523	1536	1553	1554	1549	1532	1527	1523	1521	1510	1500	1495	1508	1509	1507	1503	1507	1521	1527	1527	1533	1539	1547	1539	1551	1552	1541	1524	1483	1477	1491	1515	1539	1544	1527	1514	1518	1532	1532	1541	1556	1552	1545	1534	1524	1510	1487	1471	1468	1486	1486	1505	1514	1522	1525	1547	0	0	0	0	0	0
0	0	0	0	0	0	1412	1400	1399	1399	1405	1419	1430	1424	1404	1404	1398	1392	1394	1388	1389	1393	1393	1399	1399	1395	1390	1390	1394	1399	1399	1403	1399	1389	1381	1375	1364	1366	1366	1388	1401	1401	1403	1394	1381	1380	1378	1375	1386	1386	1399	1416	1432	1438	1444	1430	1415	1405	1409	1416	1422	1427	1429	1429	1437	1442	1430	1405	1385	1372	1366	1373	1400	1428	1433	1424	1411	1396	1397	1407	1409	1413	1407	1407	1412	1420	1426	1417	1403	1395	1394	1422	1426	1426	1414	1409	1414	1425	1429	1419	1418	1411	1412	1426	1450	1463	1464	1452	1445	1438	1439	1422	1411	1411	1410	1425	1439	1436	1419	1422	1425	1443	1449	1457	1444	1422	1402	1389	1390	1396	1398	1401	1405	1432	1417	1422	1445	1474	1470	1458	1446	1446	1454	1469	1471	1454	1440	1447	1458	1470	1474	1469	1464	1478	1480	1473	1458	1444	1442	1445	1451	1451	1454	1444	1435	1430	1433	1434	1442	1483	1486	1477	1459	1435	1403	1379	1366	1344	1312	1271	1216	1159	1091	1010	964	960	971	980	972	970	970	970	966	957	945	934	933	938	946	944	921	915	912	911	914	925	934	944	953	953	948	944	937	938	938	942	954	966	954	938	933	935	942	939	935	934	939	939	944	957	973	985	998	1018	1019	999	992	989	980	967	950	0	0	0	0	0	0	0	0	0	0	0	0	0	0	0	0	0	1300	1487	1484	1473	1478	1480	1475	1468	1460	1458	1471	1484	1487	1492	1491	1506	1511	1524	1536	1549	1546	1521	1503	1513	1505	1495	1492	1512	1523	1513	1503	1494	1473	1480	1503	1527	1542	1545	1540	1523	1521	1513	1503	1498	1499	1502	1496	1491	1493	1504	1513	1512	1509	1508	1515	1526	1530	1523	1515	1503	1495	1497	1504	1521	1526	1523	1528	1520	1511	1505	1499	1497	1505	1507	1508	1519	1520	1522	1517	1512	1502	1509	1518	1519	1522	1514	1510	1526	1544	1556	1562	1555	1540	1527	1527	1527	1523	1511	1505	1514	1519	1517	1517	1517	1517	1516	1511	1502	1500	1508	1519	1512	1505	1507	1514	1528	1534	1512	1492	1487	1484	1503	1511	1519	1529	1531	1541	1543	1536	1534	1531	1533	1534	1530	1537	1546	1552	1555	1548	1545	1544	1543	1530	1525	1529	1535	1559	1574	1563	1542	1535	1549	1566	1569	1563	1557	1542	1520	0	0	0	0	0	0	0	0	0	0	0	0	0	0	0	0	0	898	929	947	957	961	964	965	968	950	933	921	922	939	948	947	938	933	922	914	900	889	872	860	860	878	898	908	898	898	891	0	0	0	0	873	853	838	836	856	883	904	922	934	937	945	943	947	957	968	968	949	952	948	937	939	942	934	936	940	956	984	1003	1077	1138	1238	1325	1391	1480	1520	1562	1585	1585	1579	1567	1547	1529	1492	1497	1495	1511	1527	1531	1536	1547	1565	1572	1581	1568	1546	1527	1522	1537	1559	1566	1549	1550	1554	1559	1562	1565	1568	1564	1549	1547	1557	1557	1572	1579	1576	1575	1581	1601	1612	1603	1577	1565	1547	1544	1551	1575	1588	1603	1591	1574	1565	1557	1552	1549	1539	1539	1539	1558	1563	1578	1584	1605	1605	1587	1545	1517	1500	1493	1492	1496	1509	1521	1541	1559	1562	1544	1530	1520	1521	1518	1499	1489	1492	0	0	1501	1500	1515	1525	1532	1526	1530	1536	1535	1530	1540	1539	1535	1533	1514	1498	1509	1528	1541	1545	1533	1515	1510	1521	1521	1526	1533	1532	1534	1532	1528	1526	1513	1518	1514	1509	1509	1508	1505	1507	0	0	0	0	0	0	0	0
0	0	0	0	0	1398	1394	1386	1387	1387	1404	1435	1446	1436	1410	1410	1384	1390	1384	1386	1388	1393	1393	1399	1394	1395	1387	1385	1389	1396	1396	1391	1390	1389	1389	1380	1370	1377	1394	1394	1407	1412	1398	1395	1391	1383	1390	1388	1390	1390	1404	1420	1437	1443	1445	1441	1419	1407	1402	1415	1421	1426	1420	1424	1424	1426	1416	1401	1393	1386	1403	1406	1417	1436	1438	1423	1410	1389	1387	1396	1407	1411	1409	1408	1412	1412	1424	1414	1405	1394	1384	1399	1426	1428	1414	1405	1404	1409	1419	1422	1426	1419	1406	1419	1437	1458	1464	1459	1456	1449	1445	1436	1420	1407	1407	1414	1424	1428	1424	1432	1436	1443	1443	1443	1438	1420	1402	1388	1385	1394	1410	1427	1436	1446	1438	1439	1454	1467	1471	1451	1438	1436	1440	1446	1444	1440	1437	1443	1461	1461	1463	1466	1474	1479	1477	1470	1454	1444	1438	1442	1442	1449	1452	1444	1436	1427	1426	1428	1430	1472	1480	1472	1444	1409	1357	1324	1297	1257	1201	1125	1067	1025	988	962	943	953	966	971	966	960	959	964	969	963	956	946	946	946	956	961	948	939	930	930	931	938	942	944	949	948	940	935	934	937	940	944	954	949	933	918	911	926	939	951	943	938	942	952	970	979	996	1007	1017	1023	1033	1021	1004	0	0	0	0	0	0	0	0	0	0	0	0	0	0	0	0	0	0	0	0	1276	1459	1476	1481	1479	1485	1483	1475	1465	1462	1465	1469	1488	1498	1503	1502	1501	1508	1514	1526	1538	1535	1516	1511	1514	1512	1493	1486	1489	1508	1509	1498	1487	1475	1486	1502	1529	1540	1543	1533	1523	1520	1511	1506	1494	1509	1506	1495	1486	1490	1507	1516	1513	1505	1504	1515	1527	1527	1517	1509	1509	1501	1509	1527	1537	1538	1534	1530	1520	1514	1509	1502	1497	1497	1509	1507	1517	1519	1524	1520	1513	1502	1509	1520	1528	1524	1516	1510	1521	1538	1556	1566	1552	1532	1532	1544	1544	1533	1516	1513	1509	1512	1514	1520	1515	1512	1501	1495	1498	1500	1499	1503	1493	1492	1506	1518	1532	1542	1524	1505	1493	1493	1509	1513	1525	1531	1531	1526	1528	1520	1517	1519	1531	1536	1532	1538	1545	1547	1542	1545	1536	1539	1533	1525	1518	1514	1527	1542	1558	1553	1550	1542	1544	1558	1548	1543	1532	1517	1507	1483	0	0	0	0	0	0	0	0	0	0	0	0	0	0	0	0	0	916	925	925	928	935	952	962	943	928	919	926	937	942	941	941	930	920	911	903	894	879	869	867	879	891	900	898	896	0	0	0	0	0	861	849	839	841	858	882	899	919	925	932	937	941	945	953	965	981	988	981	989	974	959	955	953	942	937	939	943	963	989	1040	1095	1136	1263	1321	1390	1452	1491	1519	1537	1548	1532	1519	1488	1485	1495	1513	1528	1531	1539	1552	1568	1577	1567	1559	1533	1500	1487	1489	1506	1541	1548	1540	1540	1536	1548	1548	1565	1579	1572	1564	1556	1553	1562	1557	1563	1567	1576	1595	1604	1602	1583	1563	1556	1551	1570	1588	1598	1595	1595	1579	1590	1586	1575	1555	1538	1528	1527	1548	1564	1600	0	0	0	0	0	0	0	0	0	0	0	0	0	0	0	0	0	0	0	0	0	0	0	0	0	0	0	0	0	0	0	1522	1527	1516	1509	1516	1513	1504	1500	1509	1520	1528	1533	1551	0	0	0	0	1522	1522	1523	0	0	0	0	0	0	0	0	0	0	0	0	0	0	0	0	0	0	0	0	0	0
0	0	0	0	0	1387	1379	1368	1375	1375	1398	1427	1452	1440	1409	1387	1387	1380	1381	1380	1383	1383	1383	1392	1389	1372	1380	1377	1377	1381	1381	1382	1379	1396	1404	1394	1379	1375	1383	1383	1400	1398	1397	1391	1395	1399	1407	1395	1392	1407	1407	1424	1437	1439	1435	1431	1421	1409	1388	1396	1405	1407	1407	1409	1409	1406	1397	1395	1399	1402	1403	1408	1420	1432	1437	1418	1403	1383	1377	1381	1396	1406	1411	1411	1415	1409	1411	1411	1415	1404	1400	1402	1412	1429	1417	1401	1406	1410	1415	1423	1421	1422	1408	1408	1423	1447	1455	1448	1444	1446	1437	1426	1425	1424	1418	1414	1416	1423	1426	1442	1446	1440	1433	1431	1423	1417	1402	1393	1394	1408	1426	1448	1462	1457	1449	1448	1458	1462	1459	1445	1436	1423	1424	1431	1431	1432	1437	1441	1444	1439	1440	1442	1455	1468	1464	1454	1444	1443	1444	1435	1429	1433	1442	1447	1442	1433	1426	1420	1418	1434	1429	1409	1367	1330	1285	1239	1197	1066	1008	991	981	959	940	933	931	954	964	971	962	951	945	956	967	972	965	955	954	966	977	981	974	952	939	929	937	946	948	944	939	933	929	918	920	926	935	934	948	932	916	907	903	924	939	949	950	944	948	962	978	993	1012	1018	1018	1016	1019	1020	0	0	0	0	0	0	0	0	0	0	0	918	918	0	0	0	0	0	0	0	1446	1433	1466	1473	1481	1481	1488	1485	1477	1466	1460	1457	1472	1493	1504	1514	1509	1500	1499	1507	1516	1517	1515	1511	1501	1506	1507	1498	1487	1489	1494	1499	1496	1481	1476	1488	1508	1531	1541	1542	1529	1516	1517	1510	1503	1508	1513	1506	1493	1483	1488	1510	1522	1516	1505	1502	1514	1522	1521	1507	1486	1474	1476	1482	1502	1510	1512	1517	1520	1526	1527	1527	1525	1511	1513	1513	1524	1533	1544	1557	1565	1565	1551	1536	1530	1542	1551	1560	1560	1549	1540	1545	1553	1554	1560	1564	1555	1545	1533	1521	1518	1521	1528	1540	1528	1515	1502	1490	1481	1482	1485	1492	1501	1507	1506	1512	1522	1540	1554	1527	1519	1506	1498	1503	1511	1515	1519	1526	1528	1520	1511	1513	1518	1538	1543	1535	1534	1532	1536	1536	1533	1533	1528	1528	1523	1515	1510	1516	1523	1537	1541	1549	1540	1540	1540	1531	1518	1508	1502	1489	0	0	0	0	0	0	0	0	0	0	0	0	0	0	0	0	0	0	0	890	885	889	904	928	939	929	920	915	922	929	933	928	919	910	904	895	895	898	889	884	877	878	0	0	884	879	0	0	0	0	0	853	847	842	848	855	870	888	903	915	923	926	935	943	950	967	983	999	1006	1009	999	984	972	958	945	929	919	920	929	944	968	1001	1039	1069	1154	1218	1281	1327	1368	1439	1467	1499	1508	1522	1520	1487	1494	1506	1525	1544	1559	1576	1579	1570	1554	1512	1464	1456	1468	1499	1525	1553	1545	1538	1523	1516	1527	1562	1598	1614	1583	1556	1537	1529	1523	0	0	0	0	0	0	0	0	0	0	0	0	0	0	0	0	0	0	0	0	0	1513	1513	1527	0	0	0	0	0	0	0	0	0	0	0	0	0	0	0	0	0	0	0	0	0	0	0	0	0	0	0	0	0	0	0	0	0	0	0	0	0	1498	1486	1473	1477	1496	1519	1526	1533	1548	0	0	0	0	0	1529	1530	0	0	0	0	0	0	0	0	0	0	0	0	0	0	0	0	0	0	0	0	0	0
0	1408	1399	1391	1391	1381	1374	1371	1374	1387	1387	1422	1449	1437	1410	1388	1388	1377	1379	1382	1380	1381	1384	1384	1377	1361	1371	1366	1364	1368	1368	1372	1397	1405	1410	1391	1381	1375	1378	1378	1376	1385	1385	1391	1402	1405	1409	1403	1401	1404	1404	1424	1437	1428	1418	1413	1420	1418	1403	1393	1394	1403	1409	1401	1403	1403	1395	1395	1401	1394	1389	1395	1416	1433	1431	1409	1393	1376	1362	1368	1387	1400	1405	1404	1406	1413	1421	1429	1435	1429	1424	1418	1422	1420	1411	1407	1412	1419	1422	1423	1419	1420	1415	1411	1421	1431	1437	1439	1426	1422	1422	1418	1419	1429	1434	1426	1412	1414	1417	1435	1446	1447	1432	1425	1414	1413	1410	1409	1412	1421	1436	1440	1446	1449	1449	1454	1452	1455	1454	1440	1435	1429	1429	1428	1433	1435	1437	1430	1422	1413	1420	1432	1429	1450	1451	1450	1440	1441	1447	1438	1432	1428	1434	1449	1449	1442	1422	1412	1389	1371	1325	1294	1250	1199	1135	1059	1000	970	942	930	927	927	929	925	925	947	957	959	948	936	927	931	957	977	977	971	962	960	963	962	959	928	928	926	936	946	945	934	925	913	901	895	896	907	920	931	939	922	910	904	911	922	938	947	947	945	952	967	982	1003	1017	1021	1019	1008	1004	1006	0	0	0	0	0	0	0	0	0	0	0	929	926	0	0	0	0	0	0	1437	1466	1469	1479	1475	1479	1483	1485	1485	1480	1466	1456	1459	1472	1489	1501	1505	1502	1502	1499	1498	1495	1498	1491	1493	1492	1496	1504	1504	1497	1486	1496	1490	1482	1483	1493	1517	1530	1521	1505	1489	1485	1486	1511	1530	1515	1504	1494	1483	1475	1474	1488	1509	1518	1521	1519	1517	1518	1524	1524	1517	1508	1483	1473	1481	1494	1498	1499	1506	1511	1514	1517	1526	1527	1522	1518	1510	1525	1528	1536	1551	1566	1567	1558	1538	1534	1538	1549	1563	1564	1556	1541	1530	1535	1545	1554	1557	1548	1545	1533	1524	1520	1538	1546	1545	1537	1513	1495	1481	1475	1474	1476	1491	1507	1512	1519	1520	1520	1540	1531	1518	1508	1495	1491	1497	1500	1499	1514	1527	1532	1523	1506	1510	1526	1552	1550	1537	1527	1523	1530	1533	1533	1531	1524	1522	1527	1533	1545	1542	1540	1539	1534	1531	1528	1541	1543	1520	1507	1495	1482	1487	0	0	0	0	0	0	0	0	0	0	0	0	0	0	0	0	0	0	0	0	854	857	877	899	900	899	902	913	921	919	908	902	894	888	882	888	890	892	887	888	887	883	0	0	864	856	855	0	0	0	0	855	852	845	844	850	852	864	878	892	885	896	910	918	935	951	973	991	1004	1002	999	990	971	951	933	912	887	887	899	911	922	938	961	986	1007	1053	1100	1148	1180	1241	1320	1433	1481	1547	1534	1503	1495	1505	1524	1552	1571	1580	1588	1581	1560	1518	1482	1462	1482	1510	1543	1552	1541	1534	1520	1506	1516	1542	1582	1609	1565	1530	1518	1510	1507	0	0	0	0	0	0	0	0	0	0	0	0	0	0	1551	1541	0	0	0	0	0	1524	1521	1530	1554	1557	1568	1557	1554	1553	1533	1542	0	0	0	0	0	1554	1547	1542	1556	1567	1565	1553	1548	1555	1552	1551	1560	1559	1560	1569	1568	1573	1573	1568	1559	1540	1540	1537	0	1510	1486	1470	1474	1492	1515	1518	1524	1530	1549	1550	1559	1555	1555	1548	1548	1538	1527	1514	1519	1550	1560	1562	1555	1545	1545	1529	1530	1523	1523	1540	1550	0	0	0	0	0	0
0	1394	1389	1387	1387	1381	1378	1379	1373	1382	1382	1401	1418	1422	1405	1396	1396	1392	1391	1382	1378	1383	1385	1385	1386	1369	1365	1368	1370	1377	1388	1388	1404	1396	1391	1385	1379	1376	1374	1372	1372	1376	1386	1399	1405	1409	1412	1409	1400	1409	1409	1417	1421	1406	1397	1393	1411	1425	1424	1414	1404	1414	1420	1413	1412	1412	1400	1413	1406	1395	1392	1394	1411	1427	1425	1396	1386	1368	1357	1360	1375	1386	1395	1400	1402	1410	1418	1439	1455	1454	1449	1440	1427	1417	1407	1408	1421	1430	1435	1431	1425	1426	1420	1416	1414	1418	1420	1424	1416	1416	1414	1414	1422	1435	1433	1428	1409	1403	1421	1438	1455	1455	1442	1426	1414	1409	1414	1410	1419	1422	1427	1430	1424	1433	1440	1445	1445	1449	1445	1443	1438	1432	1428	1436	1436	1445	1439	1426	1410	1404	1400	1406	1405	1450	1451	1449	1440	1450	1452	1447	1436	1425	1427	1441	1440	1425	1401	1383	1333	1291	1195	1146	1086	1023	995	972	947	929	911	901	908	916	922	920	920	930	939	936	926	911	904	914	925	969	976	976	968	956	946	934	931	925	922	924	933	936	930	911	895	881	871	875	883	899	910	925	935	932	910	911	919	936	944	948	947	940	943	959	977	996	1012	1017	1013	1008	994	0	0	0	0	0	0	0	0	0	0	0	0	931	926	0	0	0	0	0	1430	1461	1469	1466	1487	1497	1501	1481	1479	1489	1481	1470	1464	1466	1474	1485	1493	1493	1498	1498	1493	1487	1478	1477	1478	1478	1485	1495	1501	1502	1493	1494	1503	1492	1481	1482	1495	1513	1531	1521	1504	1490	1482	1486	1508	1527	1512	1506	1499	1492	1490	1486	1496	1508	1525	1530	1529	1522	1523	1530	1529	1528	1523	1505	1480	1487	1493	1493	1491	1493	1500	1507	1516	1524	1532	1533	1523	1519	1523	1521	1526	1544	1558	1562	1558	1544	1532	1538	1545	1559	1569	1556	1539	1521	1513	1517	1526	1531	1534	1532	1528	1535	1547	1547	1547	1537	1530	1523	1527	1549	1552	1522	1503	1501	1510	1513	1514	1510	1505	1499	1487	1474	1465	1482	1491	1495	1490	1498	1507	1521	1533	1539	1545	1556	1563	1560	1541	1519	1512	1519	1555	1570	1568	1550	1529	1527	1538	1545	1550	1566	1565	1553	1535	1534	1546	1567	1565	1560	1551	1539	1526	1518	1504	0	0	0	0	0	0	0	0	0	0	0	0	0	0	0	0	0	0	0	0	840	852	866	859	859	873	894	901	897	888	882	875	867	867	871	875	870	871	873	876	875	868	851	837	829	830	835	844	844	853	855	852	845	842	842	836	828	826	837	865	879	893	903	915	920	930	946	961	974	980	963	950	929	911	894	877	881	886	884	886	895	908	921	934	944	968	993	1017	1044	1131	1206	1324	1519	1515	1511	1502	1511	1532	1558	1577	1585	1586	1574	1551	1529	1518	1508	1523	1545	1554	1540	1545	1536	1529	1509	1507	1514	1537	1543	1529	1510	1500	1498	1504	1514	1533	1546	1542	1524	1525	1526	1528	1533	1549	1562	1564	1561	1553	1526	1508	1514	1544	1561	1561	1553	1547	1548	1555	1569	1575	1566	1551	1545	1540	1543	1541	1550	1594	1591	1574	1545	1510	1497	1502	1518	1540	1559	1565	1562	1559	1556	1554	1556	1556	1567	1572	1580	1585	1585	1572	1553	1535	1526	1529	1528	1509	1489	1483	1494	1504	1505	1505	1502	1514	1536	1551	1565	1565	1565	1566	1546	1525	1503	1497	1504	1516	1536	1531	1518	1509	1509	1516	1517	1516	1513	1521	1537	0	0	0	0	0	0
0	1401	1398	1396	1396	1391	1396	1387	1382	1384	1384	1386	1395	1408	1408	1412	1412	1416	1401	1383	1379	1385	1400	1400	1399	1387	1375	1379	1388	1396	1402	1402	1404	1393	1382	1381	1377	1377	1379	1378	1378	1384	1396	1410	1414	1413	1409	1405	1399	1402	1401	1401	1393	1377	1368	1371	1394	1414	1419	1419	1423	1422	1423	1418	1412	1414	1415	1422	1413	1402	1397	1405	1416	1427	1422	1397	1384	1368	1356	1360	1371	1389	1395	1401	1405	1417	1426	1446	1461	1470	1462	1454	1435	1416	1410	1414	1434	1447	1441	1426	1428	1424	1420	1417	1408	1402	1406	1415	1410	1421	1419	1422	1425	1424	1423	1418	1414	1412	1421	1444	1465	1468	1450	1436	1423	1415	1416	1417	1432	1434	1430	1415	1421	1422	1426	1423	1429	1430	1433	1437	1431	1436	1433	1440	1449	1454	1446	1430	1422	1406	1401	1399	1418	1459	1462	1457	1450	1452	1460	1458	1441	1431	1422	1411	1392	1363	1332	1293	1262	1192	1050	987	953	946	944	939	931	912	893	890	893	903	906	909	911	913	921	915	910	899	894	892	905	919	952	971	965	953	936	910	904	913	916	916	906	894	876	886	869	855	852	866	881	900	918	929	935	933	918	916	924	940	957	954	945	932	933	951	966	986	1000	1003	993	0	0	0	0	0	0	0	0	0	0	0	0	0	0	0	927	949	0	0	1202	1416	1449	1463	1465	1464	1489	1506	1508	1482	1479	1486	1484	1474	1472	1479	1481	1484	1483	1486	1488	1488	1481	1479	1467	1465	1464	1473	1492	1501	1507	1507	1493	1496	1508	1495	1483	1483	1494	1510	1521	1519	1509	1495	1485	1493	1513	1521	1502	1498	1502	1508	1522	1522	1523	1529	1544	1553	1546	1542	1533	1522	1511	1510	1515	1506	1493	1482	1487	1511	1518	1501	1482	1467	1467	1494	1522	1534	1520	1503	1496	1497	1491	1488	1488	1497	1517	1538	1544	1543	1538	1546	1557	1570	1565	1553	1538	1526	1534	1554	1565	1572	1567	1551	1542	1534	1527	1512	1499	1518	1552	1576	1587	1599	1571	1540	1522	1517	1517	1516	1509	1497	1486	1472	1479	1493	1500	1502	1511	1501	1504	1506	1520	1525	1527	1540	1552	1544	1521	1507	1509	1525	1550	1576	1573	1557	1546	1545	1545	1552	1557	1574	1574	1561	1542	1525	1540	1560	1575	1574	1557	1551	1562	1535	1524	1509	0	0	0	0	0	0	0	0	0	0	0	0	0	0	0	0	0	0	0	0	822	846	844	849	860	873	870	867	866	865	859	856	854	854	853	843	841	844	850	854	851	829	817	817	809	819	834	844	851	854	850	840	831	820	828	821	820	822	842	862	881	894	892	893	885	892	909	925	939	941	924	908	898	886	886	889	879	869	863	868	885	889	889	891	894	892	889	905	959	1022	1165	1239	1326	1405	1474	1510	1535	1549	1570	1564	1574	1570	1547	1531	1523	1526	1543	1565	1566	1552	1552	1547	1541	1520	1505	1513	1524	1543	1532	1514	1511	1508	1522	1545	1550	1547	1536	1532	1524	1529	1536	1530	1528	1534	1548	1553	1544	1527	1509	1515	1547	1563	1563	1548	1539	1549	1556	1570	1584	1575	1560	1548	1529	1535	1541	1559	1561	1567	1554	1513	1491	1486	1492	1510	1538	1552	1559	1555	1554	1558	1547	1553	1560	1561	1569	1581	1581	1590	1581	1552	1526	1517	1520	1527	1528	1509	1503	1505	1512	1506	1505	1502	1518	1531	1543	1549	1549	1557	1559	1529	1507	1495	1495	1501	1515	1523	1506	1495	1495	1496	1513	1515	1504	1500	1502	1530	0	0	0	0	0	0
0	1403	1406	1402	1407	1407	1415	1408	1389	1376	1376	1379	1379	1395	1409	1419	1429	1429	1416	1383	1377	1393	1410	1406	1406	1388	1371	1374	1394	1411	1414	1414	1405	1393	1386	1388	1389	1388	1383	1384	1384	1400	1422	1428	1434	1417	1399	1382	1384	1384	1377	1377	1369	1367	1356	1358	1369	1395	1410	1414	1418	1423	1419	1411	1409	1410	1410	1420	1423	1419	1415	1415	1428	1434	1430	1412	1404	1402	1395	1381	1385	1396	1402	1404	1423	1424	1430	1446	1462	1472	1483	1481	1455	1423	1418	1423	1439	1450	1443	1437	1431	1424	1413	1401	1391	1387	1395	1408	1426	1433	1432	1425	1423	1417	1415	1416	1415	1416	1425	1443	1453	1457	1454	1434	1421	1416	1424	1429	1434	1436	1422	1423	1424	1426	1420	1419	1425	1430	1430	1434	1432	1438	1436	1441	1450	1454	1453	1443	1435	1419	1412	1417	1439	1475	1478	1469	1462	1463	1460	1452	1441	1421	1397	1360	1313	1267	1212	1147	1059	1007	937	912	908	911	914	913	908	898	890	884	884	882	886	894	905	912	913	906	896	891	882	878	878	884	902	935	954	942	914	890	886	895	903	888	873	852	848	840	845	848	852	864	882	902	922	926	928	925	908	912	923	945	964	958	941	924	924	942	956	970	983	970	0	0	0	0	0	0	0	0	0	0	0	0	0	0	0	0	932	976	1054	1156	1351	1424	1446	1456	1454	1448	1464	1486	1496	1482	1464	1469	1471	1470	1465	1479	1484	1478	1483	1480	1478	1473	1473	1472	1459	1462	1460	1481	1513	1522	1522	1518	1515	1517	1538	1552	1541	1519	1489	1485	1491	1493	1493	1481	1488	1508	1523	1526	1524	1531	1527	1520	1527	1538	1533	1540	1533	1523	1522	1528	1523	1516	1490	1477	1482	1493	1497	1490	1488	1503	1509	1503	1491	1503	1520	1544	1544	1533	1522	1499	1491	1491	1485	1480	1483	1492	1512	1536	1541	1536	1535	1532	1545	1557	1562	1560	1546	1533	1538	1548	1566	1574	1559	1537	1523	1510	1501	1491	1488	1506	1546	1570	1578	1600	1572	1542	1525	1520	1520	1522	1527	1510	1503	1500	1502	1510	1516	1512	1509	1509	1496	1498	1497	1507	1513	1503	1495	1499	1504	1502	1512	1530	1556	1568	1572	1566	1566	1566	1563	1562	1563	1568	1573	1563	1529	1523	1534	1547	1552	1527	1533	1545	1558	1557	1544	1520	1507	0	0	0	0	0	0	0	0	0	0	0	0	0	0	0	0	0	0	0	0	838	844	850	852	849	840	838	843	851	853	844	842	839	833	820	812	812	817	823	814	806	802	804	801	801	813	824	832	838	798	794	803	815	820	822	813	811	829	846	864	876	872	863	854	856	865	882	896	897	892	882	889	892	892	889	879	861	853	859	870	870	869	866	860	839	825	834	869	910	1025	1110	1213	1303	1386	1472	1516	1545	1557	1558	1565	1565	1544	1523	1518	1528	1548	1568	1579	1560	1556	1554	1550	1531	1506	1512	1529	1541	1540	1538	1520	1535	1559	1575	1565	1556	1551	1542	1537	1536	1535	1528	1532	1533	1541	1537	1527	1518	1510	1521	1545	1564	1564	1540	1531	1544	1557	1567	1579	1581	1566	1548	1529	1512	1532	1550	1549	1545	1524	1508	1499	1514	1513	1515	0	0	0	1513	1521	0	0	0	0	0	0	0	0	0	0	0	0	0	0	0	0	0	1509	1508	1509	1510	1508	1510	1520	1520	1518	1522	1522	0	0	0	0	0	0	0	0	0	0	0	0	0	0	0	0	0	0	0	0	0	0	0	0	0
0	1397	1399	1404	1414	1414	1422	1418	1391	1380	1376	1376	1379	1392	1403	1412	1413	1413	1402	1377	1373	1395	1411	1399	1399	1378	1356	1370	1392	1408	1412	1402	1402	1395	1396	1404	1400	1401	1398	1407	1418	1418	1434	1435	1423	1405	1384	1372	1372	1372	1368	1368	1369	1367	1366	1366	1371	1384	1391	1398	1398	1407	1405	1397	1390	1403	1417	1417	1427	1421	1422	1430	1440	1445	1438	1421	1418	1417	1422	1416	1407	1407	1418	1427	1428	1425	1427	1436	1451	1470	1480	1481	1457	1433	1427	1429	1440	1439	1445	1432	1425	1417	1412	1394	1380	1376	1389	1406	1429	1439	1442	1430	1420	1416	1415	1416	1415	1406	1411	1434	1447	1447	1446	1429	1419	1425	1425	1430	1426	1423	1425	1427	1430	1417	1419	1419	1428	1435	1439	1445	1440	1434	1438	1436	1441	1451	1455	1451	1443	1431	1424	1430	1445	1468	1474	1470	1468	1458	1436	1416	1412	1355	1312	1267	1215	1128	1055	1006	969	932	894	881	883	893	895	892	884	888	888	880	871	868	873	885	901	915	912	899	881	869	863	857	864	869	878	885	904	907	894	882	879	886	885	872	852	841	832	839	838	850	861	867	876	890	908	911	911	909	898	905	926	955	972	964	935	918	912	922	929	938	0	0	0	0	0	0	0	0	0	0	0	0	0	0	0	0	0	0	962	1028	1129	1249	1385	1449	1464	1463	1460	1455	1468	1481	1495	1505	1502	1491	1485	1484	1481	1482	1478	1487	1500	1509	1509	1492	1485	1484	1482	1483	1499	1528	1539	1541	1537	1526	1519	1519	1526	1540	1540	1519	1504	1500	1501	1497	1485	1475	1486	1506	1517	1525	1530	1542	1535	1531	1529	1535	1536	1532	1526	1523	1518	1514	1515	1497	1480	1480	1483	1495	1501	1500	1499	1498	1499	1499	1508	1525	1548	1560	1562	1548	1528	1507	1500	1497	1503	1491	1479	1480	1488	1519	1532	1527	1521	1520	1522	1533	1547	1548	1538	1521	1517	1520	1530	1536	1526	1509	1502	1497	1487	1483	1491	1509	1511	1524	1538	1542	1533	1511	1502	1496	1503	1500	1507	1511	1516	1537	1547	1535	1509	1495	1486	1494	1498	1502	1523	1541	1543	1521	1495	1494	1510	1526	1540	1547	1559	1566	1564	1571	1574	1574	1572	1559	1563	1569	1561	1554	1541	1534	1555	1560	1555	1538	1539	1543	1559	1558	1545	1538	1522	0	0	0	0	0	0	0	0	0	0	0	0	0	0	0	0	0	0	0	0	847	861	864	853	833	824	823	832	847	848	840	833	828	818	800	789	785	786	784	782	791	791	793	795	793	792	796	774	775	779	778	786	800	817	817	808	804	816	828	837	843	848	841	834	836	846	851	855	857	857	864	876	892	890	886	869	851	847	854	862	862	858	853	844	820	798	798	808	831	908	975	1095	1186	1284	1366	1380	1453	1502	1525	1546	1548	1539	1520	1505	1508	1528	1526	1516	1527	1530	1546	0	0	0	0	0	1565	1558	1551	1562	0	0	0	0	0	0	0	0	0	0	0	0	0	0	0	0	0	0	0	0	0	0	0	0	0	0	0	0	0	0	0	0	0	0	0	0	0	0	0	0	0	0	0	0	0	0	0	0	0	0	0	0	0	0	0	0	0	0	0	0	0	0	0	0	0	0	0	0	0	0	0	0	0	0	0	0	0	0	0	0	0	0	0	0	0	0	0	0	0	0	0	0	0	0	0	0	0	0	0	0	0
0	1388	1391	1398	1406	1406	1406	1409	1392	1376	1373	1373	1377	1386	1396	1405	1399	1399	1389	1366	1367	1395	1411	1405	1405	1373	1361	1365	1383	1393	1403	1403	1403	1397	1399	1413	1421	1417	1421	1417	1427	1427	1433	1432	1416	1400	1382	1369	1369	1371	1368	1373	1373	1383	1380	1376	1372	1376	1378	1383	1391	1393	1391	1384	1393	1404	1412	1412	1424	1423	1428	1430	1440	1447	1442	1424	1406	1414	1420	1421	1413	1411	1418	1427	1427	1421	1423	1425	1441	1449	1463	1450	1440	1432	1431	1429	1435	1430	1425	1420	1420	1417	1411	1399	1387	1384	1393	1410	1420	1429	1434	1431	1422	1424	1422	1414	1409	1406	1419	1430	1440	1437	1433	1417	1410	1413	1412	1410	1412	1417	1428	1432	1426	1407	1404	1413	1420	1439	1449	1459	1442	1438	1426	1420	1430	1439	1456	1459	1449	1439	1437	1437	1440	1447	1445	1449	1436	1393	1349	1320	1286	1189	1149	1093	1027	977	947	935	918	906	888	864	873	880	882	878	874	881	887	885	878	874	880	887	895	904	895	878	860	847	837	839	851	858	865	864	867	875	881	877	876	879	883	880	866	850	843	843	850	860	864	870	875	885	893	898	897	894	892	900	939	983	989	966	936	907	889	885	889	0	0	0	0	0	0	0	0	0	0	0	0	0	0	0	0	0	0	936	1008	1097	1204	1341	1448	1486	1493	1491	1476	1472	1471	1484	1505	1514	1519	1511	1499	1487	1486	1485	1492	1507	1513	1519	1521	1500	1474	1482	1484	1493	1511	1529	1548	1542	1538	1527	1521	1515	1513	1516	1527	1533	1528	1511	1504	1488	1470	1469	1482	1508	1516	1530	1533	1544	1554	1546	1536	1527	1529	1531	1536	1530	1522	1513	1507	1506	1506	1511	1517	1512	1526	1521	1514	1503	1503	1510	1519	1535	1548	1559	1559	1552	1534	1527	1528	1542	1537	1516	1494	1487	1491	1506	1533	1532	1533	1531	1524	1527	1527	1517	1514	1497	1496	1505	1520	1521	1523	1513	1513	1503	1501	1493	1493	1506	1512	1524	1526	1527	1518	1500	1488	1494	1495	1502	1510	1509	1511	1546	1560	1547	1516	1502	1499	1504	1516	1520	1538	1549	1553	1532	1505	1497	1511	1527	1550	1556	1561	1564	1556	1560	1564	1566	1565	1553	1565	1574	1566	1545	1575	1576	1587	1596	1600	1596	1590	1581	1582	1600	1591	1573	1536	0	0	0	0	0	0	0	0	0	0	0	0	0	0	0	0	0	0	0	0	0	0	0	857	826	817	823	828	844	845	838	832	825	808	789	769	767	770	767	764	769	778	788	794	788	762	756	764	768	768	767	775	787	801	807	803	791	795	802	806	815	820	821	823	829	836	839	834	831	832	839	856	880	875	869	856	845	842	847	852	857	855	849	841	819	801	793	790	798	829	866	908	969	982	1022	1080	0	0	0	0	0	0	0	0	0	0	0	0	0	0	0	0	0	0	0	0	0	0	0	0	0	0	0	0	0	0	0	0	0	0	0	0	0	0	0	0	0	0	0	0	0	0	0	0	0	0	0	0	0	0	0	0	0	0	0	0	0	0	0	0	0	0	0	0	0	0	0	0	0	0	0	0	0	0	0	0	0	0	0	0	0	0	0	0	0	0	0	0	0	0	0	0	0	0	0	0	0	0	0	0	0	0	0	0	0	0	0	0	0	0	0	0	0	0	0	0	0	0	0	0	0
0	1384	1379	1382	1398	1398	1397	1407	1397	1383	1374	1374	1373	1378	1381	1390	1393	1393	1387	1359	1380	1404	1420	1414	1414	1388	1375	1373	1376	1382	1401	1410	1410	1404	1405	1413	1424	1432	1438	1439	1431	1431	1429	1425	1413	1395	1383	1377	1369	1379	1383	1383	1383	1392	1392	1384	1380	1379	1377	1382	1390	1392	1400	1405	1403	1407	1412	1412	1412	1418	1419	1430	1438	1447	1442	1420	1401	1403	1412	1414	1411	1410	1422	1423	1419	1418	1418	1421	1426	1428	1436	1438	1428	1425	1422	1425	1428	1421	1418	1410	1419	1413	1413	1408	1396	1394	1402	1402	1406	1415	1421	1419	1420	1426	1420	1415	1401	1404	1415	1425	1432	1424	1416	1404	1390	1382	1384	1375	1385	1398	1419	1422	1425	1395	1395	1404	1419	1440	1457	1463	1449	1431	1420	1408	1415	1434	1453	1452	1438	1426	1426	1424	1423	1410	1372	1351	1310	1270	1207	1159	1078	1042	1001	969	939	913	901	897	888	881	866	848	853	865	866	869	866	875	884	891	898	895	892	888	889	886	884	860	844	829	828	833	845	855	856	853	853	862	877	879	881	876	882	886	882	876	870	868	872	875	878	888	902	910	916	912	893	899	903	960	991	1000	988	958	915	888	862	845	0	0	0	0	0	0	0	0	0	0	0	0	0	0	0	0	0	0	0	998	1122	1266	1336	1437	1497	1521	1521	1521	1519	1514	1513	1520	1526	1528	1543	1525	1505	1502	1500	1502	1508	1506	1502	1497	1484	1484	1480	1486	1496	1505	1515	1527	1526	1514	1520	1531	1528	1509	1504	1514	1532	1527	1522	1510	1501	1476	1471	1475	1484	1501	1518	1513	1524	1525	1530	1528	1517	1509	1520	1529	1532	1531	1515	1516	1521	1526	1522	1519	1503	1497	1508	1512	1510	1497	1498	1509	1516	1528	1530	1538	1537	1533	1511	1512	1520	1534	1526	1513	1498	1492	1498	1515	1535	1541	1542	1535	1527	1518	1510	1506	1502	1495	1491	1499	1507	1510	1514	1511	1512	1506	1502	1487	1490	1502	1517	1524	1527	1522	1522	1502	1491	1490	1497	1505	1513	1513	1508	1543	1563	1550	1533	1516	1520	1530	1539	1543	1545	1553	1551	1531	1500	1490	1503	1526	1557	1573	1568	1556	1539	1541	1547	1549	1545	1552	1552	1564	0	0	0	0	0	0	0	0	0	0	0	0	0	0	0	0	0	0	0	0	0	0	0	0	0	0	0	0	0	0	0	0	0	0	0	0	0	0	0	834	816	816	821	828	832	831	830	829	817	793	777	765	771	766	760	757	764	768	775	766	751	744	749	757	762	764	762	771	784	790	787	781	775	746	736	750	778	798	812	822	832	833	829	827	827	833	838	851	855	851	851	844	837	839	846	857	856	851	845	829	813	802	797	790	800	806	820	835	860	879	905	0	0	0	0	0	0	0	0	0	0	0	0	0	0	0	0	0	0	0	0	0	0	0	0	0	0	0	0	0	0	0	0	0	0	0	0	0	0	0	0	0	0	0	0	0	0	0	0	0	0	0	0	0	0	0	0	0	0	0	0	0	0	0	0	0	0	0	0	0	0	0	0	0	0	0	0	0	0	0	0	0	0	0	0	0	0	0	0	0	0	0	0	0	0	0	0	0	0	0	0	0	0	0	0	0	0	0	0	0	0	0	0	0	0	0	0	0	0	0	0	0	0	0	0	0
0	1373	1378	1379	1387	1387	1399	1417	1420	1404	1388	1388	1378	1373	1370	1382	1389	1388	1388	1382	1396	1423	1433	1429	1410	1410	1397	1384	1376	1390	1401	1414	1407	1407	1412	1423	1426	1432	1440	1442	1436	1418	1418	1412	1401	1391	1388	1388	1387	1399	1399	1395	1400	1400	1396	1396	1392	1397	1395	1400	1401	1417	1417	1416	1409	1403	1407	1411	1411	1410	1411	1409	1413	1426	1423	1404	1409	1405	1405	1403	1399	1407	1421	1428	1422	1426	1424	1415	1411	1416	1428	1433	1426	1417	1414	1416	1413	1414	1408	1418	1420	1420	1411	1404	1402	1400	1401	1398	1403	1402	1415	1421	1424	1423	1423	1414	1406	1396	1399	1406	1414	1410	1404	1387	1373	1358	1353	1350	1356	1376	1400	1418	1420	1413	1402	1415	1418	1432	1446	1454	1445	1433	1430	1414	1412	1427	1438	1438	1411	1399	1386	1372	1354	1306	1220	1169	1130	1080	1039	1010	957	932	920	904	888	884	884	879	873	859	847	831	839	851	857	856	859	867	879	893	903	903	901	892	883	878	871	852	836	829	829	838	850	860	858	856	859	868	881	894	890	883	879	888	893	888	892	898	905	906	909	929	941	947	941	930	926	933	925	950	985	978	955	910	869	853	825	797	0	0	0	0	0	0	0	0	0	0	0	0	0	0	0	0	0	0	1012	1171	1311	1381	1433	1477	1505	1514	1522	1524	1528	1526	1525	1530	1526	1516	1524	1531	1525	1517	1516	1521	1511	1500	1497	1487	1483	1482	1478	1487	1497	1501	1510	1511	1509	1506	1509	1523	1518	1519	1519	1523	1533	1523	1517	1496	1503	1500	1497	1484	1497	1494	1486	1480	1487	1486	1474	1478	1484	1502	1515	1528	1532	1528	1518	1520	1523	1522	1522	1514	1493	1489	1493	1497	1498	1494	1502	1512	1517	1516	1516	1517	1521	1519	1504	1507	1525	1527	1513	1499	1494	1493	1507	1527	1534	1542	1542	1537	1530	1524	1508	1488	1475	1470	1471	1476	1478	1482	1490	1477	1451	1439	1437	1454	1487	1553	1554	0	1533	1527	1526	0	0	0	0	0	0	0	0	0	0	0	0	0	0	0	0	0	0	0	0	0	0	0	0	0	0	0	0	0	0	0	0	0	0	0	0	0	0	0	0	0	0	0	0	0	0	0	0	0	0	0	0	0	0	0	0	0	0	0	0	0	0	0	0	0	0	0	0	0	0	0	0	0	0	0	0	0	808	802	798	793	794	797	809	819	818	807	786	768	772	768	764	755	754	763	771	762	745	734	736	747	752	755	754	759	769	773	773	773	762	740	726	732	750	775	798	812	824	830	830	833	836	832	829	825	829	830	835	836	835	831	840	847	851	849	840	827	822	811	804	799	794	796	799	803	806	806	804	817	0	0	0	0	0	0	0	0	0	0	0	0	0	0	0	0	0	0	0	0	0	0	0	0	0	0	0	0	0	0	0	0	0	0	0	0	0	0	0	0	0	0	0	0	0	0	0	0	0	0	0	0	0	0	0	0	0	0	0	0	0	0	0	0	0	0	0	0	0	0	0	0	0	0	0	0	0	0	0	0	0	0	0	0	0	0	0	0	0	0	0	0	0	0	0	0	0	0	0	0	0	0	0	0	0	0	0	0	0	0	0	0	0	0	0	0	0	0	0	0	0	0	0	0
0	1372	1370	1366	1379	1399	0	0	1423	1422	1397	1386	1386	1380	1382	1396	1405	1422	1422	1424	1436	1437	1444	1438	1426	1426	1414	1403	1389	1394	1408	1401	1403	1403	1418	1436	1440	1433	1431	1423	1414	1405	1405	1394	1378	1374	1370	1376	1388	1409	1413	1408	1403	1403	1404	1407	1414	1421	1416	1409	1418	1418	1427	1424	1407	1401	1396	1394	1394	1408	1401	1387	1382	1387	1394	1424	1439	1436	1401	1395	1398	1427	1440	1453	1452	1448	1449	1438	1416	1418	1427	1440	1439	1422	1408	1409	1409	1422	1436	1442	1458	1446	1425	1403	1396	1399	1411	1413	1405	1420	1428	1434	1435	1435	1434	1422	1403	1391	1389	1391	1396	1401	1406	1397	1391	1393	1405	1403	1394	1393	1400	1422	1435	1458	1463	1452	1438	1430	1429	1435	1431	1431	1418	1408	1408	1423	1443	1428	1398	1368	1348	1332	1310	1233	1088	1022	980	938	909	898	886	886	881	876	871	870	876	873	864	851	843	836	839	848	853	856	853	864	875	887	897	900	901	888	879	878	875	852	836	836	844	852	862	864	865	864	869	877	892	901	903	896	888	884	890	885	900	912	919	922	934	944	962	971	964	947	937	939	944	945	912	931	894	850	819	811	782	0	0	0	0	0	0	0	0	0	0	0	0	0	0	0	0	0	0	1031	1123	1334	1429	1451	1465	1485	1501	1516	1525	1527	1529	1529	1529	1528	1523	1514	1521	1532	1528	1529	1530	1526	1514	1498	1494	1483	1484	1482	1488	1483	1467	1459	1463	1487	1493	1501	1499	1495	1507	1522	1537	1543	1542	1521	1505	1508	1505	1501	1496	1489	1498	1492	1490	1485	1480	1472	1459	1454	1473	1491	1507	1520	1521	1517	1508	1500	1493	1497	1498	1489	1470	1465	1476	1489	1510	1517	1507	1494	1471	1445	1454	0	0	0	0	0	0	0	0	0	0	0	0	0	0	0	0	0	0	0	0	0	0	0	0	0	0	0	0	0	0	0	0	0	0	0	0	0	0	0	0	0	0	0	0	0	0	0	0	0	0	0	0	0	0	0	0	0	0	0	0	0	0	0	0	0	0	0	0	0	0	0	0	0	0	0	0	0	0	0	0	0	0	0	0	0	0	0	0	0	0	0	0	0	0	0	0	0	0	0	0	0	0	0	0	0	0	0	0	0	0	0	0	0	0	0	0	0	0	782	769	760	760	767	777	805	817	801	787	776	775	768	762	752	751	758	766	765	752	738	730	735	742	744	745	748	753	763	766	766	750	734	720	727	738	750	778	798	810	820	824	833	839	838	822	802	799	803	808	813	813	812	816	820	821	828	824	820	815	808	804	789	784	783	789	791	788	785	778	782	791	793	790	0	0	0	0	0	0	0	0	0	0	0	0	0	0	0	0	0	0	0	0	0	0	0	0	0	0	0	0	0	0	0	0	0	0	0	0	0	0	0	0	0	0	0	0	0	0	0	0	0	0	0	0	0	0	0	0	0	0	0	0	0	0	0	0	0	0	0	0	0	0	0	0	0	0	0	0	0	0	0	0	0	0	0	0	0	0	0	0	0	0	0	0	0	0	0	0	0	0	0	0	0	0	0	0	0	0	0	0	0	0	0	0	0	0	0	0	0	0	0	0	0
0	0	1346	1352	1367	0	0	0	0	0	1396	1392	1392	1387	1396	1412	1440	1448	1448	1441	1429	1421	1426	1422	1417	1417	1414	1399	1396	1391	1372	1376	1395	1395	1427	1446	1451	1434	1422	1414	1403	1389	1389	1380	1366	1346	1351	1368	1393	1401	1407	1403	1404	1404	1400	1413	1413	1414	1409	1402	1401	1409	1410	1407	1398	1395	1389	1389	1401	1401	1394	1379	1381	1381	1400	1426	1434	1430	1416	1394	1402	1423	1450	1459	1454	1460	1460	1448	1431	1416	1431	1441	1449	1428	1411	1403	1417	1433	1454	1471	1473	1458	1437	1402	1394	1412	1420	1423	1417	1431	1439	1447	1442	1442	1433	1427	1421	1425	1426	1431	1437	1438	1434	1422	1425	1437	1445	1441	1428	1430	1429	1442	1457	1465	1454	1447	1433	1434	1421	1413	1408	1413	1399	1392	1386	1387	1372	1342	1290	1238	1177	1115	1037	977	968	924	896	879	871	874	883	884	875	862	860	863	873	874	868	858	853	858	862	880	890	883	873	872	874	875	877	876	884	874	871	868	865	850	839	834	843	850	855	856	859	865	864	870	886	899	898	898	895	874	874	884	891	898	908	912	918	933	956	976	975	959	940	931	923	913	885	857	817	813	780	0	0	0	0	0	0	0	0	0	0	0	0	0	0	0	0	0	0	0	0	0	1146	1374	1462	1473	1481	1494	1507	1521	1530	1529	1517	1509	1514	1506	1487	1475	1477	1555	1543	1516	1502	1511	1537	1563	0	0	0	0	0	0	0	0	0	0	1479	1487	1490	1487	1501	1532	1562	1568	1560	1550	1508	1511	1505	1500	1504	1482	1465	1450	1429	1425	1434	1448	0	0	0	0	0	0	0	0	0	0	0	0	0	0	0	0	0	0	0	0	0	0	0	0	0	0	0	0	0	0	0	0	0	0	0	0	0	0	0	0	0	0	0	0	0	0	0	0	0	0	0	0	0	0	0	0	0	0	0	0	0	0	0	0	0	0	0	0	0	0	0	0	0	0	0	0	0	0	0	0	0	0	0	0	0	0	0	0	0	0	0	0	0	0	0	0	0	0	0	0	0	0	0	0	0	0	0	0	0	0	0	0	0	0	0	0	0	0	0	0	0	0	0	0	0	0	0	0	0	0	0	0	0	0	0	0	0	0	0	0	0	0	0	0	746	738	739	746	762	781	800	795	774	771	771	764	755	748	750	759	766	766	759	742	734	722	728	730	736	735	733	745	755	747	734	722	714	718	728	738	755	769	787	798	807	818	820	825	791	779	780	785	781	777	777	772	777	773	771	780	794	789	788	788	785	772	765	765	771	777	779	778	771	777	776	775	772	766	756	0	0	0	0	0	0	0	0	0	0	0	0	0	0	0	0	0	0	0	0	0	0	0	0	0	0	0	0	0	0	0	0	0	0	0	0	0	0	0	0	0	0	0	0	0	0	0	0	0	0	0	0	0	0	0	0	0	0	0	0	0	0	0	0	0	0	0	0	0	0	0	0	0	0	0	0	0	0	0	0	0	0	0	0	0	0	0	0	0	0	0	0	0	0	0	0	0	0	0	0	0	0	0	0	0	0	0	0	0	0	0	0	0	0	0	0	0	0	0
0	0	0	0	0	0	0	0	0	0	0	0	0	0	0	0	0	0	0	0	1419	1410	1408	1412	1413	1402	1402	1398	1383	1371	1371	1381	1397	1397	1426	1437	1442	1430	1417	1411	1401	1398	1377	1377	1364	1348	1350	1370	1398	1408	1405	1400	1393	1396	1396	1410	1409	1416	1412	1409	1400	1397	1397	1392	1397	1393	1394	1388	1384	1384	1385	1381	1378	1383	1398	1418	1425	1422	1407	1391	1406	1428	1450	1460	1456	1457	1458	1450	1431	1419	1426	1436	1443	1436	1416	1408	1417	1431	1461	1483	1484	1463	1421	1402	1398	1421	1425	1425	1433	1445	1447	1447	1447	1434	1421	1420	1435	1440	1449	1448	1449	1451	1448	1430	1432	1439	1451	1450	1444	1438	1442	1452	1462	1456	1445	1440	1437	1432	1414	1400	1397	1403	1385	1375	1354	1331	1307	1271	1226	1154	1074	1016	956	913	866	853	846	854	870	885	887	883	866	852	842	854	877	886	884	874	868	869	872	880	889	889	884	873	864	855	850	851	851	853	851	848	846	842	832	826	830	836	839	842	853	858	860	862	869	885	894	895	886	873	860	864	874	883	890	898	904	916	939	959	967	953	927	908	895	866	836	0	0	0	0	0	0	0	0	0	0	0	0	0	0	0	0	0	0	0	0	0	0	0	0	0	0	0	0	0	0	0	0	0	0	0	0	0	0	0	0	0	0	0	0	0	0	0	0	0	0	0	0	0	0	0	0	0	0	0	0	0	0	0	0	0	0	0	0	0	0	0	0	0	0	0	0	0	0	0	0	0	0	0	0	0	0	0	0	0	0	0	0	0	0	0	0	0	0	0	0	0	0	0	0	0	0	0	0	0	0	0	0	0	0	0	0	0	0	0	0	0	0	0	0	0	0	0	0	0	0	0	0	0	0	0	0	0	0	0	0	0	0	0	0	0	0	0	0	0	0	0	0	0	0	0	0	0	0	0	0	0	0	0	0	0	0	0	0	0	0	0	0	0	0	0	0	0	0	0	0	0	0	0	0	0	0	0	0	0	0	0	0	0	0	0	0	0	0	0	0	0	0	0	0	0	0	0	0	0	0	0	0	0	0	0	0	0	0	0	0	0	0	0	0	0	0	726	728	742	758	773	760	757	755	753	765	766	760	755	755	759	767	765	761	744	730	714	712	713	714	716	723	732	729	720	713	707	704	709	722	733	739	745	757	764	775	790	798	798	779	767	769	770	766	755	754	750	747	751	753	760	763	759	754	752	749	747	745	744	746	752	749	750	753	751	758	755	752	748	749	746	747	0	0	0	0	0	0	0	0	0	0	0	0	0	0	0	0	0	0	0	0	0	0	0	0	0	0	0	0	0	0	0	0	0	0	0	0	0	0	0	0	0	0	0	0	0	0	0	0	0	0	0	0	0	0	0	0	0	0	0	0	0	0	0	0	0	0	0	0	0	0	0	0	0	0	0	0	0	0	0	0	0	0	0	0	0	0	0	0	0	0	0	0	0	0	0	0	0	0	0	0	0	0	0	0	0	0	0	0	0	0	0	0	0	0	0	0	0
0	0	0	0	0	0	0	0	0	0	0	0	0	0	0	1383	1392	1411	1414	1414	1420	1408	1404	1409	1412	1401	1401	1387	1376	1370	1384	1398	1406	1418	1418	1422	1427	1418	1413	1413	1413	1400	1389	1389	1375	1365	1364	1386	1407	1412	1403	1392	1391	1394	1394	1404	1417	1420	1419	1411	1410	1403	1403	1400	1405	1409	1414	1410	1407	1394	1394	1377	1377	1394	1414	1420	1425	1420	1404	1398	1399	1404	1418	1433	1442	1441	1433	1424	1418	1421	1417	1414	1403	1399	1404	1410	1422	1433	1445	1457	1459	1431	1396	1386	1400	1418	1427	1426	1438	1444	1447	1441	1433	1428	1420	1419	1429	1444	1451	1451	1459	1459	1450	1432	1432	1438	1444	1454	1450	1445	1441	1447	1445	1459	1448	1443	1439	1429	1417	1400	1396	1377	1355	1327	1276	1202	1118	1023	975	925	901	900	882	861	828	827	835	852	870	880	875	860	849	841	843	851	872	886	884	872	862	857	852	858	867	873	868	853	847	835	831	824	826	831	835	834	827	826	821	819	817	824	827	827	841	855	865	862	866	871	886	886	877	862	850	858	868	877	878	879	883	896	919	937	947	926	898	872	839	0	0	0	0	0	0	0	0	0	0	0	0	0	0	0	0	0	0	0	0	0	0	0	0	0	0	0	0	0	0	0	0	0	0	0	0	0	0	0	0	0	0	0	0	0	0	0	0	0	0	0	0	0	0	0	0	0	0	0	0	0	0	0	0	0	0	0	0	0	0	0	0	0	0	0	0	0	0	0	0	0	0	0	0	0	0	0	0	0	0	0	0	0	0	0	0	0	0	0	0	0	0	0	0	0	0	0	0	0	0	0	0	0	0	0	0	0	0	0	0	0	0	0	0	0	0	0	0	0	0	0	0	0	0	0	0	0	0	0	0	0	0	0	0	0	0	0	0	0	0	0	0	0	0	0	0	0	0	0	0	0	0	0	0	0	0	0	0	0	0	0	0	0	0	0	0	0	0	0	0	0	0	0	0	0	0	0	0	0	0	0	0	0	0	0	0	0	0	0	0	0	0	0	0	0	0	0	0	0	0	0	0	0	0	0	0	0	0	0	0	0	0	0	0	0	0	0	0	0	720	732	749	752	744	731	735	740	761	760	758	751	752	753	759	753	746	735	727	706	695	695	702	704	714	722	719	707	703	701	700	707	719	734	734	737	741	744	748	756	771	771	763	756	758	763	758	750	739	736	739	738	746	748	743	737	723	721	723	724	725	723	719	722	723	723	716	722	730	735	735	733	722	719	727	737	746	742	703	0	0	0	0	0	0	0	0	0	0	0	0	0	0	0	0	0	0	0	0	0	0	0	0	0	0	0	0	0	0	0	0	0	0	0	0	0	0	0	0	0	0	0	0	0	0	0	0	0	0	0	0	0	0	0	0	0	0	0	0	0	0	0	0	0	0	0	0	0	0	0	0	0	0	0	0	0	0	0	0	0	0	0	0	0	0	0	0	0	0	0	0	0	0	0	0	0	0	0	0	0	0	0	0	0	0	0	0	0	0	0	0	0
0	0	0	0	0	0	0	0	1372	1403	1423	1419	1401	1401	1379	1362	1356	1366	1399	1399	1411	1406	1401	1408	1404	1402	1402	1394	1382	1382	1410	1410	1397	1391	1391	1390	1396	1409	1410	1404	1411	1415	1417	1417	1403	1396	1389	1405	1422	1420	1406	1391	1389	1398	1413	1413	1413	1419	1412	1420	1420	1417	1417	1413	1416	1415	1430	1430	1430	1409	1389	1389	1386	1397	1418	1436	1444	1447	1425	1410	1400	1403	1419	1432	1449	1445	1436	1427	1427	1422	1410	1404	1387	1374	1384	1404	1416	1423	1439	1447	1445	1417	1394	1384	1396	1403	1398	1409	1426	1435	1426	1421	1422	1430	1433	1425	1428	1437	1444	1460	1470	1465	1455	1427	1421	1427	1448	1455	1444	1424	1402	1403	1405	1465	1475	1468	1453	1422	1359	1277	1190	1198	1202	1147	1077	993	937	895	859	843	841	840	829	795	776	793	813	836	852	861	852	840	838	840	841	844	850	868	867	862	846	836	823	826	837	845	843	833	831	825	815	815	817	827	832	826	819	814	819	816	818	821	823	827	842	858	864	864	866	865	865	865	868	863	865	874	873	872	869	869	872	878	893	911	907	879	842	794	0	0	0	0	0	0	0	0	0	0	0	0	0	0	0	0	0	0	0	0	0	0	0	0	0	0	0	0	0	0	0	0	0	0	0	0	0	0	0	0	0	0	0	0	0	0	0	0	0	0	0	0	0	0	0	0	0	0	0	0	0	0	0	0	0	0	0	0	0	0	0	0	0	0	0	0	0	0	0	0	0	0	0	0	0	0	0	0	0	0	0	0	0	0	0	0	0	0	0	0	0	0	0	0	0	0	0	0	0	0	0	0	0	0	0	0	0	0	0	0	0	0	0	0	0	0	0	0	0	0	0	0	0	0	0	0	0	0	0	0	0	0	0	0	0	0	0	0	0	0	0	0	0	0	0	0	0	0	0	0	0	0	0	0	0	0	0	0	0	0	0	0	0	0	0	0	0	0	0	0	0	0	0	0	0	0	0	0	0	0	0	0	0	0	0	0	0	0	0	0	0	0	0	0	0	0	0	0	0	0	0	0	0	0	0	0	0	0	0	0	0	0	0	0	0	0	0	0	0	0	0	0	750	739	725	707	706	744	748	748	745	737	738	741	738	734	729	727	716	698	683	684	689	699	708	718	717	712	711	711	718	720	729	742	744	746	740	729	726	732	742	750	744	738	745	750	746	738	735	729	725	728	724	733	725	717	708	705	704	695	690	684	695	701	707	699	697	695	696	706	710	706	707	711	722	737	746	741	718	704	685	659	0	0	0	0	0	0	0	0	0	0	0	0	0	0	0	0	0	0	0	0	0	0	0	0	0	0	0	0	0	0	0	0	0	0	0	0	0	0	0	0	0	0	0	0	0	0	0	0	0	0	0	0	0	0	0	0	0	0	0	0	0	0	0	0	0	0	0	0	0	0	0	0	0	0	0	0	0	0	0	0	0	0	0	0	0	0	0	0	0	0	0	0	0	0	0	0	0	0	0	0	0	0	0	0	0	0	0	0	0	0
0	0	0	0	0	0	0	1368	1390	1422	1439	1434	1416	1416	1388	1367	1359	1368	1384	1384	1393	1398	1401	1404	1409	1411	1411	1403	1407	1401	1423	1408	1387	1372	1372	1374	1395	1412	1416	1411	1413	1425	1425	1423	1423	1417	1415	1415	1436	1431	1407	1392	1389	1404	1411	1411	1415	1416	1420	1421	1431	1435	1435	1428	1420	1430	1432	1445	1455	1454	1423	1423	1397	1399	1414	1440	1456	1458	1436	1418	1404	1407	1428	1454	1462	1464	1455	1448	1441	1423	1400	1383	1370	1361	1368	1393	1407	1414	1426	1439	1434	1413	0	0	0	0	0	0	0	0	0	0	0	0	0	0	0	0	0	0	0	0	0	0	0	0	0	0	0	0	0	0	0	0	0	0	0	0	0	0	1030	978	996	958	916	883	850	825	800	784	787	792	779	762	749	762	792	813	826	825	821	815	819	824	833	835	846	860	863	851	835	823	796	798	806	823	827	829	825	825	819	821	832	838	838	833	819	806	814	824	832	832	832	832	839	847	864	870	867	862	853	852	857	863	870	880	873	864	859	857	860	860	870	868	852	817	767	725	700	0	0	0	0	0	0	0	0	0	0	0	0	0	0	0	0	0	0	0	0	0	0	0	0	0	0	0	0	0	0	0	0	0	0	0	0	0	0	0	0	0	0	0	0	0	0	0	0	0	0	0	0	0	0	0	0	0	0	0	0	0	0	0	0	0	0	0	0	0	0	0	0	0	0	0	0	0	0	0	0	0	0	0	0	0	0	0	0	0	0	0	0	0	0	0	0	0	0	0	0	0	0	0	0	0	0	0	0	0	0	0	0	0	0	0	0	0	0	0	0	0	0	0	0	0	0	0	0	0	0	0	0	0	0	0	0	0	0	0	0	0	0	0	0	0	0	0	0	0	0	0	0	0	0	0	0	0	0	0	0	0	0	0	0	0	0	0	0	0	0	0	0	0	0	0	0	0	0	0	0	0	0	0	0	0	0	0	0	0	0	0	0	0	0	0	0	0	0	0	0	0	0	0	0	0	0	0	0	0	0	0	0	0	0	0	0	0	0	0	0	0	0	0	0	0	0	0	0	0	0	0	0	732	710	696	689	731	735	731	723	717	716	721	725	727	729	732	721	699	687	688	695	697	712	728	729	734	738	728	735	743	751	755	755	754	752	738	725	726	735	740	732	728	729	734	732	727	723	715	707	707	705	705	708	708	702	701	700	681	679	682	687	694	701	706	705	700	699	702	705	698	692	697	713	730	739	739	721	714	706	693	681	0	0	0	0	0	0	0	0	0	0	0	0	0	0	0	0	0	0	0	0	0	0	0	0	0	0	0	0	0	0	0	0	0	0	0	0	0	0	0	0	0	0	0	0	0	0	0	0	0	0	0	0	0	0	0	0	0	0	0	0	0	0	0	0	0	0	0	0	0	0	0	0	0	0	0	0	0	0	0	0	0	0	0	0	0	0	0	0	0	0	0	0	0	0	0	0	0	0	0	0	0	0	0	0	0	0	0	0	0
0	0	0	0	0	1365	1368	1368	1406	1433	1445	1448	1423	1423	1397	1384	1383	1386	1393	1398	1398	1394	1404	1405	1417	1417	1418	1418	1418	1420	1437	1409	1379	1360	1366	1366	1392	1427	1445	1445	1426	1426	1434	1434	1434	1431	1430	1439	1448	1438	1418	1401	1397	1404	1411	1411	1415	1407	0	0	0	0	0	1437	1425	1420	1417	1410	1418	1436	1437	1432	1432	1430	1452	0	0	1435	1415	1398	1412	1442	1476	0	0	0	0	0	0	0	0	0	0	0	0	1359	1372	1388	0	0	0	0	0	0	0	0	0	0	0	0	0	0	0	0	0	0	0	0	0	0	0	0	0	0	0	0	0	0	0	0	0	0	0	0	0	0	0	0	0	0	0	872	870	852	836	823	808	791	770	748	748	754	758	753	748	757	775	796	804	807	808	807	810	813	813	822	833	849	853	846	835	818	795	790	791	802	820	838	842	840	834	837	846	852	853	840	821	810	806	832	840	844	843	841	841	852	861	870	868	860	850	845	848	855	870	874	863	850	843	841	842	837	827	809	788	744	702	670	662	666	670	0	0	0	0	0	0	0	0	0	0	0	0	0	0	0	0	0	0	0	0	0	0	0	0	0	0	0	0	0	0	0	0	0	0	0	0	0	0	0	0	0	0	0	0	0	0	0	0	0	0	0	0	0	0	0	0	0	0	0	0	0	0	0	0	0	0	0	0	0	0	0	0	0	0	0	0	0	0	0	0	0	0	0	0	0	0	0	0	0	0	0	0	0	0	0	0	0	0	0	0	0	0	0	0	0	0	0	0	0	0	0	0	0	0	0	0	0	0	0	0	0	0	0	0	0	0	0	0	0	0	0	0	0	0	0	0	0	0	0	0	0	0	0	0	0	0	0	0	0	0	0	0	0	0	0	0	0	0	0	0	0	0	0	0	0	0	0	0	0	0	0	0	0	0	0	0	0	0	0	0	0	0	0	0	0	0	0	0	0	0	0	0	0	0	0	0	0	0	0	0	0	0	0	0	0	0	0	0	0	0	0	0	0	0	0	0	0	0	0	0	0	0	0	0	0	0	0	0	0	0	0	695	686	685	725	729	725	722	0	0	0	0	0	0	0	737	719	707	702	702	701	715	721	732	741	752	763	771	771	768	769	765	774	764	745	732	730	738	739	730	722	712	714	715	713	709	699	695	691	689	692	698	703	716	715	700	698	692	693	699	704	707	717	716	713	708	704	693	685	678	680	695	711	721	729	730	720	705	698	685	675	660	0	0	0	0	0	0	0	0	0	0	0	0	0	0	0	0	0	0	0	0	0	0	0	0	0	0	0	0	0	0	0	0	0	0	0	0	0	0	0	0	0	0	0	0	0	0	0	0	0	0	0	0	0	0	0	0	0	0	0	0	0	0	0	0	0	0	0	0	0	0	0	0	0	0	0	0	0	0	0	0	0	0	0	0	0	0	0	0	0	0	0	0	0	0	0	0	0	0	0	0	0	0	0	0	0	0	0
0	0	0	0	0	0	0	1406	0	0	0	0	0	0	0	0	1418	1415	1401	1397	1397	1390	1390	1392	1408	1433	1443	1443	1456	1451	0	0	0	0	0	0	0	0	0	0	0	1421	1426	1432	1432	0	0	0	0	0	0	0	0	0	1375	1391	0	0	0	0	0	0	0	0	0	0	0	0	0	0	0	0	0	0	0	0	0	0	0	0	0	0	0	0	0	0	0	0	0	0	0	0	0	0	0	0	0	0	0	0	0	0	0	0	0	0	0	0	0	0	0	0	0	0	0	0	0	0	0	0	0	0	0	0	0	0	0	0	0	0	0	0	0	0	0	0	0	0	0	0	816	819	816	805	803	807	804	786	767	752	749	751	754	756	757	770	784	795	805	811	814	813	803	796	789	797	814	826	836	826	813	796	775	781	787	797	814	829	838	843	843	840	840	845	846	840	824	811	809	827	836	841	840	842	844	846	851	861	860	854	842	837	842	850	856	852	843	833	826	824	819	797	767	744	720	681	648	633	641	654	665	0	0	0	0	0	0	0	0	0	0	0	0	0	0	0	0	0	0	0	0	0	0	0	0	0	0	0	0	0	0	0	0	0	0	0	0	0	0	0	0	0	0	0	0	0	0	0	0	0	0	0	0	0	0	0	0	0	0	0	0	0	0	0	0	0	0	0	0	0	0	0	0	0	0	0	0	0	0	0	0	0	0	0	0	0	0	0	0	0	0	0	0	0	0	0	0	0	0	0	0	0	0	0	0	0	0	0	0	0	0	0	0	0	0	0	0	0	0	0	0	0	0	0	0	0	0	0	0	0	0	0	0	0	0	0	0	0	0	0	0	0	0	0	0	0	0	0	0	0	0	0	0	0	0	0	0	0	0	0	0	0	0	0	0	0	0	0	0	0	0	0	0	0	0	0	0	0	0	0	0	0	0	0	0	0	0	0	0	0	0	0	0	0	0	0	0	0	0	0	0	0	0	0	0	0	0	0	0	0	0	0	0	0	0	0	0	0	0	0	0	0	0	0	0	0	0	0	0	0	0	0	0	672	702	735	754	0	0	0	0	0	0	0	0	0	738	719	710	704	698	697	710	710	715	730	751	761	770	774	773	777	779	776	767	750	740	735	738	743	729	717	709	705	705	706	704	697	690	683	683	692	704	717	719	712	709	709	707	709	710	713	716	719	719	720	714	704	691	678	674	667	668	681	704	718	729	721	713	700	695	689	681	672	673	656	0	0	0	0	0	0	0	0	0	0	0	0	0	0	0	0	0	0	0	0	0	0	0	0	0	0	0	0	0	0	0	0	0	0	0	0	0	0	0	0	0	0	0	0	0	0	0	0	0	0	0	0	0	0	0	0	0	0	0	0	0	0	0	0	0	0	0	0	0	0	0	0	0	0	0	0	0	0	0	0	0	0	0	0	0	0	0	0	0	0	0	0	0	0	0	0	0	0	0	0	0	0	0	0
0	0	0	0	0	0	0	0	0	0	0	0	0	0	0	0	0	0	0	0	0	0	0	0	0	0	0	0	0	0	0	0	0	0	0	0	0	0	0	0	0	0	0	0	0	0	0	0	0	0	0	0	0	0	0	0	0	0	0	0	0	0	0	0	0	0	0	0	0	0	0	0	0	0	0	0	0	0	0	0	0	0	0	0	0	0	0	0	0	0	0	0	0	0	0	0	0	0	0	0	0	0	0	0	0	0	0	0	0	0	0	0	0	0	0	0	0	0	0	0	0	0	0	0	0	0	0	0	0	0	0	0	0	0	0	0	0	0	0	0	0	807	807	794	791	802	808	810	800	777	764	760	760	765	774	792	800	805	810	816	823	813	798	775	768	777	796	813	826	814	801	787	774	771	782	794	800	807	816	821	822	821	816	814	836	840	833	818	807	819	823	823	830	832	833	832	839	844	847	839	831	832	834	837	839	833	823	817	814	809	781	751	724	688	658	637	620	0	0	0	0	0	0	0	0	0	0	0	0	0	0	710	0	0	0	0	0	0	0	0	0	0	0	0	0	0	0	0	0	0	0	0	0	0	0	0	0	0	0	0	0	0	0	0	0	0	0	0	0	0	0	0	0	0	0	0	0	0	0	0	0	0	0	0	0	0	0	0	0	0	0	0	0	0	0	0	0	0	0	0	0	0	0	0	0	0	0	0	0	0	0	0	0	0	0	0	0	0	0	0	0	0	0	0	0	0	0	0	0	0	0	0	0	0	0	0	0	0	0	0	0	0	0	0	0	0	0	0	0	0	0	0	0	0	0	0	0	0	0	0	0	0	0	0	0	0	0	0	0	0	0	0	0	0	0	0	0	0	0	0	0	0	0	0	0	0	0	0	0	0	0	0	0	0	0	0	0	0	0	0	0	0	0	0	0	0	0	0	0	0	0	0	0	0	0	0	0	0	0	0	0	0	0	0	0	0	0	0	0	0	0	0	0	0	0	0	0	0	0	0	0	0	0	0	0	0	0	0	0	0	0	0	0	0	0	0	0	0	0	0	0	0	0	0	0	0	729	713	699	684	680	681	698	696	699	714	736	749	757	762	765	774	780	778	768	755	742	734	734	725	716	709	706	703	703	704	703	700	691	685	682	685	693	702	705	700	701	710	716	720	717	715	716	716	716	717	714	703	687	674	668	664	664	677	695	724	728	721	715	713	705	700	697	695	695	686	675	640	0	0	0	0	0	0	0	0	0	0	0	0	0	0	0	0	0	0	0	0	0	0	0	0	0	0	0	0	0	0	0	0	0	0	0	0	0	0	0	0	0	0	0	0	0	0	0	0	0	0	0	0	0	0	0	0	0	0	0	0	0	0	0	0	0	0	0	0	0	0	0	0	0	0	0	0	0	0	0	0	0	0	0	0	0	0	0	0	0	0	0	0	0	0	0	0	0	0	0	0	0	0
0	0	0	0	0	0	0	0	0	0	0	0	0	0	0	0	0	0	0	0	0	0	0	0	0	0	0	0	0	0	0	0	0	0	0	0	0	0	0	0	0	0	0	0	0	0	0	0	0	0	0	0	0	0	0	0	0	0	0	0	0	0	0	0	0	0	0	0	0	0	0	0	0	0	0	0	0	0	0	0	0	0	0	0	0	0	0	0	0	0	0	0	0	0	0	0	0	0	0	0	0	0	0	0	0	0	0	0	0	0	0	0	0	0	0	0	0	0	0	0	0	0	0	0	0	0	0	0	0	0	0	0	0	0	0	0	0	0	0	0	0	0	0	804	801	808	821	822	815	797	780	766	761	771	781	798	807	812	807	809	813	812	793	771	762	771	791	809	812	807	798	794	786	777	781	784	781	786	795	800	803	801	796	802	814	829	829	818	803	798	804	811	816	818	812	807	809	811	812	813	815	818	820	822	820	819	817	819	810	773	738	721	690	661	637	0	0	0	0	0	0	0	0	0	0	0	0	0	0	0	708	711	0	0	0	0	0	0	0	0	0	0	0	0	0	0	0	0	0	0	0	0	0	0	0	0	0	0	0	0	0	0	0	0	0	0	0	0	0	0	0	0	0	0	0	0	0	0	0	0	0	0	0	0	0	0	0	0	0	0	0	0	0	0	0	0	0	0	0	0	0	0	0	0	0	0	0	0	0	0	0	0	0	0	0	0	0	0	0	0	0	0	0	0	0	0	0	0	0	0	0	0	0	0	0	0	0	0	0	0	0	0	0	0	0	0	0	0	0	0	0	0	0	0	0	0	0	0	0	0	0	0	0	0	0	0	0	0	0	0	0	0	0	0	0	0	0	0	0	0	0	0	0	0	0	0	0	0	0	0	0	0	0	0	0	0	0	0	0	0	0	0	0	0	0	0	0	0	0	0	0	0	0	0	0	0	0	0	0	0	0	0	0	0	0	0	0	0	0	0	0	0	0	0	0	0	0	0	0	0	0	0	0	0	0	0	0	0	0	0	0	0	0	0	0	0	0	750	725	712	711	739	744	741	732	723	709	685	668	649	639	663	684	683	681	698	716	727	735	742	751	760	770	770	763	755	744	731	712	708	695	690	698	700	704	701	703	697	688	682	676	671	675	684	681	675	684	693	704	711	710	705	711	714	714	714	714	699	686	673	662	667	674	686	697	713	717	720	717	714	710	711	710	711	713	705	688	672	649	0	0	0	0	0	0	0	0	0	0	0	0	0	0	0	0	0	0	0	0	0	0	0	0	0	0	0	0	0	0	0	0	0	0	0	0	0	0	0	0	0	0	0	0	0	0	0	0	0	0	0	0	0	0	0	0	0	0	0	0	0	0	0	0	0	0	0	0	0	0	0	0	0	0	0	0	0	0	0	0	0	0	0	0	0	0	0	0	0	0	0	0	0	0	0	0	0	0	0	0	0
0	0	0	0	0	0	0	0	0	0	0	0	0	0	0	0	0	0	0	0	0	0	0	0	0	0	0	0	0	0	0	0	0	0	0	0	0	0	0	0	0	0	0	0	0	0	0	0	0	0	0	0	0	0	0	0	0	0	0	0	0	0	0	0	0	0	0	0	0	0	0	0	0	0	0	0	0	0	0	0	0	0	0	0	0	0	0	0	0	0	0	0	0	0	0	0	0	0	0	0	0	0	0	0	0	0	0	0	0	0	0	0	0	0	0	0	0	0	0	0	0	0	0	0	0	0	0	0	0	0	0	0	0	0	0	0	0	0	0	0	0	0	0	0	822	821	824	827	825	810	788	768	767	771	778	789	798	798	794	794	797	808	804	787	781	789	801	810	810	806	802	803	804	800	790	783	772	775	781	793	795	793	791	800	815	828	823	804	786	779	795	804	808	804	794	785	784	786	790	797	800	805	809	807	803	802	816	0	0	0	0	687	661	646	0	0	0	0	0	0	0	0	0	0	0	0	0	0	0	705	705	710	0	0	0	0	0	0	0	0	0	0	0	0	0	0	0	0	0	0	0	0	0	0	0	0	0	0	0	0	0	0	0	0	0	0	0	0	0	0	0	0	0	0	0	0	0	0	0	0	0	0	0	0	0	0	0	0	0	0	0	0	0	0	0	0	0	0	0	0	0	0	0	0	0	0	0	0	0	0	0	0	0	0	0	0	0	0	0	0	0	0	0	0	0	0	0	0	0	0	0	0	0	0	0	0	0	0	0	0	0	0	0	0	0	0	0	0	0	0	0	0	0	0	0	0	0	0	0	0	0	0	0	0	0	0	0	0	0	0	0	0	0	0	0	0	0	0	0	0	0	0	0	0	0	0	0	0	0	0	0	0	0	0	0	0	0	0	0	0	0	0	0	0	0	0	0	0	0	0	0	0	0	0	0	0	0	0	0	0	0	0	0	0	0	0	0	0	0	0	0	0	0	0	0	0	0	0	0	0	0	0	0	0	0	0	0	0	0	0	0	0	0	0	0	0	723	707	690	681	661	655	660	664	664	664	655	653	645	635	628	635	647	646	653	679	693	704	715	723	736	743	746	751	746	747	740	728	705	695	681	682	687	696	697	694	697	692	689	680	669	661	665	667	667	664	663	675	682	686	686	684	692	703	714	714	715	703	689	673	671	674	680	687	694	701	705	710	711	711	706	707	711	717	717	713	696	679	664	651	637	595	0	0	0	0	0	0	0	0	0	0	0	0	0	0	0	0	0	0	0	0	0	0	0	0	0	0	0	0	0	0	0	0	0	0	0	0	0	0	0	0	0	0	0	0	0	0	0	0	0	0	0	0	0	0	0	0	0	0	0	0	0	0	0	0	0	0	0	0	0	0	0	0	0	0	0	0	0	0	0	0	0	0	0	0	0	0	0	0	0	0	0	0	0	0	0	0	0	0
0	0	0	0	0	0	0	0	0	0	0	0	0	0	0	0	0	0	0	0	0	0	0	0	0	0	0	0	0	0	0	0	0	0	0	0	0	0	0	0	0	0	0	0	0	0	0	0	0	0	0	0	0	0	0	0	0	0	0	0	0	0	0	0	0	0	0	0	0	0	0	0	0	0	0	0	0	0	0	0	0	0	0	0	0	0	0	0	0	0	0	0	0	0	0	0	0	0	0	0	0	0	0	0	0	0	0	0	0	0	0	0	0	0	0	0	0	0	0	0	0	0	0	0	0	0	0	0	0	0	0	0	0	0	0	0	0	0	0	0	0	0	0	0	825	817	821	822	819	810	786	770	769	770	773	777	779	780	777	771	785	808	822	826	809	801	797	798	806	802	800	800	806	815	801	781	766	768	779	791	803	804	809	816	823	825	813	791	772	770	801	797	787	794	781	773	769	772	774	776	784	794	802	800	800	801	0	0	0	0	0	0	0	0	0	0	0	0	0	0	0	0	0	0	0	0	0	0	0	706	705	710	0	0	0	0	0	0	0	0	0	0	0	0	0	0	0	0	0	0	0	0	0	0	0	0	0	0	0	0	0	0	0	0	0	0	0	0	0	0	0	0	0	0	0	0	0	0	0	0	0	0	0	0	0	0	0	0	0	0	0	0	0	0	0	0	0	0	0	0	0	0	0	0	0	0	0	0	0	0	0	0	0	0	0	0	0	0	0	0	0	0	0	0	0	0	0	0	0	0	0	0	0	0	0	0	0	0	0	0	0	0	0	0	0	0	0	0	0	0	0	0	0	0	0	0	0	0	0	0	0	0	0	0	0	0	0	0	0	0	0	0	0	0	0	0	0	0	0	0	0	0	0	0	0	0	0	0	0	0	0	0	0	0	0	0	0	0	0	0	0	0	0	0	0	0	0	0	0	0	0	0	0	0	0	0	0	0	0	0	0	0	0	0	0	0	0	0	0	0	0	0	0	0	0	0	0	0	0	0	0	0	0	0	0	0	0	0	0	0	0	0	0	0	0	0	694	676	666	657	655	641	624	618	609	610	619	634	641	633	628	639	648	641	630	629	639	685	702	713	720	723	724	727	733	736	720	713	704	696	692	693	695	696	695	692	691	688	687	679	667	662	660	662	662	655	658	661	671	673	672	669	672	685	702	707	701	694	687	679	679	680	681	685	689	683	686	691	696	698	699	697	702	711	714	710	697	682	666	655	649	637	614	0	0	0	0	0	0	0	0	0	0	0	0	0	0	0	0	0	0	0	0	0	0	0	0	0	0	0	0	0	0	0	0	0	0	0	0	0	0	0	0	0	0	0	0	0	0	0	0	0	0	0	0	0	0	0	0	0	0	0	0	0	0	0	0	0	0	0	0	0	0	0	0	0	0	0	0	0	0	0	0	0	0	0	0	0	0	0	0	0	0	0	0	0	0	0	0	0
0	0	0	0	0	0	0	0	0	0	0	0	0	0	0	0	0	0	0	0	0	0	0	0	0	0	0	0	0	0	0	0	0	0	0	0	0	0	0	0	0	0	0	0	0	0	0	0	0	0	0	0	0	0	0	0	0	0	0	0	0	0	0	0	0	0	0	0	0	0	0	0	0	0	0	0	0	0	0	0	0	0	0	0	0	0	0	0	0	0	0	0	0	0	0	0	0	0	0	0	0	0	0	0	0	0	0	0	0	0	0	0	0	0	0	0	0	0	0	0	0	0	0	0	0	0	0	0	0	0	0	0	0	0	0	0	0	0	0	0	0	0	0	819	808	803	797	799	796	791	782	769	766	764	770	770	769	767	758	753	767	791	806	815	806	793	784	781	783	782	783	783	790	806	792	777	760	760	769	781	801	812	819	830	832	825	806	774	755	759	775	767	755	740	721	731	754	760	762	765	773	779	785	793	803	0	0	0	0	0	0	0	0	0	0	0	0	0	0	0	0	0	0	0	0	0	0	0	0	704	700	709	0	0	0	0	0	0	0	0	0	0	0	0	0	0	0	0	0	0	0	0	0	0	0	0	0	0	0	0	0	0	0	0	0	0	0	0	0	0	0	0	0	0	0	0	0	0	0	0	0	0	0	0	0	0	0	0	0	0	0	0	0	0	0	0	0	0	0	0	0	0	0	0	0	0	0	0	0	0	0	0	0	0	0	0	0	0	0	0	0	0	0	0	0	0	0	0	0	0	0	0	0	0	0	0	0	0	0	0	0	0	0	0	0	0	0	0	0	0	0	0	0	0	0	0	0	0	0	0	0	0	0	0	0	0	0	0	0	0	0	0	0	0	0	0	0	0	0	0	0	0	0	0	0	0	0	0	0	0	0	0	0	0	0	0	0	0	0	0	0	0	0	0	0	0	0	0	0	0	0	0	0	0	0	0	0	0	0	0	0	0	0	0	0	0	0	0	0	0	0	0	0	0	0	0	0	0	0	0	0	0	0	0	0	0	0	0	0	0	0	0	0	0	0	0	0	657	647	651	652	640	626	614	605	603	613	627	640	641	643	646	645	634	622	620	633	655	688	701	706	707	705	702	709	711	705	701	696	694	692	695	696	692	686	686	686	683	679	669	662	659	662	663	662	659	661	663	668	674	670	665	660	669	682	681	676	666	661	675	681	682	686	684	683	677	668	669	683	690	689	692	695	703	700	697	690	678	665	658	654	650	639	623	621	634	0	0	0	0	0	0	0	0	0	0	0	0	0	0	0	0	0	0	0	0	0	0	0	0	0	0	0	0	0	0	0	0	0	0	0	0	0	0	0	0	0	0	0	0	0	0	0	0	0	0	0	0	0	0	0	0	0	0	0	0	0	0	0	0	0	0	0	0	0	0	0	0	0	0	0	0	0	0	0	0	0	0	0	0	0	0	0	0	0	0	0	0	0	0
0	0	0	0	0	0	0	0	0	0	0	0	0	0	0	0	0	0	0	0	0	0	0	0	0	0	0	0	0	0	0	0	0	0	0	0	0	0	0	0	0	0	0	0	0	0	0	0	0	0	0	0	0	0	0	0	0	0	0	0	0	0	0	0	0	0	0	0	0	0	0	0	0	0	0	0	0	0	0	0	0	0	0	0	0	0	0	0	0	0	0	0	0	0	0	0	0	0	0	0	0	0	0	0	0	0	0	0	0	0	0	0	0	0	0	0	0	0	0	0	0	0	0	0	0	0	0	0	0	0	0	0	0	0	0	0	0	0	0	0	0	797	773	774	775	776	772	772	772	777	773	766	755	753	753	754	748	743	735	726	736	744	763	771	774	757	744	745	748	762	767	768	769	773	772	756	750	742	749	761	782	798	814	823	826	809	780	753	746	748	746	736	727	715	707	712	720	733	736	751	754	754	766	771	0	0	0	0	0	0	0	0	0	0	0	0	0	0	0	0	0	0	0	0	0	0	0	0	0	705	701	709	0	0	0	0	0	0	0	0	0	0	0	0	0	0	0	0	0	0	0	0	0	0	0	0	0	0	0	0	0	0	0	0	0	0	0	0	0	0	0	0	0	0	0	0	0	0	0	0	0	0	0	0	0	0	0	0	0	0	0	0	0	0	0	0	0	0	0	0	0	0	0	0	0	0	0	0	0	0	0	0	0	0	0	0	0	0	0	0	0	0	0	0	0	0	0	0	0	0	0	0	0	0	0	0	0	0	0	0	0	0	0	0	0	0	0	0	0	0	0	0	0	0	0	0	0	0	0	0	0	0	0	0	0	0	0	0	0	0	0	0	0	0	0	0	0	0	0	0	0	0	0	0	0	0	0	0	0	0	0	0	0	0	0	0	0	0	0	0	0	0	0	0	0	0	0	0	0	0	0	0	0	0	0	0	0	0	0	0	0	0	0	0	0	0	0	0	0	0	0	0	0	0	0	0	0	0	0	0	0	0	0	0	0	0	0	0	0	0	0	0	0	0	0	0	0	0	626	640	652	647	630	619	608	606	611	629	642	653	659	655	643	626	612	613	629	648	664	680	665	675	684	695	701	700	695	684	688	690	687	683	682	681	678	676	677	677	668	660	653	658	660	661	663	671	670	671	671	674	672	667	657	658	665	663	650	635	636	652	664	673	679	677	675	666	660	655	658	667	676	680	683	685	673	674	675	668	663	662	660	660	653	638	630	628	628	637	669	0	0	0	0	0	0	0	0	0	0	0	0	0	0	0	0	0	0	0	0	0	0	0	0	0	0	0	0	0	0	0	0	0	0	0	0	0	0	0	0	0	0	0	0	0	0	0	0	0	0	0	0	0	0	0	0	0	0	0	0	0	0	0	0	0	0	0	0	0	0	0	0	0	0	0	0	0	0	0	0	0	0	0	0	0	0	0	0	0	0	0
0	0	0	0	0	0	0	0	0	0	0	0	0	0	0	0	0	0	0	0	0	0	0	0	0	0	0	0	0	0	0	0	0	0	0	0	0	0	0	0	0	0	0	0	0	0	0	0	0	0	0	0	0	0	0	0	0	0	0	0	0	0	0	0	0	0	0	0	0	0	0	0	0	0	0	0	0	0	0	0	0	0	0	0	0	0	0	0	0	0	0	0	0	0	0	0	0	0	0	0	0	0	0	0	0	0	0	0	0	0	0	0	0	0	0	0	0	0	0	0	0	0	0	0	0	0	0	0	0	0	0	0	0	0	0	751	740	737	742	733	721	721	713	721	732	734	741	743	751	763	763	757	748	744	731	719	705	699	698	698	702	694	695	701	701	709	716	723	734	749	758	759	754	754	727	716	721	721	728	735	755	778	793	806	803	785	764	746	744	746	742	733	725	717	706	710	715	723	726	729	713	729	713	706	0	0	0	0	0	0	0	0	0	0	0	0	0	0	0	0	0	0	0	0	0	0	0	0	0	0	0	0	0	0	0	0	0	0	0	0	0	0	0	0	0	0	0	0	0	0	0	0	0	0	0	0	0	0	0	0	0	0	0	0	0	0	0	0	0	0	0	0	0	0	0	0	0	0	0	0	0	0	0	0	0	0	0	0	0	0	0	0	0	0	0	0	0	0	0	0	0	0	0	0	0	0	0	0	0	0	0	0	0	0	0	0	0	0	0	0	0	0	0	0	0	0	0	0	0	0	0	0	0	0	0	0	0	0	0	0	0	0	0	0	0	0	0	0	0	0	0	0	0	0	0	0	0	0	0	0	0	0	0	0	0	0	0	0	0	0	0	0	0	0	0	0	0	0	0	0	0	0	0	0	0	0	0	0	0	0	0	0	0	0	0	0	0	0	0	0	0	0	0	0	0	0	0	0	0	0	0	0	0	0	0	0	0	0	0	0	0	0	0	0	0	0	0	0	0	0	0	0	0	0	0	0	0	0	0	0	0	0	0	0	0	0	0	0	0	0	0	0	0	0	0	0	0	0	0	0	0	0	637	625	611	609	617	626	638	653	670	663	634	605	597	608	622	630	641	648	654	669	682	691	699	698	692	681	684	687	685	675	670	670	675	677	680	675	668	654	649	654	658	660	663	679	682	681	675	672	668	661	656	661	666	658	641	627	631	638	646	652	657	661	664	659	651	645	647	651	650	654	661	658	647	649	657	660	662	665	665	659	653	646	638	635	628	631	643	678	0	0	0	0	0	0	0	0	0	0	0	0	0	0	0	0	0	0	0	0	0	0	0	0	0	0	0	0	0	0	0	0	0	0	0	0	0	0	0	0	0	0	0	0	0	0	0	0	0	0	0	0	0	0	0	0	0	0	0	0	0	0	0	0	0	0	0	0	0	0	0	0	0	0	0	0	0	0	0	0	0	0	0	0	0	0	0	0	0	0
0	0	0	0	0	0	0	0	0	0	0	0	0	0	0	0	0	0	0	0	0	0	0	0	0	0	0	0	0	0	0	0	0	0	0	0	0	0	0	0	0	0	0	0	0	0	0	0	0	0	0	0	0	0	0	0	0	0	0	0	0	0	0	0	0	0	0	0	0	0	0	0	0	0	0	0	0	0	0	0	0	0	0	0	0	0	0	0	0	0	0	0	0	0	0	0	0	0	0	0	0	0	0	0	0	0	0	0	0	0	0	0	0	0	0	0	0	0	0	0	0	0	0	0	0	0	0	0	0	0	737	717	705	713	720	711	700	686	680	684	685	677	674	676	679	704	716	721	732	743	746	750	751	749	739	716	692	690	689	689	684	676	680	688	700	700	715	726	736	758	761	757	750	739	712	701	703	709	714	718	726	748	773	792	790	774	754	742	741	743	748	737	732	724	720	715	712	716	718	0	0	0	0	0	0	0	0	0	0	0	0	0	0	0	0	0	0	0	0	0	0	0	0	0	0	0	0	0	0	0	0	0	0	0	0	0	0	0	0	0	0	0	0	0	0	0	0	0	0	0	0	0	0	0	0	0	0	0	0	0	0	0	0	0	0	0	0	0	0	0	0	0	0	0	0	0	0	0	0	0	0	0	0	0	0	0	0	0	0	0	0	0	0	0	0	0	0	0	0	0	0	0	0	0	0	0	0	0	0	0	0	0	0	0	0	0	0	0	0	0	0	0	0	0	0	0	0	0	0	0	0	0	0	0	0	0	0	0	0	0	0	0	0	0	0	0	0	0	0	0	0	0	0	0	0	0	0	0	0	0	0	0	0	0	0	0	0	0	0	0	0	0	0	0	0	0	0	0	0	0	0	0	0	0	0	0	0	0	0	0	0	0	0	0	0	0	0	0	0	0	0	0	0	0	0	0	0	0	0	0	0	0	0	0	0	0	0	0	0	0	0	0	0	0	0	0	0	0	0	0	0	0	0	0	0	0	0	0	0	0	0	0	0	0	0	0	0	0	0	0	0	0	0	0	0	0	0	0	0	0	0	0	642	649	624	614	618	625	633	643	667	656	631	606	606	614	622	632	642	649	656	669	679	692	703	708	702	680	684	688	684	674	667	671	680	687	690	683	669	653	648	650	651	658	662	679	684	688	679	671	664	659	660	666	670	660	642	624	620	624	630	633	640	652	661	654	646	637	630	627	630	630	631	626	621	620	631	646	657	662	663	663	660	652	644	642	629	624	630	654	684	692	0	0	0	0	0	0	0	0	0	0	0	0	0	0	0	0	0	0	0	0	0	0	0	0	0	0	0	0	0	0	0	0	0	0	0	0	0	0	0	0	0	0	0	0	0	0	0	0	0	0	0	0	0	0	0	0	0	0	0	0	0	0	0	0	0	0	0	0	0	0	0	0	0	0	0	0	0	0	0	0	0	0	0	0	0	0	0	0
0	0	0	0	0	0	0	0	0	0	0	0	0	0	0	0	0	0	0	0	0	0	0	0	0	0	0	0	0	0	0	0	0	0	0	0	0	0	0	0	0	0	0	0	0	0	0	0	0	0	0	0	0	0	0	0	0	0	0	0	0	0	0	0	0	0	0	0	0	0	0	0	0	0	0	0	0	0	0	0	0	0	0	0	0	0	0	0	0	0	0	0	0	0	0	0	0	0	0	0	0	0	0	0	0	0	0	0	0	0	0	0	0	0	0	0	0	0	0	0	0	0	0	0	0	0	0	0	709	699	689	670	676	687	693	690	679	672	668	668	668	665	661	661	664	670	689	702	713	714	718	734	743	746	734	716	695	690	688	688	687	683	680	685	694	709	721	748	762	764	761	754	742	729	709	704	706	706	710	710	714	732	755	778	782	769	757	749	753	752	753	745	744	739	733	721	712	704	0	0	0	0	0	0	0	0	0	0	0	0	0	0	0	0	0	0	0	0	0	0	0	0	0	0	0	0	0	0	0	0	0	0	0	0	0	0	0	0	0	0	0	0	0	0	0	0	0	0	0	0	0	0	0	0	0	0	0	0	0	0	0	0	0	0	0	0	0	0	0	0	0	0	0	0	0	0	0	0	0	0	0	0	0	0	0	0	0	0	0	0	0	0	0	0	0	0	0	0	0	0	0	0	0	0	0	0	0	0	0	0	0	0	0	0	0	0	0	0	0	0	0	0	0	0	0	0	0	0	0	0	0	0	0	0	0	0	0	0	0	0	0	0	0	0	0	0	0	0	0	0	0	0	0	0	0	0	0	0	0	0	0	0	0	0	0	0	0	0	0	0	0	0	0	0	0	0	0	0	0	0	0	0	0	0	0	0	0	0	0	0	0	0	0	0	0	0	0	0	0	0	0	0	0	0	0	0	0	0	0	0	0	0	0	0	0	0	0	0	0	0	0	0	0	0	0	0	0	0	0	0	0	0	0	0	0	0	0	0	0	0	0	0	0	0	0	0	0	0	0	0	0	0	0	0	0	0	0	0	0	0	0	0	648	648	643	623	621	628	629	653	661	655	650	634	624	621	629	638	655	660	664	673	689	701	712	718	715	681	680	686	685	675	673	678	688	697	697	688	668	654	647	649	652	654	657	673	685	687	685	675	663	657	659	668	670	661	642	620	614	616	620	624	635	649	657	655	645	635	621	614	612	611	607	601	594	599	609	625	635	638	646	654	653	643	641	637	626	618	614	617	639	647	640	650	0	0	0	0	0	0	0	0	0	0	0	0	0	0	0	0	0	0	0	0	0	0	0	0	0	0	0	0	0	0	0	0	0	0	0	0	0	0	0	0	0	0	0	0	0	0	0	0	0	0	0	0	0	0	0	0	0	0	0	0	0	0	0	0	0	0	0	0	0	0	0	0	0	0	0	0	0	0	0	0	0	0	0	0	0	0
0	0	0	0	0	0	0	0	0	0	0	0	0	0	0	0	0	0	0	0	0	0	0	0	0	0	0	0	0	0	0	0	0	0	0	0	0	0	0	0	0	0	0	0	0	0	0	0	0	0	0	0	0	0	0	0	0	0	0	0	0	0	0	0	0	0	0	0	0	0	0	0	0	0	0	0	0	0	0	0	0	0	0	0	0	0	0	0	0	0	0	0	0	0	0	0	0	0	0	0	0	0	0	0	0	0	0	0	0	0	0	0	0	0	0	0	0	0	0	0	0	0	0	699	705	677	656	644	619	626	635	648	660	671	672	671	659	661	664	659	656	655	649	652	654	653	653	657	663	673	685	694	703	711	712	706	698	697	692	691	689	684	679	674	688	708	732	752	763	763	758	739	731	723	712	716	714	710	713	709	712	719	742	756	761	759	759	760	761	761	753	742	748	748	741	713	693	0	0	0	0	0	0	0	0	0	0	0	0	0	0	0	0	0	0	0	0	0	0	0	0	0	0	0	0	0	0	0	0	0	0	0	0	0	0	0	0	0	0	0	0	0	0	0	0	0	0	0	0	0	0	0	0	0	0	0	0	0	0	0	0	0	0	0	0	0	0	0	0	0	0	0	0	0	0	0	0	0	0	0	0	0	0	0	0	0	0	0	0	0	0	0	0	0	0	0	0	0	0	0	0	0	0	0	0	0	0	0	0	0	0	0	0	0	0	0	0	0	0	0	0	0	0	0	0	0	0	0	0	0	0	0	0	0	0	0	0	0	0	0	0	0	0	0	0	0	0	0	0	0	0	0	0	0	0	0	0	0	0	0	0	0	0	0	0	0	0	0	0	0	0	0	0	0	0	0	0	0	0	0	0	0	0	0	0	0	0	0	0	0	0	0	0	0	0	0	0	0	0	0	0	0	0	0	0	0	0	0	0	0	0	0	0	0	0	0	0	0	0	0	0	0	0	0	0	0	0	0	0	0	0	0	0	0	0	0	0	0	0	0	0	0	0	0	0	0	0	0	0	0	0	0	0	0	0	0	0	0	0	0	0	0	645	647	635	626	624	624	624	639	656	666	667	659	650	651	650	667	686	685	687	697	706	715	723	726	711	692	687	690	687	682	679	685	694	700	701	686	664	654	651	649	647	648	664	670	680	688	686	673	660	659	655	660	662	656	642	622	616	619	623	623	629	639	643	652	646	635	626	614	606	599	592	581	582	590	594	601	605	603	607	613	614	617	621	620	612	598	586	586	591	599	608	615	625	643	0	0	0	0	0	0	0	0	0	0	0	0	0	0	0	0	0	0	0	0	0	0	0	0	0	0	0	0	0	0	0	0	0	0	0	0	0	0	0	0	0	0	0	0	0	0	0	0	0	0	0	0	0	0	0	0	0	0	0	0	0	0	0	0	0	0	0	0	0	0	0	0	0	0	0	0	0	0	0	0	0	0	0	0
0	0	0	0	0	0	0	0	0	0	0	0	0	0	0	0	0	0	0	0	0	0	0	0	0	0	0	0	0	0	0	0	0	0	0	0	0	0	0	0	0	0	0	0	0	0	0	0	0	0	0	0	0	0	0	0	0	0	0	0	0	0	0	0	0	0	0	0	0	0	0	0	0	0	0	0	0	0	0	0	0	0	0	0	0	0	0	0	0	0	0	0	0	0	0	0	0	0	0	0	0	0	0	0	0	0	0	0	0	0	0	0	0	0	0	0	0	0	0	0	631	637	659	644	620	592	584	578	590	604	619	631	652	654	651	650	644	646	651	649	642	641	640	640	642	642	643	648	659	667	673	675	682	689	694	691	698	700	691	683	662	653	649	649	652	679	713	741	750	728	704	714	721	721	723	713	708	712	712	709	710	718	722	731	736	743	754	760	761	754	742	729	731	732	709	0	0	0	0	0	0	0	0	0	0	0	0	0	0	0	0	0	0	0	0	0	0	0	0	0	0	0	0	0	0	0	0	0	0	0	0	0	0	0	0	0	0	0	0	0	0	0	0	0	0	0	0	0	0	0	0	0	0	0	0	0	0	0	0	0	0	0	0	0	0	0	0	0	0	0	0	0	0	0	0	0	0	0	0	0	0	0	0	0	0	0	0	0	0	0	0	0	0	0	0	0	0	0	0	0	0	0	0	0	0	0	0	0	0	0	0	0	0	0	0	0	0	0	0	0	0	0	0	0	0	0	0	0	0	0	0	0	0	0	0	0	0	0	0	0	0	0	0	0	0	0	0	0	0	0	0	0	0	0	0	0	0	0	0	0	0	0	0	0	0	0	0	0	0	0	0	0	0	0	0	0	0	0	0	0	0	0	0	0	0	0	0	0	0	0	0	0	0	0	0	0	0	0	0	0	0	0	0	0	0	0	0	0	0	0	0	0	0	0	0	0	0	0	0	0	0	0	0	0	0	0	0	0	0	0	0	0	0	0	0	0	0	0	0	0	0	0	0	0	0	0	0	0	0	0	0	0	0	0	0	0	0	0	0	0	0	0	0	0	0	0	0	0	615	635	656	672	680	683	680	680	687	700	708	711	713	718	729	733	727	731	724	713	701	697	694	691	692	693	698	704	700	685	665	655	653	644	642	645	662	666	674	681	677	665	659	651	649	646	641	636	625	615	616	627	631	629	631	631	630	644	651	646	637	625	619	601	588	582	584	590	595	599	601	602	605	609	614	613	603	595	590	580	576	577	587	597	609	619	622	622	640	680	0	0	0	0	0	0	0	0	0	0	0	0	0	0	0	0	0	0	0	0	0	0	0	0	0	0	0	0	0	0	0	0	0	0	0	0	0	0	0	0	0	0	0	0	0	0	0	0	0	0	0	0	0	0	0	0	0	0	0	0	0	0	0	0	0	0	0	0	0	0	0	0	0	0	0	0	0	0	0	0	0	0
0	0	0	0	0	0	0	0	0	0	0	0	0	0	0	0	0	0	0	0	0	0	0	0	0	0	0	0	0	0	0	0	0	0	0	0	0	0	0	0	0	0	0	0	0	0	0	0	0	0	0	0	0	0	0	0	0	0	0	0	0	0	0	0	0	0	0	0	0	0	0	0	0	0	0	0	0	0	0	0	0	0	0	0	0	0	0	0	0	0	0	0	0	0	0	0	0	0	0	0	0	0	0	0	0	0	0	0	0	0	0	0	0	665	649	633	624	628	628	617	613	608	607	605	594	573	559	568	580	592	601	612	631	632	629	626	629	632	629	629	623	619	608	622	630	641	641	650	663	666	666	666	670	676	679	682	697	698	688	674	657	655	648	641	641	654	665	669	662	666	683	693	705	719	723	719	708	705	708	711	716	718	718	717	717	722	735	743	742	735	726	717	705	670	0	0	0	0	0	0	0	0	0	0	0	0	0	0	0	0	0	0	0	0	0	0	0	0	0	0	0	0	0	0	0	0	0	0	0	0	0	0	0	0	0	0	0	0	0	0	0	0	0	0	0	0	0	0	0	0	0	0	0	0	0	0	0	0	0	0	0	0	0	0	0	0	0	0	0	0	0	0	0	0	0	0	0	0	0	0	0	0	0	0	0	0	0	0	0	0	0	0	0	0	0	0	0	0	0	0	0	0	0	0	0	0	0	0	0	0	0	0	0	0	0	0	0	0	0	0	0	0	0	0	0	0	0	0	0	0	0	0	0	0	0	0	0	0	0	0	0	0	0	0	0	0	0	0	0	0	0	0	0	0	0	0	0	0	0	0	0	0	0	0	0	0	0	0	0	0	0	0	0	0	0	0	0	0	0	0	0	0	0	0	0	0	0	0	0	0	0	0	0	0	0	0	0	0	0	0	0	0	0	0	0	0	0	0	0	0	0	0	0	0	0	0	0	0	0	0	0	0	0	0	0	0	0	0	0	0	0	0	0	0	0	0	0	0	0	0	0	0	0	0	0	0	0	0	0	0	0	0	0	0	0	0	0	0	0	0	0	0	0	0	0	0	0	0	0	637	652	672	689	698	701	696	702	710	729	745	745	750	752	741	731	725	720	712	707	705	703	703	697	694	698	702	696	684	670	658	646	641	635	638	654	656	660	666	660	652	643	638	632	628	618	609	603	601	611	629	633	631	626	625	625	639	638	638	640	638	627	613	603	600	607	610	599	598	599	597	601	608	613	618	609	600	590	583	585	587	593	604	614	623	620	615	626	653	673	678	675	0	0	0	0	0	0	0	0	0	0	0	0	0	0	0	0	0	0	0	0	0	0	0	0	0	0	0	0	0	0	0	0	0	0	0	0	0	0	0	0	0	0	0	0	0	0	0	0	0	0	0	0	0	0	0	0	0	0	0	0	0	0	0	0	0	0	0	0	0	0	0	0	0	0	0	0	0	0	0
0	0	0	0	0	0	0	0	0	0	0	0	0	0	0	0	0	0	0	0	0	0	0	0	0	0	0	0	0	0	0	0	0	0	0	0	0	0	0	0	0	0	0	0	0	0	0	0	0	0	0	0	0	0	0	0	0	0	0	0	0	0	0	0	0	0	0	0	0	0	0	0	0	0	0	0	0	0	0	0	0	0	0	0	0	0	0	0	0	0	0	0	0	0	0	0	0	0	0	0	0	0	0	0	0	0	0	0	0	665	660	647	622	599	593	599	599	601	606	605	596	594	590	590	579	570	561	568	579	589	589	599	598	581	581	587	590	594	594	589	578	571	593	607	624	637	647	655	661	668	662	661	659	666	672	672	690	695	688	676	663	655	649	640	631	632	634	632	635	656	675	688	702	717	729	720	710	711	709	712	716	719	721	718	713	716	722	723	722	716	712	702	652	0	0	0	0	0	0	0	0	0	0	0	0	0	0	0	0	0	0	0	0	0	0	0	0	0	0	0	0	0	0	0	0	0	0	0	0	0	0	0	0	0	0	0	0	0	0	0	0	0	0	0	0	0	0	0	0	0	0	0	0	0	0	0	0	0	0	0	0	0	0	0	0	0	0	0	0	0	0	0	0	0	0	0	0	0	0	0	0	0	0	0	0	0	0	0	0	0	0	0	0	0	0	0	0	0	0	0	0	0	0	0	0	0	0	0	0	0	0	0	0	0	0	0	0	0	0	0	0	0	0	0	0	0	0	0	0	0	0	0	0	0	0	0	0	0	0	0	0	0	0	0	0	0	0	0	0	0	0	0	0	0	0	0	0	0	0	0	0	0	0	0	0	0	0	0	0	0	0	0	0	0	0	0	0	0	0	0	0	0	0	0	0	0	0	0	0	0	0	0	0	0	0	0	0	0	0	0	0	0	0	0	0	0	0	0	0	0	0	0	0	0	0	0	0	0	0	0	0	0	0	0	0	0	0	0	0	0	0	0	0	0	0	0	0	0	0	0	0	0	0	0	0	0	0	0	0	0	0	0	0	0	0	0	0	0	0	0	0	0	0	0	0	0	0	0	0	0	650	660	677	693	701	702	704	727	743	756	761	764	761	742	726	718	716	715	707	699	701	698	697	689	691	692	692	687	672	659	646	636	630	629	636	638	644	648	642	628	620	615	613	610	598	591	585	588	601	616	623	619	619	620	619	625	623	620	627	636	627	618	614	613	622	629	624	607	595	591	594	603	609	619	621	613	605	601	598	597	600	607	618	621	616	612	624	640	658	661	653	644	0	0	0	0	0	0	0	0	0	0	0	0	0	0	0	0	0	0	0	0	0	0	0	0	0	0	0	0	0	0	0	0	0	0	0	0	0	0	0	0	0	0	0	0	0	0	0	0	0	0	0	0	0	0	0	0	0	0	0	0	0	0	0	0	0	0	0	0	0	0	0	0	0	0	0	0	0	0
0	0	0	0	0	0	0	0	0	0	0	0	0	0	0	0	0	0	0	0	0	0	0	0	0	0	0	0	0	0	0	0	0	0	0	0	0	0	0	0	0	0	0	0	0	0	0	0	0	0	0	0	0	0	0	0	0	0	0	0	0	0	0	0	0	0	0	0	0	0	0	0	0	0	0	0	0	0	0	0	0	0	0	0	0	0	0	0	0	0	0	0	0	0	0	0	0	0	0	0	0	0	0	0	0	0	0	663	652	639	634	612	592	583	581	582	589	593	596	595	590	582	575	577	579	575	572	576	586	586	584	584	588	576	578	582	586	589	585	572	554	550	563	586	616	626	635	648	657	660	659	658	658	666	668	672	675	674	673	667	659	655	648	637	628	627	625	623	627	670	681	691	703	720	728	729	722	714	714	715	717	715	717	718	723	719	714	709	705	700	675	0	0	0	0	0	0	0	0	0	0	0	0	0	0	0	0	0	0	0	0	0	0	0	0	0	0	0	0	638	652	0	0	0	0	0	0	0	0	0	0	0	0	0	0	0	0	0	0	0	0	0	0	0	0	0	0	0	0	0	0	0	0	0	0	0	0	0	0	0	0	0	0	0	0	0	0	0	0	0	0	0	0	0	0	0	0	0	0	0	0	0	0	0	0	0	0	0	0	0	0	0	0	0	0	0	0	0	0	0	0	0	0	0	0	0	0	0	0	0	0	0	0	0	0	0	0	0	0	0	0	0	0	0	0	0	0	0	0	0	0	0	0	0	0	0	0	0	0	0	0	0	0	0	0	0	0	0	0	0	0	0	0	0	0	0	0	0	0	0	0	0	0	0	0	0	0	0	0	0	0	0	0	0	0	0	0	0	0	0	0	0	0	0	0	0	0	0	0	0	0	0	0	0	0	0	0	0	0	0	0	0	0	0	0	0	0	0	0	0	0	0	0	0	0	0	0	0	0	0	0	0	0	0	0	0	0	0	0	0	0	0	0	0	0	0	0	0	0	0	0	0	0	0	0	0	0	0	0	0	0	0	0	0	0	0	0	0	0	0	0	0	0	0	0	0	0	0	0	0	0	0	661	672	0	0	709	732	751	764	770	771	761	744	722	723	732	729	714	698	690	687	685	683	683	688	688	684	676	663	654	641	631	627	626	629	633	631	624	614	598	596	599	599	592	583	574	576	589	599	604	603	602	604	605	602	601	600	608	622	620	614	606	612	621	632	624	611	600	593	595	598	603	614	620	619	614	612	605	598	592	598	611	612	609	607	619	628	639	647	643	632	623	616	627	0	0	0	0	0	0	0	0	0	0	0	0	0	0	0	0	0	0	0	0	0	0	0	0	0	0	0	0	0	0	0	0	0	0	0	0	0	0	0	0	0	0	0	0	0	0	0	0	0	0	0	0	0	0	0	0	0	0	0	0	0	0	0	0	0	0	0	0	0	0	0	0	0	0	0
0	0	0	0	0	0	0	0	0	0	0	0	0	0	0	0	0	0	0	0	0	0	0	0	0	0	0	0	0	0	0	0	0	0	0	0	0	0	0	0	0	0	0	0	0	0	0	0	0	0	0	0	0	0	0	0	0	0	0	0	0	0	0	0	0	0	0	0	0	0	0	0	0	0	0	0	0	0	0	0	0	0	0	0	0	0	0	0	0	0	0	0	0	0	0	0	0	0	0	0	0	0	0	0	0	0	646	642	629	619	610	599	590	584	582	586	588	592	594	592	590	577	570	568	573	573	574	579	587	592	592	585	592	589	581	582	589	593	587	564	550	550	562	575	595	608	614	624	642	648	654	657	666	671	675	674	668	657	657	658	653	654	649	638	627	626	630	631	672	684	686	691	704	711	715	722	723	721	722	725	722	720	717	714	713	706	704	696	688	659	0	0	0	588	583	575	0	0	0	0	0	0	0	0	0	0	0	0	0	0	0	0	0	0	0	0	0	0	0	0	0	0	0	0	0	0	0	0	0	0	0	0	0	0	0	0	0	0	0	0	0	0	0	0	0	0	0	0	0	0	0	0	0	0	0	0	0	0	0	0	0	0	0	0	0	0	0	0	0	0	0	0	0	0	0	0	0	0	0	0	0	0	0	0	0	0	0	0	0	0	0	0	0	0	0	0	0	0	0	0	0	0	0	0	0	0	0	0	0	0	0	0	0	0	0	0	0	0	0	0	0	0	0	0	0	0	0	0	0	0	0	0	0	0	0	0	0	0	0	0	0	0	0	0	0	0	0	0	0	0	0	0	0	0	0	0	0	0	0	0	0	0	0	0	0	0	0	0	0	0	0	0	0	0	0	0	0	0	0	0	0	0	0	0	0	0	0	0	0	0	0	0	0	0	0	0	0	0	0	0	0	0	0	0	0	0	0	0	0	0	0	0	0	0	0	0	0	0	0	0	0	0	0	0	0	0	0	0	0	0	0	0	0	0	0	0	0	0	0	0	0	0	0	0	0	0	0	0	0	0	0	0	0	0	0	0	0	0	0	0	0	0	0	0	0	0	0	0	0	0	0	0	0	0	0	0	702	723	745	762	771	780	763	738	723	734	747	744	726	707	684	677	680	682	680	681	684	680	672	669	664	657	643	634	628	627	623	623	612	600	591	591	593	594	590	582	574	572	584	592	594	593	593	594	593	593	594	589	597	605	610	606	602	606	613	619	621	612	602	593	591	589	596	604	610	610	609	609	597	585	576	588	600	606	602	602	611	616	623	633	633	633	627	626	628	628	617	0	0	0	0	0	0	0	0	0	0	0	0	0	0	0	0	0	0	0	0	0	0	0	0	0	0	0	0	0	0	0	0	0	0	0	0	0	0	0	0	0	0	0	0	0	0	0	0	0	0	0	0	0	0	0	0	0	0	0	0	0	0	0	0	0	0	0	0	0	0	0	0	0
0	0	0	0	0	0	0	0	0	0	0	0	0	0	0	0	0	0	0	0	0	0	0	0	0	0	0	0	0	0	0	0	0	0	0	0	0	0	0	0	0	0	0	0	0	0	0	0	0	0	0	0	0	0	0	0	0	0	0	0	0	0	0	0	0	0	0	0	0	0	0	0	0	0	0	0	0	0	0	0	0	0	0	0	0	0	0	0	0	0	0	0	0	0	0	0	0	0	0	0	0	0	0	0	0	630	618	616	604	585	587	591	593	586	581	586	587	589	591	591	587	575	570	567	568	567	570	578	584	591	595	604	623	613	595	588	590	600	598	571	555	555	567	578	586	594	599	607	618	637	645	651	656	660	670	673	670	656	656	657	656	658	669	670	674	688	699	698	698	693	691	694	698	697	695	699	715	720	725	732	734	726	716	707	697	683	672	671	639	0	0	0	0	569	571	571	0	0	0	0	0	0	0	0	0	0	0	0	0	0	0	0	0	0	0	0	0	0	0	0	0	0	0	0	0	0	0	0	0	0	0	0	0	0	0	0	0	0	0	0	0	0	0	0	0	0	0	0	0	0	0	0	0	0	0	0	0	0	0	0	0	0	0	0	0	0	0	0	0	0	0	0	0	0	0	0	0	0	0	0	0	0	0	0	0	0	0	0	0	0	0	0	0	0	0	0	0	0	0	0	0	0	0	0	0	0	0	0	0	0	0	0	0	0	0	0	0	0	0	0	0	0	0	0	0	0	0	0	0	0	0	0	0	0	0	0	0	0	0	0	0	0	0	0	0	0	0	0	0	0	0	0	0	0	0	0	0	0	0	0	0	0	0	0	0	0	0	0	0	0	0	0	0	0	0	0	0	0	0	0	0	0	0	0	0	0	0	0	0	0	0	0	0	0	0	0	0	0	0	0	0	0	0	0	0	0	0	0	0	0	0	0	0	0	0	0	0	0	0	0	0	0	0	0	0	0	0	0	0	0	0	0	0	0	0	0	0	0	0	0	0	0	0	0	0	0	0	0	0	0	0	0	0	0	0	0	0	0	0	0	0	0	0	0	0	0	0	0	0	0	0	0	0	0	0	667	688	710	732	753	767	769	752	730	716	732	746	744	732	711	694	681	675	680	682	679	675	666	667	670	672	667	650	633	629	625	619	611	600	594	589	590	591	592	590	579	572	565	569	580	588	588	588	586	585	580	580	586	590	601	609	609	600	599	600	608	605	585	571	569	573	583	587	595	593	597	597	596	584	568	564	574	589	598	598	593	593	599	605	617	624	628	631	634	633	627	617	601	590	0	0	0	0	0	0	0	0	0	0	0	0	0	0	0	0	0	0	0	0	0	0	0	0	0	0	0	0	0	0	0	0	0	0	0	0	0	0	0	0	0	0	0	0	0	0	0	0	0	0	0	0	0	0	0	0	0	0	0	0	0	0	0	0	0	0	0	0	0	0	0
0	0	0	0	0	0	0	0	0	0	0	0	0	0	0	0	0	0	0	0	0	0	0	0	0	0	0	0	0	0	0	0	0	0	0	0	0	0	0	0	0	0	0	0	0	0	0	0	0	0	0	0	0	0	0	0	0	0	0	0	0	0	0	0	0	0	0	0	0	0	0	0	0	0	0	0	0	0	0	0	0	0	0	0	0	0	0	0	0	0	0	0	0	0	0	0	0	0	0	602	597	0	0	0	626	598	585	569	548	554	571	583	588	584	580	579	586	590	592	590	583	577	568	568	568	567	567	569	577	585	595	618	620	607	590	576	584	595	595	584	573	574	574	577	587	599	599	592	597	607	608	605	605	617	639	652	661	669	669	667	669	677	680	687	690	691	690	693	696	697	699	700	695	686	684	682	695	705	716	726	728	725	714	698	682	664	643	608	0	0	0	572	560	557	0	0	0	0	0	0	0	0	0	0	0	0	0	0	0	0	0	0	0	0	0	653	0	0	0	0	0	0	0	0	0	0	0	0	0	0	0	0	0	0	0	0	0	0	0	0	0	0	0	0	0	0	0	0	0	0	0	0	0	0	0	0	0	0	0	0	0	0	0	0	0	0	0	0	0	0	0	0	0	0	0	0	0	0	0	0	0	0	0	0	0	0	0	0	0	0	0	0	0	0	0	0	0	0	0	0	0	0	0	0	0	0	0	0	0	0	0	0	0	0	0	0	0	0	0	0	0	0	0	0	0	0	0	0	0	0	0	0	0	0	0	0	0	0	0	0	0	0	0	0	0	0	0	0	0	0	0	0	0	0	0	0	0	0	0	0	0	0	0	0	0	0	0	0	0	0	0	0	0	0	0	0	0	0	0	0	0	0	0	0	0	0	0	0	0	0	0	0	0	0	0	0	0	0	0	0	0	0	0	0	0	0	0	0	0	0	0	0	0	0	0	0	0	0	0	0	0	0	0	0	0	0	0	0	0	0	0	0	0	0	0	0	0	0	0	0	0	0	0	0	0	0	0	0	0	0	0	0	0	0	0	0	0	0	0	0	0	0	0	0	0	0	0	0	0	0	0	0	0	0	0	649	663	687	710	732	742	749	737	720	703	725	733	737	732	719	706	692	687	687	683	679	666	658	660	666	672	663	649	634	634	626	615	605	601	601	603	606	604	595	590	585	569	560	564	580	596	598	590	587	578	571	572	576	586	600	607	609	605	595	592	590	588	571	558	557	564	575	580	582	579	580	584	585	576	565	562	569	575	581	578	578	579	582	591	599	605	611	622	633	629	621	612	599	584	567	560	563	0	0	0	0	0	0	0	0	0	0	0	0	0	0	0	0	0	0	0	0	0	0	0	0	0	0	0	0	0	0	0	0	0	0	0	0	0	0	0	0	0	0	0	0	0	0	0	0	0	0	0	0	0	0	0	0	0	0	0	0	0	0	0	0	0	0	0	0
0	0	0	0	0	0	0	0	0	0	0	0	0	0	0	0	0	0	0	0	0	0	0	0	0	0	0	0	0	0	0	0	0	0	0	0	0	0	0	0	0	0	0	0	0	0	0	0	0	0	0	0	0	0	0	0	0	0	0	0	0	0	0	0	0	0	0	0	0	0	0	0	0	0	0	0	0	0	0	0	0	0	0	0	0	0	0	0	0	0	0	0	0	0	0	0	0	646	624	602	594	604	614	604	584	556	541	534	535	544	563	572	576	574	570	570	578	585	588	591	580	570	569	570	574	571	566	557	563	568	586	591	579	571	569	573	583	591	584	582	574	571	568	573	585	595	598	593	594	595	598	594	597	611	626	640	652	671	672	674	672	677	684	685	686	675	671	669	677	689	699	701	691	683	681	682	680	679	692	701	707	713	706	690	668	637	0	0	0	0	0	0	545	0	0	0	0	0	0	0	0	0	0	0	0	0	0	0	0	0	0	0	0	0	0	0	0	0	0	0	0	0	0	0	0	0	0	0	0	0	0	0	0	0	0	0	0	0	0	0	0	0	0	0	0	0	0	0	0	0	0	0	0	0	0	0	0	0	0	0	0	0	0	0	0	0	0	0	0	0	0	0	0	0	0	0	0	0	0	0	0	0	0	0	0	0	0	0	0	0	0	0	0	0	0	0	0	0	0	0	0	0	0	0	0	0	0	0	0	0	0	0	0	0	0	0	0	0	0	0	0	0	0	0	0	0	0	0	0	0	0	0	0	0	0	0	0	0	0	0	0	0	0	0	0	0	0	0	0	0	0	0	0	0	0	0	0	0	0	0	0	0	0	0	0	0	0	0	0	0	0	0	0	0	0	0	0	0	0	0	0	0	0	0	0	0	0	0	0	0	0	0	0	0	0	0	0	0	0	0	0	0	0	0	0	0	0	0	0	0	0	0	0	0	0	0	0	0	0	0	0	0	0	0	0	0	0	0	0	0	0	0	0	0	0	0	0	0	0	0	0	0	0	0	0	0	0	0	0	0	0	0	0	0	0	0	0	0	0	0	0	0	0	0	0	0	0	0	0	0	0	0	0	0	0	0	645	663	681	702	718	721	721	717	714	722	728	727	728	722	716	704	696	690	691	682	671	661	665	673	675	663	648	644	644	636	625	618	615	616	621	614	611	609	612	601	587	571	574	591	601	601	595	586	583	575	572	576	582	591	601	607	603	594	588	583	578	559	549	550	560	568	573	570	568	568	574	576	573	568	569	570	565	553	545	544	554	568	581	586	585	589	601	611	616	612	604	592	583	571	562	560	564	571	0	0	0	0	0	0	0	0	0	0	0	0	0	0	0	0	0	0	0	0	0	0	0	0	0	0	0	0	0	0	0	0	0	0	0	0	0	0	0	0	0	0	0	0	0	0	0	0	0	0	0	0	0	0	0	0	0	0	0	0	0	0	0	0	0	0
0	0	0	0	0	0	0	0	0	0	0	0	0	0	0	0	0	0	0	0	0	0	0	0	0	0	0	0	0	0	0	0	0	0	0	0	0	0	0	0	0	0	0	0	0	0	0	0	0	0	0	0	0	0	0	0	0	0	0	0	0	0	0	0	0	0	0	0	0	0	0	0	0	0	0	0	0	0	0	0	0	0	0	0	0	0	0	0	0	0	0	0	677	666	673	669	657	639	620	602	596	596	593	575	542	531	527	530	534	541	554	562	563	562	560	560	565	574	585	581	571	563	561	571	577	574	563	562	567	574	582	580	570	566	570	577	581	584	580	575	570	563	562	568	585	596	599	595	596	599	596	596	603	618	625	629	635	652	653	649	657	665	665	653	635	621	621	630	652	680	694	695	688	683	687	689	664	657	668	677	678	675	667	660	639	0	0	0	0	0	0	0	0	0	0	0	0	0	0	0	0	0	0	0	0	0	0	0	0	0	0	0	0	0	0	0	0	0	0	0	0	0	0	0	0	0	0	0	0	0	0	0	0	0	0	0	0	0	0	0	0	0	0	0	0	0	0	0	0	0	0	0	0	0	0	0	0	0	0	0	0	0	0	0	0	0	0	0	0	0	0	0	0	0	0	0	0	0	0	0	0	0	0	0	0	0	0	0	0	0	0	0	0	0	0	0	0	0	0	0	0	0	0	0	0	0	0	0	0	0	0	0	0	0	0	0	0	0	0	0	0	0	0	0	0	0	0	0	0	0	0	0	0	0	0	0	0	0	0	0	0	0	0	0	0	0	0	0	0	0	0	0	0	0	0	0	0	0	0	0	0	0	0	0	0	0	0	0	0	0	0	0	0	0	0	0	0	0	0	0	0	0	0	0	0	0	0	0	0	0	0	0	0	0	0	0	0	0	0	0	0	0	0	0	0	0	0	0	0	0	0	0	0	0	0	0	0	0	0	0	0	0	0	0	0	0	0	0	0	0	0	0	0	0	0	0	0	0	0	0	0	0	0	0	0	0	0	0	0	0	0	0	0	0	0	0	0	0	0	0	0	0	0	0	0	0	0	0	0	0	0	0	0	0	0	0	621	651	661	673	681	694	703	713	719	723	723	726	725	719	711	703	696	690	689	685	677	678	679	683	678	664	649	646	651	652	639	634	633	632	626	617	608	607	611	612	605	599	594	594	601	600	591	587	583	577	577	573	576	582	592	600	598	591	583	581	574	560	550	550	558	563	563	560	560	562	568	568	570	569	567	565	558	546	537	535	548	562	575	578	570	567	575	586	593	598	597	588	581	575	570	574	573	577	574	571	0	0	0	0	0	0	0	0	0	0	0	0	0	0	0	0	0	0	0	0	0	0	0	0	0	0	0	0	0	0	0	0	0	0	0	0	0	0	0	0	0	0	0	0	0	0	0	0	0	0	0	0	0	0	0	0	0	0	0	0	0	0	0	0
