0	0	1409	1409	1410	1403	1404	1404	1411	1411	1428	1425	1421	1422	1397	1399	1399	1417	1424	1419	1414	1404	1406	1406	1416	1422	1418	1415	1413	1413	1404	1404	1398	1408	1413	1427	1443	1451	1445	1442	1433	1433	1420	1439	1452	1466	1456	1450	1447	1434	1430	1422	1423	1428	1428	1433	1426	1428	1450	1459	1462	1452	1454	1459	1460	1462	1460	1462	1463	1457	1462	1471	1466	1451	1434	1414	1412	1412	1428	1437	1442	1449	1454	1459	1459	1453	1435	1452	1446	1435	1427	1438	1438	1432	1424	1423	1421	1416	1416	1425	1433	1438	1436	1433	1415	1406	1411	1429	1441	1427	1417	1406	1396	1402	1407	1423	1430	1435	1440	1430	1424	1423	1422	1426	1414	1403	1397	1394	1403	1414	1421	1426	1423	1410	1402	0	0	0	0	0	0	0	0	0	0	0	0	0	0	0	0	0	0	0	0	0	0	0	0	0	0	0	0	0	1671	1654	1650	1644	1649	1662	1682	1702	0	0	0	0	0	0	0	0	0	0	0	1448	1445	1442	1432	1412	1407	1400	1409	1417	1422	1419	1411	1407	1409	1424	1427	1420	1416	1422	1435	1448	1450	1444	1438	1442	1445	1442	1447	1455	1457	1434	1411	1400	1406	1414	1424	1432	1424	1423	1421	1412	1411	1422	1438	1456	1464	1468	1459	1436	1418	1406	1400	1400	1420	1429	1428	1428	1429	1425	1420	1419	1420	1410	1414	1418	1415	1416	1420	1431	1447	1447	1441	1436	1437	1439	1438	1439	1433	1433	1431	1433	1435	1445	1453	1461	1465	1465	1473	1475	1463	1449	1433	1416	1409	1406	1418	1444	1434	1420	1415	1420	1426	1434	1439	1446	1444	1435	1423	1413	1412	1412	1424	1442	1458	1467	1456	1443	1441	1448	1469	1482	1475	1454	1449	1449	1449	1448	1446	1439	1433	1428	1425	1433	1437	1435	1424	1421	1431	1449	1464	1474	1469	1458	1453	1460	1466	1481	1503	1469	1463	1456	1468	1471	1465	1468	1466	1466	1462	1458	1448	1445	1451	1453	1454	1451	1447	1444	1444	1447	1450	1457	1463	1460	1451	1435	1428	1420	1425	1431	1444	1467	1483	1485	1479	1467	1455	1451	1448	1450	1444	1441	1440	1446	1445	1439	1439	1453	1461	1456	1453	1430	1416	1418	1429	1442	1449	1453	1447	1435	1433	1440	1460	1465	1456	1427	1421	1435	1450	1470	1483	1490	1494	1486	1471	1455	1448	1447	1444	1452	1466	1473	1479	1463	1450	1438	1435	1435	1429	1446	1460	1471	1484	1484	1479	1478	1479	1481	1471	1464	1463	1455	1444	1440	1438	1440	1457	1467	1456	1440	1431	1443	1458	1461	1454	1446	1445	1448	1448	1468	1475	1479	1470	1460	1455	1460	1468	1475	1468	1459	1450	1443	1449	1448	1443	1446	1446	1452	1447	1441	1439	1435	1433	1427	1441	1458	1464	1471	1477	1520	0	0	0	0	0	0	0	0	0	0	0	0	0	0	0	0	0	0	0	0	0	0	0	1582	1580	1584	1586	1550	1550	1553	1552	1546	1551	1538	1530	1527	1528	1525	1524	1518	1525	1528	1531	1541	1531	1526	1527	1532	1533	1536	1542	1558	1570	1557	0	0	0	0	0	0	0	0	0	0	0	0	0	0	0	0	0	0	0	1509	1483	1495	1496	1489	1491	1501	1499	1487	1494	1497	1481	1472	1476	1479	1486	1491	1494	1480	1464	1466	1481	1502	1502	1498	1499	1497	1503	1505	1506	1505	1488	1462	1454	1449	1463	1476	1486	1480	1471	1470	1478	1480	1476	1473	1479	1487	1493	1492	1491	1497	1493	1488	1488	1487	1489	1489	1483	1477	1478	1484	1476	1476	1469	1457	1447	1452	1452	1462	1462	1466	1472	1479	1482	1478	1477	1475	1468	0	0	0	0	0	0	0
0	0	1443	1443	1439	1418	1416	1406	1412	1412	1428	1440	1418	1399	1380	1385	1385	1400	1408	1414	1399	1389	1399	1399	1419	1425	1420	1416	1425	1433	1423	1423	1412	1402	1408	1419	1426	1430	1439	1441	1426	1426	1421	1448	1463	1467	1464	1456	1454	1434	1430	1426	1426	1432	1432	1435	1431	1438	1450	1459	1455	1456	1456	1463	1467	1462	1460	1458	1455	1453	1452	1461	1460	1459	1446	1432	1430	1430	1439	1446	1447	1443	1447	1446	1444	1436	1429	1459	1453	1441	1433	1443	1438	1426	1415	1413	1413	1414	1418	1424	1438	1448	1444	1433	1421	1422	1423	1428	1436	1431	1421	1402	1402	1412	1419	1426	1435	1430	1438	1426	1416	1417	1418	1424	1419	1401	1400	1402	1405	1409	1413	1407	1405	1407	1388	1396	0	0	0	0	0	0	0	0	0	0	0	0	0	0	0	0	0	0	0	0	0	0	0	0	0	0	0	0	1674	1663	1651	1647	1652	1662	1682	1679	1666	0	0	0	0	0	0	0	0	0	0	1432	1434	1443	1434	1414	1401	1396	1395	1407	1421	1421	1419	1422	1417	1431	1433	1427	1415	1406	1416	1420	1436	1437	1434	1429	1424	1425	1435	1452	1444	1434	1423	1408	1410	1415	1423	1426	1417	1412	1414	1419	1419	1434	1444	1459	1468	1466	1455	1432	1417	1403	1395	1404	1426	1439	1444	1439	1429	1424	1415	1417	1416	1411	1409	1410	1408	1407	1415	1428	1439	1446	1436	1429	1425	1429	1435	1439	1434	1422	1415	1419	1432	1444	1454	1463	1466	1467	1465	1458	1443	1431	1422	1416	1408	1406	1415	1443	1443	1434	1431	1429	1432	1435	1435	1437	1440	1434	1422	1415	1420	1419	1423	1423	1443	1443	1438	1437	1439	1451	1465	1478	1469	1446	1445	1447	1450	1449	1442	1428	1423	1427	1433	1442	1446	1442	1434	1428	1425	1441	1459	1473	1480	1468	1457	1449	1450	1459	1483	1459	1459	1443	1448	1458	1444	1449	1466	1474	1461	1454	1454	1449	1441	1439	1445	1439	1440	1438	1444	1445	1443	1438	1445	1455	1451	1433	1422	1427	1433	1432	1451	1466	1478	1476	1464	1443	1438	1439	1449	1452	1444	1434	1437	1439	1434	1435	1437	1445	1451	1455	1454	1432	1419	1419	1430	1443	1452	1462	1454	1443	1440	1447	1456	1460	1455	1440	1440	1450	1457	1469	1477	1477	1468	1468	1456	1450	1447	1449	1453	1451	1459	1468	1474	1466	1454	1440	1438	1450	1474	1481	1476	1485	1491	1496	1488	1477	1470	1474	1482	1477	1473	1461	1448	1445	1458	1478	1493	1480	1467	1447	1441	1455	1470	1459	1452	1455	1458	1459	1456	1455	1478	1488	1486	1477	1463	1460	1458	1453	1447	1438	1442	1475	1495	1497	1492	1484	1462	1452	1452	1452	1460	1473	1468	1457	1435	1431	1438	1454	1475	1546	0	0	0	0	0	0	0	0	0	0	0	0	0	0	0	0	0	0	0	0	0	0	0	1593	1590	1575	1550	1549	1555	1554	1538	1540	1540	1523	1516	1520	1523	1519	1519	1521	1528	1540	1543	1543	1534	1533	1546	1541	1533	1529	1530	1549	1566	1564	0	0	0	0	0	0	0	0	0	0	0	0	0	0	0	0	0	0	0	1516	1497	1507	1499	1481	1483	1492	1487	1488	1509	1512	1495	1489	1495	1499	1507	1512	1506	1493	1480	1474	1484	1503	1516	1515	1512	1512	1517	1505	1495	1483	1468	1457	1450	1456	1473	1487	1491	1483	1470	1465	1473	1476	1485	1489	1501	1499	1490	1493	1498	1503	1500	1501	1507	1507	1508	1495	1480	1476	1472	1485	1488	1487	1483	1466	1455	1457	1460	1459	1469	1469	1477	1485	1485	1473	1466	1453	1457	0	0	0	0	0	0	0
0	0	1449	1449	1436	1433	1416	1420	1422	1422	1427	1426	1410	1387	1373	1373	1371	1388	1404	1407	1393	1380	1382	1382	1390	1408	1410	1420	1428	1434	1438	1438	1429	1400	1403	1418	1424	1427	1424	1430	1408	1408	1421	1444	1464	1475	1471	1456	1450	1433	1435	1429	1429	1429	1427	1436	1443	1451	1454	1454	1446	1445	1456	1464	1464	1463	1458	1457	1451	1452	1452	1456	1453	1459	1457	1452	1452	1453	1452	1460	1454	1450	1441	1433	1428	1427	1425	1445	1447	1442	1429	1437	1432	1412	1404	1403	1406	1412	1415	1423	1436	1448	1447	1434	1426	1428	1427	1426	1433	1428	1425	1416	1413	1422	1434	1441	1436	1437	1432	1418	1412	1410	1413	1407	1404	1395	1393	1398	1404	1407	1409	1405	1405	1399	1385	1384	0	0	0	0	0	0	0	0	0	0	0	0	0	0	0	0	0	0	0	0	0	0	0	0	0	0	0	1650	1670	1673	1661	1660	1654	1672	1686	1693	1660	0	0	0	0	0	0	0	0	0	0	1421	1425	1449	1454	1443	1453	1422	1415	1413	1429	1432	1435	1428	1426	1427	1433	1426	1405	1395	1398	1429	1437	1443	1440	1422	1409	1402	1406	1409	1418	1422	1424	1419	1418	1422	1423	1416	1403	1399	1411	1434	1435	1436	1444	1455	1461	1457	1452	1435	1422	1414	1414	1429	1444	1454	1458	1457	1443	1423	1413	1414	1412	1404	1427	1438	1435	1421	1422	1438	1436	1438	1434	1425	1420	1427	1434	1442	1436	1420	1416	1423	1429	1443	1447	1445	1439	1431	1432	1431	1424	1420	1413	1411	1404	1402	1408	1441	1452	1462	1455	1444	1434	1430	1425	1428	1433	1434	1425	1423	1425	1425	1422	1419	1430	1435	1432	1436	1440	1447	1458	1456	1446	1444	1441	1446	1455	1456	1449	1447	1448	1427	1437	1444	1452	1447	1439	1427	1430	1441	1458	1475	1476	1465	1462	1450	1449	1461	1470	1460	1459	1434	1445	1442	1447	1455	1466	1466	1455	1449	1447	1449	1444	1442	1443	1438	1434	1441	1445	1441	1433	1425	1431	1436	1443	1440	1433	1433	1441	1436	1466	1466	1466	1451	1444	1434	1429	1435	1444	1449	1447	1443	1445	1445	1442	1440	1436	1434	1428	1430	1437	1429	1422	1413	1418	1435	1452	1471	1475	1465	1454	1453	1463	1465	1455	1450	1457	1456	1453	1457	1459	1459	1451	1450	1451	1450	1451	1457	1458	1454	1453	1454	1469	1466	1456	1457	1463	1468	1470	1476	1473	1468	1491	1493	1492	1478	1468	1465	1467	1479	1471	1459	1445	1445	1461	1484	1498	1482	1467	1459	1443	1460	1474	1465	1448	1451	1456	1454	1450	1447	1471	1484	1485	1474	1467	1464	1456	1448	1435	1432	1429	1470	1492	1499	1498	1490	1464	1454	1456	1460	1465	1477	1474	1457	1438	1424	1433	1449	1481	1554	0	0	0	0	0	0	0	0	0	0	0	0	0	0	0	0	0	0	0	0	0	0	0	1598	1583	1569	1539	1542	1550	1551	1539	1539	1539	1516	1513	1517	1524	1515	1516	1521	1537	1550	1550	1544	1536	1540	1549	1547	1544	1525	1531	1542	1565	1565	0	0	0	0	0	0	0	0	0	0	0	0	0	0	0	0	0	0	1512	1502	1505	1512	1498	1480	1475	1483	1482	1485	1501	1519	1516	1504	1504	1511	1518	1519	1512	1503	1493	1487	1493	1505	1519	1524	1523	1520	1512	1500	1477	1464	1460	1456	1461	1467	1482	1494	1492	1474	1475	1462	1464	1472	1481	1497	1501	1495	1492	1495	1506	1509	1500	1509	1513	1513	1518	1505	1484	1477	1473	1478	1491	1496	1495	1486	1475	1472	1469	1477	1477	1477	1482	1490	1488	1471	1462	1458	1451	0	0	0	0	0	0	0
0	0	1443	1443	1425	1414	1417	1418	1423	1423	1418	1413	1396	1380	1377	1377	1381	1396	1406	1411	1389	1376	1378	1378	1380	1398	1407	1417	1419	1431	1431	1431	1421	1409	1410	1418	1422	1424	1422	1420	1402	1402	1414	1442	1463	1489	1485	1472	1453	1433	1435	1430	1422	1422	1425	1431	1443	1448	1451	1443	1434	1442	1443	1450	1456	1462	1461	1458	1458	1450	1453	1446	1445	1452	1455	1456	1456	1460	1463	1469	1464	1457	1441	1433	1431	1426	1428	1433	1439	1434	1429	1428	1407	1403	1396	1393	1399	1415	1424	1436	1438	1444	1442	1431	1426	1426	1424	1422	1425	1427	1428	1426	1432	1442	1446	1449	1440	1426	1418	1414	1411	1408	1409	1399	1394	1384	1385	1402	1412	1421	1409	1407	1407	1408	1389	1390	0	0	0	0	0	0	0	0	0	0	0	0	0	0	0	0	0	0	0	0	0	0	0	0	0	0	0	1665	1666	1662	1668	1662	1662	1677	1689	1690	0	0	0	0	0	0	0	0	0	0	0	1396	1405	1435	1446	1450	1467	1446	1435	1425	1432	1430	1432	1423	1417	1415	1420	1416	1408	1404	1418	1435	1441	1441	1435	1423	1413	1403	1394	1404	1408	1415	1423	1425	1430	1428	1430	1422	1409	1405	1420	1434	1444	1441	1444	1445	1456	1449	1450	1454	1441	1430	1430	1441	1450	1456	1460	1461	1463	1443	1421	1421	1419	1423	1433	1443	1439	1437	1424	1426	1434	1443	1442	1434	1431	1430	1443	1446	1432	1423	1422	1432	1443	1450	1449	1439	1436	1430	1430	1428	1422	1417	1414	1412	1413	1415	1419	1439	1454	1467	1468	1448	1432	1422	1418	1420	1423	1430	1429	1429	1429	1427	1426	1431	1435	1440	1436	1436	1443	1450	1454	1453	1446	1436	1439	1447	1456	1461	1460	1455	1457	1451	1438	1448	1453	1448	1446	1437	1440	1451	1466	1476	1478	1464	1452	1450	1450	1457	1459	1473	1475	1456	1446	1456	1461	1465	1467	1453	1450	1444	1446	1447	1444	1441	1436	1438	1433	1438	1441	1439	1432	1424	1426	1436	1442	1443	1438	1441	1459	1473	1469	1460	1448	1436	1433	1437	1435	1437	1442	1445	1451	1450	1458	1454	1447	1464	1470	1434	1427	1425	1433	1437	1434	1426	1420	1432	1448	1467	1474	1463	1458	1460	1473	1466	1458	1444	1451	1450	1448	1451	1440	1438	1441	1447	1451	1459	1465	1464	1464	1460	1458	1455	1463	1469	1466	1464	1468	1463	1455	1439	1431	1430	1437	1450	1481	1468	1463	1449	1442	1459	1457	1457	1448	1448	1458	1478	1481	1475	1464	1461	1461	1462	1468	1460	1446	1433	1428	1425	1429	1423	1426	1429	1442	1458	1473	1474	1471	1462	1446	1434	1426	1423	1435	1440	1435	1432	1442	1459	1464	1456	1454	1454	1454	1455	1449	1436	1438	1453	1495	0	0	0	0	0	0	0	0	0	0	0	0	0	0	0	0	0	0	0	0	0	0	0	0	1597	1580	1555	1530	1538	1550	1546	1535	1535	1525	1519	1519	1524	1529	1516	1510	1522	1535	1549	1550	1542	1541	1546	1552	1555	1559	1531	1528	1539	1567	1565	0	0	0	0	0	0	0	0	0	0	0	0	0	0	0	0	0	0	1492	1499	1507	1513	1508	1488	1476	1473	1476	1477	1487	1508	1520	1524	1522	1522	1529	1524	1507	1502	1499	1495	1497	1503	1510	1511	1525	1513	1507	1494	1473	1460	1461	1469	1475	1483	1481	1488	1491	1483	1478	1471	1460	1463	1476	1495	1505	1498	1495	1497	1499	1500	1499	1502	1511	1511	1520	1508	1489	1475	1470	1477	1488	1501	1504	1505	1511	1488	1478	1475	1481	1481	1488	1495	1478	1463	1465	1465	1464	0	0	0	0	0	0	0
0	0	1437	1437	1419	1413	1416	1418	1414	1414	1416	1403	1395	1393	1394	1394	1400	1410	1421	1408	1382	1371	1371	1372	1390	1398	1411	1417	1426	1426	1422	1422	1416	1420	1422	1429	1424	1422	1425	1416	1416	1407	1406	1431	1464	1480	1495	1490	1453	1438	1428	1420	1422	1422	1427	1433	1449	1456	1451	1442	1441	1440	1446	1446	1447	1458	1462	1460	1463	1460	1448	1445	1443	1447	1456	1456	1458	1465	1462	1471	1473	1465	1457	1450	1439	1432	1428	1420	1420	1424	1424	1423	1406	1387	1386	1392	1404	1423	1434	1438	1441	1436	1429	1422	1419	1416	1413	1413	1418	1424	1430	1429	1429	1434	1441	1435	1427	1416	1415	1412	1412	1407	1404	1393	1390	1378	1386	1413	1426	1432	1410	1426	1427	1411	1391	1399	1404	0	0	0	0	0	0	0	0	0	0	0	0	0	0	0	0	0	0	0	0	0	0	0	0	0	0	1668	1657	1652	1649	1657	1664	1676	1689	1699	0	0	0	0	0	0	0	0	0	0	0	1391	1384	1412	1429	1440	1453	1452	1435	1427	1417	1417	1419	1413	1406	1408	1409	1409	1419	1421	1434	1441	1443	1435	1420	1423	1420	1406	1402	1409	1410	1417	1422	1420	1434	1435	1435	1427	1421	1413	1422	1433	1442	1437	1437	1445	1446	1448	1455	1462	1448	1437	1437	1443	1451	1455	1458	1459	1466	1441	1427	1424	1423	1423	1433	1443	1446	1429	1426	1424	1424	1443	1463	1471	1468	1467	1470	1468	1444	1429	1422	1426	1435	1434	1429	1430	1431	1434	1431	1421	1416	1413	1416	1422	1428	1428	1439	1446	1450	1456	1453	1432	1414	1405	1407	1415	1432	1445	1448	1445	1438	1433	1433	1434	1439	1440	1442	1440	1444	1444	1453	1450	1446	1435	1421	1426	1439	1450	1461	1461	1457	1450	1441	1445	1454	1461	1458	1459	1467	1474	1476	1474	1458	1454	1449	1447	1449	1456	1453	1486	1487	1460	1452	1468	1473	1475	1464	1458	1451	1451	1448	1450	1448	1443	1437	1437	1432	1427	1439	1439	1435	1432	1433	1440	1449	1441	1439	1442	1461	1470	1468	1456	1445	1441	1442	1449	1450	1444	1442	1446	1455	1463	1459	1458	1464	1468	1473	1439	1432	1435	1445	1448	1440	1432	1425	1431	1440	1458	1470	1463	1463	1464	1471	1467	1454	1440	1442	1438	1439	1438	1428	1425	1438	1453	1466	1471	1469	1470	1460	1462	1456	1462	1467	1482	1482	1476	1466	1455	1447	1437	1429	1429	1433	1443	1455	1451	1445	1442	1441	1463	1458	1462	1460	1468	1469	1474	1472	1459	1450	1457	1455	1468	1467	1465	1452	1435	1427	1424	1427	1428	1431	1434	1439	1456	1470	1471	1466	1461	1458	1448	1436	1427	1422	1417	1420	1430	1440	1476	1475	1464	1458	1459	1458	1452	1448	1449	1455	1478	1495	0	0	0	0	0	0	0	0	0	0	0	0	0	0	0	0	0	0	0	0	0	0	0	0	1596	1576	1561	1540	1543	1555	1547	1538	1533	1531	1524	1525	1529	1529	1513	1506	1511	1533	1550	1545	1535	1539	1542	1545	1550	1556	1536	1540	1557	1567	1574	0	0	0	0	0	0	0	0	0	0	0	0	0	0	0	0	0	0	1477	1487	1495	1501	1504	1489	1477	1476	1474	1468	1471	1492	1513	1521	1524	1527	1534	1525	1508	1499	1495	1495	1487	1481	1484	1501	1508	1507	1500	1487	1477	1470	1478	1481	1485	1488	1477	1482	1495	1505	1502	1488	1474	1465	1473	1486	1496	1491	1489	1489	1484	1493	1484	1486	1493	1493	1503	1501	1491	1481	1478	1481	1491	1505	1510	1516	1511	1499	1481	1475	1477	1477	1484	1488	1482	1471	1472	1475	1473	0	0	0	0	0	0	0
0	0	1433	1433	1425	1408	1408	1412	1407	1407	1404	1394	1395	1394	1403	1403	1409	1414	1414	1403	1387	1372	1372	1377	1392	1405	1412	1422	1423	1425	1422	1422	1419	1422	1431	1432	1426	1419	1417	1421	1421	1410	1404	1420	1445	1470	1481	1478	1464	1436	1424	1417	1420	1420	1431	1444	1461	1457	1451	1448	1451	1450	1448	1442	1444	1448	1460	1471	1464	1456	1453	1441	1439	1443	1452	1452	1460	1463	1464	1466	1473	1474	1475	1461	1449	1442	1431	1414	1413	1417	1419	1419	1398	1376	1385	1388	1405	1424	1436	1442	1442	1432	1419	1412	1408	1406	1408	1409	1416	1429	1431	1428	1425	1421	1418	1415	1414	1419	1420	1421	1418	1411	1406	1398	1386	1391	1402	1421	1435	1434	1417	1424	1419	1403	1390	1391	1383	0	0	0	0	0	0	0	0	0	0	0	0	0	0	0	0	0	0	0	0	0	0	0	0	0	0	0	1641	1632	1634	1642	1658	1667	1676	1693	0	0	0	0	0	0	0	0	0	0	0	1377	1380	1402	1421	1433	1445	1446	1434	1423	1416	1415	1413	1415	1409	1411	1417	1424	1433	1437	1439	1446	1447	1437	1428	1431	1437	1434	1431	1430	1429	1420	1410	1418	1427	1425	1422	1422	1418	1419	1420	1419	1420	1425	1433	1440	1440	1445	1445	1439	1427	1426	1427	1434	1438	1446	1448	1429	1412	1408	1411	1417	1430	1462	1459	1451	1434	1430	1427	1430	1430	1447	1468	1473	1463	1460	1462	1461	1448	1428	1423	1418	1426	1428	1431	1428	1429	1432	1430	1424	1414	1411	1419	1425	1436	1438	1436	1445	1450	1446	1437	1424	1416	1416	1418	1429	1439	1454	1460	1455	1452	1443	1437	1439	1445	1442	1444	1441	1440	1440	1444	1449	1442	1435	1428	1429	1438	1450	1454	1460	1447	1440	1436	1447	1455	1458	1459	1455	1457	1459	1466	1463	1456	1447	1439	1434	1441	1450	1450	1486	1485	1471	1465	1478	1479	1468	1460	1456	1450	1455	1457	1454	1447	1438	1435	1437	1436	1434	1436	1443	1443	1449	1451	1450	1455	1445	1434	1441	1447	1454	1452	1446	1447	1447	1456	1463	1459	1456	1443	1453	1465	1467	1455	1449	1453	1455	1462	1459	1457	1469	1468	1453	1445	1437	1425	1429	1441	1455	1465	1470	1470	1475	1479	1475	1456	1447	1445	1446	1434	1426	1430	1427	1439	1457	1472	1480	1476	1468	1458	1453	1454	1463	1473	1492	1498	1479	1458	1450	1444	1436	1434	1431	1443	1451	1459	1455	1444	1436	1443	1458	1454	1462	1470	1478	1474	1476	1471	1462	1450	1449	1455	1462	1466	1469	1455	1444	1431	1425	1423	1434	1443	1446	1454	1458	1460	1459	1457	1463	1461	1458	1451	1438	1429	1427	1430	1439	1461	1484	1489	1481	1469	1451	1460	1454	1449	1455	1473	1495	1493	0	0	0	0	0	0	0	0	0	0	0	0	0	0	0	0	0	0	0	0	0	0	0	0	1603	1585	1564	1547	1556	1563	1551	1541	1520	1507	1526	1537	1540	1531	1506	1496	1515	1529	1544	1555	1567	1557	1560	1546	1540	1550	1546	1551	1559	1557	1568	0	0	0	0	0	0	0	0	0	0	0	0	0	0	0	0	0	0	1477	1486	1486	1488	1502	1491	1487	1486	1475	1459	1462	1481	1497	1507	1513	1524	1537	1518	1503	1489	1492	1489	1482	1478	1481	1485	1490	1497	1489	1483	1478	1482	1491	1494	1490	1478	1477	1480	1493	1521	1514	1499	1488	1478	1472	1479	1482	1485	1488	1488	1485	1484	1473	1467	1476	1486	1486	1495	1493	1490	1486	1489	1500	1505	1510	1503	1498	1493	1473	1472	1471	1471	1477	1482	1478	1473	1474	1479	1479	0	0	0	0	0	0	0
0	0	0	1448	1420	1405	1395	1394	1394	1394	1393	1391	1392	1401	1407	1407	1417	1422	1414	1410	1388	1381	1381	1380	1402	1423	1436	1437	1426	1423	1423	1420	1416	1421	1433	1430	1416	1413	1415	1428	1428	1422	1408	1417	1438	1451	1461	1468	1456	1434	1423	1424	1430	1430	1441	1459	1470	1464	1455	1446	1458	1454	1442	1434	1440	1450	1470	1482	1477	1466	1454	1445	1444	1445	1448	1448	1451	1462	1465	1466	1473	1475	1478	1470	1458	1452	1438	1426	1416	1426	1422	1414	1388	1368	1374	1383	1402	1422	1434	1440	1442	1428	1419	1411	1407	1405	1405	1417	1430	1436	1433	1429	1419	1416	1412	1406	1410	1414	1420	1424	1424	1420	1411	1404	1394	1408	1420	1436	1444	1441	1425	1407	1406	1398	1396	1396	1372	0	0	0	0	0	0	0	0	0	0	0	0	0	0	0	0	0	0	0	0	0	0	0	0	0	0	0	1642	1630	1627	1644	1652	1648	1652	1650	1619	0	0	0	0	0	0	0	0	0	0	1395	1401	1406	1424	1434	1444	1442	1437	1430	1423	1415	1414	1415	1414	1420	1421	1433	1443	1446	1449	1447	1451	1447	1437	1441	1437	1432	1435	1438	1439	1430	1419	1419	1420	1419	1419	1415	1419	1421	1420	1417	1414	1420	1430	1437	1440	1436	1434	1425	1424	1421	1424	1424	1434	1440	1439	1426	1409	1405	1409	1426	1436	1443	1445	1434	1422	1425	1428	1428	1442	1449	1466	1468	1453	1446	1454	1450	1434	1422	1413	1421	1431	1435	1435	1432	1435	1432	1431	1422	1418	1413	1419	1425	1438	1436	1438	1440	1443	1443	1441	1432	1427	1424	1429	1437	1449	1460	1463	1456	1451	1446	1443	1445	1448	1448	1446	1445	1437	1439	1438	1451	1453	1446	1440	1443	1450	1454	1455	1447	1447	1439	1433	1437	1454	1457	1455	1454	1455	1452	1453	1455	1453	1446	1441	1428	1430	1450	1441	1465	1476	1471	1476	1479	1472	1461	1453	1452	1455	1457	1460	1459	1450	1439	1438	1440	1449	1439	1441	1443	1455	1461	1469	1469	1465	1453	1438	1433	1440	1446	1449	1449	1451	1455	1461	1465	1463	1459	1465	1478	1472	1460	1454	1443	1438	1439	1448	1452	1463	1465	1470	1460	1454	1444	1435	1437	1448	1462	1473	1477	1479	1478	1478	1473	1461	1452	1448	1450	1438	1435	1431	1433	1444	1455	1473	1478	1475	1459	1461	1457	1457	1464	1474	1476	1473	1456	1447	1445	1450	1454	1449	1450	1444	1466	1471	1459	1446	1436	1428	1449	1454	1457	1466	1471	1473	1477	1472	1459	1455	1445	1449	1457	1457	1453	1456	1454	1441	1436	1426	1432	1453	1461	1463	1456	1456	1451	1449	1471	1479	1481	1475	1460	1450	1442	1441	1452	1480	1493	1497	1486	1463	1457	1460	1456	1456	1454	1473	1495	1499	0	0	0	0	0	0	0	0	0	0	0	0	0	0	0	0	0	0	0	0	0	0	0	0	1614	1598	1564	1559	1555	1546	1540	1534	1515	1528	1537	1538	1548	1542	1536	1535	1530	1526	1525	1534	1535	1523	1521	1508	1498	1499	1532	1532	1534	1540	1543	0	0	0	0	0	0	0	0	0	0	0	0	0	0	0	0	0	0	1485	1481	1473	1488	1511	1503	1498	1494	1473	1457	1456	1462	1475	1487	1495	1515	1523	1507	1484	1478	1481	1479	1475	1474	1479	1484	1489	1497	1500	1490	1487	1488	1495	1497	1480	1474	1474	1484	1499	1512	1519	1507	1493	1480	1477	1480	1483	1486	1488	1488	1484	1480	1465	1455	1463	1473	1473	1484	1492	1489	1490	1492	1502	1505	1503	1499	1493	1488	1475	1473	1470	1470	1475	1481	1470	1465	1463	1460	1470	0	0	0	0	0	0	0
0	0	0	1443	1418	1391	1372	1377	1377	1387	1394	1393	1396	1398	1405	1405	1409	1410	1410	1410	1403	1392	1392	1393	1409	1427	1435	1432	1417	1417	1417	1405	1408	1417	1427	1422	1414	1412	1418	1423	1423	1435	1413	1407	1429	1442	1452	1446	1444	1428	1427	1433	1438	1438	1451	1461	1471	1464	1453	1457	1457	1453	1443	1434	1435	1452	1467	1478	1471	1460	1453	1448	1445	1443	1443	1443	1446	1454	1460	1468	1475	1476	1482	1480	1468	1465	1448	1441	1436	1438	1429	1409	1396	1382	1381	1391	1404	1413	1426	1437	1440	1430	1422	1418	1417	1401	1411	1428	1439	1448	1443	1434	1426	1424	1412	1401	1402	1414	1417	1427	1430	1429	1418	1409	1411	1423	1436	1448	1450	1448	1451	1402	1400	1397	1395	1400	1367	0	0	0	0	0	0	0	0	0	0	0	0	0	0	0	0	0	0	0	0	0	0	0	0	0	0	0	1673	1650	1648	1651	1647	1646	1641	1648	1615	0	0	0	0	0	0	0	0	0	0	1427	1427	1418	1433	1441	1435	1424	1422	1425	1433	1423	1411	1410	1408	1412	1423	1434	1445	1452	1453	1452	1454	1454	1449	1433	1428	1430	1438	1444	1445	1442	1432	1430	1421	1414	1419	1426	1431	1433	1430	1420	1407	1417	1425	1433	1439	1438	1434	1430	1427	1425	1423	1428	1432	1430	1421	1410	1406	1419	1434	1439	1435	1433	1431	1424	1425	1426	1430	1433	1438	1442	1451	1452	1448	1439	1441	1442	1428	1413	1406	1419	1427	1440	1451	1447	1448	1441	1432	1424	1421	1421	1424	1433	1443	1447	1444	1444	1448	1450	1441	1437	1431	1436	1435	1440	1445	1458	1458	1452	1448	1441	1443	1450	1447	1453	1450	1450	1443	1442	1442	1450	1453	1454	1454	1458	1463	1462	1456	1439	1449	1439	1425	1429	1442	1447	1451	1455	1455	1454	1449	1450	1448	1444	1446	1444	1443	1447	1436	1459	1466	1472	1474	1472	1462	1452	1454	1463	1464	1463	1458	1439	1447	1443	1445	1465	1458	1454	1441	1448	1455	1467	1470	1472	1467	1458	1438	1433	1436	1445	1450	1455	1452	1454	1460	1463	1462	1456	1454	1462	1462	1457	1444	1445	1439	1438	1444	1448	1453	1455	1453	1455	1455	1454	1453	1451	1459	1473	1480	1478	1470	1459	1458	1455	1448	1441	1447	1457	1442	1443	1439	1437	1441	1447	1450	1466	1465	1454	1462	1462	1468	1471	1475	1470	1456	1451	1448	1451	1463	1469	1464	1453	1457	1466	1475	1468	1452	1439	1428	1433	1456	1458	1459	1459	1471	1476	1473	1459	1449	1447	1454	1449	1443	1443	1457	1460	1451	1438	1431	1437	1448	1469	1472	1469	1463	1459	1464	1483	1497	1497	1490	1478	1463	1459	1455	1462	1472	1476	1488	1484	1469	1462	1466	1463	1461	1463	1470	1490	1506	0	0	0	0	0	0	0	0	0	0	0	0	0	0	0	0	0	0	0	0	0	0	0	0	1630	1607	1583	1562	1548	1530	1526	1529	1547	1576	1565	1547	1551	1551	1552	1546	1533	1530	1531	1529	1528	1531	1548	1537	1544	1537	1521	1522	1519	1521	1529	0	0	0	0	0	0	0	0	0	0	0	0	0	0	0	0	0	0	1508	1488	1480	1499	1513	1513	1511	1509	1482	1457	1451	1451	1464	1475	1483	1493	1502	1484	1470	1467	1467	1467	1479	1477	1474	1476	1483	1502	1508	1498	1489	1502	1500	1486	1471	1465	1464	1478	1491	1503	1500	1502	1489	1480	1483	1484	1485	1489	1487	1489	1487	1477	1458	1452	1456	1467	1467	1479	1488	1491	1488	1495	1497	1501	1501	1491	1485	1485	1478	1480	1479	1484	1484	1491	1475	1463	1455	1455	1469	0	0	0	0	0	0	0
0	0	0	1448	1415	1375	1364	1368	1368	1382	1390	1396	1401	1396	1399	1399	1401	1405	1404	1409	1405	1406	1406	1408	1414	1424	1424	1421	1410	1396	1405	1392	1392	1407	1418	1414	1410	1416	1424	1436	1436	1440	1421	1413	1431	1439	1441	1437	1428	1421	1427	1430	1430	1434	1449	1458	1466	1468	1466	1465	1467	1459	1449	1442	1443	1456	1474	1467	1459	1454	1451	1446	1443	1443	1443	1440	1441	1446	1462	1468	1468	1470	1477	1479	1473	1463	1455	1446	1435	1433	1421	1410	1402	1396	1400	1409	1405	1409	1415	1428	1433	1433	1425	1427	1424	1404	1414	1434	1445	1448	1447	1442	1438	1431	1427	1417	1410	1412	1417	1421	1424	1423	1422	1422	1423	1434	1445	1445	1446	1453	1460	1429	1403	1440	1397	1392	0	0	0	0	0	0	0	0	0	0	0	0	0	0	0	0	0	0	0	0	0	0	0	0	0	0	0	0	1686	1678	1668	1663	1650	1651	1655	1659	1622	0	0	0	0	0	0	0	0	0	0	1455	1431	1419	1424	1433	1426	1417	1417	1439	1439	1423	1409	1402	1402	1410	1418	1427	1434	1443	1446	1448	1455	1454	1448	1424	1419	1423	1439	1455	1460	1455	1443	1428	1426	1417	1425	1439	1444	1438	1429	1413	1407	1411	1414	1432	1438	1450	1443	1440	1427	1430	1428	1434	1433	1426	1415	1416	1421	1435	1445	1447	1427	1421	1421	1423	1428	1430	1430	1426	1430	1429	1437	1437	1436	1436	1438	1437	1431	1422	1417	1421	1434	1449	1458	1461	1461	1445	1433	1423	1422	1424	1429	1440	1448	1459	1459	1455	1455	1453	1448	1445	1434	1442	1442	1444	1440	1440	1450	1451	1448	1445	1452	1455	1457	1456	1441	1443	1445	1453	1451	1459	1457	1459	1457	1464	1470	1467	1454	1439	1423	1412	1414	1417	1425	1433	1445	1457	1462	1463	1453	1447	1448	1450	1459	1454	1455	1458	1441	1461	1469	1465	1464	1461	1453	1449	1452	1467	1471	1466	1456	1447	1432	1444	1457	1469	1470	1460	1455	1445	1455	1460	1465	1469	1468	1457	1437	1437	1439	1448	1465	1462	1458	1450	1458	1460	1464	1456	1444	1443	1452	1457	1448	1448	1442	1439	1443	1441	1435	1430	1433	1439	1452	1455	1456	1458	1464	1473	1481	1474	1461	1445	1443	1439	1438	1443	1445	1469	1466	1456	1447	1441	1440	1436	1435	1439	1442	1440	1454	1465	1472	1474	1474	1461	1454	1450	1450	1461	1463	1465	1457	1455	1451	1460	1468	1463	1458	1453	1445	1440	1459	1461	1467	1461	1456	1461	1468	1462	1450	1450	1459	1454	1450	1452	1464	1467	1463	1451	1448	1456	1464	1466	1472	1475	1474	1470	1470	1488	1503	1504	1501	1491	1477	1473	1469	1467	1465	1459	1475	1479	1479	1474	1465	1464	1470	1478	1486	1486	1515	0	0	0	0	0	0	0	0	0	0	0	0	0	0	0	0	0	0	0	0	0	0	0	0	1629	1616	1602	1576	1547	1532	1531	1535	1560	1590	1594	1552	1554	1559	1558	1529	1518	1514	1520	1525	1537	1551	1566	1567	1569	1565	1544	1522	1516	1513	1513	0	0	0	0	0	0	0	0	0	0	0	0	0	0	0	0	0	0	1517	1507	1494	1506	1517	1517	1512	1514	1484	1469	1455	1457	1465	1472	1478	1480	1484	1471	1464	1462	1464	1473	1481	1479	1474	1475	1478	1495	1497	1499	1490	1491	1493	1480	1465	1457	1459	1473	1496	1498	1496	1488	1487	1481	1475	1480	1474	1480	1485	1488	1488	1475	1465	1463	1468	1478	1478	1485	1490	1497	1499	1502	1501	1508	1503	1490	1472	1473	1477	1480	1486	1506	1506	1508	1496	1476	1467	1467	1477	0	0	0	0	0	0	0
0	0	0	1445	1417	1381	1373	1375	1375	1388	1400	1403	1411	1408	1402	1402	1393	1395	1399	1404	1408	1413	1413	1408	1409	1414	1409	1405	1407	1398	1398	1388	1384	1397	1410	1414	1413	1415	1426	1434	1434	1435	1427	1417	1430	1430	1422	1417	1414	1418	1418	1420	1420	1430	1439	1448	1457	1467	1469	1468	1476	1470	1462	1453	1448	1455	1463	1460	1458	1448	1443	1440	1444	1442	1442	1444	1449	1452	1469	1474	1475	1480	1480	1483	1472	1457	1448	1432	1425	1421	1410	1406	1403	1407	1420	1426	1422	1411	1413	1422	1427	1431	1417	1424	1419	1407	1410	1427	1437	1443	1440	1437	1439	1443	1441	1441	1440	1416	1410	1410	1412	1415	1417	1424	1433	1438	1441	1438	1436	1445	1462	1467	1443	1447	1427	1399	0	0	0	0	0	0	0	0	0	0	0	0	0	0	0	0	0	0	0	0	0	0	0	0	0	0	0	0	1683	1686	1676	1667	1660	1661	1678	1673	1632	0	0	0	0	0	0	0	0	0	0	1443	1423	1415	1424	1432	1431	1417	1419	1439	1439	1424	1408	1401	1407	1412	1421	1417	1420	1428	1428	1434	1453	1452	1432	1429	1422	1430	1439	1457	1458	1455	1445	1430	1426	1426	1438	1449	1444	1435	1428	1418	1411	1411	1415	1433	1446	1455	1454	1445	1439	1435	1432	1442	1449	1446	1440	1439	1440	1445	1448	1446	1425	1422	1422	1425	1432	1433	1429	1425	1425	1428	1424	1424	1418	1434	1447	1445	1442	1438	1430	1431	1437	1442	1458	1460	1455	1441	1433	1424	1422	1426	1436	1449	1463	1462	1460	1453	1461	1459	1461	1459	1448	1446	1453	1445	1438	1442	1449	1455	1451	1453	1458	1457	1459	1455	1441	1443	1452	1462	1462	1457	1457	1459	1471	1465	1468	1466	1451	1435	1427	1416	1412	1410	1413	1430	1444	1456	1470	1471	1459	1448	1447	1450	1461	1460	1461	1460	1444	1457	1465	1448	1450	1450	1447	1447	1453	1462	1468	1465	1458	1447	1444	1445	1458	1470	1478	1477	1465	1447	1442	1454	1464	1471	1473	1461	1441	1440	1443	1453	1465	1463	1460	1454	1455	1461	1462	1459	1444	1442	1452	1465	1464	1458	1445	1446	1449	1450	1444	1437	1427	1433	1445	1446	1448	1455	1463	1471	1477	1468	1456	1444	1440	1437	1440	1444	1455	1473	1471	1468	1457	1450	1448	1445	1442	1442	1437	1425	1440	1454	1465	1468	1466	1466	1464	1464	1460	1464	1464	1460	1455	1448	1451	1460	1467	1465	1460	1463	1468	1470	1471	1476	1478	1480	1462	1449	1458	1461	1454	1453	1453	1457	1458	1465	1474	1474	1470	1464	1473	1472	1478	1473	1476	1476	1476	1473	1475	1478	1495	1500	1500	1492	1484	1482	1477	1472	1461	1458	1460	1475	1475	1466	1461	1461	1472	1486	1490	1479	1518	0	0	0	0	0	0	0	0	0	0	0	0	0	0	0	0	0	0	0	0	0	0	0	0	1620	1618	1595	1580	1559	1551	1550	1546	1557	1584	1589	1556	1553	1552	1551	1517	1500	1500	1510	1524	1537	1563	1578	1576	1577	1565	1541	1524	1526	1520	1513	0	0	0	0	0	0	0	0	0	0	0	0	0	0	0	0	0	1548	1540	1533	1513	1512	1510	1505	1510	1513	1500	1481	1474	1476	1482	1486	1486	1477	1476	1473	1465	1470	1469	1479	1486	1492	1482	1472	1474	1479	1493	1493	1492	1489	1487	1467	1449	1451	1462	1483	1500	1503	1494	1479	1497	1493	1478	1464	1461	1466	1475	1491	1496	1493	1483	1482	1490	1493	1493	1501	1508	1513	1511	1507	1506	1508	1503	1483	1470	1464	1469	1478	1490	1507	1507	1515	1509	1492	1489	1489	1487	0	0	0	0	0	0	0
0	0	0	1445	1434	1407	1393	1388	1388	1399	1405	1409	1414	1411	1399	1399	1382	1385	1392	1411	1411	1415	1415	1415	1405	1404	1403	1405	1409	1397	1397	1397	1391	1396	1419	1420	1415	1414	1424	1434	1434	1436	1434	1424	1429	1425	1411	1405	1416	1419	1418	1414	1414	1426	1432	1438	1454	1466	1468	1475	1478	1477	1466	1455	1453	1461	1464	1461	1453	1443	1440	1440	1450	1450	1450	1445	1447	1452	1464	1473	1483	1480	1474	1474	1469	1457	1442	1429	1428	1419	1402	1397	1399	1413	1421	1429	1429	1423	1415	1421	1427	1430	1416	1417	1421	1410	1406	1414	1428	1430	1429	1430	1437	1449	1451	1454	1455	1428	1407	1400	1401	1408	1419	1430	1439	1441	1432	1425	1424	1431	1450	1460	1458	1422	1430	1421	0	0	0	0	0	0	0	0	0	0	0	0	0	0	0	0	0	0	0	0	0	0	0	0	0	0	0	0	1673	1681	1671	1662	1665	1674	1680	1675	1638	0	0	0	0	0	0	0	0	0	0	1428	1417	1423	1431	1436	1429	1428	1428	1439	1439	1431	1415	1414	1418	1426	1417	1420	1416	1420	1430	1437	1443	1439	1431	1437	1436	1440	1443	1446	1452	1453	1447	1431	1428	1437	1451	1455	1447	1433	1425	1422	1422	1424	1429	1443	1455	1459	1459	1450	1444	1435	1431	1437	1453	1457	1456	1452	1449	1445	1449	1446	1440	1433	1431	1436	1432	1426	1423	1424	1431	1440	1442	1441	1436	1445	1461	1462	1456	1448	1443	1435	1433	1436	1442	1446	1442	1442	1439	1429	1432	1441	1453	1464	1462	1454	1453	1452	1451	1464	1469	1473	1472	1463	1456	1451	1434	1439	1446	1451	1452	1454	1458	1461	1459	1456	1458	1456	1467	1467	1460	1454	1454	1455	1467	1457	1456	1457	1456	1440	1435	1424	1420	1414	1422	1436	1451	1466	1476	1475	1463	1449	1446	1452	1462	1459	1455	1449	1471	1459	1464	1453	1451	1447	1446	1445	1447	1450	1459	1466	1461	1451	1445	1446	1453	1469	1482	1486	1470	1452	1441	1449	1464	1476	1476	1464	1448	1442	1446	1455	1465	1459	1453	1448	1450	1456	1462	1457	1450	1447	1464	1469	1470	1465	1457	1452	1457	1460	1457	1442	1434	1445	1444	1442	1444	1447	1454	1471	1477	1468	1458	1450	1441	1449	1454	1456	1456	1459	1477	1473	1469	1461	1462	1463	1466	1457	1443	1432	1434	1446	1453	1452	1459	1465	1472	1469	1464	1462	1461	1457	1453	1442	1449	1455	1461	1472	1472	1478	1486	1486	1481	1483	1485	1480	1470	1458	1462	1463	1453	1451	1447	1452	1454	1468	1476	1476	1476	1473	1484	1486	1484	1478	1475	1472	1466	1467	1470	1475	1490	1492	1493	1488	1482	1484	1476	1475	1475	1471	1462	1462	1466	1466	1460	1461	1467	1477	1487	1460	1490	0	0	0	0	0	0	0	0	0	0	0	0	0	0	0	0	0	0	0	0	0	0	0	1600	1595	1594	1578	1571	1551	1561	1568	1559	1563	1575	1576	1559	1546	1546	1542	1531	1500	1495	1504	1530	1550	1567	1583	1583	1580	1576	1544	1533	1535	1531	1508	0	0	0	0	0	0	0	0	0	0	0	0	0	0	0	0	0	1557	1561	1549	1531	1519	1504	1501	1504	1514	1517	1501	1493	1495	1496	1494	1494	1485	1474	1468	1470	1476	1485	1486	1493	1491	1485	1471	1466	1478	1486	1490	1483	1479	1477	1468	1451	1459	1466	1486	1492	1499	1492	1489	1487	1494	1477	1468	1458	1464	1476	1492	1509	1515	1505	1497	1500	1509	1520	1520	1528	1527	1512	1513	1509	1505	1499	1485	1476	1464	1466	1475	1488	1502	1502	1502	1492	1497	1501	1505	1498	0	0	0	0	0	0	0
0	0	0	1453	1449	1429	1414	1402	1402	1401	1398	1405	1408	1405	1405	1399	1388	1383	1386	1402	1412	1420	1420	1417	1406	1405	1413	1422	1421	1416	1416	1402	1411	1416	1445	1431	1425	1422	1425	1437	1437	1442	1436	1432	1426	1426	1419	1410	1417	1433	1429	1426	1426	1420	1439	1448	1455	1459	1460	1467	1471	1468	1460	1451	1455	1461	1462	1462	1452	1433	1433	1442	1449	1449	1454	1447	1438	1445	1462	1473	1476	1472	1464	1462	1462	1456	1451	1445	1436	1426	1398	1389	1389	1408	1421	1433	1435	1428	1426	1426	1430	1426	1429	1422	1425	1408	1402	1407	1413	1418	1417	1428	1438	1447	1453	1450	1440	1430	1414	1399	1396	1402	1414	1426	1437	1430	1425	1414	1409	1415	1428	1445	1444	1421	1439	1446	1449	0	0	0	0	0	0	0	0	0	0	0	0	0	0	0	0	0	0	0	0	0	0	0	0	0	0	0	1665	1675	1656	1655	1668	1676	1682	1666	1628	0	0	0	0	0	0	0	0	0	0	1405	1427	1443	1440	1440	1435	1434	1436	1439	1441	1437	1435	1425	1432	1431	1425	1423	1423	1426	1430	1432	1435	1433	1430	1437	1453	1449	1445	1438	1437	1444	1441	1436	1438	1451	1459	1462	1446	1433	1427	1434	1431	1432	1437	1451	1457	1456	1447	1442	1437	1430	1430	1439	1447	1451	1457	1454	1448	1443	1445	1453	1461	1451	1444	1443	1436	1432	1420	1429	1450	1453	1454	1451	1455	1460	1463	1473	1459	1450	1443	1422	1426	1429	1433	1444	1447	1453	1455	1451	1451	1458	1472	1477	1466	1452	1443	1439	1451	1458	1472	1477	1475	1462	1448	1438	1430	1435	1442	1446	1447	1447	1454	1461	1463	1468	1463	1461	1468	1459	1450	1444	1442	1444	1442	1445	1440	1444	1441	1441	1438	1431	1428	1429	1435	1445	1456	1465	1469	1471	1467	1454	1451	1452	1460	1458	1447	1434	1441	1474	1459	1463	1450	1443	1438	1429	1431	1437	1448	1461	1460	1454	1446	1450	1449	1462	1473	1477	1472	1458	1459	1459	1467	1474	1472	1460	1444	1443	1446	1458	1458	1451	1452	1447	1451	1453	1455	1455	1452	1452	1464	1473	1474	1473	1462	1458	1462	1468	1474	1462	1452	1448	1443	1441	1441	1452	1461	1476	1482	1479	1462	1452	1454	1460	1461	1460	1452	1450	1462	1473	1466	1470	1474	1479	1477	1472	1460	1455	1452	1452	1446	1449	1454	1468	1470	1471	1463	1457	1456	1454	1450	1445	1448	1456	1464	1465	1471	1478	1489	1492	1479	1481	1476	1474	1466	1463	1465	1460	1456	1449	1443	1442	1443	1444	1467	1471	1474	1480	1484	1485	1485	1476	1470	1461	1447	1450	1460	1474	1478	1482	1486	1478	1474	1473	1475	1474	1482	1484	1464	1459	1464	1470	1465	1466	1465	1464	1463	1438	1466	0	0	0	0	0	0	0	0	0	0	0	0	0	0	0	0	0	0	0	0	0	0	0	1592	1574	1554	1549	1533	1545	1566	1567	1578	1581	1575	1571	1549	1539	1518	1513	1518	1513	1509	1511	1533	1566	1597	1606	1586	1552	1505	1499	1525	1548	1551	1536	0	0	0	0	0	0	0	0	0	0	0	0	0	0	0	0	0	1581	1581	1573	1558	1541	1511	1506	1507	1522	1525	1511	1503	1497	1496	1494	1492	1484	1475	1466	1469	1484	1491	1487	1484	1480	1469	1465	1466	1476	1486	1485	1477	1471	1476	1474	1463	1464	1467	1479	1482	1494	1494	1496	1482	1475	1472	1468	1467	1470	1484	1495	1508	1510	1511	1497	1498	1502	1513	1513	1526	1512	1501	1509	1508	1497	1490	1480	1475	1468	1462	1477	1488	1489	1489	1488	1489	1494	1501	1497	1501	0	0	0	0	0	0	0
0	0	0	1462	1455	1437	1423	1407	1407	1405	1396	1401	1402	1397	1397	1388	1383	1380	1386	1396	1398	1406	1406	1406	1406	1412	1423	1434	1430	1422	1422	1421	1419	1430	1450	1442	1434	1424	1430	1430	1443	1450	1443	1436	1438	1445	1432	1425	1431	1442	1445	1443	1443	1444	1452	1449	1459	1454	1451	1449	1453	1450	1446	1442	1446	1460	1464	1460	1439	1433	1433	1440	1442	1442	1447	1437	1428	1426	1442	1464	1465	1459	1452	1457	1460	1457	1455	1462	1454	1433	1395	1379	1388	1400	1414	1426	1432	1428	1424	1424	1424	1426	1426	1430	1431	1423	1410	1407	1413	1411	1416	1427	1440	1447	1448	1441	1438	1430	1417	1404	1398	1401	1409	1407	1413	1415	1411	1406	1407	1402	1411	1423	1426	1412	1437	1445	1468	0	0	0	0	0	0	0	0	0	0	0	0	0	0	0	0	0	0	0	0	0	0	0	0	0	0	0	1672	1676	1656	1656	1667	1668	1664	1648	1601	0	0	0	0	0	0	0	0	0	1366	1398	1446	1454	1444	1439	1431	1434	1440	1437	1434	1439	1442	1442	1438	1433	1428	1424	1427	1434	1437	1441	1436	1433	1441	1450	1460	1459	1450	1441	1440	1444	1444	1444	1450	1461	1463	1457	1453	1446	1437	1435	1434	1430	1437	1436	1442	1448	1453	1448	1443	1444	1447	1446	1448	1450	1451	1447	1436	1433	1441	1456	1465	1459	1451	1449	1445	1432	1437	1450	1468	1468	1458	1459	1463	1467	1469	1469	1462	1448	1432	1415	1416	1423	1436	1444	1451	1464	1475	1474	1472	1473	1480	1483	1471	1457	1444	1440	1441	1453	1460	1468	1462	1450	1437	1430	1429	1436	1440	1440	1437	1440	1444	1456	1460	1470	1469	1464	1456	1447	1439	1436	1436	1444	1440	1444	1438	1435	1433	1436	1436	1441	1441	1433	1439	1452	1455	1464	1466	1462	1462	1459	1456	1459	1457	1461	1453	1434	1433	1447	1474	1470	1461	1441	1431	1420	1419	1424	1442	1457	1463	1456	1446	1444	1451	1455	1459	1462	1460	1457	1454	1458	1462	1466	1468	1454	1442	1440	1442	1456	1458	1457	1452	1445	1451	1447	1454	1456	1455	1458	1468	1472	1472	1473	1476	1468	1473	1484	1486	1472	1462	1459	1454	1443	1443	1449	1467	1484	1491	1483	1466	1462	1462	1465	1463	1458	1450	1444	1454	1460	1467	1474	1481	1482	1481	1479	1469	1463	1461	1454	1452	1444	1452	1455	1457	1464	1454	1447	1450	1457	1456	1451	1450	1456	1462	1460	1463	1472	1487	1485	1475	1478	1472	1464	1465	1467	1466	1466	1461	1454	1448	1454	1455	1452	1461	1472	1479	1481	1474	1479	1473	1472	1465	1453	1439	1438	1453	1463	1468	1469	1469	1470	1466	1464	1465	1476	1488	1489	1469	1459	1470	1476	1473	1473	1465	1457	1437	1429	1446	0	0	0	0	0	0	0	0	0	0	0	0	0	0	0	0	0	0	0	0	0	0	0	1582	1550	1548	1538	1526	1540	1559	1572	1576	1589	1600	1573	1540	1519	1521	1523	1517	1519	1514	1518	1540	1559	1571	1573	1558	1539	1527	1504	1504	1525	1556	1544	0	0	0	0	0	0	0	0	0	0	0	0	0	0	0	0	0	0	1574	1565	1559	1555	1513	1506	1504	1525	1524	1505	1498	1488	1484	1485	1486	1485	1474	1474	1478	1486	1495	1482	1474	1464	1459	1464	1474	1484	1488	1479	1469	1472	1472	1472	1465	1456	1464	1470	1470	1480	1489	1493	1486	1479	1468	1469	1468	1473	1487	1495	1506	1506	1496	1479	1474	1484	1498	1498	1506	1490	1494	1503	1497	1486	1479	1478	1475	1464	1466	1474	1487	1478	1478	1489	1485	1483	1489	1482	1490	0	0	0	0	0	0	0
0	0	0	1472	1461	1432	1425	1415	1415	1408	1403	1395	1390	1381	1381	1386	1384	1390	1391	1390	1399	1399	1403	1395	1399	1411	1431	1445	1445	1438	1438	1431	1433	1431	1435	1437	1427	1424	1428	1428	1435	1441	1435	1434	1457	1458	1453	1442	1444	1445	1445	1449	1449	1455	1452	1450	1450	1444	1434	1439	1440	1439	1434	1433	1430	1442	1457	1454	1453	1453	1449	1445	1441	1441	1440	1440	1429	1423	1433	1452	1448	1445	1447	1455	1464	1464	1472	1478	1468	1441	1393	1387	1393	1397	1410	1417	1417	1419	1420	1419	1421	1421	1424	1430	1420	1419	1424	1419	1418	1412	1415	1427	1442	1440	1440	1441	1437	1434	1418	1407	1404	1404	1401	1401	1391	1397	1405	1411	1409	1410	1414	1443	1425	1414	1419	1452	1489	0	0	0	0	0	0	0	0	0	0	0	0	0	0	0	0	0	0	0	0	0	0	0	0	0	0	0	0	1673	1656	1655	1660	1657	1653	1632	1606	0	0	0	0	0	0	0	0	1398	1374	1410	1455	1451	1441	1428	1429	1436	1445	1436	1433	1437	1447	1450	1447	1439	1433	1425	1427	1440	1449	1449	1449	1438	1448	1451	1449	1458	1451	1446	1447	1449	1456	1452	1454	1460	1463	1457	1451	1448	1443	1437	1429	1426	1426	1432	1440	1452	1460	1451	1445	1446	1450	1450	1448	1458	1452	1443	1429	1423	1437	1462	1462	1449	1445	1441	1453	1458	1462	1471	1478	1471	1458	1457	1462	1468	1473	1473	1468	1452	1431	1424	1420	1435	1434	1442	1453	1470	1485	1494	1489	1484	1486	1476	1468	1458	1449	1440	1433	1448	1454	1454	1447	1434	1429	1418	1431	1436	1439	1440	1434	1440	1444	1448	1454	1464	1470	1461	1448	1441	1435	1441	1447	1453	1455	1452	1449	1442	1433	1435	1437	1442	1444	1439	1441	1451	1453	1451	1445	1455	1451	1451	1450	1451	1454	1455	1453	1447	1432	1468	1476	1486	1462	1457	1452	1430	1422	1432	1454	1453	1444	1423	1421	1446	1466	1473	1471	1462	1459	1463	1466	1462	1460	1459	1468	1465	1455	1453	1451	1452	1453	1447	1448	1454	1455	1455	1449	1446	1443	1447	1438	1437	1437	1448	1459	1465	1471	1478	1471	1463	1449	1447	1449	1440	1437	1442	1456	1467	1469	1464	1458	1463	1471	1468	1456	1447	1440	1435	1448	1454	1467	1475	1485	1490	1493	1483	1469	1456	1458	1461	1468	1459	1446	1431	1409	1412	1426	1435	1447	1464	1479	1486	1492	1493	1479	1463	1450	1455	1470	1471	1473	1473	1471	1472	1474	1470	1473	1469	1462	1458	1459	1456	1461	1468	1484	1486	1483	1470	1464	1458	1471	1464	1458	1445	1435	1438	1447	1453	1457	1456	1458	1462	1464	1467	1473	1482	1490	1484	1476	1466	1488	1509	1507	1486	1465	1447	1444	1458	0	0	0	0	0	0	0	0	0	0	0	0	0	0	0	0	0	0	0	0	0	0	0	0	1585	1541	1538	1536	1547	1565	1574	1572	1557	1557	1563	1539	1530	1520	1527	1527	1523	1524	1527	1523	1518	1517	1519	1527	1534	1537	1528	1517	1508	1506	1511	1533	0	0	0	0	0	0	0	0	0	0	0	0	0	0	0	0	0	1579	1556	1545	1547	1561	1511	1502	1499	1509	1514	1501	1483	1479	1482	1481	1477	1477	1479	1483	1493	1493	1488	1477	1461	1463	1466	1472	1484	1487	1483	1474	1467	1469	1472	1476	1466	1451	1453	1456	1456	1460	1476	1480	1481	1474	1474	1467	1465	1474	1488	1496	1501	1501	1494	1508	1499	1499	1500	1500	1500	1482	1487	1492	1493	1483	1476	1476	1475	1469	1468	1475	1486	1491	1491	1489	1491	1488	1468	1461	1472	0	0	0	0	0	0	0
0	0	0	1478	1462	1432	1426	1421	1421	1423	1411	1396	1385	1382	1382	1384	1394	1397	1402	1404	1407	1407	1400	1389	1397	1412	1430	1448	1452	1443	1443	1435	1431	1432	1429	1425	1419	1416	1412	1412	1422	1429	1431	1429	1453	1454	1443	1443	1441	1444	1443	1446	1446	1448	1447	1440	1435	1436	1429	1436	1438	1436	1433	1428	1428	1441	1453	1457	1460	1459	1454	1453	1452	1452	1460	1455	1443	1434	1434	1447	1440	1439	1438	1452	1463	1470	1477	1502	1488	1464	1414	1402	1406	1404	1406	1404	1406	1410	1417	1412	1419	1423	1425	1428	1422	1418	1430	1429	1419	1407	1410	1421	1432	1430	1430	1433	1442	1440	1427	1420	1423	1416	1402	1391	1389	1392	1408	1419	1425	1423	1422	1448	1429	1418	1422	1431	1461	0	0	0	0	0	0	0	0	0	0	0	0	0	0	0	0	0	0	0	0	0	0	0	0	0	0	0	0	1672	1655	1647	1655	1649	1638	1644	0	0	0	0	0	0	0	1441	1426	1409	1418	1429	1446	1443	1434	1424	1431	1437	1448	1437	1433	1443	1453	1461	1467	1458	1442	1432	1430	1440	1450	1453	1454	1446	1448	1450	1441	1438	1435	1444	1448	1466	1460	1453	1439	1441	1457	1457	1456	1453	1449	1435	1430	1421	1422	1428	1444	1459	1466	1455	1445	1442	1436	1443	1456	1460	1454	1454	1446	1441	1441	1441	1449	1439	1440	1450	1455	1461	1466	1468	1469	1455	1443	1429	1440	1465	1479	1480	1469	1460	1440	1431	1430	1442	1439	1440	1448	1461	1479	1493	1483	1472	1467	1461	1458	1455	1452	1439	1445	1445	1450	1444	1435	1425	1421	1434	1445	1446	1443	1437	1433	1437	1440	1444	1456	1465	1461	1449	1437	1432	1442	1454	1468	1466	1461	1464	1454	1449	1445	1441	1443	1444	1441	1444	1445	1447	1449	1453	1446	1437	1438	1434	1441	1439	1439	1447	1449	1448	1476	1511	1515	1492	1488	1464	1458	1463	1467	1465	1462	1456	1436	1430	1428	1445	1464	1472	1471	1466	1461	1466	1470	1468	1464	1462	1466	1467	1455	1457	1457	1459	1452	1449	1449	1453	1451	1449	1442	1443	1438	1441	1434	1432	1433	1445	1454	1456	1459	1462	1461	1459	1456	1459	1460	1456	1451	1448	1455	1465	1466	1462	1462	1470	1463	1455	1445	1442	1440	1437	1437	1457	1469	1482	1497	1504	1503	1491	1480	1474	1472	1470	1467	1460	1440	1422	1414	1421	1429	1435	1437	1448	1460	1468	1474	1481	1493	1496	1478	1463	1454	1460	1471	1489	1496	1501	1493	1478	1466	1451	1462	1479	1505	1516	1501	1492	1480	1476	1471	1465	1456	1441	1447	1447	1429	1426	1439	1446	1454	1458	1456	1449	1450	1448	1459	1468	1479	1494	1500	1495	1485	1486	1490	1489	1483	1477	1474	1466	1459	1464	1504	0	0	0	0	0	0	0	0	0	0	0	0	0	0	0	0	0	0	0	0	0	0	0	0	1553	1550	1556	1563	1569	1567	1552	1546	1538	1548	1536	1525	1520	1524	1528	1535	1528	1527	1527	1522	1524	1526	1531	1532	1528	1531	1534	1509	1501	1504	1508	0	0	0	0	0	0	0	0	0	0	0	0	0	0	0	0	0	1540	1522	1511	1526	1549	1510	1493	1485	1490	1496	1497	1492	1489	1491	1487	1476	1473	1475	1490	1497	1495	1476	1470	1462	1471	1481	1491	1488	1482	1468	1462	1460	1462	1472	1474	1474	1459	1453	1450	1443	1442	1454	1466	1466	1478	1479	1471	1464	1467	1487	1496	1501	1502	1501	1515	1498	1495	1483	1483	1488	1474	1475	1480	1482	1469	1468	1476	1480	1475	1469	1469	1485	1496	1496	1501	1505	1489	1466	1458	1470	0	0	0	0	0	0	0
0	0	0	1468	1458	1445	1434	1442	1442	1437	1422	1401	1390	1385	1385	1394	1403	1401	1409	1415	1417	1417	1408	1402	1400	1411	1424	1442	1445	1445	1446	1437	1433	1430	1429	1419	1408	1411	1410	1410	1422	1425	1420	1415	1414	1425	1415	1428	1443	1437	1434	1434	1442	1447	1451	1450	1434	1433	1435	1443	1435	1431	1430	1427	1436	1443	1453	1457	1456	1450	1450	1456	1456	1464	1477	1477	1465	1448	1444	1441	1440	1433	1438	1448	1455	1462	1470	1500	1492	1466	1435	1420	1414	1405	1398	1395	1395	1398	1403	1412	1419	1419	1422	1421	1419	1427	1437	1431	1421	1403	1401	1409	1418	1422	1422	1432	1439	1439	1429	1427	1429	1430	1408	1399	1393	1397	1413	1432	1433	1430	1428	1450	1430	1426	1428	1437	1444	0	0	0	0	0	0	0	0	0	0	0	0	0	0	0	0	0	0	0	0	0	0	0	0	0	0	0	0	1673	1642	1634	1647	1652	1655	1678	0	0	0	0	0	1447	1451	1459	1460	1440	1422	1415	1422	1421	1426	1429	1437	1448	1450	1442	1429	1443	1455	1462	1465	1460	1451	1442	1436	1437	1450	1457	1456	1447	1434	1440	1432	1428	1426	1435	1454	1465	1459	1442	1424	1406	1421	1436	1450	1451	1441	1432	1426	1413	1419	1428	1442	1454	1455	1445	1434	1436	1436	1437	1448	1455	1454	1470	1469	1468	1455	1435	1441	1450	1451	1457	1459	1458	1458	1461	1458	1439	1422	1418	1429	1449	1466	1463	1455	1442	1420	1425	1433	1442	1435	1439	1440	1454	1461	1463	1455	1452	1453	1464	1457	1457	1458	1439	1435	1450	1449	1449	1441	1441	1430	1432	1424	1427	1429	1429	1426	1425	1432	1450	1457	1458	1452	1437	1440	1448	1455	1472	1461	1448	1447	1449	1448	1454	1458	1455	1454	1458	1457	1458	1461	1456	1465	1480	1475	1468	1468	1471	1472	1464	1477	1475	1488	1507	1507	1521	1512	1505	1492	1458	1469	1477	1483	1482	1478	1469	1445	1438	1434	1443	1452	1456	1452	1454	1460	1469	1472	1467	1458	1456	1453	1455	1447	1452	1451	1452	1449	1448	1450	1450	1445	1444	1432	1434	1441	1443	1441	1437	1439	1445	1451	1454	1457	1455	1456	1453	1458	1462	1463	1466	1455	1452	1455	1459	1463	1462	1455	1458	1455	1451	1446	1446	1445	1447	1453	1465	1473	1481	1492	1498	1488	1489	1480	1474	1467	1463	1456	1453	1438	1423	1420	1427	1431	1422	1423	1434	1444	1460	1472	1479	1490	1503	1483	1459	1441	1456	1479	1485	1502	1501	1500	1486	1471	1457	1459	1473	1497	1511	1504	1488	1478	1467	1456	1457	1453	1450	1455	1455	1435	1431	1435	1450	1462	1469	1471	1470	1465	1467	1466	1470	1475	1488	1491	1485	1483	1488	1499	1491	1480	1476	1475	1464	1465	1466	1462	1486	0	0	0	0	0	0	0	0	0	0	0	0	0	0	0	0	0	0	0	0	0	0	0	1567	1559	1567	1573	1550	1538	1540	1540	1527	1529	1540	1533	1528	1527	1537	1541	1542	1530	1527	1531	1531	1533	1533	1536	1537	1535	1544	1525	1509	1498	1495	0	0	0	0	0	0	0	0	0	0	0	0	0	0	0	0	0	1512	1495	1484	1501	1533	1512	1494	1480	1473	1481	1494	1503	1509	1507	1496	1484	1476	1486	1489	1494	1488	1474	1464	1466	1478	1487	1496	1487	1478	1461	1452	1448	1458	1465	1486	1492	1480	1469	1456	1442	1443	1454	1459	1459	1482	1479	1469	1462	1458	1471	1491	1500	1509	1507	1486	1471	1475	1477	1477	1473	1469	1466	1470	1469	1468	1473	1472	1478	1483	1482	1481	1484	1491	1499	1499	1499	1492	1474	1465	1471	0	0	0	0	0	0	0
0	0	0	1464	1464	1452	1459	1464	1464	1450	1437	1417	1404	1404	1404	1402	1405	1405	1420	1423	1419	1419	1418	1410	1407	1412	1415	1427	1437	1437	1434	1423	1421	1424	1421	1410	1404	1405	1408	1408	1419	1431	1426	1421	1416	1415	1429	1447	1447	1447	1439	1439	1442	1451	1464	1456	1445	1445	1445	1447	1444	1433	1430	1427	1433	1438	1443	1445	1432	1430	1441	1450	1450	1461	1472	1482	1469	1454	1441	1439	1438	1436	1432	1432	1433	1444	1461	1468	1473	1463	1441	1419	1411	1406	1404	1400	1398	1396	1406	1409	1417	1422	1422	1421	1424	1435	1441	1437	1425	1409	1403	1404	1414	1421	1430	1434	1434	1434	1434	1431	1432	1432	1427	1411	1410	1410	1417	1436	1436	1430	1427	1447	1434	1441	1455	1453	1441	0	0	0	0	0	0	0	0	0	0	0	0	0	0	0	0	0	0	0	0	0	0	0	0	0	0	0	1689	1676	1646	1636	1643	1649	1656	1696	0	0	0	0	0	1436	1426	1430	1430	1422	1400	1385	1389	1414	1434	1446	1458	1461	1458	1443	1439	1444	1452	1458	1454	1456	1441	1440	1436	1446	1451	1450	1457	1447	1434	1426	1422	1418	1420	1437	1449	1445	1435	1425	1418	1403	1403	1425	1435	1440	1431	1430	1425	1419	1423	1434	1440	1445	1443	1430	1418	1421	1420	1427	1429	1446	1455	1468	1480	1478	1468	1434	1440	1454	1456	1457	1458	1453	1454	1458	1452	1438	1426	1421	1428	1436	1441	1443	1441	1432	1414	1422	1431	1435	1442	1446	1441	1447	1448	1442	1437	1439	1445	1464	1469	1463	1445	1442	1438	1447	1449	1452	1443	1438	1436	1425	1417	1417	1418	1425	1417	1429	1446	1456	1463	1453	1438	1429	1435	1444	1455	1463	1456	1441	1439	1440	1444	1453	1457	1461	1466	1475	1477	1473	1467	1470	1472	1473	1472	1467	1477	1478	1485	1483	1469	1468	1490	1526	0	0	0	1497	1471	1456	1463	1472	1485	1494	1490	1473	1448	1438	1434	1441	1447	1449	1445	1446	1452	1462	1463	1457	1453	1453	1453	1447	1451	1449	1445	1444	1445	1439	1447	1445	1432	1432	1432	1437	1446	1449	1449	1448	1445	1451	1451	1457	1460	1462	1462	1460	1457	1458	1456	1453	1453	1448	1449	1457	1454	1443	1437	1442	1450	1449	1445	1454	1462	1471	1466	1485	1488	1487	1477	1470	1467	1469	1481	1478	1470	1453	1459	1456	1446	1436	1419	1418	1425	1421	1418	1421	1433	1454	1476	1488	1492	1488	1466	1442	1436	1447	1466	1487	1487	1485	1487	1482	1477	1461	1459	1463	1470	1498	1501	1489	1471	1451	1440	1447	1452	1459	1464	1462	1448	1436	1437	1450	1457	1463	1463	1479	1500	1508	1483	1477	1473	1473	1470	1464	1465	1486	1503	1508	1489	1478	1460	1440	1445	1460	1477	1471	1507	0	0	0	0	0	0	0	0	0	0	0	0	0	0	0	0	0	0	0	0	0	0	1576	1568	1569	1568	1521	1504	1527	1543	1529	1525	1534	1542	1542	1544	1551	1550	1550	1541	1536	1532	1537	1537	1539	1538	1540	1543	1542	1522	1504	1504	1494	0	0	0	0	0	0	0	0	0	0	0	0	0	0	0	0	0	1497	1494	1484	1488	1522	1515	1500	1485	1475	1472	1497	1507	1514	1510	1501	1491	1488	1493	1498	1493	1481	1472	1469	1464	1488	1498	1501	1494	1481	1461	1451	1446	1453	1474	1485	1497	1491	1476	1464	1465	1465	1477	1465	1467	1476	1484	1477	1460	1449	1464	1491	1506	1505	1506	1487	1475	1472	1472	1472	1475	1478	1472	1471	1471	1476	1476	1479	1484	1489	1496	1490	1487	1489	1492	1492	1494	1490	1485	1482	1478	0	0	0	0	0	0	0
0	0	0	1458	1450	1458	1459	1459	1465	1457	1443	1425	1414	1419	1419	1418	1414	1411	1417	1419	1413	1413	1418	1414	1412	1405	1405	1411	1428	1428	1427	1418	1420	1418	1413	1412	1410	1411	1415	1415	1427	1432	1434	1430	1432	1439	1444	1460	1476	1474	1455	1455	1446	1455	1463	1465	1459	1454	1453	1454	1457	1448	1436	1429	1432	1432	1438	1427	1424	1419	1425	1437	1437	1447	1458	1454	1450	1445	1432	1433	1436	1433	1430	1424	1424	1437	1453	1459	1453	1449	1436	1418	1418	1416	1412	1409	1405	1405	1406	1413	1417	1421	1421	1424	1437	1447	1452	1443	1429	1419	1408	1410	1417	1427	1437	1439	1435	1433	1435	1436	1434	1431	1436	1437	1429	1416	1417	1432	1429	1419	1418	1443	1461	1464	1471	1458	1416	0	0	0	0	0	0	0	0	0	0	0	0	0	0	0	0	0	0	0	0	0	0	0	0	0	0	0	1697	1681	1655	1648	1653	1657	1661	1700	0	0	0	0	1431	1424	1426	1434	1432	1427	1407	1395	1396	1418	1440	1475	1466	1457	1456	1443	1439	1438	1442	1438	1437	1435	1443	1437	1435	1441	1437	1443	1448	1445	1442	1440	1442	1433	1428	1432	1443	1438	1429	1423	1414	1406	1402	1415	1428	1430	1431	1430	1433	1432	1434	1434	1429	1432	1424	1415	1410	1416	1418	1417	1420	1434	1441	1460	1474	1480	1468	1442	1438	1443	1448	1449	1443	1445	1450	1456	1451	1439	1432	1427	1427	1432	1431	1429	1433	1432	1424	1420	1428	1435	1446	1450	1443	1434	1428	1431	1428	1429	1444	1455	1458	1451	1447	1437	1432	1429	1429	1436	1437	1434	1426	1419	1413	1416	1414	1422	1427	1437	1461	1463	1457	1449	1436	1426	1431	1441	1442	1439	1433	1426	1422	1418	1435	1439	1446	1455	1475	1489	1495	1487	1471	1465	1462	1456	1459	1466	1472	1468	1476	1474	1464	1491	1512	0	0	0	0	1475	1456	1436	1450	1460	1479	1495	1493	1473	1451	1434	1432	1430	1435	1439	1434	1435	1443	1447	1455	1455	1453	1453	1453	1451	1446	1448	1439	1441	1447	1449	1448	1442	1428	1423	1426	1433	1442	1448	1450	1453	1455	1456	1456	1462	1463	1463	1463	1464	1454	1450	1444	1443	1439	1442	1448	1458	1453	1441	1436	1441	1442	1451	1459	1466	1477	1477	1473	1484	1492	1485	1480	1475	1465	1475	1481	1475	1463	1460	1468	1465	1460	1444	1430	1430	1435	1431	1425	1421	1431	1451	1482	1487	1486	1468	1448	1436	1430	1437	1459	1484	1469	1453	1460	1472	1475	1470	1463	1464	1466	1484	1486	1473	1460	1449	1435	1442	1449	1457	1462	1470	1461	1451	1451	1459	1457	1457	1456	1474	1498	1509	1502	1486	1475	1470	1454	1452	1448	1484	1500	1506	1499	1474	1452	1447	1449	1465	1477	1474	1525	0	0	0	0	0	0	0	0	0	0	0	0	0	0	0	0	0	0	0	0	0	1616	1583	1566	1565	1551	1508	1498	1525	1538	1536	1532	1531	1547	1552	1563	1567	1569	1560	1556	1547	1539	1539	1540	1544	1543	1542	1543	1539	1529	1512	1516	1509	0	0	0	0	0	0	0	0	0	0	0	0	0	0	0	0	0	0	1489	1488	1486	1512	1517	1505	1493	1468	1474	1490	1497	1500	1505	1500	1497	1494	1494	1498	1491	1478	1466	1460	1467	1477	1489	1498	1498	1489	1482	1481	1473	1468	1481	1487	1483	1480	1477	1477	1475	1494	1507	1510	1484	1477	1472	1469	1470	1466	1481	1490	1505	1503	1505	1511	1489	1474	1472	1476	1476	1478	1480	1479	1478	1485	1498	1499	1491	1487	1493	1491	1486	1491	1490	1490	1489	1491	1491	1488	1488	0	0	0	0	0	0	0
0	0	0	1442	1436	1440	1449	1449	1454	1456	1444	1434	1431	1429	1429	1424	1420	1414	1416	1416	1415	1415	1418	1416	1412	1402	1395	1406	1422	1422	1427	1422	1416	1412	1415	1417	1424	1426	1425	1425	1429	1436	1442	1442	1437	1440	1453	1465	1470	1459	1432	1432	1436	1444	1462	1468	1461	1457	1455	1461	1457	1450	1438	1431	1422	1427	1430	1428	1429	1425	1423	1424	1424	1427	1434	1437	1438	1437	1428	1427	1434	1440	1435	1432	1433	1438	1454	1453	1446	1438	1419	1417	1419	1421	1420	1417	1411	1412	1415	1414	1421	1421	1419	1424	1437	1446	1451	1439	1436	1428	1421	1421	1425	1434	1440	1442	1439	1434	1432	1437	1434	1436	1439	1439	1428	1414	1409	1411	1415	1407	1410	1439	1456	1466	1465	1457	1417	0	0	0	0	0	0	0	0	0	0	0	0	0	0	0	0	0	0	0	0	0	0	0	0	0	0	0	1684	1683	1672	1664	1668	1671	1670	1696	1721	0	0	0	1439	1429	1432	1442	1442	1438	1421	1410	1419	1435	1451	1457	1461	1452	1447	1435	1426	1427	1430	1425	1431	1433	1441	1435	1431	1426	1433	1442	1448	1451	1454	1449	1447	1442	1430	1427	1430	1429	1425	1418	1411	1411	1414	1421	1430	1436	1426	1427	1438	1441	1433	1429	1427	1416	1405	1403	1406	1416	1419	1431	1429	1431	1434	1449	1462	1468	1464	1442	1436	1432	1434	1435	1438	1442	1451	1455	1451	1436	1430	1431	1433	1434	1429	1430	1432	1431	1425	1424	1421	1432	1442	1450	1438	1430	1417	1422	1423	1424	1432	1434	1435	1433	1434	1432	1424	1416	1413	1408	1426	1432	1427	1423	1425	1424	1418	1425	1440	1453	1466	1461	1450	1440	1433	1432	1438	1443	1443	1436	1428	1420	1418	1417	1417	1428	1437	1447	1473	1491	1494	1482	1466	1457	1443	1445	1453	1455	1458	1458	1456	1456	1469	1515	0	0	0	0	0	1453	1437	1414	1435	1452	1462	1474	1469	1459	1439	1431	1429	1438	1443	1441	1434	1432	1431	1437	1442	1449	1450	1446	1441	1441	1441	1441	1439	1443	1448	1456	1454	1447	1437	1424	1419	1421	1428	1440	1441	1449	1452	1454	1460	1468	1469	1461	1461	1462	1459	1452	1443	1436	1438	1441	1450	1460	1460	1454	1442	1444	1450	1460	1465	1479	1485	1484	1472	1478	1484	1479	1478	1475	1471	1473	1476	1472	1465	1471	1473	1473	1473	1455	1443	1443	1450	1451	1440	1429	1436	1460	1478	1486	1478	1458	1439	1429	1426	1435	1450	1476	1471	1449	1443	1456	1467	1477	1472	1468	1468	1469	1464	1452	1443	1438	1440	1447	1451	1453	1455	1467	1477	1467	1466	1465	1465	1458	1455	1467	1479	1498	1490	1484	1478	1467	1454	1453	1457	1467	1479	1487	1495	1480	1463	1458	1469	1476	1491	1485	0	0	0	0	0	0	0	0	0	0	0	0	0	0	0	0	0	0	0	0	0	1643	1625	1581	1559	1546	1544	1517	1507	1538	1539	1538	1539	1530	1544	1560	1571	1576	1575	1569	1558	1551	1538	1539	1538	1545	1546	1542	1542	1543	1532	1531	1534	1530	0	0	0	0	0	0	0	0	0	0	0	0	0	0	0	0	0	0	1488	1491	1507	1518	1514	1501	1488	1475	1474	1481	1491	1487	1492	1493	1493	1492	1492	1493	1490	1472	1456	1454	1462	1472	1475	1491	1498	1500	1498	1494	1484	1480	1475	1482	1489	1476	1479	1485	1489	1512	1527	1520	1495	1482	1471	1471	1478	1492	1502	1509	1512	1498	1506	1506	1486	1474	1468	1470	1470	1473	1466	1472	1492	1502	1501	1500	1496	1493	1492	1489	1488	1491	1490	1490	1492	1492	1490	1490	1487	0	0	0	0	0	0	0
0	0	0	1422	1412	1415	1425	1425	1441	1443	1442	1425	1422	1421	1421	1426	1420	1413	1417	1424	1431	1431	1432	1423	1417	1406	1402	1405	1422	1422	1426	1420	1416	1418	1426	1438	1444	1440	1436	1436	1433	1444	1451	1438	1433	1428	1440	1457	1457	1435	1424	1424	1425	1442	1458	1467	1456	1437	1435	1445	1458	1451	1436	1423	1421	1426	1431	1436	1441	1439	1427	1415	1415	1418	1422	1425	1437	1435	1425	1424	1440	1451	1461	1459	1456	1461	1460	1456	1451	1434	1415	1413	1415	1417	1416	1407	1409	1417	1422	1421	1419	1416	1417	1419	1426	1436	1438	1435	1440	1442	1438	1430	1426	1427	1434	1439	1431	1433	1440	1439	1433	1430	1435	1431	1424	1408	1402	1405	1399	1398	1400	1424	1443	1461	1463	1456	1421	0	0	0	0	0	0	0	0	0	0	0	0	0	0	0	0	0	0	0	0	0	0	0	0	0	0	0	1656	1676	1681	1679	1679	1680	1678	1696	1688	0	0	0	1473	1455	1438	1447	1446	1442	1438	1429	1437	1445	1450	1449	1439	1426	1427	1422	1420	1417	1421	1434	1433	1441	1444	1445	1442	1435	1433	1435	1443	1457	1462	1462	1441	1436	1430	1428	1423	1425	1422	1424	1421	1418	1420	1430	1440	1440	1416	1419	1434	1430	1425	1417	1413	1402	1396	1400	1410	1419	1430	1439	1436	1436	1438	1443	1444	1448	1455	1444	1431	1422	1425	1428	1441	1449	1448	1457	1454	1439	1430	1429	1434	1438	1439	1429	1424	1426	1426	1418	1425	1428	1439	1439	1436	1427	1421	1420	1422	1422	1422	1425	1430	1422	1417	1418	1418	1405	1400	1407	1414	1442	1437	1440	1434	1434	1428	1432	1441	1448	1453	1444	1433	1432	1428	1430	1438	1447	1451	1443	1426	1416	1419	1417	1420	1425	1428	1451	1463	1486	1485	1477	1457	1440	1439	1447	1453	1455	1453	1453	1454	1457	1478	1533	0	0	0	0	0	1445	1426	1420	1428	1439	1443	1442	1438	1426	1424	1430	1431	1443	1453	1451	1442	1434	1429	1431	1440	1443	1435	1431	1430	1431	1434	1438	1441	1448	1461	1463	1458	1458	1443	1428	1415	1412	1411	1418	1428	1435	1447	1452	1462	1469	1476	1473	1462	1462	1465	1459	1445	1432	1422	1426	1446	1464	1468	1463	1457	1450	1455	1463	1471	1480	1482	1479	1469	1473	1476	1472	1472	1474	1469	1468	1462	1453	1455	1464	1473	1482	1475	1465	1454	1456	1459	1459	1450	1441	1442	1454	1467	1476	1472	1451	1433	1421	1426	1435	1451	1474	1471	1462	1450	1456	1465	1475	1471	1465	1465	1459	1445	1438	1436	1439	1447	1454	1451	1447	1445	1455	1478	1478	1478	1477	1474	1470	1463	1459	1465	1477	1479	1476	1472	1464	1456	1453	1458	1462	1468	1473	1480	1487	1491	1492	1492	1495	1511	1512	0	0	0	0	0	0	0	0	0	0	0	0	0	0	0	0	0	0	0	0	1665	1668	1631	1584	1565	1547	1537	1527	1533	1545	1542	1535	1539	1534	1544	1562	1573	1579	1572	1563	1556	1544	1534	1534	1538	1550	1555	1557	1553	1551	1537	1524	1536	1539	0	0	0	0	0	0	0	0	0	0	0	0	0	0	0	0	0	0	1488	1494	1507	1508	1503	1491	1487	1486	1480	1481	1484	1483	1489	1493	1490	1489	1491	1492	1489	1476	1458	1458	1459	1466	1473	1485	1495	1505	1505	1499	1487	1473	1462	1458	1462	1464	1482	1496	1502	1502	1501	1488	1488	1481	1475	1480	1494	1511	1525	1523	1513	1501	1475	1457	1460	1467	1468	1472	1472	1475	1477	1483	1498	1502	1499	1493	1491	1490	1493	1491	1491	1488	1486	1486	1495	1490	1489	1479	1475	0	0	0	0	0	0	0
0	0	0	1400	1399	1401	1411	1411	1427	1437	1427	1401	1389	1393	1393	1411	1419	1423	1425	1426	1431	1431	1425	1424	1422	1416	1411	1414	1423	1423	1430	1422	1420	1425	1431	1443	1448	1447	1437	1437	1437	1448	1451	1442	1416	1410	1423	1440	1454	1442	1434	1434	1435	1443	1452	1458	1447	1435	1433	1441	1435	1419	1419	1422	1426	1434	1443	1450	1460	1458	1442	1442	1429	1415	1424	1434	1438	1434	1426	1435	1453	1461	1476	1484	1478	1472	1464	1453	1442	1430	1416	1403	1406	1418	1422	1422	1412	1420	1421	1424	1417	1411	1412	1410	1411	1424	1426	1431	1437	1445	1438	1430	1419	1418	1424	1426	1422	1426	1433	1427	1417	1421	1428	1427	1414	1402	1402	1401	1398	1391	1392	1417	1441	1451	1445	1430	1415	0	0	0	0	0	0	0	0	0	0	0	0	0	0	0	0	0	0	0	0	0	0	0	0	0	0	0	1644	1674	1681	1677	1673	1676	1675	1682	1649	0	0	0	1496	1482	1456	1445	1444	1440	1438	1440	1447	1449	1452	1439	1430	1415	1420	1434	1444	1447	1438	1432	1426	1433	1439	1442	1439	1437	1427	1426	1434	1455	1454	1451	1441	1437	1431	1427	1424	1430	1429	1428	1426	1430	1430	1433	1438	1437	1407	1409	1416	1414	1405	1397	1398	1395	1392	1406	1417	1425	1429	1437	1436	1444	1446	1444	1436	1437	1442	1438	1427	1429	1426	1430	1443	1452	1451	1457	1454	1442	1435	1433	1438	1447	1448	1435	1421	1421	1423	1427	1433	1439	1437	1432	1429	1427	1419	1412	1422	1421	1439	1438	1430	1425	1416	1407	1408	1399	1400	1409	1426	1437	1438	1446	1440	1435	1438	1438	1445	1446	1438	1428	1423	1423	1426	1430	1441	1449	1448	1436	1426	1419	1424	1422	1423	1424	1429	1450	1462	1467	1467	1468	1458	1446	1448	1457	1460	1464	1462	1462	1470	1473	1486	1535	1531	0	0	0	1486	1451	1429	1429	1434	1435	1434	1423	1419	1408	1415	1422	1433	1449	1449	1451	1438	1428	1427	1431	1436	1442	1437	1434	1423	1419	1422	1435	1450	1460	1467	1468	1461	1455	1452	1434	1420	1407	1400	1407	1417	1429	1429	1441	1455	1467	1483	1471	1455	1456	1464	1466	1451	1435	1419	1424	1427	1443	1463	1460	1455	1453	1463	1474	1478	1481	1473	1468	1457	1460	1470	1470	1467	1471	1469	1457	1445	1435	1434	1448	1467	1477	1473	1462	1451	1448	1457	1463	1458	1451	1436	1446	1458	1466	1461	1444	1424	1414	1422	1437	1449	1457	1467	1467	1459	1459	1467	1468	1462	1460	1462	1451	1432	1427	1435	1441	1451	1459	1456	1446	1427	1436	1479	1492	1487	1485	1485	1480	1468	1465	1460	1462	1466	1468	1466	1462	1454	1453	1463	1456	1451	1457	1465	1484	1489	1488	1486	1487	1507	0	0	0	0	0	0	0	0	0	0	0	0	0	0	0	0	0	0	0	0	1653	1660	1657	1630	1598	1568	1546	1537	1538	1547	1547	1542	1543	1541	1540	1549	1562	1567	1567	1558	1553	1543	1535	1532	1537	1545	1549	1556	1558	1562	1557	1529	1520	1520	1530	0	0	0	0	0	0	0	0	0	0	0	0	0	0	0	0	0	1493	1495	1496	1504	1493	1493	1499	1501	1492	1483	1482	1480	1491	1493	1499	1492	1498	1501	1498	1496	1483	1469	1465	1470	1477	1476	1480	1489	1502	1505	1494	1477	1471	1471	1457	1458	1466	1479	1494	1501	1502	1500	1489	1482	1479	1480	1478	1484	1496	1511	1494	1493	1480	1464	1464	1466	1469	1469	1472	1472	1477	1478	1491	1502	1500	1492	1474	1471	1486	1488	1489	1486	1485	1480	1480	1486	1484	1476	1471	1466	0	0	0	0	0	0	0
0	0	0	1383	1399	1401	1408	1408	1425	1436	1418	1393	1373	1379	1379	1397	1414	1424	1427	1424	1422	1422	1423	1425	1427	1418	1416	1421	1430	1430	1431	1425	1425	1425	1431	1434	1437	1436	1432	1432	1431	1442	1442	1426	1416	1412	1414	1428	1446	1444	1445	1445	1446	1448	1449	1447	1439	1438	1434	1431	1424	1418	1422	1426	1429	1436	1439	1445	1455	1456	1455	1455	1438	1428	1442	1443	1443	1441	1440	1445	1454	1475	1489	1494	1488	1478	1464	1444	1429	1417	1403	1406	1410	1428	1441	1442	1431	1420	1420	1420	1416	1409	1408	1409	1412	1411	1414	1421	1426	1434	1435	1425	1417	1412	1419	1418	1419	1419	1417	1412	1408	1415	1422	1425	1413	1402	1400	1404	1402	1398	1399	1412	1434	1441	1441	1427	1402	0	0	0	0	0	0	0	0	0	0	0	0	0	0	0	0	0	0	0	0	0	0	0	0	0	0	0	1647	1665	1658	1659	1654	1659	1660	1670	1643	0	0	0	0	1494	1467	1439	1432	1435	1437	1439	1446	1446	1439	1422	1411	1401	1421	1441	1458	1453	1441	1429	1416	1421	1431	1436	1435	1430	1419	1404	1408	1450	1451	1450	1440	1435	1428	1425	1430	1435	1434	1434	1439	1439	1437	1430	1432	1425	1402	1404	1411	1402	1393	1386	1385	1385	1388	1408	1417	1419	1423	1427	1431	1438	1448	1446	1437	1431	1429	1429	1431	1431	1430	1437	1447	1459	1458	1451	1445	1440	1438	1437	1441	1456	1454	1446	1425	1417	1430	1441	1458	1454	1447	1437	1433	1431	1418	1421	1422	1429	1448	1455	1450	1431	1416	1412	1411	1406	1405	1409	1422	1429	1436	1438	1441	1445	1446	1451	1447	1443	1434	1424	1419	1425	1430	1432	1442	1455	1442	1438	1426	1419	1428	1423	1420	1425	1437	1450	1455	1451	1451	1452	1454	1459	1466	1464	1462	1469	1473	1480	1483	1479	1485	1516	1522	1536	0	1518	1508	1452	1440	1440	1441	1437	1433	1425	1413	1407	1414	1423	1436	1450	1441	1431	1428	1426	1430	1434	1437	1444	1441	1433	1421	1417	1423	1435	1448	1458	1459	1457	1451	1448	1445	1445	1425	1414	1400	1405	1418	1428	1432	1445	1452	1466	1469	1455	1443	1446	1458	1465	1451	1433	1419	1418	1428	1440	1447	1448	1449	1454	1468	1484	1480	1468	1464	1456	1451	1449	1465	1467	1467	1468	1466	1451	1428	1412	1408	1438	1456	1473	1468	1463	1450	1443	1447	1444	1453	1454	1438	1450	1458	1461	1452	1434	1421	1417	1422	1430	1442	1448	1458	1454	1450	1464	1466	1457	1450	1453	1458	1455	1439	1436	1442	1449	1457	1461	1461	1447	1426	1429	1475	1492	1499	1501	1492	1475	1467	1459	1458	1454	1458	1454	1457	1453	1452	1451	1459	1458	1450	1451	1458	1472	1484	1476	1471	1483	1527	0	0	0	0	0	0	0	0	0	0	0	0	0	0	0	0	0	0	0	0	1652	1653	1639	1620	1588	1567	1550	1544	1541	1552	1550	1542	1543	1542	1547	1550	1556	1560	1559	1549	1540	1535	1531	1532	1540	1550	1555	1553	1556	1561	1556	1540	1535	1523	1532	0	0	0	0	0	0	0	0	0	0	0	0	0	0	0	0	0	1509	1501	1500	1491	1480	1490	1501	1510	1508	1495	1481	1482	1486	1498	1507	1509	1508	1508	1503	1498	1485	1480	1480	1492	1495	1487	1480	1477	1486	1489	1480	1471	1477	1493	1495	1483	1474	1480	1488	1495	1504	1503	1507	1499	1492	1487	1482	1485	1490	1489	1487	1491	1486	1475	1475	1476	1472	1467	1469	1469	1476	1484	1492	1497	1486	1460	1455	1458	1477	1486	1488	1485	1489	1485	1485	1484	1476	1474	1473	1468	0	0	0	0	0	0	0
0	0	0	1378	1401	1413	1429	1429	1438	1439	1426	1395	1376	1377	1377	1396	1412	1416	1421	1421	1412	1412	1410	1416	1419	1420	1423	1425	1439	1439	1435	1440	1431	1426	1420	1416	1421	1423	1423	1423	1422	1424	1427	1417	1417	1416	1411	1423	1436	1446	1454	1454	1452	1453	1449	1446	1443	1439	1437	1433	1429	1424	1427	1425	1432	1433	1435	1437	1445	1451	1449	1449	1449	1445	1456	1457	1465	1474	1470	1471	1476	1491	1498	1502	1483	1474	1449	1429	1416	1406	1404	1403	1411	1429	1447	1442	1432	1421	1416	1419	1419	1410	1408	1410	1418	1418	1411	1416	1415	1417	1419	1421	1419	1419	1422	1422	1421	1405	1408	1406	1405	1413	1423	1428	1417	1409	1406	1405	1415	1407	1410	1413	1433	1435	1438	1420	1394	0	0	0	0	0	0	0	0	0	0	0	0	0	0	0	0	0	0	0	0	0	0	0	0	0	0	0	1655	1653	1648	1645	1641	1637	1649	1673	1678	0	0	0	0	0	1460	1450	1446	1446	1438	1428	1434	1430	1427	1417	1408	1404	1419	1443	1452	1450	1436	1420	1415	1422	1430	1431	1424	1418	1405	1388	1382	1416	1442	1448	1447	1433	1425	1416	1418	1424	1421	1427	1438	1439	1432	1425	1420	1415	1412	1412	1413	1397	1386	1380	1383	1384	1396	1404	1411	1417	1420	1416	1420	1437	1446	1447	1448	1442	1438	1436	1436	1428	1428	1436	1450	1460	1461	1451	1436	1433	1435	1434	1451	1460	1464	1448	1430	1430	1439	1457	1463	1458	1458	1449	1439	1438	1426	1431	1442	1444	1458	1464	1455	1441	1426	1424	1427	1423	1408	1408	1412	1420	1428	1437	1447	1454	1453	1449	1447	1442	1431	1425	1418	1430	1440	1447	1451	1455	1442	1440	1441	1432	1426	1425	1422	1433	1444	1449	1449	1449	1441	1444	1449	1458	1470	1466	1470	1469	1473	1481	1479	1479	1479	1495	1514	1534	1544	1534	1501	1455	1442	1445	1449	1441	1425	1420	1413	1418	1426	1434	1436	1436	1438	1434	1431	1434	1438	1441	1443	1439	1435	1431	1420	1422	1428	1435	1440	1443	1445	1444	1440	1442	1451	1448	1434	1404	1397	1402	1419	1433	1440	1441	1448	1456	1456	1442	1438	1440	1449	1455	1450	1435	1422	1422	1425	1434	1443	1447	1448	1456	1472	1481	1478	1472	1463	1451	1448	1449	1471	1472	1468	1461	1453	1446	1431	1415	1417	1438	1453	1467	1464	1463	1455	1446	1443	1437	1449	1452	1447	1441	1459	1462	1451	1437	1427	1427	1435	1436	1440	1446	1454	1446	1441	1450	1453	1447	1448	1453	1457	1460	1448	1453	1449	1452	1461	1467	1466	1455	1437	1427	1467	1486	1500	1494	1469	1456	1462	1455	1454	1457	1453	1452	1444	1445	1454	1477	1477	1471	1462	1456	1460	1466	1469	1464	1466	1520	0	0	0	0	0	0	0	0	0	0	0	0	0	0	0	0	0	0	0	0	0	0	1649	1622	1600	1588	1581	1568	1552	1544	1534	1533	1541	1541	1545	1550	1549	1550	1553	1552	1544	1534	1531	1528	1533	1546	1548	1547	1549	1547	1554	1555	1547	1550	1542	1546	0	0	0	0	0	0	0	0	0	0	0	0	0	0	0	0	0	0	1521	1501	1485	1476	1491	1503	1512	1512	1500	1482	1484	1495	1504	1513	1511	1515	1512	1507	1505	1493	1493	1492	1506	1508	1495	1480	1472	1476	1478	1467	1469	1468	1506	1526	1520	1505	1496	1489	1491	1495	1499	1500	1495	1495	1484	1481	1486	1488	1492	1494	1491	1491	1492	1485	1480	1471	1463	1463	1463	1472	1481	1488	1489	1467	1458	1458	1472	1487	1491	1492	1491	1496	1494	1494	1482	1474	1471	1475	1476	0	0	0	0	0	0	0
0	0	0	1372	1402	1428	1443	1443	1436	1425	1423	1415	1392	1378	1378	1389	1411	1420	1419	1410	1406	1406	1405	1413	1424	1430	1437	1443	1447	1447	1448	1445	1435	1427	1410	1406	1411	1421	1421	1433	1427	1421	1421	1428	1429	1419	1420	1428	1444	1457	1457	1457	1457	1459	1454	1451	1449	1447	1453	1451	1448	1438	1430	1430	1428	1430	1433	1435	1448	1463	1465	1465	1460	1456	1460	1463	1468	1466	1463	1466	1476	1488	1493	1491	1477	1469	1444	1415	1416	1415	1409	1405	1411	1419	1422	1416	1417	1404	1412	1419	1421	1416	1413	1417	1426	1425	1406	1404	1405	1403	1414	1421	1429	1436	1426	1434	1427	1412	1408	1406	1406	1424	1425	1426	1422	1415	1409	1410	1419	1427	1422	1423	1441	1447	1442	1441	1412	0	0	0	0	0	0	0	0	0	0	0	0	0	0	0	0	0	0	0	0	0	0	0	0	0	0	0	1664	1666	1657	1651	1651	1654	1669	1681	1716	0	0	0	0	0	1449	1431	1429	1436	1428	1418	1416	1419	1421	1414	1408	1410	1419	1429	1436	1434	1425	1413	1414	1418	1419	1421	1421	1414	1403	1395	1388	1416	1433	1444	1442	1431	1415	1409	1406	1412	1415	1425	1431	1434	1417	1410	1414	1411	1417	1427	1426	1411	1393	1382	1377	1378	1392	1405	1417	1418	1410	1407	1427	1429	1441	1443	1448	1443	1443	1438	1430	1418	1418	1432	1444	1451	1450	1447	1433	1421	1430	1438	1455	1464	1465	1454	1443	1435	1440	1449	1456	1459	1456	1451	1451	1447	1447	1448	1448	1453	1460	1464	1460	1446	1437	1432	1429	1424	1411	1409	1414	1415	1424	1438	1450	1459	1451	1444	1436	1433	1434	1426	1426	1439	1441	1453	1456	1458	1461	1457	1451	1438	1430	1420	1427	1435	1447	1454	1449	1449	1443	1443	1446	1454	1458	1460	1461	1464	1466	1473	1471	1469	1468	1472	1509	1528	1535	1529	1495	1444	1445	1447	1454	1448	1434	1417	1416	1421	1430	1441	1442	1439	1443	1440	1435	1439	1442	1445	1452	1442	1437	1425	1421	1427	1434	1435	1431	1424	1423	1433	1437	1445	1456	1462	1450	1421	1400	1400	1414	1433	1440	1446	1452	1452	1451	1448	1444	1446	1453	1460	1454	1447	1431	1429	1435	1435	1444	1450	1457	1463	1471	1478	1482	1476	1467	1455	1446	1449	1465	1459	1460	1451	1448	1443	1437	1432	1438	1449	1453	1461	1454	1462	1466	1458	1445	1444	1448	1451	1447	1448	1465	1463	1457	1451	1447	1450	1451	1449	1451	1452	1455	1442	1440	1432	1436	1436	1435	1445	1452	1456	1456	1452	1452	1452	1460	1470	1468	1453	1436	1429	1451	1471	1481	1473	1458	1448	1452	1449	1450	1439	1439	1433	1438	1446	1467	1484	1490	1487	1474	1462	1460	1464	1473	1485	1504	1572	0	0	0	0	0	0	0	0	0	0	0	0	0	0	0	0	0	0	0	0	0	0	1648	1634	1605	1594	1585	1579	1574	1571	1545	1551	1546	1544	1557	1541	1534	1533	1534	1534	1545	1560	1560	1550	1531	1537	1533	1559	1546	1542	1542	1552	1561	1575	1570	1568	0	0	0	0	0	0	0	0	0	0	0	0	0	0	0	0	0	1543	1538	1504	1476	1485	1504	1513	1512	1510	1498	1495	1502	1505	1510	1518	1521	1526	1526	1522	1523	1523	1519	1508	1512	1503	1489	1468	1453	1450	1444	1444	1443	1475	1491	1516	1523	1514	1506	1495	1489	1489	1488	1489	1495	1492	1477	1474	1482	1485	1492	1490	1490	1504	1509	1502	1486	1474	1464	1464	1464	1470	1484	1497	1495	1476	1469	1476	1493	1495	1491	1492	1498	1496	1492	1492	1481	1473	1466	1468	1477	0	0	0	0	0	0	0
0	0	0	1378	1401	1426	1433	1433	1425	1414	1420	1425	1408	1390	1390	1392	1408	1416	1424	1413	1415	1415	1422	1439	1436	1445	1449	1454	1452	1452	1456	1449	1438	1428	1408	1409	1416	1430	1430	1447	1443	1429	1426	1428	1430	1426	1426	1439	1458	1455	1456	1456	1455	1456	1454	1454	1457	1467	1464	1471	1469	1461	1451	1441	1432	1433	1439	1447	1459	1478	1484	1484	1479	1471	1473	1463	1466	1462	1465	1463	1473	1478	1483	1477	1475	1474	1462	1432	1425	1431	1428	1418	1412	1414	1419	1419	1406	1405	1411	1414	1419	1415	1418	1425	1437	1427	1418	1411	1410	1408	1408	1413	1422	1439	1449	1452	1450	1437	1428	1419	1417	1426	1431	1426	1425	1419	1416	1413	1419	1424	1435	1436	1468	1473	1469	1471	0	0	0	0	0	0	0	0	0	0	0	0	0	0	0	0	0	0	0	0	0	0	0	0	0	0	0	0	1643	1666	1672	1679	1680	1674	1688	1697	1700	0	0	0	0	0	1432	1410	1412	1417	1421	1410	1414	1414	1415	1411	1411	1414	1425	1429	1431	1427	1416	1405	1400	1415	1415	1415	1412	1412	1410	1408	1403	1413	1426	1432	1432	1424	1411	1405	1404	1411	1414	1424	1424	1416	1403	1400	1411	1414	1424	1435	1432	1419	1404	1398	1394	1392	1406	1412	1423	1421	1409	1418	1418	1422	1429	1434	1437	1437	1440	1426	1414	1402	1410	1425	1435	1436	1436	1430	1424	1425	1421	1440	1449	1461	1461	1457	1457	1442	1441	1440	1453	1452	1455	1449	1441	1448	1450	1453	1453	1451	1447	1451	1446	1443	1441	1432	1425	1429	1427	1423	1421	1426	1431	1442	1456	1456	1440	1434	1428	1427	1426	1426	1430	1431	1440	1451	1456	1462	1467	1461	1455	1444	1426	1417	1422	1438	1447	1450	1451	1453	1457	1455	1454	1445	1444	1441	1442	1453	1460	1465	1462	1462	1457	1470	1489	1503	0	1538	1493	1439	1440	1445	1454	1448	1435	1426	1413	1417	1432	1445	1448	1447	1452	1452	1452	1455	1454	1453	1452	1446	1435	1427	1422	1429	1438	1439	1432	1418	1425	1436	1443	1454	1466	1475	1464	1436	1409	1405	1417	1431	1438	1444	1443	1443	1450	1455	1453	1461	1463	1467	1458	1446	1438	1432	1429	1433	1447	1455	1461	1468	1471	1479	1483	1479	1471	1463	1450	1451	1467	1458	1445	1446	1442	1439	1443	1447	1449	1448	1448	1453	1454	1466	1468	1461	1449	1444	1443	1446	1446	1446	1454	1462	1466	1463	1462	1464	1460	1457	1452	1455	1458	1439	1422	1417	1423	1425	1423	1436	1446	1456	1452	1448	1445	1446	1452	1463	1462	1456	1444	1434	1443	1449	1455	1459	1456	1447	1451	1450	1446	1438	1426	1430	1436	1457	1474	1487	1488	1489	1482	1475	1472	1480	1493	1498	1508	1569	0	0	0	0	0	0	0	0	0	0	0	0	0	0	0	0	0	0	0	0	0	0	1637	1634	1607	1592	1580	1573	1574	1572	1562	1550	1541	1529	1543	1531	1539	1537	1533	1532	1537	1556	1556	1554	1537	1532	1517	1526	1541	1559	1556	1573	1578	1570	1564	1563	0	0	0	0	0	0	0	0	0	0	0	0	0	0	0	0	0	1502	1510	1502	1479	1485	1507	1495	1492	1507	1502	1503	1508	1515	1519	1520	1525	1531	1528	1518	1523	1521	1522	1526	1518	1506	1491	1473	1464	1454	1449	1431	1435	1462	1479	1494	1508	1511	1507	1502	1494	1489	1486	1485	1491	1485	1478	1471	1477	1478	1484	1484	1493	1502	1515	1507	1495	1478	1472	1475	1475	1481	1491	1504	1505	1487	1477	1489	1493	1489	1489	1487	1488	1487	1482	1482	1473	1467	1462	1461	1467	0	0	0	0	0	0	0
0	0	0	1392	1405	1418	1425	1425	1407	1413	1429	1432	1421	1421	1398	1388	1399	1422	1429	1426	1415	1415	1432	1444	1448	1446	1441	1453	1450	1450	1447	1442	1435	1425	1413	1417	1426	1441	1441	1456	1447	1438	1433	1432	1438	1434	1439	1453	1458	1446	1437	1437	1436	1448	1452	1455	1459	1466	1474	1480	1478	1472	1461	1450	1440	1444	1451	1463	1480	1490	1492	1492	1485	1484	1473	1470	1467	1457	1458	1466	1471	1473	1475	1473	1474	1475	1460	1441	1439	1448	1445	1434	1424	1418	1426	1424	1420	1422	1421	1414	1414	1416	1420	1428	1433	1424	1410	1414	1422	1422	1417	1414	1419	1431	1440	1448	1444	1440	1429	1420	1424	1428	1434	1431	1426	1420	1417	1413	1418	1425	1435	1437	1469	1479	1469	1464	0	0	0	0	0	0	0	0	0	0	0	0	0	0	0	0	0	0	0	0	0	0	0	0	0	0	0	0	1631	1671	1688	1706	1705	1706	1698	1695	1653	0	0	0	0	0	1427	1404	1404	1411	1417	1411	1406	1406	1405	1411	1422	1427	1426	1431	1426	1422	1411	1401	1405	1411	1411	1411	1410	1418	1423	1421	1413	1410	1422	1429	1432	1416	1413	1412	1414	1415	1422	1423	1422	1415	1402	1406	1410	1416	1423	1430	1426	1423	1416	1414	1415	1422	1422	1427	1429	1420	1409	1414	1417	1416	1422	1431	1431	1435	1425	1427	1404	1397	1406	1424	1434	1424	1424	1421	1427	1421	1435	1439	1438	1435	1445	1450	1454	1449	1439	1434	1442	1448	1446	1438	1440	1444	1447	1455	1444	1436	1438	1441	1442	1436	1433	1428	1425	1428	1433	1434	1439	1444	1443	1450	1457	1450	1432	1422	1419	1418	1416	1416	1420	1426	1435	1450	1455	1461	1465	1465	1459	1440	1422	1416	1420	1438	1450	1449	1454	1462	1466	1467	1457	1441	1435	1429	1430	1441	1458	1460	1457	1455	1455	1479	1467	1477	0	1504	1502	1442	1435	1441	1440	1438	1437	1428	1420	1422	1427	1445	1442	1446	1451	1452	1452	1450	1444	1443	1450	1450	1448	1433	1427	1427	1438	1435	1433	1424	1433	1443	1457	1473	1479	1484	1467	1452	1434	1419	1419	1418	1432	1442	1441	1438	1439	1461	1467	1462	1469	1460	1451	1445	1436	1431	1430	1445	1454	1465	1462	1465	1471	1478	1484	1478	1469	1454	1451	1453	1461	1466	1449	1439	1446	1457	1463	1451	1446	1439	1446	1456	1455	1461	1469	1459	1437	1442	1442	1444	1443	1441	1441	1449	1462	1464	1463	1452	1445	1452	1442	1444	1456	1433	1418	1415	1411	1423	1424	1439	1453	1460	1455	1451	1442	1443	1444	1454	1458	1455	1460	1469	1466	1435	1435	1441	1447	1443	1449	1450	1446	1434	1423	1432	1439	1447	1465	1480	1483	1483	1474	1467	1470	1485	1490	1495	1504	0	0	0	0	0	0	0	0	0	0	0	0	0	0	0	0	0	0	0	0	0	0	0	1619	1621	1594	1574	1558	1560	1564	1561	1557	1552	1531	1510	1522	1530	1541	1537	1524	1524	1536	1537	1552	1552	1543	1525	1512	1525	1557	1564	1566	1569	1570	1571	1556	1555	0	0	0	0	0	0	0	0	0	0	0	0	0	0	0	0	0	1502	1511	1509	1495	1494	1484	1495	1491	1496	1509	1515	1518	1520	1520	1519	1520	1525	1513	1500	1504	1518	1525	1524	1510	1499	1488	1485	1477	1473	1451	1435	1440	1447	1474	1484	1488	1491	1495	1501	1495	1495	1487	1483	1489	1478	1475	1474	1477	1479	1477	1483	1492	1509	1516	1517	1504	1491	1487	1480	1480	1493	1501	1507	1504	1492	1476	1478	1480	1479	1478	1478	1479	1473	1464	1464	1462	1459	1463	1466	1469	0	0	0	0	0	0	0
0	0	0	1408	1410	1414	1408	1408	1405	1410	1428	1434	1426	1426	1405	1395	1403	1421	1429	1427	1432	1432	1441	1441	1434	1427	1426	1438	1444	1444	1445	1436	1428	1423	1418	1427	1435	1447	1447	1454	1439	1433	1432	1441	1444	1444	1445	1452	1456	1446	1446	1428	1429	1440	1445	1447	1450	1459	1467	1472	1478	1468	1457	1446	1439	1443	1460	1470	1486	1485	1490	1490	1491	1480	1470	1466	1460	1459	1470	1461	1476	1477	1476	1477	1473	1475	1460	1445	1441	1447	1443	1433	1420	1425	1431	1439	1438	1440	1433	1416	1408	1407	1416	1424	1424	1417	1416	1417	1423	1426	1421	1416	1413	1420	1429	1438	1435	1428	1421	1423	1425	1431	1431	1427	1421	1418	1419	1414	1414	1424	1432	1430	1450	1472	1464	1440	0	0	0	0	0	0	0	0	0	0	0	0	0	0	0	0	0	0	0	0	0	0	0	0	0	0	0	0	1618	1659	1695	1710	1720	1721	1707	1690	1646	0	0	0	0	0	1448	1418	1408	1417	1419	1408	1397	1389	1393	1408	1421	1426	1430	1417	1415	1409	1410	1405	1420	1437	1436	1422	1416	1417	1411	1419	1414	1421	1422	1424	1425	1432	1429	1434	1423	1417	1420	1422	1415	1404	1393	1388	1393	1398	1418	1417	1403	1390	1387	1399	1401	1405	1418	1418	1416	1406	1415	1426	1439	1443	1446	1449	1450	1446	1443	1440	1426	1414	1413	1429	1436	1428	1428	1439	1443	1442	1436	1435	1429	1422	1422	1434	1444	1457	1451	1443	1435	1428	1428	1424	1430	1440	1459	1485	1476	1422	1421	1425	1431	1428	1421	1425	1430	1436	1445	1448	1451	1448	1453	1456	1461	1460	1444	1424	1414	1415	1411	1413	1414	1426	1441	1450	1450	1446	1444	1441	1441	1429	1417	1418	1430	1439	1445	1453	1458	1468	1472	1467	1453	1443	1431	1427	1431	1444	1464	1465	1459	1455	1461	1485	1501	1510	1477	1490	1456	1441	1431	1429	1429	1431	1441	1440	1431	1427	1432	1445	1448	1446	1452	1449	1448	1447	1444	1446	1453	1457	1451	1437	1426	1423	1427	1432	1433	1428	1437	1452	1467	1474	1477	1470	1470	1461	1456	1440	1430	1431	1435	1437	1438	1435	1444	1463	1461	1446	1445	1444	1447	1450	1445	1439	1437	1437	1457	1467	1464	1458	1456	1461	1462	1467	1463	1450	1442	1450	1460	1481	1479	1472	1468	1472	1460	1453	1445	1441	1442	1451	1459	1455	1452	1449	1444	1438	1446	1442	1436	1430	1430	1440	1451	1458	1460	1441	1433	1443	1434	1435	1446	1445	1448	1448	1451	1455	1461	1466	1474	1486	1492	1483	1458	1444	1442	1444	1446	1444	1452	1457	1463	1430	1426	1428	1423	1418	1418	1425	1443	1451	1436	1429	1438	1443	1457	1467	1469	1455	1447	1449	1464	1477	1482	1483	0	0	0	0	0	0	0	0	0	0	0	0	0	0	0	0	0	0	0	0	0	0	0	0	1607	1614	1583	1563	1553	1561	1563	1558	1560	1549	1534	1521	1533	1553	1554	1533	1528	1526	1536	1543	1539	1539	1538	1515	1518	1535	1570	1587	1575	1560	1554	1554	1551	1549	0	0	0	0	0	0	0	0	0	0	0	0	0	0	0	0	1497	1495	1501	1506	1487	1490	1486	1511	1516	1517	1544	1528	1523	1524	1527	1521	1509	1504	1495	1491	1487	1488	1501	1507	1506	1489	1475	1478	1483	1484	1457	1447	1450	1468	1478	1477	1478	1478	1491	1501	1496	1493	1481	1481	1483	1481	1484	1485	1488	1485	1491	1502	1514	1522	1523	1520	1512	1504	1494	1500	1511	1511	1508	1502	1495	1478	1464	1459	1458	1468	1475	1473	1463	1455	1454	1454	1457	1464	1467	1477	1478	0	0	0	0	0	0	0
0	0	0	1431	1425	1409	1408	1408	1414	1423	1433	1434	1432	1432	1406	1401	1407	1419	1431	1432	1434	1434	1431	1421	1415	1405	1408	1421	1434	1434	1437	1437	1428	1422	1423	1434	1446	1451	1451	1443	1430	1429	1434	1452	1451	1445	1445	1447	1451	1451	1451	1435	1437	1440	1449	1447	1442	1451	1459	1466	1466	1462	1449	1438	1434	1439	1452	1463	1476	1480	1483	1483	1481	1471	1458	1454	1445	1445	1450	1463	1476	1483	1488	1487	1482	1471	1458	1441	1432	1427	1423	1408	1407	1419	1427	1437	1438	1441	1430	1415	1402	1402	1406	1416	1420	1421	1423	1417	1423	1426	1424	1417	1406	1409	1419	1434	1440	1431	1424	1422	1424	1427	1425	1416	1413	1409	1408	1404	1407	1419	1430	1427	1427	1435	1454	1424	1409	0	0	0	0	0	0	0	0	0	0	0	0	0	0	0	0	0	0	0	0	0	0	0	0	0	0	0	1615	1649	1681	1702	1711	1709	1701	1686	1651	0	0	0	0	0	1484	1432	1414	1423	1421	1416	1402	1395	1400	1410	1424	1429	1429	1416	1414	1417	1415	1417	1425	1437	1441	1428	1416	1408	1406	1409	1410	1418	1423	1422	1415	1414	1419	1420	1419	1416	1412	1407	1406	1400	1390	1386	1387	1396	1414	1407	1397	1394	1392	1397	1397	1404	1407	1421	1416	1404	1408	1421	1437	1443	1445	1449	1444	1449	1451	1449	1438	1428	1423	1433	1441	1443	1444	1439	1434	1432	1427	1425	1422	1414	1417	1430	1443	1453	1451	1449	1444	1435	1425	1417	1424	1442	1468	1480	1484	1448	1438	1432	1424	1418	1421	1435	1444	1448	1445	1442	1437	1442	1422	1437	1445	1448	1434	1414	1414	1424	1430	1420	1411	1418	1439	1459	1461	1444	1433	1423	1424	1424	1418	1428	1427	1437	1436	1438	1445	1454	1458	1445	1436	1437	1436	1433	1439	1450	1463	1471	1463	1445	1450	1471	1492	1504	1480	1462	1448	1425	1416	1422	1433	1444	1446	1442	1442	1442	1445	1448	1446	1449	1447	1443	1444	1442	1445	1452	1454	1459	1458	1453	1450	1445	1432	1430	1427	1436	1438	1453	1463	1463	1462	1465	1465	1468	1470	1456	1453	1447	1439	1435	1436	1439	1449	1459	1454	1438	1437	1440	1449	1455	1454	1447	1439	1435	1450	1463	1455	1453	1450	1458	1463	1472	1465	1455	1449	1448	1447	1469	1476	1474	1476	1475	1459	1451	1443	1446	1452	1463	1462	1456	1446	1446	1441	1446	1450	1442	1427	1422	1421	1431	1447	1450	1455	1441	1444	1441	1440	1442	1454	1456	1460	1463	1466	1474	1474	1479	1486	1488	1495	1485	1457	1445	1442	1437	1433	1444	1441	1446	1454	1437	1435	1428	1425	1420	1416	1421	1439	1449	1439	1433	1434	1445	1454	1461	1459	1459	1444	1442	1462	1475	1482	1492	0	0	0	0	0	0	0	0	0	0	0	0	0	0	0	0	0	0	0	0	0	0	0	0	1626	1623	1582	1579	1574	1575	1574	1562	1548	1546	1537	1533	1549	1572	1557	1545	1538	1537	1543	1544	1540	1536	1524	1515	1517	1539	1575	1591	1576	1549	1549	1545	1544	1553	0	0	0	0	0	0	0	0	0	0	0	0	0	0	0	0	1491	1478	1480	1502	1486	1480	1503	1512	1515	1507	1516	1547	1523	1528	1519	1517	1500	1485	1487	1480	1476	1471	1474	1485	1491	1489	1481	1472	1476	1480	1458	1466	1477	1484	1490	1485	1479	1482	1493	1498	1495	1495	1484	1480	1474	1481	1488	1489	1493	1498	1503	1528	1536	1532	1527	1518	1511	1510	1508	1509	1514	1514	1510	1499	1479	1454	1439	1435	1445	1460	1469	1467	1454	1448	1450	1472	1472	1474	1485	1489	1484	0	0	0	0	0	0	0
0	0	0	1430	1434	1415	1411	1411	1414	1427	1439	1437	1425	1425	1422	1419	1414	1416	1420	1426	1426	1421	1417	1409	1405	1405	1408	1415	1430	1430	1439	1439	1434	1428	1434	1440	1449	1454	1454	1443	1429	1432	1444	1450	1441	1449	1439	1441	1448	1449	1449	1451	1449	1450	1446	1455	1447	1448	1455	1456	1456	1451	1444	1435	1430	1433	1438	1453	1463	1473	1473	1470	1470	1468	1456	1444	1435	1428	1436	1454	1470	1482	1493	1493	1481	1472	1458	1437	1420	1413	1403	1396	1400	1409	1416	1419	1424	1424	1421	1410	1402	1397	1401	1407	1416	1425	1424	1420	1424	1428	1428	1423	1416	1417	1419	1435	1436	1432	1426	1420	1417	1417	1414	1409	1403	1400	1400	1395	1394	1409	1431	1418	1417	1425	1434	1402	1390	0	0	0	0	0	0	0	0	0	0	0	0	0	0	0	0	0	0	0	0	0	0	0	0	0	0	0	1611	1638	1665	1681	1680	1688	1690	1677	1638	0	0	0	0	0	1472	1453	1432	1426	1425	1418	1411	1415	1420	1429	1434	1431	1433	1422	1418	1425	1429	1427	1422	1425	1434	1431	1422	1410	1414	1413	1417	1426	1420	1418	1403	1396	1402	1410	1411	1412	1416	1411	1404	1400	1395	1392	1393	1396	1409	1390	1390	1393	1403	1409	1406	1411	1424	1426	1415	1417	1406	1413	1430	1436	1435	1432	1426	1415	1434	1448	1449	1436	1437	1442	1449	1452	1450	1439	1424	1415	1411	1418	1419	1418	1421	1431	1439	1449	1450	1453	1446	1437	1431	1426	1435	1442	1457	1476	1484	1456	1442	1432	1421	1417	1420	1431	1438	1451	1447	1437	1437	1429	1418	1427	1437	1433	1419	1410	1413	1429	1435	1422	1411	1414	1440	1460	1469	1454	1436	1426	1430	1418	1422	1434	1434	1429	1426	1431	1444	1451	1450	1437	1432	1436	1438	1439	1443	1459	1473	1468	1451	1437	1438	1442	1468	1466	1474	1457	1444	1420	1427	1441	1452	1462	1446	1444	1443	1444	1447	1453	1450	1446	1442	1441	1442	1445	1447	1449	1450	1459	1462	1462	1461	1455	1439	1432	1430	1438	1440	1449	1460	1460	1459	1459	1461	1466	1466	1465	1460	1451	1449	1441	1437	1436	1442	1449	1450	1454	1451	1451	1453	1455	1450	1447	1438	1440	1439	1445	1441	1443	1448	1460	1477	1474	1480	1474	1464	1450	1442	1451	1460	1469	1468	1457	1446	1440	1453	1456	1465	1471	1465	1460	1453	1452	1453	1448	1454	1445	1429	1418	1418	1427	1437	1445	1443	1442	1445	1444	1448	1447	1462	1469	1478	1478	1482	1481	1477	1474	1472	1471	1473	1471	1462	1448	1439	1435	1434	1451	1460	1460	1461	1439	1443	1449	1460	1459	1458	1447	1458	1448	1450	1453	1461	1461	1456	1455	1456	1452	1456	1456	1460	1476	1477	1493	1526	0	0	0	0	0	0	0	0	0	0	0	0	0	0	0	0	0	0	0	0	0	0	0	0	1632	1597	1586	1585	1588	1588	1563	1547	1535	1537	1538	1557	1568	1577	1561	1550	1543	1544	1555	1553	1541	1537	1530	1518	1521	1533	1542	1537	1535	1531	1536	1553	1555	0	0	0	0	0	0	0	0	0	0	0	0	0	0	0	0	1479	1471	1462	1467	1482	1485	1498	1511	1513	1521	1494	1501	1507	1515	1518	1517	1499	1485	1483	1474	1473	1469	1469	1479	1491	1493	1484	1481	1469	1465	1459	1474	1483	1498	1502	1500	1496	1490	1487	1494	1496	1493	1492	1485	1478	1480	1484	1488	1493	1497	1509	1528	1538	1536	1522	1515	1516	1502	1502	1504	1510	1510	1497	1490	1470	1451	1443	1441	1446	1458	1465	1464	1453	1450	1455	1472	1472	1485	1490	1489	1480	0	0	0	0	0	0	0
0	0	0	1440	1440	1425	1419	1419	1419	1429	1441	1436	1428	1428	1427	1423	1420	1423	1422	1412	1412	1413	1410	1408	1406	1412	1417	1425	1432	1432	1435	1443	1446	1445	1441	1446	1448	1454	1454	1438	1430	1435	1432	1430	1434	1433	1433	1443	1444	1446	1446	1453	1457	1459	1465	1464	1458	1459	1464	1460	1452	1448	1444	1436	1434	1436	1443	1442	1446	1448	1448	1455	1463	1467	1455	1443	1431	1424	1434	1441	1451	1469	1482	1488	1482	1474	1468	1444	1419	1407	1401	1403	1401	1399	1403	1407	1412	1419	1424	1417	1411	1408	1409	1412	1423	1432	1430	1419	1421	1428	1432	1428	1428	1422	1426	1432	1431	1427	1420	1410	1413	1412	1414	1410	1406	1402	1398	1398	1400	1409	1429	1425	1419	1426	1421	1397	0	0	0	0	0	0	0	0	0	0	0	0	0	0	0	0	0	0	0	0	0	0	0	0	0	0	0	0	1608	1629	1648	1648	1649	1657	1671	1666	1629	0	0	0	0	0	1451	1456	1449	1432	1427	1422	1419	1421	1429	1432	1437	1429	1428	1419	1414	1426	1433	1434	1428	1417	1420	1423	1419	1413	1416	1422	1426	1436	1437	1431	1412	1410	1412	1418	1419	1424	1433	1436	1433	1426	1418	1412	1406	1406	1406	1399	1397	1401	1413	1432	1432	1423	1414	1414	1415	1412	1418	1422	1430	1425	1421	1417	1408	1398	1413	1440	1447	1440	1444	1450	1462	1468	1457	1442	1422	1411	1400	1399	1406	1419	1430	1435	1438	1448	1450	1453	1446	1442	1439	1442	1437	1427	1430	1451	1462	1436	1423	1420	1421	1418	1422	1421	1427	1433	1444	1443	1442	1433	1438	1437	1429	1413	1404	1396	1408	1417	1420	1424	1419	1426	1440	1445	1444	1442	1452	1447	1430	1423	1424	1433	1440	1435	1427	1432	1446	1447	1447	1444	1436	1439	1445	1444	1442	1452	1464	1462	1448	1431	1417	1418	1452	1462	1471	1463	1434	1424	1436	1455	1469	1465	1451	1444	1446	1446	1440	1446	1447	1444	1441	1439	1446	1446	1451	1449	1451	1454	1458	1458	1464	1466	1460	1444	1438	1432	1443	1444	1459	1468	1470	1468	1462	1456	1455	1448	1444	1454	1447	1442	1435	1434	1432	1438	1445	1455	1460	1455	1453	1447	1449	1449	1452	1446	1438	1433	1438	1446	1452	1464	1479	1485	1486	1480	1473	1454	1441	1439	1447	1453	1447	1446	1442	1445	1454	1458	1476	1481	1475	1469	1464	1464	1465	1468	1455	1447	1432	1420	1419	1426	1436	1442	1442	1440	1441	1442	1447	1451	1463	1475	1486	1489	1490	1487	1485	1482	1468	1467	1473	1472	1468	1455	1439	1427	1437	1453	1460	1467	1463	1454	1457	1460	1468	1468	1466	1460	1459	1447	1451	1459	1467	1466	1461	1461	1462	1462	1469	1476	1479	1479	1474	1470	1530	0	0	0	0	0	0	0	0	0	0	0	0	0	0	0	0	0	0	0	0	0	0	0	0	1630	1591	1588	1585	1587	1575	1558	1550	1540	1534	1529	1533	1540	1547	1552	1555	1545	1548	1563	1572	1561	1545	1528	1523	1521	1533	1538	1538	1534	1524	1519	1546	1562	0	0	0	0	0	0	0	0	0	0	0	0	0	0	0	0	1497	1478	1471	1468	1466	1484	1501	1501	1504	1508	1532	1487	1486	1490	1497	1501	1505	1488	1484	1480	1483	1483	1483	1494	1497	1496	1485	1489	1478	1473	1472	1481	1492	1496	1502	1505	1499	1491	1489	1484	1491	1497	1493	1492	1483	1479	1480	1484	1486	1494	1498	1512	1528	1524	1516	1510	1504	1496	1493	1494	1498	1498	1493	1490	1475	1465	1455	1454	1464	1466	1470	1466	1462	1450	1457	1469	1469	1479	1481	1476	1472	0	0	0	0	0	0	0
0	0	0	1439	1441	1436	1428	1428	1432	1434	1428	1432	1430	1430	1425	1423	1420	1425	1422	1425	1425	1419	1416	1414	1407	1408	1407	1419	1424	1424	1434	1441	1446	1450	1445	1441	1452	1448	1448	1441	1424	1414	1411	1412	1409	1412	1415	1434	1442	1455	1455	1462	1464	1460	1457	1462	1465	1466	1467	1459	1450	1442	1446	1446	1445	1445	1448	1441	1439	1434	1434	1451	1464	1468	1459	1443	1432	1428	1433	1440	1443	1461	1468	1476	1476	1474	1472	1454	1430	1411	1408	1417	1418	1399	1397	1397	1408	1415	1426	1424	1423	1422	1422	1426	1428	1436	1431	1415	1415	1426	1432	1436	1436	1433	1433	1431	1427	1424	1416	1409	1410	1414	1415	1415	1409	1407	1404	1399	1404	1411	1442	1437	1445	1436	1421	1405	0	0	0	0	0	0	0	0	0	0	0	0	0	0	0	0	0	0	0	0	0	0	0	0	0	0	0	0	1602	1632	1642	1644	1641	1653	1661	1654	1629	0	0	0	0	0	0	1446	1463	1452	1447	1443	1430	1427	1429	1431	1430	1426	1435	1417	1415	1422	1435	1435	1425	1418	1415	1415	1411	1403	1406	1418	1428	1435	1432	1428	1412	1411	1422	1424	1430	1431	1435	1437	1433	1435	1428	1430	1424	1416	1406	1397	1389	1394	1404	1420	1425	1416	1409	1407	1406	1405	1413	1423	1424	1419	1416	1410	1402	1405	1428	1447	1457	1452	1449	1452	1454	1452	1446	1432	1419	1405	1404	1406	1412	1424	1426	1432	1442	1451	1455	1454	1449	1446	1449	1446	1434	1430	1430	1442	1455	1436	1425	1422	1423	1422	1418	1419	1421	1426	1426	1433	1436	1437	1441	1437	1431	1416	1400	1396	1403	1409	1414	1413	1417	1423	1427	1422	1417	1430	1453	1454	1439	1424	1419	1434	1441	1442	1440	1443	1446	1446	1449	1446	1442	1443	1439	1436	1436	1445	1450	1455	1452	1437	1415	1400	1429	0	0	1450	1429	1429	1437	1455	1470	1466	1456	1451	1450	1441	1431	1431	1438	1439	1446	1451	1457	1457	1452	1451	1449	1448	1453	1457	1464	1474	1471	1460	1453	1446	1440	1450	1462	1477	1476	1467	1457	1444	1442	1435	1443	1442	1449	1446	1443	1438	1435	1437	1445	1449	1459	1463	1457	1446	1441	1442	1447	1447	1440	1440	1443	1457	1464	1457	1465	1483	1488	1484	1473	1459	1440	1433	1439	1439	1439	1436	1435	1441	1445	1464	1477	1478	1479	1475	1468	1468	1476	1483	1467	1453	1444	1428	1417	1425	1437	1446	1440	1441	1436	1437	1440	1448	1463	1481	1492	1497	1499	1497	1487	1479	1467	1455	1468	1473	1473	1459	1454	1436	1440	1458	1462	1466	1472	1479	1471	1464	1460	1471	1476	1476	1467	1459	1455	1467	1459	1468	1462	1461	1467	1474	1490	1492	1492	1490	1485	1468	1530	0	0	0	0	0	0	0	0	0	0	0	0	0	0	0	0	0	0	0	0	0	0	0	0	1600	1589	1578	1578	1565	1559	1556	1559	1540	1525	1538	1547	1551	1561	1567	1561	1557	1547	1560	1574	1578	1563	1552	1567	1561	1558	1553	1546	1538	1522	1513	1505	1535	0	0	0	0	0	0	0	0	0	0	0	0	0	0	0	0	0	1513	1489	1474	1476	1492	1477	1495	1497	1506	1491	1470	1469	1473	1480	1499	1496	1489	1487	1488	1495	1501	1510	1501	1495	1493	1502	1504	1502	1499	1491	1495	1495	1495	1506	1510	1507	1497	1491	1485	1491	1498	1499	1503	1492	1479	1475	1479	1487	1485	1495	1505	1509	1513	1508	1503	1501	1498	1493	1497	1498	1498	1504	1497	1489	1484	1484	1478	1472	1481	1481	1476	1463	1460	1455	1464	1464	1469	1471	1463	1465	0	0	0	0	0	0	0
0	0	0	1445	1451	1446	1445	1445	1443	1438	1426	1415	1416	1416	1413	1410	1416	1426	1431	1421	1421	1418	1423	1423	1421	1413	1414	1414	1414	1418	1425	1436	1449	1448	1439	1431	1431	1434	1434	1431	1418	1393	1394	1401	1395	1392	1395	1404	1446	1462	1462	1471	1469	1462	1458	1460	1465	1468	1464	1456	1445	1441	1447	1456	1453	1448	1457	1445	1433	1434	1434	1457	1473	1471	1459	1448	1446	1447	1445	1444	1444	1459	1467	1475	1475	1477	1476	1470	1444	1427	1419	1426	1423	1419	1395	1400	1407	1415	1421	1420	1429	1429	1433	1434	1433	1434	1432	1411	1409	1419	1425	1434	1439	1439	1439	1436	1431	1423	1416	1413	1414	1413	1413	1415	1413	1411	1402	1403	1404	1414	1453	1452	1451	1443	1421	1410	0	0	0	0	0	0	0	0	0	0	0	0	0	0	0	0	0	0	0	0	0	0	0	0	0	0	0	0	1613	1640	1647	1654	1651	1645	1653	1653	1624	0	0	0	0	0	0	1443	1471	1474	1478	1468	1449	1437	1423	1422	1421	1418	1424	1417	1417	1420	1429	1431	1422	1413	1409	1404	1398	1391	1395	1406	1416	1426	1428	1424	1418	1416	1417	1421	1427	1426	1425	1431	1436	1437	1439	1445	1449	1425	1405	1395	1386	1386	1400	1409	1413	1411	1402	1403	1403	1410	1414	1418	1420	1423	1415	1411	1412	1418	1441	1456	1466	1462	1456	1459	1445	1454	1444	1427	1413	1409	1416	1426	1423	1428	1432	1432	1441	1453	1456	1455	1449	1451	1450	1449	1443	1438	1438	1440	1441	1437	1428	1430	1431	1423	1421	1425	1426	1430	1427	1424	1428	1432	1435	1442	1442	1422	1410	1403	1404	1404	1407	1406	1412	1420	1421	1416	1414	1435	1455	1459	1445	1428	1423	1439	1447	1447	1445	1441	1447	1459	1459	1451	1443	1439	1433	1430	1430	1440	1448	1460	1459	1450	1429	1413	1432	1458	1456	1438	1431	1428	1431	1448	1450	1459	1459	1462	1457	1447	1436	1425	1426	1434	1444	1456	1463	1458	1455	1447	1445	1446	1451	1460	1476	1477	1477	1469	1457	1445	1431	1435	1457	1471	1469	1462	1442	1426	1424	1422	1428	1442	1449	1457	1457	1452	1448	1443	1444	1449	1464	1464	1459	1453	1437	1436	1438	1440	1442	1445	1451	1468	1471	1463	1463	1471	1483	1481	1481	1468	1448	1434	1434	1441	1443	1440	1439	1445	1451	1465	1469	1471	1473	1470	1465	1467	1480	1488	1483	1472	1450	1436	1422	1434	1446	1454	1453	1442	1437	1437	1446	1447	1461	1481	1503	1509	1496	1489	1481	1472	1459	1454	1460	1472	1477	1465	1449	1440	1444	1456	1467	1470	1471	1486	1471	1454	1446	1458	1470	1480	1491	1491	1481	1477	1466	1467	1462	1456	1464	1483	1496	1502	1499	1494	1486	1490	0	0	0	0	0	0	0	0	0	0	0	0	0	0	0	0	0	0	0	0	0	0	0	0	1632	1591	1580	1599	1593	1579	1558	1555	1546	1522	1528	1535	1546	1556	1566	1568	1562	1553	1549	1553	1561	1561	1567	1569	1564	1555	1545	1548	1542	1539	1529	1510	1501	1536	0	0	0	0	0	0	0	0	0	0	0	0	0	0	0	0	0	1553	1534	1495	1483	1499	1484	1499	1498	1507	1489	1473	1471	1466	1478	1492	1501	1498	1491	1495	1492	1507	1504	1492	1482	1489	1500	1513	1513	1507	1502	1500	1499	1506	1513	1516	1523	1511	1498	1490	1487	1498	1504	1503	1496	1482	1481	1481	1482	1488	1487	1485	1495	1505	1499	1485	1493	1501	1495	1496	1503	1503	1503	1501	1494	1491	1491	1486	1485	1488	1494	1485	1475	1461	1456	1470	1470	1477	1479	1475	1481	0	0	0	0	0	0	0
