0	0	0	1444	1451	1469	0	0	0	0	0	0	0	0	0	0	0	0	0	1681	1497	1497	1472	1487	1497	1499	1492	1473	1453	1453	0	0	0	0	0	0	0	0	0	0	0	0	0	0	0	0	0	0	0	0	0	0	0	0	0	0	0	0	1500	1509	1494	1488	1482	1476	1476	1477	1492	1497	1498	1493	1482	1482	1467	1466	1477	1495	1494	1485	1484	1482	1489	1485	1485	1485	1486	1499	1509	1517	1517	1514	1504	1487	1489	1494	1493	1489	1503	1507	1516	1522	1517	1514	1514	1513	1516	1514	1532	1555	1549	1535	1525	1528	1552	1571	1575	1564	1557	1557	1557	1550	1547	1537	1534	1547	1547	1542	1541	1541	1544	0	0	0	0	0	0	0	0	0	0	0	0	0	0	0	0	0	1630	1633	1650	1660	1669	1667	1668	1669	1674	1676	1675	1675	1685	1701	1705	1705	1683	1672	1665	1656	1640	1624	1610	1622	0	0	1542	1455	1450	1436	1419	1432	1437	1438	1438	1443	1447	1447	1433	1422	1419	1422	1428	1425	1431	1459	1459	1448	1438	1429	1420	1415	1414	1420	1418	1411	1409	1402	1412	1412	1407	1412	1426	1414	1411	1427	1426	1418	1411	1436	1441	1452	1462	1475	1497	1507	1511	1511	1521	1536	1538	1525	1516	1514	1521	1524	1529	0	0	0	1770	1776	1774	1770	1776	1775	1758	1743	1747	1753	1766	1773	1766	1750	1748	1755	1764	1770	1781	1784	1777	1771	1764	1761	1767	1768	1768	1749	1740	1736	1744	1720	1659	1613	1586	1470	1430	1421	1423	1432	1440	1428	1418	1413	1410	1412	1421	1429	1430	1431	1425	1417	1417	1422	1429	1438	1439	1427	1411	1411	1411	1417	1422	1429	1420	1411	1414	1426	1433	1420	1402	1399	1414	1428	1428	1433	1428	1433	1455	1467	1476	1486	0	0	0	0	0	0	0	0	1759	1764	1754	1728	1732	1737	1747	1758	1765	1769	1743	1732	1707	1694	1678	1653	0	0	0	0	0	0	0	0	0	0	0	0	0	0	0	0	0	0	0	0	0	0	0	0	0	0	0	0	0	0	0	0	0	0	0	0	0	0	0	0	0	0	0	0	0	0	0	0	0	0	0	0	0	0	0	0	0	0	0	0	0	0	0	0	0	1408	1382	1356	1360	1374	1381	1373	1345	1330	1331	1327	1330	1330	1332	1331	1321	1313	1326	1325	1321	1319	1306	1312	1319	1321	1317	1296	1293	1298	1304	1314	1323	1326	1319	1327	1319	1334	1335	1335	1336	1335	1332	1319	1322	1329	1334	1336	1314	1323	1319	1323	1329	1333	1342	1358	1369	1358	0	0	0	0	0	0	0	0	0	0	0	0	0	0	0	0	0	0	0	0	0	0	0	0	0	0	0	0	0	0	0	0	0	0	0	0	0	0	0	0	0	0	0	0	0	0	0	0	0	0	0	0	0	0	0	0	0	0	0	0	0	0	0	0	0	0	0	0	0	1612	1632	1622	1589	1577	1585	1592	1605	1612	1605	1597	1599	1590	1575	1559	1562	1551	1563	0	0	0	0	0	0	0	0	0	0	0	0	0	0	0	1374	1358	1324	1299	1279	1275	1273	1264	1254	1255	1255	1257	1258	1260	1249	1257	1261	1268	1274	1275	1274	1276	1274	1279	1277	1277	1285	1296	1296	1289	1286	1288	1293	1285	1278	1269	1263	1261	1262	1255	1256	1251	1248	1249	1251	1258	1258	1264	1267	1268	1273	1265	1258	1252	1248	1248	1258	1267	1272	1302	0	0	0	0	0	0	0	0	0	0	0	0	0	0
0	0	0	1451	1452	1461	1489	1489	0	0	0	0	0	0	0	0	0	1686	1691	1515	1488	1488	1470	1472	1479	1482	1483	1465	1448	1448	1443	0	0	0	0	0	0	0	0	0	0	0	0	0	0	0	0	0	0	0	0	0	0	0	0	0	0	0	1474	1477	1477	1478	1480	1476	1477	1479	1489	1487	1494	1487	1482	1482	1471	1465	1479	1495	1489	1484	1474	1482	1492	1496	1491	1485	1490	1502	1512	1516	1509	1503	1492	1485	1486	1491	1491	1486	1491	1505	1511	1522	1524	1519	1511	1507	1507	1512	1532	1554	1543	1526	1524	1529	1547	1565	1575	1567	1555	1547	1543	1543	1524	1522	1527	1545	1569	1564	1562	1561	1565	0	0	0	0	0	0	0	0	0	0	0	0	0	0	0	0	0	1613	1615	1640	1650	1661	1672	1671	1663	1654	1653	1664	1675	1698	1911	1918	1922	1710	1697	1685	1676	1658	1631	1623	1625	0	0	0	1453	1449	1441	1435	1427	1432	1426	1424	1419	1426	1439	1428	1417	1413	1418	1415	1423	1431	1446	1448	1437	1431	1427	1423	1421	1415	1407	1403	1408	1411	1416	1415	1416	1405	1410	1417	1410	1408	1424	1426	1427	1419	1429	1439	1447	1456	1477	1494	1508	1510	1508	1524	1541	1543	1535	1521	1526	1541	1561	1563	0	0	0	1763	1774	1769	1765	1773	1775	1757	1757	1768	1774	1781	1778	1767	1753	1743	1754	1769	1781	1782	1786	1777	1769	1759	1756	1759	1745	1747	1749	1734	1738	1735	1725	1639	1597	1565	1453	1427	1409	1422	1429	1438	1438	1429	1421	1417	1422	1425	1425	1427	1425	1421	1422	1424	1432	1436	1446	1438	1429	1420	1412	1415	1420	1423	1422	1413	1405	1409	1419	1425	1424	1395	1394	1413	1423	1425	1429	1439	1458	1471	1468	1485	1491	1493	0	0	0	0	0	0	0	1778	1781	1752	1713	1706	1714	1732	1750	1756	1759	1736	1721	1704	1705	1691	1681	0	0	0	0	0	0	0	0	0	0	0	0	0	0	0	0	0	0	0	0	0	0	0	0	0	0	0	0	0	0	0	0	0	0	0	0	0	0	0	0	0	0	0	0	0	0	0	0	0	0	0	0	0	0	0	0	0	0	0	0	0	0	0	0	0	1399	1365	1350	1354	1368	1371	1364	1339	1330	1335	1336	1333	1334	1334	1333	1315	1308	1321	1322	1320	1312	1314	1319	1318	1321	1322	1306	1291	1296	1306	1319	1320	1316	1318	1325	1309	1316	1318	1321	1318	1325	1327	1323	1327	1334	1339	1336	1310	1323	1321	1320	1323	1330	1333	1337	1349	1349	0	0	0	0	0	0	0	0	0	0	0	0	0	0	0	0	0	0	0	0	0	0	0	0	0	0	0	0	0	0	0	0	0	0	0	0	0	0	0	0	0	0	0	0	0	0	0	0	0	0	0	0	0	0	0	0	0	0	0	0	0	0	0	0	0	0	0	0	0	1609	1612	1575	1566	1558	1564	1578	1601	1605	1606	1605	1607	1591	1576	1561	1554	1549	1556	1541	0	0	0	0	0	0	0	0	0	0	0	0	0	0	1377	1360	1337	1306	1282	1278	1273	1265	1259	1258	1259	1259	1259	1255	1257	1271	1273	1286	1287	1286	1281	1275	1283	1293	1287	1285	1289	1295	1291	1286	1287	1295	1304	1299	1284	1273	1268	1264	1258	1251	1244	1240	1239	1242	1258	1267	1267	1268	1265	1259	1261	1268	1259	1260	1252	1250	1262	1274	1273	1294	0	0	0	0	0	0	0	0	0	0	0	0	0	0
0	0	0	1476	1463	1473	0	0	0	0	0	0	0	0	0	0	0	1689	1515	1506	1489	1489	1476	1464	1454	1465	1475	1478	1459	1459	1466	0	0	0	0	0	0	0	0	0	0	0	0	0	0	0	0	0	0	0	0	0	0	0	0	0	0	0	1454	1455	1469	1480	1480	1478	1478	1474	1483	1481	1480	1477	1475	1475	1476	1474	1487	1496	1495	1485	1474	1476	1497	1511	1500	1488	1493	1502	1512	1509	1497	1490	1486	1483	1486	1491	1493	1491	1491	1489	1500	1510	1520	1520	1513	1500	1498	1508	1520	1537	1520	1514	1514	1532	1549	1565	1575	1575	1567	1555	1553	1538	1521	1511	1514	1550	1577	1585	1586	1585	1592	0	0	0	0	0	0	0	0	0	0	0	0	0	0	0	0	1601	1597	1609	1642	1654	1672	1680	1677	1660	1644	1654	1673	1679	1698	1910	0	0	1709	1695	1694	1688	1669	1650	1624	1621	0	0	0	1452	1439	1429	1432	1427	1426	1416	1414	1411	1412	1428	1423	1421	1414	1407	1408	1424	1430	1436	1434	1427	1424	1418	1417	1421	1419	1410	1406	1408	1418	1420	1424	1427	1402	1400	1398	1406	1412	1418	1429	1442	1433	1437	1440	1444	1454	1476	1487	1498	1504	1508	1523	1538	1536	1525	1520	1530	1555	1579	1600	0	0	0	1745	1753	1747	1750	1756	1764	1766	1763	1774	1782	1781	1776	1756	1745	1740	1741	1769	1786	1784	1781	1775	1767	1759	1763	1753	1741	1733	1724	1733	1732	1729	1727	1627	1585	1550	1446	1420	1413	1411	1424	1435	1440	1437	1432	1431	1435	1433	1426	1424	1419	1419	1425	1434	1443	1449	1451	1440	1432	1418	1412	1412	1413	1414	1410	1400	1401	1404	1412	1418	1413	1388	1386	1385	1414	1423	1419	1442	1473	1481	1478	1503	1501	1489	0	0	0	0	0	0	0	1778	1778	1743	1703	1699	1700	1720	1740	1753	1761	1759	1735	1718	1720	1715	1701	0	0	0	0	0	0	0	0	0	0	0	0	0	0	0	0	0	0	0	0	0	0	0	0	0	0	0	0	0	0	0	0	0	0	0	0	0	0	0	0	0	0	0	0	0	0	0	0	0	0	0	0	0	0	0	0	0	0	0	0	0	0	0	0	0	1392	1356	1351	1354	1359	1361	1351	1336	1336	1342	1340	1336	1334	1334	1334	1312	1308	1320	1322	1319	1313	1318	1321	1322	1336	1332	1311	1292	1290	1308	1322	1313	1308	1303	1306	1306	1308	1311	1313	1309	1313	1330	1325	1329	1332	1335	1333	1306	1319	1333	1326	1327	1334	1336	1319	1324	1349	0	0	0	0	0	0	0	0	0	0	0	0	0	0	0	0	0	0	0	0	0	0	0	0	0	0	0	0	0	0	0	0	0	0	0	0	0	0	0	0	0	0	0	0	0	0	0	0	0	0	0	0	0	0	0	0	0	0	0	0	0	0	0	0	0	0	0	0	0	1595	1583	1561	1558	1557	1564	1585	1602	1608	1605	1603	1597	1598	1578	1568	1559	1564	1561	1525	0	0	0	0	0	0	0	0	0	0	0	0	0	0	1367	1348	1347	1312	1294	1290	1288	1280	1271	1271	1263	1260	1255	1252	1256	1274	1282	1290	1294	1290	1286	1288	1297	1297	1297	1290	1293	1298	1291	1284	1283	1291	1302	1301	1284	1270	1262	1257	1249	1244	1239	1235	1233	1238	1250	1268	1268	1270	1259	1255	1250	1259	1255	1260	1258	1262	1269	1281	1293	1325	0	0	0	0	0	0	0	0	0	0	0	0	0	0
0	0	0	1485	1481	0	0	0	0	0	0	0	0	0	0	0	0	1682	1515	1506	1505	1505	1497	1482	1460	1465	1487	1505	1499	1499	0	0	0	0	0	0	0	0	0	0	0	0	0	0	0	0	0	0	0	0	0	0	0	0	0	0	0	0	0	1470	1468	1475	1479	1470	1469	1473	1474	1486	1477	1468	0	0	1492	1482	1489	1502	1492	1485	1479	1484	1495	1503	1494	1481	1482	1492	1496	1498	1489	1487	1488	1489	1495	1503	1500	1502	1490	1482	1489	1504	1515	1515	1503	1489	1487	1495	1509	1526	1511	1517	1521	1534	1542	1559	1575	1582	1583	1571	1559	1547	1527	1512	1517	1541	1570	1576	1587	1589	1596	0	0	0	0	0	0	0	0	0	0	0	0	0	0	0	0	1596	1601	1612	1642	1666	1688	1707	1682	1671	1661	1680	1693	1691	1698	1908	1910	1917	1707	1683	1682	1682	1666	1648	1622	1609	0	0	1546	1439	1410	1414	1414	1421	1423	1418	1410	1411	1413	1418	1424	1414	1410	1407	1409	1416	1428	1437	1424	1419	1419	1414	1416	1427	1425	1424	1423	1425	1422	1418	1424	1431	1400	1400	1399	1407	1420	1424	1439	1456	1451	1432	1442	1451	1463	1477	1489	1491	1497	1498	1504	1507	1519	1507	1516	1528	1559	1578	1591	0	0	0	1713	1734	1736	1735	1745	1758	1772	1767	1768	1760	1760	1748	1746	1732	1729	1741	1763	1772	1768	1760	1763	1761	1771	1762	1754	1740	1717	1707	1714	1717	1720	1739	1644	1600	1530	1444	1421	1405	1402	1425	1430	1439	1442	1443	1445	1445	1444	1432	1428	1423	1419	1427	1440	1454	1454	1450	1439	1425	1411	1416	1415	1413	1410	1406	1398	1399	1406	1414	1418	1405	1381	1384	1383	1401	1426	1438	1444	1466	1479	1493	1491	1490	1481	0	0	0	0	0	0	0	1778	1755	1723	1697	1697	1697	1726	1741	1756	1746	1752	1750	1739	1738	1731	1735	0	0	0	0	0	0	0	0	0	0	0	0	0	0	0	0	0	0	0	0	0	0	0	0	0	0	0	0	0	0	0	0	0	0	0	0	0	0	0	0	0	0	0	0	0	0	0	0	0	0	0	0	0	0	0	0	0	0	0	0	0	0	0	0	0	1392	1358	1364	1365	1362	1352	1347	1339	1343	1347	1342	1334	1337	1340	1335	1322	1307	1320	1324	1321	1314	1320	1321	1324	1326	1330	1316	1305	1302	1323	1322	1314	1312	1300	1297	1298	1304	1308	1314	1317	1319	1328	1326	1325	1323	1328	1320	1304	1320	1338	1331	1331	1341	1340	1313	1316	1386	0	0	0	0	0	0	0	0	0	0	0	0	0	0	0	0	0	0	0	0	0	0	0	0	0	0	0	0	0	0	0	0	0	0	0	0	0	0	0	0	0	0	0	0	0	0	0	0	0	0	0	0	0	0	0	0	0	0	0	0	0	0	0	0	0	0	0	0	0	1592	1582	1578	1575	1580	1592	1607	1612	1614	1603	1599	1597	1591	1571	1561	1566	1569	1561	1515	0	0	0	0	0	0	0	0	0	0	0	0	0	0	1350	1348	1354	1316	1298	1305	1304	1295	1282	1275	1271	1266	1257	1262	1289	1287	1291	1297	1297	1295	1291	1294	1299	1297	1291	1289	1297	1299	1295	1287	1283	1285	1293	1293	1284	1271	1259	1250	1245	1241	1239	1234	1234	1242	1257	1269	1269	1269	1259	1252	1254	1249	1248	1254	1261	1263	1269	1286	1298	1355	0	0	0	0	0	0	0	0	0	0	0	0	0	0
0	0	0	1491	1492	0	0	0	0	0	0	0	0	0	0	0	0	0	1699	1513	1513	1513	1516	1507	1512	1714	1706	1523	1517	1517	0	0	0	0	0	0	0	0	0	0	0	0	0	0	0	0	0	0	0	0	0	0	0	0	0	0	0	0	0	1496	1494	1477	1471	1466	1463	1472	1489	1493	1486	0	0	0	0	1503	1484	1483	1489	1488	1483	1478	1478	1477	1474	1467	1474	1485	1490	1488	1492	1492	1496	1491	1501	1511	1509	1503	1486	1467	1477	1492	1503	1504	1491	1484	1487	1490	1500	1524	1529	1526	1529	1533	1539	1547	1559	1583	1585	1579	1565	1558	1539	1533	1530	1551	1568	1567	1571	1579	1586	1585	0	0	0	0	0	0	0	0	0	0	0	0	0	0	0	1606	1610	1620	1656	1895	0	1918	1701	1683	1689	1696	1911	1700	1693	1684	1689	1700	1697	1691	1681	1678	1665	1648	1618	1597	0	0	1514	1407	1403	1410	1415	1423	1426	1423	1420	1416	1417	1413	1416	1416	1411	1413	1412	1413	1420	1435	1427	1421	1424	1420	1419	1429	1434	1436	1445	1436	1428	1422	1429	1436	1401	1402	1409	1408	1420	1427	1430	1447	1467	1466	1469	1463	1467	1475	1480	1491	1496	1477	1486	1501	1512	1506	1513	1531	1556	1569	1584	0	0	0	1693	1728	1729	1727	1731	1750	1765	1757	1744	1737	1732	1732	1727	1721	1723	1736	1752	1762	1757	1747	1744	1748	1758	1760	1753	1738	1720	1700	1699	1711	1718	1743	1651	1619	1547	1452	1429	1421	1422	1420	1425	1431	1437	1440	1444	1446	1445	1434	1436	1420	1427	1432	1446	1458	1448	1437	1425	1411	1412	1410	1415	1415	1418	1415	1412	1409	1411	1418	1423	1407	1386	1382	1392	1410	1429	1442	1441	1450	1463	1461	1462	1460	1461	0	0	0	0	0	0	0	1767	1732	1710	1700	1699	1717	1730	1754	1748	1747	1752	1742	1732	1729	1740	1746	0	0	0	0	0	0	0	0	0	0	0	0	0	0	0	0	0	0	0	0	0	0	0	0	0	0	0	0	0	0	0	0	0	0	0	0	0	0	0	0	0	0	0	0	0	0	0	0	0	0	0	0	0	0	0	0	0	0	0	0	0	0	0	0	0	1379	1367	1380	1380	1358	1354	1351	1349	1355	1350	1336	1333	1339	1339	1338	1323	1312	1320	1324	1322	1319	1320	1320	1315	1317	1314	1322	1326	1310	1322	1327	1319	1314	1308	1306	1298	1306	1306	1310	1316	1320	1331	1319	1316	1311	1311	1307	1308	1330	1339	1335	1332	1339	1334	1317	1348	1393	0	0	0	0	0	0	0	0	0	0	0	0	0	0	0	0	0	0	0	0	0	0	0	0	0	0	0	0	0	0	0	0	0	0	0	0	0	0	0	0	0	0	0	0	0	0	0	0	0	0	0	0	0	0	0	0	0	0	0	0	0	0	0	0	0	0	0	0	0	1599	1605	1599	1593	1604	1606	1620	1628	1618	1606	1603	1594	1596	1584	1569	1565	1558	1556	1510	0	0	0	0	0	0	0	0	0	0	0	0	0	0	1340	1349	1350	1314	1299	1304	1305	1295	1280	1277	1275	1268	1268	1269	1302	1299	1303	1298	1293	1286	1288	1293	1293	1279	1277	1282	1293	1301	1296	1289	1283	1284	1288	1288	1282	1273	1262	1250	1246	1242	1241	1242	1242	1250	1267	1281	1281	1281	1272	1262	1259	1251	1242	1253	1260	1263	1264	1274	1291	1350	0	0	0	0	0	0	0	0	0	0	0	0	0	0
0	0	0	1471	1482	1652	0	0	0	0	0	0	0	0	0	0	0	0	1689	1507	1510	1510	1517	1513	1710	1710	1709	1533	1526	1526	0	0	0	0	0	0	0	0	0	0	0	0	0	0	0	0	0	0	0	0	0	0	0	0	0	0	0	0	0	1507	1507	1496	1465	1462	1461	1479	1495	1499	1497	0	0	0	0	0	1497	1490	1488	1486	1482	1472	1466	1461	1464	1474	1484	1492	1490	1496	1496	1499	1498	1493	1501	1508	1506	1496	1471	1462	1463	1484	1497	1494	1488	1479	1484	1491	1495	1524	1535	1531	1532	1531	1525	1531	1546	1568	1573	1564	1562	1558	1558	1551	1557	1573	1585	1577	1570	1560	1565	1562	0	0	0	0	0	0	0	0	0	0	0	0	0	0	0	1633	1627	1631	1689	0	0	0	1928	1701	1919	0	1918	1691	1674	1676	1689	1700	1701	1692	1684	1684	1665	1651	1618	1590	1568	0	1493	1408	1407	1417	1424	1430	1429	1431	1429	1431	1428	1428	1426	1417	1410	1411	1411	1402	1409	1428	1429	1432	1437	1437	1433	1430	1432	1444	1452	1446	1437	1428	1426	1434	1402	1402	1403	1399	1414	1424	1430	1439	1462	1470	1480	1485	1491	1490	1489	1489	1492	1470	1475	1504	1513	1520	1519	1521	1546	1551	1570	0	0	0	1684	1728	1737	1736	1744	1753	1767	1746	1726	1719	1719	1726	1727	1713	1719	1738	1749	1747	1735	1720	1727	1728	1736	1744	1737	1731	1722	1703	1705	1710	1719	1740	1647	1607	1568	1465	1440	1432	1433	1416	1417	1423	1432	1437	1443	1445	1439	1426	1424	1421	1422	1439	1449	1457	1444	1428	1413	1408	1403	1410	1418	1429	1430	1428	1423	1419	1412	1412	1419	1420	1399	1404	1399	1421	1446	1452	1443	1443	1449	1439	1440	1444	1448	0	0	0	0	0	0	0	1745	1730	1714	1703	1711	1717	1726	1739	1734	1741	1742	1733	1728	1732	1748	1755	0	0	0	0	0	0	0	0	0	0	0	0	0	0	0	0	0	0	0	0	0	0	0	0	0	0	0	0	0	0	0	0	0	0	0	0	0	0	0	0	0	0	0	0	0	0	0	0	0	0	0	0	0	0	0	0	0	0	0	0	0	0	0	0	0	1375	1366	1395	1387	1361	1359	1360	1356	1351	1342	1326	1323	1331	1334	1329	1321	1319	1322	1324	1322	1319	1318	1317	1315	1307	1303	1293	1313	1314	1319	1306	1298	1306	1308	1309	1319	1320	1316	1311	1313	1317	1332	1313	1299	1300	1300	1305	1315	1328	1325	1327	1334	1338	1334	1346	1360	1361	0	0	0	0	0	0	0	0	0	0	0	0	0	0	0	0	0	0	0	0	0	0	0	0	0	0	0	0	0	0	0	0	0	0	0	0	0	0	0	0	0	0	0	0	0	0	0	0	0	0	0	0	0	0	0	0	0	0	0	0	0	0	0	0	0	0	0	0	0	1624	1628	1629	1615	1607	1614	1619	1625	1623	1613	1618	1615	1617	1608	1594	1571	1560	1558	0	0	0	0	0	0	0	0	0	0	0	0	0	0	0	1319	1328	1333	1300	1289	1292	1293	1284	1276	1269	1278	1276	1274	1275	1308	1309	1302	1290	1282	1277	1280	1286	1283	1278	1272	1277	1288	1302	1299	1287	1282	1282	1284	1284	1279	1273	1267	1265	1259	1255	1252	1251	1252	1268	1279	1288	1288	1289	1282	1274	1267	1260	1256	1256	1263	1258	1261	1265	1270	1325	0	0	0	0	0	0	0	0	0	0	0	0	0	0
0	0	0	1476	1483	1484	1492	1492	1489	1656	1664	0	0	0	0	1689	1687	1692	1512	1500	1498	1478	1481	1489	1506	1526	1532	1536	1518	1518	0	0	0	0	0	0	0	0	0	0	0	0	0	0	0	0	0	0	0	0	0	0	0	0	0	0	0	0	0	1497	1507	1497	1460	1455	1461	1474	1486	1492	1496	0	0	0	0	0	1491	1477	1472	1477	1470	1463	1454	1458	1469	1483	1496	1503	1496	1490	1497	1504	1503	1503	1505	1507	1507	1488	1472	1470	1474	1485	1498	1495	1486	1483	1489	1497	1502	1529	1540	1541	1540	1531	1523	1526	1545	1555	1556	1556	1559	1566	1571	1574	1582	1596	1598	1592	1578	1561	1556	0	0	0	0	0	0	0	0	0	0	0	0	0	0	0	0	0	1636	1649	0	0	0	0	1914	1920	1915	1920	1686	1680	1674	1686	1688	1701	1694	1691	1685	1680	1669	1645	1625	1594	1566	1534	1478	1412	1417	1425	1427	1429	1431	1429	1430	1436	1443	1444	1440	1432	1415	1418	1407	1400	1398	1420	1435	1448	1453	1451	1446	1437	1441	1444	1452	1446	1438	1437	1432	1424	1406	1401	1401	1396	1405	1424	1429	1431	1450	1473	1474	1479	1484	1496	1496	1500	1495	1495	1505	1513	1531	1524	1519	1521	1529	1541	1553	0	0	0	1680	1744	1753	1749	1750	1757	1764	1740	1718	1706	1714	1726	1728	1720	1720	1727	1743	1748	1739	1724	1733	1732	1739	1735	1729	1729	1724	1713	1707	1714	1717	1705	1628	1596	1566	1472	1451	1455	1444	1417	1420	1425	1434	1436	1439	1437	1433	1431	1427	1423	1418	1424	1437	1445	1442	1428	1418	1407	1404	1409	1419	1438	1444	1431	1427	1420	1403	1403	1404	1421	1414	1411	1412	1428	1444	1450	1447	1441	1451	1441	1442	1446	1458	0	0	0	0	0	0	0	1731	1738	1718	1712	1729	1741	1746	1747	1729	1738	1735	1732	1728	1728	1760	1755	0	0	0	0	0	0	0	0	0	0	0	0	0	0	0	0	0	0	0	0	0	0	0	0	0	0	0	0	0	0	0	0	0	0	0	0	0	0	0	0	0	0	0	0	0	0	0	0	0	0	0	0	0	0	0	0	0	0	0	0	0	0	0	0	0	1383	1374	1392	1385	1365	1363	1363	1353	1348	1335	1322	1315	1320	1322	1324	1327	1323	1326	1322	1318	1316	1313	1315	1312	1305	1307	1307	1309	1303	1306	1314	1300	1299	1307	1313	1326	1326	1326	1320	1316	1315	1325	1310	1299	1288	1296	1321	1323	1326	1311	1318	1334	1340	1342	1357	1364	1355	0	0	0	0	0	0	0	0	0	0	0	0	0	0	0	0	0	0	0	0	0	0	0	0	0	0	0	0	0	0	0	0	0	0	0	0	0	0	0	0	0	0	0	0	0	0	0	0	0	0	0	0	0	0	0	0	0	0	0	0	0	0	0	0	0	0	0	0	0	1632	1643	1643	1630	1611	1603	1600	1614	1621	1625	1630	1635	1644	1637	1613	1585	1572	1580	0	0	0	0	0	0	0	0	0	0	0	0	0	0	0	1311	1307	1292	1276	1275	1282	1286	1285	1279	1265	1283	1280	1278	1280	1300	1302	1296	1283	1274	1271	1272	1280	1280	1279	1274	1277	1289	1296	1291	1280	1278	1280	1279	1275	1270	1272	1277	1277	1275	1269	1264	1262	1264	1277	1289	1294	1294	1292	1286	1277	1272	1266	1261	1261	1260	1255	1257	1255	1265	1308	0	0	0	0	0	0	0	0	0	0	0	0	0	0
0	0	0	1482	1497	1488	1474	1473	1473	1482	1660	1665	1678	1507	1507	1500	1502	1502	1504	1490	1475	1475	1468	1482	1497	1512	1529	1536	1518	1518	0	0	0	0	0	0	0	0	0	0	0	0	0	0	0	0	0	0	0	0	0	0	0	0	0	0	0	0	0	1469	1490	1492	1475	1464	1464	1470	1478	1478	1485	0	0	0	0	0	1464	1469	1464	1468	1454	1462	1456	1458	1472	1493	1507	1508	1496	1494	1500	1501	1508	1503	1506	1507	1505	1491	1486	1490	1487	1487	1492	1490	1490	1492	1494	1504	1514	1531	1544	1551	1547	1537	1539	1549	1551	1555	1558	1558	1570	1569	1578	1584	1590	1591	1591	1591	1583	1567	1562	0	0	0	0	0	0	0	0	0	0	0	0	0	0	0	0	0	1629	1638	0	0	0	1919	1690	1689	1677	1658	1651	1653	1679	1691	1695	1698	1698	1691	1681	1668	1655	1647	1621	1599	1558	1525	1492	1423	1424	1434	1426	1426	1425	1422	1432	1440	1449	1453	1447	1441	1430	1421	1418	1411	1407	1428	1444	1452	1452	1465	1463	1450	1440	1442	1448	1449	1444	1439	1432	1418	1403	1397	1396	1400	1403	1427	1429	1431	1441	1470	1465	1462	1463	1482	1494	1502	1505	1512	1510	1520	1524	1524	1518	1516	1524	1534	1553	0	0	0	1722	1752	1747	1742	1749	1754	1756	1750	1719	1711	1714	1727	1727	1724	1730	1731	1735	1744	1744	1749	1747	1728	1741	1729	1725	1725	1729	1730	1724	1722	1721	1688	1615	1579	1556	1480	1464	1460	1447	1429	1426	1430	1440	1442	1442	1437	1433	1432	1428	1419	1417	1417	1429	1433	1441	1435	1429	1419	1411	1414	1418	1433	1436	1430	1423	1418	1400	1393	1402	1412	1415	1416	1417	1434	1447	1449	1448	1439	1450	1449	1459	1471	1458	0	0	0	0	0	0	0	1737	1724	1728	1734	1746	1746	1746	1733	1729	1729	1729	1732	1736	1735	1763	1756	0	0	0	0	0	0	0	0	0	0	0	0	0	0	0	0	0	0	0	0	0	0	0	0	0	0	0	0	0	0	0	0	0	0	0	0	0	0	0	0	0	0	0	0	0	0	0	0	0	0	0	0	0	0	0	0	0	0	0	0	0	0	0	0	0	1395	1386	1380	1374	1364	1361	1354	1338	1352	1349	1324	1313	1316	1320	1327	1333	1347	1333	1328	1316	1320	1334	1335	1317	1312	1305	1295	1300	1305	1307	1307	1294	1299	1309	1312	1324	1326	1324	1317	1313	1310	1325	1299	1296	1300	1312	1328	1328	1322	1306	1311	1333	1342	1343	1353	1358	1370	0	0	0	0	0	0	0	0	0	0	0	0	0	0	0	0	0	0	0	0	0	0	0	0	0	0	0	0	0	0	0	0	0	0	0	0	0	0	0	0	0	0	0	0	0	0	0	0	0	0	0	0	0	0	0	0	0	0	0	0	0	0	0	0	0	0	0	0	0	1623	1640	1640	1627	1611	1599	1590	1606	1618	1630	1636	1642	1650	1635	1617	1593	1584	1578	0	0	0	0	0	0	0	0	0	0	0	0	0	0	0	1310	1296	1283	1269	1275	1278	1279	1278	1281	1266	1273	1276	1275	1276	1289	1296	1291	1284	1275	1268	1270	1275	1279	1280	1282	1288	1291	1296	1284	1276	1272	1270	1264	1268	1260	1272	1276	1281	1280	1273	1273	1272	1271	1281	1292	1304	1304	1296	1287	1273	1267	1264	1261	1260	1262	1255	1246	1257	1269	1319	0	0	0	0	0	0	0	0	0	0	0	0	0	0
0	0	0	1497	1495	1488	1466	1458	1458	1474	1483	1660	1502	1487	1487	1484	1486	1496	1505	1505	1495	1495	1477	1481	1489	1502	1516	1525	1507	1507	0	0	0	0	0	0	0	0	0	0	0	0	0	0	0	0	0	0	0	0	0	0	0	0	0	0	0	0	0	1454	1479	1497	1506	1501	1492	1482	1480	1480	1474	0	0	0	0	0	1446	1460	1461	1463	1452	1453	1461	1462	1474	1497	1513	1509	1494	1491	1503	1496	1495	1496	1500	1508	1506	1496	1510	1514	1508	1501	1495	1493	1488	1492	1498	1512	1524	1538	1545	1553	1555	1558	1557	1564	1566	1562	1565	1570	1576	1578	1587	1602	1602	1591	1582	1577	1576	1578	1578	0	0	0	0	0	0	0	0	0	0	0	0	0	0	0	0	0	1609	1622	0	0	1679	1674	1685	1683	1658	1641	1643	1652	1670	1690	1694	1695	1695	1690	1674	1653	1646	1642	1641	1618	1585	1541	1513	1445	1439	1434	1423	1421	1417	1421	1432	1443	1447	1453	1444	1436	1429	1432	1435	1438	1434	1436	1443	1448	1448	1456	1459	1457	1446	1442	1440	1444	1447	1452	1444	1419	1397	1402	1400	1412	1426	1435	1437	1439	1437	1464	1457	1447	1443	1456	1469	1494	1518	1521	1521	1514	1518	1515	1520	1517	1516	1532	1557	0	0	0	1736	1747	1730	1727	1735	1742	1747	1742	1728	1719	1720	1722	1724	1727	1736	1732	1741	1752	1765	1750	1746	1744	1738	1728	1721	1725	1739	1741	1737	1736	1733	1692	1602	1579	1543	1476	1464	1467	1450	1438	1431	1432	1437	1445	1445	1441	1438	1435	1430	1421	1411	1407	1408	1424	1432	1436	1433	1425	1414	1414	1419	1430	1433	1427	1419	1413	1402	1395	1396	1403	1410	1412	1410	1420	1439	1451	1441	1432	1434	1453	1462	1459	1449	0	0	0	0	0	0	0	1733	1734	1743	1745	1745	1747	1734	1725	1729	1729	1735	1731	1734	1737	1751	1761	0	0	0	0	0	0	0	0	0	0	0	0	0	0	0	0	0	0	0	0	0	0	0	0	0	0	0	0	0	0	0	0	0	0	0	0	0	0	0	0	0	0	0	0	0	0	0	0	0	0	0	0	0	0	0	0	0	0	0	0	0	0	0	0	0	1402	1385	1374	1364	1363	1362	1345	1342	1357	1363	1345	1325	1322	1326	1327	1332	1341	1342	1331	1322	1329	1319	1314	1328	1330	1310	1309	1313	1317	1309	1309	1313	1300	1306	1314	1313	1318	1316	1313	1309	1312	1329	1311	1317	1322	1330	1334	1331	1325	1311	1318	1327	1339	1343	1351	1354	1403	0	0	0	0	0	0	0	0	0	0	0	0	0	0	0	0	0	0	0	0	0	0	0	0	0	0	0	0	0	0	0	0	0	0	0	0	0	0	0	0	0	0	0	0	0	0	0	0	0	0	0	0	0	0	0	0	0	0	0	0	0	0	0	0	0	0	0	0	0	0	1629	1624	1615	1594	1589	1593	1598	1612	1625	1630	1626	1625	1616	1601	1592	1582	1565	0	0	0	0	0	0	0	0	0	0	0	0	0	0	0	1326	1310	1291	1285	1286	1279	1269	1273	1279	1280	1272	1267	1264	1263	1280	1291	1291	1288	1281	1275	1273	1270	1278	1284	1290	1294	1295	1296	1283	1279	1273	1265	1260	1259	1262	1267	1276	1275	1266	1265	1271	1272	1271	1277	1289	1300	1300	1298	1286	1274	1258	1251	1249	1253	1255	1254	1248	1255	1275	1329	0	0	0	0	0	0	0	0	0	0	0	0	0	0
0	0	0	1488	1496	1495	1485	1477	1477	1470	1477	1491	1500	1496	1496	1481	1484	1495	1513	1707	1510	1510	1497	1489	1491	1499	1510	1503	1492	0	0	0	0	0	0	0	0	0	0	0	0	0	0	0	0	0	0	0	0	0	0	0	0	0	0	0	0	0	0	1451	1486	1509	1526	1527	1510	1495	1480	1479	1477	0	0	0	0	0	1439	1459	1469	1470	1469	1466	1458	1466	1479	1501	1511	1501	1486	1491	1499	1496	1490	1488	1501	1505	1512	1515	1536	1534	1523	1521	1513	1500	1501	1496	1503	1508	1519	1533	1539	1546	1556	1561	1568	1567	1569	1569	1570	1586	1600	1605	1617	1624	1617	1599	1581	1574	1578	1576	1588	0	0	0	0	0	0	0	0	0	0	0	0	0	0	0	0	0	1602	1612	1674	1678	1653	1647	1659	1659	1653	1645	1645	1652	1660	1674	1687	1685	1688	1683	1657	1642	1637	1640	1649	1643	0	0	1534	1457	1446	1426	1419	1419	1426	1434	1437	1443	1448	1437	1428	1419	1428	1435	1445	1451	1449	1437	1435	1435	1433	1441	1449	1445	1437	1431	1435	1436	1442	1455	1454	1435	1412	1415	1414	1426	1436	1438	1446	1439	1439	1458	1460	1446	1435	1439	1452	1480	1512	1525	1518	1521	1519	1519	1519	1514	1515	1523	1597	0	0	0	1730	1723	1722	1719	1728	1736	1742	1742	1742	1731	1728	1731	1732	1733	1737	1732	1738	1756	1762	1764	1749	1744	1746	1723	1721	1723	1733	1740	1741	1750	1748	1724	1619	1590	1539	1467	1456	1458	1444	1424	1431	1424	1435	1442	1442	1441	1443	1434	1430	1419	1411	1407	1406	1416	1422	1430	1428	1427	1418	1412	1418	1426	1425	1422	1415	1412	1410	1410	1411	1415	1406	1407	1403	1401	1440	1453	1447	1440	1434	1444	1440	1435	1431	0	0	0	0	0	0	0	1740	1757	1742	1737	1739	1734	1720	1711	1716	1730	1738	1735	1733	1731	1740	1752	0	0	0	0	0	0	0	0	0	0	0	0	0	0	0	0	0	0	0	0	0	0	0	0	0	0	0	0	0	0	0	0	0	0	0	0	0	0	0	0	0	0	0	0	0	0	0	0	0	0	0	0	0	0	0	0	0	0	0	0	0	0	0	0	0	1407	1382	1372	1370	1366	1366	1353	1341	1355	1369	1353	1337	1326	1324	1325	1329	1333	1336	1328	1321	1319	1318	1315	1313	1329	1314	1315	1316	1307	1300	1301	1303	1312	1305	1306	1302	1304	1307	1312	1309	1311	1338	1338	1339	1340	1337	1332	1326	1326	1319	1322	1330	1349	1355	1355	1355	1411	0	0	0	0	0	0	0	0	0	0	0	0	0	0	0	0	0	0	0	0	0	0	0	0	0	0	0	0	0	0	0	0	0	0	0	0	0	0	0	0	0	0	0	0	0	0	0	0	0	0	0	0	0	0	0	0	0	0	0	0	0	0	0	0	0	0	0	0	0	1606	1629	1626	1615	1601	1597	1581	1582	1586	1602	1615	1614	1606	1595	1579	1578	1575	1565	0	0	0	0	0	0	0	0	0	0	0	0	0	0	0	1348	1328	1315	1313	1305	1295	1277	1280	1281	1285	1266	1260	1255	1259	1277	1289	1295	1292	1287	1276	1272	1269	1277	1290	1297	1299	1296	1286	1285	1291	1283	1270	1261	1256	1258	1265	1267	1259	1257	1252	1259	1265	1269	1274	1277	1277	1285	1294	1284	1273	1256	1247	1245	1247	1255	1251	1251	1263	1283	1325	0	0	0	0	0	0	0	0	0	0	0	0	0	0
0	0	0	1471	1486	1672	1662	1495	1495	1493	1477	1490	1670	1682	1682	1497	1692	1700	0	0	0	0	1511	1495	1490	1493	1502	1503	1502	0	0	0	0	0	0	0	0	0	0	0	0	0	0	0	0	0	0	0	0	0	0	0	0	0	0	0	0	0	0	1465	1484	1507	1516	1524	1504	1487	1478	1471	1473	0	0	0	0	0	1439	1468	1473	1467	1464	1467	1468	1476	1491	1505	1506	1494	1487	1491	1496	1499	1487	1490	1500	1511	1515	1522	1545	1539	1527	1530	1524	1521	1512	1506	1505	1499	1527	1533	1539	1546	1553	1557	1556	1563	1554	1562	1566	1592	1609	1612	1618	1620	1612	1596	1579	1571	1577	1575	1586	0	0	0	0	0	0	0	0	0	0	0	0	0	0	0	0	0	1619	1627	1661	1658	1635	1629	1642	1644	1637	1639	1645	1656	1653	1656	1670	1687	1688	1680	1666	1651	1645	1655	1663	0	0	0	1541	1476	1444	1422	1409	1418	1430	1443	1446	1448	1439	1428	1411	1420	1428	1441	1455	1457	1448	1425	1423	1430	1436	1437	1438	1430	1425	1423	1422	1430	1437	1446	1446	1431	1409	1412	1411	1433	1441	1437	1442	1431	1427	1454	1464	1460	1452	1445	1458	1480	1505	1525	1525	1529	1524	1517	1520	1518	1514	1540	0	0	0	0	1708	1723	1722	1731	1735	1736	1739	1743	1746	1745	1736	1741	1744	1742	1740	1730	1745	1759	1755	1766	1751	1751	1740	1729	1720	1718	1733	1735	1745	1749	1757	1739	1644	1597	1543	1458	1446	1445	1433	1418	1428	1428	1434	1439	1439	1436	1436	1436	1433	1418	1411	1410	1411	1415	1417	1419	1418	1415	1412	1414	1420	1421	1420	1415	1413	1409	1412	1416	1420	1421	1405	1401	1391	1402	1426	1454	1454	1451	1443	1441	1421	1417	1429	0	0	0	0	0	0	0	1722	1756	1734	1730	1726	1720	1711	1711	1720	1733	1738	1732	1723	1723	1720	1735	0	0	0	0	0	0	0	0	0	0	0	0	0	0	0	0	0	0	0	0	0	0	0	0	0	0	0	0	0	0	0	0	0	0	0	0	0	0	0	0	0	0	0	0	0	0	0	0	0	0	0	0	0	0	0	0	0	0	0	0	0	0	0	0	0	1409	1387	1385	1378	1371	1365	1359	1349	1355	1371	1364	1348	1334	1329	1327	1327	1327	1331	1325	1327	1322	1311	1310	1307	1329	1322	1315	1307	1311	1311	1309	1304	1311	1313	1325	1322	1306	1310	1309	1307	1320	1345	1355	1347	1340	1334	1326	1326	1330	1327	1330	1343	1358	1358	1361	1364	1408	0	0	0	0	0	0	0	0	0	0	0	0	0	0	0	0	0	0	0	0	0	0	0	0	0	0	0	0	0	0	0	0	0	0	0	0	0	0	0	0	0	0	0	0	0	0	0	0	0	0	0	0	0	0	0	0	0	0	0	0	0	0	0	0	0	0	0	0	0	1595	1620	1624	1628	1613	1600	1584	1570	1575	1593	1603	1603	1593	1581	1575	1572	1576	1579	0	0	0	0	0	0	0	0	0	0	0	0	0	0	0	1368	1337	1327	1326	1318	1305	1287	1287	1289	1293	1267	1259	1258	1259	1272	1290	1299	1296	1288	1276	1266	1267	1277	1294	1300	1303	1295	1281	1290	1299	1296	1279	1266	1255	1257	1261	1261	1258	1258	1260	1264	1267	1267	1266	1267	1267	1274	1281	1287	1279	1264	1248	1246	1253	1253	1254	1255	1269	1282	1321	1321	0	0	0	0	0	0	0	0	0	0	0	0	0
0	0	0	1467	1493	0	0	0	0	0	0	0	0	0	0	0	0	0	0	0	0	0	0	1519	1502	1499	1503	1514	1515	0	0	0	0	0	0	0	0	0	0	0	0	0	0	0	0	0	0	0	0	0	0	0	0	0	0	0	0	0	0	1479	1486	1492	1491	1491	1474	1465	1462	1469	1473	0	0	0	0	0	1442	1464	1476	1466	1465	1474	1476	1485	1498	1511	1504	1491	1486	1490	1494	1504	1498	1495	1507	1512	1515	1518	1529	1526	1509	1519	1522	1522	1518	1519	1515	1506	1523	1536	1550	1551	1550	1542	1541	1540	1540	1546	1558	1585	1603	1607	1603	1597	1594	1594	1586	1580	1578	1580	1585	0	0	0	0	0	0	0	0	0	0	0	0	0	0	0	0	0	0	0	0	1650	1639	1627	1632	1634	1639	1648	1656	1663	1654	1644	1648	1657	1686	1691	1672	1656	1647	1652	1659	0	0	0	0	1475	1448	1410	1402	1415	1430	1443	1447	1437	1430	1420	1420	1424	1440	1451	1464	1462	1452	1433	1419	1426	1431	1431	1427	1424	1415	1411	1412	1421	1427	1435	1434	1421	1400	1406	1407	1432	1441	1438	1433	1407	1408	1448	1470	1478	1473	1475	1477	1487	1501	1508	1524	1520	1522	1516	1516	1513	1518	1553	1593	0	0	0	1688	1737	1747	1739	1740	1738	1737	1737	1746	1749	1746	1751	1748	1748	1752	1741	1742	1756	1760	1753	1751	1750	1750	1742	1721	1723	1735	1746	1749	1752	1754	1742	1649	1602	1563	1460	1442	1436	1426	1423	1430	1433	1438	1437	1448	1445	1440	1437	1433	1420	1411	1410	1413	1421	1413	1410	1408	1407	1407	1412	1424	1427	1425	1419	1414	1416	1420	1425	1423	1417	1402	1397	1395	1412	1428	1447	1456	1458	1445	1429	1416	1431	1443	0	0	0	0	0	0	0	1694	1736	1730	1721	1726	1729	1723	1726	1733	1740	1740	1732	1717	1710	1714	1711	0	0	0	0	0	0	0	0	0	0	0	0	0	0	0	0	0	0	0	0	0	0	0	0	0	0	0	0	0	0	0	0	0	0	0	0	0	0	0	0	0	0	0	0	0	0	0	0	0	0	0	0	0	0	0	0	0	0	0	0	0	0	0	0	0	1418	1403	1397	1377	1363	1360	1363	1368	1362	1370	1365	1352	1346	1344	1338	1335	1332	1336	1328	1325	1326	1320	1314	1309	1325	1325	1325	1318	1324	1316	1315	1316	1316	1322	1328	1323	1320	1311	1309	1320	1327	1347	1347	1343	1339	1333	1326	1327	1327	1328	1330	1340	1348	1356	1361	1368	1413	0	0	0	0	0	0	0	0	0	0	0	0	0	0	0	0	0	0	0	0	0	0	0	0	0	0	0	0	0	0	0	0	0	0	0	0	0	0	0	0	0	0	0	0	0	0	0	0	0	0	0	0	0	0	0	0	0	0	0	0	0	0	0	0	0	0	0	0	0	1596	1614	1625	1630	1635	1611	1588	1580	1582	1597	1603	1603	1595	1590	1578	1582	1591	1607	0	0	0	0	0	0	0	0	0	0	0	0	0	0	0	1362	1329	1323	1336	1324	1303	1296	1294	1292	1289	1270	1259	1256	1277	1281	1288	1294	1290	1279	1271	1264	1267	1277	1297	1306	1305	1289	1290	1294	1302	1300	1286	1273	1262	1258	1261	1260	1260	1265	1275	1275	1273	1269	1260	1260	1260	1264	1275	1286	1284	1274	1265	1257	1262	1248	1249	1254	1270	1287	1317	1317	0	0	0	0	0	0	0	0	0	0	0	0	0
0	0	0	1473	0	0	0	0	0	0	0	0	0	0	1496	1677	0	0	0	0	0	0	0	0	1519	1513	1514	1526	0	0	0	0	0	0	0	0	0	0	0	0	0	0	0	0	0	0	0	0	0	0	0	0	0	0	0	0	0	0	0	1495	1479	1473	1463	1466	1461	1449	1451	1461	1471	0	0	0	0	0	1451	1470	1476	1480	1481	1489	1487	1490	1499	1506	1505	1492	1484	1486	1494	1501	1509	1509	1504	1504	1507	1511	1516	1505	1496	1496	1499	1514	1516	1522	1524	1517	1533	1555	1567	1568	1545	1531	1527	1526	1530	1529	1538	1558	1570	1581	1580	1567	1571	1586	1595	1587	1586	1574	1575	0	0	0	0	0	0	0	0	0	0	0	0	0	0	0	0	0	0	0	0	0	0	1637	1644	1647	1650	1662	1672	1672	1651	1629	1627	1644	1671	1670	1659	1642	1631	1630	0	0	0	0	0	1483	1453	1423	1404	1415	1431	1436	1434	1427	1427	1428	1435	1440	1449	1467	1477	1471	1460	1440	1418	1428	1430	1432	1424	1418	1410	1402	1398	1406	1416	1422	1421	1407	1398	1400	1404	1424	1431	1423	1404	1388	1390	1425	1465	1489	1501	1497	1500	1506	1506	1511	1512	1510	1503	1507	1507	1512	1511	1542	1551	0	0	0	0	1740	1753	1763	1751	1732	1728	1719	1749	1759	1759	1751	1756	1761	1769	1770	1757	1754	1750	1744	1750	1758	1763	1752	1745	1748	1743	1744	1746	1748	1744	1723	1649	1610	1568	1468	1439	1435	1437	1440	1441	1437	1436	1449	1452	1440	1441	1440	1430	1426	1422	1420	1419	1418	1412	1407	1405	1405	1410	1423	1430	1433	1430	1432	1430	1427	1429	1429	1429	1421	1399	1398	1398	1411	1427	1435	1442	1448	1437	1428	1432	1443	1454	0	0	0	0	0	0	0	1677	1716	1714	1719	1744	1791	1808	1787	1757	1749	1734	1722	1715	1707	1718	1718	0	0	0	0	0	0	0	0	0	0	0	0	0	0	0	0	0	0	0	0	0	0	0	0	0	0	0	0	0	0	0	0	0	0	0	0	0	0	0	0	0	0	0	0	0	0	0	0	0	0	0	0	0	0	0	0	0	0	0	0	0	0	0	0	0	1425	1422	1406	1366	1354	1356	1369	1374	1367	1364	1359	1352	1350	1348	1345	1344	1345	1339	1330	1326	1319	1326	1320	1319	1327	1324	1325	1322	1315	1314	1324	1319	1302	1329	1329	1327	1325	1326	1327	1338	1346	1351	1344	1346	1345	1340	1328	1329	1321	1323	1331	1333	1333	1345	1350	1372	1416	0	0	0	0	0	0	0	0	0	0	0	0	0	0	0	0	0	0	0	0	0	0	0	0	0	0	0	0	0	0	0	0	0	0	0	0	0	0	0	0	0	0	0	0	0	0	0	0	0	0	0	0	0	0	0	0	0	0	0	0	0	0	0	0	0	0	0	0	0	1608	1610	1618	1631	1636	1624	1603	1590	1589	1602	1604	1612	1602	1590	1585	1581	1602	1622	0	0	0	0	0	0	0	0	0	0	0	0	0	0	0	1355	1324	1317	1335	1332	1313	1300	1289	1285	1286	1277	1266	1264	1282	1285	1285	1281	1275	1270	1269	1268	1272	1280	1288	1296	1298	1297	1292	1288	1294	1292	1282	1273	1264	1260	1254	1258	1259	1269	1281	1285	1283	1273	1262	1257	1257	1258	1269	1279	1284	1284	1281	1266	1270	1260	1251	1261	1272	1297	1323	1323	0	0	0	0	0	0	0	0	0	0	0	0	0
0	0	0	1655	0	0	0	0	0	0	0	0	1492	1485	1679	1679	0	0	0	0	0	0	0	0	1522	1504	1508	1521	1523	0	0	0	0	0	0	0	0	0	0	0	0	0	0	0	0	0	0	0	0	0	0	0	0	0	0	0	0	0	0	1486	1481	1467	1461	1459	1446	1441	1446	1463	1478	1490	0	0	0	0	1451	1476	1484	1490	1495	1504	1508	1499	1499	1505	1509	1502	1493	1482	1486	1497	1509	1510	1492	1498	1499	1507	1511	1496	1479	1475	1486	1495	1511	1520	1529	1527	1542	1558	1579	1571	1551	1532	1531	1531	1526	1527	1531	1534	1541	1556	1565	1559	1564	1584	1594	1595	1586	1585	1576	0	0	0	0	0	0	0	0	0	0	0	0	0	0	0	0	0	0	0	0	0	0	0	0	0	0	0	0	1669	1648	1610	1609	1629	1639	0	1625	1611	0	0	0	0	0	0	0	1487	1465	1434	1412	1418	1433	1433	1440	1436	1436	1445	1452	1460	1464	1479	1485	1480	1462	1438	1420	1426	1428	1429	1421	1417	1407	1402	1396	1401	1407	1413	1418	1415	1400	1396	1399	1418	1423	1412	1394	1375	1379	1423	1459	1489	1503	1510	1508	1510	1512	1512	1512	1505	1500	1501	1501	1500	1505	1521	1543	0	0	0	0	1729	1753	1755	1743	1707	1686	1662	1698	1749	1757	1750	1743	1749	1764	1782	1780	1766	1758	1751	1751	1764	1763	1757	1743	1751	1761	1754	1744	1739	1723	1712	1655	1615	1576	1471	1436	1436	1448	1459	1467	1451	1448	1452	1451	1447	1440	1434	1432	1432	1433	1432	1423	1417	1414	1412	1410	1418	1426	1438	1440	1437	1442	1443	1440	1434	1427	1430	1436	1425	1409	1402	1403	1406	1422	1421	1428	1423	1415	1420	1447	1469	1466	0	0	0	0	0	0	0	1655	1689	1698	1713	1750	1789	1800	1794	1763	1745	1729	1713	1710	1715	1721	1720	0	0	0	0	0	0	0	0	0	0	0	0	0	0	0	0	0	0	0	0	0	0	0	0	0	0	0	0	0	0	0	0	0	0	0	0	0	0	0	0	0	0	0	0	0	0	0	0	0	0	0	0	0	0	0	0	0	0	0	0	0	0	0	0	0	1424	1423	1396	1363	1343	1353	1361	1364	1360	1355	1352	1355	1353	1351	1346	1344	1338	1337	1336	1322	1318	1317	1318	1319	1324	1317	1310	1306	1323	1320	1326	1333	1319	1299	1296	1298	1312	1330	1342	1349	1351	1342	1337	1343	1348	1340	1337	1332	1327	1323	1317	1324	1328	1334	1347	1375	1421	0	0	0	0	0	0	0	0	0	0	0	0	0	0	0	0	0	0	0	0	0	0	0	0	0	0	0	0	0	0	0	0	0	0	0	0	0	0	0	0	0	0	0	0	0	0	0	0	0	0	0	0	0	0	0	0	0	0	0	0	0	0	0	0	0	0	0	0	0	1618	1609	1602	1609	1622	1622	1609	1602	1614	1616	1627	1634	1624	1597	1587	1586	1589	1609	0	0	0	0	0	0	0	0	0	0	0	0	0	0	0	0	1338	1319	1327	1339	1333	1304	1279	1274	1284	1286	1272	1270	1290	1291	1275	1266	1267	1258	1257	1263	1276	1284	1292	1292	1298	1302	1298	1288	1285	1283	1278	1273	1266	1262	1261	1262	1263	1272	1281	1290	1289	1275	1259	1252	1252	1256	1259	1270	1277	1278	1278	1271	1264	1261	1260	1261	1283	1309	1325	1325	0	0	0	0	0	0	0	0	0	0	0	0	0
0	0	0	0	0	0	0	0	0	0	0	0	0	1674	0	0	0	0	0	0	0	0	0	1519	1503	1488	1489	1502	1491	0	0	0	0	0	0	0	0	0	0	0	0	0	0	0	0	0	0	0	0	0	0	0	0	0	0	0	0	0	0	1456	1477	1478	1472	1461	1453	1444	1446	1466	1486	1497	1487	1470	1454	1454	1462	1492	1495	1506	1503	1503	1505	1497	1499	1506	1515	1513	1502	1489	1485	1491	1501	1499	1486	1493	1498	1510	1507	1495	1484	1476	1475	1491	1503	1520	1529	1534	1535	1558	1575	1570	1559	1539	1538	1536	1535	1539	1535	1529	1530	1534	1547	1559	1572	1588	1604	1595	1596	1587	1586	0	0	0	0	0	0	0	0	0	0	0	0	0	0	0	0	0	0	0	0	0	0	0	0	0	0	0	0	0	0	0	0	0	0	0	0	0	0	0	0	0	0	0	1498	1489	1482	1462	1426	1426	1433	1433	1443	1448	1452	1459	1460	1462	1462	1465	1470	1473	1462	1436	1410	1416	1423	1427	1428	1423	1418	1410	1408	1403	1410	1411	1409	1425	1416	1399	1401	1413	1415	1409	1393	1378	1383	1417	1460	1480	1487	1483	1492	1510	1523	1530	1524	1516	1505	1500	1491	1494	1501	1519	1536	0	0	0	0	0	1741	1728	1723	1700	1674	1667	1674	1691	1736	1734	1725	1731	1747	1781	1798	1779	1761	1751	1757	1761	1758	1753	1743	1748	1749	1762	1754	1745	1716	1694	1659	1624	1574	1465	1437	1434	1445	1464	1473	1462	1450	1456	1464	1454	1437	1430	1430	1431	1434	1430	1420	1416	1416	1416	1417	1424	1439	1442	1441	1443	1454	1451	1444	1431	1428	1428	1435	1431	1419	1413	1406	1413	1418	1414	1411	1407	1401	1417	1455	1469	1472	1470	0	0	0	0	0	0	0	1680	1691	1694	1720	1752	1780	1769	1751	1729	1710	1698	1709	1713	1727	1735	0	0	0	0	0	0	0	0	0	0	0	0	0	0	0	0	0	0	0	0	0	0	0	0	0	0	0	0	0	0	0	0	0	0	0	0	0	0	0	0	0	0	0	0	0	0	0	0	0	0	0	0	0	0	1748	1747	0	0	0	0	0	0	0	0	0	1410	1406	1384	1353	1348	1352	1357	1359	1356	1359	1353	1360	1350	1350	1344	1341	1324	1325	1327	1329	1320	1318	1324	1325	1320	1308	1306	1306	1326	1321	1311	1314	1314	1314	1305	1306	1311	1310	1347	1346	1342	1339	1338	1342	1343	1345	1341	1328	1325	1322	1321	1325	1325	1335	1356	1369	1404	1490	0	0	0	0	0	0	0	0	0	0	0	0	0	0	0	0	0	0	0	0	0	0	0	0	0	0	0	0	0	0	0	0	0	0	0	0	0	0	0	0	0	0	0	0	0	0	0	0	0	0	0	0	0	0	0	0	0	0	0	0	0	0	0	0	0	0	0	0	1617	1612	1594	1597	1612	1624	1629	1640	1637	1635	1630	1625	1626	1616	1596	1579	1570	1594	0	0	0	0	0	0	0	0	0	0	0	0	0	0	0	0	1345	1311	1315	1327	1333	1306	1281	1276	1282	1287	1278	1275	1290	1291	1272	1270	1260	1257	1255	1267	1275	1284	1295	1299	1300	1301	1294	1282	1277	1277	1277	1269	1260	1258	1262	1267	1270	1276	1281	1284	1279	1270	1258	1261	1261	1258	1261	1261	1265	1269	1277	1270	1262	1264	1261	1260	1275	1311	1322	1322	0	0	0	0	0	0	0	0	0	0	0	0	0
0	0	0	0	0	0	0	0	0	0	0	0	0	0	0	0	0	0	0	0	0	1693	1693	1506	1493	1488	1484	1478	1470	0	0	0	0	0	0	0	0	0	0	0	0	0	0	0	0	0	0	0	0	0	0	0	0	0	0	0	0	0	0	1438	1460	1479	1475	1467	1455	1448	1455	1460	1483	1502	1497	1474	1466	1472	1472	1492	1497	1487	1487	1491	1497	1496	1503	1512	1526	1521	1512	1489	1480	1488	1493	1490	1485	1480	1478	1505	1507	1493	1479	1469	1474	1496	1508	1527	1534	1531	1525	1536	1561	1564	1564	1550	1545	1535	1535	1541	1541	1536	1530	1535	1546	1566	1581	1597	1599	1597	1587	1578	1588	0	0	0	0	0	0	0	0	0	0	0	0	0	0	0	0	0	0	0	0	0	0	0	0	0	0	0	0	0	0	0	0	0	0	0	0	0	0	0	0	0	0	0	1499	1493	1490	1464	1437	1429	1432	1436	1442	1448	1454	1455	1452	1448	1442	1442	1445	1448	1448	1435	1406	1409	1418	1431	1440	1438	1433	1430	1417	1414	1411	1408	1413	1423	1422	1401	1404	1410	1413	1416	1409	1394	1398	1418	1461	1465	1472	1473	1489	1513	1530	1543	1554	1543	1525	1504	1493	1493	1509	1530	1551	0	0	0	0	0	0	0	0	0	0	0	0	1712	1703	1698	1711	1720	1745	1755	1755	1765	1778	1774	1759	1749	1738	1735	1727	1737	1734	1730	1720	1716	1708	1691	1657	1629	1559	1455	1438	1437	1439	1458	1466	1463	1444	1452	1462	1457	1437	1427	1426	1428	1429	1424	1417	1414	1419	1420	1421	1429	1438	1440	1439	1445	1453	1455	1449	1442	1433	1432	1434	1425	1416	1413	1410	1418	1423	1415	1412	1413	1405	1409	1462	1477	1478	1469	0	0	0	0	0	0	0	0	0	1667	1674	1705	1728	1747	1743	1719	1709	1704	1718	1722	1722	0	0	0	0	0	0	0	0	0	0	0	0	0	0	0	0	0	0	0	0	0	0	0	0	0	0	0	0	0	0	0	0	0	0	0	0	0	0	0	0	0	0	0	0	0	0	0	0	0	0	0	0	0	0	0	1751	1760	0	0	0	0	0	0	0	0	0	1389	1395	1372	1349	1351	1352	1354	1346	1352	1360	1359	1358	1359	1355	1352	1339	1317	1320	1321	1326	1323	1325	1327	1326	1321	1307	1311	1309	1329	1323	1311	1313	1317	1312	1301	1305	1318	1350	1342	1341	1339	1333	1332	1335	1339	1342	1338	1329	1330	1330	1325	1329	1337	1345	1354	1370	1394	1500	0	0	0	0	0	0	0	0	0	0	0	0	0	0	0	0	0	0	0	0	0	0	0	0	0	0	0	0	0	0	0	0	0	0	0	0	0	0	0	0	0	0	0	0	0	0	0	0	0	0	0	0	0	0	0	0	0	0	0	0	0	0	0	0	0	0	0	0	1602	1577	1567	1573	1596	1628	1671	1668	1655	1644	1620	1614	1601	1602	1587	1565	1558	1571	0	0	0	0	0	0	0	0	0	0	0	0	0	0	0	0	1350	1312	1293	1313	1330	1314	1291	1288	1298	1295	1287	1284	1287	1282	1271	1274	1262	1258	1263	1268	1275	1284	1289	1295	1294	1291	1283	1277	1277	1280	1273	1262	1254	1254	1261	1269	1273	1275	1274	1273	1269	1266	1266	1266	1265	1264	1263	1259	1263	1270	1276	1271	1265	1265	1267	1261	1268	1303	1312	1312	0	0	0	0	0	0	0	0	0	0	0	0	0
0	0	0	1657	0	0	0	0	0	0	0	0	0	1498	1501	1501	1681	0	0	0	0	1510	1510	1497	1491	1494	1491	1474	1477	0	0	0	0	0	0	0	0	0	0	0	0	0	0	0	0	0	0	0	0	0	0	0	0	0	0	0	0	0	0	1427	1457	1484	1486	1471	1458	1455	1460	1468	1482	1477	1452	1436	1438	1463	1463	1484	1492	1476	1471	1464	1490	1495	1500	1514	1529	1534	1516	1492	1479	1484	1490	1488	1477	1474	1473	1487	1498	1489	1473	1468	1481	1494	1514	1529	1538	1535	1521	1530	1554	1569	1557	1551	1544	1531	1531	1533	1549	1552	1545	1539	1559	1580	1596	1605	1606	1590	1587	1577	1587	0	0	0	0	0	0	0	0	0	0	0	0	0	0	0	0	0	0	0	0	0	0	0	0	0	0	0	0	0	0	0	0	0	0	0	0	0	0	0	0	0	0	0	0	1495	1490	1455	1442	1437	1425	1427	1432	1436	1439	1440	1431	1427	1420	1418	1423	1430	1442	1432	1408	1408	1416	1434	1445	1450	1449	1446	1427	1416	1412	1415	1419	1423	1418	1417	1414	1412	1418	1418	1415	1406	1409	1429	1465	1454	1448	1454	1471	1497	1530	1548	1564	1564	1542	1519	1498	1501	1519	1537	1553	0	0	0	0	0	0	0	0	0	0	0	0	0	0	0	0	0	1729	1725	1723	1712	1713	1713	1720	1715	1711	1712	1723	1733	1723	1717	1704	1697	1684	1673	1656	1622	1559	1467	1450	1438	1437	1445	1453	1452	1437	1448	1455	1455	1440	1423	1425	1428	1427	1423	1421	1422	1428	1426	1429	1437	1433	1430	1429	1434	1443	1448	1448	1440	1434	1425	1417	1411	1405	1406	1406	1419	1428	1417	1412	1425	1424	1424	1473	1487	1495	0	0	0	0	0	0	0	0	0	0	0	0	0	0	0	0	0	1690	1692	1702	1700	1707	0	0	0	0	0	0	0	0	0	0	0	0	0	0	0	0	0	0	0	0	0	0	0	1773	1753	1734	1725	1726	1748	0	0	0	0	0	0	0	0	0	0	0	0	0	0	0	0	0	0	0	0	0	0	0	0	0	0	1763	0	0	0	0	0	0	0	0	0	0	1377	1384	1368	1349	1349	1350	1344	1338	1347	1350	1346	1344	1346	1351	1351	1347	1326	1325	1325	1327	1324	1319	1326	1317	1324	1314	1314	1329	1332	1329	1327	1330	1321	1301	1313	1330	1333	1334	1334	1337	1336	1335	1333	1329	1333	1338	1334	1331	1334	1336	1338	1341	1345	1348	1353	1353	1417	1522	0	0	0	0	0	0	0	0	0	0	0	0	0	0	0	0	0	0	0	0	0	0	0	0	0	0	0	0	0	0	0	0	0	0	0	0	0	0	0	0	0	0	0	0	0	0	0	0	0	0	0	0	0	0	0	0	0	0	0	0	0	0	0	0	0	0	0	0	1560	1548	1547	1557	1591	1629	1644	0	0	0	0	1580	1573	1573	1569	0	0	0	0	0	0	0	0	0	0	0	0	0	0	0	0	0	0	0	1359	1315	1290	1301	1320	1313	1311	1313	1301	1293	1289	1288	1277	1271	1271	1270	1263	1268	1271	1271	1271	1273	1285	1282	1282	1277	1272	1273	1279	1283	1275	1260	1253	1251	1260	1267	1266	1268	1270	1270	1266	1264	1262	1262	1260	1267	1270	1271	1278	1281	1281	1274	1268	1270	1270	1264	1262	1296	1322	1322	0	0	0	0	0	0	0	0	0	0	0	0	0
0	0	0	1491	1484	1486	1486	1480	1480	1483	1483	1474	1479	1479	1481	1481	1469	1480	1494	1512	1685	1512	1512	1505	1497	1506	1501	1492	0	0	0	0	0	0	0	0	0	0	0	0	0	0	0	0	0	0	0	0	0	0	0	0	0	0	0	0	0	0	0	1432	1464	1489	1489	1485	1471	1470	1473	1486	1491	1471	1438	1428	1431	1446	1446	1466	1477	1469	1457	1460	1481	1491	1504	1518	1536	1532	1511	1494	1471	1472	1482	1483	1478	1476	1479	1487	1488	1485	1479	1480	1483	1502	1512	1524	1535	1540	1527	1536	1554	1570	1560	1550	1532	1516	1519	1526	1549	1560	1570	1576	1589	1605	1624	1643	1616	1589	1578	1583	1587	0	0	0	0	0	0	0	0	0	0	0	0	0	0	0	0	0	0	0	0	0	0	0	0	0	0	0	0	0	0	0	0	0	0	0	0	0	0	0	0	0	0	0	0	1493	1457	1446	1448	1444	1434	1426	1425	1431	1435	1429	1415	1414	1418	1416	1420	1436	1433	1422	1410	1414	1421	1439	1446	1450	1450	1445	1429	1417	1419	1425	1434	1434	1426	1424	1425	1415	1417	1411	1412	1412	1437	1457	1459	1447	1438	1440	1455	1482	1506	1529	1557	1570	1552	1526	1504	1505	1518	1537	1556	0	0	0	0	0	0	0	0	0	0	0	0	0	0	0	0	0	0	0	0	0	0	0	0	0	0	1701	1726	0	0	0	1742	1707	1681	1680	1658	1636	1538	1477	1454	1439	1427	1432	1437	1443	1437	1432	1442	1449	1441	1431	1427	1429	1430	1430	1428	1430	1440	1442	1439	1433	1428	1423	1422	1425	1441	1446	1444	1434	1424	1414	1407	1401	1399	1397	1404	1427	1437	1431	1427	1436	1450	1463	1486	1504	1512	0	0	0	0	0	0	0	0	0	0	0	0	0	0	0	0	0	0	0	0	0	0	0	0	0	0	0	0	0	0	0	0	0	0	0	0	0	0	0	0	1802	1788	1776	1764	1760	1755	1723	1710	1725	1742	1746	1749	1734	1741	1750	1772	1780	1802	1816	0	0	0	0	1800	1803	1811	1813	1819	1826	1810	1800	1792	1802	1793	1779	1765	1763	1774	1820	1815	1814	1792	1785	1780	1752	0	0	0	1391	1393	1373	1358	1352	1345	1339	1333	1341	1339	1337	1338	1337	1341	1346	1345	1338	1343	1337	1334	1333	1333	1331	1322	1324	1328	1327	1328	1329	1322	1321	1324	1320	1315	1320	1327	1329	1330	1335	1337	1329	1330	1329	1333	1330	1333	1332	1330	1336	1344	1349	1342	1342	1345	1353	1363	1445	1542	0	0	0	0	0	0	0	0	0	0	0	0	0	0	0	0	0	0	0	0	0	0	0	0	0	0	0	0	0	0	0	0	0	0	0	0	0	0	0	0	0	0	0	0	0	0	0	0	0	0	0	0	0	0	0	0	0	0	0	0	0	0	0	0	0	0	0	0	0	1511	1527	1543	1575	1589	0	0	0	0	0	0	0	0	0	0	0	0	0	0	0	0	0	0	0	0	0	0	0	0	0	0	0	0	1375	1335	1291	1297	1305	1313	1310	1309	1292	1289	1292	1288	1280	1261	1263	1266	1269	1269	1270	1265	1271	1272	1277	1281	1277	1270	1267	1268	1277	1287	1282	1268	1258	1256	1262	1261	1261	1265	1270	1274	1268	1262	1255	1255	1258	1266	1271	1277	1283	1281	1279	1276	1264	1265	1262	1257	1263	1287	1287	1328	0	0	0	0	0	0	0	0	0	0	0	0	0
0	0	1476	1476	1483	1487	1481	1484	1477	1477	1483	1482	1477	1474	1467	1467	1456	1462	1483	1502	1682	0	0	1694	1523	1510	1510	0	0	0	0	0	0	0	0	0	0	0	0	0	0	0	0	0	0	0	0	0	0	0	0	0	0	0	0	0	0	0	0	1461	1465	1491	1490	1485	1486	1486	1491	1497	1496	1476	1453	1438	1438	1444	1444	1453	1464	1458	1460	1471	1485	1498	1503	1527	1538	1530	1505	1486	1474	1467	1473	1483	1483	1487	1486	1482	1478	1484	1488	1488	1495	1506	1516	1531	1541	1546	1534	1534	1553	1560	1555	1541	1524	1510	1509	1524	1554	1578	1592	1597	1603	1611	1621	1633	1598	1589	1589	1602	0	0	0	0	0	0	0	0	0	0	0	0	0	0	0	0	0	0	0	0	0	0	0	0	0	0	0	0	0	0	0	0	0	0	0	0	0	0	0	0	0	0	0	0	0	1471	1446	1448	1456	1462	1444	1435	1435	1442	1438	1427	1413	1417	1425	1439	1444	1449	1439	1433	1430	1429	1433	1439	1448	1446	1441	1434	1430	1425	1426	1431	1442	1440	1438	1429	1424	1416	1415	1417	1414	1420	1447	1452	1447	1445	1443	1443	1459	1476	1505	1520	1546	1556	1544	1520	1500	1497	1511	1534	1561	0	0	0	0	0	0	0	0	0	0	0	0	0	0	0	0	0	0	0	0	0	0	0	0	0	0	0	0	0	0	0	0	0	1665	1644	0	0	1522	1480	1451	1425	1417	1423	1431	1438	1431	1420	1422	1428	1431	1427	1427	1429	1432	1432	1432	1434	1437	1437	1432	1429	1422	1416	1415	1419	1436	1440	1438	1426	1415	1406	1400	1389	1384	1391	1394	1428	1431	1438	1423	1449	1471	1472	1485	1513	0	0	0	0	0	0	0	0	0	0	0	0	0	0	0	0	0	0	0	0	0	0	0	0	0	0	0	0	0	0	0	0	0	0	0	0	0	0	0	0	1793	1808	1787	1785	1759	1747	1732	1716	1722	1736	1761	1766	1760	1750	1741	1739	1732	1738	1763	1793	1796	1793	1795	1801	1802	1803	1776	1784	1786	1803	1813	1790	1765	1759	1758	1758	1758	1757	1769	1801	1801	1803	1807	1798	1795	1777	0	0	0	1414	1413	1398	1366	1358	1343	1335	1329	1331	1329	1329	1333	1336	1347	1345	1341	1343	1340	1336	1335	1334	1332	1327	1331	1325	1333	1342	1342	1337	1332	1329	1326	1319	1319	1327	1332	1330	1327	1332	1331	1329	1329	1331	1333	1328	1328	1329	1334	1336	1347	1348	1335	1330	1337	1349	1391	1461	1526	1635	0	0	0	0	0	0	0	0	0	0	0	0	0	0	0	0	0	0	0	0	0	0	0	0	0	0	0	0	0	0	0	0	0	0	0	0	0	0	0	0	0	0	0	0	0	0	0	0	0	0	0	0	0	0	0	0	0	0	0	0	0	0	0	0	0	0	0	0	0	1506	1522	0	0	0	0	0	0	0	0	0	0	0	0	0	0	0	0	0	0	0	0	0	0	0	0	0	0	0	0	0	0	1397	1359	1309	1302	1314	1312	1306	1298	1280	1274	1286	1287	1277	1261	1265	1269	1271	1274	1272	1268	1270	1270	1272	1278	1275	1269	1264	1263	1275	1285	1289	1282	1272	1268	1263	1259	1260	1264	1273	1277	1271	1263	1255	1255	1255	1262	1264	1269	1275	1276	1274	1267	1255	1255	1253	1247	1254	1288	1288	1340	0	0	0	0	0	0	0	0	0	0	0	0	0
0	0	1473	1473	1472	1489	1483	1484	1485	1490	1488	1489	1494	1482	1467	1467	1447	1440	1462	1485	1675	0	0	1696	1524	1515	1506	0	0	0	0	0	0	0	0	0	0	0	0	0	0	0	0	0	0	0	0	0	0	0	0	0	0	0	0	0	0	0	0	1479	1468	1479	1487	1491	1491	1492	1492	1497	1494	1478	1465	1458	1451	1449	1457	1457	1463	1464	1471	1484	1501	1509	1511	1519	1522	1519	1503	1490	1480	1476	1480	1496	1502	1501	1497	1493	1484	1490	1499	1510	1525	1528	1525	1526	1538	1537	1540	1547	1560	1565	1566	1556	1543	1528	1529	1542	1560	1576	1576	1576	1575	1587	1580	1573	1586	1592	1622	1622	1613	0	0	0	0	0	0	0	0	0	0	0	0	0	0	0	0	0	0	0	0	0	0	0	0	0	0	0	0	0	0	0	0	0	0	0	0	0	0	0	0	0	0	0	0	1455	1439	1453	1468	1472	1456	1456	1451	1449	1441	1432	1426	1428	1435	1448	1453	1457	1443	1438	1434	1438	1441	1444	1454	1431	1418	1417	1413	1417	1421	1429	1433	1441	1444	1439	1433	1426	1429	1432	1434	1441	1452	1443	1439	1448	1457	1469	1479	1488	1501	1519	1542	1542	1522	1514	1509	1496	1507	1536	1574	0	0	0	0	0	0	0	0	0	0	0	0	0	0	0	0	0	0	0	0	0	0	0	0	0	0	0	0	0	0	0	0	0	0	0	0	0	1511	1477	1435	1427	1418	1419	1427	1433	1429	1411	1407	1412	1418	1417	1422	1429	1433	1427	1425	1422	1425	1425	1424	1416	1416	1415	1416	1425	1429	1435	1431	1418	1413	1409	1401	1382	1378	1385	1396	1413	1425	1426	1431	1459	1481	1470	1492	1511	0	0	0	0	0	0	0	0	0	0	0	0	0	0	0	0	0	0	0	0	0	0	0	0	0	0	0	0	0	0	0	0	0	0	1730	1755	1758	1769	1757	1753	1772	1776	1790	1778	1764	1740	1723	1737	1755	1777	1777	1782	1767	1768	1758	1758	1741	1748	1756	1779	1798	1805	1822	1822	1826	1814	1785	1785	1785	1803	1799	1778	1753	1754	1779	1776	1771	1759	1770	1791	1785	1796	1803	1804	1793	1787	1760	0	0	0	1428	1398	1365	1361	1348	1336	1322	1323	1324	1325	1336	1345	1345	1339	1339	1343	1336	1329	1326	1328	1325	1324	1321	1325	1331	1338	1338	1333	1329	1326	1322	1313	1309	1316	1330	1329	1329	1330	1334	1336	1335	1331	1326	1322	1320	1333	1337	1329	1341	1343	1330	1323	1332	1370	1396	1431	1535	1645	1706	0	0	0	0	0	0	0	0	0	0	0	0	0	0	0	0	0	0	0	0	0	0	0	0	0	0	0	0	0	0	0	0	0	0	0	0	0	0	0	0	0	0	0	0	0	0	0	0	0	0	0	0	0	0	0	0	0	0	0	0	0	0	0	0	0	0	0	0	0	0	0	0	0	0	0	0	0	0	0	0	0	0	0	0	0	0	0	0	0	0	0	0	0	0	0	0	0	0	0	0	1392	1363	1335	1318	1326	1317	1302	1286	1270	1272	1276	1282	1266	1265	1278	1281	1281	1283	1278	1274	1271	1272	1271	1276	1272	1267	1260	1262	1274	1287	1297	1293	1291	1281	1269	1260	1257	1265	1273	1276	1270	1262	1257	1257	1257	1258	1256	1257	1265	1271	1270	1261	1252	1255	1249	1239	1246	1283	1283	1326	0	0	0	0	0	0	0	0	0	0	0	0	0
0	0	1488	1488	1491	1499	1490	1490	1490	1483	1482	1492	1658	1495	1470	1470	1439	1422	1437	1461	1487	0	1688	1688	1513	1515	1506	1503	0	0	0	0	0	0	0	0	0	0	0	0	0	0	0	0	0	0	0	0	0	0	0	0	0	0	0	0	0	0	0	1491	1474	1484	1493	1495	1492	1485	1486	1484	1477	1466	1462	1462	1467	1465	1473	1473	1468	1470	1475	1490	1495	1496	1493	1491	1499	1494	1497	1488	1483	1483	1498	1508	1514	1511	1505	1500	1499	1495	1500	1513	1526	1523	1525	1519	1531	1542	1547	1554	1558	1564	1562	1563	1559	1543	1542	1550	1558	1559	1555	1560	1576	1581	1574	1580	1586	1598	1611	1613	1603	0	0	0	0	0	0	0	0	0	0	0	0	0	0	0	0	0	0	0	0	0	0	0	0	0	0	0	0	0	0	0	0	0	0	0	0	0	0	0	0	0	0	0	0	1468	1440	1455	1469	1466	1464	1460	1459	1455	1446	1438	1426	1428	1435	1449	1454	1447	1439	1435	1432	1438	1438	1436	1425	1420	1403	1407	1406	1410	1415	1425	1431	1438	1441	1447	1434	1434	1448	1454	1456	1462	1459	1443	1439	1452	1474	1487	1492	1486	1492	1510	1534	1531	1520	1519	1520	1501	1514	1543	1574	0	0	0	0	0	0	0	0	0	0	0	0	0	0	0	0	0	0	0	0	0	0	0	0	0	0	0	0	0	0	0	0	0	0	0	0	0	1501	1477	1442	1431	1420	1416	1427	1432	1428	1422	1401	1399	1401	1410	1417	1421	1424	1425	1417	1413	1411	1409	1413	1413	1415	1417	1420	1417	1417	1417	1416	1414	1413	1413	1408	1385	1382	1383	1398	1409	1412	1420	1436	1463	1475	1487	1498	1508	0	0	0	0	0	0	0	0	0	0	0	0	0	0	0	0	0	0	0	0	0	0	0	0	0	0	0	0	0	0	0	1723	1722	0	0	1758	1758	1749	1736	1730	1731	1754	1765	1765	1754	1752	1753	1746	1776	1787	1785	1789	1782	1775	1783	1786	1786	1775	1782	1791	1793	1812	1826	2037	2051	1827	1815	1795	1785	1784	1790	1784	1775	1772	1788	1785	1780	1768	1782	1791	1783	1792	1792	1785	1769	1777	1760	0	0	0	1427	1389	1356	1361	1358	1338	1318	1316	1322	1329	1341	1346	1341	1337	1337	1341	1339	1325	1319	1319	1318	1313	1316	1319	1329	1337	1338	1334	1326	1322	1318	1309	1295	1312	1323	1329	1337	1339	1337	1334	1330	1323	1314	1314	1328	1339	1339	1329	1332	1339	1334	1332	1341	1370	1393	1427	1541	1654	1705	1729	0	0	0	0	0	0	0	0	0	0	0	0	0	0	0	0	0	0	0	0	0	0	0	0	0	0	0	0	0	0	0	0	0	0	0	0	0	0	0	0	0	0	0	0	0	0	0	0	0	0	0	0	0	0	0	0	0	0	0	0	0	0	0	0	0	0	0	0	0	0	0	0	0	0	0	0	0	0	0	0	0	0	0	0	0	0	0	0	0	0	0	0	0	0	0	0	0	0	1348	1332	1326	1320	1316	1302	1295	1296	1282	1271	1272	1273	1273	1265	1271	1280	1289	1295	1298	1294	1285	1282	1281	1280	1278	1279	1269	1261	1265	1274	1289	1297	1302	1298	1289	1275	1262	1259	1266	1269	1268	1262	1256	1256	1255	1253	1255	1253	1250	1263	1268	1265	1257	1257	1256	1254	1246	1251	1279	1279	1319	0	0	0	0	0	0	0	0	0	0	0	0	0
0	0	1653	1653	1654	0	1498	1496	1483	1481	1486	0	0	1498	1474	1474	1441	1423	1417	1427	1466	1489	1500	1500	1505	1514	1512	0	0	0	0	0	0	0	0	0	0	0	0	0	0	0	0	0	0	0	0	0	0	0	0	0	0	0	0	0	0	0	0	1507	1490	1494	1500	1496	1490	1477	1478	1473	1466	1461	1463	1467	1475	1483	1490	1490	1484	1474	1470	1475	1485	1472	1469	1469	1485	1497	1503	1494	1484	1485	1489	1498	1505	1505	1501	1496	1499	1499	1499	1506	1512	1515	1508	1519	1533	1535	1546	1547	1543	1547	1554	1555	1563	1556	1547	1548	1556	1551	1547	1548	1557	1564	1578	1590	1596	1598	1591	1593	1592	0	0	0	0	0	0	0	0	0	0	0	0	0	0	0	0	0	0	0	0	0	0	0	0	0	0	0	0	0	0	0	0	0	0	0	0	0	0	0	0	0	0	0	0	1460	1442	1444	1454	1460	1467	1465	1457	1455	1445	1433	1423	1418	1428	1447	1460	1453	1436	1427	1430	1437	1437	1434	1432	1423	1413	1408	1413	1417	1420	1427	1434	1434	1435	1443	1432	1440	1456	1467	1467	1461	1462	1448	1438	1446	1458	1471	1473	1466	1472	1489	1527	1542	1537	1530	1527	1523	1520	1553	1581	0	0	0	0	0	0	0	0	0	0	0	0	0	0	0	0	0	0	0	0	0	0	0	0	0	0	0	0	0	0	0	0	0	0	0	0	0	1495	1460	1443	1432	1429	1422	1426	1426	1425	1420	1395	1393	1390	1404	1410	1417	1417	1420	1414	1405	1401	1408	1412	1417	1421	1427	1419	1412	1405	1403	1402	1408	1413	1416	1415	1391	1386	1388	1396	1409	1407	1423	1440	1463	1485	1506	1504	1486	1479	0	0	0	0	0	0	0	0	0	0	0	0	0	0	0	0	0	0	0	0	0	0	0	0	0	0	0	0	0	0	1722	1733	0	0	0	0	1770	1746	1737	1714	1711	1720	1727	1751	1757	1759	1765	1776	1784	1784	1787	1780	1779	1788	1797	1803	1792	1790	0	0	0	1805	1829	1829	1834	1824	1791	1770	1761	1770	1783	1784	1795	1805	1785	1775	1759	1789	1800	1796	1786	1774	1759	1745	1755	0	0	0	0	1415	1365	1341	1356	1364	1342	1322	1318	1330	1338	1344	1344	1339	1340	1339	1344	1336	1330	1328	1322	1316	1312	1316	1323	1342	1342	1335	1327	1320	1310	1310	1302	1296	1302	1318	1330	1333	1338	1335	1332	1327	1313	1314	1314	1329	1343	1343	1335	1342	1348	1351	1351	1347	1355	1374	1430	1546	1639	1694	1721	1724	1715	0	0	0	0	0	1730	1740	0	0	0	0	0	0	0	0	0	0	0	0	0	0	0	0	0	0	0	0	0	0	0	0	0	0	0	0	0	0	0	0	0	0	0	0	0	0	0	0	0	0	0	0	0	0	0	0	0	0	0	0	0	0	0	0	0	0	0	0	0	0	0	0	0	0	0	0	0	0	0	0	0	0	0	0	0	0	0	0	0	0	0	0	0	0	0	0	0	0	1329	1303	1296	1293	1282	1281	1280	1271	1268	1269	1275	1271	1272	1272	1275	1289	1296	1305	1305	1299	1295	1288	1289	1290	1283	1285	1268	1265	1276	1286	1296	1299	1297	1288	1277	1269	1266	1265	1262	1256	1254	1254	1254	1256	1260	1257	1255	1260	1264	1267	1260	1258	1259	1259	1258	1254	1258	1277	1277	1307	0	0	0	0	0	0	0	0	0	0	0	0	0
0	0	1484	1484	0	0	0	1483	0	0	0	0	0	0	1478	1457	1457	1438	1424	1434	1456	1476	1489	1489	1501	1512	0	0	0	0	0	0	0	0	0	0	0	0	0	0	0	0	0	0	0	0	0	0	0	0	0	0	0	0	0	0	0	0	0	1508	1505	1501	1499	1495	1489	1475	1467	1462	1463	1461	1465	1480	1489	1500	1500	1489	1489	1478	1465	1478	1490	1496	1495	1498	1507	1512	1515	1501	1489	1484	1483	1488	1498	1502	1499	1494	1502	1502	1499	1494	1496	1497	1502	1510	1523	1546	1536	1526	1523	1521	1532	1545	1553	1544	1544	1546	1546	1549	1540	1540	1541	1553	1564	1574	1576	1581	1575	1567	1561	0	0	0	0	0	0	0	0	0	0	0	0	0	0	0	0	0	0	0	0	0	0	0	0	0	0	0	0	0	0	0	0	0	0	0	0	0	0	0	0	0	0	0	0	1445	1445	1440	1436	1449	1459	1466	1463	1454	1450	1440	1418	1410	1421	1436	1452	1439	1423	1417	1430	1439	1433	1429	1424	1419	1410	1410	1423	1427	1434	1438	1429	1424	1420	1427	1432	1437	1452	1460	1460	1456	1460	1459	1437	1432	1438	1452	1455	1458	1452	1475	1509	1557	1545	1538	1533	1531	1534	1548	1582	0	0	0	0	0	0	0	0	0	0	0	0	0	0	0	0	0	0	0	0	0	0	0	0	0	0	0	0	0	0	0	0	0	0	0	0	0	1466	1440	1433	1427	1417	1420	1426	1423	1420	1414	1396	1394	1391	1402	1409	1411	1414	1415	1412	1404	1403	1409	1418	1422	1425	1424	1418	1404	1397	1393	1402	1407	1418	1428	1425	1407	1394	1393	1399	1414	1425	1432	1437	1465	1505	1521	1517	1494	1477	0	0	0	0	0	0	0	0	0	0	0	0	0	0	0	0	0	0	0	0	0	0	0	0	0	0	0	0	0	0	0	0	0	0	0	0	1793	0	1770	1751	1713	1716	1719	1736	1758	1775	1782	1793	1795	1787	1788	1776	1780	1787	1798	1798	1787	1789	0	0	0	0	0	1800	1813	1803	1787	1754	1737	1748	1769	1782	1803	1803	1792	1769	1777	1787	1795	1795	1770	1761	1747	1741	0	0	0	0	0	1410	1356	1339	1353	1358	1346	1328	1333	1342	1343	1345	1341	1339	1343	1339	1343	1343	1335	1332	1325	1327	1324	1328	1333	1345	1342	1333	1327	1321	1307	1318	1312	1302	1298	1309	1323	1329	1332	1330	1320	1322	1320	1316	1317	1325	1345	1348	1352	1351	1360	1367	1359	1344	1339	1352	1438	1544	1637	1693	1718	1711	1709	0	0	0	0	0	0	0	0	0	0	0	0	0	0	0	0	0	0	0	0	0	0	0	0	0	0	0	0	0	0	0	0	0	0	0	0	0	0	0	0	0	0	0	0	0	0	0	0	0	0	0	0	0	0	0	0	0	0	0	0	0	0	0	0	0	0	0	0	0	0	0	0	0	0	0	0	0	0	0	0	0	0	0	0	0	0	0	0	0	0	0	0	0	0	0	0	0	1339	1298	1284	1286	1280	1272	1283	1281	1276	1276	1277	1276	1278	1274	1269	1267	1269	1267	1279	1284	1286	1293	1293	1293	1296	1292	1282	1271	1273	1279	1289	1292	1290	1285	1274	1269	1268	1265	1255	1255	1252	1254	1254	1263	1265	1260	1260	1261	1264	1263	1258	1255	1259	1261	1260	1262	1268	1275	1275	1302	0	0	0	0	0	0	0	0	0	0	0	0	0
0	0	1466	1466	0	0	0	0	0	0	0	0	0	0	0	1474	1474	1463	1460	1463	1482	0	0	0	0	0	0	0	0	0	0	0	0	0	0	0	0	0	0	0	0	0	0	0	0	0	0	0	0	0	0	0	0	0	0	0	0	0	0	1515	1521	1503	1499	1496	1494	1479	1468	1460	1465	1470	1479	1486	1497	1501	1502	1491	1491	1481	1469	1481	1496	1510	1509	1512	1522	1527	1521	1500	1485	1484	1481	1481	1499	1505	1505	1500	1499	1498	1497	1489	1483	1479	1483	1502	1525	1531	1522	1513	1512	1517	1526	1536	1536	1529	1528	1537	1547	1542	1536	1529	1529	1540	1546	1555	1557	1560	1559	1550	1544	0	0	0	0	0	0	0	0	0	0	0	0	0	0	0	0	0	0	0	0	0	0	0	0	0	0	0	0	0	0	0	0	0	0	0	0	0	0	0	0	0	0	0	0	1446	1454	1451	1439	1438	1449	1471	1462	1452	1450	1438	1423	1414	1417	1430	1442	1427	1423	1420	1431	1438	1428	1421	1420	1419	1413	1419	1421	1431	1435	1433	1423	1412	1405	1417	1430	1434	1438	1450	1458	1455	1461	1453	1437	1432	1442	1454	1465	1466	1465	1475	1508	1537	1542	1529	1531	1528	1532	1551	0	0	0	0	0	0	0	0	0	0	0	0	0	0	0	0	0	0	0	0	0	0	0	0	0	0	0	0	0	0	0	0	0	0	0	0	0	0	1434	1431	1438	1424	1419	1422	1433	1429	1422	1417	1411	1403	1404	1411	1412	1410	1415	1413	1414	1409	1410	1412	1418	1423	1428	1422	1414	1400	1400	1398	1404	1415	1427	1436	1435	1418	1407	1404	1407	1424	1432	1434	1435	1464	1502	1518	1516	1504	1489	0	0	0	0	0	0	0	0	0	0	0	0	0	0	0	0	0	0	0	0	0	0	0	0	0	0	0	0	0	0	0	0	0	0	1804	1806	1814	1815	1805	1772	1753	1743	1747	1756	1778	1796	1814	1803	0	0	1776	1768	1767	1777	1783	1786	1789	1789	0	0	0	0	0	0	0	0	1767	1735	1725	1736	1745	1767	1778	1781	1780	1764	1787	1786	1781	1779	1768	1759	1758	0	0	0	0	0	0	1419	1377	1348	1348	1330	1329	1331	1332	1345	1345	1330	1338	1339	1346	1345	1341	1342	1336	1330	1332	1335	1334	1335	1341	1343	1337	1332	1324	1320	1322	1317	1317	1310	1299	1304	1313	1326	1325	1322	1323	1332	1327	1319	1313	1330	1347	1351	1356	1360	1362	1366	1359	1339	1331	1348	1449	1564	1648	1710	1727	1711	1699	0	0	0	0	0	0	0	0	0	0	0	0	0	0	0	0	0	0	0	0	0	0	0	0	0	0	0	0	0	0	0	0	0	0	0	0	0	0	0	0	0	0	0	0	0	0	0	0	0	0	0	0	0	0	0	0	0	0	0	0	0	0	0	0	0	0	0	0	0	0	0	0	0	0	0	0	0	0	0	0	0	0	0	0	0	0	0	0	0	0	0	0	0	0	0	0	0	1332	1299	1295	1297	1286	1279	1297	1303	1298	1285	1284	1282	1278	1271	1263	1257	1255	1253	1264	1268	1272	1267	1257	1258	1264	1279	1286	1276	1272	1273	1278	1279	1279	1279	1273	1270	1269	1267	1261	1259	1256	1261	1261	1267	1267	1264	1260	1263	1265	1262	1257	1257	1258	1260	1265	1269	1263	1255	1255	1319	0	0	0	0	0	0	0	0	0	0	0	0	0
0	0	0	0	0	0	0	0	0	0	0	0	0	0	0	0	0	0	0	0	0	0	0	0	0	0	0	0	0	0	0	0	0	0	0	0	0	0	0	0	0	0	0	0	0	0	0	0	0	0	0	0	0	0	0	0	0	0	0	1532	1524	1507	1502	1496	1492	1479	1469	1461	1465	1471	1477	1474	1485	1496	1498	1493	1493	1482	1469	1473	1491	1506	1506	1510	1519	1523	1516	1496	1486	1485	1481	1479	1499	1504	1510	1504	1501	1498	1493	1484	1469	1465	1472	1492	1515	1525	1514	1511	1518	1529	1540	1537	1540	1525	1519	1525	1540	1542	1541	1531	1530	1551	1549	1555	1557	1563	1557	1548	1552	0	0	0	0	0	0	0	0	0	0	0	0	0	0	0	0	0	0	0	0	0	0	0	0	0	0	0	0	0	0	0	0	0	0	0	0	0	0	0	0	0	0	0	0	1446	1455	1459	1446	1435	1441	1467	1465	1454	1447	1438	1426	1420	1426	1428	1427	1425	1421	1429	1443	1435	1417	1412	1413	1422	1422	1421	1427	1430	1426	1421	1416	1404	1394	1405	1417	1429	1429	1452	1463	1444	1434	1433	1438	1444	1463	1482	1498	1495	1491	1495	1510	1527	1518	1521	1522	1529	1538	1558	0	0	0	0	0	1591	1573	0	0	0	0	0	0	0	0	0	0	0	0	0	0	0	0	0	0	0	0	0	0	0	0	0	0	0	0	0	0	0	1411	1445	1448	1425	1422	1431	1439	1442	1437	1434	1422	1416	1422	1421	1421	1419	1422	1427	1431	1427	1421	1419	1422	1422	1426	1424	1417	1418	1421	1418	1419	1427	1442	1450	1440	1427	1414	1407	1411	1426	1433	1433	1430	1459	1494	1500	1511	1514	0	0	0	0	0	0	0	0	0	0	0	0	0	0	0	0	0	0	0	0	0	0	0	0	0	0	0	0	0	0	0	0	0	0	1777	1788	1799	1817	1827	1816	1783	1771	1783	1792	1813	1823	1818	1814	0	0	0	0	1755	1759	1760	1769	1782	1780	1779	1788	0	0	0	0	0	0	1765	1748	1741	1724	1713	1717	1740	1754	1767	1756	1764	1784	1785	1773	1771	1763	1759	1770	1756	1745	0	0	0	0	1419	1391	1333	1313	1312	1328	1331	1335	1340	1327	1325	1335	1341	1352	1351	1345	1338	1331	1330	1330	1330	1338	1340	1340	1336	1329	1327	1326	1324	1320	1327	1322	1316	1305	1303	1311	1317	1320	1321	1323	1337	1335	1318	1316	1328	1343	1350	1354	1356	1364	1369	1355	1337	1330	1354	1493	1583	1657	0	0	1725	0	0	0	0	0	0	0	0	0	0	0	0	0	0	0	0	0	0	0	0	0	0	0	0	0	0	0	0	0	0	0	0	0	0	0	0	0	0	0	0	0	0	0	0	0	0	0	0	0	0	0	0	0	0	0	0	0	0	0	0	0	0	0	0	0	0	0	0	0	0	0	0	0	0	0	0	0	0	0	0	0	0	0	0	0	0	0	0	0	0	0	0	0	0	0	0	0	0	1323	1300	1307	1310	1293	1293	1304	1310	1312	1295	1280	1276	1270	1260	1250	1245	1248	1254	1265	1265	1267	1262	1250	1247	1253	1265	1265	1260	1265	1266	1275	1278	1275	1277	1273	1272	1270	1270	1270	1272	1277	1271	1271	1271	1270	1257	1261	1263	1269	1269	1264	1263	1261	1262	1265	1268	1259	1259	1250	1326	0	0	0	0	0	0	0	0	0	0	0	0	0
0	0	0	0	0	0	0	0	0	0	0	0	0	0	0	0	0	0	0	0	0	0	0	0	0	0	0	0	0	0	0	0	0	0	0	0	0	0	0	0	0	0	0	0	0	0	0	0	0	0	0	0	0	0	0	0	0	0	0	0	1540	1513	1504	1507	1499	1484	1475	1470	1476	1478	1473	1469	1476	1489	1491	1494	1482	1482	1464	1464	1474	1489	1496	1498	1511	1513	1515	1503	1492	1490	1488	1489	1498	1507	1508	1506	1500	1497	1494	1485	1467	1461	1468	1483	1504	1519	1522	1517	1522	1540	1548	1545	1547	1533	1524	1529	1535	1542	1540	1539	1550	1572	1578	1566	1554	1555	1560	1560	0	0	0	0	0	0	0	0	0	0	0	0	0	0	0	0	0	0	0	0	0	0	0	0	0	0	0	0	0	0	0	0	0	0	0	0	0	0	0	0	0	0	0	0	0	1470	1466	1462	1451	1429	1436	1458	1453	1443	1426	1429	1418	1424	1428	1430	1424	1422	1426	1435	1451	1435	1420	1407	1409	1420	1424	1423	1422	1420	1414	1415	1412	1405	1400	1402	1411	1428	1429	1436	1463	1456	1424	1414	1438	1461	1484	1507	1513	1520	1501	1492	1511	1517	1519	1517	1519	1526	1545	1568	0	0	0	0	0	1573	1573	0	0	0	0	0	0	0	0	0	0	0	0	0	0	0	0	0	0	0	0	0	0	0	0	0	0	0	0	0	0	0	1417	1467	1461	1441	1431	1440	1442	1446	1450	1449	1433	1427	1429	1434	1436	1429	1432	1438	1442	1424	1417	1426	1428	1433	1430	1427	1425	1427	1434	1436	1435	1442	1448	1454	1447	1431	1414	1405	1406	1422	1425	1422	1426	1449	1469	1487	1504	1518	0	0	0	0	0	0	0	0	0	0	0	0	0	0	0	0	0	0	0	0	0	1755	0	0	0	0	0	0	0	1776	0	0	0	1773	1778	1790	1805	1828	1825	1805	1787	1790	1815	1824	1834	1829	1829	1813	0	0	1765	1749	1748	1747	1748	1770	1781	1779	1779	1781	0	1754	1747	1753	1754	1754	1760	1757	1747	1728	1710	1718	1728	1742	1754	1755	1772	1784	1782	1766	1759	1756	1763	1764	1763	1753	0	0	0	0	1382	1369	1329	1314	1314	1324	1328	1330	1329	1333	1324	1341	1347	1355	1355	1347	1333	1323	1329	1326	1331	1345	1335	1336	1331	1326	1326	1327	1325	1327	1329	1342	1349	1339	1331	1313	1309	1307	1319	1336	1343	1339	1321	1328	1337	1340	1342	1343	1345	1357	1361	1348	1341	1337	1369	1518	1600	1661	1710	1725	0	0	0	0	0	0	0	0	0	0	0	0	0	0	0	0	0	0	0	0	0	0	0	0	0	0	0	0	0	0	0	0	0	0	0	0	0	0	0	0	0	0	0	0	0	0	0	0	0	0	0	0	0	0	0	0	0	0	0	0	0	0	0	0	0	0	0	0	0	0	0	0	0	0	0	0	0	0	0	0	0	0	0	0	0	0	0	0	0	0	0	0	0	0	0	0	0	0	0	1332	1318	1324	1318	1297	1296	1299	1302	1299	1289	1272	1266	1261	1254	1247	1243	1245	1255	1263	1269	1273	1265	1255	1251	1254	1259	1254	1249	1251	1258	1275	1273	1271	1280	1277	1276	1275	1276	1276	1278	1280	1280	1271	1266	1264	1263	1269	1271	1278	1276	1270	1265	1263	1261	1270	1270	1261	1261	1247	1305	0	0	0	0	0	0	0	0	0	0	0	0	0
0	0	0	0	0	0	0	0	0	0	0	0	0	0	0	0	0	0	0	0	0	0	0	0	0	0	0	0	0	0	0	0	0	0	0	0	0	0	0	0	0	0	0	0	0	0	0	0	0	0	0	0	0	0	0	0	0	0	0	0	1549	1519	1506	1506	1496	1491	1492	1493	1487	1481	1476	1474	1475	1486	1495	1492	1484	1484	1479	1463	1466	1476	1485	1491	1497	1505	1510	1504	1501	1502	1504	1501	1505	1513	1516	1509	1504	1495	1492	1484	1477	1474	1473	1492	1508	1526	1527	1524	1530	1544	1554	1559	1551	1537	1533	1533	1536	1536	1541	1546	1564	1592	0	0	0	0	0	0	0	0	0	0	0	0	0	0	0	0	0	0	0	0	0	0	0	0	0	0	0	0	0	0	0	0	0	0	0	0	0	0	0	0	0	0	0	0	0	0	0	0	0	0	0	1469	1456	1455	1437	1424	1420	1430	1439	1433	1424	1408	1413	1413	1430	1432	1426	1426	1431	1438	1440	1442	1417	1409	1408	1423	1427	1421	1412	1405	1401	1404	1408	1405	1401	1395	1406	1429	1431	1440	1457	1454	1433	1421	1450	1470	1494	1515	1518	1513	1501	1494	1494	1515	1516	1504	1507	1536	1545	1554	0	0	0	0	0	0	0	0	0	0	0	0	0	0	0	0	0	0	0	0	0	0	0	0	0	0	0	0	0	0	0	0	0	0	0	0	0	0	1434	1482	1466	1448	1438	1437	1442	1445	1451	1449	1441	1429	1442	1445	1447	1441	1439	1434	1429	1423	1424	1429	1436	1432	1434	1429	1425	1425	1434	1442	1441	1445	1448	1447	1448	1431	1410	1404	1406	1415	1421	1417	1426	1437	1459	1465	1493	1497	0	0	0	0	0	0	0	0	0	0	0	0	0	0	0	0	0	0	0	1740	1736	1740	1758	0	0	0	0	0	1751	1765	0	0	0	0	1790	1813	1822	1832	1817	1797	1794	1801	1831	2054	1835	1823	1804	0	0	1775	1765	1751	1751	1754	1761	1769	1776	1780	1779	1776	1758	1727	1724	1727	1755	1771	1775	1772	1751	1729	1715	1723	1740	1764	1775	1765	1761	1768	1766	1764	1754	1736	1737	1731	1735	1738	1715	0	0	0	1369	1359	1335	1326	1326	1330	1325	1321	1317	1325	1332	1342	1349	1352	1347	1343	1331	1305	1301	1303	1333	1347	1336	1333	1327	1322	1325	1325	1327	1328	1338	1344	1345	1343	1325	1319	1315	1317	1317	1319	1326	1330	1327	1331	1339	1339	1334	1331	1340	1361	1373	1354	1340	1342	1359	1506	1603	1646	1700	0	0	0	0	0	0	0	0	0	0	0	0	0	0	0	0	0	0	0	0	0	0	0	0	0	0	0	0	0	0	0	0	0	0	0	0	0	0	0	0	0	0	0	0	0	0	0	0	0	0	0	0	0	0	0	0	0	0	0	0	0	0	0	0	0	0	0	0	0	0	0	0	0	0	0	0	0	0	0	0	0	0	0	0	0	0	0	0	0	0	0	0	0	0	0	0	0	0	0	0	1347	1340	1337	1331	1307	1292	1289	1291	1288	1285	1266	1260	1258	1257	1253	1248	1253	1259	1270	1271	1273	1273	1267	1258	1258	1259	1259	1251	1249	1261	1268	1267	1270	1277	1283	1286	1279	1284	1281	1263	1263	1263	1262	1255	1257	1268	1274	1282	1284	1279	1271	1267	1260	1260	1270	1276	1277	1277	1266	1298	0	0	0	0	0	0	0	0	0	0	0	0	0
0	0	0	0	0	0	0	0	0	0	0	0	0	0	0	0	0	0	0	0	0	0	0	0	0	0	0	0	0	0	0	0	0	0	0	0	0	0	0	0	0	0	0	0	0	0	0	0	0	0	0	0	0	0	0	0	0	0	0	0	1530	1501	1491	1473	1485	1488	1493	1494	1487	1481	1477	1478	1483	1492	1500	1503	1503	1483	1483	1467	1470	1475	1481	1478	1492	1503	1504	1508	1507	1510	1515	1519	1516	1516	1514	1509	1497	1492	1485	1491	1491	1488	1495	1505	1518	1536	1546	1546	1542	1551	1557	1560	1551	1538	1532	1522	1523	1524	1529	1547	1579	0	0	0	0	0	0	0	0	0	0	0	0	0	0	0	0	0	0	0	0	0	0	0	0	0	0	0	0	0	0	0	0	0	0	0	0	0	0	0	0	0	0	0	0	0	0	0	0	0	0	0	0	1443	1439	1437	1433	1427	1420	1418	1415	1412	1408	1411	1409	1415	1430	1431	1429	1420	1420	1419	1426	1427	1419	1409	1412	1424	1428	1420	1406	1399	1396	1395	1398	1401	1396	1397	1405	1427	1431	1436	1450	1450	1445	1456	1466	1479	1493	1501	1506	1501	1494	1496	1495	1508	1517	1493	1499	1522	1541	1545	1531	0	0	0	0	0	0	0	0	0	0	0	0	0	0	0	0	0	0	0	0	0	0	0	0	0	0	0	0	0	0	0	0	0	0	0	0	0	1480	1487	1476	1456	1447	1435	1435	1437	1445	1444	1443	1442	1447	1452	1451	1451	1446	1439	1426	1421	1419	1426	1429	1436	1434	1434	1428	1428	1435	1440	1441	1438	1433	1434	1432	1422	1407	1403	1406	1409	1409	1408	1429	1443	1444	1450	1461	1468	0	0	0	0	0	0	0	0	0	0	0	0	0	0	0	0	0	0	1748	1742	1741	1742	1749	1768	0	0	0	1750	1752	1758	0	0	0	0	1820	1825	1824	1810	1796	1790	1797	1824	1833	1840	1816	1798	1772	0	1760	1764	1761	1763	1758	1763	1757	1769	1771	1776	1769	1760	1748	1734	1716	1732	1770	1797	1798	1775	1755	1737	1726	1735	1766	1799	1795	1760	1749	1761	1763	1764	1753	1728	1708	1705	1717	1724	1715	0	0	0	1363	1358	1355	1341	1337	1333	1327	1313	1323	1322	1331	1340	1347	1350	1346	1338	1330	1319	1291	1301	1327	1335	1338	1332	1326	1321	1321	1324	1326	1325	1328	1333	1334	1328	1322	1318	1320	1316	1316	1315	1319	1322	1319	1329	1338	1340	1330	1324	1329	1346	1360	1354	1362	1350	1363	1418	1586	1645	1691	0	0	0	0	0	0	0	0	0	0	0	0	0	0	0	0	0	0	0	0	0	0	0	0	0	0	0	0	0	0	0	0	0	0	0	0	0	0	0	0	0	0	0	0	0	0	0	0	0	0	0	0	0	0	0	0	0	0	0	0	0	0	0	0	0	0	0	0	0	0	0	0	0	0	0	0	0	0	0	0	0	0	0	0	0	0	0	0	0	0	0	0	0	0	0	0	0	0	0	0	1358	1352	1339	1323	1308	1286	1283	1278	1280	1272	1268	1263	1263	1267	1265	1263	1263	1268	1275	1273	1280	1284	1283	1273	1267	1268	1268	1268	1270	1268	1268	1264	1266	1274	1283	1288	1297	1296	1289	1266	1260	1260	1259	1255	1255	1262	1280	1286	1280	1270	1265	1262	1259	1255	1261	1287	1297	1297	1284	1300	0	0	0	0	0	0	0	0	0	0	0	0	0
0	0	0	0	0	0	0	0	0	0	0	0	0	0	0	0	0	0	0	0	0	0	0	0	0	0	0	0	0	0	0	0	0	0	0	0	0	0	0	0	0	0	0	0	0	0	0	0	0	0	0	0	0	0	0	0	0	0	0	0	1460	1457	1461	1467	1473	1478	1489	1490	1480	1466	1462	1474	1483	1491	1499	1503	1505	1486	1486	1484	1483	1492	1492	1480	1486	1490	1494	1497	1502	1505	1517	1527	1527	1526	1512	1505	1490	1481	1483	1486	1492	1496	1503	1520	1519	1551	1563	1561	1550	1549	1555	1554	1550	1534	1522	1517	1516	1522	1547	0	0	0	0	0	0	0	0	0	0	0	0	0	0	0	0	0	0	0	0	0	0	0	0	0	0	0	0	0	0	0	0	0	0	0	0	0	0	0	0	0	0	0	0	0	0	0	0	0	0	0	0	0	0	1415	1420	1423	1426	1420	1423	1411	1405	1407	1413	1415	1413	1420	1428	1429	1429	1421	1417	1410	1406	1414	1423	1416	1419	1427	1426	1417	1402	1395	1395	1398	1397	1396	1391	1390	1399	1415	1416	1420	1440	1443	1449	1469	1480	1484	1492	1490	1486	1483	1496	1508	1522	1527	1525	1497	1501	1514	1523	1516	1501	0	0	0	0	0	0	0	0	0	0	0	0	0	0	0	0	0	0	0	0	0	0	0	0	0	0	0	0	0	0	0	0	0	0	0	0	0	1439	1454	1464	1468	1452	1441	1435	1435	1434	1435	1439	1444	1449	1453	1449	1461	1449	1443	1434	1421	1414	1421	1426	1430	1437	1433	1431	1430	1438	1447	1441	1428	1419	1416	1412	1405	1395	1395	1398	1411	1408	1406	1424	1444	1442	1442	1452	0	0	0	0	0	0	0	0	0	0	0	0	0	0	0	0	0	0	0	1768	1762	1753	1741	1748	1764	1770	1774	1760	1751	1755	1757	1755	0	0	0	0	1810	1792	1782	1769	1780	1802	0	1831	1828	1799	1782	1767	0	1752	1754	1764	1762	1765	1759	1755	1766	1774	1777	1767	1757	1751	1742	1725	1740	1784	1818	1818	1796	1776	1756	1744	1753	1795	1819	1815	1770	1762	1762	1769	1766	1752	1722	1698	1703	1714	0	0	0	0	0	1365	1364	1360	1347	1341	1337	1331	1329	1331	1338	1347	1350	1353	1349	1357	1355	1353	1337	1334	1308	1330	1335	1334	1329	1325	1323	1323	1319	1324	1327	1319	1323	1324	1322	1317	1319	1321	1318	1315	1315	1321	1320	1319	1326	1336	1337	1332	1327	1327	1335	1345	1350	1355	1356	1367	1404	1527	1633	1678	1730	1737	0	0	0	0	0	0	0	0	0	0	0	0	0	0	0	0	0	0	0	0	0	0	0	0	0	0	0	0	0	0	0	0	0	0	0	0	0	0	0	0	0	0	0	0	0	0	0	0	0	0	0	0	0	0	0	0	0	0	0	0	0	0	0	0	0	0	0	0	0	0	0	0	0	0	0	0	0	0	0	0	0	0	0	0	0	0	0	0	0	0	0	0	0	0	0	0	0	0	1351	1325	1310	1304	1299	1292	1283	1279	1286	1277	1271	1265	1272	1274	1273	1270	1271	1273	1274	1274	1280	1283	1284	1275	1278	1280	1280	1279	1279	1275	1272	1269	1268	1273	1284	1292	1292	1288	1281	1281	1277	1270	1266	1263	1259	1267	1280	1282	1275	1264	1262	1258	1255	1255	1263	1296	1301	1301	1296	1308	0	0	0	0	0	0	0	0	0	0	0	0	0
0	0	0	0	0	0	0	0	0	0	0	0	0	0	0	0	0	0	0	0	0	0	0	0	0	0	0	0	0	0	0	0	0	0	0	0	0	0	0	0	0	0	0	0	0	0	0	0	0	0	0	0	0	0	0	0	0	0	0	0	1457	1456	1457	1455	1451	1455	1473	1476	1464	1458	1449	1459	1470	1483	1494	1494	1488	1480	1479	1479	1487	1500	1501	1490	1481	1481	1480	1479	1485	1490	1508	1525	1533	1526	1520	1504	1490	1479	1477	1485	1493	1504	1514	1522	1538	1558	1565	1557	1556	1562	1559	1555	1547	1533	1517	1508	1502	1522	1558	0	0	0	0	0	0	0	0	0	0	0	0	0	0	0	0	0	0	0	0	0	0	0	0	0	0	0	0	0	0	0	0	0	0	0	0	0	0	0	0	0	0	0	0	0	0	0	0	0	0	0	0	0	0	1393	1411	1427	1431	1435	1436	1430	1405	1405	1411	1418	1421	1425	1432	1431	1430	1417	1403	1392	1391	1403	1427	1431	1425	1424	1420	1414	1400	1404	1409	1410	1407	1401	1391	1392	1400	1410	1411	1416	1427	1434	1446	1469	1488	1487	1483	1471	1470	1470	1484	1505	1528	1541	1531	1504	1499	1501	1501	1490	0	0	0	0	0	0	0	0	0	0	0	0	0	0	0	0	0	0	0	0	0	0	0	0	0	0	0	0	0	0	0	0	0	0	0	0	0	0	1389	1426	1441	1449	1449	1445	1444	1437	1430	1432	1428	1438	1449	1440	1447	1451	1444	1440	1422	1410	1407	1414	1420	1426	1431	1436	1436	1436	1444	1447	1449	1436	1413	1403	1398	1389	1386	1389	1392	1402	1403	1410	1430	1446	1444	1444	1451	0	0	0	0	0	0	0	0	0	0	0	0	0	0	0	0	0	0	1776	1779	1771	1762	1750	1755	1760	1757	1758	1753	1753	1754	1759	1758	1763	0	0	1833	1791	1771	1751	1748	1761	1795	1811	1818	1815	1804	1798	1790	1772	1772	1766	1767	1777	1772	1769	0	1768	1772	1776	1775	1763	1759	1749	1742	1764	1805	1829	1819	1801	1773	1757	1763	1777	1794	1806	1802	1763	1764	1763	1772	1777	1755	1744	1725	1770	1787	0	0	0	0	0	1372	1363	1354	1345	1333	1331	1328	1340	1347	1352	1357	1358	1356	1355	1355	1349	1342	1337	1333	1332	1331	1329	1324	1323	1322	1313	1309	1310	1321	1323	1324	1321	1318	1315	1314	1319	1337	1343	1323	1322	1326	1324	1319	1322	1328	1329	1330	1328	1328	1333	1341	1348	1351	1354	1366	1416	1503	1614	1678	1724	1719	0	0	0	0	0	0	0	0	0	0	0	0	0	0	0	0	0	0	0	0	0	0	0	0	0	0	0	0	0	0	0	0	0	0	0	0	0	0	0	0	0	0	0	0	0	0	0	0	0	0	0	0	0	0	0	0	0	0	0	0	0	0	0	0	0	0	0	0	0	0	0	0	0	0	0	0	0	0	0	0	0	0	0	0	0	0	0	0	0	0	0	0	0	0	0	0	0	0	1313	1295	1291	1292	1301	1304	1298	1302	1307	1298	1276	1270	1275	1280	1276	1268	1265	1267	1271	1270	1274	1277	1275	1268	1275	1281	1281	1282	1279	1273	1275	1276	1275	1277	1283	1286	1287	1274	1272	1277	1277	1279	1276	1270	1264	1270	1280	1284	1279	1264	1261	1257	1255	1252	1268	1288	1288	1305	1304	1313	0	0	0	0	0	0	0	0	0	0	0	0	0
0	0	0	0	0	0	0	0	0	0	0	0	0	0	0	0	0	0	0	0	0	0	0	0	0	0	0	0	0	0	0	0	0	0	0	0	0	0	0	0	0	0	0	0	0	0	0	0	0	0	0	0	0	0	0	0	0	0	0	0	1460	1460	1451	1443	1439	1441	1456	1475	1463	1449	1438	1450	1461	1476	1480	1487	1481	1477	1481	1481	1494	1512	1511	1491	1476	1471	1471	1468	1470	1480	1496	1515	1525	1524	1521	1504	1497	1489	1490	1492	1505	1507	1509	1509	1528	1549	1559	1559	1558	1566	1563	1563	1545	1522	1505	1494	1481	1503	1550	0	0	0	0	0	0	0	0	0	0	0	0	0	0	0	0	0	0	0	0	0	0	0	0	0	0	0	0	0	0	0	0	0	0	0	0	0	0	0	0	0	0	0	0	0	0	0	0	0	0	0	0	0	1406	1403	1412	1428	1442	1446	1445	1439	1410	1406	1415	1424	1427	1432	1441	1443	1432	1422	1415	1412	1408	1410	1441	1435	1426	1422	1414	1414	1414	1419	1425	1429	1429	1421	1402	1404	1409	1411	1407	1408	1423	1432	1457	1480	1486	1480	1470	1464	1456	1461	1476	1488	1509	1518	1523	1504	1505	1501	1489	1469	0	0	0	0	0	0	0	0	0	0	0	0	0	0	0	0	0	0	0	0	0	0	0	0	0	0	0	0	0	0	0	0	0	0	0	0	0	0	1342	1406	1424	1440	1449	1446	1444	1445	1433	1422	1417	1422	1432	1436	1433	1443	1441	1427	1410	1400	1399	1407	1409	1417	1422	1429	1435	1441	1445	1447	1448	1442	1423	1401	1394	1384	1383	1385	1389	1398	1410	1429	1441	1443	1442	1444	1451	0	0	0	0	0	0	0	0	0	0	0	0	0	0	1768	1783	1779	1777	1768	1759	1750	1741	1739	1737	1752	1744	1744	1734	1739	1760	1770	1743	1761	1774	1808	1788	1771	1750	1740	1738	1741	1770	1815	1815	1813	1819	1807	1803	1797	1784	1785	1777	1773	1782	1781	1769	1771	1771	1772	1774	1763	1736	1728	1734	1763	1793	1816	1818	1781	1769	1762	1764	1764	1765	1773	1761	1744	1746	1760	1786	1785	1767	1763	1777	1784	0	0	0	0	0	0	1383	1351	1348	1338	1333	1323	1325	1330	1349	1352	1356	1356	1352	1349	1346	1337	1310	1298	1292	1315	1328	1320	1312	1307	1304	1300	1305	1306	1314	1320	1323	1318	1295	1291	1290	1297	1320	1344	1341	1321	1329	1325	1319	1312	1313	1319	1326	1337	1335	1334	1331	1337	1347	1354	1374	1417	1507	1613	1686	1713	1716	0	0	0	0	0	0	0	0	0	0	0	0	0	0	0	0	0	0	0	0	0	0	0	0	0	0	0	0	0	0	0	0	0	0	0	0	0	0	0	0	0	0	0	0	0	0	0	0	0	0	0	0	0	0	0	0	0	0	0	0	0	0	0	0	0	0	0	0	0	0	0	0	0	0	0	0	0	0	0	0	0	0	0	0	0	0	0	0	0	0	0	0	0	0	0	0	0	0	1272	1267	1280	1293	1312	1320	1319	1320	1322	1315	1288	1278	1275	1279	1271	1266	1261	1261	1265	1271	1271	1273	1267	1265	1266	1283	1283	1278	1276	1272	1273	1274	1276	1279	1281	1285	1281	1272	1266	1270	1270	1275	1273	1271	1269	1273	1280	1283	1281	1271	1260	1255	1255	1256	1274	1284	1284	1296	1297	1310	0	0	0	0	0	0	0	0	0	0	0	0	0
0	0	0	0	0	0	0	0	0	0	0	0	0	0	0	0	0	0	0	0	0	0	0	0	0	0	0	0	0	0	0	0	0	0	0	0	0	0	0	0	0	0	0	0	0	0	0	0	0	0	0	0	0	0	0	0	0	0	0	0	1472	1464	1455	1445	1443	1442	1466	1468	1472	1470	1456	1443	1452	1467	1476	1486	1483	1487	1496	1506	1506	1514	1513	1492	1479	1474	1468	1469	1466	1468	1470	1501	1517	1528	1521	1520	1511	1525	1525	1521	1519	1519	1507	1502	1517	1527	1540	1542	1553	1565	1562	1558	1532	1508	1494	1491	1475	1496	1531	1552	1544	1516	1502	1504	0	1521	1525	1530	1533	1540	0	0	1546	1544	1538	1532	1518	1498	1490	0	0	0	0	0	1495	1497	1513	0	0	0	0	0	0	0	1443	1470	0	0	0	0	0	0	0	0	0	0	0	0	0	0	0	1452	1437	1419	1426	1442	1440	1438	1449	1447	1417	1408	1412	1426	1431	1441	1449	1454	1449	1433	1413	1413	1408	1409	1429	1423	1411	1409	1410	1413	1418	1430	1434	1426	1434	1425	1413	1413	1418	1420	1418	1422	1428	1437	1466	1479	1480	1472	1464	1465	1471	1465	1476	1483	1489	1494	1496	1494	1488	1487	1481	1453	0	0	0	0	0	0	0	0	0	0	0	0	0	0	0	0	0	0	0	1299	1293	1298	1303	1312	1320	0	0	0	0	0	1291	1283	1305	1310	1293	1252	0	1272	1294	1348	1409	1434	1446	1444	1441	1438	1438	1422	1411	1414	1413	1417	1427	1431	1430	1420	1403	1398	1400	1406	1409	1408	1415	1422	1438	1444	1442	1441	1444	1447	1437	1412	1395	1391	1385	1386	1397	1416	1431	1440	1436	1429	1429	1429	1449	1444	0	0	0	0	0	0	0	0	0	0	0	1712	1720	1726	1742	1743	1743	1715	1690	1696	1688	1686	1695	1706	1698	1696	1699	1713	1751	1749	1730	1732	1741	1743	1729	1715	1734	1719	1721	1731	1735	1770	1789	1792	1793	1782	1781	1775	1774	1764	1754	1755	1777	1775	1753	1754	1752	1753	1743	1736	1716	1700	1704	1732	1771	1792	1782	1759	1735	1743	1742	1746	1735	1735	1723	1714	1718	1751	1763	1735	1729	1731	1735	1731	1719	0	0	0	0	0	1348	1310	1306	1301	1294	1272	1265	1293	1301	1288	1276	1282	1280	1273	1247	1212	1200	1216	1260	1290	1283	1275	1274	1263	1253	1263	1274	1290	1290	1293	1292	1282	1281	1274	1273	1282	1297	1323	1338	1319	1318	1321	1308	1305	1304	1318	1330	1341	1336	1326	1322	1326	1335	1360	1380	1418	1517	1648	1705	1715	1730	0	0	0	0	0	0	0	0	0	0	0	0	0	0	0	0	0	0	0	0	0	0	0	0	0	0	0	0	0	0	0	0	0	0	0	0	0	0	0	0	0	0	0	0	0	0	0	0	0	0	0	0	0	0	0	0	0	0	0	0	0	0	0	0	0	0	0	0	0	0	0	0	0	0	0	0	0	0	0	0	0	0	0	0	0	0	0	0	0	0	0	0	0	0	0	0	0	0	1261	1258	1284	1305	1327	1332	1331	1331	1338	1325	1291	1276	1277	1279	1277	1270	1265	1264	1267	1276	1277	1271	1266	1264	1273	1282	1281	1279	1279	1276	1275	1274	1275	1277	1279	1279	1282	1276	1267	1268	1268	1270	1271	1268	1271	1274	1282	1286	1284	1278	1268	1259	1258	1259	1276	1282	1282	1292	1287	1311	0	0	0	0	0	0	0	0	0	0	0	0	0
0	0	0	0	0	0	0	0	0	0	0	0	0	0	0	0	0	0	0	0	0	0	0	0	0	0	1437	1422	1421	1433	1439	1452	1454	1454	1448	1435	1427	1438	1456	1480	1490	1515	1516	1516	1503	1495	1482	1482	1485	0	0	1530	1522	1521	1503	1488	1488	0	0	0	1493	1472	1468	1466	1461	1464	1465	1456	1467	1489	1496	1503	1480	1475	1485	1487	1496	1492	1511	1521	1521	1514	1504	1490	1486	1482	1479	1474	1480	1485	1476	1485	1493	1513	1525	1528	1522	1523	1529	1519	1519	1519	1523	1511	1496	1508	1516	1527	1542	1551	1547	1527	1506	1494	1497	1496	1487	1504	1527	1541	1533	1513	1500	1493	1496	1508	1518	1516	1512	1507	1516	1526	1526	1528	1536	1535	1523	1509	1510	1510	1507	1509	1506	1487	1488	1481	1475	1493	1510	1517	1495	1477	1462	1451	1465	1489	1523	1533	1516	1507	1511	1511	1517	1515	1515	1516	1497	1481	1474	1486	1505	1501	1468	1446	1438	1443	1450	1452	1452	1452	1416	1408	1408	1423	1436	1440	1455	1458	1454	1436	1427	1416	1416	1422	1429	1427	1417	1404	1392	1407	1421	1431	1434	1420	1420	1424	1420	1423	1425	1415	1411	1426	1425	1432	1470	1477	1471	1464	1465	1467	1464	1464	1477	1477	1484	1474	1473	1472	1475	1479	1458	1411	1359	1317	1314	1316	1321	1324	1330	0	0	0	0	0	0	0	0	0	0	0	1204	1206	1228	1232	1241	1243	1246	1247	1240	0	1216	1202	1198	1183	1168	1160	1152	1164	1197	1233	1260	1287	1337	1424	1437	1437	1438	1436	1430	1424	1417	1413	1410	1410	1416	1422	1419	1409	1399	1397	1404	1411	1408	1408	1411	1417	1431	1438	1442	1437	1436	1439	1435	1424	1411	1396	1392	1394	1406	1418	1430	1434	1430	1422	1421	1427	1432	1436	1427	1419	0	1448	1507	0	1657	1606	1590	1635	1648	1649	1653	1668	1676	1677	1653	1630	1612	1615	1610	1612	1606	1616	1627	1633	1651	1681	1708	1717	1708	1697	1683	1677	1656	1650	1656	1661	1676	1684	1694	1713	1710	1716	1722	1714	1714	1726	1721	1709	1679	1694	1714	1713	1703	1693	1704	1705	1682	1684	1675	1655	1642	1684	1717	1737	1733	1705	1697	1702	1705	1702	1694	1684	1675	1666	1675	1642	1641	1657	1652	1647	1649	1652	1603	1615	0	0	0	0	1272	1263	1258	1242	1230	1217	1208	1196	1181	1176	1175	1174	1172	1172	1166	1176	1184	1193	1240	1259	1265	1260	1252	1241	1236	1249	1264	1275	1277	1269	1246	1246	1252	1244	1248	1256	1260	1275	1297	1320	1320	1316	1305	1301	1310	1320	1329	1333	1325	1316	1316	1317	1335	1365	1389	1438	1597	1656	1702	1708	1718	0	0	0	0	0	0	0	0	0	0	0	0	0	0	0	0	0	0	0	0	0	0	0	0	0	0	0	0	0	0	0	0	0	0	0	0	0	0	0	0	0	0	0	0	0	0	0	0	0	0	0	0	0	0	0	0	0	0	0	0	0	0	0	0	0	0	0	0	0	0	0	0	0	0	0	0	0	0	0	0	0	0	0	0	0	0	0	0	0	0	0	0	0	0	0	0	0	0	1288	1273	1287	1307	1329	1334	1329	1328	1335	1319	1294	1283	1278	1283	1286	1280	1274	1272	1269	1275	1279	1274	1267	1272	1282	1290	1290	1286	1280	1278	1276	1273	1275	1273	1274	1280	1291	1289	1278	1278	1269	1263	1262	1264	1272	1278	1286	1288	1281	1281	1276	1265	1261	1261	1276	1284	1284	1287	1287	1314	0	0	0	0	0	0	0	0	0	0	0	0	0
0	0	0	0	0	0	0	0	0	0	0	0	0	0	0	0	0	0	0	0	0	1498	1473	1452	1436	1436	1432	1425	1426	1433	1440	1452	1450	1450	1447	1431	1426	1440	1448	1461	1470	1506	1515	1515	1513	1498	1491	1482	1494	1513	1531	1520	1530	1515	1502	1495	1495	1483	1495	1509	1496	1478	1475	1468	1470	1455	1447	1447	1465	1504	1522	1521	1507	1505	1499	1495	1495	1504	1520	1528	1518	1518	1503	1491	1482	1487	1489	1489	1496	1496	1498	1502	1493	1503	1510	1514	1511	1514	1521	1517	1516	1521	1524	1506	1499	1500	1507	1520	1530	1535	1534	1504	1490	1492	1503	1510	1504	1516	1525	1532	1523	1518	1503	1498	1496	1504	1510	1520	1513	1499	1496	1518	1527	1518	1525	1535	1537	1529	1527	1523	1525	1517	1503	1488	1484	1480	1476	1473	1482	1498	1503	1485	1472	1472	1478	1508	1529	1524	1510	1497	1504	1516	1514	1519	1526	1531	1506	1485	1480	1483	1500	1508	1478	1459	1458	1455	1455	1456	1454	1462	1429	1409	1399	1399	1422	1435	1448	1448	1445	1441	1430	1420	1421	1425	1431	1447	1446	1430	1411	1404	1417	1423	1430	1428	1425	1423	1423	1430	1434	1422	1406	1423	1433	1434	1456	1473	1472	1468	1468	1468	1460	1456	1465	1474	1468	1462	1464	1465	1436	1411	1389	1344	1301	1258	1246	1254	1257	1260	1266	0	0	0	0	0	0	0	0	0	0	0	1156	1172	1189	1197	1196	1201	1206	1213	1211	1188	1169	1161	1164	1163	1155	1149	1143	1144	1168	1197	1237	1256	1267	1307	1372	1429	1433	1432	1420	1413	1406	1398	1400	1413	1416	1415	1405	1401	1399	1403	1411	1414	1414	1407	1402	1399	1417	1431	1436	1428	1427	1427	1435	1432	1420	1404	1397	1395	1392	1401	1416	1425	1415	1414	1413	1410	1415	1433	1431	1424	1427	1441	1477	1531	1552	1513	1490	1490	1488	1489	1526	1577	1596	1598	1597	1572	1562	1549	1541	1522	1507	1525	1567	1582	1608	1625	1645	1630	1623	1623	1625	1602	1587	1574	1579	1589	1619	1629	1639	1639	1627	1617	1636	1646	1656	1654	1645	1596	1594	1592	1636	1641	1628	1620	1604	1600	1585	1595	1607	1605	1601	1613	1657	1677	1665	1647	1641	1638	1649	1651	1645	1629	1617	1534	1535	1524	1537	1574	1570	1556	1541	1515	1514	1528	1490	0	0	1239	1215	1213	1222	1217	1215	1211	1196	1181	1161	1154	1155	1161	1160	1161	1163	1169	1184	1215	1259	1247	1241	1233	1204	1209	1228	1248	1256	1261	1265	1241	1217	1201	1202	1200	1189	1180	1189	1198	1215	1231	1279	1288	1300	1309	1312	1316	1321	1319	1316	1307	1309	1321	1339	1367	1395	1443	1593	1643	1679	1687	0	0	0	0	0	0	0	1558	1557	1562	1566	1587	0	0	0	0	0	0	0	0	0	0	0	0	0	0	0	0	0	0	0	0	0	0	0	0	0	0	0	0	0	0	0	0	0	0	0	0	0	0	0	0	0	0	0	0	0	0	0	0	0	0	0	0	0	0	0	0	0	0	0	0	0	0	0	0	0	0	0	0	0	0	0	0	0	0	0	0	0	0	0	0	0	0	0	0	0	0	0	1310	1283	1291	1301	1318	1328	1319	1321	1320	1307	1295	1286	1284	1289	1290	1288	1282	1274	1271	1275	1280	1277	1276	1287	1294	1299	1301	1298	1291	1282	1279	1283	1274	1269	1276	1286	1297	1298	1282	1282	1265	1258	1256	1265	1274	1285	1290	1283	1271	1266	1273	1274	1262	1267	1273	1284	1284	1288	1307	1316	0	0	0	0	0	0	0	0	0	0	0	0	0
0	0	0	0	0	0	0	0	0	0	0	0	0	0	0	0	0	0	0	0	0	1475	1469	1457	1452	1452	1452	1444	1453	1451	1460	1456	1453	1453	1451	1445	1447	1449	1464	1472	1482	1497	1506	1506	1500	1493	1486	1489	1496	1499	1501	1505	1516	1511	1506	1497	1497	1488	1480	1460	1462	1466	1476	1476	1468	1445	1436	1446	1477	1504	1524	1528	1528	1523	1519	1505	1506	1516	1530	1530	1522	1522	1513	1508	1505	1498	1500	1509	1513	1513	1504	1505	1509	1509	1509	1504	1509	1511	1515	1517	1509	1513	1520	1518	1503	1499	1504	1518	1532	1538	1527	1504	1492	1497	1515	1523	1531	1528	1529	1521	1516	1509	1504	1500	1502	1508	1516	1521	1517	1501	1493	1502	1519	1524	1529	1533	1535	1538	1539	1529	1529	1515	1494	1489	1490	1488	1470	1467	1468	1480	1506	1485	1464	1460	1489	1510	1526	1518	1491	1485	1494	1512	1515	1520	1524	1533	1520	1499	1495	1493	1508	1507	1488	1478	1477	1477	1477	1468	1474	1486	1462	1435	1405	1405	1405	1414	1426	1437	1440	1437	1435	1435	1431	1425	1435	1462	1466	1453	1439	1436	1428	1431	1430	1435	1434	1429	1427	1429	1430	1426	1415	1440	1443	1451	1457	1468	1469	1479	1482	1472	1464	1456	1448	1438	1436	1440	1459	1469	1422	1404	1352	1279	1243	1212	1194	1198	1196	1197	0	0	0	0	0	1153	1145	0	0	0	0	1156	1147	1157	1165	1169	1166	1172	1183	1191	1192	1175	1160	1155	1166	1167	1160	1149	1148	1148	1163	1191	1220	1232	1235	1241	1302	1377	1415	1411	1405	1410	1422	1424	1428	1430	1433	1419	1393	1400	1405	1412	1424	1430	1429	1413	1401	1397	1413	1424	1433	1427	1419	1421	1433	1431	1425	1415	1395	1390	1390	1397	1407	1410	1416	1419	1423	1412	1416	1428	1429	1428	1430	1432	1426	1428	1429	1426	1447	1457	1462	1454	1452	1452	1459	1462	1463	1496	1494	1464	1432	1419	1428	1423	1427	1441	1445	1463	1491	1495	1492	1474	1461	1470	1478	1481	1482	1481	1465	1485	1510	1526	1520	1492	1467	1439	1417	1410	1418	1433	1443	1435	1443	1437	1468	1522	1522	1520	1525	1524	1529	1556	1558	1548	1506	1515	1535	1582	1584	1599	1589	1580	1587	1458	1460	1443	1421	1393	1383	1387	1381	1362	1355	1376	1407	1455	1422	0	0	0	1189	1182	1195	1204	1211	1210	1204	1180	1163	1155	1156	1163	1167	1168	1171	1176	1194	1225	1241	1232	1228	1225	1224	1234	1242	1246	1251	1255	1255	1245	1217	1188	1188	1183	1178	1172	1172	1178	1185	1186	1193	1215	1231	1283	1304	1306	1309	1305	1302	1308	1320	1345	1367	1374	1384	1410	1495	1601	1636	1633	0	0	0	0	0	1533	1512	1509	1487	1487	1472	1468	1508	1538	1542	1528	1519	1514	1530	1546	0	1537	1532	1540	0	0	0	0	1491	1496	0	0	0	0	0	0	0	0	0	0	0	0	0	0	0	0	0	0	0	0	0	0	0	0	0	0	0	0	0	0	0	0	0	0	0	0	0	0	0	0	0	0	0	0	0	0	0	0	0	0	0	0	0	0	0	0	0	0	0	0	0	0	0	0	0	0	0	0	0	1315	1298	1286	1294	1306	1311	1305	1306	1302	1298	1289	1284	1281	1284	1288	1286	1278	1270	1266	1274	1279	1278	1281	1286	1292	1296	1311	1306	1293	1282	1274	1277	1278	1274	1277	1287	1296	1294	1281	1281	1268	1259	1261	1269	1280	1288	1293	1286	1272	1265	1271	1271	1274	1273	1278	1278	1278	1283	1297	1310	1336	0	0	0	0	0	0	0	0	0	0	0	0
0	0	0	0	0	0	0	0	0	0	0	0	0	0	0	0	0	0	0	0	0	1455	1436	1441	1455	1455	1464	1463	1472	1466	1463	1460	1455	1455	1457	1461	1457	1459	1466	1490	1496	1503	1499	1499	1485	1480	1472	1480	1485	1498	1502	1506	1517	1518	1511	1507	1507	1499	1483	1464	1466	1469	1477	1487	1488	1465	1458	1473	1486	1514	1532	1534	1536	1534	1518	1514	1522	1530	1534	1536	1529	1528	1528	1517	1507	1503	1505	1512	1515	1514	1513	1515	1516	1516	1511	1515	1512	1506	1505	1513	1508	1513	1520	1529	1524	1525	1532	1544	1550	1549	1541	1519	1510	1500	1525	1525	1531	1541	1534	1525	1513	1511	1502	1501	1508	1523	1525	1518	1514	1504	1497	1506	1526	1526	1527	1529	1532	1536	1534	1531	1522	1507	1497	1494	1493	1495	1480	1459	1457	1476	1506	1487	1473	1461	1474	1501	1511	1496	1486	1482	1490	1502	1501	1503	1519	1535	1524	1511	1503	1505	1515	1510	1500	1503	1498	1498	1484	1486	1489	1497	1483	1457	1443	1436	1434	1442	1443	1446	1453	1449	1460	1457	1466	1449	1447	1462	1456	1453	1456	1458	1472	1472	1461	1451	1454	1447	1444	1402	1395	1403	1433	1456	1454	1449	1443	1457	1468	1480	1485	1477	1470	1449	1440	1420	1420	1430	1451	1459	1435	1313	1221	1196	1175	1160	1156	1155	0	0	0	0	0	0	1155	1142	1131	1127	0	0	1133	1142	1140	1150	1152	1151	1150	1160	1171	1178	1184	1170	1163	1161	1170	1169	1183	1178	1181	1182	1192	1211	1221	1221	1213	1228	1278	1378	1416	1418	1414	1419	1424	1428	1425	1433	1430	1433	1428	1419	1419	1420	1424	1431	1436	1433	1422	1421	1432	1435	1422	1400	1378	1374	1386	1399	1405	1410	1412	1410	1404	1408	1406	1405	1413	1425	1433	1444	1437	1426	1430	1427	1425	1429	1429	1421	1413	1409	1416	1428	1449	1451	1436	1423	1427	1440	1459	1472	1468	1445	1445	1436	1421	1423	1423	1417	1410	1407	1405	1419	1424	1434	1435	1443	1453	1447	1424	1412	1395	1384	1386	1397	1412	1406	1389	1378	1370	1375	1385	1382	1381	1381	1387	1405	1419	1417	1409	1408	1423	1445	1451	1459	1469	1472	1471	1470	1469	1463	1459	1440	1442	1409	1398	1393	1394	1395	1394	1378	1370	1371	1373	1380	1378	1374	1386	1413	1412	0	0	0	1188	1171	1187	1207	1220	1216	1209	1196	1182	1170	1174	1175	1175	1181	1186	1193	1206	1240	1220	1216	1218	1218	1220	1221	1227	1236	1255	1279	1282	1254	1220	1202	1196	1193	1185	1179	1177	1171	1168	1171	1187	1170	1156	1156	1203	1236	1271	1301	1308	1320	1336	1358	1366	1370	1365	1358	1385	1470	1545	1526	1523	1539	1375	1365	1365	1370	1381	1386	1384	1377	1382	1387	1384	1384	1408	1397	1396	1414	1458	1455	1435	1431	1436	1435	1458	1477	1466	1445	1418	1427	1452	1467	1476	0	0	0	0	0	0	0	0	0	1495	1475	1429	1424	1424	1422	0	0	0	0	0	1437	1434	0	0	0	0	1503	1484	1451	1442	0	0	0	0	0	0	0	0	0	0	0	0	0	0	0	1468	1459	1462	1464	1450	1430	0	0	0	0	0	0	0	0	0	0	0	0	0	0	1312	1321	1314	1291	1282	1293	1300	1297	1297	1292	1281	1275	1275	1273	1275	1276	1274	1266	1262	1275	1283	1276	1271	1270	1272	1267	1279	1292	1297	1291	1279	1275	1276	1278	1279	1280	1290	1294	1291	1284	1284	1274	1268	1268	1270	1274	1282	1286	1292	1277	1268	1265	1268	1269	1261	1267	1267	1265	1265	1277	1288	0	0	0	0	0	0	0	0	0	0	0	0	0
0	0	0	0	0	0	0	0	0	0	0	0	0	0	0	0	0	0	0	0	0	1435	1429	1432	1444	1444	1464	1465	1472	1474	1464	1455	1456	1465	1465	1459	1457	1458	1475	1506	1519	1517	1497	1485	1485	1476	1476	1494	1499	1508	1512	1514	1524	1520	1523	1515	1500	1500	1488	1467	1462	1470	1478	1497	1506	1500	1499	1506	1513	1529	1539	1543	1532	1530	1522	1519	1526	1530	1532	1531	1514	1501	1501	1495	1493	1491	1499	1505	1507	1506	1509	1516	1527	1534	1529	1525	1521	1512	1507	1508	1507	1508	1508	1531	1539	1552	1563	1569	1565	1552	1549	1533	1512	1504	1502	1514	1526	1541	1539	1532	1510	1500	1504	1498	1510	1514	1515	1509	1500	1499	1493	1490	1514	1520	1524	1520	1516	1521	1523	1515	1506	1496	1499	1499	1504	1497	1484	1466	1466	1478	1503	1500	1487	1476	1478	1484	1492	1493	1487	1495	1501	1497	1493	1492	1507	1528	1528	1519	1518	1517	1529	1523	1514	1503	1494	1489	1480	1485	1499	1506	1506	1476	1473	1462	1462	1464	1465	1469	1473	1479	1485	1482	1478	1464	1467	1475	1475	1467	1460	1461	1476	1479	1472	1465	1458	1462	1468	1468	1468	1468	1454	1457	1448	1446	1439	1447	1457	1465	1467	1475	1468	1452	1426	1407	1401	1413	1418	1339	1292	1186	1172	1156	1146	1136	1138	0	0	0	1109	1110	1127	1140	1141	1126	1116	1101	1099	1106	1120	1129	1130	1137	1134	1135	1142	1150	1162	1179	1183	1183	1177	1172	1175	1186	1196	1199	1205	1206	1214	0	0	0	0	1230	1283	1419	1440	1461	1448	1437	1433	1427	1427	1423	1419	1428	1436	1452	1443	1423	1423	1426	1429	1428	1427	1434	1441	1438	1424	1405	1380	1370	1387	1399	1407	1427	1450	1458	1449	1432	1414	1406	1413	1431	1434	1438	1445	1436	1428	1425	1427	1424	1424	1414	1407	1407	1409	1422	1438	1440	1440	1425	1425	1439	1452	1461	1456	1448	1442	1434	1423	1430	1432	1427	1417	1402	1407	1413	1421	1416	1418	1430	1441	1432	1420	1401	1389	1384	1381	1390	1396	1385	1378	1371	1376	1383	1386	1398	1401	1397	1402	1412	1422	1421	1404	1390	1391	1410	1421	1419	1433	1443	1448	1451	1455	1453	1448	1420	1409	1404	1398	1393	1391	1395	1391	1380	1365	1372	1379	1391	1384	1385	1385	1391	1407	0	0	0	0	1162	1184	1206	1215	1216	1211	1199	1193	1193	1192	1191	1192	1193	1198	1197	1189	1217	1229	1224	1224	1220	1218	1219	1220	1251	1275	1274	1277	1274	1245	1223	1220	1213	1194	1186	1178	1169	1166	1179	1180	1163	1129	1117	1117	1142	1175	1238	1268	1294	1323	1337	1348	1350	1351	1346	1340	1347	1341	1366	1374	1375	1362	1339	1323	1317	1325	1341	1348	1352	1355	1355	1354	1359	1356	1341	1332	1325	1336	1339	1352	1365	1372	1361	1350	1346	1344	1338	1336	1346	1366	1386	1388	1384	1372	1373	1361	1346	1323	1316	1333	1358	1382	1377	1302	1282	1288	1309	1323	1338	1349	1381	1389	1392	1376	1375	1394	1416	1413	1408	1393	1398	1397	1412	1429	1417	1392	1384	1409	1430	1448	1439	1411	1402	1404	1423	1444	1435	1412	1409	1406	1402	1407	1414	1373	1325	1278	1270	0	0	0	0	0	0	0	0	0	0	1301	1318	1315	1298	1284	1287	1295	1296	1293	1284	1275	1266	1265	1268	1272	1271	1270	1268	1272	1278	1278	1266	1257	1252	1253	1251	1262	1277	1284	1281	1274	1270	1273	1277	1279	1284	1290	1287	1281	1281	1274	1271	1274	1273	1273	1270	1272	1283	1284	1286	1279	1273	1266	1254	1237	1237	1251	1243	1251	1250	1285	0	0	0	0	0	0	0	0	0	0	0	0	0
0	0	0	0	0	0	0	0	0	0	0	0	0	0	0	0	0	0	0	0	1456	1423	1417	1429	1440	1440	1449	1449	1455	1457	1452	1450	1448	1456	1456	1458	1445	1456	1479	1511	1537	1533	1514	1494	1494	1491	1503	1502	1510	1517	1523	1517	1512	1516	1518	1511	1503	1503	1485	1472	1460	1456	1475	1500	1514	1523	1519	1526	1540	1548	1549	1543	1532	1527	1520	1528	1525	1525	1505	1503	1502	1494	1487	1487	1482	1482	1495	1500	1502	1510	1504	1514	1529	1543	1545	1543	1532	1515	1513	1503	1501	1499	1517	1531	1554	1568	1573	1572	1563	1550	1530	1523	1517	1506	1501	1502	1517	1527	1541	1528	1515	1507	1507	1511	1508	1501	1495	1484	1482	1487	1481	1471	1482	1514	1511	1506	1494	1490	1495	1490	1486	1491	1498	1497	1504	1493	1491	1495	1488	1495	1507	1487	1477	1479	1479	1482	1485	1494	1498	1513	1509	1499	1483	1485	1501	1516	1519	1515	1519	1522	1534	1533	1518	1493	1484	1459	1454	1466	1487	1505	1503	1481	1490	1481	1481	1483	1488	1488	1491	1495	1505	1502	1491	1490	1488	1495	1490	1476	1460	1461	1475	1487	1484	1483	1473	1479	1483	1484	1486	1476	1471	1470	1461	1453	1452	1458	1467	1473	1475	1474	1469	1449	1412	1393	1365	1331	1300	1264	1219	1149	1139	1135	1129	1122	1122	1125	0	1121	1107	1106	1112	1120	1119	1111	1106	1096	1096	1105	1119	1122	1120	1117	1113	1114	1115	1129	1151	1174	1190	1195	1193	1182	1172	1181	1196	1212	1219	1223	0	0	0	0	0	0	1297	1450	1474	1478	1460	1446	1440	1444	1442	1441	1434	1435	1448	1458	1445	1435	1417	1417	1424	1432	1434	1440	1448	1449	1453	1442	1430	1410	1401	1410	1416	1436	1458	1463	1455	1439	1425	1412	1419	1424	1432	1439	1448	1440	1427	1423	1421	1421	1422	1417	1403	1400	1406	1414	1427	1435	1439	1431	1420	1426	1437	1445	1449	1443	1437	1422	1412	1425	1439	1437	1424	1413	1412	1414	1410	1404	1408	1427	1431	1426	1416	1409	1398	1393	1398	1399	1394	1384	1375	1378	1385	1391	1399	1413	1415	1414	1414	1427	1428	1422	1404	1389	1388	1398	1413	1417	1420	1433	1438	1439	1442	1430	1413	1408	1404	1404	1396	1382	1380	1389	1391	1385	1376	1370	1386	1397	1400	1394	1384	1387	1404	0	0	0	0	0	1151	1173	1193	1194	1188	1186	1190	1195	1198	1203	1201	1202	1193	1190	1203	1248	1228	1250	1229	1226	1223	1220	1230	1244	1270	1271	1269	1273	1238	1218	1225	1220	1200	1192	1182	1176	1169	1180	1173	1151	1124	1109	1109	1123	1142	1168	1201	1226	1250	1266	1293	1319	1339	1342	1340	1370	1369	1365	1369	1372	1364	1347	1333	1319	1319	1328	1342	1351	1352	1364	1356	1353	1345	1345	1347	1349	1346	1349	1351	1349	1352	1342	1339	1340	1339	1339	1338	1339	1331	1329	1322	1321	1312	1305	1318	1327	1324	1320	1326	1352	1362	1360	1337	1321	1316	1314	1319	1329	1331	1325	1333	1334	1340	1340	1343	1339	1327	1326	1327	1339	1350	1366	1370	1352	1338	1333	1331	1326	1328	1328	1330	1346	1364	1361	1341	1309	1295	1299	1329	1343	1387	1395	1371	1336	1306	1303	1323	1347	1361	1340	1310	1302	1304	1310	1311	1304	1308	1313	1291	1288	1287	1292	1295	1296	1297	1283	1269	1259	1263	1270	1271	1266	1263	1270	1272	1281	1269	1253	1239	1240	1248	1250	1249	1260	1271	1276	1265	1266	1269	1276	1282	1289	1291	1280	1267	1267	1265	1267	1273	1275	1270	1266	1270	1274	1282	1290	1288	1280	1267	1249	1241	1244	1244	1237	1245	1250	1304	1326	0	0	1299	1309	1335	1335	0	0	0	0	0	0
