0	0	0	0	0	0	0	0	0	0	0	0	0	0	0	0	0	0	0	0	0	0	0	0	0	0	0	0	0	0	0	0	0	0	0	0	0	0	0	0	0	0	0	0	0	0	0	0	0	0	0	0	0	0	0	0	0	0	0	0	0	0	0	0	0	0	0	0	0	0	0	0	0	0	0	0	0	0	0	0	0	0	0	0	0	0	0	0	0	0	0	0	0	0	0	0	0	0	0	0	0	0	0	0	0	0	0	0	0	0	0	0	0	0	0	0	0	0	0	0	0	0	0	0	0	0	0	0	0	0	0	0	0	0	0	0	0	0	0	0	0	0	0	0	0	0	0	0	0	0	0	0	0	0	0	0	0	0	0	0	0	0	0	0	0	0	0	0	0	0	0	0	0	0	0	0	0	0	0	0	0	0	0	1409	1406	1412	1403	1410	1420	1416	1417	1417	1420	1428	1437	1439	1436	1437	1430	1431	1432	1424	1417	1411	1385	1373	1386	1399	1405	1406	1408	1415	1428	1429	1419	1407	1386	1394	1407	1413	1418	1416	1405	1388	1382	1389	1394	1404	1409	1415	1425	1401	1408	1402	1393	1383	1387	1396	1400	1402	1401	1403	1408	1407	1403	1403	1405	1397	1396	1386	1384	1383	1389	1404	1418	1433	1431	1426	1423	1426	1415	1402	1396	1399	1408	1419	1434	1428	1417	1402	1403	1405	1407	1410	1420	1431	1416	1415	1399	1390	1387	1397	1401	1400	1397	1389	1390	1390	1385	1384	1385	1397	1393	1412	1409	1410	1411	1410	1406	1399	1408	1416	1418	1421	1422	1425	1432	1437	1428	1418	1410	1410	1412	1419	1434	1438	1431	1420	1413	1417	1420	1420	1413	1409	1400	1394	1392	1401	1415	1421	1434	1443	1449	1457	1442	1437	1413	1415	1427	1416	1435	1423	1428	1441	1441	1452	1454	1456	1446	1436	1433	1454	1460	1476	1449	1443	1442	1443	1439	1429	1419	1415	1421	1429	1439	1448	1439	1426	1410	1406	1408	1413	1403	1407	1419	1441	1436	1442	1435	1434	1440	1443	1438	1441	1447	1458	1451	1433	1412	1404	1400	1396	1406	1425	1430	1434	1434	1440	1441	1436	1428	1438	1439	1441	1440	1449	1453	1444	1429	1428	1421	1419	1431	1438	1439	1445	1456	1470	1478	1473	1458	1435	1418	1407	1401	1402	1415	1431	1445	1446	1449	1440	1439	1448	1451	1429	1415	1406	1404	1417	1435	1448	1448	1455	1460	1467	1463	1455	1446	1435	1432	1424	1431	1439	1448	1462	1458	1449	1442	1448	1449	1449	1443	1438	1441	1452	1471	1479	1476	1462	1456	1456	1470	1479	1458	1434	1423	1453	1503	1527	0	0	0	0	0	0	0	0	0	0	0	0	0	0	0	0	0	0	0	0	0	0	0	0	0	1528	1521	1526	1541	1545	1527	1522	1511	1521	1518	1522	1522	1534	1539	1541	1543	1543	1527	1525	1524	1519	1517	1537	1544	1551	1549	1541	1538	1542	1546	0	0	0	0	0	0	0	0	0	0	0	0	0	0	0	0	1513	1519	1523	1526	1523	1517	1479	1458	1461	1464	1468	1440	1440	1449	1464	1472	1477	1496	1498	1494	1479	1467	1464	1467	1477	1489	1492	1511	1515	1515	1510	1507	1508	1496	1491	1483	1481	1470	1461	1465	1474	1469	1473	1475	1484	1499	1492	1483	1476	1472	1460	1460	1474	1488	1490	1463	1463	1462	1476	1472	1473	1472	1474	1478	1466	1449	1437	1437	1452	1458	1458	1463	1457	1452	1451	1460	1470	1473	1471	1471	1471	1467	1460	1464	0	0	0	0	0
0	0	0	0	0	0	0	0	0	0	0	0	0	0	0	0	0	0	0	0	0	0	0	0	0	0	0	0	0	0	0	0	0	0	0	0	0	0	0	0	0	0	0	0	0	0	0	0	0	0	0	0	0	0	0	0	0	0	0	0	0	0	0	0	0	0	0	0	0	0	0	0	0	0	0	0	0	0	0	0	0	0	0	0	0	0	0	0	0	0	0	0	0	0	0	0	0	0	0	0	0	0	0	0	0	0	0	0	0	0	0	0	0	0	0	0	0	0	0	0	0	0	0	0	0	0	0	0	0	0	0	0	0	0	0	0	0	0	0	0	0	0	0	0	0	0	0	0	0	0	0	0	0	0	0	0	0	0	0	0	0	0	0	0	0	0	0	0	0	0	0	0	0	0	0	0	0	0	0	0	0	0	0	1421	1404	1412	1405	1400	1414	1417	1412	1409	1420	1422	1416	1409	1409	1418	1435	1439	1438	1425	1421	1418	1409	1388	1376	1381	1393	1410	1417	1413	1406	1408	1407	1386	1370	1379	1409	1413	1405	1377	1384	1391	1396	1389	1379	1372	1378	1377	1387	1391	1392	1391	1390	1394	1401	1410	1420	1409	1388	1384	1401	1409	1424	1429	1431	1435	1434	1425	1413	1401	1394	1391	1397	1404	1414	1413	1413	1411	1403	1400	1394	1398	1403	1400	1394	1399	1402	1403	1404	1403	1405	1407	1416	1421	1416	1404	1408	1399	1403	1406	1408	1407	1403	1400	1398	1393	1392	1399	1404	1405	1406	1428	1434	1428	1409	1418	1425	1433	1431	1427	1425	1426	1424	1416	1410	1416	1421	1407	1411	1410	1411	1419	1428	1435	1431	1418	1410	1409	1408	1413	1410	1406	1399	1399	1394	1400	1413	1421	1435	1446	1456	1468	1455	1422	1423	1444	1433	1434	1438	1427	1420	1432	0	0	0	1407	1406	1411	1430	1434	1440	1437	1437	1437	1436	1425	1426	1419	1414	1419	1427	1440	1445	1449	1431	1418	1408	1406	1411	1414	1412	1412	1433	1444	1436	1433	1429	1427	1434	1437	1439	1440	1448	1441	1422	1408	1409	1408	1415	1415	1414	1412	1408	1408	1413	1421	1425	1426	1427	1445	1467	1487	1494	1496	1482	1456	1429	1419	1415	1401	1407	1416	1430	1444	1458	1472	1461	1448	1427	1417	1411	1411	1409	1414	1435	1456	1462	1461	1455	1453	1460	1453	1451	1455	1445	1441	1435	1443	1455	1462	1463	1463	1463	1453	1447	1439	1424	1431	1424	1423	1435	1440	1447	1450	1446	1430	1432	1435	1439	1440	1432	1425	1431	1451	1477	1487	1491	1478	1471	1476	1477	1470	1455	1429	1418	1439	1475	1500	0	0	0	0	0	0	0	0	0	0	0	0	0	0	0	0	0	0	0	0	0	0	0	0	0	1511	1501	1514	1545	1552	1525	1511	1504	1516	1523	1525	1533	1543	1545	1542	1518	1506	1514	1516	1512	1510	1520	1530	1529	1529	1541	1534	1530	1521	1505	0	0	0	0	0	0	0	0	0	0	0	0	0	0	0	0	1502	1528	1539	1541	1537	1516	1491	1473	1473	1479	1473	1460	1445	1448	1469	1478	1488	1496	1500	1497	1489	1480	1472	1468	1474	1479	1482	1492	1510	1512	1512	1507	1508	1507	1502	1493	1489	1464	1465	1470	1482	1486	1484	1485	1487	1486	1489	1480	1476	1466	1459	1462	1476	1487	1476	1463	1463	1463	1466	1457	1468	1472	1474	1483	1476	1460	1436	1436	1459	1473	1473	1471	1464	1456	1458	1467	1479	1480	1477	1473	1467	1467	1466	1469	0	0	0	0	0
0	0	0	0	0	0	0	0	0	0	0	0	0	0	0	0	0	0	0	0	0	0	0	0	0	0	0	0	0	0	0	0	0	0	0	0	0	0	0	0	0	0	0	0	0	0	0	0	0	0	0	0	0	0	0	0	0	0	0	0	0	0	0	0	0	0	0	0	0	0	0	0	0	0	0	0	0	0	0	0	0	0	0	0	0	0	0	0	0	0	0	0	0	0	0	0	0	0	0	0	0	0	0	0	0	0	0	0	0	0	0	0	0	0	0	0	0	0	0	0	0	0	0	0	0	0	0	0	0	0	0	0	0	0	0	0	0	0	0	0	0	0	0	0	0	0	0	0	0	0	0	0	0	0	0	0	0	0	0	0	0	0	0	0	0	0	0	0	0	0	0	0	0	0	0	0	0	0	0	0	0	0	0	1427	1406	1409	1393	1382	1396	1401	1398	1397	1409	1406	1403	1384	1388	1392	1417	1438	1437	1430	1421	1406	1398	1381	1362	1370	1397	1415	1418	1417	1410	1406	1405	1384	1376	1387	1408	1413	1399	1377	1386	1396	1403	1398	1378	1370	1360	1357	1364	1376	1386	1392	1394	1395	1406	1417	1423	1412	1380	1387	1400	1416	1423	1429	1434	1435	1435	1424	1410	1398	1394	1392	1393	1401	1407	1410	1410	1409	1401	1386	1394	1397	1402	1399	1395	1391	1393	1390	1393	1406	1410	1417	1427	1431	1430	1427	1415	1415	1418	1423	1425	1425	1420	1409	1412	1402	1404	1407	1409	1410	1417	1440	1437	1428	1416	1417	1427	1432	1435	1427	1415	1421	1418	1413	1411	1411	1415	1409	1413	1416	1416	1419	1424	1435	1432	1423	1414	1409	1408	1406	1410	1410	1411	1400	1403	1410	1418	1432	1443	1456	1464	1470	1481	1428	1425	1433	1440	1431	1431	1430	1433	1435	0	0	0	1407	1404	1412	1428	1427	1426	1433	1431	1435	1426	1429	1423	1429	1429	1437	1441	1446	1441	1447	1438	1414	1411	1410	1417	1424	1417	1419	1420	1411	1437	1433	1433	1430	1428	1423	1419	1422	1445	1437	1419	1411	1410	1425	1432	1426	1419	1419	1401	1408	1416	1425	1437	1442	1447	1462	1474	1486	1486	1484	1472	1445	1429	1426	1423	1414	1415	1428	1442	1461	1466	1456	1441	1429	1415	1410	1415	1415	1415	1415	1416	1423	1432	1438	1449	1452	1449	1441	1434	1440	1430	1429	1432	1438	1449	1451	1434	1433	1430	1432	1435	1439	1438	1432	1440	1436	1451	1460	1457	1449	1442	1437	1430	1418	1420	1425	1427	1425	1427	1437	1454	1467	1478	1490	1491	1486	1481	1469	1449	1437	1426	1442	1467	1494	0	0	0	0	0	0	0	0	0	0	0	0	0	0	0	0	0	0	0	0	0	0	0	0	1520	1517	1508	1510	1543	1538	1521	1515	1518	1519	1525	1525	1540	1554	1557	1550	1532	1522	1514	1515	1507	1512	1521	1529	1522	1510	1509	1513	1511	1509	1485	0	0	0	0	0	0	0	0	0	0	0	0	0	0	0	0	0	1533	1544	1538	1524	1513	1501	1483	1481	1486	1478	1468	1457	1462	1471	1490	1496	1497	1494	1502	1506	1503	1494	1478	1467	1467	1480	1493	1505	1502	1486	1484	1484	1498	1503	1499	1487	1470	1464	1463	1475	1485	1487	1491	1484	1477	1474	1473	1474	1463	1450	1456	1472	1470	1472	1467	1458	1458	1455	1450	1459	1468	1486	1501	1493	1473	1445	1446	1455	1477	1482	1482	1472	1466	1465	1475	1476	1480	1476	1470	1472	1472	1472	1470	0	0	0	0	0
0	0	0	0	0	0	0	0	0	0	0	0	0	0	0	0	0	0	0	0	0	0	0	0	0	0	0	0	0	0	0	0	0	0	0	0	0	0	0	0	0	0	0	0	0	0	0	0	0	0	0	0	0	0	0	0	0	0	0	0	0	0	0	0	0	0	0	0	0	0	0	0	0	0	0	0	0	0	0	0	0	0	0	0	0	0	0	0	0	0	0	0	0	0	0	0	0	0	0	0	0	0	0	0	0	0	0	0	0	0	0	0	0	0	0	0	0	0	0	0	0	0	0	0	0	0	0	0	0	0	0	0	0	0	0	0	0	0	0	0	0	0	0	0	0	0	0	0	0	0	0	0	0	0	0	0	0	0	0	0	0	0	0	0	0	0	0	0	0	0	0	0	0	0	0	0	0	0	0	0	0	0	0	1421	1417	1404	1366	1370	1389	1401	1400	1399	1386	1398	1396	1380	1377	1376	1380	1393	1404	1415	1410	1403	1383	1368	1366	1389	1412	1432	1430	1429	1437	1442	1440	1431	1417	1411	1402	1391	1385	1391	1398	1408	1422	1410	1410	1413	1414	1407	1399	1390	1404	1421	1427	1425	1425	1424	1424	1426	1431	1435	1449	1442	1422	1411	1414	1418	1421	1421	1427	1424	1420	1407	1393	1399	1402	1405	1416	1417	1408	1390	1377	1388	1405	1412	1405	1393	1388	1383	1397	1407	1413	1427	1447	1455	1448	1439	1428	1427	1431	1438	1435	1409	1421	1428	1430	1421	1417	1418	1416	1417	1424	1421	1411	1407	1405	1417	1423	1425	1436	1434	1427	1422	1417	1422	1424	1423	1416	1415	1421	1420	1419	1423	1427	1438	1439	1431	1421	1415	1411	1405	1406	1416	1418	1408	1408	1417	1429	1447	1463	1463	1464	1465	1491	1460	1427	1426	1444	1442	1442	1427	1429	1424	1431	1427	1428	1422	1424	1430	1427	1421	1421	1430	0	0	0	1422	1425	1437	1442	1449	1453	1458	1440	1443	1434	1412	1414	1414	1422	1427	1416	1413	1415	1425	1423	1434	1441	1439	1425	1421	1417	1429	1434	1430	1435	1440	1444	1436	1440	1436	1431	1423	1414	1415	1426	1442	1451	1453	1455	1464	1468	1472	1471	1464	1454	1440	1434	1431	1428	1419	1425	1439	1456	1469	1468	1444	1432	1423	1413	1415	1419	1424	1427	1423	1418	1415	1419	1429	1448	1446	1445	1441	1443	1441	1423	1421	1429	1442	1453	1445	1432	1424	1423	1427	1432	1438	1445	1443	1444	1447	1456	1469	1458	1450	1451	1450	1441	1428	1426	1433	1437	1439	1427	1430	1446	1461	1465	1467	1474	1483	1485	1480	1445	1433	1436	1450	1470	1495	0	0	0	0	0	0	0	0	0	0	0	0	0	0	0	0	0	0	0	0	0	0	0	0	0	1526	1520	1510	1546	1538	1517	1513	1516	1521	1531	1538	1547	1561	1565	1555	1532	1522	1518	1503	1497	1508	1515	1527	1518	1500	1503	1504	1506	1506	1493	0	0	0	0	0	0	0	0	0	0	0	0	0	0	0	0	0	0	1523	1516	1500	1507	1511	1493	1482	1480	1480	1475	1471	1473	1490	1498	1504	1500	1498	1498	1510	1513	1511	1486	1468	1461	1470	1491	1502	1492	1480	1486	1492	1492	1497	1494	1472	1453	1447	1455	1466	1475	1484	1487	1480	1472	1467	1468	1468	1469	1453	1453	1456	1467	1472	1471	1459	1466	1466	1453	1452	1462	1487	1500	1500	1488	1471	1464	1467	1476	1481	1481	1478	1470	1470	1468	1472	1473	1471	1468	1469	1469	1475	1479	0	0	0	0	0
0	0	0	0	0	0	0	0	0	0	0	0	0	0	0	0	0	0	0	0	0	0	0	0	0	0	0	0	0	0	0	0	0	0	0	0	0	0	0	0	0	0	0	0	0	0	0	0	0	0	0	0	0	0	0	0	0	0	0	0	0	0	0	0	0	0	0	0	0	0	0	0	0	0	0	0	0	0	0	0	0	0	0	0	0	0	0	0	0	0	0	0	0	0	0	0	0	0	0	0	0	0	0	0	0	0	0	0	0	0	0	0	0	0	0	0	0	0	0	0	0	0	0	0	0	0	0	0	0	0	0	0	0	0	0	0	0	0	0	0	0	0	0	0	0	0	0	0	0	0	0	0	0	0	0	0	0	0	0	0	0	0	0	0	0	0	0	0	0	0	0	0	0	0	0	0	0	0	0	0	0	0	0	1401	1426	1398	1362	1365	1388	1404	1403	1398	1385	1395	1398	1390	1384	1387	1386	1387	1395	1393	1395	1401	1400	1390	1388	1400	1405	1408	1419	1422	1429	1437	1431	1415	1397	1388	1397	1399	1398	1408	1420	1428	1427	1424	1425	1431	1426	1415	1400	1396	1419	1437	1447	1437	1430	1417	1409	1413	1416	1413	1408	1393	1395	1403	1415	1422	1424	1423	1429	1434	1429	1424	1423	1425	1426	1416	1415	1420	1417	1409	1407	1407	1427	1440	1448	1444	1439	1435	1431	1434	1430	1425	1433	1439	1440	1432	1435	1433	1426	1423	1413	1419	1420	1428	1432	1424	1424	1420	1422	1423	1418	1418	1410	1410	1410	1423	1424	1424	1422	1428	1431	1418	1429	1432	1434	1439	1430	1422	1424	1423	1423	1429	1434	1443	1444	1441	1435	1429	1418	1408	1401	1411	1414	1413	1415	1426	1439	1458	1466	1474	1464	1459	1467	1460	1439	1425	1438	1444	1442	1441	1427	1428	1415	1437	1426	1415	1423	1423	1423	1421	1423	1418	0	0	0	1440	1421	1442	1454	1460	1465	1463	1461	1440	1424	1410	1416	1422	1428	1429	1419	1447	1419	1451	1441	1448	1446	1437	1431	1423	1437	1426	1428	1442	1440	1448	1453	1433	1439	1434	1429	1421	1428	1440	1446	1456	1459	1460	1456	1458	1457	1454	1452	1454	1453	1447	1436	1424	1418	1416	1425	1441	1462	1467	1460	1446	1436	1428	1422	1423	1426	1437	1432	1433	1427	1416	1414	1419	1433	1439	1442	1443	1448	1451	1440	1416	1424	1442	1452	1441	1424	1415	1420	1422	1427	1436	1440	1444	1444	1445	1438	1438	1444	1449	1448	1455	1449	1430	1424	1430	1439	1440	1437	1432	1442	1452	1454	1466	1469	1470	1480	1471	1451	1440	1452	1465	1476	1482	0	0	0	0	0	0	0	0	0	0	0	0	0	0	0	0	0	0	0	0	0	0	0	0	0	1531	1521	1506	1529	1563	1533	1517	1516	1523	1546	1540	1542	1556	1555	1543	1535	1526	1518	1506	1496	1495	1506	1519	1506	1500	1495	1496	1499	1500	1484	0	0	0	0	0	0	0	0	0	0	0	0	0	0	0	0	0	0	0	1507	1483	1489	1500	1485	1478	1477	1473	1469	1471	1478	1498	1499	1497	1491	1494	1488	1492	1499	1505	1500	1491	1479	1478	1489	1496	1498	1486	1481	1475	1473	1473	1466	1458	1449	1443	1449	1456	1464	1471	1475	1481	1482	1473	1469	1466	1470	1454	1446	1469	1468	1464	1456	1455	1456	1456	1455	1450	1459	1476	1494	1500	1489	1478	1470	1471	1474	1469	1469	1470	1466	1461	1462	1469	1473	1472	1464	1470	1474	1474	1478	0	0	0	0	0
0	0	0	0	0	0	0	0	0	0	0	0	0	0	0	0	0	0	0	0	0	0	0	0	0	0	0	0	0	0	0	0	0	0	0	0	0	0	0	0	0	0	0	0	0	0	0	0	0	0	0	0	0	0	0	0	0	0	0	0	0	0	0	0	0	0	0	0	0	0	0	0	0	0	0	0	0	0	0	0	0	0	0	0	0	0	0	0	0	0	0	0	0	0	0	0	0	0	0	0	0	0	0	0	0	0	0	0	0	0	0	0	0	0	0	0	0	0	0	0	0	0	0	0	0	0	0	0	0	0	0	0	0	0	0	0	0	0	0	0	0	0	0	0	0	0	0	0	0	0	0	0	0	0	0	0	0	0	0	0	0	0	0	0	0	0	0	0	0	0	0	0	0	0	0	0	0	0	0	0	0	0	0	1388	1409	1381	1347	1368	1391	1403	1401	1394	1394	1399	1398	1392	1392	1398	1403	1398	1377	1370	1380	1406	1411	1405	1404	1414	1410	1409	1408	1415	1419	1422	1417	1403	1386	1384	1394	1396	1403	1411	1436	1441	1439	1435	1431	1430	1420	1401	1390	1402	1430	1444	1450	1440	1430	1415	1410	1409	1410	1401	1391	1392	1396	1408	1418	1423	1423	1427	1432	1433	1430	1429	1423	1424	1415	1413	1414	1421	1421	1412	1415	1425	1440	1447	1451	1449	1443	1436	1432	1422	1411	1419	1426	1433	1439	1439	1435	1427	1424	1424	1422	1426	1431	1438	1431	1432	1425	1425	1426	1433	1432	1423	1412	1412	1414	1426	1428	1420	1415	1416	1423	1433	1435	1438	1447	1452	1438	1425	1420	1426	1424	1432	1434	1432	1439	1440	1443	1440	1428	1420	1412	1416	1423	1430	1433	1439	1447	1447	1468	1482	1461	1445	1439	1448	1444	1433	1431	1434	1440	1433	1412	1422	1426	1422	1427	1437	1433	1428	1419	1420	1421	1424	1437	1439	1444	1437	1427	1418	1449	1467	1467	1462	1459	1442	1426	1422	1426	1430	1436	1427	1414	1419	1450	1448	1445	1448	1442	1446	1444	1444	1440	1440	1442	1425	1423	1430	1426	1426	1436	1435	1434	1429	1435	1451	1460	1458	1451	1455	1448	1443	1438	1436	1443	1450	1461	1457	1434	1421	1412	1413	1421	1443	1454	1457	1446	1431	1428	1432	1422	1427	1428	1430	1436	1436	1429	1417	1411	1412	1423	1437	1441	1442	1451	1457	1449	1422	1421	1433	1437	1428	1427	1425	1427	1434	1430	1430	1431	1431	1439	1435	1431	1428	1431	1438	1451	1459	1450	1433	1416	1423	1433	1438	1427	1431	1436	1439	1443	1448	1453	1459	1467	1467	1467	1453	1459	1470	1478	1476	1490	0	0	0	0	0	0	0	0	0	0	0	0	0	0	0	0	0	0	0	0	0	0	0	0	1518	1509	1499	1530	1558	1550	1543	1536	1536	1537	1534	1539	1539	1543	1537	1535	1529	1524	1506	1496	1493	1496	1507	1514	1512	1503	1504	1503	1502	1491	0	0	0	0	0	0	0	0	0	0	0	0	0	0	0	0	0	0	0	1507	1485	1481	1484	1473	1470	1462	1466	1462	1467	1469	1488	1486	1489	1492	1494	1487	1485	1493	1504	1503	1495	1486	1480	1477	1486	1488	1496	1479	1476	1465	1455	1455	1447	1444	1447	1453	1454	1455	1461	1472	1492	1489	1480	1466	1455	1444	1457	1473	1475	1468	1463	1455	1452	1468	1465	1465	1462	1463	1474	1485	1481	1478	1472	1473	1476	1471	1457	1456	1456	1451	1453	1462	1476	1478	1478	1474	1468	1473	1475	1476	0	0	0	0	0
0	0	0	0	0	0	0	0	0	0	0	0	0	0	0	0	0	0	0	0	0	0	0	0	0	0	0	0	0	0	0	0	0	0	0	0	0	0	0	0	0	0	0	0	0	0	0	0	0	0	0	0	0	0	0	0	0	0	0	0	0	0	0	0	0	0	0	0	0	0	0	0	0	0	0	0	0	0	0	0	0	0	0	0	0	0	0	0	0	0	0	0	0	0	0	0	0	0	0	0	0	0	0	0	0	0	0	0	0	0	0	0	0	0	0	0	0	0	0	0	0	0	0	0	0	0	0	0	0	0	0	0	0	0	0	0	0	0	0	0	0	0	0	0	0	0	0	0	0	0	0	0	0	0	0	0	0	0	0	0	0	0	0	0	0	0	0	0	0	0	0	0	0	0	0	0	0	0	0	0	0	0	0	1398	1387	1366	1359	1373	1378	1380	1393	1398	1405	1396	1390	1389	1394	1408	1413	1405	1384	1373	1391	1404	1405	1409	1414	1420	1416	1417	1414	1412	1413	1410	1407	1394	1383	1382	1386	1392	1396	1414	1428	1434	1439	1439	1438	1432	1423	1407	1409	1412	1427	1438	1440	1434	1426	1413	1405	1400	1406	1392	1390	1396	1405	1412	1425	1431	1433	1427	1424	1430	1429	1425	1418	1416	1414	1413	1414	1424	1432	1430	1432	1433	1442	1445	1442	1441	1441	1440	1430	1413	1402	1402	1414	1428	1437	1441	1437	1434	1427	1426	1425	1436	1443	1441	1434	1427	1425	1425	1433	1441	1445	1439	1417	1412	1425	1433	1431	1422	1413	1406	1415	1431	1441	1449	1460	1441	1427	1416	1418	1420	1426	1426	1420	1415	1419	1427	1436	1442	1438	1428	1425	1431	1437	1443	1449	1454	1451	1449	1458	1487	1455	1444	1427	1444	1449	1439	1431	1437	1417	1428	1419	1418	1420	1424	1431	1427	1428	1423	1421	1421	1424	1429	1440	1439	1445	1444	1437	1425	1423	1446	1457	1455	1454	1444	1430	1433	1435	1440	1446	1449	1434	1423	1433	1432	1432	1431	1436	1448	1455	1451	1439	1425	1421	1416	1416	1411	1406	1422	1441	1445	1441	1441	1448	1455	1456	1451	1447	1441	1437	1429	1431	1434	1441	1450	1461	1456	1441	1427	1417	1423	1421	1434	1443	1445	1437	1429	1430	1430	1427	1433	1429	1427	1432	1436	1433	1419	1413	1416	1425	1439	1443	1444	1444	1452	1457	1440	1423	1428	1438	1436	1433	1434	1439	1444	1441	1430	1426	1416	1425	1430	1423	1421	1422	1435	1449	1450	1448	1433	1424	1424	1429	1435	1429	1426	1435	1433	1438	1442	1445	1451	1456	1456	1449	1447	1455	1461	1468	1473	1471	0	0	0	0	0	0	0	0	0	0	0	0	0	0	0	0	0	0	0	0	0	0	0	0	1524	1517	1507	1525	1542	1543	1542	1539	1531	1520	1520	1524	1541	1533	1531	1537	1545	1537	1518	1500	1500	1498	1508	1519	1525	1523	1527	1521	1529	1509	0	0	0	0	0	0	0	0	0	0	0	0	0	0	0	0	0	0	1506	1504	1485	1461	1455	1452	1443	1448	1456	1459	1455	1457	1462	1459	1464	1476	1487	1489	1486	1492	1511	1515	1506	1489	1473	1460	1468	1491	1507	1503	1486	1470	1454	1454	1449	1445	1447	1456	1457	1457	1460	1470	1492	1491	1480	1461	1442	1444	1467	1476	1476	1479	1469	1463	1460	1463	1463	1463	1461	1468	1477	1463	1464	1466	1469	1472	1477	1471	1461	1452	1452	1442	1450	1462	1479	1485	1487	1482	1476	1475	1480	1476	0	0	0	0	0
0	0	0	0	0	0	0	0	0	0	0	0	0	0	0	0	0	0	0	0	0	0	0	0	0	0	0	0	0	0	0	0	0	0	0	0	0	0	0	0	0	0	0	0	0	0	0	0	0	0	0	0	0	0	0	0	0	0	0	0	0	0	0	0	0	0	0	0	0	0	0	0	0	0	0	0	0	0	0	0	0	0	0	0	0	0	0	0	0	0	0	0	0	0	0	0	0	0	0	0	0	0	0	0	0	0	0	0	0	0	0	0	0	0	0	0	0	0	0	0	0	0	0	0	0	0	0	0	0	0	0	0	0	0	0	0	0	0	0	0	0	0	0	0	0	0	0	0	0	0	0	0	0	0	0	0	0	0	0	0	0	0	0	0	0	0	0	0	0	0	0	0	0	0	0	0	0	0	0	0	0	0	0	1428	1374	1363	1367	1369	1380	1390	1398	1413	1415	1403	1390	1384	1396	1412	1419	1405	1391	1385	1401	1411	1408	1413	1412	1413	1422	1417	1415	1414	1416	1410	1396	1393	1390	1393	1395	1399	1399	1412	1421	1428	1433	1440	1443	1432	1421	1413	1410	1414	1422	1429	1428	1424	1414	1407	1397	1401	1402	1397	1394	1403	1406	1414	1429	1438	1437	1432	1422	1413	1413	1415	1416	1414	1416	1416	1419	1427	1436	1436	1433	1441	1433	1424	1420	1425	1433	1435	1428	1413	1411	1410	1418	1430	1436	1439	1439	1440	1433	1427	1425	1428	1439	1434	1434	1430	1425	1426	1436	1448	1454	1450	1424	1425	1430	1435	1430	1418	1409	1401	1401	1403	1411	1420	1427	1425	1419	1409	1413	1418	1420	1419	1416	1414	1410	1413	1417	1431	1432	1427	1438	1448	1455	1460	1463	1468	1463	1452	1449	1478	1461	1453	1432	1453	1494	1435	1442	1434	1434	1419	1426	1425	1427	1429	1430	1431	1424	1414	1406	1407	1419	1442	1456	1443	1456	1446	1437	1436	1426	1434	1442	1441	1454	1438	1439	1447	1451	1445	1453	1455	1449	1437	1417	1418	1419	1426	1433	1446	1456	1445	1435	1418	1417	1420	1417	1410	1411	1422	1445	1455	1457	1453	1461	1465	1460	1445	1446	1446	1435	1431	1433	1431	1441	1456	1461	1455	1442	1426	1428	1426	1428	1432	1442	1445	1443	1446	1449	1450	1447	1439	1428	1429	1434	1438	1432	1424	1423	1432	1443	1448	1458	1459	1453	1453	1449	1450	1431	1440	1446	1450	1446	1442	1445	1444	1438	1434	1426	1439	1435	1434	1426	1423	1424	1433	1442	1447	1442	1436	1444	1446	1444	1439	1443	1447	1446	1441	1439	1449	1452	1454	1455	1450	1439	1442	1451	1457	1471	1472	1461	0	0	0	0	0	0	0	0	0	0	0	0	0	0	0	0	0	0	0	0	0	0	0	0	1545	1531	1525	1512	1536	1539	1539	1540	1531	1531	1538	1545	1519	1524	1535	1547	1556	1556	1528	1509	1504	1503	1514	1520	1538	1542	1551	1553	1543	1531	0	0	0	0	0	0	0	0	0	0	0	0	0	0	0	0	0	1484	1491	1503	1481	1460	1449	1438	1442	1447	1456	1460	1456	1451	1444	1448	1460	1482	1490	1486	1486	1490	1509	1515	1505	1493	1479	1467	1468	1490	1507	1511	1496	1481	1467	1456	1456	1451	1458	1464	1472	1470	1471	1478	1483	1473	1461	1456	1459	1454	1457	1468	1472	1463	1465	1471	1472	1464	1464	1464	1471	1477	1479	1449	1447	1458	1465	1467	1470	1470	1463	1458	1453	1453	1457	1468	1472	1483	1486	1479	1477	1480	1479	1479	0	0	0	0	0
0	0	0	0	0	0	0	0	0	0	0	0	0	0	0	0	0	0	0	0	0	0	0	0	0	0	0	0	0	0	0	0	0	0	0	0	0	0	0	0	0	0	0	0	0	0	0	0	0	0	0	0	0	0	0	0	0	0	0	0	0	0	0	0	0	0	0	0	0	0	0	0	0	0	0	0	0	0	0	0	0	0	0	0	0	0	0	0	0	0	0	0	0	0	0	0	0	0	0	0	0	0	0	0	0	0	0	0	0	0	0	0	0	0	0	0	0	0	0	0	0	0	0	0	0	0	0	0	0	0	0	0	0	0	0	0	0	0	0	0	0	0	0	0	0	0	0	0	0	0	0	0	0	0	0	0	0	0	0	0	0	0	0	0	0	0	0	0	0	0	0	0	0	0	0	0	0	0	0	0	0	0	0	1454	1393	1375	1390	1383	1393	1405	1416	1425	1424	1407	1393	1388	1399	1413	1421	1412	1399	1401	1420	1417	1408	1411	1413	1414	1406	1412	1410	1418	1413	1416	1405	1397	1399	1406	1416	1408	1409	1411	1419	1428	1429	1434	1435	1426	1418	1409	1407	1404	1412	1414	1413	1413	1410	1407	1402	1408	1407	1404	1405	1400	1406	1414	1427	1436	1440	1429	1417	1404	1405	1406	1413	1418	1424	1428	1430	1436	1441	1431	1433	1434	1427	1417	1419	1423	1430	1436	1437	1429	1422	1421	1424	1430	1435	1435	1434	1433	1434	1425	1421	1418	1425	1437	1441	1437	1432	1430	1437	1447	1452	1453	1435	1434	1436	1434	1424	1416	1411	1408	1406	1408	1415	1421	1426	1424	1416	1408	1410	1420	1423	1422	1421	1415	1409	1405	1404	1413	1425	1430	1443	1457	1463	1464	1461	1470	1455	1452	1441	1455	1445	1445	1428	1462	1498	1455	1434	1435	1447	1448	1439	1452	1450	1445	1442	1435	1435	1423	1418	1413	1415	1427	1451	1456	1448	1447	1447	1437	1425	1430	1430	1437	1432	1431	1436	1443	1450	1447	1448	1446	1445	1440	1422	1416	1419	1423	1431	1436	1434	1427	1419	1419	1424	1426	1424	1419	1417	1429	1444	1461	1470	1471	1468	1465	1456	1447	1441	1445	1438	1429	1428	1429	1432	1438	1443	1452	1443	1437	1435	1437	1440	1440	1445	1447	1448	1452	1456	1460	1460	1449	1445	1438	1436	1442	1443	1440	1452	1455	1455	1456	1463	1458	1459	1461	1453	1442	1430	1434	1440	1446	1449	1446	1440	1438	1437	1438	1454	1459	1457	1451	1444	1440	1438	1436	1442	1443	1444	1451	1458	1456	1455	1460	1467	1464	1462	1456	1450	1453	1452	1449	1450	1448	1438	1429	1438	1463	1473	1479	1468	1491	0	0	0	0	0	0	0	0	0	0	0	0	0	0	0	0	0	0	0	0	0	0	0	1563	1542	1535	1532	1530	1533	1537	1543	1537	1528	1511	1502	1506	1522	1543	1550	1558	1552	1534	1511	1503	1497	1515	1516	1525	1545	1555	1563	1546	1537	0	0	0	0	0	0	0	0	0	0	0	0	0	0	0	0	0	0	1492	1500	1491	1469	1466	1447	1451	1461	1479	1476	1459	1447	1446	1451	1471	1484	1484	1476	1477	1488	1499	1504	1508	1514	1513	1499	1491	1501	1507	1523	1516	1496	1485	1474	1470	1470	1466	1474	1477	1473	1468	1472	1475	1464	1455	1451	1451	1456	1463	1470	1471	1471	1475	1478	1480	1479	1476	1479	1479	1488	1483	1458	1448	1460	1466	1469	1472	1479	1476	1470	1469	1469	1474	1467	1465	1473	1468	1469	1471	1481	1479	1479	0	0	0	0	0
0	0	0	0	0	0	0	0	0	0	0	0	0	0	0	0	0	0	0	0	0	0	0	0	0	0	0	0	0	0	0	0	0	0	0	0	0	0	0	0	0	0	0	0	0	0	0	0	0	0	0	0	0	0	0	0	0	0	0	0	0	0	0	0	0	0	0	0	0	0	0	0	0	0	0	0	0	0	0	0	0	0	0	0	0	0	0	0	0	0	0	0	0	0	0	0	0	0	0	0	0	0	0	0	0	0	0	0	0	0	0	0	0	0	0	0	0	0	0	0	0	0	0	0	0	0	0	0	0	0	0	0	0	0	0	0	0	0	0	0	0	0	0	0	0	0	0	0	0	0	0	0	0	0	0	0	0	0	0	0	0	0	0	0	0	0	0	0	0	0	0	0	0	0	0	0	0	0	0	0	0	0	0	1480	1433	1404	1419	1415	1411	1419	1430	1432	1423	1410	1403	1400	1402	1416	1423	1411	1396	1418	1424	1422	1415	1414	1415	1416	1411	1408	1389	1389	1401	1407	1406	1401	1402	1414	1426	1418	1407	1409	1413	1424	1430	1430	1433	1427	1424	1411	1404	1405	1406	1406	1406	1408	1410	1411	1414	1422	1419	1409	1410	1403	1405	1414	1423	1432	1434	1429	1413	1399	1397	1405	1422	1432	1432	1434	1433	1434	1441	1436	1430	1429	1427	1426	1427	1450	1452	1448	1445	1439	1430	1423	1422	1429	1434	1432	1435	1431	1430	1427	1422	1419	1430	1442	1450	1449	1439	1431	1434	1437	1445	1444	1438	1432	1437	1436	1427	1421	1416	1416	1414	1408	1415	1423	1426	1426	1422	1423	1424	1430	1437	1437	1431	1426	1416	1407	1401	1409	1424	1438	1444	1460	1464	1460	1460	1437	1458	1426	1419	1438	1429	1431	1426	1465	1498	1482	1444	1446	1453	1463	1475	1477	1464	1451	1445	1442	1437	1435	1429	1428	1429	1430	1449	1460	1456	1445	1431	1429	1432	1434	1434	1432	1421	1419	1433	1437	1448	1444	1441	1438	1443	1440	1428	1415	1419	1421	1427	1430	1425	1414	1407	1412	1424	1432	1431	1428	1423	1429	1445	1458	1466	1467	1462	1458	1451	1443	1440	1441	1438	1433	1429	1432	1428	1428	1433	1443	1454	1454	1453	1448	1448	1450	1442	1439	1444	1456	1468	1470	1469	1467	1462	1453	1449	1449	1452	1461	1463	1466	1462	1453	1452	1455	1459	1459	1453	1444	1428	1425	1428	1437	1444	1446	1436	1438	1430	1446	1461	1455	1448	1446	1452	1451	1450	1448	1444	1444	1446	1449	1458	1461	1462	1468	1480	1481	1477	1462	1447	1441	1446	1445	1454	1450	1440	1427	1432	1455	1468	1467	1474	1486	0	0	0	0	0	0	0	0	0	0	0	0	0	0	0	0	0	0	0	0	0	0	0	1556	1547	1534	1536	1532	1528	1533	1539	1534	1515	1499	1490	1507	1526	1547	1555	1549	1542	1522	1504	1498	1503	1517	1521	1514	1516	1549	1555	1550	1526	0	0	0	0	0	0	0	0	0	0	0	0	0	0	0	0	0	0	1497	1510	1494	1484	1480	1464	1465	1485	1491	1499	1488	1481	1473	1483	1484	1486	1479	1485	1474	1488	1495	1501	1517	1529	1542	1530	1529	1513	1514	1522	1514	1505	1494	1484	1478	1470	1470	1472	1472	1469	1465	1471	1462	1447	1428	1453	1462	1471	1478	1484	1489	1484	1479	1482	1481	1481	1485	1488	1488	1497	1499	1485	1467	1472	1474	1480	1483	1484	1481	1478	1478	1478	1477	1474	1469	1470	1460	1455	1459	1456	1473	1473	0	0	0	0	0
0	0	0	0	0	0	0	0	0	0	0	0	0	0	0	0	0	0	0	0	0	0	0	0	0	0	0	0	0	0	0	0	0	0	0	0	0	0	0	0	0	0	0	0	0	0	0	0	0	0	0	0	0	0	0	0	0	0	0	0	0	0	0	0	0	0	0	0	0	0	0	0	0	0	0	0	0	0	0	0	0	0	0	0	0	0	0	0	0	0	0	0	0	0	0	0	0	0	0	0	0	0	0	0	0	0	0	0	0	0	0	0	0	0	0	0	0	0	0	0	0	0	0	0	0	0	0	0	0	0	0	0	0	0	0	0	0	0	0	0	0	0	0	0	0	0	0	0	0	0	0	0	0	0	0	0	0	0	0	0	0	0	0	0	0	0	0	0	0	0	0	0	0	0	0	0	0	0	0	0	0	0	0	1477	1444	1437	1439	1433	1426	1430	1426	1426	1421	1416	1408	1409	1408	1422	1422	1415	1414	1425	1428	1425	1415	1413	1411	1421	1423	1407	1388	1377	1386	1396	1400	1398	1404	1415	1422	1411	1403	1405	1408	1421	1428	1430	1433	1429	1424	1414	1405	1408	1412	1417	1412	1412	1411	1421	1430	1433	1423	1416	1410	1416	1416	1418	1424	1425	1426	1420	1412	1411	1411	1423	1435	1442	1439	1435	1432	1433	1424	1426	1425	1432	1434	1442	1450	1452	1454	1453	1450	1444	1433	1413	1404	1412	1426	1436	1434	1432	1428	1434	1438	1438	1431	1443	1447	1447	1426	1424	1428	1435	1443	1435	1432	1429	1433	1437	1432	1424	1419	1419	1414	1409	1415	1424	1427	1433	1433	1433	1432	1436	1447	1449	1437	1440	1427	1418	1415	1415	1429	1437	1454	1463	1464	1464	1442	1440	1437	1422	1408	1425	1424	1427	1435	1470	1490	1480	1464	1456	1457	1468	1479	1473	1459	1449	1439	1431	1432	1434	1431	1431	1426	1422	1425	1431	1420	1415	1414	1422	1434	1438	1438	1435	1426	1420	1429	1434	1448	1446	1434	1436	1440	1444	1432	1423	1418	1418	1412	1419	1421	1414	1403	1408	1422	1438	1440	1436	1429	1429	1442	1453	1462	1459	1457	1449	1452	1438	1441	1445	1440	1436	1435	1435	1432	1427	1426	1437	1452	1466	1474	1463	1459	1460	1453	1436	1443	1456	1472	1477	1480	1478	1475	1465	1460	1456	1455	1458	1467	1468	1458	1449	1445	1444	1450	1452	1450	1440	1429	1418	1419	1433	1443	1446	1439	1435	1435	1449	1461	1468	1456	1449	1445	1460	1464	1460	1452	1439	1440	1448	1456	1460	1466	1475	1470	1467	1460	1452	1441	1432	1436	1432	1441	1451	1439	1428	1431	1453	1453	1468	1467	1492	0	0	0	0	0	0	0	0	0	0	0	0	0	0	0	0	0	0	0	0	0	0	0	1547	1533	1529	1524	1528	1529	1536	1539	1536	1526	1502	1495	1510	1533	1551	1552	1524	1515	1498	1497	1494	1506	1514	1518	1511	1512	1515	1535	1541	1536	0	0	0	0	0	0	0	0	0	0	0	0	0	0	0	0	0	0	0	1515	1505	1491	1485	1478	1482	1491	1501	1504	1504	1504	1493	1491	1493	1488	1481	1476	1479	1486	1486	1495	1512	1534	1543	1550	1543	1531	1520	1514	1498	1484	1485	1483	1482	1479	1474	1474	1471	1469	1469	1476	1468	1452	1499	1483	1489	1490	1488	1500	1499	1492	1479	1465	1460	1467	1474	1488	1498	1498	1504	1503	1490	1484	1479	1480	1476	1480	1483	1478	1473	1472	1472	1470	1467	1457	1455	1444	1448	1444	1457	0	0	0	0	0	0
0	0	0	0	0	0	0	0	0	0	0	0	0	0	0	0	0	0	0	0	0	0	0	0	0	0	0	0	0	0	0	0	0	0	0	0	0	0	0	0	0	0	0	0	0	0	0	0	0	0	0	0	0	0	0	0	0	0	0	0	0	0	0	0	0	0	0	0	0	0	0	0	0	0	0	0	0	0	0	0	0	0	0	0	0	0	0	0	0	0	0	0	0	0	0	0	0	0	0	0	0	0	0	0	0	0	0	0	0	0	0	0	0	0	0	0	0	0	0	0	0	0	0	0	0	0	0	0	0	0	0	0	0	0	0	0	0	0	0	0	0	0	0	0	0	0	0	0	0	0	0	0	0	0	0	0	0	0	0	0	0	0	0	0	0	0	0	0	0	0	0	0	0	0	0	0	0	0	0	0	0	0	0	1436	1437	1442	1445	1436	1424	1432	1427	1420	1418	1415	1415	1415	1419	1425	1422	1415	1418	1430	1428	1417	1412	1408	1411	1418	1421	1405	1384	1380	1382	1389	1395	1400	1407	1418	1423	1411	1408	1398	1401	1405	1411	1421	1430	1425	1416	1412	1404	1410	1421	1428	1422	1420	1422	1425	1429	1431	1427	1417	1419	1421	1424	1426	1421	1421	1425	1418	1413	1417	1424	1431	1446	1447	1445	1436	1429	1422	1418	1423	1423	1415	1419	1437	1444	1446	1446	1446	1448	1442	1424	1406	1405	1408	1419	1429	1431	1429	1432	1440	1444	1444	1443	1435	1438	1424	1419	1424	1430	1438	1437	1431	1425	1424	1429	1434	1433	1422	1422	1424	1428	1420	1426	1428	1428	1432	1438	1440	1439	1433	1444	1447	1436	1435	1425	1426	1422	1427	1438	1447	1458	1469	1475	1472	1461	1442	1416	1409	1405	1422	1426	1433	1436	1483	1461	1474	1460	1452	1454	1460	1468	1461	1453	1441	1426	1418	1419	1420	1422	1424	1421	1415	1416	1414	1415	1419	1433	1434	1441	1442	1440	1432	1433	1424	1434	1435	1446	1444	1436	1432	1440	1445	1438	1426	1416	1413	1400	1413	1419	1414	1412	1411	1419	1437	1449	1446	1434	1421	1426	1445	1448	1453	1455	1456	1446	1437	1441	1455	1457	1452	1447	1449	1440	1432	1430	1431	1443	1458	1466	1461	1461	1459	1456	1441	1448	1464	1476	1484	1485	1489	1482	1474	1467	1462	1457	1461	1466	1464	1456	1444	1432	1431	1438	1447	1450	1442	1442	1427	1423	1433	1441	1445	1444	1439	1440	1454	1459	1463	1454	1455	1450	1458	1472	1469	1457	1446	1440	1453	1457	1459	1459	1472	1467	1460	1452	1448	1444	1438	1443	1450	1459	1451	1442	1430	1432	1448	1454	1459	1464	1494	0	0	0	0	0	0	0	0	0	0	0	0	0	0	0	0	0	0	0	0	0	0	0	1549	1538	1538	1536	1534	1528	1536	1538	1534	1534	1517	1513	1525	1540	1543	1539	1501	1483	1484	1484	1492	1499	1506	1516	1507	1513	1533	1549	1551	1565	0	0	0	0	0	0	0	0	0	0	0	0	0	0	0	0	0	0	0	1512	1488	1499	1493	1488	1485	1494	1503	1510	1507	1507	1501	1502	1503	1492	1475	1465	1476	1478	1478	1484	1493	1510	1516	1523	1524	1522	1509	1495	1484	1473	1472	1477	1486	1485	1479	1479	1464	1469	1480	1490	1490	1499	1503	1501	1502	1494	1490	1495	1496	1483	1470	1457	1447	1452	1461	1479	1494	1494	1499	1497	1490	1480	1470	1453	1456	1465	1470	1475	1464	1457	1457	1452	1452	1458	1459	1444	1444	1446	1463	0	0	0	0	0	0
0	0	0	0	0	0	0	0	0	0	0	0	0	0	0	0	0	0	0	0	0	0	0	0	0	0	0	0	0	0	0	0	0	0	0	0	0	0	0	0	0	0	0	0	0	0	0	0	0	0	0	0	0	0	0	0	0	0	0	0	0	0	0	0	0	0	0	0	0	0	0	0	0	0	0	0	0	0	0	0	0	0	0	0	0	0	0	0	0	0	0	0	0	0	0	0	0	0	0	0	0	0	0	0	0	0	0	0	0	0	0	0	0	0	0	0	0	0	0	0	0	0	0	0	0	0	0	0	0	0	0	0	0	0	0	0	0	0	0	0	0	0	0	0	0	0	0	0	0	0	0	0	0	0	0	0	0	0	0	0	0	0	0	0	0	0	0	0	0	0	0	0	0	0	0	0	0	0	0	0	0	0	0	1408	1421	1439	1442	1423	1419	1427	1420	1411	1409	1415	1420	1422	1425	1423	1414	1414	1416	1431	1423	1412	1402	1402	1406	1405	1407	1396	1388	1384	1389	1396	1400	1409	1415	1427	1426	1412	1406	1405	1403	1399	1408	1424	1424	1407	1402	1393	1395	1411	1425	1429	1421	1418	1418	1419	1427	1432	1427	1428	1424	1420	1419	1426	1422	1421	1423	1422	1417	1418	1422	1429	1440	1449	1444	1438	1430	1421	1422	1419	1419	1413	1418	1430	1439	1436	1434	1429	1439	1429	1425	1413	1409	1409	1418	1427	1426	1418	1427	1432	1441	1443	1437	1427	1418	1418	1416	1426	1435	1448	1448	1443	1434	1426	1424	1426	1424	1420	1424	1431	1440	1439	1437	1434	1428	1429	1428	1436	1432	1429	1429	1433	1425	1425	1425	1413	1422	1428	1436	1444	1458	1461	1470	1466	1451	1433	1418	1416	1414	1420	1435	1440	1452	1459	1471	1452	1444	1436	1434	1445	1460	1469	1467	1459	1440	1431	1429	1431	1435	1433	1424	1430	1432	1440	1454	1454	1453	1462	1467	1457	1443	1426	1424	1433	1437	1445	1448	1439	1432	1431	1449	1467	1471	1454	1421	1398	1403	1412	1418	1420	1428	1442	1440	1458	1461	1457	1438	1420	1405	1414	1432	1452	1458	1455	1449	1454	1456	1467	1464	1461	1458	1458	1456	1442	1432	1424	1424	1428	1435	1444	1446	1454	1456	1463	1458	1473	1481	1478	1485	1492	1486	1479	1466	1461	1463	1463	1468	1464	1452	1437	1429	1421	1435	1445	1453	1451	1445	1436	1431	1435	1442	1443	1437	1442	1446	1451	1457	1460	1463	1465	1470	1476	1483	1484	1472	1454	1448	1460	1460	1462	1461	1458	1463	1458	1458	1458	1447	1444	1448	1456	1468	1469	1456	1432	1436	1448	1457	1471	1482	1498	0	0	0	0	0	0	0	0	0	0	0	0	0	0	0	0	0	0	0	0	0	0	0	1574	1568	1569	1557	1543	1533	1531	1533	1537	1537	1531	1533	1544	1546	1539	1522	1495	1487	1481	1483	1482	1489	1498	1507	1517	1537	1553	1553	1552	0	0	0	0	0	0	0	0	0	0	0	0	0	0	0	0	0	0	0	0	0	1483	1494	1496	1486	1485	1486	1503	1509	1508	1504	1505	1513	1509	1499	1478	1467	1474	1475	1476	1480	1486	1481	1478	1477	1474	1479	1484	1486	1478	1469	1469	1477	1491	1493	1493	1485	1485	1487	1498	1504	1508	1502	1499	1492	1478	1471	1476	1483	1483	1482	1469	1460	1460	1461	1463	1474	1479	1489	1489	1483	1480	1473	1462	1458	1450	1460	1470	1473	1466	1458	1458	1459	1468	1471	1468	1463	1467	1461	1467	0	0	0	0	0	0
0	0	0	0	0	0	0	0	0	0	0	0	0	0	0	0	0	0	0	0	0	0	0	0	0	0	0	0	0	0	0	0	0	0	0	0	0	0	0	0	0	0	0	0	0	0	0	0	0	0	0	0	0	0	0	0	0	0	0	0	0	0	0	0	0	0	0	0	0	0	0	0	0	0	0	0	0	0	0	0	0	0	0	0	0	0	0	0	0	0	0	0	0	0	0	0	0	0	0	0	0	0	0	0	0	0	0	0	0	0	0	0	0	0	0	0	0	0	0	0	0	0	0	0	0	0	0	0	0	0	0	0	0	0	0	0	0	0	0	0	0	0	0	0	0	0	0	0	0	0	0	0	0	0	0	0	0	0	0	0	0	0	0	0	0	0	0	0	0	0	0	0	0	0	0	0	0	0	0	0	0	0	0	1385	1415	1438	1431	1429	1429	1425	1414	1403	1400	1416	1422	1424	1425	1417	1411	1404	1416	1421	1420	1414	1404	1393	1386	1391	1391	1389	1387	1391	1396	1402	1414	1422	1428	1425	1420	1410	1407	1407	1405	1411	1423	1427	1420	1406	1390	1382	1387	1414	1429	1435	1413	1410	1424	1427	1432	1436	1439	1439	1436	1423	1423	1418	1417	1419	1416	1419	1414	1411	1410	1419	1427	1438	1437	1440	1441	1436	1428	1423	1422	1424	1426	1431	1430	1432	1429	1422	1423	1429	1420	1414	1413	1413	1418	1420	1412	1414	1424	1433	1452	1446	1437	1428	1424	1416	1418	1424	1441	1449	1454	1451	1440	1433	1424	1423	1421	1420	1424	1431	1444	1450	1443	1435	1422	1415	1420	1424	1424	1422	1420	1418	1411	1412	1413	1414	1413	1422	1432	1442	1450	1452	1457	1454	1447	1441	1432	1432	1432	1422	1445	1452	1458	1458	1452	1446	1455	1457	1447	1423	1415	1421	1437	1448	1448	1444	1446	1450	1451	1453	1447	1447	1453	1466	1472	1479	1482	1483	1484	1466	1445	1432	1426	1431	1434	1442	1436	1427	1415	1414	1431	1449	1464	1459	1442	1429	1420	1423	1428	1434	1452	1467	1475	1476	1468	1455	1444	1422	1410	1404	1417	1437	1448	1426	1416	1409	1414	1417	1420	1419	1425	1433	1440	1449	1453	1446	1431	1416	1415	1419	1428	1454	1472	1479	1460	1452	1481	1476	1481	1488	1482	1476	1466	1463	1468	1471	1471	1470	1457	1438	1421	1422	1428	1450	1458	1455	1445	1438	1432	1432	1432	1431	1431	1439	1446	1451	1453	1452	1460	1460	1472	1484	1489	1482	1469	1464	1457	1469	1472	1456	1461	1454	1455	1462	1463	1461	1453	1444	1442	1448	1465	1475	1466	1453	1444	1451	1460	1475	1495	1502	0	0	0	0	0	0	0	0	0	0	0	0	0	0	0	0	0	0	0	0	0	0	0	1575	1578	1568	1564	1551	1530	1528	1528	1535	1555	1557	1564	1563	1557	1540	1520	1500	1505	1493	1495	1492	1489	1501	1533	1546	1547	1553	1552	1552	0	0	0	0	0	0	0	0	0	0	0	0	0	0	0	0	0	0	0	0	1489	1473	1481	1489	1484	1482	1492	1510	1512	1513	1503	1506	1511	1508	1493	1476	1475	1481	1485	1485	1484	1488	1489	1489	1480	1477	1474	1474	1484	1486	1479	1472	1481	1493	1505	1496	1496	1491	1491	1499	1507	1516	1512	1502	1488	1477	1462	1465	1477	1483	1484	1478	1482	1484	1482	1469	1459	1461	1471	1471	1475	1482	1485	1484	1480	1467	1455	1458	1466	1471	1467	1468	1468	1474	1483	1478	1474	1472	1476	1475	0	0	0	0	0	0
0	0	0	0	0	0	0	0	0	0	0	0	0	0	0	0	0	0	0	0	0	0	0	0	0	0	0	0	0	0	0	0	0	0	0	0	0	0	0	0	0	0	0	0	0	0	0	0	0	0	0	0	0	0	0	0	0	0	0	0	0	0	0	0	0	0	0	0	0	0	0	0	0	0	0	0	0	0	0	0	0	0	0	0	0	0	0	0	0	0	0	0	0	0	0	0	0	0	0	0	0	0	0	0	0	0	0	0	0	0	0	0	0	0	0	0	0	0	0	0	0	0	0	0	0	0	0	0	0	0	0	0	0	0	0	0	0	0	0	0	0	0	0	0	0	0	0	0	0	0	0	0	0	0	0	0	0	0	0	0	0	0	0	0	0	0	0	0	0	0	0	0	0	0	0	0	0	0	0	0	0	0	0	1379	1432	1434	1429	1430	1435	1435	1423	1408	1402	1419	1426	1424	1417	1407	1411	1412	1413	1423	1426	1421	1407	1397	1381	1381	1378	1379	1384	1391	1399	1408	1421	1431	1439	1426	1417	1411	1409	1406	1416	1420	1427	1426	1420	1413	1404	1381	1409	1424	1438	1437	1421	1407	1420	1430	1433	1440	1448	1450	1448	1435	1410	1404	1393	1400	1406	1404	1407	1405	1406	1410	1418	1427	1435	1450	1447	1445	1435	1438	1436	1433	1432	1431	1427	1427	1425	1420	1420	1419	1414	1416	1417	1419	1425	1419	1411	1413	1424	1444	1450	1438	1432	1426	1428	1424	1421	1422	1431	1443	1458	1463	1445	1431	1426	1422	1416	1416	1422	1429	1441	1445	1442	1430	1416	1412	1416	1418	1418	1417	1419	1414	1414	1421	1419	1415	1413	1419	1428	1433	1437	1442	1447	1449	1447	1447	1448	1444	1439	1440	1459	1456	1459	1445	1436	1441	1454	1459	1440	1421	1414	1420	1434	1450	1450	1448	1444	1452	1453	1453	1447	1447	1456	1464	1473	1473	1482	1486	1487	1468	1448	1432	1429	1430	1436	1446	1441	1429	1415	1412	1427	1449	1456	1450	1440	1431	1428	1422	1428	1435	1446	1461	1473	1473	1468	1455	1443	1433	1421	1414	1425	1439	1445	1435	1421	1418	1417	1415	1419	1422	1428	1438	1454	1458	1463	1454	1440	1425	1421	1423	1435	1458	1470	1473	1467	1444	1452	1467	1481	1487	1486	1472	1469	1458	1467	1482	1488	1480	1455	1433	1411	1403	1411	1432	1448	1450	1440	1430	1431	1447	1442	1442	1444	1444	1441	1429	1428	1431	1437	1448	1455	1443	1427	1417	1417	1434	1449	1456	1455	1437	1430	1425	1437	1448	1462	1464	1449	1438	1428	1430	1438	1454	1469	1467	1463	1463	1466	1477	1521	1539	0	0	0	0	0	0	0	0	0	0	0	0	0	0	0	0	0	0	0	0	0	0	0	1574	1568	1560	1555	1537	1537	1534	1532	1536	1557	1593	1588	1576	1558	1543	1522	1513	1514	1516	1511	1512	1509	1509	1534	1545	1545	1541	1537	1537	1549	0	0	0	0	0	0	0	0	0	0	0	0	0	0	0	0	0	0	0	1479	1465	1469	1476	1480	1482	1492	1513	1521	1518	1504	1503	1508	1504	1492	1478	1484	1492	1500	1494	1496	1496	1505	1504	1496	1482	1475	1472	1479	1486	1488	1479	1494	1505	1501	1496	1493	1494	1488	1493	1508	1525	1532	1515	1510	1488	1477	1472	1473	1479	1491	1492	1498	1497	1483	1463	1448	1449	1457	1457	1469	1476	1490	1491	1487	1468	1460	1456	1458	1462	1460	1456	1456	1470	1473	1475	1476	1478	1480	1487	0	0	0	0	0	0
0	0	0	0	0	0	0	0	0	0	0	0	0	0	0	0	0	0	0	0	0	0	0	0	0	0	0	0	0	0	0	0	0	0	0	0	0	0	0	0	0	0	0	0	0	0	0	0	0	0	0	0	0	0	0	0	0	0	0	0	0	0	0	0	0	0	0	0	0	0	0	0	0	0	0	0	0	0	0	0	0	0	0	0	0	0	0	0	0	0	0	0	0	0	0	0	0	0	0	0	0	0	0	0	0	0	0	0	0	0	0	0	0	0	0	0	0	0	0	0	0	0	0	0	0	0	0	0	0	0	0	0	0	0	0	0	0	0	0	0	0	0	0	0	0	0	0	0	0	0	0	0	0	0	0	0	0	0	0	0	0	0	0	0	0	0	0	0	0	0	0	0	0	0	0	0	0	0	0	0	0	0	0	0	1421	1435	1435	1436	1441	1447	1442	1424	1423	1423	1419	1374	1383	1396	1407	1403	1406	1414	1428	1436	1433	1421	1404	1420	1414	1392	1382	1392	1410	1419	1431	1434	1438	1428	1420	1410	1404	1399	1403	1416	1422	1428	1430	1435	1430	1421	1418	1425	1432	1444	1434	1426	1425	1427	1433	1442	1452	1448	1443	1427	1404	1393	1384	1391	1401	1401	1411	1424	1428	1420	1465	1462	1451	1450	1450	1457	1451	1444	1451	1462	1452	1436	1426	1433	1447	1441	1424	1415	1417	1411	1410	1413	1430	1427	1418	1421	1430	1445	1448	1438	1432	1428	1430	1429	1417	1414	1421	1437	1451	1461	1452	1425	1416	1416	1419	1416	1416	1423	1427	1428	1426	1419	1412	1409	1414	1411	1422	1425	1425	1420	1418	1423	1427	1422	1419	1419	1421	1425	1432	1436	1444	1447	1450	1456	1454	1443	1443	1472	1465	1446	1420	1415	1409	1416	1432	1453	1449	1442	1438	1438	1447	1460	1457	1454	1449	1450	1455	1454	1435	1421	1406	1406	1411	1418	1427	1440	1453	1457	1452	1446	1455	1463	1470	1470	1467	1460	1447	1442	1439	1444	1451	1448	1444	1442	1426	1415	1413	1421	1432	1443	1448	1455	1461	1456	1452	1442	1441	1438	1432	1431	1430	1443	1462	1465	1453	1433	1419	1421	1422	1440	1460	1473	1475	1476	1460	1442	1430	1428	1443	1460	1467	1464	1439	1404	1434	1460	1475	1482	1482	1472	1463	1455	1461	1478	1485	1469	1450	1431	1413	1407	1421	1439	1448	1445	1441	1439	1443	1441	1440	1435	1436	1433	1427	1414	1412	1433	1447	1451	1446	1426	1416	1407	1410	1427	1439	1451	1445	1439	1427	1427	1436	1449	1453	1452	1445	1437	1437	1436	1446	1459	1459	1459	1458	1461	1462	1461	1520	0	0	0	0	0	0	0	0	0	0	0	0	0	0	0	0	0	0	0	0	0	0	0	0	1582	1571	1553	1524	1518	1535	1533	1533	1534	1575	1584	1590	1561	1561	1541	1530	1519	1519	1526	1531	1536	1537	1531	1548	1539	1530	1519	1530	1535	1535	0	0	0	0	0	0	0	0	0	0	0	0	0	0	0	0	0	0	0	1446	1447	1458	1464	1468	1475	1484	1507	1517	1513	1499	1495	1507	1502	1495	1486	1492	1501	1502	1503	1503	1513	1516	1518	1507	1490	1479	1470	1473	1476	1488	1495	1495	1496	1499	1493	1489	1482	1486	1486	1513	1537	1541	1536	1525	1507	1477	1477	1472	1478	1480	1494	1487	1492	1474	1461	1455	1449	1459	1456	1456	1469	1479	1486	1483	1470	1455	1454	1459	1465	1463	1462	1462	1463	1468	1470	1469	1478	1476	1481	0	0	0	0	0	0
0	0	0	0	0	0	0	0	0	0	0	0	0	0	0	0	0	0	0	0	0	0	0	0	0	0	0	0	0	0	0	0	0	0	0	0	0	0	0	0	0	0	0	0	0	0	0	0	0	0	0	0	0	0	0	0	0	0	0	0	0	0	0	0	0	0	0	0	0	0	0	0	0	0	0	0	0	0	0	0	0	0	0	0	0	0	0	0	0	0	0	0	0	0	0	0	0	0	0	0	0	0	0	0	0	0	0	0	0	0	0	0	0	0	0	0	0	0	0	0	0	0	0	0	0	0	0	0	0	0	0	0	0	0	0	0	0	0	0	0	0	0	0	0	0	0	0	0	0	0	0	0	0	0	0	0	0	0	0	0	0	0	0	0	0	0	0	0	0	0	0	0	0	0	0	0	0	0	0	0	0	0	0	0	1430	1449	1458	1446	1435	1415	1400	1397	1387	1380	1377	1381	1393	1408	1418	1415	1427	1441	1443	1446	1457	1467	1479	1472	1453	1432	1414	1413	1424	1433	1450	1459	1439	1408	1393	1376	1361	1353	1370	1391	1424	1458	1475	1478	1461	1443	1429	1430	1441	1453	1448	1412	1404	1400	1410	1425	1442	1442	1431	1409	1399	1394	1401	1402	1413	1418	1440	1455	1452	1449	1448	1457	1473	1479	1473	1437	1430	1429	1430	1412	1411	1409	1418	1431	1440	1427	1408	1398	1402	1405	1418	1422	1445	1437	1426	1433	1440	1449	1450	1441	1443	1458	1470	1470	1455	1441	1432	1429	1444	1456	1454	1423	1414	1416	1425	1426	1424	1412	1413	1410	1408	1411	1413	1416	1419	1414	1427	1434	1434	1430	1430	1435	1437	1429	1421	1421	1419	1419	1424	1444	1458	1465	1477	1477	1464	1449	1460	1472	1475	1441	1428	1421	1417	1417	1421	1433	1441	1436	1435	1437	1440	1451	1459	1462	1454	1448	1445	1435	1430	1422	1412	1416	1420	1427	1432	1443	1451	1455	1451	1453	1465	1471	1476	1468	1464	1464	1454	1446	1443	1447	1453	1452	1448	1444	1432	1412	1407	1410	1433	1436	1444	1451	1464	1460	1454	1450	1446	1438	1417	1399	1412	1431	1454	1467	1465	1452	1428	1416	1418	1415	1452	1485	1487	1481	1468	1460	1453	1452	1451	1448	1435	1426	1422	1410	1428	1454	1465	1463	1458	1460	1456	1451	1454	1460	1461	1457	1445	1433	1411	1416	1421	1436	1440	1436	1436	1440	1443	1436	1417	1419	1424	1425	1424	1421	1429	1439	1453	1452	1445	1428	1417	1410	1418	1431	1439	1446	1448	1445	1436	1433	1438	1452	1453	1453	1447	1439	1444	1448	1454	1460	1450	1450	1455	1463	1458	1444	1458	0	0	0	0	0	0	0	0	0	0	0	0	0	0	0	0	0	0	0	0	0	0	0	0	1607	1589	1565	1542	1524	1543	1550	1549	1542	0	0	1568	1540	1536	1538	1536	1530	1534	1542	1549	1542	1542	1539	1551	1570	1554	1538	1541	1548	1546	0	0	0	0	0	0	0	0	0	0	0	0	0	0	0	0	0	0	0	1422	1433	1446	1449	1456	1467	1481	1497	1502	1495	1484	1492	1506	1507	1496	1489	1495	1503	1504	1507	1513	1518	1519	1519	1512	1497	1481	1472	1472	1470	1479	1491	1492	1500	1507	1494	1475	1470	1472	1492	1492	1508	1515	1531	1523	1526	1510	1486	1474	1470	1472	1477	1483	1480	1482	1480	1480	1486	1473	1459	1459	1461	1468	1478	1476	1460	1450	1454	1461	1468	1462	1465	1465	1465	1469	1469	1480	1471	1472	1473	0	0	0	0	0	0
0	0	0	0	0	0	0	0	0	0	0	0	0	0	0	0	0	0	0	0	0	0	0	0	0	0	0	0	0	0	0	0	0	0	0	0	0	0	0	0	0	0	0	0	0	0	0	0	0	0	0	0	0	0	0	0	0	0	0	0	0	0	0	0	0	0	0	0	0	0	0	0	0	0	0	0	0	0	0	0	0	0	0	0	0	0	0	0	0	0	0	0	0	0	0	0	0	0	0	0	0	0	0	0	0	0	0	0	0	0	0	0	0	0	0	0	0	0	0	0	0	0	0	0	0	0	0	0	0	0	0	0	0	0	0	0	0	0	0	0	0	0	0	0	0	0	0	0	0	0	0	0	0	0	0	0	0	0	0	0	0	0	0	0	0	0	0	0	0	0	0	0	0	0	0	0	0	0	0	0	0	0	0	0	1436	1444	1447	1442	1426	1415	1407	1401	1390	1382	1388	1397	1404	1423	1431	1426	1435	1450	1453	1450	1458	1469	1478	1479	1463	1441	1426	1422	1428	1436	1447	1458	1436	1409	1397	1384	1377	1370	1398	1420	1442	1464	1472	1474	1458	1448	1432	1426	1431	1447	1455	1422	1403	1397	1414	1430	1437	1429	1422	1416	1408	1407	1409	1412	1415	1428	1448	1455	1453	1444	1443	1454	1469	1480	1454	1440	1434	1434	1431	1407	1408	1410	1420	1434	1433	1422	1415	1410	1409	1417	1420	1431	1437	1431	1426	1433	1440	1446	1455	1460	1469	1486	1480	1470	1464	1442	1433	1435	1438	1455	1447	1426	1423	1431	1432	1423	1417	1410	1406	1403	1403	1408	1416	1418	1421	1423	1434	1437	1442	1441	1436	1440	1441	1432	1427	1420	1415	1415	1434	1440	1454	1452	1445	1447	1444	1443	1438	1457	1474	1470	1432	1428	1426	1424	1426	1426	1431	1431	1429	1425	1434	1445	1457	1447	1453	1448	1437	1428	1421	1422	1428	1433	1435	1437	1440	1442	1450	1459	1457	1460	1470	1475	1464	1461	1457	1455	1450	1438	1437	1441	1454	1453	1453	1445	1440	1420	1418	1430	1445	1444	1443	1444	1452	1456	1452	1447	1441	1433	1420	1410	1409	1432	1451	1466	1468	1450	1425	1422	1416	1417	1431	1474	1480	1474	1459	1459	1464	1464	1460	1451	1433	1430	1426	1421	1436	1452	1457	1452	1442	1440	1436	1436	1433	1439	1432	1427	1433	1433	1421	1423	1427	1429	1431	1430	1437	1441	1434	1428	1419	1419	1415	1418	1423	1438	1445	1458	1462	1465	1453	1442	1429	1431	1433	1442	1445	1436	1427	1436	1435	1436	1443	1451	1459	1447	1448	1434	1435	1432	1437	1445	1443	1445	1457	1458	1443	1440	1442	0	0	0	0	0	0	0	0	0	0	0	0	0	0	0	0	0	0	0	0	0	0	0	0	1616	1611	1595	1570	1554	1559	1558	1559	1568	0	0	1539	1506	1526	1533	1538	1543	1553	1555	1563	1557	1550	1547	1568	1571	1566	1559	1554	1553	1553	0	0	0	0	0	0	0	0	0	0	0	0	0	0	0	0	0	0	0	1425	1432	1451	1466	1470	1466	1463	1468	1464	1455	1455	1478	1502	1514	1496	1474	1472	1477	1469	1474	1470	1477	1492	1499	1488	1485	1485	1475	1471	1474	1479	1485	1488	1492	1503	1499	1481	1480	1487	1499	1499	1497	1507	1498	1494	1497	1500	1482	1462	1450	1458	1465	1471	1464	1471	1478	1488	1496	1482	1465	1460	1460	1462	1461	1466	1460	1458	1459	1466	1472	1483	1488	1496	1496	1489	1487	1486	1473	1460	1463	0	0	0	0	0	0
0	0	0	0	0	0	0	0	0	0	0	0	0	0	0	0	0	0	0	0	0	0	0	0	0	0	0	0	0	0	0	0	0	0	0	0	0	0	0	0	0	0	0	0	0	0	0	0	0	0	0	0	0	0	0	0	0	0	0	0	0	0	0	0	0	0	0	0	0	0	0	0	0	0	0	0	0	0	0	0	0	0	0	0	0	0	0	0	0	0	0	0	0	0	0	0	0	0	0	0	0	0	0	0	0	0	0	0	0	0	0	0	0	0	0	0	0	0	0	0	0	0	0	0	0	0	0	0	0	0	0	0	0	0	0	0	0	0	0	0	0	0	0	0	0	0	0	0	0	0	0	0	0	0	0	0	0	0	0	0	0	0	0	0	0	0	0	0	0	0	0	0	0	0	0	0	0	0	0	0	0	0	0	1458	1437	1432	1427	1419	1422	1416	1417	1413	1412	1408	1410	1413	1421	1432	1436	1433	1441	1443	1442	1438	1431	1424	1425	1425	1424	1433	1443	1449	1441	1446	1439	1440	1426	1415	1410	1414	1430	1436	1444	1453	1476	1482	1457	1456	1462	1461	1451	1430	1431	1442	1449	1427	1402	1396	1415	1436	1436	1428	1416	1419	1419	1418	1411	1411	1446	1449	1441	1437	1429	1419	1423	1429	1452	1457	1459	1466	1463	1453	1443	1423	1417	1420	1429	1430	1431	1431	1434	1428	1428	1432	1435	1437	1430	1436	1442	1445	1444	1448	1457	1470	1480	1491	1483	1471	1462	1446	1430	1433	1438	1435	1438	1434	1442	1438	1435	1421	1413	1404	1396	1403	1405	1414	1418	1423	1426	1429	1432	1440	1446	1447	1449	1447	1450	1440	1428	1423	1416	1416	1445	1453	1453	1450	1445	1447	1449	1434	1434	1449	1461	1475	1433	1426	1424	1425	1424	1420	1422	1422	1426	1427	1432	1430	1437	1451	1450	1442	1430	1421	1411	1421	1438	1447	1449	1440	1439	1439	1443	1452	1452	1458	1468	1469	1463	1453	1447	1438	1431	1428	1432	1436	1456	1461	1471	1455	1449	1443	1443	1455	1465	1459	1448	1443	1447	1450	1445	1436	1421	1415	1417	1419	1417	1428	1450	1463	1457	1443	1429	1422	1422	1429	1434	1448	1464	1457	1439	1446	1456	1461	1458	1443	1436	1431	1431	1422	1440	1451	1455	1442	1429	1424	1425	1428	1428	1420	1410	1408	1422	1429	1433	1433	1434	1430	1428	1431	1445	1452	1445	1432	1427	1423	1420	1420	1430	1444	1453	1464	1465	1476	1469	1448	1440	1439	1444	1452	1445	1438	1424	1426	1433	1441	1443	1451	1457	1454	1443	1431	1414	1412	1418	1422	1435	1447	1460	1458	1441	1445	1457	0	0	0	0	0	0	0	0	0	0	0	0	0	0	0	0	0	0	0	0	0	0	0	0	1627	1624	1616	1605	1582	1551	1550	1553	1578	0	0	1523	1494	1518	1538	1546	1557	1558	1559	1562	1552	1547	1539	1561	1568	1566	1558	1554	1545	0	0	0	0	0	0	0	0	0	0	0	0	0	0	0	0	0	0	0	0	0	0	1465	1472	1472	1472	1464	1452	1447	1452	1468	1484	1503	1512	1500	1480	1467	1463	1463	1455	1450	1458	1477	1493	1492	1494	1492	1493	1495	1493	1493	1485	1473	1475	1496	1499	1502	1504	1510	1517	1507	1507	1499	1482	1482	1481	1483	1474	1453	1452	1465	1471	1477	1469	1463	1462	1466	1474	1470	1470	1468	1468	1471	1479	1476	1464	1466	1465	1468	1471	1478	1484	1480	1480	1480	1481	1478	1464	1452	1455	0	0	0	0	0	0
0	0	0	0	0	0	0	0	0	0	0	0	0	0	0	0	0	0	0	0	0	0	0	0	0	0	0	0	0	0	0	0	0	0	0	0	0	0	0	0	0	0	0	0	0	0	0	0	0	0	0	0	0	0	0	0	0	0	0	0	0	0	0	0	0	0	0	0	0	0	0	0	0	0	0	0	0	0	0	0	0	0	0	0	0	0	0	0	0	0	0	0	0	0	0	0	0	0	0	0	0	0	0	0	0	0	0	0	0	0	0	0	0	0	0	0	0	0	0	0	0	0	0	0	0	0	0	0	0	0	0	0	0	0	0	0	0	0	0	0	0	0	0	0	0	0	0	0	0	0	0	0	0	0	0	0	0	0	0	0	0	0	0	0	0	0	0	0	0	0	0	0	0	0	0	0	0	0	0	0	0	0	0	1451	1449	1436	1429	1422	1421	1425	1423	1425	1422	1425	1426	1427	1428	1428	1431	1432	1428	1430	1431	1428	1418	1415	1415	1418	1416	1429	1446	1452	1445	1439	1431	1430	1425	1421	1414	1422	1435	1457	1468	1465	1466	1463	1457	1455	1447	1444	1436	1436	1437	1446	1449	1434	1420	1412	1425	1434	1438	1433	1429	1426	1419	1416	1407	1413	1436	1439	1437	1425	1418	1414	1412	1409	1419	1435	1450	1462	1469	1458	1437	1427	1421	1420	1426	1435	1443	1452	1454	1441	1441	1441	1439	1432	1438	1442	1447	1451	1445	1426	1415	1407	1434	1452	1459	1448	1438	1429	1420	1423	1424	1419	1429	1448	1448	1445	1439	1427	1410	1406	1413	1417	1419	1416	1419	1424	1425	1432	1440	1440	1444	1450	1457	1462	1465	1445	1439	1432	1430	1431	1454	1464	1460	1455	1466	1481	1487	1483	1450	1449	1453	1460	1429	1422	1415	1421	1426	1424	1422	1423	1429	1431	1432	1429	1432	1435	1440	1441	1437	1426	1421	1434	1442	1446	1445	1436	1426	1428	1436	1446	1452	1457	1462	1462	1464	1462	1442	1432	1424	1424	1432	1436	1450	1459	1471	1460	1455	1452	1456	1465	1473	1471	1461	1447	1444	1443	1433	1422	1412	1410	1415	1419	1420	1428	1437	1442	1440	1432	1428	1428	1430	1435	1437	1434	1434	1431	1424	1430	1445	1449	1449	1443	1447	1442	1442	1431	1439	1458	1456	1441	1425	1420	1420	1436	1439	1428	1419	1416	1427	1432	1440	1443	1441	1436	1436	1448	1456	1456	1452	1446	1443	1431	1419	1417	1430	1439	1452	1465	1473	1480	1478	1466	1443	1440	1449	1456	1450	1441	1422	1428	1437	1450	1457	1455	1458	1456	1432	1417	1404	1402	1408	1413	1433	1450	1455	1457	1435	1442	1465	0	0	0	0	0	0	0	0	0	0	0	0	0	0	0	0	0	0	0	0	0	0	0	0	1627	1625	1624	1619	1589	1543	1537	1539	1573	0	0	1521	1515	1535	1549	1557	1565	1561	1555	1544	1545	1536	1524	1525	1554	1553	1544	1543	1536	0	0	0	0	0	0	0	0	0	0	0	0	0	0	0	0	0	0	0	0	0	0	1465	1479	1479	1472	1465	1463	1460	1469	1478	1490	1498	1499	1488	1478	1468	1466	1461	1450	1448	1453	1475	1488	1491	1489	1493	1502	1506	1517	1487	1458	1446	1447	1461	1492	1517	1541	1546	1531	1503	1483	1483	1478	1470	1462	1458	1459	1471	1477	1483	1492	1493	1481	1467	1455	1450	1441	1448	1466	1482	1482	1485	1495	1490	1478	1470	1468	1475	1476	1474	1471	1471	1474	1433	1452	1456	1449	1442	1450	0	0	0	0	0	0
0	0	0	0	0	0	0	0	0	0	0	0	0	0	0	0	0	0	0	0	0	0	0	0	0	0	0	0	0	0	0	0	0	0	0	0	0	0	0	0	0	0	0	0	0	0	0	0	0	0	0	0	0	0	0	0	0	0	0	0	0	0	0	0	0	0	0	0	0	0	0	0	0	0	0	0	0	0	0	0	0	0	0	0	0	0	0	0	0	0	0	0	0	0	0	0	0	0	0	0	0	0	0	0	0	0	0	0	0	0	0	0	0	0	0	0	0	0	0	0	0	0	0	0	0	0	0	0	0	0	0	0	0	0	0	0	0	0	0	0	0	0	0	0	0	0	0	0	0	0	0	0	0	0	0	0	0	0	0	0	0	0	0	0	0	0	0	0	0	0	0	0	0	0	0	0	0	0	0	0	0	0	0	1450	1449	1445	1428	1420	1418	1426	1431	1429	1431	1434	1432	1429	1426	1426	1425	1423	1418	1414	1412	1406	1400	1397	1403	1411	1417	1431	1441	1446	1437	1426	1416	1414	1422	1420	1418	1423	1441	1457	1465	1453	1450	1449	1444	1446	1441	1434	1431	1430	1435	1445	1444	1436	1428	1427	1432	1443	1442	1435	1434	1426	1423	1416	1415	1410	1427	1446	1442	1427	1419	1409	1408	1405	1408	1424	1438	1450	1456	1456	1436	1418	1422	1421	1425	1427	1438	1450	1453	1450	1449	1443	1438	1438	1436	1442	1453	1449	1442	1429	1415	1406	1415	1427	1439	1444	1436	1424	1417	1413	1413	1419	1420	1442	1444	1447	1449	1439	1429	1420	1425	1432	1433	1432	1426	1426	1435	1431	1440	1438	1443	1456	1471	1473	1481	1475	1460	1454	1448	1455	1464	1468	1457	1444	1443	1480	1492	1493	1483	1455	1453	1455	1432	1414	1409	1410	1426	1431	1426	1430	1436	1439	1437	1428	1422	1420	1431	1438	1438	1436	1429	1433	1434	1429	1425	1419	1422	1425	1436	1443	1452	1463	1464	1465	1465	1464	1446	1433	1428	1424	1433	1437	1446	1456	1453	1455	1460	1460	1464	1455	1458	1463	1459	1445	1441	1430	1417	1413	1406	1405	1410	1416	1417	1417	1416	1418	1428	1434	1434	1433	1433	1433	1425	1425	1416	1412	1410	1419	1432	1441	1450	1456	1458	1451	1444	1434	1443	1461	1464	1454	1435	1425	1430	1437	1441	1434	1429	1431	1447	1460	1463	1451	1439	1440	1443	1449	1463	1463	1459	1460	1461	1440	1427	1419	1428	1434	1447	1460	1467	1478	1481	1471	1455	1448	1449	1454	1452	1447	1439	1442	1451	1457	1459	1466	1463	1451	1428	1415	1405	1405	1406	1424	1434	1442	1445	1442	1436	1447	1470	0	0	0	0	0	0	0	0	0	0	0	0	0	0	0	0	0	0	0	0	0	0	0	0	1618	1611	1606	1600	1577	1544	1530	1531	1561	1565	1558	1536	1537	1543	1555	1566	1569	1558	1535	1527	1529	1533	1526	1520	1545	1548	1551	1548	1536	0	0	0	0	0	0	0	0	0	0	0	0	0	0	0	0	0	0	0	0	0	0	1475	1500	1498	1490	1481	1471	1460	1462	1463	1469	1472	1471	1475	1469	1469	1469	1470	1474	1478	1469	1479	1483	1481	1493	1515	1532	1522	1523	1494	1469	1452	1454	1466	1479	1487	1486	1484	1478	1479	1473	1473	1477	1477	1475	1475	1475	1485	1480	1479	1489	1494	1490	1474	1459	1455	1453	1454	1468	1508	1514	1514	1523	1512	1481	1459	1457	1457	1459	1448	1442	1429	1433	1430	1443	1452	1452	1454	1452	0	0	0	0	0	0
0	0	0	0	0	0	0	0	0	0	0	0	0	0	0	0	0	0	0	0	0	0	0	0	0	0	0	0	0	0	0	0	0	0	0	0	0	0	0	0	0	0	0	0	0	0	0	0	0	0	0	0	0	0	0	0	0	0	0	0	0	0	0	0	0	0	0	0	0	0	0	0	0	0	0	0	0	0	0	0	0	0	0	0	0	0	0	0	0	0	0	0	0	0	0	0	0	0	0	0	0	0	0	0	0	0	0	0	0	0	0	0	0	0	0	0	0	0	0	0	0	0	0	0	0	0	0	0	0	0	0	0	0	0	0	0	0	0	0	0	0	0	0	0	0	0	0	0	0	0	0	0	0	0	0	0	0	0	0	0	0	0	0	0	0	0	0	0	0	0	0	0	0	0	0	0	0	0	0	0	0	0	0	1432	1436	1437	1434	1421	1419	1427	1431	1426	1425	1427	1427	1432	1434	1432	1422	1422	1418	1411	1397	1386	1384	1382	1384	1397	1409	1418	1431	1434	1428	1419	1421	1415	1420	1415	1412	1415	1433	1453	1454	1445	1428	1435	1440	1444	1445	1440	1425	1419	1421	1441	1440	1435	1428	1425	1434	1446	1444	1435	1425	1418	1417	1419	1418	1423	1439	1452	1446	1433	1427	1419	1413	1408	1401	1415	1423	1436	1441	1444	1435	1427	1419	1421	1414	1415	1422	1441	1451	1444	1445	1440	1438	1434	1433	1434	1441	1445	1441	1429	1416	1406	1404	1417	1432	1436	1431	1426	1413	1409	1411	1413	1421	1428	1434	1444	1460	1465	1448	1444	1437	1438	1437	1439	1435	1432	1436	1436	1434	1437	1446	1465	1478	1483	1485	1478	1467	1459	1459	1464	1468	1465	1454	1439	1439	1457	1484	1495	1491	1460	1453	1450	1435	1419	1418	1424	1425	1432	1439	1443	1445	1446	1441	1434	1418	1416	1422	1436	1444	1443	1437	1430	1426	1422	1417	1417	1426	1433	1440	1448	1455	1462	1469	1470	1466	1455	1445	1432	1422	1425	1431	1441	1449	1447	1449	1461	1472	1475	1467	1434	1429	1435	1440	1430	1418	1413	1408	1409	1413	1421	1432	1419	1416	1407	1407	1411	1426	1443	1451	1445	1429	1420	1417	1410	1407	1398	1401	1407	1425	1444	1456	1465	1471	1458	1451	1440	1442	1447	1464	1471	1468	1459	1439	1443	1450	1442	1436	1437	1451	1458	1458	1448	1443	1432	1444	1454	1465	1466	1465	1466	1472	1449	1430	1425	1428	1429	1444	1449	1446	1459	1464	1462	1460	1450	1448	1447	1451	1455	1450	1455	1461	1462	1461	1457	1461	1453	1442	1424	1407	1405	1403	1419	1426	1437	1442	1438	1435	1436	1452	0	0	0	0	0	0	0	0	0	0	0	0	0	0	0	0	0	0	0	0	0	0	0	0	1598	1586	1582	1574	1538	1523	1529	1526	1538	1566	1559	1540	1530	1536	1541	1556	1560	1531	1524	1514	1524	1533	1528	1527	1538	1549	1550	1547	1532	0	0	0	0	0	0	0	0	0	0	0	0	0	0	0	0	0	0	0	0	0	0	1487	1524	1513	1512	1496	1479	1455	1449	1448	1457	1461	1467	1464	1462	1461	1456	1461	1476	1495	1499	1495	1479	1483	1497	1518	1525	1530	1521	1506	1486	1461	1463	1469	1477	1473	1467	1470	1477	1482	1485	1483	1483	1487	1481	1476	1473	1475	1476	1469	1474	1486	1479	1475	1468	1465	1457	1456	1464	1487	1539	1539	1537	1513	1481	1469	1466	1460	1446	1440	1430	1423	1435	1435	1448	1457	1465	1459	1458	0	0	0	0	0	0
0	0	0	0	0	0	0	0	0	0	0	0	0	0	0	0	0	0	0	0	0	0	0	0	0	0	0	0	0	0	0	0	0	0	0	0	0	0	0	0	0	0	0	0	0	0	0	0	0	0	0	0	0	0	0	0	0	0	0	0	0	0	0	0	0	0	0	0	0	0	0	0	0	0	0	0	0	0	0	0	0	0	0	0	0	0	0	0	0	0	0	0	0	0	0	0	0	0	0	0	0	0	0	0	0	0	0	0	0	0	0	0	0	0	0	0	0	0	0	0	0	0	0	0	0	0	0	0	0	0	0	0	0	0	0	0	0	0	0	0	0	0	0	0	0	0	0	0	0	0	0	0	0	0	0	0	0	0	0	0	0	0	0	0	0	0	0	0	0	0	0	0	0	0	0	0	0	0	0	0	0	0	0	1422	1427	1429	1429	1422	1419	1425	1421	1423	1422	1423	1420	1436	1442	1433	1421	1417	1416	1405	1392	1380	1381	1382	1388	1385	1397	1401	1411	1430	1427	1431	1430	1424	1416	1408	1389	1397	1417	1430	1433	1421	1415	1427	1444	1459	1453	1433	1418	1407	1412	1419	1429	1423	1423	1429	1441	1454	1449	1432	1420	1415	1411	1418	1426	1439	1454	1449	1439	1428	1424	1419	1404	1397	1406	1409	1416	1428	1431	1433	1429	1426	1426	1425	1416	1406	1410	1421	1433	1439	1434	1434	1431	1424	1417	1415	1417	1426	1436	1429	1417	1403	1402	1412	1424	1436	1437	1430	1417	1412	1414	1416	1414	1416	1426	1438	1455	1464	1468	1455	1449	1439	1441	1446	1443	1447	1443	1440	1435	1434	1440	1454	1469	1478	1474	1469	1463	1458	1458	1467	1470	1462	1449	1434	1438	1445	1460	1485	1486	1456	1449	1448	1441	1433	1435	1436	1438	1436	1442	1444	1446	1448	1442	1430	1419	1414	1420	1432	1444	1447	1443	1438	1431	1425	1424	1426	1442	1456	1457	1450	1450	1451	1457	1460	1460	1447	1433	1427	1423	1423	1433	1442	1444	1443	1448	1454	1476	1481	1471	1442	1417	1420	1424	1419	1411	1407	1406	1414	1431	1443	1437	1425	1419	1412	1406	1412	1430	1456	1476	1460	1445	1428	1420	1407	1402	1401	1398	1404	1422	1445	1461	1469	1473	1464	1443	1431	1431	1434	1451	1468	1469	1459	1452	1448	1456	1449	1439	1440	1450	1447	1454	1446	1443	1448	1458	1458	1469	1472	1468	1469	1472	1455	1440	1427	1431	1427	1438	1434	1433	1436	1443	1454	1450	1452	1449	1453	1460	1457	1457	1455	1456	1462	1455	1454	1459	1458	1448	1430	1417	1414	1416	1423	1428	1432	1435	1439	1430	1422	1425	0	0	0	0	0	0	0	0	0	0	0	0	0	0	0	0	0	0	0	0	0	0	0	0	1561	1563	1559	1560	1518	1521	1533	1535	1540	1567	1567	1553	1539	1536	1544	1546	1545	1528	1521	1521	1525	1532	1529	1527	1539	1545	1553	1549	1538	1514	0	0	0	0	0	0	0	0	0	0	0	0	0	0	0	0	0	0	0	0	0	1508	1533	1519	1510	1492	1486	1461	1447	1440	1447	1461	1467	1470	1461	1439	1432	1447	1468	1480	1487	1483	1476	1482	1496	1516	1519	1524	1522	1510	1497	1472	1465	1472	1479	1477	1470	1478	1490	1501	1503	1500	1500	1486	1469	1465	1467	1468	1467	1457	1450	1469	1479	1475	1471	1472	1474	1470	1472	1478	1494	1494	1522	1501	1481	1470	1462	1457	1446	1434	1431	1432	1444	1453	1453	1463	1467	1468	1462	0	0	0	0	0	0
0	0	0	0	0	0	0	0	0	0	0	0	0	0	0	0	0	0	0	0	0	0	0	0	0	0	0	0	0	0	0	0	0	0	0	0	0	0	0	0	0	0	0	0	0	0	0	0	0	0	0	0	0	0	0	0	0	0	0	0	0	0	0	0	0	0	0	0	0	0	0	0	0	0	0	0	0	0	0	0	0	0	0	0	0	0	0	0	0	0	0	0	0	0	0	0	0	0	0	0	0	0	0	0	0	0	0	0	0	0	0	0	0	0	0	0	0	0	0	0	0	0	0	0	0	0	0	0	0	0	0	0	0	0	0	0	0	0	0	0	0	0	0	0	0	0	0	0	0	0	0	0	0	0	0	0	0	0	0	0	0	0	0	0	0	0	0	0	0	0	0	0	0	0	0	0	0	0	0	0	0	0	0	1405	1417	1428	1425	1422	1418	1419	1419	1423	1430	1435	1433	1438	1438	1432	1413	1412	1408	1411	1405	1395	1393	1397	1391	1395	1401	1401	1407	1424	1431	1443	1426	1418	1415	1401	1389	1385	1400	1415	1415	1416	1416	1429	1451	1461	1451	1433	1415	1393	1400	1413	1420	1412	1412	1429	1456	1466	1458	1432	1413	1409	1406	1414	1425	1438	1442	1441	1431	1424	1418	1412	1402	1392	1403	1408	1411	1419	1426	1427	1427	1429	1428	1424	1412	1396	1392	1408	1417	1425	1431	1434	1430	1422	1412	1411	1409	1418	1428	1420	1414	1397	1397	1405	1418	1433	1440	1433	1425	1417	1419	1418	1411	1408	1419	1431	1441	1452	1462	1460	1450	1440	1443	1446	1453	1458	1464	1464	1452	1436	1431	1435	1440	1447	1450	1447	1439	1437	1445	1461	1465	1458	1446	1438	1437	1436	1448	1465	1463	1438	1440	1441	1439	1440	1442	1442	1437	1431	1435	1439	1443	1446	1443	1429	1420	1413	1415	1424	1437	1444	1449	1443	1440	1438	1439	1447	1457	1463	1461	1453	1440	1442	1444	1444	1442	1435	1430	1426	1422	1429	1437	1443	1443	1439	1440	1446	1454	1466	1461	1445	1431	1430	1427	1425	1419	1409	1406	1421	1437	1446	1446	1437	1430	1417	1412	1414	1436	1462	1473	1470	1465	1450	1436	1424	1417	1411	1404	1411	1421	1444	1457	1462	1463	1456	1439	1426	1418	1420	1432	1439	1450	1451	1446	1450	1449	1449	1441	1442	1445	1448	1451	1449	1451	1458	1460	1458	1459	1474	1469	1463	1466	1470	1450	1440	1436	1427	1431	1423	1419	1430	1439	1443	1447	1453	1456	1461	1460	1453	1452	1450	1456	1454	1439	1441	1455	1461	1458	1433	1426	1429	1426	1431	1434	1439	1434	1433	1424	1416	1422	0	0	0	0	0	0	0	0	0	0	0	0	0	0	0	0	0	0	0	0	0	0	0	0	1572	1561	1565	1557	1528	1548	1529	1533	1546	1561	1562	1553	1547	1543	1549	1544	1541	1531	1533	1533	1528	1531	1532	1523	1532	1541	1538	1532	1516	1511	0	0	0	0	0	0	0	0	0	0	0	0	0	0	0	0	0	0	0	0	1496	1525	1529	1507	1486	1478	1487	1483	1465	1456	1454	1462	1474	1469	1458	1437	1433	1441	1457	1477	1484	1481	1482	1489	1500	1511	1514	1518	1518	1514	1498	1479	1475	1482	1487	1479	1480	1490	1503	1512	1510	1497	1473	1473	1464	1464	1465	1468	1464	1451	1447	1453	1461	1460	1461	1468	1478	1485	1484	1487	1485	1496	1496	1484	1468	1460	1455	1450	1445	1443	1445	1458	1457	1461	1461	1462	1467	1467	1471	0	0	0	0	0	0
0	0	0	0	0	0	0	0	0	0	0	0	0	0	0	0	0	0	0	0	0	0	0	0	0	0	0	0	0	0	0	0	0	0	0	0	0	0	0	0	0	0	0	0	0	0	0	0	0	0	0	0	0	0	0	0	0	0	0	0	0	0	0	0	0	0	0	0	0	0	0	0	0	0	0	0	0	0	0	0	0	0	0	0	0	0	0	0	0	0	0	0	0	0	0	0	0	0	0	0	0	0	0	0	0	0	0	0	0	0	0	0	0	0	0	0	0	0	0	0	0	0	0	0	0	0	0	0	0	0	0	0	0	0	0	0	0	0	0	0	0	0	0	0	0	0	0	0	0	0	0	0	0	0	0	0	0	0	0	0	0	0	0	0	0	0	0	0	0	0	0	0	0	0	0	0	0	0	0	0	0	0	0	1402	1417	1419	1416	1417	1417	1418	1419	1422	1420	1415	1411	1421	1414	1413	1406	1406	1412	1424	1420	1409	1407	1413	1416	1411	1413	1413	1413	1421	1438	1435	1418	1412	1404	1390	1383	1381	1389	1403	1412	1414	1420	1436	1450	1451	1440	1428	1416	1404	1401	1409	1408	1403	1410	1436	1458	1470	1459	1433	1410	1400	1400	1407	1415	1424	1426	1420	1418	1415	1415	1406	1393	1405	1399	1407	1411	1417	1422	1426	1429	1430	1427	1420	1412	1398	1392	1404	1414	1423	1426	1435	1432	1429	1428	1426	1416	1418	1423	1418	1411	1398	1392	1396	1415	1427	1437	1436	1424	1428	1426	1432	1421	1413	1418	1426	1432	1439	1445	1446	1444	1439	1452	1454	1461	1460	1450	1444	1436	1431	1428	1428	1428	1431	1431	1427	1421	1418	1427	1447	1460	1453	1446	1439	1437	1433	1445	1445	1445	1434	1436	1436	1433	1433	1432	1436	1432	1428	1427	1431	1438	1448	1444	1434	1425	1424	1425	1424	1431	1441	1447	1449	1448	1448	1455	1465	1463	1464	1458	1450	1443	1439	1436	1428	1421	1423	1424	1423	1427	1431	1442	1445	1440	1432	1420	1420	1428	1437	1436	1448	1446	1443	1439	1436	1430	1419	1415	1425	1439	1443	1448	1445	1442	1431	1417	1415	1429	1460	1470	1466	1464	1458	1457	1447	1436	1424	1418	1422	1427	1439	1445	1453	1452	1447	1430	1413	1400	1405	1406	1425	1431	1433	1432	1441	1440	1445	1438	1442	1444	1446	1449	1452	1454	1458	1448	1437	1426	1416	1418	1443	1457	1462	1458	1452	1442	1439	1431	1423	1422	1429	1438	1449	1454	1459	1468	1470	1462	1451	1445	1455	1459	1440	1439	1443	1464	1462	1458	1440	1438	1446	1450	1463	1448	1441	1437	1431	1423	1427	1437	0	0	0	0	0	0	0	0	0	0	0	0	0	0	0	0	0	0	0	0	0	0	0	0	1591	1573	1562	1545	1534	1551	1517	1519	1527	1540	1549	1553	1555	1550	1550	1545	1535	1532	1538	1543	1539	1537	1534	1531	1527	1528	1523	1519	1514	1521	0	0	0	0	0	0	0	0	0	0	0	0	0	0	0	0	0	0	0	0	1523	1517	1515	1494	1480	1475	1493	1493	1480	1473	1472	1473	1477	1469	1460	1448	1446	1448	1463	1476	1488	1485	1480	1488	1496	1507	1511	1511	1508	1500	1485	1477	1487	1495	1489	1484	1490	1502	1510	1508	1493	1476	1469	1469	1471	1470	1473	1474	1468	1454	1448	1449	1449	1455	1454	1464	1477	1481	1482	1476	1469	1455	1455	1456	1444	1447	1447	1449	1453	1452	1468	1471	1470	1469	1469	1467	1467	1472	1477	0	0	0	0	0	0
0	0	0	0	0	0	0	0	0	0	0	0	0	0	0	0	0	0	0	0	0	0	0	0	0	0	0	0	0	0	0	0	0	0	0	0	0	0	0	0	0	0	0	0	0	0	0	0	0	0	0	0	0	0	0	0	0	0	0	0	0	0	0	0	0	0	0	0	0	0	0	0	0	0	0	0	0	0	0	0	0	0	0	0	0	0	0	0	0	0	0	0	0	0	0	0	0	0	0	0	0	0	0	0	0	0	0	0	0	0	0	0	0	0	0	0	0	0	0	0	0	0	0	0	0	0	0	0	0	0	0	0	0	0	0	0	0	0	0	0	0	0	0	0	0	0	0	0	0	0	0	0	0	0	0	0	0	0	0	0	0	0	0	0	0	0	0	0	0	0	0	0	0	0	0	0	0	0	0	0	0	0	0	1409	1417	1413	1407	1413	1415	1411	1408	1414	1401	1389	1388	1394	1403	1407	1407	1416	1428	1431	1430	1418	1416	1422	1422	1420	1426	1426	1421	1431	1438	1430	1408	1400	1392	1390	1387	1384	1393	1402	1408	1416	1421	1433	1443	1442	1436	1423	1418	1403	1396	1403	1410	1409	1416	1435	1457	1466	1454	1427	1401	1397	1400	1405	1409	1415	1414	1408	1408	1416	1416	1405	1402	1406	1409	1409	1410	1411	1420	1422	1430	1427	1418	1412	1405	1403	1401	1403	1409	1416	1423	1430	1425	1430	1432	1431	1432	1427	1426	1421	1411	1397	1392	1395	1414	1431	1439	1441	1437	1439	1441	1443	1441	1437	1435	1431	1431	1431	1432	1437	1441	1451	1468	1463	1460	1453	1438	1430	1425	1425	1424	1425	1425	1424	1426	1421	1412	1415	1427	1440	1445	1446	1440	1436	1440	1442	1446	1446	1439	1434	1434	1436	1425	1414	1413	1417	1429	1430	1432	1437	1447	1454	1455	1458	1458	1459	1452	1449	1436	1441	1449	1447	1448	1457	1463	1467	1466	1460	1455	1451	1451	1448	1437	1422	1413	1413	1419	1422	1426	1437	1447	1451	1439	1426	1411	1403	1413	1425	1433	1443	1457	1456	1444	1445	1443	1438	1435	1431	1446	1446	1452	1454	1449	1439	1432	1425	1431	1449	1462	1461	1458	1456	1462	1465	1460	1437	1429	1424	1427	1432	1436	1441	1443	1443	1429	1409	1394	1399	1403	1417	1422	1426	1428	1440	1446	1442	1441	1442	1444	1451	1451	1456	1456	1452	1444	1435	1422	1409	1410	1410	1421	1449	1459	1462	1457	1441	1430	1427	1425	1435	1450	1456	1466	1475	1482	1477	1467	1450	1453	1463	1470	1449	1453	1454	1468	1458	1454	1450	1446	1445	1465	1472	1460	1450	1445	1443	1436	1440	1468	0	0	0	0	0	0	0	0	0	0	0	0	0	0	0	0	0	0	0	0	0	0	0	0	1607	1590	1556	1526	1538	1552	1516	1511	1520	1527	1543	1557	1563	1561	1550	1534	1522	1521	1528	1532	1543	1541	1537	1529	1520	1516	1512	1517	1518	1522	0	0	0	0	0	0	0	0	0	0	0	0	0	0	0	0	0	0	0	0	1525	1508	1490	1491	1488	1488	1497	1503	1494	1482	1476	1468	1472	1471	1464	1458	1456	1461	1469	1482	1493	1494	1487	1486	1486	1495	1500	1503	1492	1480	1469	1476	1490	1503	1501	1496	1498	1504	1508	1499	1490	1475	1497	1498	1498	1490	1486	1485	1473	1460	1449	1450	1441	1452	1460	1474	1480	1481	1481	1471	1454	1446	1446	1442	1438	1440	1451	1454	1462	1468	1472	1478	1481	1478	1478	1478	1472	1471	1477	0	0	0	0	0	0
0	0	0	0	0	0	0	0	0	0	0	0	0	0	0	0	0	0	0	0	0	0	0	0	0	0	0	0	0	0	0	0	0	0	0	0	0	0	0	0	0	0	0	0	0	0	0	0	0	0	0	0	0	0	0	0	0	0	0	0	0	0	0	0	0	0	0	0	0	0	0	0	0	0	0	0	0	0	0	0	0	0	0	0	0	0	0	0	0	0	0	0	0	0	0	0	0	0	0	0	0	0	0	0	0	0	0	0	0	0	0	0	0	0	0	0	0	0	0	0	0	0	0	0	0	0	0	0	0	0	0	0	0	0	0	0	0	0	0	0	0	0	0	0	0	0	0	0	0	0	0	0	0	0	0	0	0	0	0	0	0	0	0	0	0	0	0	0	0	0	0	0	0	0	0	0	0	0	0	0	0	0	0	1397	1415	1410	1413	1414	1418	1415	1417	1420	1402	1392	1397	1400	1405	1412	1419	1419	1434	1426	1429	1419	1419	1418	1419	1421	1423	1423	1422	1435	1435	1412	1406	1399	1396	1394	1395	1404	1408	1416	1410	1408	1414	1421	1434	1434	1425	1423	1417	1414	1408	1409	1415	1418	1422	1432	1449	1451	1442	1418	1401	1403	1405	1411	1411	1411	1410	1409	1412	1418	1415	1408	1402	1407	1410	1408	1408	1413	1411	1419	1424	1424	1421	1417	1408	1409	1398	1408	1411	1419	1415	1417	1420	1423	1427	1439	1441	1438	1434	1430	1417	1407	1393	1400	1416	1434	1445	1448	1447	1441	1437	1438	1445	1450	1437	1433	1433	1428	1428	1430	1441	1459	1463	1465	1454	1438	1432	1424	1423	1419	1421	1428	1428	1430	1434	1428	1422	1436	1445	1448	1444	1441	1437	1436	1445	1446	1448	1448	1454	1452	1451	1453	1429	1421	1417	1414	1431	1440	1450	1439	1430	1433	1438	1437	1439	1443	1454	1456	1455	1458	1456	1455	1463	1465	1469	1468	1466	1456	1450	1450	1451	1458	1441	1423	1411	1413	1419	1423	1431	1444	1458	1456	1439	1422	1408	1407	1412	1416	1437	1451	1454	1451	1452	1448	1446	1443	1439	1443	1449	1453	1453	1453	1454	1450	1447	1444	1450	1450	1454	1454	1451	1443	1448	1457	1463	1452	1436	1426	1428	1425	1428	1434	1437	1437	1429	1415	1400	1396	1407	1413	1416	1426	1436	1449	1458	1455	1451	1449	1456	1460	1455	1457	1449	1444	1446	1448	1446	1447	1438	1435	1435	1445	1446	1441	1456	1453	1445	1433	1439	1445	1454	1459	1467	1478	1485	1488	1477	1464	1466	1477	1475	1467	1479	1481	1471	1450	1437	1442	1448	1458	1461	1460	1455	1451	1454	1451	1443	1438	0	0	0	0	0	0	0	0	0	0	0	0	0	0	0	0	0	0	0	0	0	0	0	0	0	1617	1589	1567	1530	1537	1544	1523	1522	1544	1541	1563	1574	1571	1559	1542	1536	1530	1526	1525	1536	1552	1554	1541	1532	1524	1527	1535	1539	1517	1516	0	0	0	0	0	0	0	0	0	0	0	0	0	0	0	0	0	0	0	0	1502	1464	1441	1482	1487	1487	1493	1496	1491	1483	1474	1473	1475	1475	1468	1465	1460	1463	1476	1488	1501	1496	1495	1485	1478	1486	1493	1496	1486	1471	1461	1464	1488	1506	1507	1506	1500	1502	1502	1494	1490	1493	1518	1522	1522	1506	1494	1492	1481	1463	1444	1443	1442	1459	1478	1475	1484	1486	1484	1474	1456	1445	1440	1440	1437	1449	1455	1464	1467	1463	1470	1476	1483	1487	1485	1485	1479	1467	1463	0	0	0	0	0	0
0	0	0	0	0	0	0	0	0	0	0	0	0	0	0	0	0	0	0	0	0	0	0	0	0	0	0	0	0	0	0	0	0	0	0	0	0	0	0	0	0	0	0	0	0	0	0	0	0	0	0	0	0	0	0	0	0	0	0	0	0	0	0	0	0	0	0	0	0	0	0	0	0	0	0	0	0	0	0	0	0	0	0	0	0	0	0	0	0	0	0	0	0	0	0	0	0	0	0	0	0	0	0	0	0	0	0	0	0	0	0	0	0	0	0	0	0	0	0	0	0	0	0	0	0	0	0	0	0	0	0	0	0	0	0	0	0	0	0	0	0	0	0	0	0	0	0	0	0	0	0	0	0	0	0	0	0	0	0	0	0	0	0	0	0	0	0	0	0	0	0	0	0	0	0	0	0	0	0	0	0	0	0	1381	1409	1414	1413	1414	1426	1426	1426	1436	1420	1414	1406	1414	1421	1419	1426	1430	1424	1421	1412	1417	1411	1414	1410	1410	1408	1411	1423	1428	1437	1417	1408	1400	1393	1405	1415	1419	1420	1424	1419	1410	1416	1424	1425	1418	1423	1417	1408	1415	1416	1417	1415	1414	1417	1427	1435	1434	1422	1403	1400	1410	1411	1414	1413	1407	1409	1410	1412	1420	1423	1417	1411	1416	1418	1415	1418	1414	1419	1431	1434	1430	1425	1428	1415	1406	1401	1408	1415	1414	1414	1409	1408	1416	1423	1441	1445	1437	1433	1429	1421	1408	1401	1396	1412	1431	1446	1446	1436	1423	1426	1431	1438	1441	1441	1441	1432	1425	1425	1424	1439	1459	1477	1469	1452	1429	1429	1424	1423	1424	1428	1429	1433	1444	1460	1463	1453	1448	1451	1455	1446	1442	1443	1444	1447	1444	1445	1445	1450	1461	1473	1480	1444	1432	1426	1428	1445	1456	1439	1427	1445	1440	1437	1438	1447	1440	1442	1456	1450	1442	1436	1434	1444	1459	1469	1475	1465	1454	1447	1446	1446	1450	1445	1429	1417	1420	1422	1431	1440	1452	1466	1458	1447	1438	1427	1422	1421	1430	1443	1451	1450	1451	1454	1442	1437	1433	1439	1441	1443	1447	1449	1452	1453	1457	1459	1454	1450	1450	1449	1438	1436	1436	1439	1443	1452	1452	1446	1435	1436	1435	1431	1423	1419	1413	1412	1418	1403	1397	1402	1406	1412	1421	1430	1445	1455	1459	1457	1459	1469	1464	1458	1451	1435	1426	1436	1448	1451	1453	1446	1442	1441	1439	1441	1424	1427	1432	1434	1432	1435	1444	1448	1447	1448	1447	1473	1480	1480	1475	1473	1479	1474	1471	1477	1471	1465	1445	1425	1424	1429	1445	1445	1441	1445	1445	1455	1450	1443	1439	0	0	0	0	0	0	0	0	0	0	0	0	0	0	0	0	0	0	0	0	0	0	0	0	0	1637	1620	1588	1546	1526	1530	1531	1542	1545	1562	1568	1577	1578	1553	1533	1524	1530	1535	1535	1546	1555	1554	1547	1533	1559	1565	1563	1547	1521	1523	0	0	0	0	0	0	0	0	0	0	0	0	0	0	0	0	0	0	0	0	1477	1433	1431	1468	1485	1479	1481	1488	1482	1478	1475	1475	1478	1478	1480	1476	1474	1477	1485	1484	1499	1505	1505	1498	1492	1492	1494	1497	1487	1468	1459	1467	1482	1494	1504	1503	1498	1494	1495	1488	1494	1496	1512	1515	1506	1506	1496	1487	1486	1475	1462	1448	1452	1475	1489	1488	1480	1476	1472	1468	1457	1450	1442	1442	1449	1454	1462	1465	1444	1439	1455	1465	1482	1481	1481	1481	1476	1460	1460	0	0	0	0	0	0
0	0	0	0	0	0	0	0	0	0	0	0	0	0	0	0	0	0	0	0	0	0	0	0	0	0	0	0	0	0	0	0	0	0	0	0	0	0	0	0	0	0	0	0	0	0	0	0	0	0	0	0	0	0	0	0	0	0	0	0	0	0	0	0	0	0	0	0	0	0	0	0	0	0	0	0	0	0	0	0	0	0	0	0	0	0	0	0	0	0	0	0	0	0	0	0	0	0	0	0	0	0	0	0	0	0	0	0	0	0	0	0	0	0	0	0	0	0	0	0	0	0	0	0	0	0	0	0	0	0	0	0	0	0	0	0	0	0	0	0	0	0	0	0	0	0	0	0	0	0	0	0	0	0	0	0	0	0	0	0	0	0	0	0	0	0	0	0	0	0	0	0	0	0	0	0	0	0	0	0	0	0	0	1382	1395	1404	1403	1404	1414	1420	1436	1447	1446	1431	1423	1423	1426	1430	1422	1423	1415	1403	1403	1410	1402	1410	1404	1403	1399	1403	1418	1426	1437	1418	1405	1392	1400	1411	1424	1436	1432	1426	1420	1414	1407	1415	1418	1417	1417	1405	1402	1420	1427	1427	1427	1429	1421	1418	1422	1422	1412	1399	1410	1414	1414	1415	1411	1411	1413	1413	1416	1424	1436	1430	1422	1425	1429	1426	1419	1421	1424	1434	1441	1441	1435	1430	1417	1406	1400	1410	1417	1422	1412	1406	1412	1412	1424	1437	1441	1436	1430	1432	1425	1417	1402	1399	1411	1434	1440	1432	1427	1415	1419	1424	1435	1438	1439	1441	1430	1426	1427	1428	1439	1442	1457	1464	1448	1426	1422	1433	1447	1447	1445	1440	1435	1450	1464	1469	1470	1461	1462	1460	1458	1450	1445	1441	1439	1441	1439	1440	1445	1459	1474	1490	1448	1440	1434	1438	1447	1457	1460	1442	1439	1444	1445	1448	1443	1436	1457	1467	1448	1437	1432	1430	1436	1447	1459	1465	1460	1451	1441	1438	1438	1441	1440	1427	1420	1420	1433	1445	1459	1462	1469	1459	1454	1446	1443	1437	1436	1443	1454	1456	1454	1450	1447	1435	1429	1431	1434	1442	1445	1442	1446	1458	1463	1463	1456	1456	1450	1445	1448	1438	1439	1439	1430	1431	1440	1445	1442	1437	1449	1457	1452	1439	1423	1407	1410	1410	1405	1401	1403	1405	1417	1419	1421	1430	1439	1448	1452	1458	1468	1463	1458	1451	1428	1421	1421	1441	1453	1457	1448	1441	1434	1447	1452	1439	1437	1441	1435	1432	1426	1434	1436	1424	1420	1435	1456	1468	1473	1472	1467	1468	1466	1468	1479	1468	1456	1431	1410	1406	1423	1442	1442	1434	1432	1438	1441	1445	1446	1449	0	0	0	0	0	0	0	0	0	0	0	0	0	0	0	0	0	0	0	0	0	0	0	0	0	1654	1638	1623	1561	1499	1512	1517	1538	1547	1563	1569	1569	1567	1541	1526	1521	1526	1535	1541	1550	1553	1554	1543	1543	1566	1566	1565	1550	1530	1534	0	0	0	0	0	0	0	0	0	0	0	0	0	0	0	0	0	0	0	1478	1451	1422	1436	1469	1483	1487	1478	1475	1472	1474	1473	1479	1484	1490	1491	1492	1490	1491	1491	1494	1499	1510	1515	1512	1507	1501	1497	1498	1487	1477	1473	1476	1483	1498	1499	1505	1493	1491	1490	1494	1497	1494	1494	1482	1473	1473	1480	1493	1498	1488	1476	1465	1469	1489	1497	1494	1478	1449	1450	1454	1462	1454	1450	1450	1452	1461	1459	1449	1434	1439	1451	1470	1478	1480	1476	1476	1472	1466	1463	0	0	0	0	0	0
0	0	0	0	0	0	0	0	0	0	0	0	0	0	0	0	0	0	0	0	0	0	0	0	0	0	0	0	0	0	0	0	0	0	0	0	0	0	0	0	0	0	0	0	0	0	0	0	0	0	0	0	0	0	0	0	0	0	0	0	0	0	0	0	0	0	0	0	0	0	0	0	0	0	0	0	0	0	0	0	0	0	0	0	0	0	0	0	0	0	0	0	0	0	0	0	0	0	0	0	0	0	0	0	0	0	0	0	0	0	0	0	0	0	0	0	0	0	0	0	0	0	0	0	0	0	0	0	0	0	0	0	0	0	0	0	0	0	0	0	0	0	0	0	0	0	0	0	0	0	0	0	0	0	0	0	0	0	0	0	0	0	0	0	0	0	0	0	0	0	0	0	0	0	0	0	0	0	0	0	0	0	0	1400	1394	1400	1395	1386	1387	1404	1427	1464	1462	1443	1411	1408	1401	1404	1398	1393	1386	1384	1390	1390	1392	1395	1394	1396	1403	1416	1436	1445	1443	1410	1399	1398	1398	1407	1422	1431	1429	1427	1421	1413	1398	1403	1411	1422	1419	1402	1398	1431	1451	1464	1454	1437	1433	1422	1418	1412	1414	1425	1432	1426	1424	1444	1439	1428	1427	1422	1430	1436	1436	1418	1420	1416	1418	1421	1427	1435	1446	1449	1445	1437	1430	1427	1416	1404	1403	1410	1424	1428	1425	1420	1418	1431	1451	1458	1451	1444	1449	1449	1440	1424	1418	1429	1442	1439	1429	1423	1421	1427	1427	1429	1435	1441	1442	1439	1435	1433	1422	1431	1437	1435	1441	1444	1435	1434	1444	1452	1455	1458	1456	1450	1444	1446	1458	1470	1473	1470	1469	1468	1462	1452	1444	1442	1447	1443	1436	1433	1434	1459	1457	1481	1446	1437	1438	1440	1447	1455	1449	1430	1434	1453	1456	1461	1447	1444	1461	1454	1455	1434	1430	1429	1433	1444	1453	1460	1454	1446	1439	1437	1439	1445	1447	1444	1442	1445	1445	1445	1453	1454	1450	1441	1438	1439	1448	1457	1461	1458	1450	1441	1445	1451	1450	1446	1434	1443	1454	1455	1445	1444	1451	1451	1439	1440	1437	1433	1434	1433	1427	1423	1419	1425	1422	1415	1415	1419	1426	1433	1445	1454	1457	1450	1441	1425	1388	1383	1389	1412	1421	1431	1445	1442	1421	1415	1415	1421	1433	1451	1471	1469	1466	1461	1449	1435	1434	1445	1460	1458	1453	1446	1440	1449	1450	1444	1445	1438	1434	1436	1451	1462	1436	1416	1407	1414	1431	1449	1457	1459	1459	1457	1464	1469	1465	1459	1447	1419	1406	1414	1436	1451	1454	1441	1434	1438	1437	1438	1442	1446	0	0	0	0	0	0	0	0	0	0	0	0	0	0	0	0	0	0	0	0	0	0	0	0	0	1655	1649	1641	1603	1495	1502	1516	1530	1528	1540	1550	1555	1538	1531	1519	1519	1530	1532	1538	1541	1542	1543	1535	1539	1555	1553	1552	1555	1545	1549	0	0	0	0	0	0	0	0	0	0	0	0	0	0	0	0	0	0	0	1480	1455	1437	1450	1472	1483	1488	1485	1478	1470	1465	1468	1476	1488	1494	1502	1509	1509	1508	1502	1501	1507	1515	1519	1514	1513	1506	1504	1491	1486	1480	1485	1489	1493	1498	1507	1501	1494	1491	1494	1502	1498	1493	1486	1469	1470	1480	1480	1487	1494	1491	1483	1490	1494	1501	1499	1495	1460	1464	0	1469	1464	1468	1464	1464	1464	1468	1468	1451	1443	1444	1457	1469	1477	1480	1475	1475	1466	1464	1464	0	0	0	0	0	0
0	0	0	0	0	0	0	0	0	0	0	0	0	0	0	0	0	0	0	0	0	0	0	0	0	0	0	0	0	0	0	0	0	0	0	0	0	0	0	0	0	0	0	0	0	0	0	0	0	0	0	0	0	0	0	0	0	0	0	0	0	0	0	0	0	0	0	0	0	0	0	0	0	0	0	0	0	0	0	0	0	0	0	0	0	0	0	0	0	0	0	0	0	0	0	0	0	0	0	0	0	0	0	0	0	0	0	0	0	0	0	0	0	0	0	0	0	0	0	0	0	0	0	0	0	0	0	0	0	0	0	0	0	0	0	0	0	0	0	0	0	0	0	0	0	0	0	0	0	0	0	0	0	0	0	0	0	0	0	0	0	0	0	0	0	0	0	0	0	0	0	0	0	0	0	0	0	0	0	0	0	0	0	1423	1407	1403	1397	1391	1383	1402	1439	1462	1461	1439	1416	1405	1412	1404	1395	1390	1383	1387	1388	1398	1399	1393	1395	1397	1412	1430	1445	1455	1439	1422	1403	1406	1405	1408	1410	1428	1431	1422	1417	1411	1407	1396	1400	1413	1420	1410	1416	1436	1458	1469	1465	1452	1443	1430	1423	1419	1414	1423	1426	1429	1432	1445	1447	1446	1434	1424	1433	1439	1440	1422	1418	1420	1422	1426	1430	1438	1447	1442	1431	1427	1424	1433	1422	1415	1414	1422	1436	1440	1430	1427	1429	1443	1461	1463	1456	1447	1446	1445	1440	1435	1430	1437	1447	1440	1431	1420	1418	1424	1427	1428	1424	1431	1440	1437	1432	1434	1421	1431	1429	1433	1424	1422	1426	1435	1439	1448	1455	1455	1452	1446	1447	1446	1439	1434	1444	1453	1459	1460	1459	1455	1450	1450	1456	1449	1439	1431	1421	1411	1433	1444	1438	1436	1437	1444	1438	1447	1437	1434	1429	1426	1442	1436	1438	1463	1455	1456	1438	1432	1430	1432	1426	1433	1443	1450	1452	1443	1439	1437	1440	1445	1443	1443	1446	1443	1447	1444	1442	1437	1439	1432	1429	1431	1430	1450	1459	1462	1455	1448	1451	1455	1456	1456	1447	1451	1458	1452	1446	1447	1450	1448	1438	1437	1434	1438	1437	1433	1429	1430	1423	1424	1425	1420	1419	1421	1437	1435	1440	1448	1455	1449	1434	1408	1400	1395	1404	1427	1429	1440	1455	1446	1432	1417	1418	1422	1429	1447	1460	1466	1470	1466	1460	1450	1440	1449	1460	1463	1455	1448	1440	1447	1448	1448	1444	1440	1434	1437	1465	1476	1471	1452	1424	1423	1435	1446	1451	1453	1452	1456	1465	1472	1468	1449	1445	1439	1431	1429	1445	1462	1461	1456	1452	1448	1444	1436	1439	1438	1456	0	0	0	0	0	0	0	0	0	0	0	0	0	0	0	0	0	0	0	0	0	0	0	0	1653	1643	1619	1598	1527	1522	1524	1541	1536	1536	1531	1534	1529	1520	1522	1521	1537	1534	1532	1533	1530	1530	1523	1523	1545	1542	1547	1556	1564	1560	0	0	0	0	0	0	0	0	0	0	0	0	0	0	0	0	0	0	0	1474	1457	1450	1476	1487	1482	1488	1488	1487	1471	1461	1457	1475	1491	1500	1509	1514	1518	1519	1508	1506	1507	1509	1515	1511	1508	1510	1503	1491	1485	1489	1500	1506	1500	1505	1506	1500	1501	1497	1496	1501	1495	1486	1472	1469	1473	1481	1481	1490	1491	1487	1480	1490	1495	1502	1500	1493	1470	1460	0	1461	1466	1476	1477	1472	1472	1472	1468	1467	1455	1454	1455	1468	1477	1482	1477	1466	1466	1459	1460	0	0	0	0	0	0
0	0	0	0	0	0	0	0	0	0	0	0	0	0	0	0	0	0	0	0	0	0	0	0	0	0	0	0	0	0	0	0	0	0	0	0	0	0	0	0	0	0	0	0	0	0	0	0	0	0	0	0	0	0	0	0	0	0	0	0	0	0	0	0	0	0	0	0	0	0	0	0	0	0	0	0	0	0	0	0	0	0	0	0	0	0	0	0	0	0	0	0	0	0	0	0	0	0	0	0	0	0	0	0	0	0	0	0	0	0	0	0	0	0	0	0	0	0	0	0	0	0	0	0	0	0	0	0	0	0	0	0	0	0	0	0	0	0	0	0	0	0	0	0	0	0	0	0	0	0	0	0	0	0	0	0	0	0	0	0	0	0	0	0	0	0	0	0	0	0	0	0	0	0	0	0	0	0	0	0	0	0	1469	1443	1420	1424	1433	1432	1429	1437	1441	1447	1442	1433	1428	1417	1419	1411	1408	1411	1412	1406	1419	1420	1426	1405	1406	1410	1423	1434	1438	1455	1444	1421	1409	1412	1425	1424	1427	1424	1401	1397	1400	1405	1400	1397	1395	1405	1420	1422	1437	1444	1453	1454	1453	1451	1452	1445	1433	1419	1412	1408	1407	1405	1424	1452	1462	1466	1454	1436	1427	1422	1430	1432	1427	1422	1421	1423	1415	1416	1414	1417	1414	1411	1415	1429	1435	1433	1437	1444	1462	1462	1449	1432	1432	1446	1455	1460	1455	1448	1450	1445	1452	1458	1457	1445	1437	1433	1424	1416	1417	1416	1416	1419	1411	1424	1422	1424	1416	1422	1422	1428	1430	1428	1421	1419	1420	1421	1424	1435	1442	1448	1443	1440	1441	1439	1444	1442	1444	1450	1452	1456	1453	1448	1454	1457	1459	1462	1449	1444	1428	1403	1419	1435	1457	1441	1441	1451	1437	1443	1439	1439	1436	1436	1435	1422	1428	1444	1448	1441	1437	1441	1441	1430	1422	1422	1429	1439	1445	1441	1439	1440	1440	1436	1436	1430	1435	1441	1447	1441	1441	1439	1437	1431	1427	1429	1436	1448	1463	1469	1468	1464	1460	1462	1462	1459	1455	1459	1462	1459	1451	1451	1457	1451	1441	1432	1437	1440	1445	1438	1442	1437	1433	1434	1435	1430	1426	1435	1445	1443	1440	1446	1453	1447	1432	1414	1411	1429	1449	1453	1446	1445	1460	1456	1444	1440	1435	1435	1432	1441	1448	1466	1473	1474	1466	1453	1443	1448	1457	1466	1466	1455	1450	1447	1445	1448	1450	1443	1434	1442	1453	1471	1469	1463	1449	1447	1445	1449	1451	1453	1458	1458	1469	1477	1467	1458	1449	1445	1439	1446	1447	1456	1459	1461	1456	1449	1449	1442	1438	1441	1441	0	0	0	0	0	0	0	0	0	0	0	0	0	0	0	0	0	0	0	0	0	0	0	0	1632	1599	1582	1575	1553	1553	1553	1549	1544	1523	1511	1515	1514	1521	1530	1532	1546	1538	1520	1521	1521	1526	1522	1520	1528	1529	1540	1546	1580	1571	0	0	0	0	0	0	0	0	0	0	0	0	0	0	0	0	0	0	0	1472	1464	1469	1507	1507	1484	1479	1487	1478	1473	1464	1469	1480	1494	1496	1508	1511	1513	1510	1506	1498	1499	1499	1500	1495	1503	1504	1500	1492	1486	1489	1507	1514	1516	1507	1504	1496	1492	1493	1499	1491	1489	1486	1483	1477	1475	1485	1485	1489	1490	1477	1470	1480	1489	1496	1499	1489	1471	1467	1471	1473	1473	1479	1479	1475	1472	1481	1479	1471	1463	1456	1449	1466	1486	1490	1487	1471	1471	1461	1458	0	0	0	0	0	0
0	0	0	0	0	0	0	0	0	0	0	0	0	0	0	0	0	0	0	0	0	0	0	0	0	0	0	0	0	0	0	0	0	0	0	0	0	0	0	0	0	0	0	0	0	0	0	0	0	0	0	0	0	0	0	0	0	0	0	0	0	0	0	0	0	0	0	0	0	0	0	0	0	0	0	0	0	0	0	0	0	0	0	0	0	0	0	0	0	0	0	0	0	0	0	0	0	1444	1467	1481	1458	1454	1454	1444	1424	1422	1438	1433	1408	1382	1387	1404	1418	1427	1436	1456	1463	1458	1438	1403	1395	1389	1394	1381	1376	1375	1399	1413	1413	1405	1406	0	0	0	0	0	0	0	0	0	0	0	0	0	0	0	0	0	0	0	0	0	0	0	0	0	0	0	0	0	0	0	0	0	0	0	0	0	0	0	0	0	0	0	0	0	0	0	0	0	0	0	1456	1437	1422	1429	1441	1439	1433	1414	1425	1439	1435	1430	1428	1424	1425	1422	1417	1424	1421	1415	1413	1421	1430	1436	1427	1421	1419	1421	1422	1427	1438	1413	1403	1416	1430	1434	1425	1415	1404	1401	1401	1399	1395	1390	1388	1399	1412	1418	1439	1443	1441	1436	1438	1444	1444	1444	1432	1421	1411	1408	1411	1413	1425	1441	1458	1467	1441	1437	1431	1425	1430	1431	1427	1428	1429	1425	1418	1408	1410	1418	1413	1413	1418	1435	1447	1448	1447	1443	1448	1451	1444	1443	1439	1438	1447	1452	1450	1454	1455	1458	1459	1445	1430	1410	1407	1416	1435	1433	1428	1423	1423	1420	1413	1406	1410	1416	1423	1426	1429	1432	1433	1428	1423	1417	1411	1406	1410	1425	1438	1442	1432	1432	1436	1442	1450	1454	1451	1453	1456	1448	1441	1443	1445	1453	1453	1452	1449	1444	1433	1393	1414	1421	1457	1450	1448	1450	1448	1449	1442	1437	1446	1440	1439	1433	1437	1442	1443	1443	1446	1446	1439	1432	1420	1413	1419	1427	1434	1439	1439	1437	1435	1434	1431	1428	1432	1441	1446	1446	1441	1441	1441	1440	1434	1430	1431	1446	1464	1476	1477	1474	1467	1469	1469	1464	1458	1461	1463	1459	1455	1452	1459	1454	1444	1433	1437	1431	1447	1453	1452	1449	1450	1447	1444	1438	1435	1441	1439	1434	1441	1446	1452	1451	1434	1425	1432	1459	1472	1469	1462	1459	1461	1463	1458	1457	1454	1435	1422	1429	1445	1465	1475	1474	1462	1445	1435	1439	1449	1460	1464	1460	1454	1445	1446	1450	1458	1450	1444	1448	1451	1458	1458	1448	1444	1446	1450	1458	1455	1452	1453	1459	1468	1472	1468	1453	1449	1445	1437	1447	1454	1459	1465	1462	1455	1451	1449	1447	1456	1458	1447	0	0	0	0	0	0	0	0	0	0	0	0	0	0	0	0	0	0	0	0	0	0	0	0	1583	1561	1545	1554	1558	1567	1565	1549	1543	1533	1518	1500	1508	1528	1544	1546	1553	1543	1521	1513	1513	1520	1522	1524	1525	1521	1532	1539	1582	1575	0	0	0	0	0	0	0	0	0	0	0	0	0	0	0	0	0	0	0	1475	1478	1495	1524	1522	1489	1486	1482	1472	1469	1464	1475	1483	1492	1488	1496	1502	1500	1502	1500	1492	1485	1482	1479	1482	1488	1495	1497	1487	1488	1498	1504	1516	1511	1504	1498	1493	1484	1479	1483	1492	1482	1489	1490	1491	1481	1484	1485	1485	1484	1480	1475	1473	1481	1491	1498	1484	1480	1467	1463	1473	1478	1479	1473	1444	1452	1452	1459	1475	1463	1453	1457	1472	1489	1499	1498	1482	1482	1470	1464	0	0	0	0	0	0
0	0	0	0	0	0	0	0	0	0	0	0	0	0	0	0	0	0	0	0	0	0	0	0	0	0	0	0	0	0	0	0	0	0	0	0	0	0	0	0	0	0	0	0	0	0	0	0	0	0	0	0	0	0	0	0	0	0	0	0	0	0	0	0	0	0	0	0	0	0	0	0	0	0	0	0	0	0	0	0	0	0	0	0	0	0	0	0	0	1466	1447	1432	1421	1408	1401	1404	1434	1460	1474	1461	1457	1444	1432	1408	1399	1403	1416	1422	1415	1401	1388	1383	1378	1380	1380	1395	1425	1443	1431	1411	1402	1404	1420	1415	1417	1425	1437	1445	1433	1422	1412	1384	0	0	0	0	0	0	0	0	0	0	0	0	0	0	0	0	0	0	0	0	0	0	0	0	0	0	0	0	0	0	0	0	0	0	0	0	0	0	0	0	0	0	0	0	0	0	0	0	0	0	1403	1387	1401	1420	1440	1426	1403	1399	1402	1411	1424	1417	1418	1418	1427	1433	1437	1434	1427	1416	1413	1417	1432	1435	1435	1426	1424	1428	1423	1430	1432	1415	1399	1408	1414	1420	1429	1421	1412	1404	1403	1399	1394	1388	1387	1395	1407	1417	1434	1435	1427	1419	1422	1431	1440	1441	1430	1420	1415	1417	1418	1423	1430	1437	1437	1430	1432	1438	1443	1437	1432	1432	1433	1435	1425	1421	1415	1408	1411	1422	1423	1428	1430	1436	1445	1441	1428	1424	1427	1429	1437	1440	1438	1437	1434	1434	1440	1436	1451	1455	1452	1435	1422	1407	1409	1425	1442	1439	1430	1423	1421	1421	1416	1408	1418	1421	1425	1425	1426	1428	1425	1419	1414	1416	1403	1394	1399	1416	1433	1439	1433	1426	1427	1441	1457	1464	1456	1455	1453	1445	1437	1437	1439	1441	1446	1445	1439	1436	1424	1388	1405	1414	1446	1452	1453	1451	1448	1446	1442	1445	1452	1452	1444	1440	1439	1440	1442	1444	1447	1448	1440	1430	1424	1416	1419	1424	1432	1436	1436	1430	1431	1432	1432	1432	1434	1439	1445	1450	1449	1445	1441	1437	1431	1433	1435	1444	1460	1467	1475	1474	1470	1472	1468	1456	1451	1457	1463	1455	1449	1456	1461	1459	1450	1431	1427	1430	1442	1449	1452	1454	1459	1454	1446	1439	1435	1433	1430	1432	1440	1450	1450	1452	1442	1440	1445	1470	1484	1473	1468	1460	1456	1457	1451	1453	1446	1428	1426	1428	1437	1455	1468	1473	1456	1438	1426	1427	1437	1453	1458	1450	1448	1446	1447	1454	1464	1469	1457	1454	1460	1453	1433	1430	1434	1442	1461	1466	1459	1442	1427	1442	1452	1451	1447	1449	1445	1446	1456	1457	1467	1463	1460	1459	1450	1440	1443	1452	1469	1476	1452	0	0	0	0	0	0	0	0	0	0	0	0	0	0	0	0	0	0	0	0	0	0	0	0	1568	1554	1541	1536	1539	1542	1553	1546	1544	1545	1526	1499	1507	1526	1543	1558	1561	1552	1526	1513	1511	1520	1523	1526	1523	1519	1523	1532	1571	1575	0	0	0	0	0	0	0	0	0	0	0	0	0	0	0	0	0	0	0	1486	1502	1508	1519	1517	1485	1480	1473	1462	1467	1475	1483	1489	1486	1481	1486	1488	1493	1493	1491	1489	1482	1480	1473	1475	1485	1493	1492	1490	1492	1494	1501	1495	1493	1494	1495	1485	1480	1477	1481	1489	1488	1492	1503	1499	1489	1482	1489	1489	1486	1481	1470	1459	1454	1462	1474	1495	1494	1481	1476	1479	1477	1469	1459	1445	1451	1451	1456	1464	1456	1450	1455	1476	1492	1501	1504	1503	1491	1491	1472	0	0	0	0	0	0
0	0	0	0	0	0	0	0	0	0	0	0	0	0	0	0	0	0	0	0	0	0	0	0	0	0	0	0	0	0	0	0	0	0	0	0	0	0	0	0	0	0	0	0	0	0	0	0	0	0	0	0	0	0	0	0	0	0	0	0	0	0	0	0	0	0	0	0	0	0	0	0	0	0	0	0	0	0	0	0	0	0	0	0	0	0	0	1477	1465	1440	1422	1418	1399	1381	1380	1411	1440	1461	1460	1442	1424	1418	1410	1407	1398	1405	1414	1423	1417	1399	1383	1375	1373	1380	1386	1398	1406	1415	1406	1404	1401	1406	1417	1424	1423	1428	1430	1435	1432	1425	1417	1395	1380	0	0	0	0	0	0	0	0	0	0	0	0	0	0	0	0	0	0	0	0	0	0	0	0	0	0	0	0	0	0	0	0	0	0	0	0	0	0	0	0	0	0	0	0	0	0	0	0	0	1368	1365	1386	1408	1411	1414	1395	1389	1391	1393	1399	1398	1403	1409	1429	1439	1448	1444	1437	1426	1417	1422	1429	1438	1436	1432	1439	1445	1449	1434	1427	1411	1401	1398	1406	1418	1430	1427	1417	1411	1404	1399	1396	1394	1397	1400	1404	1422	1424	1418	1408	1409	1407	1418	1432	1430	1428	1422	1422	1424	1425	1427	1426	1428	1419	1411	1420	1437	1441	1431	1429	1430	1434	1437	1435	1427	1415	1406	1415	1431	1440	1439	1440	1430	1411	1418	1416	1410	1408	1413	1420	1428	1429	1428	1428	1425	1419	1426	1438	1444	1445	1433	1422	1417	1422	1442	1446	1438	1428	1419	1419	1421	1423	1420	1421	1422	1423	1419	1420	1426	1422	1421	1423	1415	1405	1395	1397	1414	1424	1436	1438	1438	1436	1439	1454	1456	1452	1453	1454	1449	1441	1436	1428	1433	1440	1443	1438	1424	1415	1398	1411	1422	1444	1452	1456	1448	1444	1444	1438	1449	1455	1453	1448	1441	1442	1438	1441	1444	1447	1449	1442	1438	1438	1435	1431	1429	1434	1436	1438	1430	1430	1435	1441	1442	1440	1442	1443	1449	1449	1443	1440	1433	1435	1436	1440	1446	1451	1457	1462	1464	1460	1464	1455	1450	1453	1459	1454	1449	1450	1452	1460	1460	1445	1434	1434	1435	1439	1445	1452	1454	1455	1454	1445	1435	1429	1424	1423	1430	1442	1449	1451	1454	1448	1444	1447	1466	1475	1469	1457	1457	1454	1447	1442	1437	1429	1427	1431	1434	1437	1451	1457	1457	1450	1431	1422	1420	1433	1452	1455	1446	1445	1450	1447	1450	1463	1470	1465	1452	1448	1435	1426	1423	1428	1441	1462	1470	1460	1444	1436	1432	1428	1434	1425	1450	1449	1459	1486	1493	1482	1467	1453	1443	1443	1436	1437	1449	1459	1479	1454	0	0	0	0	0	0	0	0	0	0	0	0	0	0	0	0	0	0	0	0	0	0	0	0	1570	1553	1538	1527	1517	1529	1536	1541	1553	1554	1542	1521	1516	1525	1549	1565	1565	1551	1527	1514	1518	1517	1522	1521	1517	1517	1522	1536	1551	1572	1572	0	0	0	0	0	0	0	0	0	0	0	0	0	0	0	0	0	0	1493	1510	1514	1508	1495	1486	1482	1472	1459	1469	1474	1484	1483	1481	1479	1481	1480	1485	1485	1495	1495	1493	1487	1478	1484	1487	1493	1493	1493	1495	1491	1480	1469	1470	1476	1481	1486	1482	1483	1488	1483	1484	1498	1506	1495	1502	1494	1502	1494	1494	1485	1469	1459	1445	1457	1470	1493	1499	1504	1500	1497	1490	1492	1469	1460	1458	1458	1459	1471	1463	1440	1446	1465	1476	1485	1481	1480	1478	1478	1483	0	0	0	0	0	0
0	0	0	0	0	0	0	0	0	0	0	0	0	0	0	0	0	0	0	0	0	0	0	0	0	0	0	0	0	0	0	0	0	0	0	0	0	0	0	0	0	0	0	0	0	0	0	0	0	0	0	0	0	0	0	0	0	0	0	0	0	0	0	0	0	0	0	0	0	0	0	0	0	0	0	0	0	0	0	0	0	0	0	0	0	0	1427	1434	1410	1408	1414	1421	1421	1418	1401	1414	1439	1454	1452	1436	1406	1404	1403	1401	1404	1409	1416	1415	1412	1391	1384	1382	1386	1394	1404	1409	1413	1413	1412	1407	1407	1413	1414	1413	1413	1422	1427	1424	1427	1429	1426	1409	1389	0	0	0	0	0	0	0	0	0	0	0	0	0	0	0	0	0	0	0	0	0	0	0	0	0	0	0	0	0	0	0	0	0	0	0	0	0	0	0	0	0	0	0	0	0	0	0	0	0	1353	1359	1373	1399	1407	1406	1405	1400	1399	1393	1390	1394	1397	1413	1427	1442	1449	1453	1444	1434	1429	1429	1434	1434	1434	1437	1449	1467	1462	1437	1430	1415	1401	1401	1402	1412	1424	1423	1417	1412	1402	1405	1409	1408	1412	1411	1411	1409	1414	1413	1403	1401	1403	1407	1417	1427	1430	1424	1422	1419	1423	1420	1414	1407	1402	1402	1414	1430	1441	1424	1435	1437	1447	1443	1438	1432	1423	1419	1415	1429	1438	1438	1433	1425	1411	1417	1412	1403	1403	1409	1410	1413	1420	1422	1420	1415	1410	1411	1423	1430	1436	1431	1425	1429	1438	1452	1445	1435	1426	1419	1415	1416	1421	1415	1413	1420	1416	1416	1420	1424	1429	1431	1432	1423	1411	1406	1404	1416	1427	1447	1450	1447	1445	1439	1438	1440	1443	1447	1448	1449	1446	1436	1426	1427	1433	1444	1434	1430	1420	1406	1419	1425	1439	1448	1456	1448	1448	1446	1445	1451	1456	1454	1445	1443	1442	1440	1441	1448	1451	1451	1446	1444	1442	1442	1436	1433	1435	1438	1437	1434	1439	1449	1450	1451	1448	1447	1445	1451	1454	1453	1446	1442	1438	1436	1441	1448	1448	1449	1458	1461	1453	1457	1443	1445	1452	1457	1458	1447	1445	1446	1451	1449	1441	1439	1437	1438	1440	1447	1450	1457	1450	1450	1439	1432	1426	1424	1423	1433	1442	1454	1457	1454	1452	1444	1444	1453	1468	1474	1474	1467	1463	1453	1444	1436	1431	1438	1445	1451	1444	1444	1448	1444	1443	1429	1425	1428	1438	1462	1461	1451	1453	1454	1450	1447	1450	1459	1458	1451	1443	1437	1424	1426	1433	1445	1461	1466	1462	1453	1450	1440	1442	1449	1446	1447	1457	1476	1493	1495	1486	1470	1454	1442	1443	1437	1441	1444	1447	1457	1468	1450	0	0	0	0	0	0	0	0	0	0	0	0	0	0	0	0	0	0	0	0	0	0	0	1566	1555	1538	1517	1500	1528	1536	1533	1549	1553	1543	1539	1533	1535	1553	1554	1547	1532	1523	1520	1523	1535	1527	1527	1524	1538	1544	1555	1552	1552	1563	0	0	0	0	0	0	0	0	0	0	0	0	0	0	0	0	0	0	1485	1494	1501	1493	1493	1489	1489	1484	1468	1462	1479	1481	1482	1488	1488	1482	1481	1485	1491	1500	1509	1501	1492	1489	1482	1495	1494	1495	1495	1497	1487	1472	1461	1462	1465	1480	1479	1481	1476	1485	1485	1490	1495	1496	1512	1514	1510	1496	1490	1490	1481	1466	1456	1444	1449	1458	1479	1493	1510	1512	1518	1514	1484	1460	1463	1466	1466	1473	1481	1470	1455	1445	1452	1457	1458	1453	1454	1464	1464	1479	0	0	0	0	0	0
0	0	0	0	0	1395	1395	1377	1387	1392	1391	1390	1390	1386	1377	1392	1406	1407	1407	1412	1415	1430	1441	1454	1460	1445	1445	1429	1410	1395	1392	1392	1411	1421	1421	1422	1419	1416	1431	0	0	0	0	0	0	0	0	0	0	1421	1446	1465	1474	1482	1485	1473	0	1447	1447	1448	1450	1467	1470	1462	1446	1424	1424	1437	1445	1439	1428	1416	1426	1438	1457	1473	1453	1425	1417	1428	1446	1463	1460	1442	1418	1408	1408	1398	1383	1383	1391	1409	1423	1427	1414	1404	1431	1436	1425	1408	1398	1402	1401	1405	1406	1409	1419	1419	1413	1399	1388	1387	1396	1401	1410	1412	1418	1414	1409	1414	1415	1418	1415	1408	1407	1412	1420	1428	1433	1435	1431	1420	1397	1400	0	0	0	0	0	0	0	0	0	0	0	0	0	0	0	0	0	0	0	0	0	0	0	0	0	0	0	0	0	0	0	0	0	0	0	0	0	0	0	0	0	0	0	0	0	0	0	0	1355	1374	1387	1408	1418	1419	1420	1415	1412	1414	1411	1408	1409	1420	1424	1426	1437	1449	1447	1444	1434	1433	1429	1428	1428	1434	1443	1431	1410	1432	1435	1423	1410	1402	1408	1412	1414	1417	1412	1405	1405	1410	1424	1426	1424	1423	1418	1404	1411	1412	1411	1400	1396	1404	1404	1419	1427	1424	1422	1412	1409	1407	1397	1391	1391	1395	1409	1423	1428	1420	1434	1445	1451	1447	1440	1437	1433	1432	1419	1427	1430	1429	1428	1428	1425	1424	1421	1413	1409	1408	1405	1409	1413	1418	1420	1419	1411	1415	1422	1430	1436	1435	1432	1439	1454	1453	1448	1444	1437	1426	1417	1409	1407	1401	1407	1411	1421	1420	1426	1434	1436	1442	1437	1430	1422	1416	1420	1430	1435	1450	1458	1460	1447	1424	1430	1431	1436	1443	1442	1445	1442	1435	1427	1428	1435	1448	1453	1447	1430	1426	1441	1443	1428	1442	1458	1459	1449	1443	1444	1450	1452	1451	1445	1441	1442	1443	1445	1446	1447	1448	1444	1443	1445	1445	1435	1432	1432	1436	1440	1449	1456	1463	1466	1464	1462	1464	1463	1464	1464	1467	1462	1454	1449	1439	1448	1446	1446	1446	1452	1454	1459	1450	1447	1458	1457	1452	1450	1445	1436	1432	1433	1438	1433	1427	1427	1434	1443	1447	1453	1449	1446	1447	1440	1433	1431	1427	1430	1437	1449	1454	1455	1454	1456	1449	1452	1460	1465	1473	1475	1476	1465	1448	1440	1434	1443	1455	1466	1466	1462	1446	1445	1448	1440	1429	1427	1434	1450	1464	1469	1455	1454	1455	1443	1443	1445	1453	1465	1468	1450	1434	1427	1426	1437	1450	1466	1469	1464	1461	1462	1456	1465	1469	1466	1458	1436	1443	1473	1477	1472	1460	1451	1441	1445	1447	1446	1441	1436	1444	1460	1464	0	0	0	0	0	0	0	0	0	0	0	0	0	0	0	0	0	0	0	0	0	0	0	1564	1544	1538	1522	1512	1533	1535	1538	1542	1549	1555	1550	1548	1548	1554	1553	1545	1536	1535	1533	1528	1526	1515	1523	1529	1550	1555	1564	1558	1559	1535	0	0	0	0	0	0	0	0	0	0	0	0	0	0	0	0	0	0	1494	1495	1480	1484	1497	1500	1499	1494	1481	1464	1476	1488	1496	1500	1493	1485	1483	1488	1491	1507	1513	1504	1487	1481	1484	1484	1490	1496	1493	1500	1481	1471	1454	1455	1471	1481	1472	1465	1467	1473	1489	1498	1506	1516	1521	1522	1512	1496	1487	1487	1471	1463	1451	1445	1445	1451	1468	1482	1491	1459	1467	1494	1479	1465	1458	1465	1479	1479	1497	1478	1460	1452	1445	1448	1449	1438	1437	1457	1457	1482	0	0	0	0	0	0
