0	0	0	0	0	0	0	0	0	0	0	0	0	0	0	0	0	0	0	0	0	0	0	0	0	0	0	0	0	0	0	0	0	0	0	0	0	0	0	0	0	0	0	0	0	0	0	0	0	0	0	0	0	0	0	0	0	0	0	0	0	0	0	0	0	0	0	0	0	0	0	0	0	0	0	0	0	0	0	0	0	0	0	0	0	0	0	0	0	0	0	0	0	0	0	0	0	0	0	0	0	0	0	0	0	0	0	0	0	0	0	0	0	0	0	0	0	0	0	0	0	0	0	0	0	0	0	0	0	0	0	0	0	0	0	0	0	0	0	0	0	0	0	0	0	0	0	0	0	0	0	0	0	0	0	0	0	0	0	0	0	0	0	0	0	0	0	0	0	0	0	0	0	0	0	0	0	0	0	0	0	0	0	0	0	0	0	0	0	0	0	0	0	0	0	0	0	0	0	0	0	0	0	0	0	0	0	0	0	0	0	0	0	0	0	0	0	0	0	0	0	0	0	0	0	0	0	0	0	0	0	0	0	0	0	0	0	0	0	0	0	0	0	0	0	0	0	0	1378	1390	1390	1395	1395	1386	1377	1373	1368	1362	1363	1373	1375	1372	1365	1358	1353	1348	1338	1335	1337	1345	1361	1372	1377	1367	1361	1356	1370	1368	1349	1340	1340	1354	1363	1368	1381	1382	1377	1367	1360	1358	1359	1353	1347	1341	1333	1322	1321	1332	1350	1347	1339	1321	1315	1310	1313	1324	1335	1347	1352	1348	1353	1358	1362	1362	1359	1362	1372	1370	1364	1358	1355	1359	1353	1346	1338	1335	1338	1342	1340	1336	1341	1350	1351	1355	1356	1359	1357	1341	1335	1338	1333	1333	1332	1328	1325	1331	1330	1330	1330	1332	1332	1334	1335	1343	1346	1342	1332	1319	1315	1319	1322	1323	1323	1317	1307	1309	1319	1331	1343	1349	1339	1334	1333	1333	1337	1337	1330	1329	1323	1320	1318	1324	1330	1330	1322	1326	1342	1346	1346	1335	1330	1326	1322	1321	1322	1321	1320	1321	1322	1337	1341	1347	1351	1355	1356	1320	1318	1318	1317	1322	1326	1326	1332	1336	1340	1342	1332	1296	1305	1311	1318	1313	1295	1286	1288	1296	1300	1304	1306	1304	1301	1305	1308	1311	1312	1311	1312	1309	1305	1303	1294	1285	1291	1295	1298	1303	1304	1292	1288	1292	1302	1297	1289	1290	1305	1311	1307	1305	1302	1303	1304	1303	1303	1306	1305	1297	1286	1279	1279	1281	1290	1288	1294	1303	1302	1300	1296	1284	1280	1277	1284	1280	1279	1283	1287	1280	1267	1261	1261	1264	1271	1269	1264	1249	1266	1283	1291	1286	1271	1267	1266	1270	1278	1290	1300	1298	1294	1289	1282	1279	1273	1274	1281	1285	1289	1287	1283	1291	1296	1291	1277	1256	1247	1242	1247	1261	1277	1293	1307	1291	1275	1260	1264	1271	1280	1284	1280	1273	1263	1266	1268	1281	1289	1290	1281	1266	1271	1271	1277	1281	1277	1274	1272	1269	1264	1261	1252	1247	1257	1277	1289	1293	1290	1280	1263	1254	1252	1253	1261	1266	1276	1277	1272	1266	1262	1260	1258	1254	1264	1270	1293	0	0	0	0	0	0	0	0	0	0	0	0	0	0	0	0	0	0	0	0	0	0	0	0	0	0	0	1291	1320	1330	1326	1311	1299	1299	1290	1317	1335	1331	1323	1308	1294	1267	1282	1317	1317	1317	1322	1321	1318	1317	1326	1328	1324	0	0	0	0	0	0
0	0	0	0	0	0	0	0	0	0	0	0	0	0	0	0	0	0	0	0	0	0	0	0	0	0	0	0	0	0	0	0	0	0	0	0	0	0	0	0	0	0	0	0	0	0	0	0	0	0	0	0	0	0	0	0	0	0	0	0	0	0	0	0	0	0	0	0	0	0	0	0	0	0	0	0	0	0	0	0	0	0	0	0	0	0	0	0	0	0	0	0	0	0	0	0	0	0	0	0	0	0	0	0	0	0	0	0	0	0	0	0	0	0	0	0	0	0	0	0	0	0	0	0	0	0	0	0	0	0	0	0	0	0	0	0	0	0	0	0	0	0	0	0	0	0	0	0	0	0	0	0	0	0	0	0	0	0	0	0	0	0	0	0	0	0	0	0	0	0	0	0	0	0	0	0	0	0	0	0	0	0	0	0	0	0	0	0	0	0	0	0	0	0	0	0	0	0	0	0	0	0	0	0	0	0	0	0	0	0	0	0	0	0	0	0	0	0	0	0	0	0	0	0	0	0	0	0	0	0	0	0	0	0	0	0	0	0	0	0	0	0	0	0	0	0	0	0	1379	1402	1393	1395	1385	1376	1373	1370	1369	1367	1368	1374	1373	1367	1361	1347	1346	1337	1331	1329	1335	1344	1359	1370	1374	1368	1365	1360	1373	1370	1354	1346	1341	1350	1360	1365	1372	1374	1368	1358	1350	1344	1347	1341	1335	1342	1331	1326	1324	1337	1346	1347	1348	1333	1328	1317	1316	1327	1339	1350	1356	1341	1353	1356	1360	1363	1354	1357	1365	1363	1357	1356	1354	1358	1358	1349	1343	1340	1336	1333	1324	1316	1321	1332	1340	1347	1351	1350	1345	1328	1322	1327	1329	1327	1326	1326	1321	1321	1326	1328	1330	1336	1339	1337	1336	1336	1336	1334	1328	1322	1320	1322	1322	1327	1328	1322	1319	1310	1318	1325	1335	1339	1340	1340	1335	1335	1339	1337	1336	1332	1325	1321	1323	1324	1335	1335	1335	1333	1345	1354	1356	1352	1342	1334	1327	1319	1317	1317	1318	1317	1322	1335	1339	1345	1350	1351	1342	1339	1330	1326	1310	1320	1326	1332	1332	1333	1333	1331	1325	1297	1303	1318	1320	1315	1310	1311	1312	1303	1307	1307	1307	1306	1305	1306	1302	1308	1313	1316	1311	1301	1301	1300	1292	1289	1292	1303	1302	1301	1298	1288	1285	1290	1304	1302	1300	1297	1303	1300	1302	1303	1304	1306	1302	1302	1297	1294	1293	1291	1281	1281	1279	1279	1287	1288	1291	1298	1300	1304	1300	1292	1283	1274	1276	1274	1274	1280	1286	1288	1276	1266	1268	1275	1278	1270	1260	1244	1253	1261	1273	1274	1266	1263	1263	1269	1283	1293	1304	1305	1300	1290	1287	1278	1270	1273	1282	1287	1289	1281	1285	1298	1299	1288	1277	1262	1252	1255	1264	1261	1274	1283	1295	1288	1280	1277	1275	1284	1286	1290	1285	1278	1265	1265	1276	1289	1288	1287	1281	1274	1273	1279	1280	1282	1277	1272	1268	1264	1263	1256	1250	1252	1263	1277	1281	1283	1282	1276	1270	1262	1261	1265	1266	1271	1277	1279	1271	1263	1257	1251	1248	1244	1256	1273	1309	0	0	0	0	0	0	0	0	0	0	0	0	0	0	0	0	0	0	0	0	0	0	0	0	0	0	0	1314	1337	1338	1331	1308	1293	1293	1287	1313	1322	1318	1309	1291	1271	1298	1355	1327	1333	1326	1326	1322	1322	1326	1331	1327	1317	0	0	0	0	0	0
0	0	0	0	0	0	0	0	0	0	0	0	0	0	0	0	0	0	0	0	0	0	0	0	0	0	0	0	0	0	0	0	0	0	0	0	0	0	0	0	0	0	0	0	0	0	0	0	0	0	0	0	0	0	0	0	0	0	0	0	0	0	0	0	0	0	0	0	0	0	0	0	0	0	0	0	0	0	0	0	0	0	0	0	0	0	0	0	0	0	0	0	0	0	0	0	0	0	0	0	0	0	0	0	0	0	0	0	0	0	0	0	0	0	0	0	0	0	0	0	0	0	0	0	0	0	0	0	0	0	0	0	0	0	0	0	0	0	0	0	0	0	0	0	0	0	0	0	0	0	0	0	0	0	0	0	0	0	0	0	0	0	0	0	0	0	0	0	0	0	0	0	0	0	0	0	0	0	0	0	0	0	0	0	0	0	0	0	0	0	0	0	0	0	0	0	0	0	0	0	0	0	0	0	0	0	0	0	0	0	0	0	0	0	0	0	0	0	0	0	0	0	0	0	0	0	0	0	0	0	0	0	0	0	0	0	0	0	0	0	0	0	0	0	0	0	0	0	0	1383	1392	1392	1383	1374	1369	1371	1368	1369	1369	1369	1364	1360	1353	1340	1342	1339	1332	1328	1328	1337	1352	1364	1365	1363	1361	1364	1370	1369	1353	1347	1345	1351	1354	1360	1362	1365	1361	1346	1339	1334	1343	1346	1345	1354	1343	1336	1336	1339	1344	1343	1348	1344	1340	1328	1325	1329	1338	1345	1346	1343	1351	1356	1359	1360	1354	1351	1355	1354	1350	1344	1337	1341	1350	1346	1345	1342	1340	1331	1326	1321	1314	1321	1331	1338	1342	1339	1335	1322	1320	1321	1323	1325	1324	1319	1319	1316	1320	1311	1332	1342	1346	1342	1337	1334	1334	1335	1333	1329	1329	1324	1328	1341	1346	1334	1326	1317	1315	1318	1328	1338	1343	1340	1331	1326	1325	1322	1325	1321	1323	1322	1330	1336	1337	1335	1333	1333	1340	1345	1348	1347	1345	1341	1328	1317	1311	1310	1310	1319	1330	1333	1329	1338	1341	1334	1312	1326	1327	1320	1302	1317	1323	1327	1324	1326	1318	1318	1314	1305	1321	1326	1324	1318	1314	1317	1313	1312	1305	1310	1307	1307	1312	1313	1307	1312	1319	1320	1314	1303	1296	1297	1293	1292	1301	1303	1305	1302	1294	1285	1291	1302	1312	1318	1314	1309	1303	1297	1294	1294	1299	1301	1302	1299	1293	1288	1286	1287	1285	1272	1271	1264	1268	1267	1268	1276	1287	1302	1316	1315	1277	1267	1259	1263	1272	1283	1297	1302	1290	1279	1286	1292	1291	1279	1264	1245	1248	1257	1264	1266	1272	1270	1267	1266	1273	1282	1287	1298	1294	1289	1279	1276	1265	1263	1275	1285	1296	1298	1293	1298	1299	1299	1288	1275	1275	1292	1303	1303	1294	1281	1267	1264	1266	1270	1277	1288	1294	1296	1287	1271	1263	1264	1277	1286	1292	1287	1284	1274	1269	1274	1279	1277	1269	1255	1257	1264	1264	1257	1250	1248	1257	1267	1262	1261	1267	1268	1272	1274	1274	1279	1281	1279	1278	1279	1269	1250	1243	1235	1238	1242	1251	1279	1317	0	0	0	0	0	0	0	0	0	0	0	0	0	0	0	0	0	0	0	0	0	0	0	0	0	0	0	1343	1353	1351	1342	1305	1290	1297	1297	1311	1310	1309	1304	1293	1289	1350	1366	1385	1340	1329	1329	1323	1326	1331	1340	1334	1323	0	0	0	0	0	0
0	0	0	0	0	0	0	0	0	0	0	0	0	0	0	0	0	0	0	0	0	0	0	0	0	0	0	0	0	0	0	0	0	0	0	0	0	0	0	0	0	0	0	0	0	0	0	0	0	0	0	0	0	0	0	0	0	0	0	0	0	0	0	0	0	0	0	0	0	0	0	0	0	0	0	0	0	0	0	0	0	0	0	0	0	0	0	0	0	0	0	0	0	0	0	0	0	0	0	0	0	0	0	0	0	0	0	0	0	0	0	0	0	0	0	0	0	0	0	0	0	0	0	0	0	0	0	0	0	0	0	0	0	0	0	0	0	0	0	0	0	0	0	0	0	0	0	0	0	0	0	0	0	0	0	0	0	0	0	0	0	0	0	0	0	0	0	0	0	0	0	0	0	0	0	0	0	0	0	0	0	0	0	0	0	0	0	0	0	0	0	0	0	0	0	0	0	0	0	0	0	0	0	0	0	0	0	0	0	0	0	0	0	0	0	0	0	0	0	0	0	0	0	0	0	0	0	0	0	0	0	0	0	0	0	0	0	0	0	0	0	0	0	0	0	0	0	0	0	1349	1387	1389	1370	1359	1359	1365	1369	1370	1363	1360	1359	1353	1350	1342	1343	1340	1333	1327	1325	1331	1345	1354	1355	1358	1359	1363	1364	1360	1355	1348	1349	1348	1350	1347	1345	1353	1348	1342	1338	1343	1348	1360	1365	1362	1354	1345	1342	1340	1344	1340	1343	1341	1333	1339	1342	1348	1349	1347	1340	1341	1345	1352	1361	1361	1358	1355	1358	1356	1347	1337	1331	1332	1340	1342	1341	1341	1341	1338	1334	1330	1328	1329	1329	1329	1328	1327	1326	1321	1318	1320	1328	1331	1328	1324	1321	1314	1317	1323	1334	1344	1349	1347	1333	1332	1333	1335	1337	1339	1337	1330	1331	1339	1345	1345	1331	1324	1322	1322	1329	1335	1336	1331	1323	1310	1313	1308	1316	1310	1317	1328	1336	1340	1338	1334	1329	1328	1336	1336	1335	1337	1333	1327	1322	1314	1305	1307	1312	1323	1335	1337	1329	1329	1324	1320	1296	1314	1319	1305	1298	1312	1318	1322	1326	1312	1308	1299	1298	1296	1317	1329	1308	1301	1313	1315	1312	1312	1307	1294	1293	1305	1319	1327	1326	1327	1331	1325	1315	1301	1295	1295	1297	1300	1310	1309	1311	1306	1304	1304	1313	1322	1321	1323	1314	1301	1297	1288	1285	1292	1297	1298	1293	1307	1309	1306	1297	1290	1282	1270	1265	1264	1258	1257	1253	1257	1279	1300	1315	1315	1282	1269	1265	1266	1272	1287	1298	1298	1288	1276	1281	1292	1299	1298	1292	1281	1266	1269	1273	1290	1290	1278	1273	1270	1269	1271	1278	1289	1286	1282	1272	1272	1252	1254	1274	1296	1304	1302	1296	1290	1290	1299	1286	1277	1274	1291	1307	1308	1300	1284	1264	1262	1262	1263	1275	1286	1297	1297	1280	1266	1260	1263	1276	1279	1287	1287	1284	1270	1261	1259	1272	1270	1255	1250	1252	1269	1262	1254	1255	1253	1256	1257	1256	1245	1250	1262	1275	1281	1288	1291	1291	1291	1285	1276	1264	1244	1234	1234	1237	1245	1255	1268	1314	0	0	0	0	0	0	0	0	0	0	0	0	0	0	0	0	0	0	0	0	0	0	0	0	0	0	0	1349	1365	1363	1347	1312	1295	1295	1295	1308	1304	1305	1302	1310	1329	1342	1381	1348	1340	1324	1324	1321	1326	1329	1343	1349	1338	0	0	0	0	0	0
0	0	0	0	0	0	0	0	0	0	0	0	0	0	0	0	0	0	0	0	0	0	0	0	0	0	0	0	0	0	0	0	0	0	0	0	0	0	0	0	0	0	0	0	0	0	0	0	0	0	0	0	0	0	0	0	0	0	0	0	0	0	0	0	0	0	0	0	0	0	0	0	0	0	0	0	0	0	0	0	0	0	0	0	0	0	0	0	0	0	0	0	0	0	0	0	0	0	0	0	0	0	0	0	0	0	0	0	0	0	0	0	0	0	0	0	0	0	0	0	0	0	0	0	0	0	0	0	0	0	0	0	0	0	0	0	0	0	0	0	0	0	0	0	0	0	0	0	0	0	0	0	0	0	0	0	0	0	0	0	0	0	0	0	0	0	0	0	0	0	0	0	0	0	0	0	0	0	0	0	0	0	0	0	0	0	0	0	0	0	0	0	0	0	0	0	0	0	0	0	0	0	0	0	0	0	0	0	0	0	0	0	0	0	0	0	0	0	0	0	0	0	0	0	0	0	0	0	0	0	0	0	0	0	0	0	0	0	0	0	0	0	0	0	0	0	0	0	0	1341	1372	1371	1345	1338	1347	1357	1366	1368	1368	1363	1360	1352	1341	1345	1348	1342	1334	1326	1322	1329	1337	1347	1355	1360	1364	1362	1365	1356	1349	1350	1355	1350	1345	1330	1344	1351	1351	1350	1350	1356	1362	1367	1366	1358	1357	1345	1341	1338	1339	1338	1338	1338	1344	1353	1358	1359	1351	1340	1332	1334	1341	1344	1349	1351	1355	1358	1362	1356	1352	1342	1337	1333	1333	1335	1337	1340	1341	1345	1341	1337	1335	1334	1335	1327	1317	1317	1316	1326	1330	1330	1337	1337	1336	1330	1327	1329	1330	1330	1339	1343	1348	1346	1340	1336	1335	1335	1340	1343	1343	1335	1330	1333	1338	1339	1333	1327	1331	1335	1337	1333	1330	1323	1317	1308	1304	1308	1318	1315	1321	1327	1331	1334	1332	1330	1329	1329	1330	1329	1326	1326	1329	1332	1324	1320	1315	1316	1316	1322	1331	1328	1325	1316	1312	1309	1312	1306	1307	1294	1303	1312	1320	1319	1322	1317	1309	1286	1284	1278	1306	1306	1305	1313	1284	1273	1267	1281	1282	1287	1299	1318	1333	1334	1336	1336	1336	1326	1315	1302	1295	1291	1297	1302	1314	1312	1310	1307	1313	1314	1318	1321	1319	1317	1315	1311	1300	1292	1289	1291	1298	1296	1286	1311	1314	1313	1305	1297	1283	1275	1255	1259	1256	1255	1261	1264	1285	1302	1308	1304	1278	1274	1271	1267	1276	1290	1295	1290	1280	1267	1266	1267	1275	1285	1292	1301	1309	1303	1280	1288	1294	1283	1281	1278	1273	1265	1265	1267	1273	1268	1261	1259	1248	1249	1264	1287	1294	1293	1287	1277	1275	1275	1272	1268	1264	1265	1272	1277	1282	1282	1283	1274	1274	1273	1275	1276	1270	1258	1247	1253	1259	1272	1281	1281	1280	1281	1279	1265	1248	1244	1248	1256	1262	1259	1260	1274	1273	1267	1263	1259	1258	1258	1254	1247	1245	1252	1262	1269	1275	1285	1289	1290	1284	1281	1271	1250	1243	1240	1248	1255	1261	1271	1324	0	0	0	0	0	0	0	0	0	0	0	0	0	0	0	0	0	0	0	0	0	0	0	0	0	0	0	1337	1364	1366	1352	1329	1313	1304	1304	1314	1309	1305	1305	1316	1330	1363	1356	1339	1334	1328	1324	1324	1324	1327	1343	1353	1350	0	0	0	0	0	0
0	0	0	0	0	0	0	0	0	0	0	0	0	0	0	0	0	0	0	0	0	0	0	0	0	0	0	0	0	0	0	0	0	0	0	0	0	0	0	0	0	0	0	0	0	0	0	0	0	0	0	0	0	0	0	0	0	0	0	0	0	0	0	0	0	0	0	0	0	0	0	0	0	0	0	0	0	0	0	0	0	0	0	0	0	0	0	0	0	0	0	0	0	0	0	0	0	0	0	0	0	0	0	0	0	0	0	0	0	0	0	0	0	0	0	0	0	0	0	0	0	0	0	0	0	0	0	0	0	0	0	0	0	0	0	0	0	0	0	0	0	0	0	0	0	0	0	0	0	0	0	0	0	0	0	0	0	0	0	0	0	0	0	0	0	0	0	0	0	0	0	0	0	0	0	0	0	0	0	0	0	0	0	0	0	0	0	0	0	0	0	0	0	0	0	0	0	0	0	0	0	0	0	0	0	0	0	0	0	0	0	0	0	0	0	0	0	0	0	0	0	0	0	0	0	0	0	0	0	0	0	0	0	0	0	0	0	0	0	0	0	0	0	0	0	0	0	0	0	1343	1363	1338	1319	1321	1335	1354	1368	1371	1375	1369	1363	1357	1343	1340	1348	1346	1340	1330	1328	1331	1334	1349	1358	1360	1360	1366	1363	1357	1358	1362	1368	1362	1346	1337	1342	1347	1349	1357	1360	1364	1368	1365	1360	1359	1350	1342	1341	1333	1333	1335	1336	1340	1348	1357	1364	1360	1347	1337	1333	1328	1334	1333	1334	1339	1344	1349	1368	1368	1358	1351	1347	1345	1342	1339	1336	1340	1344	1344	1345	1341	1338	1338	1335	1329	1314	1306	1312	1326	1350	1348	1341	1340	1336	1335	1329	1333	1332	1332	1338	1339	1342	1342	1339	1335	1327	1326	1332	1344	1345	1338	1331	1329	1327	1325	1325	1329	1339	1348	1348	1342	1333	1322	1316	1310	1311	1322	1319	1326	1331	1331	1330	1328	1328	1327	1326	1324	1326	1323	1320	1323	1327	1333	1333	1329	1325	1319	1316	1315	1317	1318	1314	1309	1306	1304	1324	1310	1303	1300	1311	1314	1319	1317	1327	1331	1312	1294	1278	1293	1305	1296	1308	1308	1306	1293	1274	1264	1271	1285	1298	1312	1325	1328	1330	1345	1347	1334	1317	1310	1311	1309	1309	1311	1317	1310	1309	1310	1319	1324	1326	1319	1306	1308	1314	1317	1312	1303	1295	1290	1288	1287	1284	1290	1309	1312	1310	1307	1309	1302	1281	1271	1260	1262	1268	1269	1270	1276	1278	1285	1295	1288	1275	1269	1274	1284	1298	1296	1282	1265	1264	1271	1275	1280	1283	1282	1283	1286	1291	1289	1282	1284	1283	1285	1285	1276	1270	1269	1267	1269	1278	1281	1281	1283	1283	1291	1293	1289	1282	1272	1266	1266	1270	1273	1278	1278	1276	1280	1284	1282	1280	1269	1267	1269	1269	1267	1261	1250	1249	1254	1259	1271	1282	1287	1288	1285	1282	1272	1253	1249	1253	1260	1263	1267	1259	1269	1267	1265	1262	1257	1255	1258	1254	1251	1244	1240	1248	1255	1267	1276	1287	1288	1285	1282	1277	1273	1259	1254	1255	1257	1264	1270	1312	0	0	0	0	0	0	0	0	0	0	0	0	0	0	0	0	0	0	0	0	0	0	0	0	0	0	0	1324	1363	1365	1357	1345	1335	1322	1328	1328	1323	1320	1322	1323	1319	1327	1330	1330	1331	1330	1324	1325	1321	1328	1349	1362	1352	0	0	0	0	0	0
0	0	0	0	0	0	0	0	0	0	0	0	0	0	0	0	0	0	0	0	0	0	0	0	0	0	0	0	0	0	0	0	0	0	0	0	0	0	0	0	0	0	0	0	0	0	0	0	0	0	0	0	0	0	0	0	0	0	0	0	0	0	0	0	0	0	0	0	0	0	0	0	0	0	0	0	0	0	0	0	0	0	0	0	0	0	0	0	0	0	0	0	0	0	0	0	0	0	0	0	0	0	0	0	0	0	0	0	0	0	0	0	0	0	0	0	0	0	0	0	0	0	0	0	0	0	0	0	0	0	0	0	0	0	0	0	0	0	0	0	0	0	0	0	0	0	0	0	0	0	0	0	0	0	0	0	0	0	0	0	0	0	0	0	0	0	0	0	0	0	0	0	0	0	0	0	0	0	0	0	0	0	0	0	0	0	0	0	0	0	0	0	0	0	0	0	0	0	0	0	0	0	0	0	0	0	0	0	0	0	0	0	0	0	0	0	0	0	0	0	0	0	0	0	0	0	0	0	0	0	0	0	0	0	0	0	0	0	0	0	0	0	0	0	0	0	0	0	0	1356	1355	1328	1308	1323	1333	1353	1355	1374	1377	1377	1369	1361	1352	1347	1348	1347	1340	1343	1342	1340	1350	1350	1358	1356	1353	1358	1363	1360	1362	1369	1370	1360	1355	1350	1343	1348	1356	1360	1363	1364	1361	1360	1359	1354	1346	1341	1336	1330	1331	1337	1333	1333	1339	1349	1351	1347	1336	1331	1333	1332	1331	1327	1330	1336	1344	1356	1367	1367	1358	1355	1355	1356	1354	1349	1341	1337	1340	1344	1345	1341	1336	1331	1331	1328	1320	1312	1316	1332	1346	1346	1347	1343	1340	1333	1329	1331	1335	1334	1335	1336	1336	1335	1334	1328	1323	1322	1328	1340	1350	1339	1333	1325	1321	1319	1319	1332	1342	1352	1354	1348	1339	1323	1315	1313	1320	1329	1336	1343	1346	1345	1335	1323	1322	1328	1326	1321	1316	1314	1318	1327	1333	1339	1339	1328	1329	1321	1315	1313	1310	1310	1308	1304	1294	1304	1322	1313	1312	1307	1318	1320	1315	1319	1330	1324	1314	1302	1296	1288	1295	1288	1310	1308	1306	1312	1295	1282	1282	1286	1297	1309	1320	1324	1325	1322	1325	1324	1322	1317	1313	1305	1300	1304	1311	1319	1310	1307	1309	1308	1321	1320	1311	1311	1308	1313	1310	1307	1300	1300	1298	1296	1284	1287	1295	1300	1301	1304	1307	1308	1301	1291	1277	1280	1274	1278	1274	1275	1278	1280	1289	1278	1269	1268	1275	1286	1291	1291	1281	1265	1268	1272	1273	1270	1271	1275	1280	1283	1287	1288	1281	1284	1289	1301	1291	1280	1273	1271	1271	1282	1286	1280	1286	1293	1289	1291	1298	1290	1279	1274	1266	1262	1267	1276	1282	1280	1279	1279	1282	1279	1274	1261	1263	1265	1266	1263	1261	1253	1251	1254	1259	1271	1280	1279	1281	1281	1278	1266	1257	1259	1263	1267	1266	1261	1260	1260	1261	1259	1253	1250	1251	1257	1257	1254	1250	1247	1249	1257	1267	1277	1290	1288	1281	1280	1280	1278	1270	1260	1260	1257	1258	1254	1300	0	0	0	0	0	0	0	0	0	0	0	0	0	0	0	0	0	0	0	0	0	0	0	0	0	0	0	1336	1370	1366	1351	1339	1334	1322	1336	1336	1329	1329	1330	1330	1323	1319	1315	1320	1326	1326	1320	1320	1319	1326	1344	1357	1348	0	0	0	0	0	0
0	0	0	0	0	0	0	0	0	0	0	0	0	0	0	0	0	0	0	0	0	0	0	0	0	0	0	0	0	0	0	0	0	0	0	0	0	0	0	0	0	0	0	0	0	0	0	0	0	0	0	0	0	0	0	0	0	0	0	0	0	0	0	0	0	0	0	0	0	0	0	0	0	0	0	0	0	0	0	0	0	0	0	0	0	0	0	0	0	0	0	0	0	0	0	0	0	0	0	0	0	0	0	0	0	0	0	0	0	0	0	0	0	0	0	0	0	0	0	0	0	0	0	0	0	0	0	0	0	0	0	0	0	0	0	0	0	0	0	0	0	0	0	0	0	0	0	0	0	0	0	0	0	0	0	0	0	0	0	0	0	0	0	0	0	0	0	0	0	0	0	0	0	0	0	0	0	0	0	0	0	0	0	0	0	0	0	0	0	0	0	0	0	0	0	0	0	0	0	0	0	0	0	0	0	0	0	0	0	0	0	0	0	0	0	0	0	0	0	0	0	0	0	0	0	0	0	0	0	0	0	0	0	0	0	0	0	0	0	0	0	0	0	0	0	0	0	0	0	1367	1351	1330	1318	1327	1331	1343	1364	1366	1374	1375	1369	1362	1353	1346	1348	1350	1353	1358	1356	1355	1356	1356	1354	1346	1345	1352	1359	1365	1360	1355	1354	1353	1352	1353	1362	1368	1363	1363	1360	1356	1353	1358	1359	1354	1343	1340	1335	1332	1330	1330	1333	1332	1343	1339	1339	1344	1337	1340	1338	1336	1330	1328	1331	1339	1346	1355	1358	1359	1358	1354	1352	1357	1357	1351	1341	1330	1331	1342	1347	1346	1337	1334	1333	1336	1334	1331	1332	1338	1348	1349	1352	1349	1337	1332	1327	1328	1334	1337	1335	1331	1330	1331	1330	1331	1326	1323	1330	1339	1344	1345	1336	1328	1320	1317	1322	1331	1343	1348	1346	1342	1337	1328	1317	1315	1322	1334	1346	1350	1358	1353	1339	1324	1323	1321	1323	1318	1313	1316	1325	1332	1340	1344	1335	1320	1319	1320	1317	1310	1302	1300	1300	1296	1304	1314	1319	1310	1311	1315	1326	1328	1318	1315	1320	1318	1316	1312	1297	1298	1313	1318	1315	1312	1309	1315	1300	1285	1284	1289	1293	1306	1317	1313	1323	1319	1319	1320	1317	1316	1316	1310	1302	1301	1304	1313	1307	1303	1306	1304	1316	1315	1309	1304	1297	1299	1296	1299	1301	1304	1308	1303	1296	1287	1289	1294	1295	1298	1304	1308	1310	1301	1293	1294	1291	1288	1286	1282	1281	1284	1281	1270	1269	1273	1284	1285	1292	1293	1286	1274	1274	1276	1275	1271	1268	1269	1276	1283	1290	1287	1280	1281	1292	1294	1285	1280	1273	1267	1267	1272	1287	1284	1287	1288	1289	1285	1294	1289	1281	1266	1260	1262	1269	1275	1283	1279	1276	1268	1267	1267	1267	1256	1256	1262	1261	1263	1259	1256	1252	1254	1259	1268	1273	1277	1275	1271	1272	1267	1258	1265	1269	1271	1268	1256	1256	1255	1254	1256	1249	1246	1244	1253	1260	1261	1258	1257	1253	1261	1268	1269	1287	1282	1267	1263	1258	1249	1258	1256	1246	1252	1255	1258	1301	1379	0	0	0	0	0	0	0	0	0	0	0	0	0	0	0	0	0	0	0	0	0	0	0	0	0	0	1358	1376	1371	1363	1333	1329	1327	1338	1338	1333	1330	1330	1329	1320	1313	1312	1313	1320	1320	1319	1319	1319	1328	1337	1339	1337	0	0	0	0	0	0
0	0	0	0	0	0	0	0	0	0	0	0	0	0	0	0	0	0	0	0	0	0	0	0	0	0	0	0	0	0	0	0	0	0	0	0	0	0	0	0	0	0	0	0	0	0	0	0	0	0	0	0	0	0	0	0	0	0	0	0	0	0	0	0	0	0	0	0	0	0	0	0	0	0	0	0	0	0	0	0	0	0	0	0	0	0	0	0	0	0	0	0	0	0	0	0	0	0	0	0	0	0	0	0	0	0	0	0	0	0	0	0	0	0	0	0	0	0	0	0	0	0	0	0	0	0	0	0	0	0	0	0	0	0	0	0	0	0	0	0	0	0	0	0	0	0	0	0	0	0	0	0	0	0	0	0	0	0	0	0	0	0	0	0	0	0	0	0	0	0	0	0	0	0	0	0	0	0	0	0	0	0	0	0	0	0	0	0	0	0	0	0	0	0	0	0	0	0	0	0	0	0	0	0	0	0	0	0	0	0	0	0	0	0	0	0	0	0	0	0	0	0	0	0	0	0	0	0	0	0	0	0	0	0	0	0	0	0	0	0	0	0	0	0	0	0	0	0	0	1379	1357	1340	1334	1333	1337	1343	1359	1361	1357	1358	1356	1356	1351	1348	1349	1355	1356	1357	1359	1361	1357	1354	1350	1341	1341	1353	1359	1363	1355	1348	1346	1346	1355	1363	1379	1387	1375	1367	1356	1346	1347	1354	1357	1347	1340	1334	1333	1332	1330	1330	1334	1348	1344	1338	1337	1341	1346	1347	1342	1339	1331	1329	1336	1341	1348	1347	1351	1352	1349	1346	1344	1349	1347	1341	1337	1330	1332	1333	1343	1349	1338	1336	1337	1341	1344	1343	1345	1348	1354	1353	1354	1349	1339	1331	1325	1328	1329	1329	1328	1327	1321	1321	1323	1329	1336	1332	1332	1334	1338	1340	1334	1328	1325	1325	1331	1339	1336	1337	1336	1337	1333	1327	1324	1330	1337	1344	1348	1354	1354	1340	1340	1318	1323	1327	1320	1312	1314	1315	1322	1340	1348	1348	1332	1322	1322	1327	1326	1319	1311	1299	1289	1289	1302	1315	1316	1312	1311	1312	1332	1331	1318	1311	1307	1313	1314	1307	1306	1308	1301	1321	1315	1316	1322	1318	1307	1291	1283	1292	1296	1307	1314	1318	1323	1319	1315	1308	1301	1301	1307	1313	1307	1300	1301	1314	1308	1303	1306	1301	1309	1306	1297	1292	1283	1277	1276	1291	1297	1303	1304	1304	1303	1296	1289	1291	1279	1283	1294	1302	1308	1299	1297	1304	1298	1297	1298	1298	1291	1284	1272	1268	1270	1281	1288	1291	1291	1297	1292	1287	1283	1286	1284	1278	1274	1272	1275	1289	1287	1291	1288	1288	1284	1288	1286	1280	1271	1264	1262	1267	1270	1262	1272	1278	1282	1285	1291	1284	1278	1273	1266	1269	1273	1279	1277	1276	1267	1261	1263	1269	1264	1257	1254	1254	1256	1256	1258	1258	1256	1257	1259	1259	1262	1267	1270	1265	1263	1260	1261	1265	1270	1269	1265	1258	1255	1257	1259	1258	1254	1245	1247	1254	1265	1267	1270	1270	1271	1268	1267	1266	1263	1263	1260	1258	1265	1272	1272	1261	1244	1245	1253	1264	1299	1335	0	0	0	0	0	0	0	0	0	0	0	0	0	0	0	0	0	0	0	0	0	0	0	0	0	0	1381	1379	1372	1362	1337	1332	1339	1351	1349	1349	1333	1330	1326	1319	1313	1309	1315	1324	1347	1343	1334	1334	1331	1331	1328	1327	0	0	0	0	0	0
0	0	0	0	0	0	0	0	0	0	0	0	0	0	0	0	0	0	0	0	0	0	0	0	0	0	0	0	0	0	0	0	0	0	0	0	0	0	0	0	0	0	0	0	0	0	0	0	0	0	0	0	0	0	0	0	0	0	0	0	0	0	0	0	0	0	0	0	0	0	0	0	0	0	0	0	0	0	0	0	0	0	0	0	0	0	0	0	0	0	0	0	0	0	0	0	0	0	0	0	0	0	0	0	0	0	0	0	0	0	0	0	0	0	0	0	0	0	0	0	0	0	0	0	0	0	0	0	0	0	0	0	0	0	0	0	0	0	0	0	0	0	0	0	0	0	0	0	0	0	0	0	0	0	0	0	0	0	0	0	0	0	0	0	0	0	0	0	0	0	0	0	0	0	0	0	0	0	0	0	0	0	0	0	0	0	0	0	0	0	0	0	0	0	0	0	0	0	0	0	0	0	0	0	0	0	0	0	0	0	0	0	0	0	0	0	0	0	0	0	0	0	0	0	0	0	0	0	0	0	0	0	0	0	0	0	0	0	0	0	0	0	0	0	0	0	0	0	0	1363	1353	1349	1349	1344	1334	1353	1351	1352	1348	1346	1344	1343	1352	1361	1364	1362	1357	1355	1360	1362	1359	1356	1343	1341	1346	1356	1363	1360	1355	1349	1351	1348	1358	1374	1388	1396	1393	1373	1349	1338	1329	1346	1344	1342	1334	1333	1336	1334	1340	1345	1353	1355	1347	1340	1341	1346	1354	1350	1342	1335	1326	1329	1338	1349	1347	1344	1339	1340	1344	1342	1338	1335	1333	1331	1333	1338	1343	1336	1337	1340	1338	1337	1337	1339	1344	1347	1347	1349	1350	1353	1354	1348	1337	1323	1312	1309	1311	1318	1320	1314	1311	1311	1317	1328	1336	1333	1328	1329	1334	1336	1329	1324	1323	1326	1339	1341	1331	1327	1324	1328	1329	1325	1330	1335	1343	1347	1343	1347	1345	1317	1305	1311	1324	1329	1326	1310	1312	1310	1318	1335	1349	1346	1340	1334	1335	1333	1337	1329	1315	1305	1290	1287	1300	1315	1320	1320	1313	1308	1336	1326	1319	1316	1305	1311	1310	1309	1309	1309	1302	1308	1313	1317	1309	1299	1293	1290	1289	1302	1308	1320	1318	1315	1316	1317	1307	1297	1288	1285	1294	1304	1316	1306	1319	1316	1309	1308	1305	1305	1303	1298	1292	1284	1278	1277	1279	1279	1292	1296	1300	1301	1297	1299	1292	1277	1277	1278	1293	1297	1300	1297	1299	1308	1302	1302	1303	1301	1295	1282	1269	1267	1272	1284	1290	1282	1284	1290	1300	1297	1294	1294	1293	1289	1282	1282	1283	1295	1298	1295	1286	1283	1286	1290	1278	1282	1272	1262	1262	1265	1269	1275	1278	1278	1279	1283	1290	1294	1292	1290	1277	1276	1274	1274	1265	1264	1264	1259	1263	1268	1271	1266	1262	1259	1257	1256	1261	1268	1264	1262	1261	1259	1261	1263	1260	1255	1255	1254	1263	1266	1263	1270	1263	1262	1256	1262	1263	1268	1263	1256	1253	1258	1266	1275	1278	1274	1274	1272	1266	1259	1254	1251	1255	1262	1273	1280	1280	1267	1255	1248	1253	1267	1302	1323	0	0	0	0	0	0	0	0	0	0	0	0	0	0	0	0	0	0	0	0	0	0	0	0	0	0	0	1377	1365	1356	1328	1313	1335	1361	1360	1360	1340	1330	1326	1319	1314	1314	1323	1345	1342	1338	1337	1337	1337	1336	1329	1327	0	0	0	0	0	0
0	0	0	0	0	0	0	0	0	0	0	0	0	0	0	0	0	0	0	0	0	0	0	0	0	0	0	0	0	0	0	0	0	0	0	0	0	0	0	0	0	0	0	0	0	0	0	0	0	0	0	0	0	0	0	0	0	0	0	0	0	0	0	0	0	0	0	0	0	0	0	0	0	0	0	0	0	0	0	0	0	0	0	0	0	0	0	0	0	0	0	0	0	0	0	0	0	0	0	0	0	0	0	0	0	0	0	0	0	0	0	0	0	0	0	0	0	0	0	0	0	0	0	0	0	0	0	0	0	0	0	0	0	0	0	0	0	0	0	0	0	0	0	0	0	0	0	0	0	0	0	0	0	0	0	0	0	0	0	0	0	0	0	0	0	0	0	0	0	0	0	0	0	0	0	0	0	0	0	0	0	0	0	0	0	0	0	0	0	0	0	0	0	0	0	0	0	0	0	0	0	0	0	0	0	0	0	0	0	0	0	0	0	0	0	0	0	0	0	0	0	0	0	0	0	0	0	0	0	0	0	0	0	0	0	0	0	0	0	0	0	0	0	0	0	0	0	0	0	1344	1350	1354	1354	1352	1341	1340	1346	1340	1342	1341	1341	1342	1353	1362	1368	1361	1357	1355	1358	1360	1358	1348	1341	1343	1348	1360	1361	1355	1352	1361	1368	1366	1370	1381	1391	1392	1386	1367	1343	1328	1319	1324	1338	1346	1347	1342	1345	1354	1353	1345	1350	1353	1345	1339	1337	1334	1338	1341	1330	1322	1317	1322	1337	1349	1354	1346	1337	1330	1329	1330	1326	1322	1325	1334	1340	1344	1347	1340	1333	1330	1332	1342	1342	1335	1329	1328	1325	1331	1340	1351	1352	1347	1333	1318	1311	1308	1302	1302	1301	1312	1312	1310	1319	1324	1333	1330	1326	1323	1332	1334	1329	1320	1325	1333	1338	1336	1325	1313	1306	1301	1313	1330	1334	1341	1343	1338	1323	1311	1310	1309	1302	1303	1316	1329	1315	1312	1316	1317	1321	1327	1340	1336	1335	1335	1332	1326	1321	1309	1305	1304	1297	1296	1302	1308	1322	1327	1316	1305	1338	1326	1320	1318	1308	1312	1310	1313	1310	1312	1313	1318	1318	1327	1324	1315	1300	1296	1303	1307	1316	1324	1319	1315	1306	1305	1299	1291	1284	1283	1291	1305	1319	1324	1319	1319	1314	1311	1306	1295	1291	1293	1289	1286	1291	1290	1286	1288	1283	1289	1291	1292	1294	1295	1291	1277	1279	1281	1293	1297	1303	1306	1309	1303	1306	1302	1303	1305	1300	1288	1273	1269	1274	1280	1278	1282	1288	1293	1303	1301	1299	1288	1291	1284	1284	1285	1286	1296	1305	1299	1296	1290	1289	1287	1273	1272	1274	1268	1265	1261	1268	1279	1286	1282	1282	1283	1290	1293	1293	1295	1291	1282	1271	1257	1251	1248	1246	1255	1262	1268	1270	1275	1273	1262	1258	1258	1262	1271	1276	1278	1271	1267	1267	1269	1262	1260	1260	1265	1261	1265	1267	1266	1267	1266	1263	1268	1276	1274	1270	1263	1260	1262	1265	1278	1284	1281	1278	1276	1268	1265	1258	1254	1254	1263	1274	1279	1280	1274	1263	1258	1258	1266	1294	1318	0	0	0	0	0	0	0	0	0	0	0	0	0	0	0	0	0	0	0	0	0	0	0	0	0	0	0	1371	1360	1346	1318	1308	1317	1349	1361	1361	1350	1352	1336	1326	1324	1331	1340	1346	1347	1343	1340	1340	1341	1342	1336	1329	0	0	0	0	0	0
0	0	0	0	0	0	0	0	0	0	0	0	0	0	0	0	0	0	0	0	0	0	0	0	0	0	0	0	0	0	0	0	0	0	0	0	0	0	0	0	0	0	0	0	0	0	0	0	0	0	0	0	0	0	0	0	0	0	0	0	0	0	0	0	0	0	0	0	0	0	0	0	0	0	0	0	0	0	0	0	0	0	0	0	0	0	0	0	0	0	0	0	0	0	0	0	0	0	0	0	0	0	0	0	0	0	0	0	0	0	0	0	0	0	0	0	0	0	0	0	0	0	0	0	0	0	0	0	0	0	0	0	0	0	0	0	0	0	0	0	0	0	0	0	0	0	0	0	0	0	0	0	0	0	0	0	0	0	0	0	0	0	0	0	0	0	0	0	0	0	0	0	0	0	0	0	0	0	0	0	0	0	0	0	0	0	0	0	0	0	0	0	0	0	0	0	0	0	0	0	0	0	0	0	0	0	0	0	0	0	0	0	0	0	0	0	0	0	0	0	0	0	0	0	0	0	0	0	0	0	0	0	0	0	0	0	0	0	0	0	0	0	0	0	0	0	0	0	0	1319	1341	1352	1363	1357	1346	1332	1331	1336	1336	1345	1345	1350	1354	1359	1362	1360	1350	1353	1348	1358	1358	1349	1330	1337	1351	1359	1357	1359	1358	1368	1375	1374	1369	1382	1386	1387	1374	1359	1339	1328	1325	1325	1342	1350	1356	1355	1351	1358	1357	1348	1346	1346	1342	1338	1329	1332	1334	1332	1331	1326	1324	1322	1332	1348	1351	1345	1339	1329	1321	1331	1344	1341	1334	1329	1322	1318	1331	1339	1344	1346	1341	1340	1347	1350	1343	1337	1329	1319	1338	1352	1357	1351	1341	1329	1324	1315	1314	1316	1314	1315	1324	1333	1336	1329	1328	1324	1325	1320	1324	1327	1334	1337	1339	1333	1324	1327	1327	1320	1313	1308	1315	1325	1333	1329	1328	1322	1318	1311	1309	1305	1308	1314	1324	1332	1321	1319	1318	1319	1320	1322	1327	1330	1334	1334	1330	1321	1313	1312	1319	1323	1320	1308	1310	1313	1319	1322	1290	1286	1323	1319	1318	1318	1314	1304	1315	1304	1304	1304	1308	1314	1320	1331	1325	1321	1312	1306	1305	1310	1316	1319	1319	1314	1300	1296	1288	1287	1290	1290	1301	1314	1324	1323	1319	1321	1320	1314	1305	1299	1297	1298	1300	1295	1303	1304	1301	1286	1279	1281	1283	1285	1286	1285	1285	1293	1298	1299	1302	1298	1304	1313	1313	1309	1301	1296	1295	1302	1303	1291	1281	1275	1283	1280	1278	1284	1281	1288	1300	1304	1298	1284	1278	1274	1279	1285	1285	1301	1303	1303	1295	1293	1292	1287	1273	1276	1284	1285	1267	1268	1273	1282	1288	1287	1286	1288	1286	1293	1294	1294	1291	1281	1273	1262	1255	1248	1249	1255	1263	1269	1273	1275	1273	1269	1258	1255	1258	1261	1273	1276	1275	1275	1277	1275	1268	1266	1267	1274	1271	1263	1259	1265	1272	1277	1288	1284	1277	1276	1270	1269	1268	1267	1268	1270	1273	1275	1273	1270	1267	1264	1263	1252	1254	1257	1268	1280	1282	1283	1276	1269	1267	1267	1283	1304	0	0	0	0	0	0	0	0	0	0	0	0	0	0	0	0	0	0	0	0	0	0	0	0	0	0	0	1357	1341	1339	1319	1314	1308	1341	1357	1360	1360	1348	1332	1323	1326	1333	1336	1345	1343	1341	1339	1343	1343	1346	1334	1324	0	0	0	0	0	0
0	0	0	0	0	0	0	0	0	0	0	0	0	0	0	0	0	0	0	0	0	0	0	0	0	0	0	0	0	0	0	0	0	0	0	0	0	0	0	0	0	0	0	0	0	0	0	0	0	0	0	0	0	0	0	0	0	0	0	0	0	0	0	0	0	0	0	0	0	0	0	0	0	0	0	0	0	0	0	0	0	0	0	0	0	0	0	0	0	0	0	0	0	0	0	0	0	0	0	0	0	0	0	0	0	0	0	0	0	0	0	0	0	0	0	0	0	0	0	0	0	0	0	0	0	0	0	0	0	0	0	0	0	0	0	0	0	0	0	0	0	0	0	0	0	0	0	0	0	0	0	0	0	0	0	0	0	0	0	0	0	0	0	0	0	0	0	0	0	0	0	0	0	0	0	0	0	0	0	0	0	0	0	0	0	0	0	0	0	0	0	0	0	0	0	0	0	0	0	0	0	0	0	0	0	0	0	0	0	0	0	0	0	0	0	0	0	0	0	0	0	0	0	0	0	0	0	0	0	0	0	0	0	0	0	0	0	0	0	0	0	0	0	0	0	0	0	0	0	1321	1343	1357	1361	1358	1344	1336	1333	1333	1344	1348	1357	1367	1372	1360	1359	1355	1345	1344	1352	1360	1357	1346	1338	1340	1350	1357	1358	1361	1365	1365	1364	1362	1364	1372	1379	1375	1362	1349	1338	1332	1333	1349	1352	1350	1354	1363	1369	1369	1363	1355	1347	1339	1333	1326	1324	1322	1327	1338	1359	1367	1364	1349	1337	1332	1335	1336	1335	1327	1322	1329	1343	1343	1339	1336	1333	1332	1337	1345	1355	1347	1339	1334	1343	1346	1347	1340	1332	1328	1340	1345	1347	1348	1340	1329	1324	1322	1318	1317	1315	1317	1321	1332	1339	1329	1329	1326	1327	1331	1329	1328	1332	1336	1337	1333	1326	1329	1329	1326	1320	1317	1319	1321	1325	1321	1322	1323	1320	1316	1314	1309	1314	1321	1328	1337	1337	1321	1320	1316	1317	1312	1319	1327	1335	1338	1331	1325	1320	1322	1325	1326	1325	1312	1309	1318	1326	1334	1291	1285	1315	1315	1318	1325	1320	1302	1294	1289	1288	1299	1301	1307	1319	1330	1322	1320	1319	1313	1310	1312	1309	1314	1319	1309	1295	1292	1284	1287	1296	1308	1318	1325	1324	1324	1323	1320	1320	1309	1300	1299	1296	1300	1306	1310	1314	1313	1304	1280	1277	1278	1282	1282	1281	1280	1285	1300	1302	1291	1300	1304	1312	1315	1315	1306	1294	1287	1289	1300	1304	1294	1283	1283	1292	1297	1284	1276	1277	1285	1295	1307	1304	1287	1272	1270	1277	1284	1288	1291	1295	1296	1293	1293	1298	1294	1290	1291	1291	1296	1279	1277	1284	1289	1293	1293	1289	1289	1287	1277	1288	1294	1294	1283	1277	1271	1267	1260	1260	1269	1273	1280	1280	1277	1275	1269	1263	1256	1258	1255	1253	1255	1262	1272	1274	1271	1270	1269	1280	1281	1272	1265	1261	1267	1271	1277	1282	1279	1277	1279	1276	1270	1268	1270	1257	1251	1262	1267	1269	1267	1264	1262	1262	1260	1257	1261	1263	1275	1274	1285	1286	1285	1281	1280	1277	1294	0	0	0	0	0	0	0	0	0	0	0	0	0	0	0	0	0	0	0	0	0	0	0	0	0	0	0	1359	1353	1344	1332	1325	1303	1324	1347	1352	1352	1342	1331	1324	1324	1323	1321	1325	1325	1333	1336	1338	1338	1345	1335	1328	0	0	0	0	0	0
0	0	0	0	0	0	0	0	0	0	0	0	0	0	0	0	0	0	0	0	0	0	0	0	0	0	0	0	0	0	0	0	0	0	0	0	0	0	0	0	0	0	0	0	0	0	0	0	0	0	0	0	0	0	0	0	0	0	0	0	0	0	0	0	0	0	0	0	0	0	0	0	0	0	0	0	0	0	0	0	0	0	0	0	0	0	0	0	0	0	0	0	0	0	0	0	0	0	0	0	0	0	0	0	0	0	0	0	0	0	0	0	0	0	0	0	0	0	0	0	0	0	0	0	0	0	0	0	0	0	0	0	0	0	0	0	0	0	0	0	0	0	0	0	0	0	0	0	0	0	0	0	0	0	0	0	0	0	0	0	0	0	0	0	0	0	0	0	0	0	0	0	0	0	0	0	0	0	0	0	0	0	0	0	0	0	0	0	0	0	0	0	0	0	0	0	0	0	0	0	0	0	0	0	0	0	0	0	0	0	0	0	0	0	0	0	0	0	0	0	0	0	0	0	0	0	0	0	0	0	0	0	0	0	0	0	0	0	0	0	0	0	0	0	0	0	0	0	0	1358	1362	1345	1339	1335	1354	1351	1350	1348	1350	1362	1369	1369	1362	1354	1351	1359	1366	1372	1373	1374	1372	1364	1358	1363	1359	1356	1359	1362	1355	1351	1353	1365	1375	1382	1388	1388	1384	1374	1354	1346	1343	1351	1349	1350	1356	1358	1357	1357	1350	1350	1350	1345	1338	1326	1325	1334	1336	1333	1339	1359	1345	1350	1345	1340	1341	1337	1338	1330	1329	1330	1343	1347	1349	1348	1343	1341	1342	1349	1355	1348	1337	1332	1341	1344	1345	1346	1339	1338	1337	1340	1340	1342	1338	1333	1328	1323	1321	1315	1315	1317	1322	1330	1332	1325	1323	1328	1335	1337	1337	1335	1334	1333	1333	1331	1326	1327	1326	1325	1329	1329	1326	1319	1312	1311	1319	1323	1326	1326	1322	1319	1320	1325	1333	1336	1334	1321	1322	1324	1318	1320	1322	1331	1339	1342	1339	1326	1319	1324	1324	1324	1322	1316	1316	1325	1333	1350	1306	1307	1323	1320	1328	1332	1328	1313	1307	1290	1289	1289	1288	1301	1313	1324	1316	1315	1315	1319	1319	1318	1317	1319	1319	1307	1300	1297	1292	1293	1303	1317	1332	1331	1329	1327	1323	1324	1318	1303	1301	1299	1300	1305	1307	1312	1315	1314	1300	1288	1282	1286	1290	1289	1281	1281	1289	1297	1295	1282	1292	1298	1308	1316	1316	1303	1290	1284	1287	1294	1300	1289	1284	1289	1302	1302	1297	1282	1277	1279	1286	1306	1307	1295	1277	1268	1276	1287	1288	1284	1290	1292	1294	1298	1298	1299	1301	1305	1306	1302	1285	1286	1284	1288	1294	1296	1291	1286	1285	1282	1289	1296	1301	1296	1287	1284	1282	1280	1282	1284	1286	1291	1294	1285	1277	1272	1265	1256	1254	1250	1246	1253	1252	1262	1267	1266	1262	1274	1281	1281	1273	1269	1265	1266	1272	1273	1268	1273	1277	1283	1277	1275	1272	1266	1260	1254	1256	1269	1270	1266	1262	1263	1267	1267	1270	1268	1265	1269	1275	1279	1283	1285	1283	1286	1285	1290	1321	0	0	0	0	0	0	0	0	0	0	0	0	0	0	0	0	0	0	0	0	0	0	0	0	0	0	1376	1366	1357	1337	1327	1304	1325	1337	1344	1344	1341	1329	1320	1319	1313	1319	1324	1333	1334	1332	1338	1338	1346	1345	1335	0	0	0	0	0	0
0	0	0	0	0	0	0	0	0	0	0	0	0	0	0	0	0	0	0	0	0	0	0	0	0	0	0	0	0	0	0	0	0	0	0	0	0	0	0	0	0	0	0	0	0	0	0	0	0	0	0	0	0	0	0	0	0	0	0	0	0	0	0	0	0	0	0	0	0	0	0	0	0	0	0	0	0	0	0	0	0	0	0	0	0	0	0	0	0	0	0	0	0	0	0	0	0	0	0	0	0	0	0	0	0	0	0	0	0	0	0	0	0	0	0	0	0	0	0	0	0	0	0	0	0	0	0	0	0	0	0	0	0	0	0	0	0	0	0	0	0	0	0	0	0	0	0	0	0	0	0	0	0	0	0	0	0	0	0	0	0	0	0	0	0	0	0	0	0	0	0	0	0	0	0	0	0	0	0	0	0	0	0	0	0	0	0	0	0	0	0	0	0	0	0	0	0	0	0	0	0	0	0	0	0	0	0	0	0	0	0	0	0	0	0	0	0	0	0	0	0	0	0	0	0	0	0	0	0	0	0	0	0	0	0	0	0	0	0	0	0	0	0	0	0	0	0	0	0	1383	1353	1350	1341	1348	1358	1358	1355	1353	1359	1361	1368	1366	1361	1354	1353	1360	1367	1374	1379	1379	1376	1377	1375	1371	1364	1360	1357	1361	1358	1356	1361	1369	1376	1379	1387	1386	1383	1369	1357	1350	1351	1361	1362	1362	1360	1362	1356	1350	1348	1351	1341	1342	1344	1335	1332	1340	1336	1335	1335	1339	1341	1349	1353	1354	1349	1349	1350	1347	1341	1341	1344	1350	1354	1354	1350	1346	1349	1349	1342	1334	1334	1338	1339	1346	1353	1355	1350	1344	1343	1340	1338	1340	1342	1339	1334	1322	1316	1320	1318	1317	1321	1321	1318	1316	1319	1331	1340	1346	1344	1340	1337	1335	1331	1327	1321	1318	1316	1322	1330	1334	1331	1321	1310	1311	1319	1326	1330	1334	1329	1329	1329	1327	1327	1329	1327	1325	1323	1323	1327	1324	1327	1332	1339	1340	1330	1327	1321	1327	1330	1322	1313	1314	1325	1331	1331	1355	1333	1328	1334	1327	1333	1331	1332	1321	1314	1308	1300	1301	1297	1309	1307	1311	1313	1306	1305	1316	1322	1322	1321	1325	1326	1318	1319	1311	1307	1306	1310	1326	1336	1334	1331	1327	1325	1322	1308	1297	1304	1304	1303	1303	1307	1311	1314	1312	1303	1296	1293	1297	1301	1301	1299	1296	1296	1297	1281	1272	1277	1292	1306	1312	1306	1300	1292	1287	1287	1291	1288	1285	1287	1294	1305	1307	1295	1282	1277	1280	1293	1309	1308	1301	1281	1271	1274	1283	1285	1281	1292	1293	1295	1302	1298	1299	1296	1310	1312	1300	1290	1287	1288	1291	1294	1299	1279	1272	1283	1290	1296	1304	1306	1301	1303	1303	1301	1297	1293	1290	1294	1299	1301	1290	1280	1272	1264	1260	1258	1252	1251	1256	1255	1257	1260	1261	1267	1269	1277	1283	1278	1273	1266	1267	1270	1266	1260	1266	1277	1284	1278	1271	1260	1253	1255	1261	1272	1276	1271	1267	1267	1271	1272	1279	1280	1278	1270	1262	1263	1269	1274	1275	1279	1286	1289	1299	1337	0	0	0	0	0	0	0	0	0	0	0	0	0	0	0	0	0	0	0	0	0	0	0	0	0	0	1390	1379	1369	1338	1319	1313	1318	1327	1340	1339	1339	1331	1328	1327	1323	1325	1338	1340	1342	1338	1338	1338	1342	1344	1337	0	0	0	0	0	0
0	0	0	0	0	0	0	0	0	0	0	0	0	0	0	0	0	0	0	0	0	0	0	0	0	0	0	0	0	0	0	0	0	0	0	0	0	0	0	0	0	0	0	0	0	0	0	0	0	0	0	0	0	0	0	0	0	0	0	0	0	0	0	0	0	0	0	0	0	0	0	0	0	0	0	0	0	0	0	0	0	0	0	0	0	0	0	0	0	0	0	0	0	0	0	0	0	0	0	0	0	0	0	0	0	0	0	0	0	0	0	0	0	0	0	0	0	0	0	0	0	0	0	0	0	0	0	0	0	0	0	0	0	0	0	0	0	0	0	0	0	0	0	0	0	0	0	0	0	0	0	0	0	0	0	0	0	0	0	0	0	0	0	0	0	0	0	0	0	0	0	0	0	0	0	0	0	0	0	0	0	0	0	0	0	0	0	0	0	0	0	0	0	0	0	0	0	0	0	0	0	0	0	0	0	0	0	0	0	0	0	0	0	0	0	0	0	0	0	0	0	0	0	0	0	0	0	0	0	0	0	0	0	0	0	0	0	0	0	0	0	0	0	0	0	0	0	0	0	1392	1361	1357	1348	1355	1362	1368	1368	1366	1363	1367	1369	1367	1362	1359	1357	1368	1366	1370	1377	1372	1376	1381	1381	1375	1366	1356	1352	1360	1364	1362	1363	1367	1372	1380	1380	1377	1370	1357	1352	1349	1360	1371	1374	1372	1357	1356	1354	1345	1353	1354	1341	1345	1343	1346	1347	1343	1338	1339	1337	1336	1339	1341	1352	1356	1364	1365	1364	1363	1362	1354	1349	1351	1355	1355	1353	1352	1350	1346	1334	1324	1321	1329	1341	1350	1357	1362	1358	1347	1348	1344	1344	1342	1337	1337	1333	1324	1320	1323	1323	1323	1326	1323	1316	1317	1322	1333	1339	1342	1344	1343	1340	1338	1336	1332	1325	1319	1321	1324	1333	1340	1343	1337	1317	1318	1327	1334	1330	1337	1332	1333	1333	1332	1328	1326	1322	1325	1325	1326	1330	1328	1327	1333	1336	1334	1328	1325	1326	1331	1332	1322	1317	1326	1339	1338	1336	1357	1343	1333	1336	1328	1321	1322	1324	1324	1320	1312	1314	1318	1319	1324	1305	1303	1308	1308	1310	1314	1319	1323	1322	1322	1326	1323	1328	1323	1315	1314	1314	1328	1337	1338	1332	1331	1325	1320	1302	1293	1303	1307	1308	1313	1314	1311	1311	1315	1314	1306	1305	1309	1313	1314	1326	1324	1314	1305	1282	1268	1278	1288	1303	1303	1297	1294	1292	1295	1298	1297	1292	1286	1292	1295	1294	1294	1287	1284	1285	1289	1301	1306	1305	1298	1283	1272	1270	1278	1281	1286	1298	1303	1306	1306	1295	1297	1292	1302	1300	1292	1284	1282	1285	1292	1296	1291	1272	1267	1271	1277	1296	1306	1297	1303	1302	1314	1309	1305	1301	1295	1296	1298	1302	1293	1281	1270	1268	1267	1262	1258	1260	1260	1262	1265	1269	1270	1270	1266	1271	1278	1279	1272	1268	1267	1268	1266	1256	1262	1276	1291	1280	1269	1254	1247	1255	1266	1281	1281	1278	1277	1275	1278	1279	1285	1288	1282	1270	1258	1256	1261	1265	1268	1277	1282	1290	1292	0	0	0	0	0	0	0	0	0	0	0	0	0	0	0	0	0	0	0	0	0	0	0	0	0	0	1374	1398	1392	1374	1326	1326	1317	1318	1317	1335	1343	1343	1347	1352	1348	1341	1356	1364	1364	1355	1346	1339	1340	1340	1339	1332	0	0	0	0	0	0
0	0	0	0	0	0	0	0	0	0	0	0	0	0	0	0	0	0	0	0	0	0	0	0	0	0	0	0	0	0	0	0	0	0	0	0	0	0	0	0	0	0	0	0	0	0	0	0	0	0	0	0	0	0	0	0	0	0	0	0	0	0	0	0	0	0	0	0	0	0	0	0	0	0	0	0	0	0	0	0	0	0	0	0	0	0	0	0	0	0	0	0	0	0	0	0	0	0	0	0	0	0	0	0	0	0	0	0	0	0	0	0	0	0	0	0	0	0	0	0	0	0	0	0	0	0	0	0	0	0	0	0	0	0	0	0	0	0	0	0	0	0	0	0	0	0	0	0	0	0	0	0	0	0	0	0	0	0	0	0	0	0	0	0	0	0	0	1398	1422	1464	1488	1478	1413	1414	1421	1418	1419	1410	1406	1397	1400	1389	1376	1388	1394	1403	1395	1379	1377	1393	1408	1417	1418	1419	1421	1400	1387	1395	1407	0	0	0	0	0	0	0	0	0	0	0	0	0	0	0	0	0	0	0	0	0	0	0	0	0	0	0	0	0	0	0	0	0	0	0	0	0	0	0	0	0	0	0	0	0	0	0	0	0	0	1384	1359	1357	1353	1353	1361	1369	1373	1381	1380	1379	1374	1370	1370	1366	1363	1363	1360	1358	1360	1364	1372	1382	1383	1375	1365	1354	1350	1355	1358	1361	1362	1360	1363	1367	1367	1365	1358	1350	1349	1357	1367	1376	1380	1376	1362	1356	1351	1346	1342	1352	1352	1354	1351	1349	1347	1348	1344	1344	1340	1337	1335	1343	1351	1361	1362	1363	1373	1372	1372	1364	1356	1354	1355	1351	1350	1355	1357	1355	1339	1327	1326	1329	1337	1350	1355	1361	1359	1351	1346	1346	1347	1346	1338	1339	1338	1333	1329	1331	1334	1341	1343	1341	1331	1326	1327	1332	1335	1334	1338	1341	1342	1341	1340	1335	1334	1325	1329	1333	1337	1343	1355	1351	1342	1332	1328	1342	1345	1339	1335	1330	1330	1331	1333	1329	1322	1317	1318	1323	1330	1330	1327	1327	1331	1333	1331	1327	1332	1339	1336	1326	1328	1337	1347	1349	1344	1350	1337	1326	1322	1322	1309	1310	1317	1318	1315	1311	1314	1318	1323	1321	1307	1301	1307	1308	1311	1317	1320	1324	1319	1317	1311	1319	1324	1320	1315	1310	1311	1321	1330	1336	1336	1333	1332	1318	1301	1293	1307	1309	1310	1315	1308	1308	1306	1308	1309	1312	1312	1310	1319	1327	1336	1325	1313	1310	1301	1293	1291	1295	1298	1302	1288	1286	1286	1294	1296	1295	1294	1296	1294	1298	1290	1292	1291	1288	1290	1301	1306	1305	1300	1292	1282	1277	1274	1278	1279	1288	1296	1314	1316	1313	1301	1290	1287	1290	1288	1281	1273	1272	1280	1287	1292	1290	1272	1266	1266	1274	1297	1294	1293	1295	1298	1311	1314	1307	1305	1298	1294	1293	1297	1292	1280	1270	1269	1270	1268	1266	1268	1270	1274	1271	1280	1287	1282	1272	1275	1280	1276	1266	1264	1265	1269	1266	1260	1264	1268	1284	1285	1274	1260	1248	1247	1276	1282	1289	1283	1283	1281	1280	1286	1295	1290	1283	1272	1258	1252	1256	1261	1266	1274	1284	1290	1287	0	0	0	0	0	0	0	0	0	0	0	0	0	0	0	0	0	0	0	0	0	0	0	0	0	0	1374	1409	1401	1380	1348	1341	1332	1320	1316	1334	1339	1335	1354	1350	1349	1363	1387	1389	1380	1353	1338	1330	1330	1330	1344	1345	0	0	0	0	0	0
0	0	0	0	0	0	0	0	0	0	0	0	0	0	0	0	0	0	0	0	0	0	0	0	0	0	0	0	0	0	0	0	0	0	0	0	0	0	0	0	0	0	0	0	0	0	0	0	0	0	0	0	0	0	0	0	0	0	0	0	0	0	0	0	0	0	0	0	0	0	0	0	0	0	0	0	0	0	0	0	0	0	0	0	0	0	0	0	0	0	0	0	0	0	0	0	0	0	0	0	0	0	0	0	0	0	0	0	0	0	0	0	0	0	0	0	0	0	0	0	0	0	0	0	0	0	0	0	0	0	0	0	0	0	0	0	0	0	0	0	0	0	0	0	0	0	0	0	0	0	0	0	0	0	0	0	0	0	1410	1426	1434	1436	1434	1432	1412	1404	1408	1416	1406	1402	1393	1393	1390	1399	1404	1400	1402	1399	1403	1418	1415	1392	1387	1388	1386	1374	1384	1390	1404	1405	1405	1398	1388	1382	1379	1374	1363	1369	1365	0	0	0	0	0	0	0	0	0	0	0	0	0	0	0	0	0	0	0	0	0	0	0	0	0	0	0	0	0	0	0	0	0	0	0	0	0	0	0	0	0	0	0	0	0	0	0	0	0	1398	1375	1358	1354	1350	1351	1354	1363	1374	1386	1388	1381	1371	1370	1364	1362	1361	1363	1356	1348	1344	1343	1364	1374	1376	1378	1366	1357	1355	1358	1359	1359	1357	1358	1362	1367	1368	1361	1356	1351	1360	1365	1374	1376	1376	1373	1367	1355	1345	1344	1347	1359	1368	1367	1362	1355	1357	1354	1352	1348	1347	1342	1341	1344	1350	1360	1361	1362	1368	1377	1374	1367	1358	1352	1348	1354	1352	1356	1359	1353	1340	1334	1330	1325	1334	1332	1339	1345	1351	1346	1344	1348	1349	1344	1342	1335	1342	1342	1336	1339	1345	1352	1354	1350	1342	1338	1338	1336	1334	1330	1330	1334	1336	1336	1333	1335	1336	1338	1334	1336	1337	1351	1358	1359	1340	1322	1320	1322	1323	1324	1331	1328	1329	1330	1330	1327	1321	1316	1315	1323	1331	1334	1336	1332	1329	1329	1328	1328	1333	1326	1331	1327	1327	1335	1345	1354	1349	1354	1336	1328	1314	1310	1312	1312	1311	1312	1308	1304	1307	1312	1313	1313	1312	1309	1311	1311	1315	1317	1320	1313	1310	1304	1305	1312	1314	1313	1306	1304	1301	1310	1324	1329	1332	1334	1332	1319	1306	1307	1312	1312	1317	1320	1314	1308	1295	1292	1293	1302	1317	1320	1324	1329	1330	1320	1310	1313	1312	1302	1300	1306	1300	1301	1291	1282	1284	1290	1291	1291	1298	1299	1304	1301	1293	1290	1293	1294	1302	1306	1308	1303	1294	1289	1285	1283	1284	1288	1288	1288	1290	1320	1321	1317	1306	1291	1286	1286	1281	1275	1271	1267	1274	1282	1287	1287	1277	1266	1271	1284	1285	1292	1294	1292	1296	1305	1307	1311	1305	1300	1295	1288	1289	1287	1287	1285	1278	1282	1281	1279	1275	1274	1270	1270	1278	1290	1290	1282	1277	1274	1269	1260	1257	1262	1266	1265	1262	1256	1265	1271	1275	1267	1267	1267	1284	1294	1289	1296	1297	1296	1288	1289	1289	1288	1278	1269	1266	1263	1259	1257	1263	1270	1275	1282	1288	1285	1333	0	0	0	0	0	0	0	0	0	0	0	0	0	0	0	0	0	0	0	0	0	0	0	0	0	0	1423	1408	1402	1364	1355	1346	1333	1328	1333	1344	1354	1354	1316	1322	1334	1343	1341	1366	1359	1345	1341	1332	1332	1339	1340	0	0	0	0	0	0
0	0	0	0	0	0	0	0	0	0	0	0	0	0	0	0	0	0	0	0	0	0	0	0	0	0	0	0	0	0	0	0	0	0	0	0	0	0	0	0	0	0	0	0	0	0	0	0	0	0	0	0	0	0	0	0	0	0	0	0	0	0	0	0	0	0	0	0	0	0	0	0	0	0	0	0	0	0	0	0	0	0	0	0	0	0	0	0	0	0	0	0	0	0	0	0	0	0	0	0	0	0	0	0	0	0	0	0	0	0	0	0	0	0	0	0	0	0	0	0	0	0	0	0	0	0	0	0	0	0	0	0	0	0	0	0	0	0	0	0	0	0	0	0	0	0	0	0	0	0	0	0	0	0	0	0	0	1419	1422	1440	1435	1448	1454	1433	1413	1388	1386	1402	1403	1398	1390	1392	1394	1391	1394	1396	1393	1389	1401	1414	1421	1380	1377	1384	1386	1386	1391	1394	1395	1403	1394	1382	1374	1368	1372	1376	1384	1393	1394	1385	0	0	0	0	0	0	0	0	0	0	0	0	0	0	0	0	0	0	0	0	0	0	0	0	0	0	0	0	0	0	0	0	0	0	0	0	0	0	0	0	0	0	0	0	0	0	0	0	1395	1380	1356	1352	1353	1353	1354	1359	1361	1371	1382	1377	1372	1367	1359	1359	1358	1358	1350	1348	1343	1340	1348	1363	1375	1375	1363	1359	1357	1359	1362	1356	1358	1359	1367	1371	1370	1360	1359	1355	1369	1372	1371	1367	1366	1369	1365	1350	1337	1334	1344	1358	1363	1365	1352	1349	1346	1358	1355	1352	1348	1348	1349	1351	1360	1360	1355	1354	1359	1361	1363	1358	1358	1350	1349	1355	1358	1355	1355	1349	1343	1339	1330	1329	1329	1326	1326	1334	1341	1344	1343	1345	1350	1353	1351	1353	1347	1347	1340	1343	1349	1355	1359	1353	1348	1343	1342	1341	1341	1336	1334	1333	1330	1326	1327	1329	1336	1338	1333	1326	1326	1334	1345	1342	1326	1319	1313	1317	1318	1319	1323	1326	1324	1326	1327	1323	1317	1312	1314	1319	1335	1335	1337	1341	1340	1329	1325	1317	1318	1321	1317	1314	1316	1329	1340	1347	1347	1361	1348	1337	1319	1329	1316	1317	1311	1310	1304	1306	1307	1310	1308	1301	1307	1306	1308	1308	1313	1315	1316	1322	1320	1310	1304	1303	1305	1307	1301	1296	1296	1306	1310	1299	1295	1300	1311	1315	1321	1333	1338	1313	1309	1315	1327	1317	1292	1286	1296	1318	1332	1339	1331	1319	1308	1316	1312	1316	1317	1306	1301	1306	1311	1297	1287	1280	1279	1287	1290	1290	1297	1301	1305	1305	1302	1309	1310	1299	1296	1296	1296	1292	1287	1279	1278	1281	1288	1294	1303	1305	1307	1314	1311	1312	1314	1311	1315	1313	1314	1310	1309	1304	1294	1292	1284	1287	1291	1285	1274	1270	1264	1278	1289	1294	1299	1304	1306	1306	1306	1300	1292	1279	1280	1289	1297	1302	1305	1317	1321	1308	1290	1279	1277	1268	1270	1275	1273	1272	1274	1278	1278	1271	1272	1286	1291	1294	1264	1258	1247	1256	1276	1285	1291	1283	1283	1291	1297	1301	1303	1298	1293	1289	1289	1285	1279	1274	1273	1270	1264	1260	1263	1265	1269	1271	1284	1286	1319	0	0	0	0	0	0	0	0	0	0	0	0	0	0	0	0	0	0	0	0	0	0	0	0	0	0	1442	1416	1406	1381	1360	1354	1341	1337	1342	1338	1320	1320	1317	1321	1327	1339	1340	1344	1348	1347	1342	1346	1356	1356	1354	0	0	0	0	0	0
0	0	0	0	0	0	0	0	0	0	0	0	0	0	0	0	0	0	0	0	0	0	0	0	0	0	0	0	0	0	0	0	0	0	0	0	0	0	0	0	0	0	0	0	0	0	0	0	0	0	0	0	0	0	0	0	0	0	0	0	0	0	0	0	0	0	0	0	0	0	0	0	0	0	0	0	0	0	0	0	0	0	0	0	0	0	0	0	0	0	0	0	0	0	0	0	0	0	0	0	0	0	0	0	0	0	0	0	0	0	0	0	0	0	0	0	0	0	0	0	0	0	0	0	0	0	0	0	0	0	0	0	0	0	0	0	0	0	0	0	0	0	0	0	0	0	0	0	0	0	0	0	0	0	0	0	0	1423	1435	1436	1415	1397	1411	1411	1398	1378	1393	1393	1392	1390	1392	1393	1398	1396	1398	1394	1387	1382	1392	1406	1414	1374	1365	1380	1395	1399	1386	1382	1386	1389	1390	1385	1379	1369	1379	1395	1411	1421	1428	1409	0	0	0	0	0	0	0	0	0	0	0	0	0	0	0	0	0	0	0	0	0	0	0	0	0	0	0	0	0	0	0	0	0	0	0	0	0	0	0	0	0	0	0	0	0	0	0	0	1380	1388	1356	1347	1358	1360	1362	1362	1364	1367	1370	1371	1370	1368	1363	1365	1368	1367	1355	1352	1348	1343	1340	1352	1363	1364	1363	1361	1361	1361	1356	1356	1359	1368	1372	1381	1381	1372	1361	1361	1368	1370	1359	1350	1350	1350	1356	1348	1340	1336	1337	1348	1352	1351	1341	1341	1347	1350	1347	1350	1354	1355	1346	1350	1357	1360	1360	1356	1353	1352	1352	1357	1360	1353	1352	1354	1356	1357	1353	1349	1343	1336	1335	1339	1334	1329	1327	1335	1347	1349	1343	1347	1352	1361	1361	1356	1349	1340	1341	1339	1342	1347	1349	1356	1352	1347	1345	1347	1346	1343	1337	1331	1330	1326	1326	1330	1335	1335	1330	1325	1320	1321	1329	1322	1320	1318	1320	1320	1320	1323	1326	1330	1329	1322	1315	1320	1317	1314	1317	1323	1332	1337	1343	1351	1349	1346	1318	1312	1322	1322	1309	1308	1311	1325	1330	1341	1349	1372	1385	1379	1336	1320	1329	1320	1310	1305	1303	1304	1318	1329	1330	1324	1322	1330	1325	1320	1333	1336	1337	1333	1327	1323	1320	1317	1300	1297	1302	1302	1303	1302	1306	1315	1329	1339	1341	1347	1340	1334	1324	1304	1313	1310	1304	1283	1274	1286	1298	1309	1313	1314	1300	1303	1306	1319	1321	1310	1302	1301	1293	1301	1320	1319	1307	1300	1290	1292	1296	1299	1303	1303	1300	1313	1322	1315	1300	1295	1300	1305	1303	1292	1283	1278	1277	1276	1270	1274	1283	1292	1299	1291	1297	1301	1309	1313	1321	1336	1334	1332	1335	1325	1301	1291	1285	1295	1298	1293	1296	1307	1304	1303	1296	1291	1287	1293	1310	1315	1314	1309	1297	1289	1284	1293	1295	1296	1303	1312	1320	1312	1295	1285	1280	1283	1274	1274	1271	1269	1272	1280	1286	1275	1276	1291	1298	1297	1265	1255	1251	1257	1276	1290	1289	1283	1265	1268	1279	1301	1302	1298	1284	1283	1286	1288	1286	1283	1285	1288	1287	1277	1268	1262	1260	1260	1280	1289	1295	0	0	0	0	0	0	0	0	0	0	0	0	0	0	0	0	0	0	0	0	0	0	0	0	0	0	1445	1407	1398	1375	1363	1351	1346	1350	1348	1345	1320	1320	1318	1329	1336	1336	1346	1350	1353	1351	1343	1345	1346	1346	1346	0	0	0	0	0	0
0	0	0	0	0	0	0	0	0	0	0	0	0	0	0	0	0	0	0	0	0	0	0	0	0	0	0	0	0	0	0	0	0	0	0	0	0	0	0	0	0	0	0	0	0	0	0	0	0	0	0	0	0	0	0	0	0	0	0	0	0	0	0	0	0	0	0	0	0	0	0	0	0	0	0	0	0	0	0	0	0	0	0	0	0	0	0	0	0	0	0	0	0	0	0	0	0	0	0	0	0	0	0	0	0	0	0	0	0	0	0	0	0	0	0	0	0	0	0	0	0	0	0	0	0	0	0	0	0	0	0	0	0	1384	1432	1458	1485	1491	1472	1455	1463	1476	1471	1469	1462	1447	1449	1445	1447	1448	1483	1493	1489	1469	1432	1403	1420	1433	1441	1432	1398	1391	1396	1401	1399	1395	1398	1403	1401	1396	1399	1409	1412	1403	1407	1406	1398	1388	1387	1401	1392	1373	1370	1385	1397	1400	1390	1381	1390	1397	1402	1399	1393	1394	1401	1430	1439	1444	1440	1415	1384	0	0	0	0	0	0	0	0	0	0	0	0	0	0	0	0	0	0	0	0	0	0	0	0	0	0	0	0	0	0	0	0	0	0	0	0	0	0	0	0	0	0	0	0	0	0	0	1371	1390	1363	1350	1360	1363	1366	1368	1366	1367	1371	1376	1368	1372	1372	1369	1376	1376	1367	1368	1360	1349	1344	1349	1354	1357	1359	1362	1363	1362	1353	1351	1356	1362	1376	1380	1378	1373	1362	1360	1358	1357	1350	1342	1343	1347	1354	1351	1350	1351	1346	1344	1340	1335	1334	1338	1341	1342	1346	1352	1358	1360	1351	1356	1363	1369	1368	1362	1351	1344	1346	1358	1361	1358	1352	1353	1354	1355	1354	1347	1334	1335	1347	1350	1346	1341	1337	1343	1344	1348	1355	1356	1362	1363	1364	1358	1349	1344	1341	1341	1342	1344	1347	1349	1351	1346	1340	1343	1349	1345	1340	1334	1327	1322	1325	1334	1336	1334	1332	1328	1325	1323	1322	1321	1323	1322	1321	1319	1321	1326	1329	1330	1330	1322	1308	1318	1314	1316	1317	1324	1322	1334	1347	1349	1348	1339	1323	1321	1328	1329	1326	1311	1320	1328	1331	1335	1346	1378	0	0	1353	1296	1311	1326	1322	1307	1301	1300	1310	1320	1327	1325	1331	1326	1328	1318	1327	1339	1333	1325	1318	1324	1322	1318	1304	1305	1310	1311	1314	1312	1308	1320	1331	1343	1345	1347	1340	1334	1320	1304	1309	1306	1299	1282	1274	1283	1286	1299	1308	1312	1306	1306	1310	1314	1322	1323	1327	1323	1324	1326	1337	1338	1338	1319	1298	1281	1285	1280	1280	1287	1299	1319	1332	1334	1328	1312	1298	1297	1289	1283	1283	1285	1277	1289	1289	1294	1293	1293	1296	1290	1299	1302	1306	1309	1323	1333	1338	1333	1332	1319	1300	1283	1289	1292	1300	1291	1297	1310	1317	1314	1300	1288	1280	1289	1307	1322	1323	1315	1307	1287	1286	1284	1285	1288	1297	1288	1283	1288	1296	1303	1300	1295	1287	1282	1283	1280	1286	1289	1294	1291	1289	1302	1303	1299	1252	1244	1249	1256	1272	1275	1270	1262	1258	1263	1266	1279	1288	1279	1275	1280	1283	1285	1282	1282	1291	1293	1293	1289	1280	1272	1263	1268	1271	1300	1313	1378	0	0	0	0	0	0	0	0	0	0	0	0	0	0	0	0	0	0	0	0	0	0	0	0	0	1433	1389	1383	1362	1360	1349	1335	1339	1337	1346	1333	1333	1325	1341	1344	1355	1360	1355	1352	1352	1329	1328	1331	1331	1333	0	0	0	0	0	0
0	0	0	0	0	0	0	0	0	0	0	0	0	0	0	0	0	0	0	0	0	0	0	0	0	0	0	0	0	0	0	0	0	0	0	0	0	0	0	0	0	0	0	0	0	0	0	0	0	0	0	0	1471	1465	1470	1472	0	0	0	0	0	0	0	0	0	0	0	0	0	0	0	0	0	0	0	0	0	0	1437	1430	1430	1438	1439	1461	1464	1443	1437	1441	1446	1446	1448	1433	1435	1461	1470	1476	1460	1445	1433	1410	1409	1438	1473	1490	1491	1473	1452	1441	1445	1453	1446	1409	0	0	0	0	0	0	0	0	0	0	1463	1443	1426	1411	1406	1400	1396	1398	1400	1399	1397	1427	1457	1480	1495	1491	1492	1501	1504	1490	1454	1443	1448	1456	1458	1454	1453	1451	1461	1460	1459	1456	1440	1428	1427	1430	1428	1423	1395	1391	1398	1398	1402	1400	1405	1407	1402	1408	1406	1413	1414	1418	1421	1417	1402	1381	1380	1400	1397	1380	1372	1396	1405	1396	1381	1382	1390	1401	1404	1408	1408	1403	1404	1417	1422	1429	1431	1433	1401	0	0	0	0	0	0	0	0	0	0	0	0	0	0	0	0	0	0	0	0	0	0	0	0	0	0	0	0	0	0	0	0	0	0	0	0	0	0	0	0	0	0	0	0	0	0	0	1363	1377	1360	1343	1355	1361	1367	1365	1363	1366	1374	1377	1370	1373	1373	1375	1381	1382	1380	1376	1372	1362	1355	1353	1350	1355	1350	1355	1361	1362	1355	1350	1356	1367	1376	1377	1375	1369	1354	1354	1354	1344	1338	1339	1342	1344	1352	1351	1358	1360	1361	1349	1343	1337	1333	1336	1337	1341	1347	1358	1370	1369	1360	1363	1367	1378	1378	1369	1351	1340	1338	1351	1358	1357	1352	1348	1353	1358	1355	1346	1342	1342	1353	1361	1362	1356	1344	1347	1351	1360	1357	1361	1363	1366	1364	1361	1353	1349	1350	1348	1346	1342	1342	1347	1347	1346	1345	1346	1348	1353	1352	1335	1328	1333	1329	1332	1334	1336	1336	1337	1337	1332	1327	1324	1324	1327	1328	1318	1326	1325	1332	1331	1331	1326	1324	1306	1305	1318	1309	1306	1313	1335	1346	1350	1345	1334	1323	1321	1326	1333	1340	1333	1333	1332	1333	1335	1340	1388	0	0	0	1293	1314	1324	1321	1314	1304	1302	1312	1321	1321	1321	1311	1308	1305	1311	1323	1340	1335	1316	1303	1302	1309	1310	1312	1317	1319	1314	1309	1304	1305	1306	1306	1303	1308	1315	1323	1339	1338	1338	1314	1306	1295	1288	1277	1264	1266	1280	1299	1314	1329	1329	1323	1311	1314	1315	1321	1321	1315	1318	1339	1339	1339	1318	1301	1283	1284	1287	1282	1291	1304	1324	1329	1329	1335	1322	1309	1293	1292	1288	1286	1287	1286	1298	1304	1300	1301	1296	1284	1315	1315	1308	1309	1312	1309	1294	1290	1289	1293	1299	1297	1293	1294	1300	1298	1293	1300	1317	1319	1319	1306	1290	1278	1275	1288	1305	1313	1307	1303	1287	1286	1280	1284	1290	1301	1289	1287	1290	1300	1311	1302	1291	1281	1273	1283	1282	1282	1283	1285	1288	1289	1289	1294	1288	1260	1245	1249	1260	1271	1266	1260	1261	1259	1259	1266	1273	1275	1273	1272	1276	1275	1276	1276	1282	1291	1295	1295	1290	1281	1277	1272	1268	1268	1294	1323	1411	0	0	0	0	0	0	0	0	0	0	0	0	0	0	0	0	0	0	0	0	0	0	0	0	0	1416	1375	1367	1351	1327	1322	1322	1332	1339	1343	1343	1367	1367	1390	1377	1371	1371	1357	1351	1347	1323	1312	1323	1323	1328	0	0	0	0	0	0
0	0	0	0	0	0	0	0	0	0	0	0	0	0	0	0	0	0	0	0	0	0	0	0	0	0	0	0	0	0	0	0	0	0	0	0	0	0	0	0	1451	1439	1421	1403	1403	1402	1415	1435	1454	1470	1475	1465	1456	1451	1450	1456	1457	1470	1470	1476	1481	1473	1463	1452	1450	1454	0	0	0	0	0	0	0	1512	1504	1499	1485	1467	1447	1427	1426	1433	1448	1463	1462	1433	1431	1447	1447	1455	1448	1439	1436	1443	1455	1460	1463	1469	1449	1436	1426	1426	1465	1472	1459	1440	1438	1463	1481	1478	1468	1436	1423	0	0	0	0	0	0	0	0	1459	1456	1445	1426	1410	1399	1397	1398	1402	1403	1399	1411	1431	1464	1490	1497	1493	1492	1493	1495	1482	1445	1441	1450	1457	1450	1446	1444	1455	1451	1445	1452	1449	1434	1428	1417	1416	1421	1416	1400	1399	1399	1398	1401	1408	1413	1414	1410	1406	1404	1407	1407	1406	1408	1414	1395	1383	1384	1396	1398	1382	1380	1392	1396	1387	1377	1375	1391	1396	1406	1413	1410	1402	1400	1396	1406	1413	1423	1426	1393	0	0	0	0	0	0	0	0	0	0	0	0	0	0	0	0	0	0	0	0	0	0	0	0	0	0	0	0	0	0	0	0	0	0	0	0	0	0	0	0	0	0	0	0	0	0	0	1364	1363	1362	1343	1350	1356	1365	1364	1361	1361	1372	1372	1372	1369	1368	1375	1381	1380	1376	1373	1369	1364	1366	1362	1358	1347	1346	1341	1350	1361	1356	1352	1358	1365	1372	1370	1367	1364	1360	1356	1347	1339	1332	1335	1337	1334	1346	1353	1360	1360	1367	1357	1351	1340	1339	1336	1341	1344	1352	1363	1383	1374	1369	1372	1380	1381	1377	1367	1351	1339	1336	1345	1353	1355	1354	1353	1357	1361	1356	1343	1335	1341	1355	1362	1365	1360	1354	1355	1365	1365	1365	1362	1370	1369	1367	1368	1359	1354	1357	1359	1357	1345	1341	1341	1342	1347	1348	1352	1351	1352	1349	1346	1340	1336	1334	1330	1336	1344	1344	1342	1343	1344	1338	1340	1340	1336	1328	1329	1326	1322	1320	1331	1344	1360	1354	1341	1327	1328	1315	1317	1318	1327	1345	1346	1338	1325	1318	1325	1338	1348	1347	1339	1341	1342	1343	1343	1347	1402	0	0	1360	1293	1320	1334	1331	1321	1319	1318	1323	1330	1330	1326	1319	1319	1312	1315	1318	1326	1334	1318	1305	1298	1310	1316	1319	1318	1315	1305	1306	1311	1320	1317	1311	1309	1306	1308	1305	1311	1323	1326	1308	1305	1307	1303	1292	1285	1287	1294	1305	1308	1304	1306	1313	1316	1315	1320	1317	1317	1311	1309	1311	1313	1305	1319	1316	1310	1314	1324	1330	1330	1324	1316	1306	1304	1302	1302	1304	1298	1297	1294	1297	1297	1299	1296	1292	1284	1281	1279	1290	1326	1320	1305	1293	1291	1287	1284	1282	1285	1288	1289	1293	1291	1294	1292	1294	1295	1296	1311	1314	1304	1295	1285	1273	1276	1285	1294	1299	1296	1295	1293	1289	1289	1291	1295	1295	1293	1293	1300	1312	1312	1304	1288	1282	1274	1280	1277	1274	1270	1272	1280	1284	1286	1286	1286	1272	1260	1264	1265	1263	1264	1264	1263	1272	1271	1267	1274	1279	1277	1271	1266	1264	1258	1267	1280	1291	1292	1287	1283	1281	1276	1269	1268	1266	1285	1334	1434	0	0	0	0	0	0	0	0	0	0	0	0	0	0	0	0	0	0	0	0	0	0	0	0	0	1395	1365	1355	1323	1315	1317	1311	1319	1331	1338	1362	1374	1374	1387	1376	1379	1377	1361	1347	1343	1334	1311	1317	1317	1331	0	0	0	0	0	0
0	0	0	0	0	0	0	0	0	0	0	0	0	0	0	0	0	0	0	0	0	0	0	0	0	0	0	0	0	0	0	1477	1471	1462	1462	1465	1456	1444	1446	1459	1455	1445	1437	1435	1435	1443	1454	1457	1460	1460	1447	1449	1451	1450	1445	1440	1442	1447	1447	1468	1472	1470	1469	1468	1470	1454	1447	1473	0	0	0	1481	1462	1454	1452	1455	1461	1456	1450	1447	1443	1444	1438	1438	1430	1424	1424	1430	1442	1457	1456	1451	1458	1466	1468	1459	1449	1457	1457	1447	1456	1468	1471	1453	1435	1437	1445	1471	1483	1477	1470	1460	1453	1453	1451	1462	0	0	0	0	1450	1439	1429	1423	1419	1417	1406	1400	1408	1419	1415	1417	1428	1452	1472	1485	1493	1490	1484	1482	1480	1461	1435	1438	1449	1454	1449	1449	1448	1456	1458	1454	1453	1448	1437	1418	1416	1423	1423	1418	1406	1402	1399	1395	1402	1414	1419	1415	1406	1399	1397	1398	1398	1394	1394	1390	1388	1386	1388	1395	1399	1391	1395	1395	1395	1388	1378	1373	1386	1405	1410	1408	1406	1404	1396	1387	1387	1396	1413	1390	1404	0	0	0	0	0	0	0	0	0	0	0	0	0	0	0	0	0	0	0	0	0	0	0	0	0	0	0	0	0	0	0	0	0	0	0	0	0	0	0	0	0	0	0	0	0	0	0	1339	1365	1362	1350	1350	1359	1365	1365	1362	1363	1367	1363	1365	1366	1367	1372	1372	1371	1369	1363	1365	1367	1377	1368	1364	1356	1342	1337	1344	1352	1357	1355	1355	1359	1366	1366	1362	1363	1367	1358	1349	1338	1330	1330	1336	1339	1345	1350	1355	1352	1347	1354	1353	1350	1347	1343	1341	1340	1355	1375	1391	1391	1378	1375	1378	1382	1370	1359	1347	1344	1338	1336	1340	1344	1350	1349	1355	1365	1366	1366	1361	1368	1374	1376	1369	1367	1373	1375	1373	1372	1367	1365	1367	1366	1337	1338	1348	1364	1373	1368	1364	1364	1365	1359	1354	1352	1357	1358	1361	1364	1358	1351	1343	1335	1344	1358	1361	1351	1335	1326	1320	1312	1311	1327	1333	1325	1319	1315	1317	1324	1321	1329	1346	1356	1363	1343	1329	1318	1313	1320	1323	1320	1323	1329	1336	1341	1343	1337	1341	1344	1342	1341	1344	1349	1353	1355	1361	1381	1442	1418	1396	1318	1329	1330	1329	1325	1321	1322	1327	1329	1329	1325	1324	1321	1321	1317	1318	1320	1329	1325	1312	1310	1316	1322	1320	1315	1308	1306	1308	1318	1328	1324	1317	1311	1309	1309	1309	1310	1320	1323	1311	1310	1308	1303	1295	1290	1291	1297	1301	1296	1295	1300	1308	1319	1320	1318	1315	1312	1305	1304	1305	1313	1309	1305	1309	1321	1320	1322	1328	1330	1317	1307	1301	1299	1304	1300	1295	1290	1283	1277	1289	1295	1303	1300	1294	1287	1279	1278	1284	1309	1306	1305	1294	1288	1284	1281	1279	1284	1286	1284	1291	1289	1290	1281	1282	1291	1299	1304	1293	1289	1281	1276	1269	1272	1277	1284	1286	1286	1287	1288	1289	1294	1298	1293	1290	1295	1295	1301	1310	1312	1298	1284	1282	1279	1280	1275	1267	1264	1265	1275	1283	1285	1285	1286	1275	1271	1269	1267	1271	1267	1272	1276	1277	1271	1266	1273	1275	1278	1267	1260	1254	1255	1262	1276	1287	1287	1279	1277	1277	1274	1273	1273	1274	1286	1368	1450	0	0	0	0	0	0	0	0	0	0	0	0	0	0	0	0	0	0	0	0	0	0	0	0	0	1391	1357	1341	1317	1319	1321	1323	1317	1331	1329	1339	1352	1352	1357	1379	1390	1385	1353	1347	1342	1339	1328	1326	1341	1341	0	0	0	0	0	0
0	0	0	0	0	0	0	0	0	0	0	0	0	0	0	0	0	0	0	0	0	0	0	0	0	0	0	0	0	0	1451	1429	1440	1452	1452	1453	1447	1444	1442	1437	1439	1438	1443	1449	1449	1450	1463	1453	1453	1444	1445	1445	1451	1447	1442	1437	1437	1437	1441	1452	1454	1467	1459	1452	1458	1459	1455	1460	1471	1465	1452	1437	1442	1448	1450	1451	1448	1449	1443	1439	1435	1434	1440	1437	1427	1427	1421	1428	1447	1462	1463	1462	1467	1470	1474	1463	1454	1455	1461	1459	1462	1473	1465	1461	1450	1441	1451	1464	1466	1469	1472	1462	1464	1471	1469	1470	1484	1504	0	1468	1428	1406	1419	1416	1430	1422	1415	1414	1423	1432	1422	1430	1438	1450	1458	1467	1476	1484	1483	1484	1473	1461	1449	1442	1446	1456	1462	1465	1469	1468	1465	1460	1461	1457	1452	1437	1430	1430	1426	1411	1407	1403	1402	1406	1410	1423	1420	1414	1404	1386	1382	1386	1396	1399	1396	1394	1392	1389	1386	1388	1398	1399	1402	1406	1409	1401	1388	1379	1389	1404	1421	1413	1406	1403	1394	1376	1373	1384	1390	1387	1405	1428	0	0	0	0	0	0	0	0	0	0	0	0	0	0	0	0	0	0	0	0	0	0	0	0	0	0	0	0	0	0	0	0	0	0	0	0	0	0	0	0	0	0	0	0	0	1318	1330	1361	1360	1352	1350	1359	1367	1365	1361	1358	1357	1356	1355	1358	1356	1358	1361	1362	1354	1357	1357	1365	1377	1375	1371	1371	1361	1344	1344	1350	1360	1357	1353	1353	1360	1366	1377	1368	1354	1345	1354	1351	1350	1347	1340	1333	1328	1329	1329	1334	1339	1339	1340	1348	1344	1345	1338	1339	1341	1335	1323	1322	1333	1359	1381	1385	1370	1352	1343	1342	1336	1340	1338	1343	1341	1344	1345	1350	1351	1350	1355	1370	1380	1390	1393	1389	1373	1361	1348	1337	1333	1330	1333	1330	1324	1324	1341	1361	1373	1369	1365	1357	1361	1355	1354	1352	1359	1356	1358	1363	1360	1352	1341	1340	1348	1361	1366	1352	1338	1328	1322	1317	1314	1327	1330	1329	1317	1315	1321	1329	1332	1331	1344	1353	1355	1345	1327	1318	1318	1324	1329	1333	1328	1331	1336	1345	1346	1342	1342	1345	1339	1338	1341	1344	1348	1363	1362	1400	1493	1467	1453	1326	1324	1323	1322	1322	1319	1317	1319	1321	1322	1324	1324	1324	1323	1323	1319	1315	1324	1325	1322	1318	1321	1321	1313	1306	1306	1309	1308	1322	1329	1330	1322	1312	1308	1311	1310	1311	1313	1318	1312	1310	1311	1306	1299	1299	1299	1298	1293	1293	1289	1297	1309	1321	1319	1317	1309	1311	1302	1299	1299	1300	1295	1296	1310	1320	1323	1326	1326	1316	1303	1299	1296	1297	1303	1301	1289	1287	1280	1279	1283	1296	1304	1307	1301	1292	1286	1283	1286	1292	1295	1300	1300	1294	1284	1275	1279	1284	1283	1284	1286	1287	1283	1273	1274	1298	1303	1296	1285	1276	1271	1271	1268	1272	1277	1280	1280	1279	1277	1283	1288	1299	1297	1289	1287	1292	1294	1304	1304	1299	1292	1291	1287	1281	1277	1277	1269	1263	1267	1276	1285	1286	1285	1287	1284	1279	1281	1282	1280	1282	1280	1280	1276	1271	1267	1271	1280	1279	1270	1260	1257	1258	1267	1281	1290	1289	1277	1272	1273	1278	1276	1283	1297	1347	1390	1447	0	0	0	0	0	0	0	0	0	0	0	0	0	0	0	0	0	0	0	0	0	0	0	0	0	1415	1364	1341	1329	1332	1334	1346	1329	1332	1332	1332	1329	1329	1331	1350	1358	1363	1359	1347	1350	1355	1357	1351	1345	1345	0	0	0	0	0	0
0	0	0	0	0	0	0	0	0	0	0	0	0	0	0	0	0	0	0	0	0	0	0	0	0	0	0	0	0	1460	1434	1436	1436	1439	1439	1446	1445	1451	1441	1436	1425	1426	1433	1447	1447	1460	1458	1451	1449	1444	1444	1449	1451	1453	1444	1439	1438	1438	1440	1445	1449	1452	1436	1439	1441	1450	1456	1464	1462	1442	1431	1432	1441	1454	1456	1452	1451	1448	1440	1427	1421	1429	1443	1448	1448	1437	1428	1434	1454	1466	1469	1466	1469	1466	1464	1462	1462	1463	1464	1460	1451	1457	1457	1462	1454	1445	1437	1438	1450	1462	1474	1467	1466	1476	1480	1487	1502	1519	0	1472	1432	1408	1417	1430	1437	1428	1424	1430	1436	1441	1437	1432	1441	1439	1442	1455	1463	1473	1478	1478	1470	1460	1459	1457	1459	1461	1454	1455	1457	1471	1469	1465	1468	1464	1457	1447	1437	1427	1415	1401	1400	1404	1408	1413	1415	1417	1418	1411	1395	1383	1372	1380	1396	1405	1407	1400	1399	1398	1389	1387	1398	1404	1407	1415	1417	1405	1398	1388	1392	1406	1421	1424	1411	1398	1383	1379	1382	1385	1377	1388	1401	1411	0	0	0	0	0	0	0	0	0	0	0	0	0	0	0	0	0	0	0	0	0	0	0	0	0	0	0	0	0	0	0	0	0	0	0	0	0	0	0	0	0	0	0	0	0	1303	1340	1338	1374	1365	1356	1358	1363	1365	1364	1361	1354	1347	1341	1346	1345	1347	1363	1362	1360	1360	1360	1370	1374	1385	1387	1391	1389	1387	1373	1374	1366	1362	1358	1364	1363	1364	1365	1358	1351	1350	1353	1355	1349	1338	1326	1324	1329	1336	1344	1349	1352	1349	1346	1347	1348	1345	1341	1340	1334	1322	1315	1311	1328	1350	1374	1378	1372	1359	1348	1348	1352	1354	1354	1348	1348	1346	1349	1349	1349	1352	1355	1363	1370	1377	1386	1386	1369	1355	1342	1336	1330	1321	1318	1317	1313	1319	1334	1357	1374	1367	1366	1349	1329	1331	1341	1354	1363	1360	1355	1353	1355	1354	1350	1352	1350	1351	1361	1361	1357	1351	1343	1335	1328	1333	1336	1327	1320	1319	1331	1343	1341	1342	1351	1353	1356	1345	1334	1325	1322	1328	1334	1336	1336	1339	1337	1335	1341	1345	1344	1341	1333	1322	1326	1330	1338	1351	1364	1421	1506	1486	1437	1308	1321	1326	1323	1321	1319	1314	1313	1316	1309	1317	1317	1322	1329	1333	1325	1315	1323	1329	1345	1348	1335	1319	1306	1306	1303	1304	1313	1322	1327	1326	1318	1307	1304	1304	1304	1305	1307	1309	1311	1310	1310	1311	1314	1314	1308	1303	1295	1286	1284	1297	1315	1319	1315	1306	1297	1306	1297	1291	1290	1283	1290	1288	1300	1313	1318	1326	1319	1316	1313	1298	1298	1297	1307	1303	1296	1291	1288	1283	1284	1295	1306	1308	1304	1297	1288	1288	1287	1289	1290	1293	1293	1294	1284	1273	1273	1280	1278	1280	1279	1279	1276	1263	1270	1292	1291	1285	1276	1269	1268	1267	1271	1275	1283	1284	1284	1283	1280	1277	1289	1290	1289	1284	1282	1285	1291	1295	1294	1292	1288	1296	1299	1295	1280	1280	1273	1270	1267	1273	1276	1281	1286	1288	1291	1290	1290	1291	1291	1292	1286	1278	1273	1269	1268	1270	1278	1279	1269	1262	1263	1260	1268	1281	1290	1290	1282	1273	1271	1275	1276	1279	1291	1339	1392	1454	1492	0	0	0	0	0	0	0	0	0	0	0	0	0	0	0	0	0	0	0	0	0	0	0	0	1420	1390	1367	1353	1355	1351	1356	1340	1338	1341	1339	1327	1326	1326	1330	1331	1338	1342	1346	1350	1355	1353	1351	1337	1337	0	0	0	0	0	0
0	0	0	0	0	0	0	0	0	0	0	0	0	0	0	0	0	0	0	0	0	1476	1470	1461	1455	1455	1468	1481	1444	1439	1448	1449	1444	1444	1442	1451	1452	1450	1441	1435	1424	1421	1432	1432	1442	1455	1459	1460	1455	1453	1454	1458	1454	1456	1453	1445	1443	1443	1447	1452	1455	1463	1449	1438	1428	1443	1457	1457	1452	1436	1435	1446	1457	1470	1466	1462	1461	1458	1444	1426	1422	1442	1465	1469	1469	1457	1443	1449	1466	1477	1475	1475	1468	1453	1454	1461	1463	1470	1466	1459	1445	1444	1455	1464	1457	1445	1431	1421	1439	1452	1463	1474	1461	1472	1478	1495	1516	1521	1506	1485	1447	1432	1436	1449	1453	1443	1438	1440	1447	1453	1451	1441	1445	1445	1436	1441	1456	1465	1467	1465	1453	1454	1462	1468	1475	1471	1452	1450	1456	1456	1466	1471	1472	1472	1468	1455	1437	1419	1397	1390	1395	1396	1402	1407	1408	1416	1415	1407	1392	1381	1369	1380	1404	1414	1418	1412	1407	1397	1391	1385	1386	1398	1403	1408	1410	1403	1398	1390	1393	1405	1421	1427	1417	1402	1384	1377	1374	1373	1373	1385	1399	1395	0	0	0	0	0	0	0	0	0	0	0	0	0	0	0	0	0	0	0	0	0	0	0	0	0	0	0	0	0	0	0	0	0	0	0	0	0	0	0	0	0	0	0	0	0	0	1320	1372	1388	1397	1400	1379	1362	1352	1354	1357	1361	1354	1353	1358	1359	1372	1373	1368	1352	1339	1335	1335	1346	1368	1391	1408	1412	1393	1380	1366	1367	1368	1368	1366	1359	1359	1365	1362	1360	1354	1354	1358	1348	1334	1323	1323	1342	1355	1364	1368	1357	1361	1350	1345	1348	1356	1349	1343	1334	1323	1316	1314	1323	1344	1361	1371	1366	1356	1351	1352	1364	1365	1363	1357	1352	1346	1344	1348	1351	1358	1353	1342	1334	1335	1342	1344	1327	1331	1333	1339	1324	1313	1314	1319	1324	1326	1329	1337	1352	1359	1359	1350	1337	1333	1342	1350	1357	1360	1360	1360	1356	1350	1344	1340	1342	1349	1354	1356	1353	1343	1334	1330	1331	1325	1329	1328	1321	1321	1329	1341	1347	1347	1351	1357	1353	1344	1334	1329	1324	1331	1341	1344	1345	1345	1336	1341	1341	1345	1346	1341	1326	1316	1315	1316	1332	1343	1357	1424	1508	1478	1394	1304	1322	1330	1332	1326	1318	1314	1314	1319	1317	1319	1316	1321	1336	1338	1327	1310	1302	1335	1349	1352	1336	1320	1308	1303	1299	1304	1310	1313	1313	1316	1312	1302	1294	1296	1300	1298	1304	1306	1307	1308	1312	1315	1324	1330	1311	1296	1281	1282	1284	1293	1306	1309	1310	1303	1303	1306	1301	1291	1289	1288	1279	1280	1288	1302	1318	1323	1319	1317	1321	1322	1316	1314	1312	1309	1303	1297	1294	1291	1289	1297	1304	1307	1301	1299	1293	1293	1288	1284	1288	1286	1291	1289	1280	1278	1282	1279	1280	1278	1277	1275	1271	1268	1267	1285	1285	1277	1270	1266	1265	1270	1276	1283	1290	1298	1295	1289	1283	1283	1285	1290	1287	1280	1286	1289	1295	1290	1287	1283	1282	1294	1297	1291	1278	1273	1276	1274	1274	1266	1263	1268	1277	1284	1280	1280	1286	1292	1302	1301	1290	1281	1271	1266	1269	1269	1273	1267	1263	1262	1260	1262	1266	1274	1283	1282	1278	1275	1274	1278	1268	1268	1282	1333	1400	1464	1496	0	0	0	0	0	0	0	0	0	0	0	0	0	0	0	0	0	0	0	0	0	0	0	0	1417	1413	1402	1388	1371	1362	1353	1340	1345	1339	1332	1328	1328	1328	1328	1337	1342	1346	1348	1351	1354	1347	1342	1335	1335	0	0	0	0	0	0
0	0	0	0	0	0	0	0	0	1449	1451	1451	1470	1480	1466	1443	1450	1450	1454	1467	1472	1470	1467	1468	1459	1459	1436	1428	1420	1432	1453	1460	1454	1454	1447	1440	1446	1445	1441	1436	1427	1426	1434	1434	1444	1453	1462	1466	1452	1452	1463	1459	1459	1451	1447	1452	1452	1455	1443	1448	1461	1462	1448	1447	1455	1464	1451	1448	1441	1439	1449	1460	1476	1479	1471	1462	1468	1470	1449	1440	1446	1466	1474	1474	1476	1474	1465	1470	1470	1475	1478	1472	1467	1453	1449	1451	1459	1465	1467	1457	1448	1447	1458	1464	1459	1444	1428	1414	1425	1438	1447	1456	1448	1450	1465	1468	1487	1506	1494	1478	1470	1462	1469	1474	1472	1462	1450	1447	1454	1450	1454	1447	1441	1444	1444	1440	1450	1465	1458	1456	1436	1440	1453	1464	1468	1469	1464	1451	1450	1456	1463	1466	1473	1475	1468	1455	1430	1406	1381	1387	1386	1391	1388	1388	1394	1415	1414	1404	1396	1373	1370	1379	1398	1410	1416	1411	1401	1389	1379	1382	1382	1393	1396	1401	1405	1402	1393	1390	1391	1405	1412	1426	1415	1412	1392	1390	1380	1372	1372	1400	1400	1388	0	0	0	0	0	0	0	0	0	0	0	0	0	0	0	0	0	0	0	0	0	0	0	0	0	0	0	0	0	0	0	0	0	0	0	0	0	0	0	0	0	0	0	0	0	0	0	1381	1391	1400	1394	1379	1362	1356	1360	1366	1359	1354	1357	1361	1370	1377	1381	1372	1360	1349	1339	1337	1349	1369	1383	1407	1410	1391	1379	1370	1368	1373	1376	1368	1360	1354	1384	1391	1388	1385	1378	1361	1347	1341	1340	1346	1359	1371	1383	1386	1367	1359	1341	1342	1347	1351	1354	1348	1348	1347	1348	1355	1349	1346	1361	1365	1367	1355	1352	1355	1367	1367	1358	1345	1349	1346	1345	1347	1354	1363	1361	1352	1346	1343	1349	1346	1337	1337	1341	1340	1328	1317	1318	1330	1332	1329	1326	1327	1338	1348	1353	1346	1338	1336	1341	1345	1354	1366	1365	1363	1355	1342	1335	1334	1338	1345	1347	1349	1345	1333	1326	1325	1328	1334	1333	1329	1319	1318	1331	1342	1350	1349	1347	1349	1346	1338	1329	1330	1331	1346	1357	1355	1351	1345	1340	1338	1335	1343	1341	1338	1327	1316	1310	1318	1325	1333	1343	1419	1494	1474	1368	1306	1315	1319	1326	1321	1317	1320	1312	1326	1330	1325	1320	1321	1330	1334	1315	1297	1298	1333	1346	1344	1333	1318	1310	1305	1299	1305	1310	1315	1315	1314	1310	1299	1291	1291	1295	1298	1303	1306	1305	1305	1312	1322	1328	1335	1319	1296	1282	1273	1278	1289	1292	1295	1296	1295	1302	1303	1301	1301	1296	1284	1277	1279	1287	1298	1316	1321	1320	1320	1321	1325	1324	1324	1323	1312	1313	1312	1301	1295	1295	1299	1304	1301	1300	1299	1300	1297	1292	1287	1288	1289	1289	1284	1283	1284	1287	1288	1288	1283	1277	1275	1274	1272	1271	1283	1284	1274	1270	1269	1268	1267	1275	1286	1299	1308	1306	1298	1292	1291	1294	1298	1290	1283	1285	1294	1296	1293	1286	1279	1276	1283	1280	1272	1268	1263	1270	1273	1271	1257	1253	1258	1268	1273	1267	1264	1276	1287	1298	1298	1290	1284	1277	1272	1268	1269	1266	1259	1254	1255	1261	1264	1263	1264	1267	1271	1272	1276	1278	1279	1274	1267	1277	1326	1411	1476	1498	0	0	0	0	0	0	0	0	0	0	0	0	0	0	0	0	0	0	0	0	0	0	0	0	1407	1419	1415	1402	1393	1375	1349	1341	1347	1340	1331	1325	1328	1328	1336	1344	1352	1356	1356	1354	1350	1341	1333	1327	0	0	0	0	0	0	0
0	0	0	0	0	0	0	0	1474	1459	1454	1454	1448	1451	1445	1454	1442	1442	1455	1462	1461	1466	1469	1470	1452	1452	1439	1423	1412	1424	1446	1457	1457	1457	1452	1447	1443	1439	1442	1436	1431	1435	1430	1430	1455	1460	1466	1465	1448	1446	1461	1461	1453	1448	1445	1451	1451	1446	1448	1449	1462	1455	1444	1450	1462	1479	1477	1459	1435	1445	1456	1467	1473	1479	1467	1460	1468	1475	1472	1469	1475	1487	1487	1490	1487	1484	1479	1477	1473	1474	1474	1468	1460	1456	1448	1446	1453	1462	1460	1459	1448	1445	1447	1453	1453	1443	1432	1420	1418	1422	1433	1445	1435	1422	1438	1446	1460	1466	1469	1465	1479	1485	1484	1479	1478	1474	1462	1455	1456	1456	1459	1447	1439	1442	1449	1442	1454	1458	1451	1446	1445	1441	1447	1456	1456	1452	1449	1449	1453	1467	1470	1472	1470	1471	1469	1458	1407	1365	1370	1390	1391	1392	1393	1388	1395	1416	1410	1402	1391	1377	1371	1375	1397	1407	1411	1409	1398	1384	1380	1387	1392	1394	1398	1403	1404	1401	1399	1395	1404	1421	1424	1421	1416	1410	1389	1379	1379	1373	1378	1390	1414	1397	0	0	0	0	0	0	0	0	0	0	0	0	0	0	0	0	0	0	0	0	0	0	0	0	0	0	0	0	0	0	0	0	0	0	1650	1695	0	0	0	0	0	0	0	0	0	0	0	1389	1385	1388	1380	1365	1349	1343	1350	1361	1365	1358	1360	1367	1375	1379	1377	1372	1364	1356	1345	1339	1342	1364	1374	1384	1361	1345	1359	1363	1369	1373	1376	1374	1368	1373	1388	1406	1402	1388	1377	1361	1351	1352	1353	1356	1366	1370	1380	1383	1368	1350	1342	1345	1349	1355	1359	1361	1363	1369	1367	1366	1360	1356	1361	1365	1364	1360	1356	1357	1361	1350	1341	1335	1343	1349	1352	1355	1359	1367	1366	1359	1353	1358	1364	1358	1352	1348	1349	1347	1331	1332	1334	1340	1344	1339	1324	1321	1333	1345	1348	1340	1336	1332	1335	1345	1361	1368	1366	1358	1346	1334	1329	1332	1336	1338	1340	1336	1329	1318	1318	1325	1332	1336	1335	1331	1318	1315	1323	1340	1348	1345	1344	1342	1338	1334	1334	1332	1343	1355	1362	1355	1351	1349	1342	1335	1335	1336	1338	1337	1335	1326	1324	1317	1318	1326	1335	1414	1485	1463	1360	1312	1319	1313	1314	1312	1313	1321	1334	1335	1336	1333	1321	1323	1322	1317	1302	1292	1292	1323	1336	1338	1330	1321	1313	1304	1302	1310	1313	1315	1310	1318	1309	1300	1290	1292	1297	1303	1307	1307	1303	1296	1311	1322	1337	1334	1323	1297	1284	1275	1272	1282	1278	1270	1277	1281	1287	1289	1296	1300	1298	1291	1288	1282	1292	1305	1310	1314	1310	1311	1313	1319	1318	1323	1316	1303	1301	1309	1299	1299	1293	1296	1299	1302	1301	1306	1307	1304	1295	1293	1291	1295	1292	1289	1285	1283	1288	1294	1295	1288	1280	1277	1278	1281	1281	1282	1284	1281	1279	1277	1266	1267	1277	1285	1299	1307	1307	1302	1295	1295	1301	1304	1294	1287	1289	1294	1298	1291	1287	1280	1276	1274	1265	1260	1259	1271	1276	1282	1271	1257	1254	1255	1261	1266	1266	1265	1270	1281	1285	1288	1293	1295	1286	1274	1271	1270	1265	1253	1242	1242	1249	1261	1260	1257	1252	1256	1263	1270	1277	1280	1272	1270	1273	1322	1404	1468	1498	0	0	0	0	0	0	0	0	0	0	0	0	0	0	0	0	0	0	0	0	0	0	0	0	1394	1407	1413	1411	1401	1385	1346	1344	1351	1344	1335	1330	1334	1334	1342	1349	1356	1362	1359	1352	1346	1337	1329	1329	0	0	0	0	0	0	0
0	0	0	0	0	0	0	1476	1460	1460	1460	1451	1455	1457	1458	1452	1466	1441	1458	1464	1462	1465	1466	1464	1464	1456	1443	1428	1417	1415	1439	1451	1448	1448	1451	1447	1440	1435	1445	1446	1437	1440	1442	1442	1452	1459	1456	1455	1447	1446	1451	1462	1458	1442	1438	1448	1448	1447	1452	1460	1461	1448	1437	1442	1460	1473	1477	1471	1452	1460	1467	1474	1471	1471	1460	1459	1471	1481	1476	1479	1486	1494	1494	1491	1479	1475	1482	1476	1469	1473	1469	1469	1460	1457	1448	1448	1453	1462	1464	1459	1449	1443	1439	1444	1450	1443	1437	1421	1418	1422	1431	1444	1432	1422	1431	1442	1450	1457	1454	1457	1471	1492	1493	1479	1473	1465	1451	1455	1459	1466	1461	1443	1440	1442	1449	1449	1450	1457	1457	1449	1449	1450	1454	1451	1449	1447	1449	1449	1455	1482	1478	1472	1464	1464	1454	1445	1425	1419	1408	1393	1401	1400	1403	1399	1404	1415	1406	1391	1381	1377	1376	1385	1396	1406	1410	1409	1396	1391	1390	1399	1400	1410	1409	1407	1406	1408	1407	1415	1418	1422	1421	1419	1412	1413	1394	1388	1380	1380	1385	1399	1428	1415	0	0	0	0	0	0	0	0	0	0	0	0	0	0	0	0	0	0	0	0	0	0	0	0	0	0	0	0	0	0	0	1705	1686	1670	1675	1679	1686	1689	0	0	0	0	0	0	0	0	1409	1380	1381	1381	1369	1350	1341	1340	1351	1362	1367	1368	1367	1372	1374	1374	1369	1364	1359	1357	1351	1343	1346	1349	1356	1352	1346	1343	1354	1357	1360	1365	1376	1381	1381	1380	1381	1396	1396	1389	1377	1365	1358	1354	1353	1350	1364	1372	1365	1366	1354	1345	1343	1347	1353	1361	1362	1362	1367	1373	1365	1367	1369	1364	1363	1369	1366	1365	1365	1360	1356	1347	1330	1338	1343	1358	1360	1360	1365	1372	1368	1360	1354	1358	1365	1373	1364	1361	1362	1356	1346	1347	1352	1360	1352	1345	1332	1331	1339	1349	1350	1342	1336	1336	1335	1346	1363	1371	1362	1344	1332	1318	1318	1329	1333	1333	1327	1325	1317	1313	1315	1325	1333	1329	1327	1323	1322	1323	1325	1336	1341	1342	1340	1339	1338	1334	1332	1335	1340	1353	1353	1348	1344	1339	1336	1328	1328	1330	1327	1334	1335	1337	1336	1316	1306	1322	1340	1394	1472	1447	1337	1319	1317	1314	1306	1307	1312	1323	1338	1342	1340	1337	1330	1324	1322	1315	1304	1302	1301	1306	1328	1323	1312	1308	1320	1318	1310	1306	1303	1300	1290	1291	1295	1298	1300	1298	1300	1308	1309	1310	1303	1300	1305	1316	1328	1322	1318	1305	1288	1283	1286	1287	1280	1269	1274	1284	1291	1293	1298	1295	1290	1280	1280	1289	1296	1298	1299	1307	1303	1302	1303	1300	1305	1306	1297	1317	1315	1310	1302	1296	1295	1293	1307	1313	1315	1312	1311	1304	1296	1289	1289	1294	1290	1285	1282	1280	1281	1290	1287	1288	1285	1280	1284	1286	1282	1282	1285	1285	1282	1275	1269	1274	1271	1283	1298	1302	1299	1291	1291	1295	1303	1304	1297	1294	1295	1292	1290	1287	1288	1285	1280	1269	1263	1260	1268	1280	1288	1287	1279	1268	1260	1257	1265	1273	1279	1279	1273	1274	1271	1272	1286	1301	1288	1277	1271	1267	1264	1251	1235	1232	1239	1253	1260	1257	1252	1249	1256	1263	1274	1274	1273	1270	1287	1316	1390	1446	1489	1509	0	0	0	0	0	0	0	0	0	0	0	0	0	0	0	0	0	0	0	0	0	0	0	1383	1403	1407	1401	1395	1377	1351	1336	1346	1350	1343	1335	1330	1335	1335	1345	1352	1355	1359	1351	1345	1336	1333	1330	0	0	0	0	0	0	0
0	0	0	0	0	0	0	1458	1451	1462	1462	1458	1468	1470	1468	1468	1470	1466	1460	1477	1473	1465	1457	1456	1456	1460	1461	1450	1429	1419	1424	1437	1441	1441	1450	1451	1445	1440	1446	1448	1443	1444	1445	1445	1441	1446	1433	1434	1441	1441	1454	1460	1465	1447	1438	1442	1442	1446	1451	1462	1457	1450	1442	1440	1455	1464	1472	1470	1468	1469	1467	1454	1441	1458	1450	1455	1472	1478	1476	1477	1482	1482	1486	1482	1470	1469	1475	1473	1469	1469	1470	1471	1468	1457	1449	1452	1463	1469	1471	1468	1453	1438	1433	1446	1445	1450	1447	1436	1430	1431	1436	1451	1438	1432	1440	1453	1464	1460	1444	1446	1453	1477	1486	1475	1467	1462	1452	1464	1469	1475	1468	1437	1437	1442	1443	1441	1448	1454	1454	1456	1457	1463	1457	1451	1444	1442	1446	1449	1473	1490	1484	1469	1453	1443	1445	1442	1416	1416	1414	1401	1397	1409	1410	1410	1419	1412	1395	1382	1378	1380	1380	1386	1402	1410	1415	1407	1406	1405	1404	1413	1414	1432	1418	1391	1383	1392	1403	1410	1412	1415	1415	1411	1409	1410	1409	1401	1393	1394	1397	1401	1427	1418	0	0	0	0	0	0	0	0	0	0	0	0	0	0	0	0	0	0	0	0	0	0	0	0	0	0	0	0	0	0	1722	1713	1697	1685	1686	1702	1700	1680	1678	0	0	0	0	0	0	0	1408	1382	1380	1375	1358	1345	1333	1338	1351	1363	1369	1373	1374	1374	1374	1369	1361	1359	1352	1358	1357	1352	1347	1353	1358	1359	1352	1351	1347	1346	1350	1356	1370	1381	1377	1369	1369	1380	1378	1375	1368	1361	1358	1357	1360	1360	1355	1361	1360	1356	1347	1342	1342	1343	1354	1361	1364	1369	1372	1374	1369	1371	1371	1363	1358	1364	1367	1371	1370	1361	1352	1337	1333	1338	1349	1361	1367	1369	1372	1370	1364	1346	1337	1341	1353	1367	1374	1372	1360	1354	1353	1355	1360	1362	1348	1346	1334	1339	1350	1356	1355	1344	1339	1334	1335	1349	1363	1366	1354	1336	1317	1311	1321	1330	1337	1335	1331	1322	1312	1311	1314	1328	1330	1323	1321	1321	1325	1326	1329	1335	1341	1341	1341	1344	1343	1338	1328	1325	1323	1327	1330	1334	1337	1332	1333	1323	1320	1317	1320	1326	1333	1335	1336	1326	1304	1311	1331	1391	1398	1396	1329	1316	1311	1311	1306	1309	1321	1329	1335	1340	1338	1303	1328	1330	1330	1336	1316	1313	1310	1311	1307	1312	1307	1320	1326	1326	1323	1308	1297	1296	1292	1281	1287	1309	1313	1307	1304	1309	1315	1315	1308	1302	1295	1306	1316	1319	1319	1304	1293	1283	1291	1292	1284	1280	1280	1294	1310	1314	1309	1291	1284	1277	1277	1288	1291	1292	1288	1295	1295	1297	1295	1291	1288	1287	1290	1330	1334	1337	1324	1327	1308	1295	1293	1306	1307	1309	1308	1298	1296	1286	1286	1288	1286	1280	1267	1269	1263	1267	1276	1280	1283	1286	1287	1286	1283	1277	1285	1282	1276	1274	1271	1277	1281	1289	1291	1291	1287	1276	1277	1284	1295	1296	1299	1304	1300	1293	1290	1285	1288	1288	1281	1269	1262	1261	1265	1276	1287	1287	1280	1271	1269	1266	1269	1278	1290	1284	1273	1266	1259	1256	1274	1281	1282	1269	1264	1263	1264	1257	1240	1231	1234	1244	1251	1252	1251	1252	1255	1263	1270	1270	1272	1273	1289	1321	1393	1446	1483	1509	1520	1517	0	0	0	0	0	0	0	0	0	0	0	0	0	0	0	0	0	0	0	0	0	1374	1404	1400	1389	1373	1358	1344	1339	1349	1343	1335	1329	1322	1325	1325	1333	1343	1348	1348	1347	1342	1337	1336	1335	0	0	0	0	0	0	0
0	0	0	0	0	0	0	1450	1462	1471	1471	1474	1481	1482	1477	1477	1478	1470	1483	1488	1474	1461	1461	1461	1461	1472	1474	1468	1447	1432	1430	1444	1444	1448	1451	1446	1445	1445	1442	1449	1443	1444	1444	1445	1445	1431	1422	1425	1431	1442	1451	1462	1462	1448	1450	1450	1444	1450	1460	1470	1466	1458	1451	1441	1445	1454	1464	1464	1470	1468	1460	1460	1435	1425	1438	1445	1465	1472	1470	1465	1465	1466	1469	1468	1468	1468	1472	1473	1465	1464	1466	1469	1464	1457	1455	1460	1470	1482	1485	1480	1470	1446	1439	1444	1452	1456	1455	1451	1453	1449	1442	1451	1438	1436	1452	1468	1469	1465	1448	1440	1440	1458	1471	1464	1459	1453	1453	1466	1473	1480	1467	1434	1432	1431	1432	1434	1438	1448	1451	1452	1455	1460	1457	1446	1429	1440	1448	1456	1477	1494	1484	1461	1446	1434	1431	1440	1439	1412	1389	1378	1391	1405	1407	1411	1416	1407	1396	1386	1386	1388	1391	1397	1406	1415	1414	1412	1403	1402	1403	1423	1426	1426	1405	1387	1372	1385	1392	1407	1415	1418	1410	1400	1398	1412	1412	1412	1409	1407	1405	1404	1404	1411	1418	0	0	0	0	0	0	0	0	0	0	0	0	0	0	0	0	0	0	0	0	0	0	0	0	0	0	0	0	0	1736	1710	1698	1700	1697	1699	1696	1675	1651	0	0	0	0	0	0	0	1409	1390	1390	1382	1365	1342	1337	1338	1348	1358	1369	1373	1372	1373	1373	1362	1358	1357	1357	1365	1365	1365	1362	1357	1357	1360	1357	1347	1344	1341	1340	1345	1357	1371	1368	1357	1351	1352	1355	1355	1358	1354	1351	1354	1361	1363	1361	1357	1352	1343	1338	1338	1339	1338	1350	1358	1363	1373	1376	1377	1375	1374	1368	1363	1356	1362	1376	1379	1378	1367	1344	1330	1329	1342	1357	1366	1371	1373	1375	1368	1355	1337	1331	1328	1340	1354	1364	1364	1357	1345	1344	1342	1345	1342	1335	1335	1327	1348	1356	1352	1351	1350	1340	1337	1341	1345	1352	1354	1343	1326	1316	1318	1322	1334	1333	1339	1337	1330	1321	1316	1314	1321	1321	1322	1320	1318	1313	1322	1326	1334	1341	1345	1347	1349	1346	1336	1330	1323	1331	1324	1329	1340	1339	1344	1341	1340	1315	1314	1316	1320	1328	1329	1329	1314	1299	1305	1333	1324	1335	1356	1321	1315	1313	1307	1307	1312	1320	1330	1333	1332	1331	1322	1313	1304	1291	1299	1329	1317	1315	1311	1299	1298	1299	1316	1322	1330	1331	1323	1313	1311	1300	1296	1314	1328	1323	1311	1305	1308	1314	1318	1314	1304	1291	1298	1307	1319	1320	1303	1297	1294	1296	1293	1289	1284	1285	1300	1317	1318	1316	1306	1279	1276	1279	1283	1281	1282	1283	1285	1293	1300	1298	1292	1283	1285	1294	1330	1343	1348	1332	1330	1310	1296	1295	1296	1295	1299	1282	1273	1270	1275	1277	1276	1267	1270	1259	1254	1255	1258	1268	1280	1289	1292	1298	1297	1289	1282	1282	1279	1277	1281	1283	1279	1281	1281	1281	1273	1271	1269	1271	1275	1283	1289	1299	1301	1304	1296	1286	1281	1280	1283	1281	1267	1262	1259	1265	1270	1271	1271	1274	1268	1267	1264	1269	1274	1287	1283	1272	1262	1251	1250	1270	1278	1277	1267	1267	1263	1264	1259	1246	1234	1229	1239	1249	1254	1251	1253	1258	1267	1274	1271	1270	1272	1279	1326	1406	0	0	1509	1523	1521	0	0	0	0	0	0	0	0	0	0	0	0	0	0	0	0	0	0	0	0	0	1383	1407	1405	1381	1363	1336	1338	1346	1353	1343	1335	1329	1323	1319	1319	1323	1335	1338	1338	1341	1341	1335	1336	1337	0	0	0	0	0	0	0
0	0	0	0	0	0	1455	1466	1474	1480	1480	1476	1479	1483	1475	1463	1466	1466	1492	1480	1471	1472	1474	1467	1467	1469	1482	1474	1459	1452	1449	1458	1458	1457	1454	1447	1448	1447	1444	1440	1437	1439	1439	1446	1447	1436	1426	1429	1446	1454	1456	1460	1458	1457	1447	1447	1445	1445	1457	1463	1462	1460	1453	1449	1451	1457	1464	1464	1452	1454	1465	1454	1434	1418	1420	1437	1455	1470	1470	1456	1450	1450	1460	1467	1471	1472	1476	1468	1464	1459	1465	1465	1459	1456	1455	1462	1470	1480	1486	1486	1474	1463	1453	1457	1469	1470	1458	1454	1453	1455	1458	1458	1448	1454	1463	1469	1474	1469	1455	1447	1437	1445	1459	1462	1454	1454	1460	1465	1476	1476	1467	1432	1423	1427	1430	1434	1445	1453	1455	1449	1447	1445	1445	1441	1433	1444	1460	1468	1475	1485	1473	1456	1441	1437	1436	1441	1439	1433	1402	1376	1386	1394	1402	1403	1418	1415	1409	1400	1392	1395	1399	1406	1414	1416	1414	1409	1405	1398	1396	1402	1403	1404	1401	1387	1372	1376	1390	1401	1413	1417	1414	1402	1395	1401	1412	1414	1410	1406	1402	1391	1395	1404	1430	0	0	0	0	0	0	0	0	0	0	0	0	0	0	0	0	0	0	0	0	0	0	0	0	0	0	0	0	0	1706	1704	1702	1706	1708	1695	1692	1672	1646	0	0	0	0	0	0	0	1407	1398	1398	1393	1384	1352	1335	1336	1350	1359	1368	1371	1369	1367	1360	1355	1352	1359	1369	1370	1371	1364	1362	1362	1363	1363	1359	1357	1344	1337	1339	1340	1349	1359	1359	1347	1337	1335	1333	1338	1341	1346	1348	1357	1359	1363	1359	1355	1348	1336	1338	1339	1339	1342	1347	1353	1364	1374	1373	1373	1373	1369	1365	1360	1359	1366	1375	1384	1378	1364	1347	1331	1334	1346	1362	1367	1373	1376	1374	1367	1353	1335	1329	1330	1334	1342	1353	1350	1343	1336	1331	1327	1324	1320	1320	1321	1334	1341	1342	1340	1338	1341	1344	1338	1341	1334	1333	1341	1334	1326	1319	1319	1318	1314	1324	1336	1335	1329	1323	1321	1318	1317	1318	1316	1319	1317	1306	1311	1319	1332	1340	1347	1351	1355	1354	1337	1328	1325	1324	1333	1330	1341	1344	1344	1345	1341	1318	1314	1317	1321	1322	1323	1317	1314	1313	1316	1332	1335	1336	1335	1349	1320	1316	1309	1308	1308	1313	1319	1327	1333	1321	1313	1315	1303	1291	1297	1305	1307	1313	1314	1310	1300	1304	1301	1312	1320	1335	1333	1328	1323	1329	1332	1331	1329	1325	1310	1304	1304	1311	1321	1318	1307	1290	1296	1308	1317	1308	1301	1297	1301	1299	1294	1288	1287	1290	1299	1305	1310	1308	1306	1289	1284	1288	1287	1278	1271	1273	1281	1290	1291	1295	1291	1287	1284	1285	1300	1327	1345	1344	1331	1309	1295	1309	1307	1302	1292	1278	1268	1263	1278	1284	1269	1262	1262	1265	1266	1261	1263	1274	1286	1295	1303	1309	1310	1301	1293	1284	1279	1277	1287	1289	1281	1275	1273	1272	1275	1266	1272	1274	1272	1271	1279	1287	1284	1282	1276	1271	1270	1273	1276	1275	1264	1257	1256	1264	1257	1255	1261	1265	1265	1260	1261	1262	1267	1276	1270	1266	1259	1260	1272	1278	1281	1279	1274	1264	1268	1270	1269	1261	1250	1239	1239	1242	1248	1251	1250	1255	1265	1264	1260	1268	1253	1260	1323	0	0	0	0	1530	1524	1510	1500	1496	0	0	0	0	0	0	0	0	0	0	0	0	0	0	0	0	0	0	1430	1413	1405	1377	1359	1320	1320	1343	1348	1341	1336	1328	1323	1319	1319	1322	1330	1332	1333	1338	1337	1333	1332	1338	0	0	0	0	0	0	0
0	0	0	0	0	1445	1457	1464	1475	1468	1468	1467	1469	1466	1457	1446	1446	1451	1476	1480	1476	1480	1486	1476	1476	1469	1468	1473	1467	1463	1467	1471	1471	1462	1454	1445	1441	1432	1436	1428	1429	1432	1432	1442	1442	1437	1435	1426	1453	1464	1476	1470	1467	1461	1453	1453	1451	1445	1448	1440	1448	1451	1457	1457	1463	1473	1478	1470	1456	1452	1464	1452	1443	1421	1414	1435	1459	1474	1482	1482	1471	1450	1449	1461	1468	1478	1475	1472	1466	1460	1461	1459	1456	1461	1465	1463	1465	1475	1482	1480	1480	1473	1463	1468	1468	1469	1463	1451	1454	1457	1465	1472	1472	1463	1464	1471	1473	1474	1465	1458	1439	1436	1451	1460	1460	1460	1465	1469	1484	1481	1464	1434	1421	1420	1429	1443	1457	1468	1466	1455	1436	1429	1429	1434	1442	1464	1474	1478	1470	1474	1466	1462	1452	1446	1439	1442	1447	1430	1404	1374	1377	1384	1395	1407	1425	1428	1419	1408	1400	1406	1409	1412	1416	1417	1417	1412	1405	1402	1391	1391	1392	1393	1397	1392	1371	1373	1385	1401	1408	1414	1413	1402	1395	1401	1408	1415	1408	1398	1392	1380	1387	1409	1441	0	0	0	0	0	0	0	0	0	0	0	0	0	0	0	0	0	0	0	0	0	0	0	0	0	0	0	0	0	1685	1698	1706	1711	1712	1687	1671	1658	1641	0	0	0	0	0	0	0	1399	1393	1380	1386	1378	1364	1339	1330	1338	1357	1367	1374	1369	1361	1351	1351	1350	1360	1367	1366	1360	1361	1366	1371	1372	1373	1367	1357	1350	1343	1344	1345	1347	1358	1364	1347	1338	1334	1332	1336	1337	1342	1349	1358	1365	1365	1361	1352	1345	1345	1341	1338	1335	1338	1345	1354	1360	1368	1371	1369	1361	1359	1359	1357	1359	1367	1373	1376	1371	1361	1345	1337	1337	1349	1361	1362	1371	1371	1374	1360	1348	1333	1329	1330	1337	1344	1344	1341	1334	1326	1323	1319	1314	1311	1316	1326	1326	1328	1326	1327	1333	1338	1339	1338	1338	1328	1333	1330	1328	1325	1323	1314	1308	1304	1312	1327	1331	1326	1319	1319	1320	1318	1318	1319	1322	1321	1310	1305	1317	1325	1335	1342	1349	1350	1348	1341	1335	1329	1332	1328	1318	1319	1320	1321	1315	1317	1322	1331	1331	1326	1326	1324	1324	1322	1319	1325	1350	0	0	1334	1341	1318	1316	1312	1310	1307	1311	1317	1324	1338	1330	1332	1305	1295	1291	1297	1309	1311	1308	1315	1315	1308	1303	1303	1307	1317	1327	1334	1331	1327	1328	1330	1334	1306	1299	1302	1300	1299	1304	1307	1307	1306	1293	1297	1306	1306	1295	1300	1304	1308	1303	1298	1295	1291	1293	1289	1290	1293	1296	1294	1299	1305	1302	1294	1285	1277	1278	1280	1287	1289	1289	1293	1291	1288	1300	1305	1318	1313	1302	1294	1296	1304	1313	1311	1299	1287	1280	1277	1280	1286	1284	1271	1269	1264	1265	1266	1260	1267	1282	1293	1300	1307	1316	1319	1312	1303	1284	1282	1283	1281	1279	1277	1276	1276	1275	1275	1276	1281	1283	1278	1275	1277	1282	1276	1265	1259	1253	1247	1253	1269	1283	1282	1267	1258	1257	1250	1248	1253	1264	1259	1261	1264	1268	1271	1271	1265	1266	1267	1273	1281	1287	1286	1282	1273	1272	1274	1276	1279	1282	1275	1263	1252	1244	1242	1237	1241	1243	1250	1248	1241	1239	1246	1266	1329	0	0	0	0	0	0	1491	1486	1493	1501	0	0	0	0	0	0	0	0	0	0	0	0	0	0	0	0	0	1445	1421	1412	1385	1361	1326	1315	1344	1341	1334	1334	1329	1323	1319	1319	1324	1326	1326	1331	1337	1333	1330	1335	1342	0	0	0	0	0	0	0
0	0	1447	1455	1455	1448	1458	1465	1466	1462	1462	1458	1453	1437	1431	1430	1430	1434	1452	1473	1481	1492	1486	1471	1471	1463	1456	1464	1455	1455	1463	1459	1459	1451	1442	1433	1431	1428	1429	1425	1417	1427	1427	1437	1440	1435	1435	1438	1452	1471	1481	1481	1479	1473	1457	1457	1452	1451	1445	1440	1443	1446	1454	1461	1465	1482	1483	1476	1458	1455	1460	1451	1432	1421	1409	1433	1460	1480	1496	1496	1496	1480	1446	1440	1447	1455	1474	1480	1467	1461	1451	1450	1450	1467	1469	1464	1458	1464	1473	1468	1465	1468	1465	1461	1461	1459	1458	1451	1447	1458	1467	1474	1480	1473	1470	1470	1482	1482	1471	1455	1442	1438	1450	1459	1456	1458	1469	1481	1491	1486	1471	1443	1429	1428	1436	1448	1464	1475	1475	1455	1430	1416	1417	1432	1448	1469	1480	1484	1479	1471	1475	1468	1463	1454	1452	1449	1444	1435	1419	1381	1377	1387	1400	1414	1422	1413	1401	1396	1397	1406	1410	1405	1406	1416	1419	1414	1416	1408	1390	1389	1394	1388	1393	1387	1374	1366	1377	1393	1396	1408	1409	1410	1400	1404	1410	1414	1408	1390	1378	1375	1391	1429	1441	0	0	0	0	0	0	0	0	0	0	0	0	0	0	0	0	0	0	0	0	0	0	0	0	0	0	0	0	0	1681	1693	1700	1707	1700	1674	1657	1644	1628	0	0	0	0	0	0	0	1402	1384	1365	1373	1368	1361	1342	1335	1345	1358	1371	1375	1375	1363	1356	1358	1377	1375	1362	1361	1358	1363	1365	1374	1380	1381	1368	1358	1353	1350	1344	1343	1350	1369	1364	1347	1335	1340	1339	1341	1333	1345	1352	1358	1364	1362	1360	1353	1352	1351	1344	1335	1328	1330	1338	1350	1354	1365	1361	1359	1351	1343	1347	1351	1354	1360	1366	1372	1361	1349	1344	1337	1343	1349	1349	1354	1356	1362	1363	1356	1347	1338	1332	1330	1336	1339	1343	1338	1331	1328	1324	1320	1319	1319	1326	1331	1326	1320	1321	1327	1338	1338	1342	1336	1335	1334	1333	1329	1324	1319	1316	1318	1309	1308	1316	1330	1326	1320	1318	1322	1323	1322	1322	1327	1330	1329	1317	1311	1316	1325	1336	1345	1348	1348	1349	1339	1332	1334	1329	1321	1318	1318	1314	1308	1303	1307	1322	1340	1336	1329	1323	1322	1326	1329	1326	1323	1351	0	0	1333	1332	1315	1313	1317	1321	1327	1329	1324	1317	1313	1313	1314	1312	1316	1327	1327	1322	1314	1311	1316	1318	1308	1308	1306	1301	1307	1316	1326	1324	1313	1290	1298	1296	1295	1297	1299	1293	1292	1293	1292	1297	1304	1290	1295	1303	1304	1294	1293	1302	1312	1309	1302	1302	1299	1295	1286	1284	1277	1281	1285	1304	1312	1310	1301	1291	1285	1284	1289	1285	1285	1289	1296	1304	1300	1299	1302	1310	1304	1297	1288	1294	1302	1310	1306	1299	1288	1282	1283	1286	1282	1285	1279	1272	1265	1267	1259	1256	1270	1282	1292	1295	1297	1301	1313	1312	1310	1296	1283	1279	1278	1280	1279	1281	1282	1282	1280	1277	1282	1282	1281	1273	1277	1280	1265	1256	1257	1257	1253	1260	1272	1283	1279	1274	1263	1256	1255	1260	1263	1262	1263	1265	1264	1269	1276	1268	1266	1264	1268	1281	1288	1294	1291	1284	1272	1268	1272	1279	1285	1286	1286	1272	1265	1256	1243	1242	1238	1240	1242	1240	1239	1248	1264	1279	1328	0	0	0	0	0	0	1484	1489	1500	1506	1519	0	0	0	0	0	0	0	0	0	0	0	0	0	0	0	0	1425	1421	1411	1380	1359	1342	1331	1345	1333	1332	1330	1328	1321	1315	1319	1319	1323	1321	1323	1328	1332	1333	1337	1342	0	0	0	0	0	0	0
0	0	1457	1456	1456	1446	1447	1456	1459	1455	1455	1453	1446	1438	1436	1425	1425	1437	1454	1477	1483	1493	1481	1481	1467	1456	1451	1449	1441	1447	1458	1451	1451	1439	1431	1423	1425	1432	1430	1422	1423	1425	1425	1439	1453	1454	1464	1470	1484	1495	1492	1476	1470	1463	1456	1456	1450	1447	1450	1446	1450	1449	1453	1453	1455	1470	1481	1470	1459	1445	1449	1440	1432	1405	1413	1431	1462	1486	1486	1496	1501	1489	1464	1439	1436	1440	1465	1482	1480	1463	1436	1431	1447	1466	1467	1455	1455	1454	1453	1458	1456	1450	1452	1451	1452	1455	1454	1451	1454	1465	1471	1471	1471	1468	1468	1475	1479	1481	1474	1450	1445	1441	1454	1462	1456	1458	1468	1479	1500	1504	1484	1449	1444	1439	1443	1447	1465	1472	1475	1463	1437	1422	1418	1432	1445	1463	1480	1493	1490	1483	1482	1469	1460	1456	1456	1456	1446	1432	1419	1395	1402	1405	1409	1413	1414	1400	1386	1392	1400	1407	1408	1405	1403	1407	1401	1407	1413	1407	1392	1391	1403	1402	1389	1379	1368	1367	1378	1384	1390	1399	1404	1414	1415	1411	1420	1416	1407	1393	1379	1376	1402	1444	1442	0	0	0	0	0	0	0	0	0	0	0	0	0	0	0	0	0	0	0	0	0	0	0	0	0	0	0	0	0	1678	1682	1689	1688	1681	1667	1655	1642	1611	0	0	0	0	0	0	0	1417	1393	1365	1369	1366	1359	1343	1343	1351	1357	1367	1374	1377	1375	1381	1386	1391	1383	1365	1362	1360	1357	1361	1367	1383	1383	1372	1358	1351	1348	1343	1344	1364	1365	1358	1340	1335	1336	1347	1346	1337	1345	1356	1358	1360	1357	1358	1355	1356	1356	1343	1327	1326	1326	1337	1342	1346	1353	1356	1348	1338	1336	1340	1347	1353	1354	1350	1351	1350	1347	1347	1345	1348	1345	1343	1341	1340	1344	1343	1349	1353	1351	1338	1330	1331	1334	1337	1336	1333	1329	1332	1331	1332	1331	1333	1337	1328	1322	1324	1333	1345	1352	1351	1346	1345	1340	1339	1333	1325	1314	1313	1315	1316	1323	1340	1345	1339	1327	1325	1329	1326	1325	1320	1330	1341	1341	1325	1318	1319	1327	1330	1338	1348	1352	1350	1339	1329	1322	1316	1316	1315	1315	1310	1306	1313	1319	1333	1337	1329	1323	1321	1320	1329	1330	1327	1325	1346	1334	1331	1326	1326	1309	1307	1316	1326	1332	1339	1337	1327	1328	1325	1321	1317	1323	1333	1330	1325	1308	1306	1309	1318	1302	1299	1302	1298	1303	1304	1304	1283	1287	1296	1300	1298	1295	1297	1296	1295	1294	1295	1293	1297	1290	1289	1297	1303	1308	1302	1305	1317	1328	1324	1319	1312	1307	1311	1310	1308	1307	1316	1329	1341	1344	1347	1347	1338	1325	1317	1309	1302	1298	1299	1311	1312	1303	1294	1286	1287	1292	1293	1296	1295	1294	1289	1283	1285	1292	1290	1295	1296	1294	1288	1287	1291	1285	1276	1266	1274	1280	1288	1291	1290	1284	1287	1289	1294	1289	1274	1270	1271	1266	1268	1268	1271	1277	1276	1278	1280	1280	1284	1285	1274	1282	1274	1247	1245	1260	1276	1288	1286	1274	1266	1263	1267	1270	1277	1276	1273	1267	1260	1254	1254	1258	1263	1272	1278	1280	1276	1271	1275	1276	1278	1283	1278	1268	1263	1260	1266	1264	1268	1270	1274	1285	1288	1290	1280	1265	1244	1240	1245	1249	1256	1271	1289	1352	0	0	0	0	0	0	1477	1492	1494	1507	1502	1507	0	0	0	0	0	0	0	0	0	0	0	0	0	0	0	1392	1404	1399	1369	1353	1340	1338	1341	1327	1329	1327	1322	1316	1312	1316	1316	1320	1320	1323	1329	1329	1332	1336	1340	0	0	0	0	0	0	0
