0	0	0	1411	1410	1410	1417	1417	1410	1389	1384	1392	1399	1399	1399	1386	1396	1413	1423	1414	1414	1395	1370	1378	1383	1394	1409	1414	1414	1413	1403	1397	1398	1401	1404	1408	1401	1397	1397	1387	1386	1397	1403	1400	1394	1382	1381	1372	1374	1386	1386	1397	1400	1402	1401	1387	1387	1402	1436	1453	1442	1423	1412	1414	1428	1440	1444	1430	1419	1420	1420	1438	1441	1428	1407	1399	1405	1409	1411	1409	1413	1429	1435	1435	1428	1421	1417	1413	1409	1413	1422	1443	1453	1457	1463	1467	1471	1472	1459	1436	1406	1383	1365	1370	1394	1406	1412	1401	1394	1393	1398	1393	1379	1381	1390	1400	1405	1401	1394	1390	1390	1391	1385	1377	1380	1386	1380	1366	1351	1341	1336	1371	1381	1384	1378	1366	1363	1355	1354	1361	1369	1371	1364	1365	1373	1387	1403	1400	1416	1410	1395	0	0	0	0	0	0	0	0	0	0	0	0	0	0	0	0	0	0	0	0	0	0	0	0	0	0	0	0	0	0	0	1643	1643	1637	1628	1630	1650	1652	1664	1671	1666	0	0	0	1373	1354	1378	1388	1376	1377	1377	1374	1370	1362	1369	1371	1368	1365	1366	1369	1372	1374	1370	1366	1355	1351	1361	1372	1381	1372	1365	1366	1368	1367	1366	1362	1362	1363	1359	1362	1362	1353	1344	1340	1347	1362	1371	1374	1369	1372	1371	1355	1351	1358	1366	1374	1354	1346	1350	1359	1364	1362	1358	1356	1350	1342	1334	1329	1335	1344	1362	1366	1375	1381	1382	1385	1382	1376	1373	1367	1368	1377	1379	1381	1385	1391	1396	1397	1397	1390	1383	1372	1368	1361	1361	1358	1361	1363	1371	1372	1367	1361	1350	1339	1339	1351	1354	1345	1343	1340	1341	1343	1337	1335	1335	1336	1339	1344	1351	1352	1351	1354	1372	1385	1388	1376	1363	1372	1375	1370	1367	1366	1366	1358	1356	1359	1363	1363	1354	1347	1348	1358	1366	1372	1370	1370	1370	1365	1355	1348	1344	1346	1352	1357	1361	1368	1371	1374	1370	1362	1353	1356	1379	1397	1391	1376	1376	1366	1359	1364	1365	1363	1360	1353	1350	1358	1365	1362	1360	1364	1362	1357	1351	1348	1341	1331	1327	1338	1347	1366	1380	1384	1385	1366	1352	1353	1357	1354	1344	1333	1332	1334	1338	1344	1347	1342	1338	1338	1341	1339	1331	1331	1353	1367	1373	1372	1371	1359	1351	1337	1339	1342	1334	1338	1337	1335	1333	1337	1343	1354	1362	1363	1362	1363	1360	1363	1367	1369	1361	1357	1348	1342	1344	1368	1372	1362	1358	1352	1349	1349	1359	1362	1356	1357	1364	1359	1346	1338	1336	1345	1361	1359	1358	1354	1373	1361	1354	1343	1337	1336	1343	1343	1337	1327	1323	1315	1324	1344	1359	1361	1360	1339	1328	1331	1341	1355	1368	1361	1350	1350	1349	1357	1360	1363	1362	1369	1365	1361	1358	1360	1361	1356	1354	1358	1362	1365	1368	1369	1366	1360	1350	1350	1356	1362	1368	1372	1371	1365	1359	1367	1374	1372	1362	1354	1351	1434	0	0	0	0	0	0	0	0	0	0	0	0	0	0	0	0	0	0	0	0	0	0	0	0	0	0	0	1474	1490	1494	1490	1437	1414	1396	1409	1412	1407	1402	1407	1413	1423	1421	1421	1428	1421	1422	1429	1427	1422	1417	1416	1420	1423	1429	1427	1428	1431	1436	1442	1440	1433	1427	1433	1437	1440	0	0	0	0	1464	1459	1462	1466	1469	1470	1469	1469	1453	1433	1407	1402	1412	1425	1430	1423	1415	1409	1398	1372	1364	1366	1389	1385	1385	1392	1377	1377	1370	1364	1366	1366	1374	1375	1390	1389	1388	1382	1371	1367	1371	1374	1374	1373	1364	1359	1353	0	0	0	0	0	0	0
0	0	0	1407	1401	1394	1385	1385	1388	1379	1387	1394	1402	1402	1401	1397	1393	1413	1423	1419	1419	1388	1367	1356	1366	1375	1389	1393	1393	1395	1389	1387	1392	1400	1407	1409	1407	1394	1394	1385	1380	1386	1397	1393	1385	1377	1370	1366	1361	1375	1375	1392	1401	1405	1411	1410	1397	1400	1423	1439	1438	1430	1417	1413	1429	1445	1438	1426	1417	1407	1407	1425	1431	1429	1416	1395	1400	1404	1400	1400	1406	1415	1423	1426	1426	1421	1417	1417	1413	1413	1423	1433	1444	1450	1465	1478	1477	1468	1450	1428	1404	1383	1377	1386	1393	1406	1411	1409	1404	1404	1409	1404	1388	1383	1385	1397	1402	1396	1388	1387	1392	1395	1394	1383	1382	1388	1387	1382	1362	1349	1345	1378	1391	1393	1390	1382	1376	1366	1360	1363	1364	1363	1362	1359	1367	1378	1394	1396	1395	1398	1407	0	0	0	0	0	0	0	0	0	0	0	0	0	0	0	0	0	0	0	0	0	0	0	0	0	0	0	0	0	0	0	1650	1639	1634	1625	1612	1622	1624	1635	1657	0	0	0	0	1381	1361	1366	1379	1375	1376	1381	1381	1373	1367	1376	1378	1379	1373	1374	1375	1378	1379	1377	1370	1362	1364	1375	1381	1388	1378	1364	1369	1372	1371	1370	1364	1356	1357	1355	1359	1361	1357	1346	1340	1347	1359	1367	1373	1367	1365	1365	1361	1361	1366	1371	1373	1372	1347	1356	1361	1361	1359	1358	1360	1357	1350	1345	1340	1349	1352	1361	1370	1375	1377	1384	1394	1390	1380	1371	1363	1360	1372	1385	1390	1389	1390	1400	1396	1392	1392	1386	1387	1380	1374	1372	1370	1371	1371	1375	1371	1373	1368	1367	1354	1348	1345	1342	1341	1334	1346	1342	1351	1347	1342	1345	1346	1348	1350	1354	1356	1353	1359	1374	1392	1392	1380	1385	1379	1376	1367	1362	1361	1365	1373	1369	1365	1369	1368	1361	1351	1349	1354	1364	1375	1381	1381	1378	1364	1362	1357	1353	1351	1360	1363	1369	1381	1393	1394	1388	1375	1360	1352	1372	1370	1375	1348	1362	1359	1363	1368	1367	1363	1355	1352	1356	1363	1359	1347	1337	1339	1361	1383	1386	1383	1371	1354	1344	1347	1350	1366	1383	1386	1391	1373	1357	1346	1349	1359	1362	1359	1356	1362	1372	1377	1361	1346	1351	1363	1377	1389	1401	1396	1397	1402	1401	1397	1389	1373	1366	1361	1364	1361	1362	1369	1376	1368	1362	1364	1392	1412	1408	1391	1369	1362	1368	1368	1368	1371	1366	1360	1352	1348	1354	1377	1375	1370	1365	1369	1371	1375	1389	1389	1385	1380	1375	1369	1346	1337	1336	1347	1362	1372	1377	1376	1366	1362	1366	1380	1379	1365	1356	1348	1354	1357	1365	1371	1368	1370	1369	1369	1366	1356	1350	1353	1359	1377	1379	1375	1365	1363	1363	1371	1377	1372	1368	1368	1371	1372	1363	1368	1368	1366	1378	1380	1382	1382	1375	1376	1372	1366	1349	1357	1365	1376	1385	1385	1385	1376	1377	1380	1395	1390	1373	1359	1357	1407	1470	0	0	0	0	0	0	0	0	0	0	0	0	0	0	0	0	0	0	0	0	0	0	0	0	0	0	1469	1472	1483	1482	1438	1422	1408	1413	1411	1410	1405	1406	1414	1422	1430	1434	1430	1421	1423	1428	1429	1427	1413	1406	1401	1412	1427	1429	1428	1427	1428	1434	1438	1426	1421	1438	1458	1464	0	0	0	1463	1432	1451	1463	1482	1476	1477	1467	1459	1438	1418	1410	1416	1427	1436	1439	1433	1423	1412	1408	1410	1390	1368	1374	1385	1387	1383	1381	1381	1373	1370	1373	1376	1379	1374	1380	1390	1395	1400	1403	1416	1412	1396	1396	1381	1369	1362	1362	0	0	0	0	0	0	0
0	0	0	1394	1387	1371	1363	1363	1367	1376	1379	1392	1394	1394	1394	1393	1390	1401	1411	1413	1413	1396	1389	1369	1352	1351	1357	1363	1363	1370	1378	1378	1389	1397	1402	1409	1417	1425	1425	1418	1401	1381	1385	1379	1381	1378	1379	1388	1372	1371	1371	1384	1400	1418	1423	1421	1391	1390	1395	1405	1419	1414	1415	1416	1426	1442	1437	1421	1404	1404	1404	1411	1422	1423	1422	1428	1408	1395	1392	1400	1405	1406	1415	1418	1421	1416	1413	1411	1409	1416	1420	1424	1445	1474	1489	1484	1469	1459	1445	1426	1402	1391	1402	1408	1408	1406	1399	1409	1410	1413	1408	1409	1401	1390	1384	1391	1400	1395	1390	1386	1392	1399	1398	1393	1393	1399	1409	1408	1396	1382	1377	1401	1407	1402	1402	1399	1401	1400	1395	1381	1374	1367	1379	1383	1378	1384	1376	1387	1387	1397	1425	0	0	0	0	0	0	0	0	0	0	0	0	0	0	0	0	0	0	0	0	0	0	0	0	0	0	0	0	0	0	0	0	1635	1627	1611	1599	1580	1590	1606	0	0	0	0	0	1394	1367	1365	1369	1381	1382	1386	1383	1375	1369	1378	1379	1379	1377	1380	1382	1384	1392	1393	1384	1375	1375	1380	1386	1389	1385	1367	1374	1381	1388	1382	1368	1362	1360	1364	1367	1382	1380	1368	1364	1366	1371	1377	1378	1378	1373	1367	1386	1386	1377	1366	1372	1375	1385	1381	1369	1360	1353	1350	1358	1364	1368	1367	1361	1364	1366	1371	1377	1382	1379	1379	1381	1388	1387	1383	1377	1370	1376	1378	1370	1373	1379	1388	1402	1399	1398	1394	1389	1387	1389	1395	1409	1413	1403	1390	1379	1378	1386	1385	1376	1356	1343	1330	1331	1345	1372	1377	1369	1369	1363	1367	1373	1367	1371	1364	1362	1356	1362	1381	1395	1399	1395	1384	1380	1372	1365	1363	1370	1376	1378	1381	1372	1379	1375	1369	1364	1351	1354	1367	1381	1388	1391	1380	1369	1369	1372	1362	1363	1365	1370	1380	1393	1412	1410	1403	1388	1377	1363	1358	1364	1351	1342	1360	1363	1370	1373	1371	1364	1355	1354	1361	1362	1352	1338	1333	1338	1368	1386	1390	1390	1378	1356	1350	1350	1356	1367	1377	1381	1387	1381	1363	1351	1355	1362	1365	1357	1355	1359	1367	1372	1361	1349	1359	1374	1390	1402	1405	1404	1400	1405	1405	1401	1394	1381	1369	1363	1374	1378	1387	1393	1391	1382	1373	1374	1394	1415	1412	1392	1367	1363	1372	1375	1370	1373	1374	1368	1368	1362	1376	1383	1378	1371	1369	1370	1374	1383	1389	1397	1394	1389	1377	1366	1351	1343	1343	1347	1356	1369	1384	1376	1358	1359	1370	1385	1393	1381	1364	1352	1357	1367	1380	1388	1384	1382	1377	1379	1375	1370	1372	1371	1378	1386	1389	1384	1379	1376	1382	1388	1394	1383	1372	1372	1378	1373	1374	1375	1369	1375	1393	1396	1388	1384	1382	1379	1379	1367	1356	1363	1369	1382	1392	1396	1398	1390	1387	1396	1402	1398	1385	1369	1360	1396	1429	1453	1463	1455	1432	0	0	0	0	0	0	0	0	0	0	0	0	0	0	0	0	0	0	0	0	0	0	1459	1453	1458	1460	1446	1425	1413	1413	1409	1411	1414	1414	1417	1420	1424	1425	1426	1424	1423	1434	1444	1439	1413	1404	1408	1431	1451	1456	1448	1428	1420	1416	1409	1416	1429	1431	1457	1473	1480	0	1442	1425	1424	1415	1414	1434	1438	1446	1455	1465	1462	1443	1428	1427	1428	1432	1429	1427	1426	1416	1416	1415	1412	1391	1384	1377	1385	1379	1373	1373	1370	1379	1388	1391	1378	1366	1369	1386	1401	1413	1426	1427	1419	1396	1396	1387	1382	1378	1381	0	0	0	0	0	0	0
0	0	0	1380	1371	1354	1348	1348	1357	1363	1374	1386	1388	1388	1394	1385	1380	1381	1385	1380	1380	1382	1375	1373	1367	1351	1343	1337	1337	1339	1351	1371	1407	1417	1410	1401	1405	1408	1408	1409	1403	1393	1393	1381	1372	1363	1370	1377	1387	1409	1409	1416	1420	1422	1426	1410	1392	1372	1369	1376	1390	1405	1407	1405	1416	1429	1442	1449	1423	1410	1410	1410	1415	1424	1430	1423	1405	1384	1384	1397	1405	1408	1409	1418	1420	1413	1413	1415	1415	1424	1420	1415	1412	1417	1426	1425	1419	1409	1408	1408	1422	1430	1435	1422	1422	1418	1411	1403	1410	1409	1409	1402	1388	1371	1373	1381	1383	1382	1376	1389	1400	1403	1392	1383	1387	1401	1400	1398	1399	1388	1384	1415	1424	1407	1390	1371	1372	1371	1373	1376	1374	1373	1395	1446	1462	1445	1424	1394	1400	1426	1438	0	0	0	0	0	0	0	0	0	0	0	0	0	0	0	0	0	0	0	0	0	0	0	0	0	0	0	0	0	0	0	1611	1625	1632	1625	1609	1601	1611	0	0	0	0	0	1435	1399	1382	1379	1384	1395	1401	1396	1392	1383	1381	1377	1377	1373	1375	1379	1384	1394	1400	1400	1394	1392	1381	1377	1381	1385	1387	1381	1388	1397	1408	1400	1387	1377	1376	1381	1394	1396	1397	1388	1372	1378	1385	1388	1386	1382	1377	1370	1396	1393	1390	1378	1379	1382	1387	1385	1376	1367	1353	1357	1363	1366	1369	1370	1367	1372	1373	1381	1384	1382	1379	1381	1382	1390	1398	1392	1386	1384	1384	1369	1364	1367	1377	1397	1411	1411	1402	1390	1392	1388	1389	1397	1406	1411	1406	1393	1384	1388	1393	1394	1382	1359	1339	1330	1328	1351	1373	1397	1393	1386	1380	1381	1386	1388	1383	1374	1367	1362	1367	1384	1393	1397	1390	1382	1375	1372	1377	1368	1372	1384	1386	1388	1385	1385	1390	1370	1374	1366	1362	1363	1410	1416	1430	1427	1422	1406	1386	1379	1372	1372	1381	1393	1411	1426	1422	1420	1415	1413	1407	1397	1393	1380	1378	1374	1376	1379	1389	1391	1388	1385	1381	1377	1378	1382	1383	1390	1398	1413	1422	1426	1427	1431	1426	1419	1413	1404	1385	1388	1388	1391	1402	1409	1397	1391	1381	1381	1381	1387	1386	1380	1376	1373	1376	1389	1401	1411	1406	1397	1388	1386	1388	1393	1392	1390	1383	1380	1370	1373	1375	1378	1393	1392	1400	1396	1393	1400	1405	1402	1378	1377	1395	1405	1406	1407	1410	1419	1431	1433	1429	1423	1390	1371	1366	1370	1380	1386	1390	1398	1407	1406	1399	1395	1389	1386	1374	1369	1369	1370	1377	1383	1374	1358	1364	1375	1389	1402	1405	1394	1378	1361	1363	1376	1392	1393	1381	1380	1381	1389	1388	1387	1393	1400	1409	1401	1398	1402	1403	1403	1407	1411	1410	1396	1379	1381	1381	1391	1393	1397	1397	1401	1394	1384	1378	1377	1378	1379	1380	1380	1381	1393	1395	1417	1402	1392	1378	1375	1390	1402	1399	1393	1374	1360	1375	1392	1409	1449	1449	1426	1407	0	0	0	0	0	0	0	0	0	0	0	0	0	0	0	0	0	0	0	0	0	1478	1451	1438	1445	1428	1425	1416	1413	1414	1412	1406	1400	1396	1410	1425	1432	1434	1437	1433	1425	1418	1403	1381	1364	1360	1382	1436	1454	1465	1464	1439	1431	1422	1428	1427	1414	1446	1480	1479	1465	1438	1420	1418	1407	1409	1426	1438	1446	1447	1450	1445	1441	1438	1443	1443	1434	1424	1421	1419	1414	1418	1421	1411	1396	1378	1375	1380	1381	1385	1385	1391	1396	1395	1385	1368	1357	1368	1387	1406	1416	1425	1422	1410	1400	1400	1393	1389	1392	1394	0	0	0	0	0	0	0
0	0	0	1370	1362	1358	1357	1357	1358	1368	1374	1380	1392	1392	1394	1385	1380	1379	1377	1376	1376	1372	1377	1382	1380	1369	1344	1336	1336	1335	1349	1381	1406	1423	1413	1384	1380	1376	1376	1379	1382	1385	1384	1380	1364	1360	1360	1366	1372	1376	1376	1394	1417	1429	1427	1405	1389	1364	1355	1358	1378	1386	1393	1405	1420	1428	1440	1446	1437	1422	1422	1407	1400	1410	1417	1413	1398	1391	1381	1388	1400	1404	1399	1405	1413	1420	1424	1421	1425	1418	1407	1401	1396	1399	1402	1402	1397	1400	1400	1407	1421	1428	1434	1420	1419	1423	1419	1408	1409	1404	1404	1398	1377	1353	1351	1366	1378	1382	1380	1389	1396	1396	1380	1376	1383	1393	1405	1391	1400	1397	1389	1409	1416	1402	1376	1366	1367	1374	1388	1400	1396	1394	1433	1460	1478	1460	1441	1426	1423	1426	1444	0	0	0	0	0	0	0	0	0	0	0	0	0	0	0	0	0	0	0	0	0	0	0	0	0	0	1571	1563	1559	1560	1577	1602	1614	1625	1627	1620	1627	1648	1679	0	0	0	1494	1415	1398	1398	1395	1401	1407	1408	1401	1398	1394	1393	1384	1382	1380	1380	1379	1387	1395	1406	1407	1401	1396	1388	1382	1383	1390	1394	1392	1401	1411	1417	1414	1398	1392	1398	1399	1403	1406	1407	1398	1395	1399	1400	1401	1395	1390	1384	1380	1398	1407	1399	1385	1384	1386	1385	1374	1367	1370	1370	1368	1365	1365	1365	1364	1374	1382	1383	1389	1392	1389	1390	1396	1406	1410	1402	1395	1386	1378	1369	1366	1378	1390	1397	1401	1398	1387	1376	1366	1368	1384	1392	1394	1384	1373	1364	1381	1393	1392	1386	1375	1367	1357	1358	1359	1369	1383	1390	1396	1396	1404	1410	1412	1407	1399	1388	1383	1383	1382	1385	1386	1389	1387	1384	1382	1384	1397	1401	1397	1395	1390	1385	1380	1388	1390	1386	1387	1380	1379	1375	1378	1389	1389	1389	1397	1400	1401	1378	1359	1358	1364	1386	1393	1395	1396	1408	1426	1434	1417	1409	1402	1390	1385	1380	1378	1374	1371	1375	1385	1383	1379	1375	1375	1381	1385	1392	1397	1389	1387	1395	1405	1395	1416	1433	1430	1412	1386	1376	1380	1397	1395	1386	1389	1389	1393	1394	1392	1391	1387	1390	1384	1375	1376	1381	1390	1401	1406	1405	1400	1394	1383	1383	1379	1382	1385	1386	1381	1367	1363	1366	1375	1383	1398	1398	1395	1390	1390	1390	1387	1374	1378	1393	1403	1399	1391	1382	1383	1391	1398	1406	1408	1391	1374	1368	1380	1386	1389	1386	1397	1401	1398	1390	1387	1388	1383	1379	1370	1367	1371	1375	1383	1380	1364	1364	1373	1382	1394	1402	1395	1383	1370	1365	1371	1384	1386	1372	1365	1365	1375	1382	1388	1406	1418	1421	1409	1406	1401	1399	1384	1381	1389	1395	1390	1378	1387	1397	1403	1404	1407	1401	1407	1399	1392	1390	1394	1392	1390	1394	1395	1388	1393	1408	1416	1412	1393	1372	1367	1375	1390	1393	1391	1376	1363	1375	1385	1403	1416	1439	1419	1399	0	0	0	0	0	0	0	0	0	0	0	0	0	0	0	0	0	0	0	0	0	0	1476	1454	1439	1431	1436	1422	1417	1418	1408	1378	1372	1390	1406	1418	1424	1417	1409	1411	1407	1392	1387	1384	1386	1392	1404	1414	1415	1423	1425	1430	1430	1420	1414	1409	1420	1436	1472	1490	1487	1460	1429	1419	1415	1417	1417	1419	1420	1428	1432	1430	1425	1420	1423	1427	1425	1415	1401	1405	1404	1410	1412	1403	1396	1376	1364	1366	1384	1393	1393	1395	1390	1364	1358	1360	1365	1370	1383	1392	1401	1402	1404	1398	1395	1395	1397	1394	1391	1377	0	0	0	0	0	0	0
0	0	0	1348	1355	1350	1354	1354	1367	1372	1374	1382	1389	1389	1405	1403	1396	1384	1374	1367	1367	1368	1379	1397	1388	1371	1347	1344	1344	1353	1369	1389	1408	1419	1407	1381	1358	1353	1353	1354	1366	1372	1374	1370	1364	1360	1360	1361	1366	1376	1376	1386	1410	1421	1410	1392	1372	1347	1341	1349	1361	1374	1383	1395	1417	1425	1435	1432	1428	1412	1412	1394	1384	1393	1395	1401	1397	1387	1380	1392	1398	1397	1392	1399	1416	1426	1432	1430	1419	1408	1394	1390	1383	1381	1380	1372	1384	1396	1405	1400	1406	1421	1425	1427	1426	1425	1428	1410	1410	1412	1411	1396	1372	1349	1345	1365	1376	1384	1379	1387	1394	1374	1354	1358	1365	1365	1365	1371	1377	1379	1380	1391	1403	1400	1382	1373	1379	1389	1397	1418	1413	1418	1445	1478	1485	1466	1439	1426	1427	1414	1431	1447	1461	1483	1523	1546	1551	1537	1531	1530	1530	1541	1568	1587	1581	1580	1560	1538	1536	1553	1567	1579	1572	1567	1576	1584	1605	1598	1598	1607	1616	1617	1618	1615	1611	1609	1617	1632	1667	1698	0	0	1610	1442	1418	1416	1419	1416	1412	1410	1406	1412	1425	1416	1412	1409	1405	1400	1402	1394	1394	1407	1413	1415	1418	1419	1414	1401	1400	1410	1406	1404	1404	1403	1400	1416	1418	1420	1417	1409	1409	1404	1398	1398	1397	1403	1415	1414	1404	1388	1383	1389	1412	1418	1416	1409	1405	1402	1393	1384	1371	1381	1382	1383	1378	1373	1374	1373	1383	1384	1387	1388	1392	1386	1382	1379	1381	1388	1397	1394	1386	1372	1370	1380	1382	1389	1391	1395	1399	1403	1405	1388	1374	1377	1385	1381	1374	1376	1383	1387	1380	1383	1385	1376	1371	1374	1381	1391	1395	1400	1406	1404	1399	1405	1410	1406	1399	1393	1386	1383	1385	1387	1392	1396	1400	1398	1400	1400	1406	1408	1409	1398	1402	1403	1398	1392	1389	1386	1387	1389	1389	1383	1383	1381	1386	1383	1386	1400	1406	1401	1372	1384	1364	1372	1375	1396	1395	1400	1425	1434	1418	1403	1389	1385	1377	1373	1379	1377	1378	1377	1386	1386	1384	1381	1379	1378	1376	1386	1407	1379	1387	1383	1392	1393	1392	1387	1410	1408	1383	1380	1387	1385	1402	1401	1389	1384	1381	1384	1383	1378	1373	1373	1379	1387	1383	1379	1381	1389	1396	1405	1405	1394	1386	1384	1387	1388	1383	1386	1382	1372	1365	1362	1367	1381	1394	1400	1400	1385	1378	1381	1379	1377	1375	1379	1386	1400	1393	1382	1378	1378	1382	1382	1375	1373	1388	1380	1381	1382	1385	1388	1383	1390	1389	1386	1382	1381	1381	1380	1370	1365	1363	1368	1375	1386	1389	1376	1368	1374	1381	1391	1393	1393	1386	1372	1369	1370	1381	1380	1379	1375	1367	1372	1377	1386	1400	1415	1415	1409	1406	1396	1388	1386	1386	1389	1390	1383	1376	1389	1403	1409	1409	1408	1409	1406	1403	1400	1400	1407	1413	1410	1409	1406	1396	1395	1405	1415	1413	1395	1375	1370	1375	1390	1395	1395	1389	1380	1369	1376	1391	1405	1425	1414	1387	0	0	0	0	0	0	0	0	0	0	0	0	0	0	0	0	0	0	0	0	0	0	0	1458	1427	1428	1438	1439	1422	1420	1390	1363	1371	1392	1406	1418	1409	1400	1398	1403	1400	1400	1399	1403	1402	1403	1425	1428	1423	1421	1417	1413	1436	1439	1444	1429	1433	1432	1473	1507	1502	1481	1448	1433	1419	1419	1411	1408	1408	1418	1421	1421	1416	1412	1409	1409	1406	1396	1395	1396	1398	1396	1405	1404	1398	1381	1368	1365	1380	1390	1390	1386	1374	1362	1352	1359	1363	1372	1371	1370	1376	1382	1384	1388	1393	1393	1395	1391	1383	1369	0	0	0	0	0	0	0
0	0	0	1353	1357	1359	1368	1368	1371	1376	1388	1384	1401	1401	1413	1423	1407	1388	1367	1366	1366	1371	1388	1406	1399	1372	1357	1360	1360	1363	1380	1392	1402	1410	1404	1370	1349	1345	1345	1363	1365	1368	1366	1374	1381	1380	1374	1375	1374	1371	1371	1377	1391	1392	1375	1368	1368	1372	1370	1370	1370	1376	1376	1372	1376	1386	1388	1392	1396	1392	1392	1380	1370	1369	1380	1385	1389	1382	1376	1391	1391	1392	1383	1391	1411	1429	1440	1436	1406	1387	1379	1376	1370	1364	1358	1351	1369	1393	1410	1417	1414	1416	1418	1422	1417	1404	1392	1392	1409	1415	1416	1397	1376	1362	1352	1351	1360	1382	1385	1374	1344	1346	1346	1350	1353	1343	1344	1354	1377	1392	1387	1390	1414	1422	1398	1386	1391	1401	1414	1433	1436	1438	1457	1472	1479	1466	1445	1432	1428	1424	1423	1435	1465	1495	1531	1552	1557	1549	1536	1531	1532	1536	1551	1566	1569	1565	1552	1537	1538	1549	1557	1568	1564	1568	1575	1591	1613	1607	1610	1614	1631	1631	1627	1616	1607	1605	1621	1644	1670	1706	1693	1657	1590	1454	1429	1430	1415	1409	1408	1413	1431	1435	1431	1425	1421	1425	1415	1402	1394	1397	1402	1414	1417	1415	1416	1414	1413	1415	1407	1412	1417	1410	1393	1387	1386	1393	1398	1404	1404	1400	1399	1399	1399	1398	1402	1408	1408	1404	1397	1387	1380	1381	1403	1417	1423	1419	1417	1410	1393	1383	1380	1383	1390	1387	1385	1378	1384	1387	1391	1392	1393	1394	1388	1378	1371	1370	1378	1392	1398	1401	1390	1375	1371	1375	1376	1379	1383	1391	1401	1412	1405	1392	1377	1380	1382	1378	1376	1386	1387	1387	1385	1384	1388	1387	1392	1387	1389	1395	1406	1416	1408	1404	1405	1406	1408	1400	1400	1400	1399	1397	1388	1380	1380	1391	1399	1402	1400	1400	1402	1405	1404	1400	1398	1406	1403	1398	1381	1380	1386	1388	1389	1384	1382	1375	1380	1389	1389	1405	1410	1414	1396	1376	1373	1373	1390	1396	1402	1410	1412	1427	1437	1413	1375	1376	1381	1384	1395	1394	1403	1404	1399	1390	1385	1385	1385	1387	1370	1358	1386	1388	1390	1376	1393	1395	1386	1386	1401	1411	1382	1382	1378	1404	1413	1411	1396	1383	1372	1373	1380	1378	1367	1370	1374	1379	1382	1383	1382	1387	1397	1401	1402	1391	1382	1383	1391	1392	1388	1382	1376	1366	1359	1367	1373	1391	1402	1402	1390	1383	1375	1372	1374	1378	1380	1380	1388	1389	1387	1379	1376	1376	1378	1375	1369	1368	1390	1390	1391	1393	1386	1386	1383	1384	1382	1380	1373	1375	1376	1374	1364	1361	1364	1370	1389	1396	1398	1385	1383	1385	1382	1385	1379	1384	1387	1380	1376	1374	1381	1386	1386	1384	1381	1377	1381	1391	1402	1407	1412	1414	1404	1396	1391	1393	1397	1393	1390	1379	1377	1397	1407	1419	1416	1418	1410	1405	1402	1401	1406	1416	1422	1421	1418	1414	1402	1396	1399	1402	1403	1396	1386	1377	1381	1390	1391	1395	1393	1383	1366	1369	1376	1398	1409	1403	1399	0	0	0	0	0	0	0	0	0	0	0	0	0	0	0	0	0	0	0	0	0	0	0	1460	1438	1429	1434	1441	1433	1422	1405	1370	1376	1396	1407	1408	1399	1390	1393	1402	1411	1415	1424	1423	1418	1416	1419	1422	1422	1415	1408	1413	1442	1451	1456	1445	1440	1450	1478	1510	1518	1510	1476	1446	1432	1423	1414	1403	1400	1412	1423	1422	1419	1411	1406	1408	1394	1389	1392	1394	1392	1394	1404	1411	1406	1389	1377	1380	1388	1395	1395	1388	1377	1368	1368	1378	1377	1374	1367	1359	1364	1369	1377	1382	1389	1389	1392	1386	1379	1369	0	0	0	0	0	0	0
0	0	0	1369	1377	1388	1389	1389	1392	1389	1390	1392	1404	1404	1420	1430	1415	1399	1380	1369	1369	1370	1376	1377	1369	1365	1366	1378	1378	1386	1391	1391	1390	1395	1402	1392	1384	1383	1383	1387	1394	1393	1387	1387	1389	1389	1394	1393	1387	1379	1379	1362	1359	1356	1369	1377	1390	1388	1387	1377	1371	1369	1377	1381	1388	1390	1391	1395	1396	1392	1392	1379	1368	1368	1379	1389	1394	1397	1395	1396	1395	1385	1381	1379	1382	1393	1397	1402	1400	1393	1386	1389	1381	1364	1353	1349	1358	1380	1404	1413	1412	1404	1403	1405	1404	1392	1384	1381	1402	1415	1407	1390	1378	1363	1352	1344	1347	1357	1367	1372	1358	1349	1350	1363	1359	1352	1351	1360	1376	1387	1390	1392	1418	1437	1410	1397	1396	1400	1420	1444	1453	1454	1452	1467	1473	1468	1457	1439	1435	1427	1431	1432	1471	1507	1539	1558	1566	1554	1544	1529	1534	1523	1534	1541	1554	1553	1542	1538	1548	1553	1562	1565	1575	1591	1611	1620	1628	1631	1624	1613	1613	1623	1639	1631	1621	1623	1647	1668	1679	1712	1687	1644	1561	1461	1439	1426	1419	1419	1421	1427	1435	1438	1437	1435	1433	1430	1417	1404	1394	1393	1400	1405	1411	1410	1407	1405	1403	1409	1406	1413	1413	1412	1387	1387	1385	1391	1398	1404	1401	1396	1397	1404	1405	1408	1411	1406	1401	1399	1396	1390	1381	1376	1391	1408	1424	1428	1420	1407	1393	1379	1380	1383	1388	1385	1384	1384	1389	1391	1391	1397	1398	1398	1390	1378	1369	1375	1383	1400	1412	1411	1398	1382	1373	1371	1368	1373	1383	1392	1403	1406	1403	1391	1383	1385	1387	1382	1381	1384	1386	1390	1387	1387	1390	1395	1397	1392	1391	1393	1401	1409	1407	1403	1402	1407	1407	1403	1397	1399	1398	1399	1388	1373	1379	1390	1398	1399	1397	1399	1404	1406	1408	1408	1409	1415	1409	1401	1382	1374	1377	1383	1391	1386	1385	1370	1382	1400	1404	1408	1415	1416	1401	1386	1371	1373	1384	1384	1371	1376	1395	1394	1395	1386	1381	1384	1385	1387	1387	1384	1389	1390	1399	1408	1411	1402	1393	1390	1365	1379	1387	1390	1385	1390	1397	1396	1384	1386	1397	1398	1387	1386	1398	1404	1414	1411	1393	1386	1379	1371	1383	1386	1381	1381	1380	1383	1382	1385	1391	1394	1398	1397	1395	1384	1381	1379	1382	1389	1388	1384	1374	1363	1361	1363	1380	1399	1408	1410	1399	1389	1382	1382	1384	1386	1383	1382	1380	1385	1382	1383	1382	1380	1377	1375	1369	1370	1408	1409	1400	1394	1393	1393	1391	1390	1389	1380	1370	1371	1374	1376	1367	1361	1365	1377	1396	1403	1405	1396	1391	1384	1389	1383	1377	1377	1384	1385	1383	1384	1386	1392	1393	1390	1384	1377	1382	1389	1403	1413	1419	1415	1405	1397	1396	1403	1404	1393	1384	1380	1376	1399	1412	1422	1421	1412	1408	1400	1397	1398	1406	1419	1426	1425	1424	1414	1405	1400	1399	1396	1396	1400	1395	1387	1383	1385	1387	1391	1392	1388	1366	1366	1372	1397	1407	1409	1417	0	0	0	0	0	0	0	0	0	0	0	1685	1668	1664	1650	0	0	0	0	0	0	0	1513	1474	1455	1447	1439	1427	1433	1431	1419	1390	1397	1395	1396	1402	1389	1385	1393	1400	1423	1427	1441	1436	1414	1404	1412	1417	1418	1416	1408	1416	1450	1463	1462	1453	1436	1445	1469	1504	1512	1516	1493	1454	1428	1421	1414	1404	1402	1412	1424	1428	1423	1411	1404	1406	1396	1390	1390	1392	1395	1397	1398	1406	1407	1399	1391	1388	1394	1394	1394	1383	1387	1382	1385	1396	1395	1381	1369	1363	1373	1383	1383	1381	1382	1382	1381	1375	1378	1379	0	0	0	0	0	0	0
0	0	0	1382	1396	1411	1415	1415	1410	1384	1367	1369	1387	1387	1404	1421	1408	1415	1399	1384	1384	1371	1371	1380	1376	1373	1370	1382	1382	1391	1388	1391	1396	1397	1401	1398	1386	1381	1381	1384	1389	1378	1367	1363	1365	1371	1382	1394	1396	1386	1386	1371	1361	1367	1375	1386	1394	1394	1391	1384	1378	1379	1388	1390	1389	1395	1391	1392	1388	1378	1378	1365	1362	1368	1388	1399	1409	1406	1407	1399	1396	1391	1385	1379	1375	1373	1379	1386	1386	1383	1387	1392	1395	1379	1362	1354	1359	1375	1393	1403	1403	1396	1395	1392	1383	1382	1374	1382	1392	1399	1394	1394	1395	1383	1365	1356	1359	1369	1384	1376	1361	1358	1366	1376	1372	1354	1366	1362	1374	1383	1393	1396	1422	1442	1419	1405	1392	1395	1407	1439	1458	1455	1444	1448	1457	1462	1469	1447	1439	1446	1449	1453	1487	1521	1549	1569	1584	1577	1565	1551	1536	1515	1518	1525	1542	1573	1598	1584	1595	1606	1618	1629	1637	0	0	1632	1636	1639	1640	1614	1605	1615	1625	1636	1643	1663	1676	1726	1729	1723	1689	1648	1593	1465	1434	1429	1436	1437	1438	1436	1432	1436	1441	1444	1445	1432	1422	1405	1399	1399	1402	1407	1407	1404	1401	1402	1400	1406	1410	1406	1410	1409	1394	1390	1396	1403	1410	1408	1405	1400	1398	1407	1414	1418	1417	1403	1396	1390	1395	1391	1381	1375	1385	1400	1416	1422	1416	1400	1393	1385	1382	1390	1396	1396	1394	1395	1396	1395	1394	1396	1402	1405	1395	1379	1379	1388	1402	1415	1412	1417	1406	1383	1374	1370	1373	1376	1384	1392	1398	1400	1396	1390	1391	1393	1402	1407	1392	1385	1387	1387	1385	1383	1388	1397	1401	1396	1390	1383	1395	1398	1400	1396	1400	1405	1410	1408	1394	1393	1391	1396	1384	1371	1370	1385	1394	1399	1398	1402	1404	1408	1410	1412	1417	1415	1414	1404	1387	1374	1366	1369	1380	1386	1382	1373	1379	1405	1407	1409	1415	1408	1402	1394	1374	1373	1385	1377	1366	1362	1384	1390	1384	1371	1371	1377	1373	1374	1374	1383	1379	1378	1378	1382	1407	1396	1392	1387	1381	1370	1380	1386	1395	1392	1393	1398	1384	1382	1374	1382	1377	1384	1389	1396	1407	1400	1394	1386	1383	1380	1386	1394	1395	1392	1383	1382	1385	1388	1399	1401	1400	1389	1384	1379	1380	1370	1378	1385	1392	1387	1379	1369	1359	1363	1382	1402	1414	1413	1400	1391	1386	1391	1396	1397	1391	1384	1380	1380	1385	1388	1391	1387	1379	1377	1371	1380	1420	1422	1417	1408	1404	1401	1409	1412	1408	1395	1379	1376	1378	1384	1381	1375	1379	1380	1394	1398	1403	1399	1388	1390	1389	1383	1378	1378	1380	1385	1384	1385	1391	1398	1399	1398	1384	1384	1379	1383	1395	1402	1409	1411	1405	1396	1398	1401	1398	1390	1380	1380	1379	1398	1408	1415	1411	1406	1400	1391	1392	1398	1412	1414	1421	1429	1426	1415	1410	1406	1402	1395	1393	1406	1406	1396	1387	1384	1384	1385	1385	1390	1377	1373	1389	1405	1416	1426	1456	0	0	0	0	0	0	0	0	0	0	1680	1673	1669	1659	1652	1644	1646	0	0	0	0	0	1499	1486	1473	1462	1452	1415	1427	1432	1428	1405	1396	1388	1394	1388	1382	1385	1394	1400	1417	1423	1442	1443	1419	1412	1407	1415	1410	1411	1417	1440	1459	1466	1462	1446	1439	1432	1461	1473	1487	1501	1471	1441	1420	1421	1423	1408	1411	1420	1427	1430	1423	1408	1395	1394	1388	1393	1397	1400	1396	1394	1394	1401	1405	1398	1400	1398	1395	1393	1393	1379	1383	1395	1395	1403	1398	1388	1381	1380	1390	1393	1392	1382	1373	1373	1371	1370	1375	1385	0	0	0	0	0	0	0
0	0	0	1393	1415	1434	1438	1438	1417	1360	1343	1347	1368	1368	1401	1415	1416	1427	1404	1379	1379	1372	1379	1381	1384	1377	1366	1366	1366	1375	1389	1388	1397	1399	1400	1395	1381	1381	1381	1384	1384	1375	1360	1349	1349	1357	1368	1388	1401	1401	1401	1390	1377	1381	1388	1395	1403	1395	1385	1379	1378	1383	1392	1390	1390	1383	1381	1380	1372	1357	1357	1350	1352	1361	1388	1403	1411	1412	1408	1408	1408	1401	1390	1381	1366	1358	1359	1366	1368	1372	1382	1397	1396	1389	1377	1365	1362	1366	1388	1397	1398	1394	1390	1389	1385	1374	1372	1377	1381	1388	1390	1398	1400	1395	1380	1368	1369	1377	1385	1381	1371	1369	1372	1381	1385	1377	1378	1378	1368	1380	1389	1400	1405	1423	1424	1413	1407	1394	1413	1427	1443	1439	1429	1421	1435	1444	1465	1453	1455	1464	1469	1482	1509	0	0	0	1568	1574	1559	1545	1535	1523	1524	1528	1546	1589	1597	1589	1600	1595	1619	1649	0	0	0	1632	1625	1639	1635	1605	1592	1601	1624	1653	1679	1700	2028	1718	1689	1714	1685	1645	1590	1460	1423	1429	1440	1443	1438	1433	1426	1429	1430	1440	1444	1427	1418	1411	1404	1403	1410	1410	1411	1406	1402	1396	1396	1404	1405	1410	1410	1414	1401	1403	1403	1409	1415	1413	1410	1406	1404	1413	1416	1420	1413	1396	1382	1383	1390	1394	1388	1378	1381	1394	1405	1410	1406	1394	1389	1395	1395	1391	1407	1421	1422	1419	1406	1399	1398	1399	1403	1403	1394	1381	1379	1389	1403	1406	1411	1409	1401	1384	1371	1371	1371	1382	1385	1391	1398	1403	1396	1388	1388	1400	1411	1418	1418	1399	1386	1383	1377	1384	1383	1390	1390	1390	1386	1379	1377	1382	1381	1390	1405	1409	1420	1412	1398	1384	1388	1390	1385	1376	1375	1380	1388	1391	1395	1397	1402	1405	1410	1413	1414	1411	1405	1397	1392	1368	1364	1363	1375	1379	1380	1378	1388	1400	1405	1407	1405	1401	1397	1394	1395	1375	1379	1379	1362	1370	1380	1385	1392	1377	1371	1370	1367	1367	1374	1370	1366	1369	1372	1392	1403	1405	1390	1390	1384	1379	1380	1393	1405	1393	1389	1398	1372	1370	1369	1370	1375	1380	1379	1380	1394	1401	1394	1390	1389	1386	1389	1393	1394	1396	1386	1384	1382	1389	1396	1404	1397	1392	1384	1381	1383	1373	1384	1407	1414	1413	1387	1371	1368	1374	1393	1410	1415	1411	1400	1392	1388	1395	1406	1407	1397	1389	1388	1389	1396	1394	1386	1375	1371	1371	1369	1375	1407	1414	1416	1409	1407	1413	1420	1421	1407	1397	1385	1373	1372	1382	1392	1384	1383	1383	1384	1389	1389	1393	1388	1387	1386	1386	1382	1383	1383	1382	1382	1386	1393	1393	1399	1397	1396	1389	1382	1387	1396	1395	1405	1399	1391	1388	1390	1398	1394	1389	1385	1378	1378	1395	1405	1413	1406	1397	1394	1389	1389	1398	1408	1421	1424	1425	1428	1415	1411	1406	1399	1394	1404	1409	1411	1402	1392	1385	1382	1383	1385	1389	1390	1403	1408	1424	1439	1459	1485	0	0	0	0	0	0	0	0	0	1675	1669	1663	1667	1668	1651	1641	1627	1632	0	0	0	0	1511	1485	1476	1475	1465	1434	1416	1427	1434	1419	1397	1390	1392	1388	1382	1381	1392	1395	1400	1410	1429	1440	1447	1448	1431	1427	1412	1411	1429	1457	1468	1466	1451	1442	1433	1429	1443	1450	1467	1453	1433	1428	1421	1422	1430	1428	1425	1432	1430	1427	1420	1404	1394	1386	1384	1394	1401	1403	1398	1392	1401	1401	1399	1400	1398	1397	1392	1378	1378	1378	1384	1398	1397	1402	1402	1400	1398	1401	1397	1396	1393	1380	1373	1373	1371	1377	1381	1386	0	0	0	0	0	0	0
0	0	0	1404	1427	1447	1451	1451	1431	1377	1329	1335	1362	1362	1392	1416	1429	1419	1398	1377	1377	1376	1383	1386	1382	1368	1362	1368	1368	1378	1384	1387	1396	1397	1395	1392	1383	1378	1378	1380	1385	1376	1362	1346	1339	1345	1360	1380	1396	1398	1398	1388	1375	1381	1394	1405	1410	1406	1396	1385	1377	1379	1384	1382	1377	1373	1364	1364	1348	1343	1343	1344	1348	1364	1381	1397	1408	1407	1409	1413	1408	1408	1395	1380	1357	1346	1346	1351	1353	1367	1378	1389	1396	1396	1383	1370	1361	1361	1386	1393	1395	1394	1392	1391	1381	1372	1367	1374	1380	1382	1389	1398	1404	1401	1388	1380	1379	1384	1386	1389	1385	1380	1384	1385	1393	1388	1383	1381	1366	1370	1379	1405	1404	1402	1422	1411	1416	1420	1418	1422	1426	1419	1404	1401	1408	1431	1459	1475	1476	1481	1489	1492	1506	0	0	0	1556	1551	1557	1551	1557	1554	1564	1563	1570	1584	1591	1584	1589	1591	1620	0	0	0	0	1636	1619	1630	1627	1604	1590	1603	1627	1665	1705	1734	1728	1694	1695	1698	1665	1625	1591	1456	1416	1421	1430	1433	1428	1419	1417	1417	1420	1435	1439	1431	1423	1416	1412	1413	1418	1413	1409	1409	1406	1400	1393	1398	1394	1414	1416	1423	1408	1406	1407	1416	1421	1423	1414	1414	1413	1417	1419	1423	1420	1398	1383	1378	1388	1403	1401	1397	1383	1386	1394	1395	1390	1389	1385	1390	1389	1397	1409	1420	1425	1417	1405	1406	1403	1401	1400	1399	1388	1375	1368	1376	1389	1405	1414	1407	1403	1387	1375	1375	1379	1379	1377	1382	1394	1401	1404	1391	1392	1402	1418	1427	1427	1417	1400	1392	1381	1381	1383	1381	1384	1385	1388	1387	1379	1374	1380	1391	1405	1416	1417	1411	1399	1388	1385	1386	1376	1376	1369	1370	1386	1393	1396	1388	1388	1399	1403	1409	1406	1398	1389	1384	1387	1376	1359	1358	1371	1379	1379	1379	1387	1394	1400	1393	1399	1398	1397	1394	1393	1396	1372	1372	1384	1379	1386	1378	1379	1375	1379	1382	1399	1374	1378	1369	1374	1372	1378	1394	1369	1392	1386	1389	1382	1384	1385	1404	1406	1406	1386	1388	1367	1368	1374	1380	1359	1359	1369	1378	1398	1408	1408	1407	1404	1396	1394	1390	1394	1387	1385	1382	1384	1385	1391	1397	1394	1396	1392	1397	1398	1387	1394	1397	1394	1396	1392	1379	1375	1383	1395	1407	1415	1412	1406	1396	1394	1402	1411	1415	1408	1392	1386	1388	1386	1381	1378	1371	1364	1360	1358	1361	1386	1397	1401	1392	1398	1412	1421	1419	1415	1396	1377	1366	1360	1368	1369	1374	1389	1391	1384	1375	1377	1385	1382	1390	1388	1389	1389	1389	1389	1386	1384	1387	1388	1391	1397	1400	1402	1386	1385	1392	1400	1407	1410	1408	1384	1383	1388	1393	1394	1386	1386	1382	1380	1392	1400	1402	1400	1394	1393	1390	1389	1398	1404	1414	1419	1411	1417	1414	1414	1405	1399	1391	1397	1405	1406	1406	1397	1383	1377	1377	1379	1388	1412	1410	1414	1429	1449	1464	1486	0	0	0	0	0	0	0	0	0	1682	1671	1677	1676	1677	1663	1651	1631	1629	1628	0	0	0	1525	1489	1478	1474	1468	1444	1411	1423	1429	1425	1425	1421	1420	1417	1415	1413	1385	1376	1391	1412	1438	1446	1448	1442	1435	1427	1433	1443	1450	1457	1456	1461	1461	1453	1435	1430	1441	1443	1437	1430	1427	1433	1429	1430	1441	1444	1445	1441	1437	1428	1415	1405	1395	1385	1386	1396	1406	1404	1401	1403	1408	1408	1403	1392	1395	1396	1389	1382	1382	1386	1395	1400	1404	1400	1405	1415	1413	1406	1394	1389	1385	1385	1383	1383	1383	1383	1390	1383	0	0	0	0	0	0	0
0	0	0	1397	1416	1437	1437	1437	1410	1372	1334	1333	1352	1352	1381	1398	1406	1389	1380	1374	1374	1381	1379	1381	1370	1368	1370	1374	1375	1375	1383	1391	1396	1394	1388	1386	1375	1367	1367	1377	1386	1395	1382	1356	1341	1336	1348	1366	1377	1380	1380	1373	1368	1372	1385	1408	1411	1413	1403	1387	1377	1380	1377	1365	1361	1366	1357	1348	1339	1343	1343	1348	1353	1369	1380	1382	1388	1389	1400	1407	1409	1407	1400	1375	1354	1343	1347	1354	1355	1364	1373	1384	1392	1397	1392	1377	1368	1376	1386	1388	1378	1382	1383	1374	1366	1368	1375	1375	1371	1378	1386	1395	1398	1399	1394	1391	1389	1387	1388	1395	1402	1403	1388	1389	1390	1391	1378	1371	1359	1363	1377	1408	1399	1398	1408	1414	1412	1427	1428	1419	1419	1412	1405	1409	1411	1426	1460	1483	1498	1500	1495	1487	1496	1515	0	0	1541	1537	1553	1561	1572	1583	1612	1607	1597	1595	1592	1585	1590	1602	1624	1649	0	0	0	1629	1622	1622	1620	1612	1607	1619	1648	1680	1716	1731	1725	1699	1697	1695	1652	1602	1568	1444	1418	1414	1409	1415	1413	1405	1402	1402	1416	1425	1435	1431	1430	1424	1422	1417	1415	1416	1410	1405	1401	1394	1390	1384	1389	1406	1418	1417	1407	1403	1406	1417	1427	1427	1425	1420	1417	1415	1417	1420	1420	1410	1394	1382	1383	1396	1401	1409	1397	1386	1383	1377	1377	1382	1384	1382	1375	1383	1404	1412	1421	1410	1407	1402	1401	1400	1398	1399	1396	1381	1371	1371	1383	1399	1411	1415	1405	1400	1391	1387	1386	1378	1372	1376	1385	1398	1402	1396	1396	1404	1422	1436	1428	1416	1403	1389	1382	1383	1384	1383	1382	1389	1391	1394	1395	1390	1382	1391	1401	1407	1411	1407	1397	1391	1389	1392	1391	1390	1380	1375	1376	1385	1386	1373	1378	1390	1407	1408	1399	1385	1377	1380	1384	1382	1372	1357	1364	1378	1374	1379	1395	1387	1397	1397	1405	1398	1401	1399	1397	1393	1374	1369	1383	1386	1374	1377	1378	1378	1381	1381	1398	1392	1381	1368	1373	1376	1367	1369	1399	1384	1379	1378	1383	1385	1388	1390	1398	1398	1387	1384	1364	1379	1401	1395	1382	1364	1366	1382	1397	1411	1418	1417	1415	1411	1411	1401	1395	1379	1376	1382	1385	1388	1382	1388	1399	1402	1411	1404	1390	1384	1392	1385	1379	1369	1366	1370	1375	1388	1399	1401	1402	1402	1400	1398	1402	1409	1410	1405	1404	1394	1375	1368	1363	1375	1377	1374	1367	1356	1340	1347	1386	1397	1394	1395	1398	1396	1401	1424	1427	1412	1381	1365	1351	1338	1341	1369	1400	1425	1434	1410	1387	1390	1392	1386	1386	1386	1397	1404	1403	1393	1387	1391	1397	1399	1391	1391	1397	1397	1401	1411	1414	1420	1426	1431	1411	1389	1390	1389	1391	1390	1387	1384	1386	1388	1394	1398	1399	1401	1401	1394	1387	1388	1391	1399	1409	1413	1414	1410	1409	1406	1396	1392	1388	1393	1396	1397	1389	1381	1379	1379	1375	1382	1401	1408	1412	1417	1434	1458	1487	0	0	0	0	0	0	0	0	0	1671	1679	1690	1688	1689	1683	1663	1638	1629	1631	1632	1629	1608	1527	1490	1472	1477	1475	1439	1417	1434	1427	1427	1432	1438	1445	1438	1424	1416	1412	1411	1415	1428	1441	1463	1463	1455	1434	1418	1416	1421	1415	1413	1428	1439	1456	1455	1444	1441	1452	1444	1433	1434	1447	1455	1447	1439	1444	1445	1447	1444	1437	1425	1413	1405	1394	1387	1394	1408	1410	1405	1400	1404	1410	1413	1410	1405	1396	1395	1389	1391	1391	1392	1404	1415	1411	1410	1412	1418	1412	1397	1382	1374	1380	1390	1389	1389	1389	1395	1393	1381	0	0	0	0	0	0	0
0	0	0	1408	1413	1410	1409	1409	1397	1369	1347	1341	1351	1351	1371	1377	1378	1379	1378	1376	1376	1382	1376	1372	1372	1376	1381	1389	1386	1386	1386	1395	1398	1387	1384	1376	1367	1366	1366	1382	1396	1404	1395	1382	1351	1336	1341	1350	1362	1367	1367	1358	1352	1357	1377	1391	1402	1405	1402	1389	1379	1374	1372	1361	1361	1366	1358	1341	1339	1347	1347	1350	1358	1358	1358	1359	1349	1356	1368	1381	1383	1391	1398	1386	1372	1364	1359	1369	1369	1369	1368	1372	1385	1395	1399	1384	1377	1383	1390	1389	1374	1376	1374	1370	1359	1368	1380	1384	1375	1379	1381	1385	1385	1391	1396	1391	1390	1387	1387	1390	1398	1404	1391	1379	1370	1381	1371	1367	1353	1366	1376	1409	1415	1417	1420	1428	1438	1432	1415	1407	1426	1440	1448	1450	1440	1439	1451	1466	1523	1527	1502	1483	1481	1497	0	0	0	0	0	0	0	1617	1641	1642	1625	1615	1605	1609	1614	1624	1644	1653	1660	0	1645	1637	1643	1633	1630	1630	1629	1646	1667	1690	1699	1711	1707	1685	1687	1687	1637	1595	1560	1451	1422	1408	1405	1406	1407	1401	1405	1398	1408	1422	1433	1432	1432	1429	1426	1421	1418	1412	1407	1404	1404	1402	1400	1385	1389	1402	1414	1421	1409	1403	1408	1418	1424	1423	1424	1420	1418	1413	1413	1414	1421	1413	1402	1385	1382	1394	1401	1410	1401	1391	1383	1383	1381	1389	1390	1387	1380	1387	1395	1410	1410	1399	1395	1400	1399	1401	1402	1409	1407	1406	1405	1399	1406	1413	1421	1396	1391	1388	1400	1394	1387	1375	1370	1375	1389	1402	1414	1412	1404	1397	1397	1396	1393	1391	1392	1391	1389	1387	1391	1391	1390	1391	1388	1394	1399	1401	1401	1402	1404	1399	1395	1392	1389	1392	1403	1406	1416	1418	1412	1396	1372	1366	1370	1372	1380	1392	1399	1397	1383	1358	1349	1358	1377	1390	1391	1382	1359	1355	1359	1379	1393	1395	1398	1405	1407	1407	1406	1401	1401	1396	1376	1381	1363	1369	1384	1375	1387	1386	1384	1384	1380	1377	1373	1373	1370	1359	1372	1385	1382	1382	1371	1373	1372	1387	1383	1382	1387	1380	1383	1381	1370	1393	1411	1405	1386	1387	1387	1386	1385	1392	1410	1417	1413	1417	1407	1395	1401	1403	1405	1393	1384	1385	1404	1428	1443	1440	1419	1409	1413	1415	1407	1401	1399	1408	1410	1404	1402	1400	1409	1407	1390	1372	1355	1350	1353	1374	1380	1384	1386	1386	1363	1335	1336	1348	1369	1376	1378	1371	1347	1340	1376	1391	1390	1377	1361	1342	1337	1359	1390	1406	1387	1374	1384	1372	1403	1451	1514	1544	1555	1559	1550	1531	1481	1439	1424	1425	1434	1427	1408	1393	1383	1387	1410	1423	1415	1399	1401	1424	1433	1439	1432	1446	1450	1446	1432	1410	1394	1390	1390	1390	1385	1385	1378	1383	1389	1393	1398	1401	1403	1397	1377	1363	1376	1391	1402	1405	1403	1397	1400	1402	1394	1393	1388	1384	1385	1384	1384	1385	1388	1389	1383	1381	1393	1396	1402	1406	1421	1447	1480	0	0	0	0	0	0	0	0	0	1632	1660	1688	1970	1986	1690	1680	1650	1635	1634	1626	1613	1594	1542	1497	1488	1483	1474	1465	1424	1422	1417	1416	1418	1430	1442	1440	1436	1427	1418	1420	1423	1425	1423	1421	1421	1430	1436	1453	1454	1442	1434	1430	1432	1442	1456	1467	1450	1432	1451	1460	1460	1456	1459	1450	1436	1436	1431	1427	1418	1425	1427	1424	1412	1401	1400	1396	1409	1424	1423	1414	1404	1406	1416	1425	1423	1416	1405	1392	1392	1398	1398	1407	1418	1424	1424	1418	1414	1416	1405	1386	1373	1370	1381	1392	1391	1391	1393	1396	1403	1391	0	0	0	0	0	0	0
0	0	0	1412	1402	1398	1379	1379	1373	1368	1379	1388	1383	1383	1368	1361	1359	1373	1391	1399	1398	1398	1381	1368	1368	1383	1389	1394	1400	1400	1393	1398	1399	1397	1391	1380	1369	1377	1377	1390	1407	1410	1406	1390	1372	1351	1341	1341	1347	1349	1349	1345	1343	1352	1367	1375	1385	1393	1390	1381	1372	1377	1391	1406	1419	1412	1411	1404	1390	1371	1371	1354	1348	1356	1360	1364	1361	1372	1383	1383	1390	1397	1405	1408	1407	1397	1378	1371	1371	1367	1364	1366	1374	1390	1395	1386	1385	1391	1401	1393	1386	1383	1386	1375	1364	1365	1380	1388	1383	1381	1379	1371	1367	1379	1392	1392	1389	1386	1384	1380	1386	1397	1387	1375	1363	1368	1364	1364	1364	1371	1379	1413	1415	1412	1413	1426	1449	1440	1417	1412	1424	1446	1461	1456	1461	1452	1456	1470	1514	1520	1502	1478	1473	0	0	0	0	0	0	1628	1634	1642	1671	1679	1669	1658	1631	1643	1637	1638	1650	1670	1655	1656	1653	1675	1668	1661	1640	1638	1646	1651	1659	1665	1679	1677	1670	1665	1669	1684	1630	1591	1569	1459	1425	1404	1402	1406	1416	1416	1414	1408	1411	1420	1421	1426	1422	1428	1423	1419	1415	1409	1406	1405	1408	1405	1399	1397	1400	1402	1411	1419	1411	1411	1414	1414	1418	1420	1424	1423	1410	1398	1398	1406	1427	1425	1417	1397	1393	1399	1407	1403	1386	1389	1400	1413	1434	1452	1463	1448	1443	1460	1475	1493	1499	1517	1523	1534	1544	1521	1462	1435	1424	1431	1499	1521	1510	1490	1478	1462	1438	1427	1417	1411	1370	1356	1358	1366	1381	1407	1430	1430	1423	1403	1393	1381	1371	1364	1363	1374	1385	1389	1376	1356	1331	1311	1306	1320	1342	1368	1382	1389	1383	1369	1368	1374	1387	1394	1395	1399	1402	1402	1391	1374	1354	1351	1371	1390	1383	1355	1348	1339	1327	1322	1320	1341	1369	1406	1407	1395	1380	1382	1392	1400	1410	1399	1399	1411	1408	1410	1408	1405	1401	1398	1381	1371	1357	1361	1370	1385	1392	1392	1379	1376	1373	1386	1386	1388	1379	1371	1374	1364	1380	1368	1370	1367	1376	1384	1375	1372	1375	1376	1375	1379	1382	1408	1413	1394	1394	1411	1437	1431	1421	1411	1406	1419	0	0	0	0	0	0	0	0	0	0	0	0	0	0	0	0	0	0	0	0	0	0	0	0	0	0	0	0	0	0	0	0	0	0	0	0	0	0	0	0	0	0	0	0	0	0	0	0	0	0	0	0	0	0	0	0	0	0	0	0	1587	1588	1611	1616	1637	1627	1624	1607	1604	1605	1641	1646	1654	1658	1649	0	0	0	0	0	0	0	0	0	0	1515	1497	1449	1435	1434	1441	1444	1431	1423	1404	1392	1392	1394	1389	1388	1379	1375	1378	1387	1396	1403	1400	1392	1383	1374	1378	1382	1397	1396	1388	1380	1393	1397	1393	1389	1388	1389	1385	1383	1386	1397	1414	1425	1413	1403	1404	1396	1392	1392	1404	1428	1459	0	0	0	0	0	0	0	0	0	1637	1662	1683	1690	1770	1685	1680	1664	1650	1641	1622	1604	1582	1535	1502	1489	1482	1470	1491	1426	1423	1421	1420	1428	1438	1445	1445	1434	1421	1418	1414	1414	1419	1421	1419	1418	1426	1429	1452	1461	1448	1438	1429	1429	1432	1437	1447	1442	1419	1449	1461	1460	1460	1450	1427	1425	1428	1430	1421	1412	1415	1423	1425	1414	1402	1395	1419	1436	1435	1436	1429	1421	1417	1428	1442	1445	1427	1407	1397	1395	1405	1405	1419	1428	1432	1433	1426	1415	1410	1406	1391	1373	1366	1376	1391	1396	1396	1393	1400	1407	1404	0	0	0	0	0	0	0
0	0	0	1415	1408	1401	1395	1395	1394	1397	1396	1396	1394	1394	1377	1362	1369	1382	1400	1420	1417	1417	1399	1379	1369	1373	1385	1394	1397	1397	1396	1394	1393	1389	1395	1391	1379	1390	1390	1403	1408	1405	1393	1378	1368	1375	1380	1384	1380	1378	1378	0	0	1386	1387	1385	1390	1391	1391	1375	1376	1392	1408	1419	1439	1447	1441	1439	1421	1383	1383	1383	1386	1418	1434	1433	1430	1429	1422	1415	1418	1421	1446	1444	1429	1419	1405	1393	1383	1379	1374	1368	1379	1385	1389	1390	1387	1402	1407	1404	1394	1394	1396	1385	1368	1371	1374	1385	1380	1376	1369	1361	1360	1360	1375	1380	1379	1378	1379	1378	1382	1389	1382	1371	1367	1370	1360	1361	1370	1387	1387	1400	1403	1406	1404	1420	1435	1442	1431	1422	1423	1447	1460	1465	1476	1475	1484	1490	1497	1505	1492	1479	1470	0	0	0	0	0	1667	1660	1649	1652	1664	1671	1666	1678	1707	1757	1706	1695	1681	1678	1680	1687	1695	1698	1688	1673	1661	1651	1649	1653	1645	1645	1647	1650	1649	1650	1657	1676	1638	1602	1588	1475	1424	1406	1405	1413	1427	1437	1442	1428	1424	1418	1417	1418	1421	1423	1421	1414	1410	1407	1403	1405	1406	1404	1399	1392	1395	1402	1409	1416	1416	1418	1421	1421	1417	1412	1415	1415	1401	1387	1386	1398	1427	1431	1429	1417	1410	1397	1397	1388	1417	1439	1457	1477	1490	1502	0	0	1572	1597	1616	1607	1619	1631	1629	1633	1638	1636	1656	1662	1656	1632	1613	1591	1582	1593	0	0	0	0	0	0	0	0	0	0	0	0	0	0	0	0	0	0	0	0	0	0	0	0	0	0	0	0	0	0	0	0	0	0	0	0	0	0	0	0	0	0	0	0	0	0	0	0	0	0	0	0	0	0	0	0	0	0	0	0	1380	1382	1387	1411	1407	1408	1410	1415	1410	1404	1410	1408	1410	1410	1410	1402	1378	1368	1363	1359	1368	1387	1388	1379	1378	1385	1384	1386	1382	1378	1375	1380	1384	1380	1385	1374	1377	1370	1369	1376	1374	1370	1372	1375	1375	1380	1401	1416	1413	1397	1407	1429	1432	1422	1401	1417	1422	0	0	0	0	0	0	0	0	0	0	0	0	0	0	0	0	0	0	0	0	0	0	0	0	0	0	0	0	0	0	0	0	0	0	0	0	0	0	0	0	0	0	0	0	0	0	0	0	0	0	0	0	0	0	0	0	0	0	0	0	0	1629	1644	1661	1665	1676	1686	1672	1655	1641	1655	1672	1681	1682	1679	1669	0	0	0	0	0	0	0	0	0	0	0	1511	1487	1449	1411	1417	1422	1427	1428	1413	1400	1386	1387	1385	1391	1381	1375	1377	1383	1392	1399	1403	1403	1391	1388	1393	1392	1400	1388	1374	1379	1393	1395	1389	1385	1396	1404	1396	1392	1398	1415	1434	1432	1421	1416	1411	1399	1390	1385	1400	1417	1449	1475	0	0	0	0	0	0	0	0	1633	1658	1669	1679	1686	1685	1681	1680	1665	1651	1615	1587	1546	1510	1485	1474	1468	1477	1486	1422	1430	1434	1435	1438	1441	1443	1445	1434	1413	1404	1402	1402	1407	1415	1428	1428	1425	1436	1445	1450	1442	1433	1423	1424	1425	1426	1434	1432	1423	1449	1454	1458	1460	1448	1415	1414	1414	1422	1419	1408	1406	1413	1415	1409	1401	1412	1424	1425	1427	1433	1432	1427	1423	1428	1438	1440	1431	1416	1405	1405	1406	1406	1414	1426	1436	1428	1416	1404	1414	1411	1396	1375	1369	1372	1390	1394	1394	1397	1402	1410	1412	0	0	0	0	0	0	0
0	0	0	1411	1406	1405	1412	1412	1411	1412	1402	1399	1394	1394	1382	1375	1367	1384	1411	1434	1436	1436	1418	1396	1384	1383	1388	1397	1402	1402	1402	1392	1386	1388	1398	1402	1404	1396	1396	1396	1406	1398	0	0	1315	0	0	0	0	0	0	0	0	0	0	0	0	1449	1436	1418	1413	1417	1425	1442	1456	1464	1467	1475	0	1508	1531	1531	0	0	0	0	1515	1504	1516	1533	0	0	0	1534	1528	1505	1433	1405	1402	1390	1384	1380	1373	1370	1368	1380	1388	1397	1409	1410	1405	1395	1393	1396	1381	1375	1374	1379	1377	1372	1358	1350	1351	1351	1360	1368	1374	1375	1382	1379	1384	1391	1382	1375	1374	1374	1360	1361	1368	1388	1388	1389	1390	1407	1407	1418	1431	1444	1447	1436	1441	1455	1467	1474	1482	1499	1505	1509	1489	1494	1486	1466	1464	0	0	0	0	1669	1678	1652	1643	1652	1665	1664	1662	1668	1701	2007	1785	1711	1690	1688	1690	1695	1704	1705	1678	1673	1665	1663	1664	1663	1661	1661	1662	1647	1654	1653	1655	1662	1644	1622	1594	1480	1428	1412	1412	1424	1433	1447	1448	1441	1426	1418	1415	1424	1427	1420	1414	1405	1406	1402	1406	1407	1408	1410	1406	1399	1394	1396	1403	1409	1415	1412	1421	1422	1416	1411	1409	1410	1394	1388	1388	1398	1416	1429	1436	1427	1415	1399	1388	1392	1435	1444	0	0	0	0	0	0	0	1629	1651	1665	1668	1672	1671	1666	1664	1668	1689	1691	1687	1666	1656	1631	1615	0	0	0	0	0	0	0	0	0	0	0	0	0	0	0	0	0	0	0	0	0	0	0	0	0	0	0	0	0	0	0	0	0	0	0	0	0	0	0	0	0	0	0	0	0	0	0	0	0	0	0	0	0	0	0	0	0	0	0	0	0	0	1379	1407	1415	1418	1409	1413	1419	1404	1400	1414	1416	1417	1417	1406	1393	1376	1379	1368	1382	1386	1386	1386	1381	1386	1385	1386	1366	1341	1341	1352	1369	1390	1387	1391	1386	1383	1374	1372	1371	1377	1369	1373	1377	1380	1383	1409	1406	1404	1396	1410	1422	1422	1405	1416	1426	0	0	0	0	0	0	0	0	0	0	0	0	0	0	0	0	0	0	0	0	0	0	0	0	0	0	0	0	0	0	0	0	0	0	0	0	0	0	0	0	0	0	0	0	0	0	0	0	0	0	0	0	0	0	0	0	0	0	0	0	0	0	1663	1687	1695	1707	1712	1715	1708	1688	1678	1672	1685	1696	1702	1710	1692	1667	0	0	0	0	0	0	0	0	0	0	1481	1486	1457	1415	1407	1410	1429	1432	1418	1381	1362	1363	1367	1390	1383	1377	1379	1384	1397	1404	1407	1407	1410	1416	1419	1424	1420	1409	1395	1388	1401	1407	1399	1398	1397	1401	1398	1395	1401	1416	1430	1431	1419	1403	1401	1394	1384	1384	1391	1397	1427	1464	0	0	0	0	0	0	0	0	1646	1661	1664	1674	1681	1679	1680	1669	1661	1650	1611	1566	1512	1483	1465	1468	1467	1476	1481	1417	1427	1435	1438	1436	1442	1435	1431	1422	1408	1401	1392	1396	1411	1430	1441	1437	1427	1430	1426	1431	1427	1424	1421	1420	1420	1423	1429	1434	1441	1447	1448	1457	1454	1458	1426	1414	1424	1430	1417	1411	1406	1409	1409	1406	1403	1413	1415	1420	1421	1428	1422	1420	1418	1422	1428	1429	1418	1405	1398	1405	1401	1401	1410	1426	1428	1428	1420	1412	1418	1422	1413	1404	1378	1392	1396	1396	1394	1402	1407	1413	1415	0	0	0	0	0	0	0
0	0	0	1391	1397	1411	1403	1403	1420	1421	1414	1403	1405	1397	1397	1394	1396	1404	1426	1449	1444	1444	1441	1422	1403	1396	1410	1418	1415	1415	1415	1409	1405	1406	1421	1436	1440	1422	1422	1402	0	0	0	0	0	0	0	0	0	0	0	0	0	0	0	0	0	0	1494	1480	1451	1448	1451	1458	1483	1499	1507	1513	0	1547	1570	1570	1584	0	0	0	1557	1543	1547	1551	1559	0	0	0	0	0	0	1436	1414	1407	1388	1377	1375	1375	1373	1373	1379	1387	1396	1400	1407	1404	1402	1393	1388	1379	1373	1377	1377	1366	1351	1345	1344	1346	1359	1368	1379	1383	1387	1385	1387	1388	1382	1368	1372	1377	1361	1357	1368	1384	1388	1385	1410	1410	1409	1419	1429	1445	1456	1454	1458	1455	1462	1479	1483	1506	1512	1512	1497	1498	1483	1464	1458	0	0	0	0	1676	1672	1640	1634	1641	1655	1655	1656	1665	1693	1792	1792	1709	1693	1688	1687	1692	1700	1705	1678	1663	1664	1656	1670	1671	1662	1665	1669	1668	1679	1662	1661	1658	1660	1592	1592	1483	1438	1420	1418	1424	1434	1440	1445	1440	1429	1422	1424	1437	1430	1417	1405	1396	1394	1397	1403	1408	1415	1421	1411	1402	1405	1400	1395	1400	1411	1420	1428	1425	1417	1408	1407	1406	1396	1393	1389	1392	1406	1422	1434	1440	1428	1405	1420	1476	1467	0	0	0	0	0	0	0	0	1673	1670	1692	1706	1709	1717	1711	1714	1709	1713	1726	1728	1717	1702	1683	1659	0	0	0	0	0	0	0	0	0	0	0	0	0	0	0	0	0	0	0	0	0	0	0	0	0	0	0	0	0	0	0	0	0	0	0	0	0	0	0	0	0	0	0	0	0	0	0	0	0	0	0	0	0	0	0	0	0	0	0	0	0	0	0	1405	1427	1424	1415	1413	1422	1407	1395	1410	1417	1420	1423	1421	1400	1372	1379	1381	1385	1379	1376	1379	1383	1386	1392	1379	1353	1345	1351	1359	1380	1392	1404	1401	1395	1380	1377	1371	1370	1369	1369	1366	1375	1384	1384	1398	1390	1396	1399	1402	1412	1419	1404	1419	0	0	0	0	0	0	0	0	0	0	0	0	0	0	0	0	0	0	0	0	0	0	0	0	0	0	0	0	0	0	0	0	0	0	0	0	0	0	0	0	0	0	0	0	0	0	0	0	0	0	0	0	0	0	0	0	0	0	0	0	0	0	0	1671	1695	1722	1725	1729	1723	1720	1710	1691	1683	1696	1699	1715	1709	1705	1680	0	0	0	0	0	0	0	0	0	0	1442	1453	1466	1449	1405	1404	1422	1428	1407	1362	1353	1353	1358	1360	1392	1401	1403	1411	1417	1411	1401	1398	1403	1410	1421	1424	1424	1419	1408	1400	1410	1408	1401	1397	1389	1388	1386	1390	1396	1409	1416	1416	1401	1396	1399	1395	1389	1385	1384	1381	1415	0	0	0	0	0	0	0	0	0	1644	1659	1671	1675	1672	1672	1667	1654	1657	1641	1612	1558	1498	1459	1440	1461	1463	1466	1451	1403	1415	1426	1435	1429	1431	1422	1417	1410	1408	1406	1396	1403	1419	1447	1447	1434	1428	1428	1424	1420	1417	1414	1415	1420	1424	1430	1430	1444	1456	1442	1435	1440	1451	1466	1438	1424	1429	1432	1424	1412	1412	1417	1414	1412	1406	1405	1410	1421	1429	1429	1426	1428	1428	1423	1423	1416	1406	1396	1396	1407	1407	1408	1422	1428	1432	1436	1431	1426	1420	1412	1406	1399	1394	1395	1397	1397	1393	1402	1408	1421	1419	0	0	0	0	0	0	0
0	0	0	1379	1391	1405	1402	1402	1419	1421	1424	1421	1420	1418	1418	1420	1414	1425	1443	1457	1449	1449	1445	1438	1424	1418	1426	1433	1440	1440	1439	1444	1429	1433	1444	1453	1468	0	0	0	0	0	0	0	0	0	0	0	0	0	0	0	0	0	0	0	0	1539	1535	1518	1495	1490	1487	1481	1499	1521	1537	1545	1567	1589	1781	1781	1793	1597	1589	1582	1579	1567	1560	1558	1573	1572	1568	1566	0	0	0	1490	1427	1413	1378	1369	1373	1376	1374	1369	1373	1381	1388	1401	1406	1411	1405	1397	1391	1386	1379	1367	1380	1375	1358	1345	1349	1353	1361	1374	1384	1390	1392	1389	1385	1383	1383	1378	1378	1373	1364	1365	1378	1376	1381	1392	1421	1421	1415	1422	1427	1434	1441	1452	1449	1441	1448	1470	1480	1491	1495	1486	1494	1494	1482	1464	1461	0	0	0	0	1655	1650	1637	1632	1636	1650	1661	1654	1672	1686	1701	1697	1687	1682	1678	1681	1695	1702	1700	1676	1669	1656	1649	1660	1679	1679	1670	1669	1678	1678	1672	1673	1666	1674	1580	1550	1483	1458	1438	1433	1433	1430	1439	1440	1433	1424	1415	1428	1435	1427	1412	1400	1392	1392	1398	1404	1412	1424	1435	1430	1420	1414	1407	1400	1400	1412	1418	1421	1420	1413	1400	1398	1402	1396	1388	1388	1389	1402	1420	1431	1437	1430	1432	1486	1511	1491	0	0	0	0	0	0	0	0	1666	1686	1704	1718	1735	1736	1739	1731	1729	1735	1741	1744	1732	1734	1722	1704	0	0	0	0	0	0	0	0	0	0	0	0	0	0	0	0	0	0	0	0	0	0	0	0	0	0	0	0	0	0	0	0	0	0	0	0	0	0	0	0	0	0	0	0	0	0	0	0	0	0	0	0	0	0	0	0	0	0	0	0	0	0	0	1449	1435	1421	1413	1415	1427	1398	1393	1409	1413	1420	1424	1421	1411	1384	1377	1384	1386	1378	1371	1377	1382	1383	1376	1381	1357	1359	1361	1364	1373	1385	1387	1395	1391	1387	1380	1373	1384	1381	1368	1369	1376	1379	1380	1378	1374	1392	1404	1409	1414	1422	1421	1420	0	0	0	0	0	0	0	0	0	0	0	0	0	0	0	0	0	0	0	0	0	0	0	0	0	0	0	0	0	0	0	0	0	0	0	0	0	0	0	0	0	0	0	0	0	0	0	0	0	0	0	0	0	0	0	0	0	0	0	0	0	0	0	1661	1698	1730	1738	1734	1731	1727	1725	1708	1702	1701	1708	1718	1723	1720	1686	0	0	0	0	0	0	0	0	0	0	1422	1435	1455	1447	1422	1415	1435	1429	1402	1382	1385	1387	1379	1369	1395	1403	1408	1415	1413	1402	1392	1385	1392	1406	1414	1419	1422	1419	1412	1401	1403	1402	1397	1390	1380	1376	1377	1384	1391	1402	1406	1401	1397	1389	1405	1404	1396	1390	1380	1376	1412	0	0	0	0	0	0	0	0	0	1638	1654	1685	1682	1673	1664	1656	1658	1660	1650	1612	1564	1503	1446	1431	1436	1456	1449	1434	1402	1406	1417	1412	1415	1416	1413	1409	1406	1410	1415	1421	1422	1440	1447	1442	1433	1427	1426	1423	1416	1414	1413	1413	1423	1428	1432	1439	1450	1439	1435	1429	1435	1450	1462	1433	1431	1432	1435	1427	1421	1421	1427	1428	1421	1416	1406	1415	1431	1440	1439	1438	1431	1426	1419	1416	1408	1404	1396	1401	1413	1413	1418	1426	1431	1436	1438	1437	1428	1419	1408	1402	1393	1388	1390	1390	1390	1389	1387	1395	1402	1395	0	0	0	0	0	0	0
0	0	0	1389	1394	1408	1422	1422	1423	1439	1434	1444	1452	1451	1451	1434	1420	1415	1424	1442	1450	1450	1458	1452	1437	1433	1427	1435	1443	1443	1457	1462	1457	1476	1486	1497	1489	0	0	0	0	0	0	0	0	0	0	0	0	0	0	0	0	0	0	0	1557	1560	1548	1531	1530	1523	1514	1512	1516	1537	1562	1570	1590	0	0	0	0	1800	1593	1584	1585	1579	1567	1562	1572	1574	1564	1551	1557	0	0	1496	1421	1393	1360	1356	1364	1376	1377	1377	1384	1389	1394	1399	1406	1408	1399	1388	1391	1389	1379	1371	1380	1382	1374	1369	1360	1363	1367	1374	1380	1389	1396	1387	1381	1378	1381	1384	1377	1371	1380	1382	1390	1380	1382	1400	1411	1428	1424	1422	1428	1429	1417	1411	1403	1416	1431	1457	1469	1477	1466	1463	1465	1472	1480	1481	1478	0	0	0	0	1626	1637	1640	1645	1649	1654	1665	1661	1679	1686	1685	1675	1664	1668	1673	1685	1699	1700	1696	1684	1658	1652	1646	1657	1664	1666	1668	1660	1663	1671	1677	1677	1679	1674	1589	1562	1484	1467	1450	1448	1438	1432	1428	1426	1424	1417	1419	1428	1437	1419	1404	1392	1388	1391	1399	1402	1413	1426	1438	1441	1433	1423	1414	1406	1403	1410	1408	1408	1405	1396	1385	1387	1392	1392	1389	1382	1397	1403	1416	1416	1422	1428	1460	1508	1528	1511	0	0	0	0	0	0	0	1601	1652	1693	1716	1725	1732	1737	1739	1739	1735	1745	1738	1747	1746	1739	1737	1718	0	0	0	0	0	0	0	0	0	0	0	0	0	0	0	0	0	0	0	0	0	0	0	0	0	0	0	0	0	0	0	0	0	0	0	0	0	0	0	0	0	0	0	0	0	0	0	0	0	0	0	0	0	0	0	0	0	0	0	0	0	0	0	1460	1446	1421	1409	1409	1425	1397	1382	1395	1410	1408	1415	1413	1403	1372	1368	1382	1383	1378	1385	1389	1391	1385	1374	1369	1361	1373	1374	1378	1373	1371	1389	1375	1387	1385	1385	1396	1406	1398	1378	1383	1384	1384	1379	1372	1374	1392	1414	1417	1423	1425	1424	1422	0	0	0	0	0	0	0	0	0	0	0	0	0	0	0	0	0	0	0	0	0	0	0	0	0	0	0	0	0	0	0	0	0	0	0	0	0	0	0	0	0	0	0	0	0	0	0	0	0	0	0	0	0	0	0	0	0	0	0	0	0	0	0	1662	1718	1739	1748	1740	1734	1732	1738	1730	1724	1710	1712	1717	1723	1724	1682	0	0	0	0	0	0	0	0	0	0	1431	1465	1455	1452	1455	1448	1445	1430	1422	1402	1389	1389	1385	1386	1391	1396	1401	1404	1399	1390	1385	1384	1388	1396	1411	1414	1415	1409	1406	1391	1397	1400	1398	1391	1382	1374	1375	1381	1390	1402	1405	1407	1403	1401	1416	1417	1411	1407	1403	1396	1417	0	0	0	0	0	0	0	0	0	1641	1661	1685	1686	1681	1663	1657	1660	1659	1647	1617	1569	1507	1439	1426	1439	1438	1440	1421	1408	1415	1416	1410	1409	1408	1409	1410	1408	1412	1410	1417	1421	1439	1442	1439	1435	1433	1431	1426	1424	1414	1417	1420	1427	1431	1434	1442	1455	1441	1433	1423	1444	1456	1463	1428	1418	1428	1433	1425	1426	1431	1435	1435	1432	1424	1408	1418	1425	1431	1435	1430	1421	1407	1398	1402	1408	1407	1406	1412	1420	1420	1422	1424	1423	1428	1435	1428	1423	1420	1412	1406	1398	1390	1386	1388	1388	1385	1384	1388	1395	1390	0	0	0	0	0	0	0
0	0	0	1394	1400	1412	1419	1419	1425	1431	1444	1473	1482	1465	1465	1445	1421	1401	1404	1413	1437	1437	1447	1459	1448	1446	1436	1435	1441	1441	1444	1447	1453	1472	1489	1498	1503	0	0	0	0	0	0	0	0	0	0	0	0	0	0	0	0	0	0	0	1559	1544	1538	1539	1550	1561	1549	1530	1535	1550	1565	1582	1592	1800	0	0	0	1802	1591	1581	1585	1579	1575	1571	1573	1564	1555	1546	1545	1539	1520	1477	1402	1383	1347	1349	1363	1377	1389	1393	1394	1394	1391	1395	1401	1398	1393	1388	1391	1395	1384	1371	1366	1380	1381	1382	1377	1376	1373	1374	1374	1382	1389	1386	1382	1382	1383	1394	1381	1371	1389	1393	1407	1395	1392	1406	1416	1432	1433	1430	1429	1423	1406	1386	1384	1393	1425	1450	1468	1469	1450	1444	1438	1445	1469	1483	1496	0	0	0	0	1603	1629	1645	1655	1667	1674	1663	1660	1674	1681	1673	1655	1649	1651	1668	1680	1698	1704	1690	1683	1657	1653	1652	1663	1670	1659	1663	1650	1659	1667	1675	1675	1678	1669	1598	1577	1500	1477	1454	1447	1443	1432	1425	1422	1419	1423	1427	1430	1426	1400	1391	1392	1390	1395	1400	1402	1405	1410	1420	1420	1421	1418	1415	1408	1401	1397	1398	1398	1392	1387	1376	1378	1381	1387	1391	1397	1408	1411	1413	1404	1410	1428	1465	1506	1526	1527	0	0	0	0	0	0	0	1611	1660	1704	1728	1735	1733	1735	1734	1737	1736	1743	1748	1756	1745	1745	1732	1711	0	0	0	0	0	0	0	0	0	0	0	0	0	0	0	0	0	0	0	0	0	0	0	0	0	0	0	0	0	0	0	0	0	0	0	0	0	0	0	0	0	0	0	0	0	0	0	0	0	0	0	0	0	0	0	0	0	0	0	0	0	0	0	1473	1444	1412	1402	1403	1415	1408	1381	1388	1401	1402	1401	1402	1399	1369	1370	1381	1382	1386	1387	1392	1395	1387	1375	1360	1357	1382	1389	1387	1380	1381	1379	1356	1369	1384	1390	1403	1399	1398	1382	1386	1389	1388	1375	1367	1376	1392	1411	1414	1420	1421	1417	1441	0	0	0	0	0	0	0	0	0	0	0	0	0	0	0	0	0	0	0	0	0	0	0	0	0	0	0	0	0	0	0	0	0	0	0	0	0	0	0	0	0	0	0	0	0	0	0	0	0	0	0	0	0	0	0	0	0	0	0	0	0	0	0	1691	1726	1741	1739	1738	1739	1742	1745	1745	1736	1729	1713	1714	1736	1732	1704	0	0	0	0	0	0	0	0	0	0	0	1477	1476	1469	1455	1435	1421	1415	1414	1405	1389	1390	1386	1391	1383	1390	1393	1395	1389	1385	1382	1390	1396	1408	1415	1409	1409	1407	1401	1395	1397	1401	1406	1407	1394	1386	1388	1390	1392	1399	1408	1414	1411	1408	1423	1426	1423	1426	1440	1429	1413	0	0	0	0	0	0	0	0	0	0	1676	1681	1676	1671	1666	1664	1661	1651	1629	1594	1554	1500	1432	1424	1435	1443	1448	1433	1416	1423	1417	1414	1411	1412	1416	1412	1413	1416	1412	1416	1419	1435	1438	1439	1432	1435	1432	1431	1426	1426	1429	1429	1435	1436	1437	1439	1454	1465	1441	1442	1449	1459	1456	1426	1423	1426	1421	1424	1430	1435	1443	1442	1435	1424	1411	1421	1418	1417	1417	1411	1404	1398	1394	1401	1409	1408	1410	1415	1414	1414	1419	1428	1437	1427	1432	1420	1422	1417	1415	1412	1406	1401	1395	1393	1393	1389	1386	1390	1392	1393	0	0	0	0	0	0	0
0	0	0	1396	1405	1415	1423	1423	1422	1415	1446	1479	1489	1473	1473	1435	1412	1396	1401	1416	1431	1431	1446	1462	1455	1446	1448	1445	1447	1447	1441	1439	1447	1455	1476	1490	1500	0	0	0	0	0	0	0	0	0	0	0	0	0	0	0	0	0	0	0	1550	1532	1534	1549	1566	1782	1583	1570	1563	1566	1564	1574	1583	1592	1807	1807	0	1807	1583	1581	1583	1580	1581	1573	1571	1563	1555	1547	1538	1524	1494	1451	1396	1383	1352	1344	1362	1381	1393	1400	1396	1393	1391	1391	1391	1397	1393	1393	1394	1390	1387	1370	1363	1376	1383	1384	1387	1382	1377	1372	1373	1378	1379	1382	1379	1386	1390	1400	1388	1370	1389	1395	1412	1407	1406	1407	1413	1430	1435	1437	1433	1426	1400	1386	1375	1375	1405	1448	1470	1467	1456	1444	1427	1436	1463	1502	1507	0	0	0	0	1623	1636	1650	1663	1675	1671	1654	1644	1655	1663	1665	1647	1648	1651	1662	1674	1688	1694	1691	1685	1670	1664	1666	1673	1673	1670	1664	1657	1654	1664	1672	1669	1669	1653	1616	1595	1518	1477	1445	1437	1436	1422	1413	1413	1416	1422	1421	1428	1422	1400	1394	1390	1402	1406	1408	1407	1399	1399	1395	1403	1404	1408	1410	1406	1403	1388	1391	1392	1390	1389	1375	1376	1376	1387	1397	1405	1420	1421	1409	1402	1407	1437	1479	1504	1513	1518	0	0	0	0	0	0	0	0	1673	1719	1741	1738	1730	1727	1733	1737	1728	1732	1741	1745	1750	1739	1725	1700	0	0	0	0	0	0	0	0	0	0	0	0	0	0	0	0	0	0	0	0	0	0	0	0	0	0	0	0	0	0	0	0	0	0	0	0	0	0	0	0	0	0	0	0	0	0	0	0	0	0	0	0	0	0	0	0	0	0	0	0	0	0	0	1471	1435	1408	1395	1387	1390	1398	1390	1392	1393	1394	1393	1393	1390	1378	1376	1379	1379	1383	1387	1392	1399	1388	1375	1359	1384	1383	1385	1370	1372	1383	1389	1377	1375	1379	1385	1391	1391	1387	1387	1389	1387	1386	1378	1370	1381	1390	1392	1400	1406	1410	1411	1450	0	0	0	0	0	0	0	0	0	0	0	0	0	0	0	0	0	0	0	0	0	0	0	0	0	0	0	0	0	0	0	0	0	0	0	0	0	0	0	0	0	0	0	0	0	0	0	0	0	0	0	0	0	0	0	0	0	0	0	0	0	0	0	1730	1736	1733	1734	1742	1741	1742	1752	1758	1745	1734	1721	1719	1729	1732	1717	0	0	0	0	0	0	0	0	0	0	0	1475	1495	1483	1459	1413	1392	1393	1404	1406	1389	1384	1386	1388	1379	1385	1392	1395	1392	1390	1390	1398	1400	1417	1424	1421	1402	1394	1391	1397	1402	1406	1417	1422	1427	1413	1401	1398	1391	1393	1402	1412	1408	1411	1423	1429	1431	1449	1457	1448	1427	1418	0	0	0	0	0	0	0	0	0	1665	1671	1668	1672	1669	1658	1654	1638	1614	1567	1536	1491	1432	1424	1434	1455	1458	1444	1428	1428	1430	1423	1421	1423	1420	1419	1418	1418	1418	1419	1421	1435	1441	1444	1436	1437	1436	1434	1433	1436	1442	1440	1437	1434	1434	1436	1438	1462	1463	1465	1465	1459	1454	1431	1419	1417	1416	1423	1427	1433	1439	1441	1435	1429	1425	1425	1420	1411	1403	1398	1393	1389	1390	1403	1411	1413	1412	1410	1414	1414	1419	1427	1435	1442	1430	1420	1420	1417	1419	1416	1415	1402	1398	1394	1394	1392	1387	1388	1397	1399	0	0	0	0	0	0	0
0	0	0	1414	1413	1418	1416	1416	1411	1408	1431	1448	1458	1444	1444	1426	1408	1411	1418	1426	1440	1440	1450	1457	1460	1474	1463	1468	1462	1462	1450	1445	1442	1455	1470	1477	1482	0	0	0	0	0	0	0	0	0	0	0	0	0	0	0	0	0	0	0	1540	1544	1544	1561	1578	0	0	1794	1579	1572	1575	1576	1576	1575	1585	1585	1586	1586	1570	1567	1573	1585	1571	1574	1581	1571	1555	1547	1537	1505	1476	1451	1416	1399	1365	1352	1359	1375	1387	1398	1396	1391	1386	1387	1387	1391	1389	1396	1397	1393	1390	1382	1375	1377	1382	1390	1397	1386	1374	1370	1372	1370	1372	1373	1378	1386	1395	1398	1386	1363	1384	1391	1407	1399	1405	1404	1409	1432	1441	1444	1437	1430	1414	1397	1376	1376	1399	1446	1470	1472	1470	1457	1437	1441	1470	1493	1515	0	0	0	0	1660	1661	1666	1665	1686	1676	1646	1632	1636	1651	1660	1660	1662	1668	1663	1666	1671	1685	1694	1690	1683	1683	1683	1686	1689	1671	1657	1656	1655	1667	1675	1674	1667	1643	1619	1604	1530	1475	1438	1422	1424	1410	1399	1405	1404	1410	1422	1428	1426	1409	1398	1398	1406	1413	1417	1418	1417	1414	1415	1411	1399	1404	1406	1410	1409	1405	1398	1400	1403	1399	1387	1388	1374	1389	1401	1411	1429	1427	1418	1408	1411	1437	1490	1500	1484	1467	0	0	0	0	0	0	0	0	1681	1718	1735	1739	1736	1733	1736	1730	1726	1720	1730	1739	1736	1726	1715	1691	0	0	0	0	0	0	0	0	0	0	0	0	0	0	0	0	0	0	0	0	0	0	0	0	0	0	0	0	0	0	0	0	0	0	0	0	0	0	0	0	0	0	0	0	0	0	0	0	0	0	0	0	0	0	0	0	0	0	0	0	0	0	0	1450	1427	1407	1398	1378	1386	1403	1388	1386	1380	1379	1382	1387	1393	1397	1383	1385	1381	1380	1380	1391	1396	1386	1378	1387	1383	1385	1385	1366	1367	1378	1377	1373	1382	1382	1380	1384	1383	1394	1397	1397	1393	1389	1381	1381	1387	1388	1389	1391	1399	1395	1399	1458	0	0	0	0	0	0	0	0	0	0	0	0	0	0	0	0	0	0	0	0	0	0	0	0	0	0	0	0	0	0	0	0	0	0	0	0	0	0	0	0	0	0	0	0	0	0	0	0	0	0	0	0	0	0	0	0	0	0	0	0	0	0	0	1746	1734	1722	1729	1737	1741	1749	1748	1763	1754	1738	1721	1710	1707	1716	1729	0	0	0	0	0	0	0	0	0	0	0	1457	1483	1483	1450	1396	1380	1385	1392	1399	1391	1393	1385	1382	1369	1378	1384	1386	1389	1388	1392	1399	1407	1421	1428	1421	1409	1391	1385	1391	1405	1417	1423	1430	1431	1426	1410	1398	1390	1389	1393	1396	1391	1401	1420	1431	1433	1456	1457	1454	1439	1419	0	0	0	0	0	0	0	0	1668	1655	1662	1661	1662	1665	1658	1645	1616	0	0	0	1489	1449	1436	1439	1452	1468	1452	1433	1433	1435	1439	1435	1433	1429	1426	1416	1417	1421	1419	1417	1419	1435	1435	1427	1424	1426	1428	1436	1447	1452	1438	1418	1419	1423	1425	1404	1437	1467	1479	1477	1464	1451	1435	1423	1409	1403	1419	1421	1422	1434	1438	1439	1432	1424	1422	1421	1414	1404	1402	1391	1391	1394	1406	1418	1420	1412	1413	1417	1417	1424	1427	1426	1428	1425	1412	1416	1413	1411	1407	1409	1404	1402	1394	1394	1395	1392	1391	1393	1401	0	0	0	0	0	0	0
0	0	0	1402	1403	1404	1410	1410	1396	1393	1406	1419	1421	1416	1416	1402	1404	1414	1424	1435	1446	1446	1460	1470	1475	1478	1480	1490	1485	1485	1466	1451	1455	1460	1468	1476	1485	0	0	0	0	0	0	0	0	0	0	0	0	0	0	0	0	0	0	0	1550	1562	1563	1571	1578	1787	0	1796	1585	1580	1575	1576	1578	1575	1568	1568	1568	1571	1571	1572	1574	1562	1564	1567	1574	1572	1558	1550	1540	1507	1475	1461	1448	1421	1380	1360	1358	1363	1379	1393	1398	1392	1382	1380	1380	1383	1386	1385	1389	1387	1392	1389	1384	1380	1390	1401	1397	1384	1372	1367	1373	1367	1367	1370	1376	1386	1390	1392	1381	1358	1376	1384	1399	1397	1391	1404	1413	1427	1441	1445	1442	1442	1433	1420	1406	1405	1416	1436	1462	1470	1469	1466	1463	1467	1476	1495	1516	0	0	0	0	1669	1669	1675	1682	1694	1687	1646	1639	1649	1654	1664	1668	1677	1681	1679	1669	1674	1684	1700	1710	1700	1695	1694	1696	1698	1690	1679	1667	1661	1670	1686	1681	1680	1648	1616	1592	1519	1459	1431	1422	1410	1391	1389	1394	1403	1414	1420	1423	1424	1409	1404	1405	1413	1415	1420	1426	1428	1429	1429	1431	1424	1421	1423	1422	1420	1422	1411	1410	1411	1408	1403	1399	1380	1393	1402	1419	1431	1433	1424	1419	1417	1443	1495	1499	1471	1452	0	0	0	0	0	0	0	0	1666	1707	1718	1724	1728	1735	1735	1734	1725	1714	1719	1730	1730	1729	1719	1696	0	0	0	0	0	0	0	0	0	0	0	0	0	0	0	0	0	0	0	0	0	0	0	0	0	0	0	0	0	0	0	0	0	0	0	0	0	0	0	0	0	0	0	0	0	0	0	0	0	0	0	0	0	0	0	0	0	0	0	0	0	0	0	1435	1417	1403	1394	1380	1390	1406	1416	1393	1373	1369	1375	1384	1395	1412	1413	1398	1396	1389	1386	1382	1389	1388	1385	1394	1398	1378	1370	1364	1369	1376	1383	1379	1384	1382	1383	1382	1381	1391	1407	1406	1399	1396	1391	1389	1398	1395	1391	1398	1395	1386	1383	1460	0	0	0	0	0	0	0	0	0	0	0	0	0	0	0	0	0	0	0	0	0	0	0	0	0	0	0	0	0	0	0	0	0	0	0	0	0	0	0	0	0	0	0	0	0	0	0	0	0	0	0	0	0	0	0	0	0	0	0	0	0	0	0	0	1738	1742	1746	1735	1739	1740	1746	1754	1731	1721	1713	1711	1715	1717	1718	0	0	0	0	0	0	0	0	0	0	0	1441	1459	1467	1445	1398	1383	1379	1387	1398	1400	1395	1393	1383	1374	1379	1387	1385	1381	1386	1391	1394	1402	1414	1426	1423	1409	1403	1391	1386	1399	1409	1420	1422	1421	1417	1407	1399	1396	1395	1389	1386	1381	1399	1423	1413	1419	1426	1447	1452	1446	0	0	0	0	0	0	0	0	0	1630	1646	1653	1664	1663	1661	1650	1633	1596	0	0	0	0	1440	1431	1441	1460	1474	1466	1444	1446	1453	1459	1443	1427	1422	1436	1436	1429	1433	1430	1438	1443	1455	1446	1424	1402	1389	1379	1391	1404	1414	1419	1410	1398	1392	1392	1411	1410	1459	1474	1481	1470	1452	1449	1436	1409	1411	1415	1410	1413	1426	1435	1441	1440	1428	1419	1417	1412	1406	1399	1396	1394	1399	1408	1416	1417	1415	1409	1416	1416	1418	1419	1408	1413	1418	1416	1412	1406	1400	1402	1403	1403	1401	1396	1396	1395	1395	1393	1386	1399	0	0	0	0	0	0	0
0	0	0	1406	1397	1403	1412	1412	1397	1385	1381	1383	1392	1398	1398	1407	1412	1420	1427	1437	1458	1477	1486	1486	1473	1476	1489	1507	1501	1501	1474	1466	1465	1469	1467	1475	1482	0	0	0	0	0	0	0	0	0	0	0	0	0	0	0	0	0	0	0	1558	1569	1565	1570	1578	1580	1568	1568	1571	1568	1574	1585	1585	1575	1575	1569	1569	1572	1566	1567	1567	1562	1552	1555	1555	1558	1554	1552	1538	1517	1486	1469	1462	1445	1399	1369	1353	1356	1370	1385	1391	1392	1383	1377	1375	1374	1374	1373	1381	1387	1393	1390	1387	1386	1397	1399	1391	1374	1367	1367	1370	1374	1377	1380	1381	1390	1394	1394	1388	1362	1372	1385	1412	1405	1398	1409	1412	1422	1444	1456	1452	1442	1442	1435	1421	1411	1413	1427	1457	1472	1479	1477	1478	1493	1500	1512	1523	0	0	0	0	1656	1661	1676	1688	1700	1680	1657	1660	1657	1662	1664	1672	1686	1689	1685	1684	1685	1697	1708	1714	1704	1704	1699	1691	1693	1694	1690	1678	1680	1684	1694	1687	1687	1655	1602	1582	1493	1442	1424	1416	1404	1390	1392	1405	1419	1428	1436	1436	1428	1419	1414	1414	1412	1418	1417	1423	1430	1432	1425	1424	1424	1420	1424	1428	1441	1451	1450	1445	1425	1420	1408	1399	1389	1393	1405	1408	1428	1441	1432	1428	1422	1453	1503	1503	1481	1456	0	0	0	0	0	0	0	0	1663	1685	1707	1716	1720	1735	1741	1752	1743	1725	1723	1734	1731	1735	1734	1714	0	0	0	0	0	0	0	0	0	0	0	0	0	0	0	0	0	0	0	0	0	0	0	0	0	0	0	0	0	0	0	0	0	0	0	0	0	0	0	0	0	0	0	0	0	0	0	0	0	0	0	0	0	0	0	0	0	0	0	0	0	0	0	1428	1434	1430	1413	1397	1403	1417	1424	1400	1381	1374	1375	1383	1392	1410	1408	1399	1399	1390	1388	1383	1389	1390	1392	1393	1390	1375	1372	1374	1379	1384	1385	1378	1381	1380	1383	1380	1378	1385	1407	1407	1405	1398	1401	1408	1409	1403	1407	1405	1399	1383	1382	1461	0	0	0	0	0	0	0	0	0	0	0	0	0	0	0	0	0	0	0	0	0	0	0	0	0	0	0	0	0	0	0	0	0	0	0	0	0	0	0	0	0	0	0	0	0	0	0	0	0	0	0	0	0	0	0	0	0	0	0	0	0	0	0	0	1735	1751	1756	1754	1735	1720	1714	1714	1703	1690	1696	1706	1717	1721	1708	0	0	0	0	0	0	0	0	0	0	0	1445	1445	1442	1444	1423	1399	1384	1389	1398	1404	1404	1403	1387	1381	1381	1387	1384	1387	1389	1379	1388	1394	1406	1413	1416	1412	1407	1381	1377	1387	1397	1405	1411	1406	1404	1406	1409	1414	1409	1396	1388	1382	1397	1408	1398	1400	1405	1444	1455	1462	0	0	0	0	0	0	0	0	0	1611	1638	1661	1667	1664	1655	1650	1621	0	0	0	0	0	1442	1434	1451	1476	1491	1476	1451	1449	1463	1462	1463	1445	1432	1432	1437	1438	1443	1447	1448	1460	1454	1446	1435	1420	1380	1339	1340	1360	1381	1408	1422	1426	1416	1410	1410	1403	1439	1462	1479	1478	1465	1459	1442	1413	1415	1412	1406	1412	1419	1432	1437	1434	1430	1420	1410	1404	1395	1395	1400	1404	1406	1409	1414	1415	1407	1409	1412	1412	1416	1405	1398	1402	1413	1414	1407	1401	1401	1398	1405	1405	1405	1400	1400	1404	1398	1394	1388	1394	0	0	0	0	0	0	0
0	0	0	1404	1410	1415	1418	1411	1411	1399	1389	1390	1403	1405	1405	1412	1420	1432	1441	1459	1496	1496	1504	1494	1478	1470	1477	1492	1478	1478	1472	1462	1468	1458	1473	1465	1478	0	0	0	0	0	0	0	0	0	0	0	0	0	0	0	0	0	0	0	1548	1542	1547	1549	1551	1556	1559	1552	1561	1575	1587	1589	1589	1583	1581	1574	1574	1580	1576	1569	1567	1560	1535	1547	1550	1548	1549	1547	1549	0	0	1477	1453	1452	1438	1368	1354	1353	1363	1380	1387	1387	1378	1368	1363	1369	1371	1368	1372	1380	1396	1393	1388	1390	1390	1392	1381	1371	1363	1368	1374	1384	1390	1386	1388	1393	1395	1397	1399	1377	1385	1396	1412	1409	1403	1405	1406	1420	1444	1447	1445	1441	1438	1444	1431	1419	1413	1427	1456	1480	1477	1472	1472	1484	1498	1521	1531	0	0	0	0	1616	1648	1672	1686	1690	1677	1662	1676	1673	1670	1665	1665	1680	1696	1703	1696	1696	1703	1713	1714	1709	1709	1694	1698	1698	1699	1695	1692	1687	1690	1687	1690	1680	1664	1594	1574	1469	1425	1422	1413	1397	1396	1408	1430	1441	1448	1449	1450	1441	1427	1421	1417	1413	1407	1406	1416	1425	1425	1419	1412	1408	1410	1417	1424	1441	1450	1455	1441	1437	1431	1421	1407	1399	1402	1406	1406	1430	1446	1444	1432	1434	1459	1503	1519	1497	1469	0	0	0	0	0	0	0	0	1673	1683	1693	1703	1722	1740	1734	1756	1762	1756	1742	1744	1745	1746	1743	1732	0	0	0	0	0	0	0	0	0	0	0	0	0	0	0	0	0	0	0	0	0	0	0	0	0	0	0	0	0	0	0	0	0	0	0	0	0	0	0	0	0	0	0	0	0	0	0	0	0	0	0	0	0	0	0	0	0	0	0	0	0	0	0	1439	1450	1435	1417	1410	1416	1421	1424	1409	1395	1388	1389	1388	1392	1395	1389	1391	1396	1392	1392	1391	1394	1398	1395	1386	1384	1369	1372	1381	1398	1397	1390	1380	1384	1382	1384	1384	1379	1382	1404	1398	1402	1405	1406	1414	1423	1421	1412	1404	1395	1387	1389	1474	0	0	0	0	0	0	0	0	0	0	0	0	0	0	0	0	0	0	0	0	0	0	0	0	0	0	0	0	0	0	0	0	0	0	0	0	0	0	0	0	0	0	0	0	0	0	0	0	0	0	0	0	0	0	0	0	0	0	0	0	0	0	0	0	1725	1713	1727	1727	1722	1715	1701	1699	1689	1678	1678	1707	1719	1720	1693	0	0	0	0	0	0	0	0	0	0	0	1455	1440	1429	1443	1440	1422	1393	1396	1399	1406	1406	1403	1388	1385	1387	1393	1394	1393	1394	1382	1392	1396	1400	1404	1403	1394	1395	1374	1379	1386	1393	1401	1404	1396	1401	1406	1414	1423	1424	1406	1390	1387	1399	1397	1389	1378	1396	1434	1455	1460	0	0	0	0	0	0	0	0	0	1613	1648	1676	1688	1680	1677	1676	0	0	0	0	0	0	1463	1453	1467	1486	1502	1485	1451	1454	1467	1462	1450	1442	1429	1428	1434	1443	1447	1456	1463	1459	1451	1446	1428	1409	1364	1344	1341	1348	1373	1413	1429	1434	1429	1419	1417	1392	1429	1452	1474	1475	1469	1464	1438	1421	1419	1417	1421	1415	1419	1427	1428	1433	1433	1417	1409	1388	1387	1388	1398	1410	1407	1412	1411	1408	1405	1409	1419	1419	1413	1403	1394	1399	1411	1410	1405	1400	1397	1398	1407	1412	1415	1417	1417	1414	1408	1409	1410	1399	0	0	0	0	0	0	0
0	0	0	1417	1414	1429	1426	1420	1420	1411	1405	1407	1416	1417	1417	1426	1433	1442	1450	1472	1499	1499	1505	1493	1471	1461	1458	1459	1460	1460	1462	1460	1466	1472	1471	1474	1466	0	0	0	0	0	0	0	0	0	0	0	0	0	0	0	0	0	0	0	1527	1518	1510	1525	1529	1540	1547	1554	1568	1586	0	0	1807	1590	1589	1591	1591	1589	1576	1568	1564	1555	1541	1545	1555	1554	1555	1551	1566	0	0	0	1448	1436	1417	1364	1352	1359	1370	1379	1387	1388	1383	1374	1365	1361	1364	1367	1374	1390	1393	1394	1390	1389	1388	1390	1382	1369	1364	1365	1377	1394	1392	1392	1385	1390	1393	1397	1400	1388	1398	1405	1409	1405	1395	1395	1396	1414	1422	1427	1426	1420	1438	1442	1438	1423	1416	1435	1464	1486	1476	1460	1450	1461	1496	1520	0	0	0	0	0	1613	1646	1662	1677	1680	1674	1678	1678	1682	1674	1679	1688	1704	1709	1708	1700	1701	1698	1697	1693	1710	1706	1705	1699	1704	1699	1696	1686	1682	1684	1681	1683	1681	1660	1596	1574	1453	1422	1423	1419	1402	1413	1430	1450	1463	1463	1466	1462	1451	1434	1430	1418	1416	1409	1407	1413	1421	1417	1411	1407	1402	1405	1406	1416	1424	1438	1437	1434	1425	1427	1424	1421	1419	1415	1406	1409	1424	1437	1437	1426	1434	1452	1484	1510	1486	1461	0	0	0	0	0	0	0	0	1704	1693	1696	1705	1711	1727	1740	1753	1769	1774	1776	1761	1756	1751	1756	1732	0	0	0	0	0	0	0	0	0	0	0	0	0	0	0	0	0	0	0	0	0	0	0	0	0	0	0	0	0	0	0	0	0	0	0	0	0	0	0	0	0	0	0	0	0	0	0	0	0	0	0	0	0	0	0	0	0	0	0	0	0	0	0	1457	1462	1437	1413	1410	1421	1431	1429	1412	1404	1400	1397	1397	1398	1401	1381	1381	1384	1395	1391	1394	1400	1395	1395	1380	1370	1372	1383	1402	1414	1419	1410	1395	1389	1384	1383	1382	1378	1383	1400	1401	1398	1404	1410	1419	1429	1431	1411	1392	1379	1377	1398	1476	0	0	0	0	0	0	0	0	0	0	0	0	0	0	0	0	0	0	0	0	0	0	0	0	0	0	0	0	0	0	0	0	0	0	0	0	0	0	0	0	0	0	0	0	0	0	0	0	0	0	0	0	0	0	0	0	0	0	0	0	0	0	0	0	1660	1692	1704	1712	1713	1710	1708	1698	1681	1674	1679	1698	1709	1710	1691	0	0	0	0	0	0	0	0	0	0	0	1464	1433	1425	1434	1436	1422	1392	1401	1413	1415	1404	1411	1394	1388	1392	1392	1400	1401	1402	1395	1393	1390	1394	1392	1391	1387	1379	1371	1379	1385	1398	1402	1402	1397	1396	1400	1413	1431	1426	1416	1399	1403	1404	1397	1381	1380	1391	1401	1422	1441	1474	0	0	0	0	0	0	0	0	0	1658	1685	0	0	0	0	0	0	0	0	0	0	1488	1468	1468	1482	1488	1469	1447	1451	1458	1453	1440	1434	1425	1423	1434	1441	1450	1466	1469	1450	1443	1440	1428	1403	1374	1357	1358	1359	1380	1422	1444	1442	1425	1426	1412	1406	1427	1450	1463	1472	1469	1467	1436	1427	1426	1428	1431	1427	1426	1422	1430	1437	1433	1421	1408	1390	1382	1390	1398	1405	1411	1415	1411	1409	1407	1411	1422	1422	1420	1407	1404	1405	1407	1407	1405	1402	1395	1391	1396	1406	1419	1421	1421	1421	1410	1416	1420	1411	0	0	0	0	0	0	0
0	0	0	1417	1422	1427	1434	1428	1428	1421	1414	1418	1426	1430	1430	1429	1430	1418	1443	1465	1485	1485	1487	1472	1460	1451	1446	1440	1439	1451	1451	1453	1464	1474	1471	1479	1469	0	0	0	0	0	0	0	0	0	0	0	0	0	0	0	0	0	0	1540	1532	1513	1516	1520	1521	1532	1548	1556	1569	1805	0	0	1815	1593	1594	1810	1810	1596	1573	1565	1564	1570	1573	1574	1559	1566	1555	1557	1573	0	0	0	1436	1420	1381	1351	1357	1368	1386	1396	1398	1398	1395	1388	1375	1367	1368	1368	1375	1387	1392	1392	1386	1384	1384	1387	1387	1378	1371	1372	1378	1389	1400	1395	1388	1381	1387	1395	1403	1404	1403	1404	1404	1395	1381	1385	1397	1402	1397	1393	1397	1404	1435	1444	1436	1425	1419	1430	1452	1476	1464	1442	1432	1456	1486	1517	0	0	0	0	0	1610	1646	1665	1679	1680	1666	1681	1673	1674	1683	1695	1704	1705	1702	1699	1685	1677	1674	1671	1664	1692	1712	1719	1707	1702	1702	1688	1680	1677	1678	1673	1674	1670	1668	1607	1581	1458	1428	1427	1422	1408	1418	1441	1455	1467	1468	1467	1462	1458	1442	1434	1423	1417	1414	1408	1416	1418	1416	1407	1403	1403	1405	1408	1408	1410	1415	1419	1418	1419	1426	1427	1426	1424	1415	1404	1394	1396	1422	1421	1421	1426	1448	1465	1484	1462	1451	0	0	0	0	0	0	0	0	1722	1711	1704	1705	1726	1732	1747	1762	1771	1787	1788	1778	1765	1759	1758	1725	0	0	0	0	0	0	0	0	0	0	0	0	0	0	0	0	0	0	0	0	0	0	0	0	0	0	0	0	0	0	0	0	0	0	0	0	0	0	0	0	0	0	0	0	0	0	0	0	0	0	0	0	0	0	0	0	0	0	0	0	0	0	0	1450	1456	1431	1408	1408	1420	1433	1430	1414	1408	1406	1402	1403	1401	1400	1380	1384	1388	1398	1403	1403	1403	1401	1398	1380	1365	1372	1387	1406	1417	1420	1413	1398	1393	1384	1381	1378	1369	1387	1402	1401	1403	1403	1405	1408	1428	1430	1414	1384	1368	1371	1398	1472	0	0	0	0	0	0	0	0	0	0	0	0	0	0	0	0	0	0	0	0	0	0	0	0	0	0	0	0	0	0	0	0	0	0	0	0	0	0	0	0	0	0	0	0	0	0	0	0	0	0	0	0	0	0	0	0	0	0	0	0	0	0	0	0	1661	1690	1696	1705	1706	1708	1709	1692	1685	1671	1678	1689	1700	1695	1677	0	0	0	0	0	0	0	0	0	0	0	0	1432	1411	1421	1417	1414	1399	1399	1415	1433	1434	1424	1396	1390	1386	1397	1406	1409	1405	1405	1398	1390	1387	1385	1380	1375	1359	1372	1386	1396	1402	1403	1395	1392	1388	1397	1412	1427	1427	1418	1411	1407	1397	1387	1385	1386	1398	1400	1406	1430	1472	0	0	0	0	0	0	0	0	0	1659	1687	1897	1885	1870	0	0	0	0	0	0	0	1502	1472	1451	1450	1455	1454	1436	1436	1453	1445	1431	1430	1431	1427	1434	1439	1444	1459	1451	1442	1440	1444	1430	1405	1381	1383	1382	1384	1394	1419	1434	1434	1423	1418	1419	1414	1429	1445	1459	1469	1465	1467	1445	1432	1427	1424	1430	1432	1426	1430	1440	1437	1429	1419	1407	1395	1392	1396	1405	1414	1409	1410	1413	1412	1413	1421	1421	1422	1428	1422	1417	1408	1405	1408	1406	1406	1395	1379	1386	1404	1417	1418	1418	1413	1409	1416	1419	1418	0	0	0	0	0	0	0
0	0	0	1410	1414	1420	1427	1428	1428	1426	1419	1430	1440	1441	1441	1443	1438	1430	1437	1451	1454	1454	1451	1445	1447	1449	1441	1436	1450	1461	1461	1469	1473	1466	1465	1469	1457	0	0	0	0	0	0	0	0	0	0	0	0	0	0	0	0	0	0	1557	1534	1526	1536	1532	1525	1537	1545	1562	1572	1581	1812	1818	1586	1581	1596	1817	1817	1813	1590	1572	1568	1575	1584	1598	1589	1581	1573	1580	1583	0	0	0	1428	1396	1360	1346	1361	1381	1400	1409	1410	1407	1400	1393	1380	1379	1377	1375	1379	1380	1393	1394	1388	1384	1383	1389	1395	1397	1388	1379	1380	1385	1393	1392	1390	1383	1386	1398	1405	1402	1396	1397	1395	1383	1367	1382	1396	1396	1378	1376	1383	1406	1427	1446	1435	1423	1420	1417	1429	1442	1440	1432	1427	1467	1496	1508	0	0	0	0	0	1623	1655	1673	1681	1688	1674	1671	1674	1677	1688	1705	1713	1705	1703	1688	1679	1665	1659	1652	1650	1684	1707	1712	1707	1701	1689	1684	1675	1680	1678	1668	1668	1665	1670	1607	1574	1466	1443	1435	1421	1403	1409	1430	1448	1462	1461	1455	1451	1447	1442	1422	1416	1416	1414	1406	1410	1415	1410	1406	1403	1405	1412	1412	1404	1404	1406	1412	1415	1419	1428	1433	1423	1419	1406	1397	1386	1391	1411	1413	1418	1425	1447	1468	1465	1448	1443	0	0	0	0	0	0	0	0	1729	1735	1725	1710	1729	1734	1749	1758	1772	1789	1783	1778	1762	1752	1738	1710	0	0	0	0	0	0	0	0	0	0	0	0	0	0	0	0	0	0	0	0	0	0	0	0	0	0	0	0	0	0	0	0	0	0	0	0	0	0	0	0	0	0	0	0	0	0	0	0	0	0	0	0	0	0	0	0	0	0	0	0	0	0	0	1436	1437	1415	1412	1413	1421	1428	1428	1411	1405	1402	1402	1401	1398	1389	1382	1385	1393	1398	1400	1397	1397	1392	1389	1386	1372	1372	1390	1402	1407	1411	1406	1396	1383	1381	1382	1375	1376	1393	1407	1412	1407	1404	1394	1397	1414	1418	1411	1383	1369	1374	1397	1451	0	0	0	0	0	0	0	0	0	0	0	0	0	0	0	0	0	0	0	0	0	0	0	0	0	0	0	0	0	0	0	0	0	0	0	0	0	0	0	0	0	0	0	0	0	0	0	0	0	0	0	0	0	0	0	0	0	0	0	0	0	0	0	0	1680	1699	1706	1704	1703	1705	1705	1694	1682	1671	1672	1683	1686	1676	1664	0	0	0	0	0	0	0	0	0	0	0	0	1419	1398	1400	1398	1415	1422	1414	1424	1436	1436	1429	1398	1393	1388	1393	1402	1413	1414	1409	1395	1381	1378	1380	1380	1373	1360	1377	1407	1407	1400	1397	1390	1386	1380	1380	1397	1411	1425	1419	1412	1408	1389	1382	1383	1400	1405	1403	1414	1449	1495	0	0	0	0	0	0	0	0	0	1659	1677	1685	1695	0	0	0	0	0	0	0	0	1509	1464	1452	1439	1436	1441	1435	1435	1458	1437	1425	1428	1439	1429	1437	1436	1436	1435	1441	1425	1428	1434	1430	1418	1402	1385	1401	1379	1390	1412	1431	1415	1418	1419	1423	1428	1447	1465	1466	1467	1467	1465	1447	1438	1425	1419	1424	1426	1423	1429	1441	1440	1426	1419	1413	1406	1404	1409	1416	1422	1420	1416	1414	1416	1423	1431	1431	1441	1438	1436	1429	1419	1413	1413	1414	1405	1402	1388	1402	1412	1419	1419	1418	1408	1401	1407	1412	1413	0	0	0	0	0	0	0
0	0	0	1407	1412	1418	1419	1420	1420	1422	1422	1437	1447	1456	1456	1460	1452	1451	1440	1437	1419	1416	1416	1425	1438	1450	1446	1448	1464	1477	1477	1484	1477	1461	1450	1446	1447	0	0	0	0	0	0	0	0	0	0	0	0	0	0	0	0	0	0	0	1559	1541	1551	1552	1542	1544	1554	1569	1561	1580	1587	1588	1576	1581	1589	1819	0	0	0	1594	1588	1589	1821	1825	1600	1594	1593	1596	0	0	0	0	1421	1396	1366	1351	1367	1386	1403	1417	1415	1408	1389	1383	1381	1381	1383	1384	1379	1381	1389	1390	1386	1379	1377	1382	1390	1394	1392	1387	1387	1387	1390	1396	1397	1397	1397	1399	1398	1389	1383	1386	1385	1373	1363	1384	1398	1399	1389	1387	1397	1409	1427	1433	1443	1437	1426	1410	1417	1427	1432	1439	1455	1470	1508	1511	0	0	0	0	0	0	1665	1670	1677	1664	1667	1668	1666	1670	1678	1698	1701	1706	1698	1687	1679	1674	1661	1652	1649	1679	1699	1712	1703	1692	1686	1677	1676	1675	1675	1663	1663	1670	1668	1640	1568	1473	1445	1433	1416	1398	1397	1418	1435	1449	1446	1438	1432	1428	1422	1412	1410	1413	1414	1410	1404	1404	1410	1406	1406	1406	1411	1414	1406	1409	1408	1407	1415	1424	1434	1441	1438	1411	1400	1399	1397	1404	1428	1428	1428	1461	1522	1489	1468	1458	1456	0	0	0	0	0	0	0	0	1710	1737	1735	1734	1729	1737	1746	1753	1770	1772	1778	1766	1763	1748	1730	1701	0	0	0	0	0	0	0	0	0	0	0	0	0	0	0	0	0	0	0	0	0	0	0	0	0	0	0	0	0	0	0	0	0	0	0	0	0	0	0	0	0	0	0	0	0	0	0	0	0	0	0	0	0	0	0	0	0	0	0	0	0	0	0	1425	1420	1407	1411	1414	1422	1426	1426	1405	1396	1391	1397	1404	1402	1376	1381	1388	1393	1397	1407	1400	1394	1383	1384	1378	1366	1374	1388	1397	1402	1400	1391	1344	1368	1378	1380	1381	1397	1409	1420	1419	1414	1404	1401	1395	1393	1406	1408	1391	1382	1382	1396	1435	0	0	0	0	0	0	0	0	0	0	0	0	0	0	0	0	0	0	0	0	0	0	0	0	0	0	0	0	0	0	0	0	0	0	0	0	0	0	0	0	0	0	0	0	0	0	0	0	0	0	0	0	0	0	0	0	0	0	0	0	0	0	0	0	1705	1706	1707	1701	1698	1700	1703	1696	1679	1664	1664	1674	1678	1673	1672	0	0	0	0	0	0	0	0	0	0	0	0	1409	1402	1403	1410	1421	1430	1425	1421	1418	1427	1428	1404	1400	1395	1398	1403	1410	1415	1411	1403	1392	1386	1390	1386	1376	1374	1399	1414	1416	1401	1391	1388	1388	1381	1378	1384	1398	1411	1412	1408	1403	1380	1380	1388	1404	1405	1404	1439	1482	1511	0	0	0	0	0	0	0	0	0	1646	1659	0	0	0	0	0	0	0	0	0	0	1527	1487	1465	1445	1429	1445	1432	1433	1429	1449	1424	1405	1405	1423	1437	1434	1424	1424	1414	1400	1407	1429	1454	1471	1462	1448	1427	1406	1406	1415	1425	1429	1422	1416	1426	1443	1463	1471	1485	1461	1463	1465	1447	1439	1431	1423	1422	1414	1423	1429	1436	1437	1427	1428	1420	1416	1418	1416	1421	1423	1425	1421	1416	1423	1426	1434	1434	1432	1434	1433	1435	1432	1426	1419	1417	1402	1402	1403	1421	1424	1421	1421	1413	1399	1395	1403	1402	1405	0	0	0	0	0	0	0
0	0	0	1409	1416	1417	1424	1418	1418	1414	1415	1423	1445	1462	1448	1467	1470	1465	1446	1421	1398	1396	1396	1414	1431	1448	1456	1466	1473	1487	1487	1495	1479	1462	1453	1447	1440	0	0	0	0	0	0	0	0	0	0	0	0	0	0	0	0	0	0	0	0	1568	1559	1559	1548	1550	1557	1573	1577	1579	1585	1578	1573	1571	1586	1812	0	0	0	1816	1594	1599	1828	1829	1606	1599	1600	1599	0	0	0	1453	1418	1405	1388	1364	1374	1382	1401	1409	1409	1398	1383	1381	1378	1380	1385	1387	1380	1380	1389	1392	1384	1373	1365	1364	1374	1379	1389	1389	1386	1387	1384	1391	1399	1399	1397	1392	1388	1374	1373	1376	1384	1373	1370	1400	1412	1417	1407	1413	1411	1417	1420	1432	1453	1460	1441	1417	1409	1422	1441	1448	1480	1510	1514	1508	0	0	0	0	0	0	1665	1658	1664	1651	1653	1653	1659	1661	1669	1679	1693	1692	1696	1695	1686	1682	1670	1668	1663	1685	1701	1711	1699	1687	1682	1677	1665	1666	1655	1658	1662	1667	1668	1637	1559	1469	1448	1431	1407	1395	1392	1406	1422	1433	1432	1423	1417	1411	1413	1406	1408	1414	1414	1405	1402	1400	1405	1405	1408	1408	1407	1407	1410	1414	1408	1405	1411	1422	1436	1445	1443	1417	1406	1409	1406	1441	1446	1437	1433	1455	1517	1516	1487	1459	1451	0	0	0	0	0	0	0	0	1693	1731	1737	1741	1740	1743	1755	1761	1775	1772	1771	1753	1741	1734	1722	1701	0	0	0	0	0	0	0	0	0	0	0	0	0	0	0	0	0	0	0	0	0	0	0	0	0	0	0	0	0	0	0	0	0	0	0	0	0	0	0	0	0	0	0	0	0	0	0	0	0	0	0	0	0	0	0	0	0	0	0	0	0	0	0	1452	1416	1403	1405	1408	1413	1416	1413	1402	1385	1392	1402	1406	1408	1385	1386	1392	1398	1401	1403	1400	1391	1372	1367	1369	1372	1364	1381	1400	1390	1382	1370	1360	1377	1382	1381	1400	1398	1411	1412	1413	1412	1404	1400	1397	1382	1381	1408	1402	1397	1395	1393	1430	0	0	0	0	0	0	0	0	0	0	0	0	0	0	0	0	0	0	0	0	0	0	0	0	0	0	0	0	0	0	0	0	0	0	0	0	0	0	0	0	0	0	0	0	0	0	0	0	0	0	0	0	0	0	0	0	0	0	0	0	0	0	0	0	1723	1707	1701	1699	1696	1695	1715	1721	1703	1675	1670	1668	1668	1669	0	0	0	0	0	0	0	0	0	0	0	0	1473	1431	1419	1420	1423	1422	1422	1422	1407	1405	1407	1424	1405	1391	1394	1397	1399	1399	1406	1410	1409	1405	1409	1403	1398	1393	1393	1411	1421	1406	1398	1388	1390	1395	1388	1381	1375	1382	1392	1401	1400	1400	1383	1387	1400	1405	1401	1402	1444	1494	1524	0	0	0	0	0	0	0	0	0	0	0	0	0	0	0	0	0	0	0	0	1537	1526	1496	1477	1450	1442	1446	1427	1416	1407	1403	1394	1396	1400	1414	1424	1432	1424	1412	1403	1403	1414	1434	1459	1469	1473	1457	1425	1397	1389	1406	1421	1428	1415	1415	1422	1439	1460	1474	1472	1459	1471	1480	1466	1449	1439	1425	1417	1417	1417	1418	1420	1430	1429	1433	1433	1424	1415	1418	1422	1426	1429	1431	1431	1429	1427	1422	1422	1419	1416	1421	1426	1430	1428	1416	1416	1411	1405	1425	1433	1432	1417	1417	1410	1396	1391	1399	1402	1401	0	0	0	0	0	0	0
0	0	0	1429	1423	1421	1424	1417	1417	1411	1406	1415	1425	1445	1468	1468	1476	1477	1465	1432	1397	1389	1389	1407	1428	1446	1463	1468	1478	1486	1486	1495	1483	1478	1470	1458	1451	1444	0	0	0	0	0	0	0	0	0	0	0	0	0	0	0	0	0	0	0	1574	1563	1557	1561	1553	1558	1578	1794	1806	1585	1578	1568	1573	1578	1581	1593	1593	1592	1594	1586	1598	1600	1607	1606	1592	1591	1589	0	0	0	1455	1404	1409	1401	1380	1380	1386	1392	1397	1397	1385	1372	1368	1380	1383	1387	1389	1384	1380	1388	1392	1380	1367	1360	1358	1364	1371	1379	1384	1387	1382	1380	1384	1390	1387	1383	1374	1370	1366	1369	1373	1384	1378	1380	1407	1426	1428	1415	1412	1414	1422	1428	1440	1462	1474	1462	1433	1427	1431	1447	1468	1510	1516	1519	1501	0	0	0	0	0	0	1656	1648	1638	1635	1631	1640	1641	1642	1651	1661	1675	1682	1682	1680	1681	1685	1685	1687	1682	1680	1699	1708	1705	1698	1687	1681	1657	1648	1655	1664	1665	1660	1656	1631	1558	1472	1455	1423	1410	1405	1400	1407	1413	1421	1417	1418	1415	1416	1411	1404	1411	1419	1416	1406	1401	1397	1402	1405	1407	1404	1402	1402	1408	1410	1409	1406	1410	1419	1432	1440	1437	1427	1424	1420	1427	1461	1457	1445	1434	1444	1488	1507	1494	1466	1435	1412	0	0	0	0	0	0	1597	1660	1724	1741	1756	1758	1756	1760	1767	1773	1754	1744	1736	1730	1719	1714	1692	0	0	0	0	0	0	0	0	0	0	0	0	0	0	0	0	0	0	0	0	0	0	0	0	0	0	0	0	0	0	0	0	0	0	0	0	0	0	0	0	0	0	0	0	0	0	0	0	0	0	0	0	0	0	0	0	0	0	0	0	0	0	0	1489	1442	1411	1400	1401	1407	1401	1402	1400	1408	1397	1408	1419	1416	1396	1397	1402	1404	1404	1403	1398	1379	1370	1364	1365	1371	1373	1377	1390	1393	1374	1365	1363	1384	1388	1385	1396	1404	1407	1406	1404	1400	1396	1396	1393	1391	1388	1411	1415	1408	1401	1398	1433	1542	0	0	0	0	0	0	0	0	0	0	0	0	0	0	0	0	0	0	0	0	0	0	0	0	0	0	0	0	0	0	0	0	0	0	0	0	0	0	0	0	0	0	0	0	0	0	0	0	0	0	0	0	0	0	0	0	0	0	0	0	0	0	0	1732	1707	1701	1693	1686	1695	1727	1739	1729	1708	1675	1662	1670	0	0	0	0	0	0	0	0	0	0	0	0	0	1500	1464	1450	1436	1436	1419	1416	1410	1398	1398	1405	1420	1391	1383	1387	1396	1397	1399	1401	1408	1411	1414	1411	1409	1399	1392	1395	1411	1417	1405	1394	1385	1394	1401	1396	1383	1368	1374	1382	1385	1396	1396	1389	1394	1407	1409	1400	1392	1432	1482	1507	0	0	0	0	0	0	0	0	0	0	0	0	0	0	0	0	0	0	0	0	1527	1524	1508	1490	1463	1444	1440	1422	1410	1427	1433	1433	1425	1430	1437	1437	1432	1422	1414	1405	1401	1402	1418	1447	1460	1457	1428	1402	1397	1404	1422	1437	1440	1428	1411	1417	1437	1452	1454	1460	1459	1472	1486	1484	1467	1453	1436	1430	1422	1413	1412	1413	1418	1424	1435	1441	1435	1425	1425	1427	1432	1436	1438	1439	1433	1415	1408	1408	1408	1403	1405	1412	1420	1422	1416	1409	1406	1405	1418	1425	1417	1405	1405	1395	1390	1392	1401	1396	1397	0	0	0	0	0	0	0
0	0	0	1422	1419	1408	1413	1416	1416	1417	1404	1401	1418	1442	1469	1469	1479	1505	1492	1465	1421	1408	1408	1411	1432	1446	1460	1471	1479	1485	1485	1498	1500	1496	1485	1475	1468	0	0	0	0	0	0	0	0	0	0	0	0	0	0	0	0	0	0	0	0	1577	1559	1538	1538	1547	1560	1580	0	0	1796	1578	1566	1571	1568	1570	1562	1562	1567	1569	1579	1574	1576	1588	1585	1581	1572	1572	0	0	0	1483	1402	1403	1401	1384	1384	1385	1392	1394	1391	1383	1377	1377	1384	1386	1390	1387	1383	1384	1385	1389	1380	1371	1370	1365	1368	1372	1376	1380	1381	1381	1382	1383	1379	1371	1362	1361	1363	1368	1369	1374	1378	1380	1386	1412	1436	1429	1402	1401	1411	1421	1427	1439	1459	1484	1473	1452	1440	1445	1459	1482	1505	1512	1509	1492	1469	0	0	0	0	0	1664	1642	1635	1624	1626	1635	1631	1640	1650	1672	1669	1672	1673	1674	1676	1687	1694	1700	1693	1683	1689	1695	1696	1692	1684	1668	1649	1629	1633	1654	1658	1637	1637	1616	1539	1472	1445	1407	1407	1408	1411	1409	1413	1402	1407	1410	1411	1427	1417	1410	1420	1420	1420	1407	1402	1402	1398	1402	1404	1403	1401	1392	1392	1408	1409	1406	1411	1421	1425	1433	1433	1430	1427	1421	1424	1467	1459	1438	1430	1424	1456	1493	1491	1460	1424	1398	0	0	0	0	0	0	0	1639	1706	1739	1758	1763	1764	1756	1747	1748	1737	1720	1714	1719	1722	1714	1687	0	0	0	0	0	0	0	0	0	0	0	0	0	0	0	0	0	0	0	0	0	0	0	0	0	0	0	0	0	0	0	0	0	0	0	0	0	0	0	0	0	0	0	0	0	0	0	0	0	0	0	0	0	0	0	0	0	0	0	0	0	0	0	1519	1472	1427	1394	1386	1383	1382	1388	1394	1412	1422	1431	1429	1422	1414	1402	1405	1407	1406	1400	1396	1382	1387	1371	1375	1381	1372	1364	1371	1375	1384	1368	1375	1383	1387	1393	1396	1401	1406	1403	1400	1391	1386	1389	1396	1395	1392	1411	1417	1413	1398	1400	1445	1580	0	0	0	0	0	0	0	0	0	0	0	0	0	0	0	0	0	0	0	0	0	0	0	0	0	0	0	0	0	0	0	0	0	0	0	0	0	0	0	0	0	0	0	0	0	0	0	0	0	0	0	0	0	0	0	0	0	0	0	0	0	0	0	1741	1720	1701	1689	1673	1686	0	0	0	0	0	0	0	0	0	0	0	0	0	0	0	0	0	0	0	0	0	1488	1467	1437	1432	1417	1411	1411	1401	1406	1414	1422	1392	1383	1389	1396	1396	1398	1397	1407	1412	1416	1409	1403	1397	1396	1397	1412	1412	1403	1391	1382	1391	1399	1397	1388	1369	1368	1377	1383	1384	1392	1395	1402	1412	1404	1399	1388	1394	1437	1475	0	0	0	0	0	0	0	0	0	0	0	0	0	0	0	0	0	0	0	1515	1518	1526	1520	1494	1465	1442	1438	1429	1429	1430	1434	1438	1436	1436	1437	1434	1426	1423	1417	1414	1409	1411	1414	1419	1427	1435	1435	1426	1417	1422	1427	1430	1428	1428	1429	1417	1430	1455	1468	1458	1466	1480	1489	1482	1469	1463	1448	1433	1428	1413	1402	1402	1408	1416	1424	1442	1439	1433	1433	1435	1440	1439	1436	1435	1425	1409	1408	1408	1401	1401	1405	1408	1411	1418	1414	1404	1401	1398	1395	1397	1390	1385	1385	1382	1377	1385	1387	1388	1384	0	0	0	0	0	0	0
0	0	0	1414	1401	1392	1406	1416	1416	1419	1410	1404	1413	1436	1450	1450	1469	1487	1487	1470	1446	1423	1423	1425	1430	1446	1456	1471	1481	1482	1482	1491	1494	1498	1492	1482	1467	0	0	0	0	0	0	0	0	0	0	0	0	0	0	0	0	0	0	0	0	0	1539	1520	1517	1526	1548	1579	0	0	0	1572	1564	1568	1572	1563	1555	1557	1557	1558	1562	1554	1556	1561	1573	1561	1552	1552	0	0	0	0	1401	1392	1391	1385	1384	1383	1387	1389	1392	1384	1383	1386	1392	1393	1394	1387	1384	1380	1381	1385	1385	1379	1383	1380	1380	1378	1378	1377	1375	1379	1382	1384	1375	1362	1350	1351	1361	1371	1373	1363	1379	1376	1384	1403	1424	1419	1402	1392	1410	1420	1431	1433	1443	1458	1467	1454	1450	1448	1461	1487	1500	1493	1489	1482	1453	0	0	0	0	0	0	1654	1656	1655	1647	1652	1654	1657	1676	1690	1709	1695	1681	1674	1685	1688	1705	1704	1687	1671	1666	1673	1676	1675	1665	1652	1623	1608	1614	1620	1621	1615	1617	1600	1521	1455	1447	1407	1405	1410	1407	1414	1400	1398	1404	1410	1417	1424	1420	1405	1411	1406	1403	1410	1414	1424	1428	1412	1402	1400	1398	1399	1404	1408	1409	1410	1416	1419	1423	1426	1424	1426	1418	1411	1417	1458	1446	1430	1420	1416	1432	1480	1478	1455	1428	0	0	0	0	0	0	0	0	0	1698	1735	1758	1761	1745	1735	1718	1715	1693	1697	1707	1717	1725	1717	1689	0	0	0	0	0	0	0	0	0	0	0	0	0	0	0	0	0	0	0	0	0	0	0	0	0	0	0	0	0	0	0	0	0	0	0	0	0	0	0	0	0	0	0	0	0	0	0	0	0	0	0	0	0	0	0	0	0	0	0	0	0	0	0	1530	1482	1428	1400	1390	1385	1381	1380	1394	1414	1429	1434	1431	1420	1407	1399	1406	1406	1406	1399	1399	1401	1400	1386	1390	1384	1375	1368	1374	1380	1388	1369	1374	1383	1383	1405	1396	1403	1408	1406	1398	1383	1379	1384	1393	1391	1392	1400	1407	1411	1405	1412	1479	1606	0	0	0	0	0	0	0	0	0	0	0	0	0	0	0	0	0	0	0	0	0	0	0	0	0	0	0	0	0	0	0	0	0	0	0	0	0	0	0	0	0	0	0	0	0	0	0	0	0	0	0	0	0	0	0	0	0	0	0	0	0	0	0	0	1724	1687	1679	1658	0	0	0	0	0	0	0	0	0	0	0	0	0	0	0	0	0	0	0	0	0	0	1494	1468	1429	1420	1420	1413	1410	1417	1416	1427	1427	1401	1394	1400	1407	1414	1404	1403	1406	1411	1409	1400	1394	1394	1399	1407	1408	1408	1409	1396	1387	1391	1396	1397	1393	1376	1376	1383	1395	1396	1392	1404	1408	1411	1403	1392	1387	1387	1414	1458	0	0	0	0	0	0	0	0	0	0	0	0	0	0	0	0	0	0	0	1513	1524	1523	1519	1490	1455	1434	1425	1433	1431	1435	1440	1445	1441	1441	1434	1423	1417	1417	1420	1423	1420	1421	1425	1424	1433	1439	1440	1434	1428	1424	1426	1432	1433	1433	1436	1433	1430	1448	1464	1464	1476	1487	1482	1467	1459	1447	1433	1427	1423	1416	1400	1396	1400	1408	1416	1434	1437	1435	1436	1435	1435	1432	1426	1420	1414	1404	1404	1405	1405	1405	1411	1413	1415	1415	1407	1390	1385	1385	1386	1383	1376	1374	1374	1364	1366	1369	1378	1374	1375	0	0	0	0	0	0	0
0	0	0	1417	1401	1396	1405	1415	1415	1422	1415	1399	1404	1424	1442	1442	1451	1461	1474	1466	1453	1433	1433	1432	1435	1445	1462	1476	1479	1479	1479	1482	1485	1488	1489	1467	1456	0	0	0	0	0	0	0	0	0	0	0	0	0	0	0	0	0	0	0	0	0	0	0	0	0	0	0	0	0	0	1581	1574	0	0	0	0	0	0	0	1554	1546	1551	1547	1561	1549	1528	1527	0	0	0	0	1404	1385	1385	1384	1389	1382	1381	1382	1392	1392	1392	1394	1396	1396	1396	1390	1380	1372	1371	1375	1380	1388	1388	1396	1393	1387	1376	1372	1370	1373	1382	1382	1373	1358	1349	1350	1363	1374	1377	1369	1374	1371	1375	1399	1417	1419	1406	1410	1419	1426	1433	1431	1437	1444	1454	1454	1443	1455	1459	1475	1490	1462	1461	1470	1458	0	0	0	0	0	0	0	0	1626	1640	1650	0	1673	1688	1693	1705	1690	1686	1678	1686	1705	0	0	1704	1665	1640	1653	1655	1655	1653	1637	1600	1580	1577	1591	1600	1605	1621	1596	1512	1457	1452	1428	1405	1400	1398	1409	1398	1394	1401	1407	1414	1411	1404	1395	1389	1387	1395	1402	1424	1438	1434	1423	1413	1397	1395	1404	1407	1410	1414	1413	1415	1415	1415	1417	1413	1420	1415	1405	1407	1432	1423	1421	1414	1418	1430	1485	1475	1461	1441	0	0	0	0	0	0	0	0	0	0	0	0	0	0	0	0	0	0	1683	1713	1729	1731	1707	1664	0	0	0	0	0	0	0	0	0	0	0	0	0	0	0	0	0	0	0	0	0	0	0	0	0	0	0	0	1742	0	0	0	0	0	0	0	0	0	0	0	0	0	0	0	0	0	0	0	0	0	0	0	0	0	0	0	0	0	0	0	0	0	0	1504	1461	1411	1401	1403	1395	1393	1390	1394	1409	1426	1428	1421	1400	1384	1386	1399	1399	1404	1403	1402	1408	1389	1402	1390	1386	1388	1394	1398	1398	1396	1381	1387	1399	1403	1395	1396	1400	1403	1395	1395	1385	1380	1382	1384	1388	1387	1393	1410	1418	1416	1444	1569	1638	0	0	0	0	0	0	0	0	0	0	0	0	0	0	0	0	0	0	0	0	0	0	0	0	0	0	0	0	0	0	0	0	0	0	0	0	0	0	0	0	0	0	0	0	0	0	0	0	0	0	0	0	0	0	0	0	0	0	0	0	0	0	0	0	0	1680	1647	0	0	0	0	0	0	0	0	0	0	0	0	0	0	0	0	0	0	0	0	0	0	0	1473	1453	1427	1407	1414	1425	1423	1421	1431	1433	1427	1394	1391	1411	1420	1424	1414	1409	1409	1405	1398	1391	1387	1394	1405	1406	1409	1402	1408	1400	1391	1389	1397	1402	1400	1395	1396	1403	1408	1406	1406	1408	1408	1407	1397	1381	1374	1383	1407	1447	0	0	0	0	0	0	0	0	0	0	0	0	0	0	0	0	0	0	0	1527	1525	1520	1508	1477	1443	1416	1422	1437	1435	1436	1444	1455	1452	1448	1434	1424	1418	1414	1421	1429	1435	1433	1429	1428	1434	1443	1451	1448	1441	1440	1444	1436	1434	1435	1437	1438	1438	1454	1459	1456	1470	1483	1458	1434	1435	1429	1417	1412	1416	1416	1410	1402	1400	1403	1409	1422	1429	1430	1428	1432	1432	1431	1423	1416	1404	1398	1398	1397	1405	1413	1416	1421	1418	1414	1393	1384	1380	1383	1386	1380	1378	1376	1376	1367	1368	1371	1378	1373	1371	0	0	0	0	0	0	0
