0	0	0	1412	1397	1373	1363	1363	1370	1378	1382	1395	1395	1395	1401	1405	1407	1415	1418	1409	1409	1410	1413	1413	1406	1389	1370	1357	1357	1356	1367	1393	1411	1414	1410	1392	1382	1372	1372	1377	1383	1401	1415	1415	1399	1383	1379	1388	1401	1413	1413	1425	1427	1431	1428	1434	1428	1438	1453	1452	1447	1439	1433	1428	1431	1435	1432	1416	1419	1429	1429	1431	1431	1425	1427	1436	1443	1443	1429	1432	1430	1428	1429	1425	1423	1421	1422	1420	1418	1421	1424	1435	1439	1430	1421	1421	1430	1447	1450	1456	1464	1447	1397	1387	1386	1389	1386	1377	1378	1382	1384	1382	1388	1391	1396	1396	1396	1389	1378	1376	1374	1383	1378	1366	1358	1349	1340	1342	1346	1354	1371	1374	1371	1374	1377	1372	1372	1377	1385	1395	1400	1398	1396	1388	1374	1370	1372	1376	1367	1377	1380	1398	0	0	0	0	0	0	0	0	0	0	0	0	0	0	0	0	0	0	0	0	0	0	0	0	0	0	0	0	0	0	1619	1623	1650	1660	1680	1654	1648	1643	1625	0	0	0	0	1419	1414	1381	1367	1360	1354	1341	1342	1344	1338	1350	1347	1343	1345	1359	1366	1367	1361	1354	1350	1344	1348	1361	1369	1375	1373	1371	1373	1367	1360	1366	1373	1374	1371	1369	1366	1367	1372	1385	1385	1375	1363	1348	1341	1346	1359	1373	1387	1383	1375	1373	1377	1378	1374	1355	1341	1342	1352	1355	1351	1334	1332	1336	1347	1356	1364	1359	1353	1346	1340	1335	1341	1353	1369	1373	1367	1364	1369	1379	1370	1364	1359	1349	1346	1346	1350	1364	1362	1356	1350	1351	1360	1372	1370	1363	1357	1354	1354	1362	1373	1385	1389	1386	1373	1356	1349	1350	1351	1358	1349	1343	1349	1351	1363	1360	1353	1352	1355	1357	1364	1366	1360	1351	1333	1330	1325	1335	1339	1350	1363	1366	1361	1356	1338	1333	1338	1349	1357	1364	1359	1353	1348	1346	1349	1347	1345	1348	1345	1350	1357	1363	1368	1366	1369	1363	1356	1349	1354	1336	1331	1339	1338	1333	1346	1352	1349	1348	1353	1357	1360	1358	1350	1344	1339	1338	1346	1356	1361	1372	1379	1364	1365	1363	1352	1355	1361	1364	1363	1369	1382	1389	1379	1359	1339	1332	1331	1333	1338	1350	1354	1351	1340	1344	1350	1363	1377	1381	1369	1342	1341	1349	1355	1361	1359	1351	1346	1342	1350	1357	1364	1367	1365	1356	1349	1350	1345	1343	1348	1341	1338	1334	1337	1345	1348	1342	1340	1347	1361	1369	1363	1363	1357	1356	1350	1352	1362	1361	1355	1354	1352	1349	1347	1343	1344	1351	1356	1348	1340	1334	1333	1338	1350	1348	1341	1329	1326	1323	1328	1335	1338	1338	1342	1359	1372	1382	1386	1388	1377	1362	1351	1352	1356	1356	1352	1344	1344	1345	1339	1331	1328	1329	1339	1368	1376	1373	1365	1384	1394	1398	1379	1358	1346	1342	1339	1334	1329	1342	1352	1366	1369	1365	1354	1350	1343	1339	1333	1332	1330	1332	1333	1374	0	0	0	0	0	0	0	0	0	0	0	0	0	0	0	0	0	0	0	0	0	0	0	0	0	0	1496	1458	1440	1440	1447	1430	1417	1413	1435	1457	1447	1440	1423	1406	1405	1412	1429	1439	1439	1429	1424	1420	1418	1422	1430	1437	1436	1426	1421	1422	1427	1429	1424	1417	1428	1456	1461	1454	1455	0	0	0	0	0	0	1472	1456	1457	1462	1460	1456	1429	1395	1389	1394	1406	1412	1416	1426	1439	1449	1440	1399	1377	1372	1365	1391	1380	1370	1370	1379	1379	1388	1378	1371	1366	1370	1375	1376	1371	1367	1366	1366	1363	1352	1359	1359	1365	1380	1384	1379	0	0	0	0	0	0	0
0	0	0	1399	1378	1376	1370	1370	1367	1376	1380	1396	1406	1406	1411	1410	1407	1412	1406	1404	1404	1406	1420	1415	1403	1380	1367	1366	1366	1367	1385	1399	1415	1421	1415	1398	1385	1378	1378	1375	1388	1404	1406	1408	1397	1384	1388	1394	1399	1410	1410	1420	1426	1428	1427	1432	1433	1445	1455	1452	1437	1438	1433	1432	1430	1430	1419	1406	1416	1421	1421	1424	1422	1420	1422	1428	1438	1443	1449	1442	1440	1439	1436	1434	1431	1431	1425	1423	1417	1421	1432	1442	1445	1439	1421	1412	1420	1426	1436	1451	1452	1439	1405	1395	1389	1384	1380	1380	1383	1386	1393	1385	1388	1389	1391	1394	1396	1392	1383	1375	1375	1379	1376	1373	1368	1366	1358	1349	1351	1364	1375	1378	1379	1383	1380	1376	1374	1377	1387	1396	1394	1387	1387	1383	1380	1382	1387	1393	1360	1364	1363	0	0	0	0	0	0	0	0	0	0	0	0	0	0	0	0	0	0	0	0	0	0	0	0	0	0	0	0	0	0	0	1636	1625	1641	1658	1672	1654	1650	1647	1586	1601	0	0	0	1420	1390	1370	1367	1367	1352	1336	1322	1322	1326	1341	1342	1336	1348	1357	1367	1357	1350	1346	1341	1341	1343	1353	1365	1372	1374	1364	1371	1369	1369	1374	1376	1374	1373	1372	1373	1373	1381	1387	1389	1377	1373	1357	1345	1345	1355	1371	1388	1382	1372	1371	1377	1386	1383	1363	1353	1348	1355	1359	1347	1341	1341	1348	1351	1355	1350	1347	1350	1346	1344	1338	1342	1353	1369	1376	1374	1371	1373	1379	1373	1365	1360	1358	1356	1354	1356	1363	1358	1347	1340	1352	1366	1377	1375	1362	1354	1347	1347	1364	1373	1386	1387	1381	1359	1353	1347	1350	1357	1353	1347	1337	1346	1353	1361	1358	1358	1358	1355	1359	1359	1359	1353	1345	1335	1329	1325	1333	1342	1354	1364	1366	1358	1350	1336	1349	1352	1356	1363	1364	1359	1354	1350	1351	1351	1350	1348	1348	1349	1353	1358	1363	1364	1362	1359	1356	1347	1334	1329	1326	1325	1346	1358	1359	1352	1351	1355	1353	1359	1361	1363	1358	1355	1350	1348	1346	1350	1354	1362	1379	1377	1374	1367	1363	1350	1348	1358	1360	1362	1370	1377	1377	1369	1358	1345	1337	1333	1330	1336	1346	1352	1349	1343	1342	1350	1370	1384	1386	1374	1334	1325	1332	1343	1353	1361	1353	1353	1348	1351	1354	1363	1365	1366	1353	1345	1340	1339	1335	1341	1345	1342	1343	1342	1341	1348	1344	1338	1350	1367	1379	1363	1349	1339	1340	1343	1347	1352	1351	1343	1339	1342	1343	1343	1341	1345	1352	1357	1351	1342	1331	1337	1334	1342	1349	1349	1340	1338	1334	1337	1343	1346	1346	1351	1363	1379	1384	1386	1384	1371	1355	1343	1339	1347	1350	1350	1349	1346	1348	1337	1322	1317	1321	1334	1367	1373	1368	1356	1370	1390	1402	1390	1369	1362	1359	1345	1337	1332	1342	1354	1361	1363	1361	1355	1353	1353	1351	1349	1348	1339	1339	1340	1361	0	0	0	0	0	0	0	0	0	0	0	0	0	0	0	0	0	0	0	0	0	0	0	0	0	0	1508	1472	1457	1454	1455	1438	1427	1418	1441	1457	1450	1442	1430	1419	1414	1424	1438	1446	1441	1430	1417	1403	1403	1408	1422	1434	1441	1436	1432	1431	1434	1437	1426	1421	1431	1452	1454	1440	1463	0	0	0	0	0	0	1490	1470	1461	1453	1439	1430	1415	1400	1403	1407	1419	1423	1418	1424	1428	1431	1429	1403	1377	1367	1356	1391	1379	1373	1371	1387	1387	1394	1382	1372	1365	1368	1373	1368	1363	1354	1366	1368	1363	1364	1362	1362	1362	1368	1379	1390	0	0	0	0	0	0	0
0	0	0	1383	1374	1382	1378	1378	1371	1375	1386	1403	1413	1413	1414	1409	1413	1410	1406	1403	1403	1405	1412	1408	1387	1377	1370	1372	1372	1375	1391	1404	1416	1423	1414	1400	1386	1377	1377	1380	1389	1400	1404	1405	1402	1395	1394	1394	1396	1404	1404	1425	1434	1420	1414	1416	1431	1440	1451	1443	1428	1426	1429	1447	1445	1434	1418	1409	1406	1409	1409	1412	1410	1407	1409	1423	1441	1449	1457	1450	1444	1439	1443	1445	1442	1437	1433	1429	1423	1429	1445	1451	1453	1439	1424	1414	1407	1410	1428	1444	1443	1433	1410	1406	1398	1384	1378	1381	1384	1386	1392	1390	1388	1388	1389	1387	1390	1386	1382	1372	1370	1375	1379	1379	1379	1379	1369	1365	1363	1365	1372	1381	1383	1386	1382	1378	1378	1379	1385	1388	1387	1380	1381	1383	1387	1393	1405	1408	1380	1355	1349	0	0	0	0	0	0	0	0	0	0	0	0	0	0	0	0	0	0	0	0	0	0	0	0	0	0	0	0	0	0	0	1636	1631	1637	1648	1653	1648	1651	1643	1603	1590	0	0	0	1415	1381	1372	1376	1374	1363	1338	1328	1326	1323	1336	1330	1330	1350	1360	1371	1368	1355	1344	1339	1336	1336	1333	1357	1370	1370	1358	1360	1353	1360	1369	1370	1370	1366	1365	1365	1368	1373	1375	1372	1377	1373	1364	1356	1352	1357	1371	1387	1379	1366	1364	1369	1375	1373	1360	1352	1354	1360	1358	1349	1342	1348	1352	1353	1349	1337	1342	1344	1347	1353	1356	1355	1365	1375	1389	1394	1387	1381	1379	1374	1364	1360	1355	1356	1370	1366	1363	1352	1339	1335	1349	1366	1377	1369	1363	1355	1353	1353	1363	1372	1377	1369	1365	1356	1351	1351	1356	1354	1356	1347	1337	1339	1352	1357	1358	1352	1361	1361	1359	1360	1359	1352	1342	1333	1329	1328	1334	1347	1355	1362	1357	1358	1354	1350	1350	1355	1360	1366	1372	1362	1361	1359	1356	1352	1350	1353	1349	1350	1357	1364	1366	1361	1356	1351	1352	1345	1336	1337	1330	1329	1354	1376	1367	1360	1357	1357	1355	1359	1364	1367	1364	1359	1356	1354	1350	1354	1355	1364	1364	1373	1375	1368	1359	1348	1348	1353	1357	1358	1363	1366	1366	1361	1357	1353	1347	1338	1327	1336	1344	1347	1344	1338	1338	1344	1369	1383	1379	1367	1334	1323	1328	1336	1349	1361	1355	1350	1348	1346	1352	1349	1363	1363	1354	1342	1337	1336	1335	1340	1349	1354	1351	1351	1349	1351	1351	1350	1355	1375	1371	1349	1335	1329	1333	1337	1342	1344	1342	1335	1332	1335	1340	1345	1344	1349	1360	1355	1347	1342	1338	1340	1341	1349	1352	1357	1351	1348	1345	1342	1340	1344	1355	1357	1367	1381	1392	1391	1387	1367	1348	1341	1333	1344	1347	1350	1353	1350	1346	1339	1322	1313	1313	1329	1354	1360	1363	1369	1374	1393	1393	1383	1377	1377	1369	1359	1349	1343	1345	1352	1356	1354	1358	1354	1352	1355	1360	1364	1363	1358	1350	1346	1353	0	0	0	0	0	0	0	0	0	0	0	0	0	0	0	0	0	0	0	0	0	0	0	0	0	0	1508	1492	1496	1488	1482	1462	1440	1439	1442	1441	1444	1440	1433	1424	1424	1436	1441	1443	1436	1425	1412	1400	1388	1393	1410	1425	1436	1439	1439	1437	1436	1440	1431	1426	1429	1439	1440	1430	1456	0	0	0	0	0	0	1507	1488	1458	1443	1424	1417	1411	1414	1416	1418	1428	1428	1429	1415	1405	1398	1409	1397	1377	1384	1379	1376	1388	1382	1382	1397	1397	1395	1375	1370	1371	1373	1372	1363	1355	1361	1368	1374	1379	1374	1369	1369	1364	1365	1375	1383	0	0	0	0	0	0	0
0	0	0	1374	1385	1398	1389	1389	1377	1377	1391	1403	1410	1410	1415	1418	1415	1415	1406	1403	1403	1404	1404	1390	1384	1382	1380	1382	1382	1388	1399	1409	1417	1418	1409	1402	1389	1382	1382	1384	1390	1397	1409	1411	1408	1406	1403	1400	1396	1413	1413	1425	1427	1425	1401	1407	1427	1430	1431	1435	1428	1426	1435	1457	1463	1443	1424	1414	1407	1408	1408	1404	1407	1403	1407	1422	1443	1456	1457	1448	1439	1436	1446	1456	1449	1442	1436	1428	1430	1435	1446	1455	1456	1446	1439	1413	1404	1401	1419	1441	1438	1428	1414	1404	1396	1393	1381	1379	1380	1382	1385	1384	1380	1383	1382	1383	1391	1394	1385	1374	1372	1372	1379	1384	1385	1381	1371	1360	1355	1364	1369	1371	1376	1379	1379	1381	1378	1381	1380	1384	1381	1381	1383	1386	1392	1397	1408	1405	1399	1368	1345	0	0	0	0	0	0	0	0	0	0	0	0	0	0	0	0	0	0	0	0	0	0	0	0	0	0	0	0	0	0	0	1638	1642	1638	1639	1641	1636	1645	1639	1653	1600	0	0	0	1412	1380	1387	1390	1384	1365	1345	1339	1339	1338	1340	1343	1340	1349	1363	1374	1379	1373	1356	1334	1332	1329	1332	1352	1367	1366	1339	1344	1356	1366	1366	1362	1358	1357	1358	1357	1360	1356	1353	1350	1359	1371	1375	1365	1364	1371	1377	1386	1378	1371	1368	1366	1363	1363	1358	1362	1365	1366	1359	1348	1343	1349	1345	1338	1334	1333	1337	1346	1353	1362	1366	1362	1365	1378	1390	1395	1395	1386	1380	1377	1360	1348	1348	1351	1365	1372	1366	1351	1336	1337	1347	1363	1369	1365	1361	1356	1352	1357	1365	1374	1368	1361	1357	1357	1359	1358	1361	1361	1357	1345	1340	1344	1350	1351	1344	1351	1356	1363	1361	1362	1361	1355	1344	1338	1333	1339	1347	1356	1360	1362	1356	1355	1352	1351	1348	1345	1366	1383	1382	1379	1364	1365	1360	1355	1355	1353	1354	1352	1361	1369	1372	1364	1356	1356	1360	1362	1359	1348	1335	1335	1372	1370	1364	1368	1364	1357	1351	1358	1368	1373	1370	1367	1360	1360	1364	1369	1369	1369	1373	1375	1379	1371	1364	1345	1342	1347	1356	1350	1355	1355	1359	1362	1360	1356	1348	1336	1331	1332	1333	1341	1339	1336	1339	1345	1361	1378	1372	1359	1344	1328	1325	1336	1348	1353	1348	1338	1339	1347	1350	1352	1356	1354	1351	1339	1336	1337	1338	1339	1351	1355	1361	1360	1358	1358	1353	1359	1362	1360	1362	1345	1332	1327	1330	1338	1342	1343	1341	1333	1332	1335	1341	1346	1350	1361	1366	1371	1362	1349	1343	1344	1354	1363	1365	1363	1356	1348	1345	1346	1347	1350	1356	1360	1369	1381	1390	1385	1378	1359	1353	1348	1344	1345	1352	1357	1348	1347	1353	1339	1331	1324	1322	1333	1355	1366	1373	1381	1386	1387	1381	1375	1375	1383	1378	1367	1363	1364	1355	1354	1352	1354	1355	1348	1346	1347	1355	1363	1369	1365	1360	1356	1356	0	0	0	0	0	0	0	0	0	0	0	0	0	0	0	0	0	0	0	0	0	0	0	0	0	0	0	1495	1505	1491	1485	1472	1468	1454	1445	1429	1438	1438	1436	1438	1439	1448	1449	1443	1437	1423	1413	1403	1393	1396	1405	1420	1431	1434	1437	1436	1432	1434	1439	1441	1441	1442	1431	1415	1450	0	0	0	0	0	1514	1502	1477	1451	1417	1410	1418	1427	1441	1437	1432	1430	1430	1419	1411	1393	1386	1386	1387	1400	1403	1402	1381	1395	1382	1386	1394	1394	1390	1380	1369	1375	1374	1375	1364	1362	1381	1386	1378	1382	1380	1377	1377	1366	1361	1366	1384	0	0	0	0	0	0	0
0	0	0	1397	1398	1396	1385	1385	1372	1373	1389	1394	1402	1402	1407	1423	1429	1422	1420	1418	1418	1406	1403	1394	1386	1388	1392	1390	1390	1383	1398	1410	1417	1419	1415	1411	1397	1390	1390	1390	1386	1401	1414	1411	1411	1407	1407	1401	1406	1409	1409	1419	1421	1419	1399	1399	1401	1399	1409	1427	1429	1426	1438	1457	1467	1454	1431	1419	1410	1405	1405	1409	1419	1418	1414	1428	1448	1455	1457	1439	1426	1424	1437	1454	1444	1434	1430	1428	1425	1438	1446	1452	1452	1441	1434	1421	1404	1410	1421	1428	1435	1424	1415	1401	1393	1386	1372	1374	1374	1375	1374	1370	1370	1371	1375	1381	1391	1395	1391	1378	1374	1376	1377	1378	1375	1368	1361	1356	1347	1355	1355	1359	1361	1372	1377	1374	1374	1374	1375	1375	1377	1382	1389	1383	1394	1396	1401	1400	1407	1376	1367	0	0	0	0	0	0	0	0	0	0	0	0	0	0	0	0	0	0	0	0	0	0	0	0	0	0	0	0	0	0	0	1657	1661	1647	1639	1636	1619	1628	1669	1661	1618	0	0	0	1420	1396	1395	1393	1382	1360	1348	1344	1345	1348	1352	1355	1350	1358	1367	1380	1387	1384	1358	1338	1327	1326	1340	1353	1361	1367	1346	1341	1357	1365	1363	1355	1352	1356	1357	1360	1354	1348	1339	1341	1361	1375	1387	1384	1374	1375	1384	1384	1385	1380	1375	1370	1366	1361	1365	1371	1373	1368	1355	1350	1351	1350	1345	1333	1329	1327	1340	1349	1357	1361	1363	1361	1362	1371	1385	1390	1389	1390	1380	1370	1353	1342	1342	1357	1376	1380	1372	1359	1353	1357	1358	1365	1363	1360	1360	1356	1356	1356	1365	1373	1370	1364	1357	1351	1358	1364	1368	1365	1353	1344	1342	1347	1352	1347	1348	1352	1360	1363	1365	1358	1363	1354	1345	1341	1341	1353	1362	1367	1370	1369	1358	1358	1359	1357	1351	1355	1362	1385	1392	1382	1377	1370	1366	1362	1357	1356	1353	1354	1357	1364	1372	1377	1375	1372	1368	1371	1370	1364	1346	1343	1370	1359	1360	1364	1358	1357	1352	1354	1360	1371	1375	1373	1368	1368	1376	1380	1379	1377	1377	1383	1379	1373	1363	1358	1351	1356	1357	1351	1353	1350	1349	1360	1364	1358	1345	1329	1324	1329	1329	1337	1344	1346	1348	1354	1364	1368	1361	1354	1355	1360	1355	1348	1344	1343	1338	1331	1340	1338	1343	1342	1344	1349	1347	1337	1333	1337	1337	1340	1345	1359	1367	1368	1366	1369	1372	1370	1374	1369	1364	1349	1340	1332	1332	1341	1344	1347	1343	1334	1330	1335	1346	1353	1354	1363	1372	1370	1365	1356	1354	1351	1364	1374	1372	1362	1353	1341	1338	1334	1348	1357	1362	1364	1367	1378	1381	1378	1368	1357	1357	1351	1355	1355	1361	1364	1362	1361	1354	1344	1340	1334	1336	1348	1364	1377	1381	1384	1388	1381	1370	1367	1371	1379	1371	1369	1376	1386	1378	1365	1356	1363	1359	1352	1346	1347	1352	1358	1362	1360	1362	1370	1371	0	0	0	0	0	0	0	0	0	0	0	0	0	0	0	0	0	0	0	0	0	0	0	0	0	0	0	1495	1499	1492	1487	1480	1485	1477	1458	1423	1435	1435	1438	1444	1449	1454	1451	1444	1436	1426	1421	1413	1407	1406	1412	1423	1430	1433	1435	1431	1418	1426	1435	1451	1452	1455	1436	1410	1436	0	0	0	0	0	1504	1487	1468	1424	1407	1409	1428	1454	1464	1451	1438	1430	1427	1418	1400	1390	1381	1373	1385	1400	1395	1394	1393	1387	1378	1378	1388	1388	1379	1378	1378	1385	1379	1369	1359	1371	1386	1390	1387	1381	1372	1381	1381	1376	1374	1368	1371	0	0	0	0	0	0	0
0	0	0	1390	1390	1389	1378	1378	1370	1366	1382	1389	1392	1392	1397	1404	1420	1423	1430	1421	1421	1415	1407	1405	1400	1403	1400	1382	1382	1383	1395	1410	1422	1419	1421	1423	1420	1412	1412	1399	1396	1408	1415	1416	1410	1405	1403	1400	1401	1407	1407	1410	1411	1414	1411	1389	1382	1380	1403	1419	1435	1421	1424	1442	1460	1457	1450	1426	1413	1410	1410	1421	1428	1418	1418	1428	1444	1456	1449	1433	1418	1423	1426	1432	1433	1426	1421	1421	1425	1431	1434	1436	1433	1435	1434	1424	1415	1417	1419	1423	1425	1426	1411	1395	1382	1370	1367	1377	1376	1375	1373	1368	1362	1368	1374	1381	1386	1387	1382	1378	1379	1375	1373	1368	1363	1360	1353	1347	1342	1345	1353	1350	1357	1372	1377	1374	1371	1362	1363	1366	1373	1386	1390	1395	1393	1391	1394	1388	1390	1397	1393	1414	0	0	0	0	0	0	0	0	0	0	0	0	0	0	0	0	0	0	0	0	0	0	0	0	0	0	0	0	0	0	1676	1687	1673	1662	1646	1639	1617	1624	1640	1644	0	0	0	1411	1386	1377	1379	1377	1360	1348	1346	1349	1353	1371	1371	1368	1370	1374	1385	1389	1384	1375	1361	1350	1346	1352	1355	1364	1360	1356	1352	1357	1358	1363	1351	1347	1363	1364	1368	1364	1351	1347	1350	1360	1378	1388	1387	1374	1375	1378	1382	1386	1386	1387	1385	1376	1374	1376	1375	1372	1358	1354	1351	1349	1348	1342	1339	1336	1335	1343	1347	1363	1368	1367	1362	1364	1368	1378	1384	1383	1383	1388	1371	1351	1337	1344	1360	1376	1385	1376	1363	1358	1362	1365	1364	1365	1361	1360	1355	1353	1355	1360	1374	1375	1365	1355	1344	1352	1359	1364	1362	1352	1347	1351	1356	1355	1350	1352	1359	1366	1367	1367	1360	1358	1351	1343	1350	1357	1365	1379	1383	1380	1368	1359	1358	1356	1358	1354	1357	1374	1389	1398	1389	1376	1371	1369	1365	1359	1355	1353	1352	1354	1360	1371	1379	1382	1377	1373	1368	1367	1359	1353	1351	1355	1368	1360	1362	1355	1355	1343	1341	1346	1357	1367	1372	1375	1378	1380	1385	1382	1377	1379	1387	1388	1379	1377	1378	1370	1365	1364	1363	1358	1357	1356	1364	1364	1360	1343	1321	1320	1325	1330	1336	1361	1365	1362	1364	1368	1369	1359	1351	1360	1363	1357	1350	1350	1347	1346	1339	1349	1355	1346	1343	1340	1344	1341	1336	1336	1339	1342	1341	1339	1360	1368	1372	1371	1371	1375	1377	1374	1370	1366	1358	1344	1335	1338	1345	1350	1350	1346	1343	1331	1335	1348	1356	1360	1364	1370	1366	1368	1362	1371	1377	1369	1364	1363	1359	1347	1335	1330	1335	1350	1371	1388	1380	1379	1383	1380	1372	1367	1364	1364	1367	1366	1366	1371	1376	1370	1369	1361	1353	1349	1350	1357	1363	1379	1390	1392	1383	1383	1381	1371	1365	1365	1372	1373	1373	1380	1397	1397	1381	1375	1369	1367	1360	1359	1349	1345	1357	1360	1362	1373	1380	1383	1375	0	0	0	0	0	0	0	0	0	0	0	0	0	0	0	0	0	0	0	0	0	0	0	0	0	0	1503	1501	1491	1485	1484	1483	1480	1460	1426	1432	1434	1440	1448	1451	1458	1451	1444	1438	1423	1418	1415	1416	1418	1429	1433	1437	1435	1430	1421	1415	1421	1431	1446	1457	1462	1449	1412	1421	0	0	0	0	1497	1498	1481	1430	1404	1408	1423	1444	1468	1477	1464	1450	1438	1427	1419	1409	1389	1377	1369	1380	1388	1395	1397	1400	1379	1366	1388	1384	1384	1378	1379	1381	1382	1376	1362	1366	1377	1384	1385	1382	1371	1371	1381	1381	1382	1379	1372	1367	0	0	0	0	0	0	0
0	0	0	1381	1381	1380	1362	1362	1365	1371	1386	1399	1399	1399	1402	1409	1403	1419	1418	1415	1415	1415	1412	1411	1412	1410	1398	1392	1392	1391	1397	1406	1413	1415	1422	1431	1443	1437	1437	1418	1406	1404	1414	1416	1412	1404	1398	1396	1394	1403	1403	1406	1410	1410	1411	1388	1384	1380	1402	1426	1436	1426	1419	1420	1445	1461	1448	1420	1407	1401	1401	1422	1418	1418	1419	1425	1439	1450	1450	1430	1421	1421	1422	1425	1426	1422	1414	1415	1419	1425	1426	1434	1432	1434	1438	1443	1435	1431	1424	1428	1428	1420	1413	1401	1385	1374	1368	1375	1380	1380	1379	1371	1367	1367	1369	1385	1383	1376	1376	1379	1379	1376	1372	1361	1356	1353	1351	1344	1341	1349	1359	1359	1364	1376	1381	1376	1365	1359	1355	1361	1370	1381	1393	1390	1390	1383	1382	1375	1377	1376	1399	1438	0	0	0	0	0	0	0	0	0	0	0	0	0	0	0	0	0	0	0	0	0	0	0	0	0	0	0	0	0	0	0	1689	1671	1657	1638	1648	1651	1668	1645	0	0	0	0	1407	1347	1358	1363	1373	1362	1352	1352	1355	1357	1372	1381	1383	1382	1381	1381	1387	1385	1384	1372	1364	1361	1361	1363	1363	1366	1359	1356	1354	1362	1367	1364	1359	1370	1376	1381	1374	1365	1359	1357	1364	1372	1377	1378	1371	1368	1372	1377	1382	1388	1390	1388	1382	1378	1377	1370	1365	1361	1358	1353	1349	1345	1343	1342	1350	1354	1355	1354	1368	1375	1375	1371	1371	1376	1377	1376	1373	1379	1401	1398	1372	1348	1348	1354	1370	1377	1369	1368	1361	1363	1366	1371	1363	1358	1357	1355	1355	1349	1360	1372	1381	1370	1358	1348	1345	1362	1364	1364	1358	1353	1360	1363	1359	1356	1362	1366	1369	1363	1365	1365	1362	1360	1363	1361	1365	1376	1391	1397	1388	1378	1371	1365	1366	1364	1369	1368	1380	1386	1388	1381	1377	1374	1377	1370	1365	1359	1353	1351	1358	1363	1372	1381	1384	1380	1375	1370	1364	1349	1362	1356	1369	1377	1380	1361	1358	1356	1357	1352	1361	1375	1382	1387	1377	1377	1383	1386	1386	1379	1378	1387	1385	1389	1388	1391	1385	1382	1380	1371	1371	1379	1387	1394	1391	1374	1356	1341	1337	1342	1350	1367	1379	1380	1384	1393	1389	1380	1373	1367	1359	1362	1364	1364	1366	1363	1356	1350	1356	1358	1359	1359	1362	1361	1363	1360	1365	1376	1371	1368	1353	1352	1361	1368	1363	1356	1342	1348	1348	1354	1363	1365	1360	1361	1359	1358	1359	1362	1366	1369	1365	1368	1371	1372	1361	1363	1362	1359	1354	1358	1370	1370	1353	1339	1343	1350	1357	1356	1349	1345	1361	1379	1399	1414	1410	1395	1378	1376	1371	1376	1378	1382	1380	1380	1379	1385	1385	1381	1370	1362	1362	1366	1375	1380	1397	1404	1393	1388	1381	1380	1380	1377	1373	1372	1376	1377	1381	1395	1398	1398	1391	1384	1377	1368	1359	1346	1350	1357	1366	1370	1376	1381	1388	1366	0	0	0	0	0	0	0	0	0	0	0	0	0	0	0	0	0	0	0	0	0	0	0	0	0	0	1521	1501	1485	1486	1478	1487	1485	1466	1432	1436	1437	1442	1442	1445	1444	1447	1444	1434	1419	1412	1415	1419	1434	1435	1438	1435	1433	1431	1421	1414	1415	1428	1444	1454	1452	1456	1431	1423	1444	0	0	1470	1474	1470	1462	1431	1421	1413	1433	1457	1481	1479	1458	1444	1434	1432	1425	1408	1393	1381	1380	1382	1385	1391	1396	1383	1370	1375	1395	1407	1407	1397	1392	1394	1386	1371	1366	1371	1379	1387	1384	1373	1367	1379	1398	1398	1398	1386	1373	1370	0	0	0	0	0	0	0
0	0	0	1369	1375	1366	1358	1358	1355	1363	1376	1397	1405	1405	1399	1396	1394	1402	1402	1399	1399	1388	1394	1403	1414	1408	1399	1391	1391	1398	1399	1397	1411	1419	1431	1443	1455	1451	1451	1439	1419	1404	1399	1401	1409	1410	1409	1414	1399	1399	1399	1404	1412	1412	1390	1387	1388	1395	1403	1418	1434	1436	1433	1421	1429	1446	1432	1413	1404	1407	1407	1420	1421	1412	1404	1416	1425	1434	1430	1422	1406	1396	1408	1419	1417	1410	1406	1417	1429	1443	1453	1441	1434	1430	1427	1432	1436	1438	1436	1436	1438	1432	1421	1416	1406	1382	1362	1358	1374	1389	1381	1375	1374	1383	1387	1389	1371	1357	1361	1371	1374	1369	1367	1363	1366	1368	1370	1363	1356	1359	1379	1395	1378	1385	1381	1377	1367	1358	1353	1357	1367	1387	1375	1367	1361	1358	1362	1369	1370	1396	1431	0	0	0	0	0	0	0	0	0	0	0	0	0	0	0	0	0	0	0	0	0	0	0	0	0	0	0	0	0	0	0	0	0	1652	1614	1594	1584	1590	1602	0	0	0	0	0	1405	1342	1354	1370	1381	1371	1364	1360	1360	1357	1370	1385	1388	1385	1382	1385	1384	1389	1395	1398	1394	1386	1379	1374	1369	1375	1376	1374	1372	1373	1378	1374	1370	1376	1392	1392	1385	1378	1370	1366	1359	1356	1359	1364	1375	1375	1374	1389	1391	1390	1389	1394	1390	1384	1376	1365	1364	1366	1364	1358	1352	1349	1343	1346	1360	1368	1374	1381	1377	1385	1394	1399	1403	1390	1381	1376	1371	1382	1411	1405	1397	1381	1373	1375	1381	1387	1381	1377	1371	1372	1368	1364	1358	1356	1362	1370	1369	1373	1384	1384	1376	1374	1367	1363	1356	1367	1369	1365	1370	1367	1372	1369	1363	1367	1368	1368	1364	1360	1364	1368	1378	1383	1387	1388	1397	1397	1406	1411	1398	1385	1381	1376	1378	1372	1372	1377	1379	1381	1381	1379	1380	1380	1378	1377	1368	1360	1351	1355	1363	1373	1380	1388	1389	1386	1380	1374	1369	1357	1334	1369	1372	1388	1382	1371	1365	1362	1358	1357	1367	1379	1387	1387	1374	1371	1382	1387	1386	1376	1373	1382	1392	1395	1398	1398	1390	1378	1376	1366	1372	1386	1394	1401	1399	1382	1367	1350	1349	1350	1356	1368	1379	1381	1389	1397	1396	1388	1375	1368	1358	1361	1363	1362	1370	1367	1352	1346	1352	1364	1374	1372	1372	1374	1372	1374	1375	1381	1383	1380	1364	1354	1362	1367	1359	1352	1339	1341	1347	1356	1362	1364	1367	1365	1362	1359	1362	1365	1368	1378	1377	1379	1379	1374	1367	1368	1369	1362	1356	1356	1368	1365	1347	1342	1348	1359	1371	1372	1365	1362	1373	1394	1414	1430	1418	1402	1382	1379	1376	1381	1390	1394	1398	1391	1385	1387	1388	1389	1379	1373	1376	1386	1393	1397	1417	1419	1409	1395	1375	1375	1389	1386	1380	1379	1378	1377	1381	1386	1399	1401	1396	1395	1382	1368	1361	1350	1348	1362	1373	1381	1386	1387	1384	1386	1384	1389	1409	1404	0	0	0	0	0	0	0	0	0	0	0	0	0	0	0	0	0	0	0	0	0	0	0	1486	1469	1467	1468	1482	1479	1460	1452	1445	1449	1451	1448	1438	1434	1433	1433	1428	1424	1416	1413	1414	1424	1433	1444	1458	1458	1452	1432	1423	1426	1429	1433	1431	1445	1444	1442	1439	1450	1459	1460	1456	1458	1458	1448	1444	1442	1446	1454	1461	1469	1464	1450	1441	1426	1419	1422	1424	1414	1398	1394	1395	1394	1396	1388	1381	1377	1385	1408	1415	1415	1412	1407	1402	1391	1374	1369	1375	1387	1392	1394	1388	1385	1390	1409	1409	1418	1413	1403	1396	0	0	0	0	0	0	0
0	0	0	1388	0	0	1366	1366	1351	1358	1368	1387	1405	1405	1404	1395	1397	1416	1428	1417	1417	1396	1377	1388	1401	1413	1406	1393	1393	1392	1391	1399	1420	1439	1449	1447	1434	1430	1430	1425	1411	1396	1386	1375	1381	1387	1400	1407	1412	1418	1418	1419	1410	1397	1387	1390	1404	1401	1406	1413	1435	1448	1455	1448	1440	1428	1416	1415	1412	1417	1417	1422	1413	1402	1394	1385	1389	1408	1413	1410	1396	1383	1379	1388	1395	1398	1393	1395	1405	1421	1430	1437	1423	1403	1390	1388	1412	1420	1420	1424	1429	1437	1442	1429	1420	1404	1390	1336	1327	1328	1336	1344	1359	1375	1392	1401	1405	1401	1392	1381	1359	1351	1348	1355	1379	1397	1398	1381	1382	1382	1388	1401	1395	1378	1372	1377	1397	1409	1408	1393	1384	1393	1417	1438	1431	1407	1382	1392	1406	1442	1478	1461	0	0	0	0	0	0	0	0	0	0	0	0	0	0	0	0	0	0	0	0	0	0	0	0	0	0	0	0	0	0	0	0	1647	1615	1602	1592	1588	1614	0	0	0	0	1448	1391	1349	1362	1384	1402	1406	1390	1382	1375	1373	1384	1388	1386	1387	1390	1389	1390	1399	1413	1421	1422	1418	1410	1398	1390	1386	1381	1381	1384	1390	1387	1376	1370	1386	1396	1401	1387	1375	1376	1370	1369	1362	1362	1365	1381	1395	1410	1422	1409	1398	1396	1400	1400	1396	1380	1375	1370	1366	1367	1363	1363	1360	1354	1359	1372	1375	1378	1381	1375	1388	1404	1412	1414	1402	1388	1376	1374	1378	1407	1401	1394	1387	1383	1384	1390	1396	1384	1383	1374	1375	1370	1360	1356	1356	1369	1378	1383	1384	1386	1379	1372	1375	1380	1369	1368	1367	1375	1374	1370	1370	1371	1367	1369	1372	1375	1376	1366	1360	1365	1370	1380	1389	1392	1401	1410	1417	1418	1411	1406	1392	1387	1387	1384	1388	1374	1384	1390	1395	1397	1400	1399	1408	1405	1400	1382	1355	1349	1352	1364	1376	1389	1393	1401	1396	1389	1384	1389	1380	1378	1385	1391	1400	1407	1404	1384	1380	1378	1379	1383	1387	1396	1399	1394	1385	1379	1373	1375	1375	1375	1378	1394	1399	1394	1386	1386	1379	1376	1368	1364	1384	1388	1385	1388	1379	1376	1372	1380	1384	1382	1381	1375	1376	1389	1407	1431	1429	1412	1396	1363	1364	1367	1366	1362	1356	1350	1344	1361	1375	1387	1400	1395	1403	1403	1398	1396	1398	1397	1386	1378	1379	1372	1365	1365	1370	1377	1391	1392	1390	1383	1380	1380	1383	1384	1384	1382	1382	1388	1395	1396	1393	1385	1382	1387	1399	1405	1407	1404	1402	1399	1390	1378	1380	1388	1398	1399	1400	1401	1404	1409	1428	1444	1438	1427	1405	1390	1384	1382	1389	1397	1404	1406	1402	1386	1378	1383	1382	1384	1384	1393	1409	1426	1431	1422	1421	1416	1402	1393	1394	1393	1392	1385	1380	1385	1387	1391	1399	1415	1416	1414	1394	1390	1372	1359	1353	1365	1391	1412	1413	1412	1396	1394	1399	1391	1378	1381	1398	1412	0	0	0	0	0	0	0	0	0	0	0	0	0	0	0	0	0	0	0	0	0	0	1491	1462	1450	1472	1479	1476	1450	1448	1462	1471	1474	1464	1456	1442	1440	1440	1440	1442	1439	1432	1417	1406	1416	1420	1464	1476	1479	1455	1440	1430	1411	1398	1400	1420	1449	1466	1451	1459	1463	1463	1456	1440	1433	1431	1435	1451	1459	1461	1449	1427	1404	1388	1372	1377	1400	1419	1428	1419	1410	1405	1400	1396	1397	1394	1384	1383	1383	1390	1407	1407	1415	1420	1402	1390	1389	1387	1388	1395	1405	1406	1403	1403	1409	1426	1426	1434	1430	1424	1417	0	0	0	0	0	0	0
0	0	0	1404	0	0	1387	1387	1366	1360	1362	1381	1394	1394	1397	1381	1383	1407	1426	1421	1421	1402	1387	1388	1400	1412	1412	1399	1399	1386	1381	1393	1412	1429	1439	1428	1416	1409	1409	1416	1423	1411	1388	1377	1369	1371	1385	1396	1403	1407	1407	1403	1391	1385	1379	1391	1401	1406	1411	1419	1439	1456	1467	1451	1439	1419	1405	1408	1410	1416	1416	1415	1405	1396	1388	1377	1383	1388	1399	1403	1392	1386	1377	1383	1387	1394	1393	1394	1402	1408	1420	1424	1419	1400	1386	1382	1380	1392	1396	1397	1406	1418	1426	1419	1412	1405	1396	1334	1321	1326	1345	1353	1361	1371	1385	1395	1395	1392	1382	1372	1353	1338	1338	1346	1364	1390	1403	1381	1383	1386	1397	1413	1407	1392	1387	1396	1412	1413	1413	1411	1405	1445	1476	1485	1477	1458	1429	1437	1461	1471	1484	1485	1471	0	0	0	0	0	0	0	0	0	0	0	0	0	0	0	0	0	0	0	0	0	0	0	0	0	0	1619	1625	1634	1641	1645	1642	1632	1620	1620	1628	1647	0	1597	1548	1510	1446	1377	1364	1389	1407	1418	1419	1401	1393	1387	1388	1392	1391	1388	1390	1392	1393	1402	1407	1418	1424	1429	1430	1425	1411	1398	1387	1385	1390	1395	1400	1394	1377	1372	1386	1399	1402	1395	1388	1386	1388	1387	1381	1375	1378	1392	1404	1416	1426	1412	1396	1386	1403	1416	1417	1399	1384	1377	1367	1363	1368	1374	1376	1371	1379	1399	1408	1405	1394	1392	1401	1422	1427	1420	1402	1390	1386	1381	1371	1364	1376	1386	1388	1386	1383	1393	1413	1417	1419	1413	1408	1401	1397	1391	1389	1395	1396	1389	1382	1374	1376	1380	1389	1392	1392	1371	1360	1363	1374	1381	1383	1381	1383	1387	1388	1387	1390	1387	1375	1366	1361	1364	1369	1375	1379	1379	1370	1369	1375	1382	1388	1386	1393	1392	1393	1388	1384	1389	1405	1401	1398	1393	1389	1397	1399	1397	1354	1351	1376	1369	1376	1391	1406	1409	1405	1382	1372	1373	1401	1391	1381	1378	1381	1390	1393	1388	1390	1393	1395	1392	1395	1402	1406	1399	1394	1402	1385	1377	1385	1386	1392	1387	1376	1374	1377	1390	1385	1366	1358	1360	1353	1364	1367	1381	1396	1398	1384	1380	1385	1383	1374	1370	1370	1378	1394	1405	1407	1402	1396	1378	1373	1364	1356	1352	1357	1361	1358	1367	1374	1376	1370	1377	1379	1379	1379	1383	1386	1395	1401	1401	1396	1380	1364	1357	1366	1384	1400	1403	1399	1396	1390	1390	1388	1388	1388	1388	1380	1393	1401	1400	1392	1386	1384	1394	1404	1407	1403	1402	1398	1398	1397	1385	1383	1391	1396	1403	1408	1407	1403	1397	1391	1403	1401	1383	1374	1376	1379	1387	1387	1388	1399	1407	1407	1391	1382	1374	1381	1383	1391	1403	1422	1430	1431	1416	1407	1409	1404	1407	1397	1398	1393	1389	1389	1391	1389	1393	1402	1418	1412	1405	1398	1388	1372	1363	1357	1365	1390	1413	1422	1415	1408	1404	1415	1399	1381	1375	1393	1416	0	0	0	0	0	0	0	0	0	0	0	0	0	0	0	0	0	0	0	0	0	0	1510	1469	1453	1471	1481	1466	1439	1440	1446	1444	1433	1429	1433	1432	1431	1432	1423	1422	1414	1423	1408	1397	1383	1382	1396	1420	1422	1433	1430	1398	1391	1400	1414	1439	1460	1478	1470	1461	1462	1459	1440	1416	1416	1424	1427	1429	1433	1432	1418	1402	1395	1397	1392	1383	1391	1409	1417	1414	1409	1404	1396	1393	1396	1401	1393	1384	1374	1382	1401	1401	1419	1420	1405	1402	1402	1400	1401	1409	1413	1416	1416	1415	1424	1434	1434	1440	1440	1435	1419	0	0	0	0	0	0	0
0	0	0	1417	1427	1419	1394	1394	1378	1365	1369	1374	1382	1382	1376	1368	1377	1393	1409	1419	1419	1406	1400	1397	1415	1422	1415	1403	1403	1385	1371	1374	1392	1413	1417	1412	1399	1392	1392	1401	1415	1414	1392	1380	1368	1373	1378	1385	1388	1397	1397	1394	1391	1378	1377	1386	1400	1410	1414	1423	1439	1459	1457	1444	1427	1404	1401	1402	1401	1399	1399	1407	1401	1397	1379	1373	1379	1382	1385	1389	1385	1375	1372	1372	1378	1385	1391	1402	1401	1410	1412	1419	1414	1407	1386	1371	1380	1393	1392	1383	1384	1397	1403	1412	1417	1412	1400	1331	1313	1332	1356	1361	1361	1366	1374	1381	1378	1374	1367	1362	1351	1336	1330	1334	1340	1352	1366	1378	1372	1367	1379	1422	1415	1401	1393	1407	1423	1429	1428	1428	1451	1478	1500	1513	1508	1480	1450	1447	1456	1476	1492	1497	1492	1489	1501	1515	1529	1512	1498	1507	1534	1549	1542	1534	1525	1531	1535	1549	1572	1588	1595	1596	1595	1590	1605	1606	1611	1611	1615	1624	1633	1646	1653	1652	1645	1633	1626	1636	1651	1665	1673	1622	1562	1479	1415	1398	1414	1422	1424	1423	1415	1406	1404	1394	1393	1408	1419	1414	1410	1393	1385	1392	1401	1411	1420	1426	1436	1438	1432	1418	1402	1398	1403	1404	1411	1410	1406	1410	1412	1412	1414	1415	1410	1408	1396	1394	1400	1398	1399	1406	1409	1413	1409	1401	1392	1389	1405	1417	1419	1415	1393	1382	1366	1369	1380	1388	1389	1379	1389	1398	1417	1415	1413	1399	1405	1412	1416	1418	1401	1391	1390	1384	1373	1360	1368	1395	1401	1394	1385	1381	1392	1400	1404	1403	1406	1407	1406	1404	1403	1403	1397	1394	1393	1398	1405	1409	1410	1404	1383	1370	1368	1371	1374	1387	1383	1384	1398	1405	1403	1398	1395	1386	1381	1374	1372	1374	1380	1382	1377	1371	1367	1379	1399	1403	1402	1402	1406	1404	1391	1382	1385	1389	1390	1400	1394	1382	1386	1395	1392	1380	1371	1375	1372	1386	1405	1410	1410	1403	1384	1370	1370	1374	1378	1388	1386	1383	1385	1382	1382	1384	1392	1394	1398	1398	1397	1399	1402	1403	1391	1381	1370	1379	1387	1392	1394	1390	1382	1378	1389	1395	1395	1389	1371	1366	1358	1362	1364	1365	1362	1363	1363	1364	1367	1379	1376	1369	1368	1373	1385	1400	1402	1394	1386	1378	1375	1371	1363	1364	1371	1377	1378	1374	1377	1380	1379	1375	1375	1368	1368	1379	1381	1389	1393	1394	1389	1379	1367	1363	1369	1381	1389	1391	1390	1393	1398	1395	1392	1390	1391	1388	1383	1397	1401	1402	1394	1390	1393	1401	1404	1405	1400	1396	1395	1400	1401	1389	1380	1380	1390	1397	1402	1404	1398	1381	1373	1375	1374	1372	1373	1384	1387	1396	1392	1394	1397	1403	1399	1388	1378	1372	1380	1386	1398	1407	1419	1423	1423	1412	1404	1406	1407	1408	1406	1395	1389	1390	1398	1396	1396	1392	1399	1414	1405	1401	1399	1395	1383	1368	1361	1369	1391	1411	1414	1413	1412	1407	1414	1400	1385	1376	1402	1435	0	0	0	0	0	0	0	0	0	0	0	0	0	0	0	0	0	0	0	0	0	0	0	1468	1457	1453	1475	1459	1434	1427	1430	1427	1422	1422	1424	1423	1427	1431	1423	1414	1402	1398	1400	1396	1393	1396	1414	1414	1423	1429	1436	1418	1407	1415	1426	1444	1466	1480	1470	1455	1458	1445	1435	1413	1421	1426	1424	1420	1420	1415	1412	1404	1402	1404	1421	1412	1408	1416	1420	1418	1407	1400	1392	1395	1400	1401	1402	1391	1382	1380	1389	1389	1403	1412	1418	1407	1408	1405	1413	1421	1416	1418	1420	1421	1425	1435	1435	1431	1421	1418	1407	0	0	0	0	0	0	0
0	0	0	1425	1425	1414	1394	1394	1382	1372	1378	1381	1385	1385	1370	1363	1372	1380	1402	1410	1410	1413	1401	1404	1415	1421	1422	1403	1403	1375	1362	1359	1370	1396	1404	1377	1349	1340	1340	1361	1375	1386	1388	1385	1378	1374	1368	1367	1367	1362	1362	1369	1381	1390	1388	1393	1402	1417	1409	1411	1419	1433	1435	1422	1402	1389	1378	1384	1390	1389	1389	1391	1401	1395	1389	1389	1389	1383	1369	1370	1356	1359	1360	1358	1367	1380	1391	1404	1406	1405	1406	1395	1389	1383	1382	1372	1388	1388	1380	1366	1357	1360	1367	1386	1414	1420	1395	1339	1327	1328	1330	1340	1348	1354	1354	1353	1359	1359	1365	1370	1367	1375	1371	1371	1366	1359	1347	1355	1356	1366	1392	1412	1408	1400	1400	1412	1428	1436	1439	1451	1470	1490	1511	1514	1507	1485	1462	1439	1444	1468	1492	1496	1493	1498	1509	1529	1534	1524	1519	1530	1538	1548	1529	1521	1518	1519	1528	1555	1587	1604	1611	1597	1593	1591	1603	1606	1611	1611	1609	1614	1624	1636	1642	1640	1642	1631	1631	1640	1653	1679	1668	1624	1575	1476	1426	1432	1428	1428	1430	1424	1425	1418	1410	1401	1398	1402	1407	1413	1405	1394	1385	1395	1406	1417	1425	1428	1434	1445	1439	1436	1424	1411	1403	1408	1415	1418	1416	1416	1421	1422	1421	1424	1419	1404	1395	1398	1398	1398	1404	1406	1415	1415	1399	1392	1385	1385	1394	1398	1398	1398	1401	1395	1398	1393	1398	1399	1395	1390	1387	1393	1402	1405	1400	1393	1392	1405	1415	1421	1410	1391	1386	1378	1368	1356	1360	1379	1394	1389	1378	1373	1378	1384	1391	1395	1395	1400	1409	1417	1407	1405	1398	1390	1386	1390	1404	1413	1415	1407	1401	1393	1379	1376	1388	1385	1385	1390	1404	1413	1413	1408	1398	1392	1386	1384	1384	1386	1386	1385	1379	1371	1376	1391	1400	1400	1395	1395	1393	1391	1387	1379	1381	1381	1383	1387	1387	1384	1383	1397	1395	1393	1387	1387	1372	1381	1389	1385	1377	1387	1384	1388	1389	1361	1370	1383	1388	1389	1387	1375	1369	1359	1382	1399	1403	1404	1405	1409	1398	1391	1379	1380	1380	1378	1391	1397	1397	1394	1382	1389	1390	1372	1393	1388	1386	1379	1373	1367	1355	1345	1352	1353	1345	1348	1359	1369	1371	1374	1369	1373	1384	1393	1399	1394	1386	1384	1386	1378	1377	1378	1390	1395	1390	1389	1386	1386	1387	1384	1375	1375	1376	1376	1380	1384	1384	1384	1381	1376	1372	1369	1369	1373	1375	1377	1384	1396	1407	1398	1398	1400	1395	1394	1390	1394	1396	1400	1397	1398	1403	1405	1404	1402	1395	1386	1390	1390	1395	1389	1373	1371	1375	1383	1390	1399	1396	1380	1374	1373	1373	1368	1374	1388	1405	1410	1403	1403	1401	1394	1391	1385	1379	1379	1381	1388	1392	1398	1407	1409	1410	1410	1408	1411	1412	1415	1405	1397	1392	1396	1402	1405	1403	1396	1393	1396	1392	1393	1402	1403	1396	1377	1366	1376	1391	1406	1403	1402	1410	1413	1404	1392	1385	1386	1406	1430	1444	0	0	0	0	0	0	0	0	0	0	0	0	0	0	0	0	0	0	0	0	0	0	1477	1457	1458	1465	1455	1436	1429	1423	1411	1417	1415	1423	1423	1429	1429	1425	1414	1394	1395	1403	1409	1413	1418	1416	0	0	1427	1437	1424	1418	1427	1435	1444	1461	1467	1459	1449	1444	1445	1430	1415	1433	1429	1421	1419	1413	1412	1411	1410	1410	1419	1437	1437	1431	1425	1426	1422	1413	1405	1404	1402	1408	1405	1400	1395	1390	1381	1384	1384	1385	1401	1406	1412	1410	1414	1420	1423	1419	1413	1413	1419	1424	1427	1427	1424	1416	1405	1395	0	0	0	0	0	0	0
0	0	0	1422	1418	1394	1385	1385	1380	1377	1380	1388	1392	1392	1384	1379	1372	1382	1390	1402	1402	1409	1393	1390	1392	1396	1390	1384	1384	1368	1354	1354	1359	1368	1373	1354	1344	1341	1341	1355	1375	1390	1400	1401	1381	1372	1373	1384	1381	1380	1380	1371	1365	1355	1353	1351	1363	1364	1366	1369	1377	1380	1384	1382	1386	1374	1373	1381	1385	1380	1380	1379	1376	1388	1396	1408	1413	1410	1398	1382	1370	1366	1367	1371	1381	1394	1398	1404	1408	1402	1397	1398	1394	1387	1382	1376	1372	1375	1376	1370	1363	1361	1368	1379	1384	1379	1368	1349	1355	1362	1368	1373	1379	1380	1378	1379	1376	1375	1378	1385	1386	1384	1379	1380	1371	1351	1360	1368	1372	1378	1396	1414	1402	1394	1390	1402	1426	1443	1453	1457	1466	1476	1493	1496	1488	1471	1457	1440	1438	1453	1478	1483	1488	1493	1501	1513	1526	1529	1532	1533	1547	1536	1509	1504	1512	1520	1539	1568	1609	1625	1615	1614	1608	1614	1623	1609	1616	1613	1603	1589	1598	1622	1627	1641	1635	1626	1627	1638	1650	1676	1656	1628	1571	1499	1443	1436	1431	1431	1422	1419	1418	1417	1414	1404	1398	1398	1401	1405	1398	1393	1393	1399	1406	1420	1426	1429	1435	1441	1445	1439	1422	1413	1401	1411	1415	1422	1421	1421	1421	1419	1419	1427	1419	1413	1403	1398	1395	1399	1399	1402	1405	1408	1389	1383	1382	1382	1389	1390	1390	1392	1400	1406	1408	1405	1405	1405	1406	1397	1391	1391	1394	1395	1392	1383	1388	1405	1416	1425	1419	1395	1389	1385	1375	1367	1363	1372	1387	1386	1375	1373	1377	1382	1387	1385	1386	1394	1409	1416	1413	1407	1399	1387	1381	1377	1381	1395	1401	1407	1408	1400	1390	1388	1389	1390	1392	1396	1407	1416	1415	1410	1400	1387	1390	1390	1392	1392	1391	1391	1391	1386	1387	1397	1398	1396	1387	1385	1385	1380	1384	1382	1382	1378	1377	1375	1385	1383	1385	1397	1395	1388	1390	1377	1373	1372	1373	1386	1391	1383	1392	1387	1376	1359	1367	1372	1368	1384	1389	1373	1362	1347	1372	1411	1419	1416	1403	1394	1386	1375	1382	1385	1387	1382	1383	1390	1401	1392	1394	1394	1393	1382	1395	1404	1396	1382	1373	1370	1361	1345	1353	1350	1350	1359	1374	1375	1373	1378	1383	1384	1387	1390	1399	1395	1394	1391	1389	1390	1387	1398	1403	1404	1403	1395	1392	1392	1396	1397	1392	1390	1389	1390	1392	1391	1381	1374	1380	1390	1384	1379	1375	1371	1370	1375	1389	1409	1418	1408	1403	1401	1399	1398	1392	1388	1390	1395	1398	1401	1402	1394	1395	1391	1385	1378	1380	1382	1386	1380	1369	1357	1366	1373	1388	1397	1400	1394	1386	1383	1380	1372	1374	1389	1407	1415	1410	1405	1405	1400	1393	1382	1377	1382	1381	1383	1388	1388	1394	1399	1399	1409	1413	1415	1415	1413	1411	1401	1401	1404	1407	1410	1406	1394	1389	1388	1388	1390	1399	1409	1402	1391	1378	1378	1383	1387	1391	1395	1405	1412	1389	1380	1384	1402	1405	1406	1435	0	0	0	0	0	0	0	0	0	1599	1637	1658	1667	1672	1682	0	0	0	0	0	0	1502	1492	1491	1470	1463	1451	1432	1423	1419	1407	1419	1426	1431	1432	1434	1427	1423	1419	1399	1401	1410	1424	1430	1417	1409	0	0	1433	1437	1431	1423	1433	1438	1445	1456	1463	1464	1449	1449	1431	1429	1435	1446	1433	1423	1419	1414	1414	1413	1417	1417	1429	1438	1437	1433	1427	1432	1430	1418	1410	1410	1404	1404	1398	1395	1393	1388	1386	1381	1381	1378	1395	1404	1407	1409	1413	1421	1422	1418	1417	1418	1420	1430	1431	1431	1427	1412	1397	1383	0	0	0	0	0	0	0
0	0	0	1414	1402	1374	1369	1369	1378	1380	1382	1383	1383	1383	1381	1377	1366	1380	1390	1398	1398	1389	1380	1380	1382	1390	1392	1391	1391	1377	1364	1366	1370	1371	1369	1362	1358	1358	1358	1365	1398	1412	1414	1401	1381	1363	1372	1382	1390	1386	1386	1372	1363	1358	1350	1351	1360	1363	1363	1369	1376	1380	1377	1376	1369	1365	1370	1380	1378	1375	1375	1372	1369	1374	1389	1403	1420	1421	1411	1388	1369	1363	1369	1380	1391	1399	1404	1407	1406	1405	1405	1408	1402	1391	1379	1373	1374	1377	1374	1366	1366	1369	1377	1385	1388	1379	1372	1370	1374	1375	1373	1378	1386	1391	1395	1389	1388	1382	1387	1387	1379	1370	1368	1356	1360	1358	1370	1370	1380	1382	1390	1413	1403	1395	1388	1396	1417	1435	1457	1460	1449	1451	1458	1460	1446	1431	1438	1448	1449	1458	1473	1476	1470	1484	1498	1508	1508	1512	1524	1534	1545	1540	1526	1543	1567	1578	1607	1638	1641	1641	1633	1623	1618	1634	1643	1645	1630	1614	1602	1591	1589	1612	1629	1647	1649	1641	1641	1666	1682	1689	1646	1608	1577	1510	1451	1432	1428	1424	1422	1412	1408	1411	1413	1411	1404	1398	1401	1399	1400	1398	1398	1406	1409	1415	1414	1423	1425	1438	1439	1431	1416	1408	1399	1405	1418	1424	1423	1422	1420	1414	1412	1415	1416	1413	1402	1398	1394	1386	1392	1394	1392	1395	1386	1381	1378	1383	1385	1382	1389	1391	1403	1416	1420	1420	1417	1417	1416	1409	1395	1391	1391	1394	1391	1382	1387	1405	1423	1430	1414	1402	1395	1391	1391	1377	1374	1381	1388	1386	1379	1377	1387	1390	1397	1387	1384	1389	1405	1419	1418	1410	1399	1386	1383	1377	1377	1382	1392	1396	1408	1404	1398	1386	1389	1388	1398	1400	1407	1413	1413	1409	1397	1385	1382	1393	1397	1400	1396	1403	1401	1397	1396	1389	1387	1383	1386	1384	1384	1380	1381	1381	1380	1380	1376	1373	1386	1388	1390	1395	1389	1380	1380	1382	1372	1371	1372	1383	1389	1396	1393	1393	1387	1376	1382	1384	1381	1387	1396	1353	1348	1352	1360	1374	1396	1388	1383	1374	1364	1379	1380	1388	1388	1385	1381	1383	1390	1387	1385	1392	1387	1389	1399	1407	1401	1384	1377	1378	1378	1376	1371	1362	1361	1374	1379	1385	1385	1385	1390	1387	1388	1386	1395	1397	1396	1392	1399	1396	1397	1400	1411	1413	1404	1399	1404	1408	1408	1407	1401	1400	1399	1400	1402	1397	1386	1376	1376	1386	1396	1393	1389	1384	1381	1385	1403	1423	1423	1408	1401	1402	1405	1400	1395	1387	1387	1394	1402	1402	1393	1386	1377	1379	1379	1373	1375	1375	1382	1375	1360	1360	1360	1371	1384	1399	1402	1414	1413	1405	1393	1381	1380	1385	1400	1410	1407	1404	1408	1403	1392	1388	1384	1380	1377	1375	1377	1383	1389	1398	1403	1402	1407	1407	1412	1410	1406	1405	1409	1412	1410	1404	1398	1400	1397	1388	1389	1390	1394	1398	1403	1400	1388	1380	1371	1373	1378	1392	1404	1410	1386	1374	1382	1395	1403	1403	1457	0	0	0	0	0	0	0	0	0	1638	1665	1682	1683	1679	1669	1683	1685	0	0	0	1520	1503	1502	1493	1472	1455	1429	1413	1412	1412	1412	1429	1436	1433	1435	1428	1430	1429	1420	1416	1408	1421	1436	1441	1423	1401	1391	0	1419	1428	1422	1429	1438	1442	1444	1454	1462	1478	1457	1442	1442	1443	1447	1456	1438	1421	1424	1423	1425	1425	1424	1421	1426	1432	1427	1425	1423	1427	1430	1421	1410	1400	1397	1394	1396	1386	1385	1388	1387	1389	1389	1385	1395	1404	1401	1400	1406	1414	1423	1422	1423	1426	1433	1431	1431	1431	1417	1404	1392	1381	0	0	0	0	0	0	0
0	0	0	1401	1393	1383	1373	1373	1373	1380	1376	1378	1382	1382	1380	1371	1374	1386	1399	1403	1403	1392	1380	1370	1377	1392	1401	1397	1397	1391	1372	1367	1374	1375	1374	1375	1371	1374	1374	1378	1400	1412	1416	1395	1375	1358	1362	1372	1385	1381	1381	1368	1366	1364	1361	1361	1363	1353	1361	1372	1378	1381	1380	1374	1368	1362	1369	1376	1378	1381	1381	1372	1368	1367	1373	1396	1413	1423	1417	1391	1372	1367	1367	1378	1387	1396	1397	1399	1397	1399	1405	1407	1402	1392	1383	1382	1387	1389	1385	1376	1368	1369	1380	1386	1389	1385	1381	1380	1380	1380	1377	1380	1387	1395	1397	1394	1390	1384	1381	1385	1375	1369	1355	1341	1350	1374	1377	1383	1384	1383	1387	1409	1411	1404	1397	1398	1413	1437	1458	1450	1433	1429	1429	1431	1425	1421	1433	1448	1454	1464	1478	1481	1475	1482	1504	1505	1494	1498	1503	1522	1539	1548	1546	1564	1584	1593	1605	1626	1637	1621	1616	1605	1620	1639	1649	1656	1628	1614	1602	1597	1607	1625	1647	1661	1668	1684	1684	1684	1692	1713	1651	1621	1591	1516	1456	1430	1424	1423	1414	1409	1406	1407	1415	1417	1413	1403	1403	1402	1399	1396	1402	1406	1415	1417	1416	1416	1418	1423	1423	1415	1408	1401	1395	1410	1420	1425	1426	1426	1419	1411	1404	1409	1407	1406	1393	1389	1387	1381	1379	1379	1379	1387	1386	1382	1379	1382	1387	1384	1384	1398	1407	1402	1416	1415	1417	1425	1428	1421	1411	1397	1393	1395	1391	1385	1393	1414	1429	1419	1407	1397	1400	1401	1400	1391	1386	1393	1399	1400	1410	1403	1405	1406	1406	1400	1386	1385	1397	1408	1418	1410	1396	1396	1390	1390	1381	1379	1391	1392	1393	1397	1390	1388	1390	1393	1402	1401	1399	1402	1405	1400	1393	1384	1388	1394	1397	1394	1402	1411	1416	1412	1403	1393	1384	1386	1392	1393	1392	1382	1384	1383	1382	1379	1379	1377	1396	1397	1397	1395	1379	1375	1372	1371	1379	1375	1372	1383	1391	1395	1385	1378	1379	1398	1399	1404	1402	1398	1387	1383	1376	1372	1375	1381	1379	1391	1377	1371	1361	1373	1386	1382	1389	1381	1375	1375	1377	1380	1383	1385	1395	1398	1402	1400	1397	1390	1384	1386	1391	1391	1389	1376	1371	1379	1388	1395	1394	1393	1394	1393	1387	1388	1390	1391	1393	1399	1403	1403	1398	1407	1407	1419	1423	1425	1416	1413	1407	1410	1410	1409	1404	1405	1403	1403	1387	1372	1375	1386	1401	1401	1393	1391	1391	1404	1416	1423	1412	1393	1390	1398	1405	1408	1400	1393	1392	1400	1398	1385	1372	1368	1375	1375	1381	1384	1381	1374	1368	1369	1362	1372	1394	1412	1417	1414	1416	1422	1419	1414	1406	1393	1388	1385	1398	1413	1408	1409	1422	1415	1410	1399	1384	1372	1364	1366	1373	1383	1393	1389	1397	1391	1386	1393	1394	1401	1409	1411	1414	1418	1412	1411	1404	1407	1408	1394	1392	1388	1381	1382	1391	1403	1398	1385	1371	1368	1378	1395	1404	1404	1383	1368	1368	1379	1391	1411	1477	0	0	0	0	0	0	0	0	0	1672	1687	1695	1689	1681	1674	1679	1672	1640	0	1565	1546	1521	1502	1485	1463	1446	1420	1388	1405	1411	1411	1434	1434	1423	1426	1435	1428	1387	1381	1400	1417	1426	1441	1444	1432	1405	1374	1392	1403	1420	1423	1429	1436	1442	1441	1448	1455	1467	1451	1441	1452	1454	1454	1448	1429	1422	1426	1430	1433	1433	1425	1418	1418	1421	1417	1416	1419	1424	1427	1420	1409	1398	1393	1387	1382	1387	1383	1386	1395	1391	1391	1397	1401	1410	1402	1395	1400	1407	1417	1427	1428	1437	1439	1435	1428	1428	1408	1392	1384	1383	0	0	0	0	0	0	0
0	0	0	1407	1401	1383	1381	1381	1376	1378	1379	1385	1389	1389	1379	1374	1382	1392	1406	1410	1410	1401	1388	1378	1386	1398	1405	1397	1397	1388	1376	1366	1370	1376	1380	1389	1388	1383	1383	1377	1394	1398	1398	1386	1371	1358	1357	1369	1374	1369	1369	1361	1357	1369	1375	1374	1371	1370	1373	1384	1392	1389	1387	1372	1366	1364	1363	1371	1383	1385	1385	1377	1368	1365	1368	1382	1405	1414	1412	1394	1368	1365	1372	1377	1380	1381	1386	1390	1382	1386	1383	1390	1387	1385	1384	1391	1399	1392	1387	1372	1366	1364	1371	1381	1386	1387	1384	1387	1390	1386	1385	1386	1393	1399	1394	1397	1388	1377	1375	1379	1381	1369	1353	1343	1358	1380	1382	1386	1385	1380	1383	1420	1422	1425	1412	1402	1423	1454	1456	1450	1438	1435	1424	1428	1422	1425	1442	1450	1454	1468	1479	1485	1476	1474	1492	1503	1490	1487	1494	1514	1536	1551	1560	1570	1584	1602	1613	1606	1603	1605	1606	1615	1625	1633	1644	1642	1632	1626	1614	1608	1617	1635	1649	1672	1690	1700	1681	1678	1692	1709	1652	1613	1589	1509	1460	1424	1413	1418	1416	1409	1411	1411	1410	1416	1411	1411	1408	1409	1404	1401	1406	1407	1411	1417	1422	1419	1411	1410	1398	1406	1400	1399	1400	1413	1424	1428	1431	1426	1421	1413	1406	1407	1408	1408	1402	1391	1390	1378	1374	1377	1375	1384	1391	1395	1398	1395	1389	1385	1387	1393	1396	1395	1393	1398	1406	1413	1421	1434	1419	1403	1395	1387	1380	1380	1397	1406	1411	1411	1407	1393	1407	1407	1406	1404	1401	1405	1406	1411	1413	1420	1424	1419	1415	1410	1404	1396	1393	1403	1411	1413	1406	1406	1404	1392	1388	1385	1388	1383	1386	1391	1393	1388	1388	1388	1396	1396	1399	1399	1398	1395	1378	1376	1379	1383	1395	1393	1401	1410	1412	1419	1411	1403	1392	1391	1396	1401	1405	1399	1389	1385	1382	1383	1384	1390	1400	1402	1406	1399	1391	1378	1373	1372	1372	1382	1380	1388	1391	1384	1376	1376	1379	1386	1389	1397	1410	1399	1381	1398	1380	1382	1379	1381	1374	1377	1373	1370	1368	1373	1391	1388	1380	1373	1364	1364	1371	1393	1388	1392	1381	1392	1402	1399	1395	1394	1394	1403	1413	1415	1406	1385	1381	1378	1388	1395	1395	1399	1394	1393	1386	1389	1382	1384	1385	1404	1412	1403	1391	1399	1407	1412	1421	1418	1409	1411	1410	1414	1419	1421	1416	1409	1405	1406	1395	1374	1368	1378	1397	1400	1393	1390	1391	1404	1408	1418	1397	1380	1378	1397	1412	1416	1408	1401	1404	1403	1391	1384	1374	1373	1377	1395	1404	1391	1383	1366	1361	1365	1369	1391	1409	1427	1440	1444	1437	1427	1418	1415	1410	1401	1402	1408	1413	1406	1407	1422	1440	1439	1421	1408	1388	1370	1354	1356	1365	1369	1385	1388	1388	1384	1380	1381	1387	1395	1407	1408	1414	1422	1426	1420	1416	1412	1410	1395	1393	1382	1373	1371	1381	1399	1404	1397	1381	1379	1393	1404	1400	1400	1380	1363	1364	1369	1381	1422	0	0	0	0	0	0	0	0	0	0	1697	1965	1977	1748	1690	1682	1673	1676	1659	1627	1604	1580	1547	1518	1493	1469	1434	1407	1378	1418	1427	1422	1408	1395	1380	1382	1385	1388	1397	1396	1393	1397	1400	1404	1411	1402	1393	1404	1420	1446	1455	1452	1439	1438	1446	1466	1454	1451	1454	1430	1435	1436	1450	1451	1438	1427	1422	1426	1430	1433	1427	1420	1413	1412	1415	1415	1419	1420	1432	1432	1431	1417	1408	1396	1392	1384	1382	1387	1394	1401	1401	1401	1405	1407	1403	1403	1398	1397	1402	1414	1424	1428	1431	1433	1434	1419	1419	1402	1388	1385	1390	0	0	0	0	0	0	0
0	0	0	1402	1397	1389	1376	1376	1371	1375	1381	1391	1385	1385	1380	1369	1379	1387	1405	1412	1412	1404	1388	1387	1400	1404	1400	1381	1378	1378	1375	1372	1372	1373	1379	1389	1387	1380	1380	1378	1385	1392	1388	1374	1358	1354	1353	1365	1365	1364	1364	1355	1358	1368	1383	1387	1386	1389	1394	1400	1402	1404	1385	1377	1365	1366	1369	1376	1385	1393	1393	1385	1372	1369	1373	1379	1391	1399	1397	1376	1359	1362	1368	1368	1366	1367	1378	1379	1370	1364	1360	1364	1371	1381	1389	1394	1405	1404	1394	1380	1363	1368	1361	1368	1382	1396	1385	1386	1390	1395	1398	1400	1394	1396	1392	1395	1391	1388	1384	1378	1384	1382	1360	1361	1363	1380	1379	1380	1386	1382	1392	1423	1433	1440	1424	1420	1423	1443	1448	1451	1457	1455	1444	1429	1420	1431	1447	1447	1450	1462	1482	1475	1461	1455	1480	0	1511	1498	1499	1515	1540	1564	1571	1579	1612	1629	1627	1618	1621	1637	1651	1642	1644	1635	1628	1637	1652	1634	1624	1618	1627	1636	1652	1666	1683	1693	1687	1681	1685	1695	1642	1587	1568	1484	1453	1418	1402	1412	1417	1414	1417	1416	1415	1410	1406	1410	1423	1420	1418	1409	1409	1409	1409	1412	1415	1411	1399	1388	1391	1403	1401	1396	1402	1412	1421	1431	1435	1427	1418	1410	1408	1411	1413	1416	1413	1405	1398	1384	1370	1369	1373	1382	1397	1408	1414	1403	1396	1390	1397	1398	1386	1369	1368	1367	1387	1400	1414	1422	1415	1405	1386	1375	1369	1378	1390	1395	1391	1390	1387	1394	1403	1408	1412	1408	1418	1418	1418	1415	1409	1414	1423	1424	1419	1412	1399	1401	1392	1395	1406	1406	1413	1409	1411	1399	1392	1390	1387	1384	1382	1390	1392	1394	1390	1383	1387	1394	1397	1398	1395	1392	1388	1391	1391	1388	1376	1384	1397	1401	1409	1422	1425	1419	1409	1405	1412	1415	1418	1412	1403	1395	1392	1387	1388	1394	1401	1395	1404	1404	1407	1397	1392	1384	1373	1379	1382	1387	1390	1383	1376	1385	1386	1389	1388	1394	1409	1400	1381	1384	1383	1381	1375	1373	1375	1371	1374	1370	1376	1376	1393	1379	1373	1370	1364	1363	1377	1395	1396	1400	1396	1398	1399	1398	1392	1392	1400	1412	1427	1425	1412	1394	1377	1371	1374	1389	1404	1408	1402	1401	1412	1415	1401	1375	1374	1406	1410	1402	1395	1399	1391	1386	1389	1391	1387	1389	1394	1402	1417	1423	1416	1408	1407	1408	1408	1395	1387	1394	1393	1399	1390	1381	1379	1384	1391	1398	1386	1370	1360	1368	1381	1398	1406	1412	1417	1416	1400	1389	1391	1396	1413	1423	1415	1395	1388	1379	1382	1381	1389	1391	1404	1417	1440	1448	1444	1433	1430	1427	1420	1409	1405	1416	1433	1423	1415	1434	1453	1452	1434	1410	1393	1368	1347	1343	1354	1367	1375	1381	1387	1381	1381	1389	1390	1398	1406	1408	1414	1427	1430	1428	1422	1417	1416	1402	1396	1385	1374	1369	1379	1395	1405	1403	1394	1397	1406	1409	1402	1398	1372	1364	1364	1365	1378	1429	0	0	0	0	0	0	0	0	0	0	1941	0	0	1753	1681	1680	1671	1678	1681	1654	1629	1610	1571	1548	1522	1487	1457	1428	1390	1431	1430	1426	1430	1434	1429	1434	1430	1430	1430	1425	1416	1415	1416	1421	1412	1405	1403	1410	1417	1435	1450	1446	1429	1428	1438	1461	1469	1458	1445	1430	1430	1433	1437	1436	1432	1428	1429	1424	1421	1423	1418	1414	1411	1407	1409	1415	1425	1431	1440	1452	1447	1435	1420	1411	1400	1393	1393	1392	1398	1399	1401	1401	1400	1400	1397	1391	1399	1410	1418	1416	1417	1416	1416	1422	1424	1420	1420	1402	1393	1393	1391	0	0	0	0	0	0	0
0	0	0	1426	1417	1391	1376	1376	1372	1373	1391	1401	1392	1392	1371	1362	1364	1377	1397	1402	1402	1393	1383	1390	1407	1408	1393	1377	1370	1370	1374	1382	1382	1377	1382	1384	1380	1374	1374	1375	1385	1387	1382	1371	1357	1350	1353	1361	1367	1368	1368	1362	1356	1364	1375	1385	1395	1398	1400	1402	1406	1395	1383	1370	1367	1373	1375	1386	1395	1405	1405	1393	1392	1380	1378	1375	1370	1373	1367	1361	1352	1359	1372	1372	1366	1360	1365	1365	1367	1364	1367	1373	1388	1391	1392	1397	1407	1407	1399	1387	1374	1376	1382	1377	1387	1393	1389	1381	1383	1395	1400	1396	1388	1384	1387	1385	1394	1395	1395	1392	1388	1388	1385	1390	1386	1384	1372	1365	1373	1386	1400	1402	1422	1434	1434	1441	1448	1441	1427	1441	1475	1486	1468	1441	1424	1426	1433	1441	1452	1459	1476	1464	1451	1449	0	0	0	0	0	0	1581	1580	1583	1602	1641	1660	1658	1641	1656	0	0	1693	1676	1649	1636	1643	1666	1649	1641	1634	1642	1644	1654	1667	1674	1687	1697	1680	1684	1686	1625	1580	1553	1452	1438	1420	1406	1402	1409	1411	1429	1422	1419	1412	1403	1419	1432	1431	1426	1421	1419	1411	1406	1408	1418	1417	1410	1393	1396	1409	1405	1404	1406	1411	1414	1421	1428	1425	1416	1409	1411	1418	1422	1426	1425	1415	1402	1381	1371	1377	1380	1387	1415	1430	1426	1411	1392	1397	1421	1429	1398	1375	1360	1379	1394	1413	1431	1432	1415	1397	1378	1371	1373	1378	1384	1385	1377	1369	1374	1377	1394	1403	1414	1410	1416	1424	1425	1414	1401	1405	1421	1427	1413	1390	1370	1372	1376	1369	1373	1376	1388	1394	1395	1394	1389	1390	1392	1392	1390	1388	1384	1385	1392	1394	1386	1387	1395	1402	1399	1384	1385	1396	1405	1399	1380	1379	1379	1382	1387	1395	1394	1393	1392	1412	1434	1445	1431	1416	1410	1411	1398	1384	1380	1384	1390	1397	1405	1403	1404	1400	1395	1384	1381	1378	1379	1386	1382	1374	1376	1381	1383	1385	1387	1391	1390	1392	1381	1377	1376	1375	1375	1371	1369	1366	1375	1373	1380	1381	1396	1379	1378	1377	1378	1383	1376	1387	1402	1403	1404	1399	1394	1390	1373	1369	1372	1412	1421	1409	1388	1354	1343	1347	1366	1385	1395	1396	1401	1408	1411	1405	1397	1389	1384	1391	1398	1401	1402	1414	1405	1388	1386	1372	1377	1381	1383	1379	1369	1364	1364	1379	1408	1406	1389	1383	1377	1378	1388	1401	1397	1380	1365	1366	1381	1430	1453	1433	1433	1434	1425	1415	1406	1404	1395	1393	1405	1433	1454	1471	1478	1478	1480	1488	1513	1531	1521	1500	1491	1493	1497	1508	1510	1502	1472	1464	1481	1485	1465	1439	1422	1424	1435	1427	1435	1451	1457	1454	1436	1412	1393	1372	1346	1340	1350	1360	1367	1372	1367	1379	1385	1389	1395	1401	1405	1411	1410	1417	1421	1424	1414	1409	1410	1410	1399	1392	1380	1376	1380	1391	1393	1396	1397	1401	1405	1404	1397	1388	1372	1365	1366	1366	1403	1428	1450	0	0	0	0	0	0	0	0	0	1684	1687	1682	1673	1673	1681	1691	1692	1695	1673	1640	1603	1549	1535	1536	1540	1526	1448	1418	1449	1435	1432	1431	1432	1430	1426	1420	1421	1422	1426	1426	1425	1428	1431	1434	1436	1430	1426	1431	1435	1429	1429	1430	1436	1444	1452	1461	1457	1444	1440	1439	1436	1441	1439	1429	1424	1428	1428	1426	1419	1418	1419	1415	1415	1416	1424	1432	1440	1445	1452	1447	1440	1430	1416	1411	1404	1406	1405	1397	1397	1396	1396	1396	1393	1394	1399	1411	1433	1433	1425	1411	1409	1409	1414	1417	1415	1415	1418	1416	1409	1398	0	0	0	0	0	0	0
0	0	0	1432	1421	1394	1369	1369	1363	1379	1405	1422	1398	1398	1380	1364	1356	1368	1384	1392	1389	1389	1380	1380	1392	1398	1382	1373	1367	1367	1375	1390	1391	1384	1379	1372	1362	1361	1361	1361	1371	1376	1377	1373	1360	1349	1353	1357	1364	1365	1365	1363	1358	1355	1365	1378	1393	1395	1391	1396	1366	1364	1363	1363	1377	1386	1393	1396	1395	1406	1406	1404	1398	1395	1388	1392	1381	1367	1360	1358	1362	1375	1386	1383	1376	1373	1377	1382	1391	1397	1403	1393	1387	1392	1395	1402	1414	1414	1409	1385	1380	1389	1392	1383	1385	1386	1388	1382	1386	1394	1399	1393	1380	1374	1375	1373	1380	1396	1399	1392	1389	1388	1383	1382	1383	1383	1364	1358	1347	1373	1389	1396	1409	1428	1430	1444	1448	1440	1429	1439	1468	1480	1466	1441	1431	1433	1444	1458	1459	1458	1467	1467	1452	1438	0	0	0	0	0	1593	1617	1633	1669	1684	1674	1656	1675	1668	1681	1721	0	1726	1685	1667	1653	1662	1667	1656	1655	1662	1684	1680	1673	1664	1671	1682	1691	1693	1688	1685	1635	1593	1556	1428	1427	1430	1420	1402	1406	1416	1427	1428	1427	1420	1419	1432	1432	1437	1432	1426	1422	1412	1406	1409	1417	1419	1417	1415	1423	1421	1418	1410	1405	1413	1414	1419	1425	1429	1423	1412	1417	1420	1429	1432	1431	1426	1417	1394	1382	1381	1385	1395	1438	1436	1435	1430	1429	1440	1436	1423	1408	1415	1435	1455	1493	1528	1535	1525	1522	1513	1493	1484	1525	1535	1534	1509	1471	1440	1416	1407	1414	1435	1456	1451	1412	1392	1392	1403	1404	1405	1414	1423	1409	1381	1366	1369	1372	1361	1353	1353	1371	1385	1385	1374	1351	1343	1350	1350	1344	1332	1331	1344	1365	1367	1352	1335	1346	1380	1397	1405	1402	1404	1402	1404	1394	1390	1371	1350	1334	1334	1341	1356	1377	1407	1438	1455	1423	1400	1400	1401	1404	1398	1391	1380	1386	1395	1408	1403	1401	1400	1391	1381	1373	1358	1371	1381	1383	1372	1366	1381	1385	1362	1372	1374	1387	1395	1391	1389	1381	1374	1376	1375	1367	1369	1371	1379	1369	1368	1381	1387	1391	1394	1394	1399	1374	1385	1398	1402	1401	1405	1417	1422	1401	1382	1358	1388	0	0	0	0	0	0	0	0	0	0	0	0	0	0	0	0	0	0	0	0	0	0	0	0	0	0	0	0	0	0	0	0	0	0	0	0	0	0	0	0	0	0	0	0	0	0	0	0	0	0	0	0	0	0	0	0	0	0	0	0	1619	1640	1667	1666	1640	1615	1609	1613	1615	1639	1616	1576	1570	1576	1597	0	0	0	0	0	0	0	0	1472	1464	1421	1432	1453	1452	1439	1420	1401	1381	1369	1363	1369	1375	1375	1369	1371	1360	1364	1374	1389	1401	1408	1412	1414	1418	1422	1418	1408	1408	1405	1407	1405	1395	1389	1382	1379	1378	1379	1377	1385	1395	1398	1401	1379	1374	1373	1368	1367	1370	1366	1368	1417	0	0	0	0	0	0	0	0	0	0	1657	1664	1676	1674	1682	1677	1683	1684	1678	1663	1630	1594	1530	1519	1512	1510	1489	1415	1423	1453	1444	1441	1431	1432	1426	1426	1423	1421	1418	1426	1427	1429	1429	1432	1435	1431	1429	1420	1433	1441	1436	1438	1438	1445	1443	1441	1449	1450	1429	1437	1439	1434	1438	1435	1433	1423	1422	1420	1421	1428	1425	1431	1436	1434	1425	1430	1429	1429	1417	1411	1407	1411	1411	1409	1410	1413	1411	1408	1401	1392	1392	1392	1396	1403	1410	1415	1428	1443	1442	1428	1410	1401	1401	1404	1410	1409	1409	1416	1417	1410	1396	0	0	0	0	0	0	0
0	0	0	1434	1413	1399	1387	1387	1380	1403	1414	1422	1414	1414	1385	1374	1376	1370	1377	1386	1384	1384	1379	1379	1386	1384	1371	1364	1363	1363	1379	1390	1396	1393	1390	1378	1365	1351	1351	1348	1335	1337	1346	1356	1357	1360	1365	1380	1395	1396	1396	0	1349	1349	1373	1405	1418	1433	1444	1434	1428	1417	1413	1409	1410	1406	1418	1424	1434	1427	1427	1415	1411	1412	1454	1455	1421	1382	1378	1393	1423	1427	1434	1425	1417	1408	1397	1408	1432	1449	1430	1400	1396	1392	1396	1407	1419	1421	1409	1389	1380	1391	1396	1385	1378	1384	1382	1386	1392	1397	1396	1392	1381	1372	1365	1367	1372	1385	1401	1394	1385	1385	1375	1373	1377	1378	1365	1358	1347	1369	1388	1388	1396	1416	1422	1432	1433	1432	1432	1440	1463	1471	1465	1454	1449	1451	1459	1473	1468	1461	1456	1458	1451	1444	0	0	0	0	1604	1625	1636	1653	1670	1674	1669	1662	1669	1675	1685	1687	1696	1707	1704	1697	1685	1680	1666	1649	1657	1675	1701	1712	1687	1671	1661	1665	1689	1694	1687	1689	1658	1613	1577	1432	1431	1445	1432	1416	1408	1412	1418	1424	1426	1425	1430	1435	1437	1439	1434	1428	1421	1411	1403	1406	1409	1415	1414	1414	1422	1430	1428	1420	1407	1413	1420	1430	1434	1434	1431	1422	1413	1413	1417	1431	1432	1440	1434	1416	1401	1394	1396	1427	1433	1411	1400	1403	1423	0	0	0	1526	1585	1613	1623	1652	1649	1644	1626	1602	1597	1597	1587	1594	1601	1602	1602	1618	0	0	0	0	0	0	0	0	0	0	0	0	0	0	0	0	0	0	0	0	0	0	0	0	0	0	0	0	0	0	0	0	0	0	0	0	0	0	0	0	0	0	0	0	0	0	0	0	0	0	0	0	0	0	0	0	0	0	0	0	1410	1410	1424	1420	1414	1386	1380	1380	1391	1411	1408	1396	1390	1385	1379	1372	1353	1369	1374	1378	1379	1361	1359	1383	1366	1364	1383	1385	1390	1395	1394	1389	1379	1374	1370	1367	1368	1373	1375	1363	1356	1383	1397	1399	1403	1403	1397	1397	1397	1400	1405	1408	1413	1424	1420	1407	1403	0	0	0	0	0	0	0	0	0	0	0	0	0	0	0	0	0	0	0	0	0	0	0	0	0	0	0	0	0	0	0	0	0	0	0	0	0	0	0	0	0	0	0	0	0	0	0	0	0	0	0	0	0	0	0	0	0	0	0	0	0	0	1671	1688	1707	1698	1677	1667	1656	1656	1658	1669	1648	1626	1613	1621	1636	0	0	0	0	0	0	0	0	0	0	1447	1437	1443	1453	1429	1405	1390	1388	1391	1386	1384	1386	1390	1383	1383	1362	1366	1382	1396	1406	1411	1419	1418	1416	1416	1411	1398	1402	1402	1403	1403	1399	1394	1386	1371	1367	1355	1352	1358	1381	1387	1380	1374	1371	1371	1374	1365	1361	1359	1366	1416	0	0	0	0	0	0	0	0	0	0	1652	1667	1677	1685	1692	1690	1678	1660	1643	1647	1622	1586	1519	1501	1485	1464	1438	1403	1417	1451	1452	1446	1437	1425	1421	1430	1435	1436	1427	1426	1430	1430	1429	1431	1434	1429	1425	1429	1432	1435	1435	1440	1440	1451	1446	1442	1447	1434	1421	1430	1433	1435	1428	1425	1421	1420	1406	1408	1416	1429	1439	1440	1445	1439	1428	1420	1420	1415	1407	1403	1399	1402	1407	1412	1413	1416	1412	1404	1395	1397	1394	1394	1403	1421	1438	1431	1436	1444	1440	1428	1407	1388	1389	1386	1389	1387	1387	1394	1402	1399	1393	0	0	0	0	0	0	0
0	0	0	1414	1410	1404	1403	1403	1424	1437	1435	1417	1405	1405	1400	1399	1387	1379	1380	1390	1402	1402	1457	1463	1450	1421	1390	1368	1365	1365	1380	1397	1420	1425	1420	1415	1405	1391	1391	1397	1356	1324	1303	1312	1321	0	0	0	0	0	0	0	0	0	0	0	0	0	0	0	0	1473	1463	1460	1451	1443	1470	1496	1504	1501	1487	1487	1462	1468	0	0	0	1483	1497	1505	1516	0	0	0	0	0	1481	1453	1446	1450	1433	1405	1383	1379	1385	1411	1416	1410	1404	1391	1382	1384	1389	1384	1375	1379	1379	1385	1396	1397	1393	1390	1388	1381	1375	1372	1376	1381	1395	1391	1382	1383	1373	1369	1364	1368	1366	1365	1350	1372	1393	1389	1390	1397	1408	1419	1420	1427	1433	1452	1472	1480	1474	1464	1457	1460	1470	1487	1476	1464	1455	1459	1451	0	0	0	0	1628	1628	1632	1643	1655	1662	1655	1658	1663	1670	1674	1677	1683	1684	1689	1684	1683	1678	1686	1677	1671	1674	1698	1715	1720	1702	1683	1672	1663	1685	1692	1688	1689	1665	1612	1571	1455	1451	1453	1441	1429	1419	1410	1408	1411	1416	1423	1432	1438	1437	1433	1432	1424	1412	1400	1401	1404	1408	1410	1411	1412	1414	1424	1425	1425	1412	1409	1426	1430	1437	1441	1441	1432	1401	1397	1403	1416	1434	1445	1450	1435	1419	1416	1433	1465	1435	1418	1415	0	0	0	0	0	0	1586	1630	1659	1679	1683	1687	1675	1656	1648	1646	1652	1656	1658	1666	1656	1641	0	0	0	0	0	0	0	0	0	0	0	0	0	0	0	0	0	0	0	0	0	0	0	0	0	0	0	0	0	0	0	0	0	0	0	0	0	0	0	0	0	0	0	0	0	0	0	0	0	0	0	0	0	0	0	0	0	0	0	0	0	0	1441	1423	1416	1395	1375	1378	1397	1410	1397	1388	1385	1381	1379	1367	1349	1375	1377	1374	1375	1374	1359	1360	1376	1379	1378	1374	1370	1371	1370	1369	1370	1372	1366	1374	1374	1376	1370	1354	1349	1386	1399	1402	1406	1407	1400	1406	1412	1406	1407	1407	1406	1408	1405	1407	0	0	0	0	0	0	0	0	0	0	0	0	0	0	0	0	0	0	0	0	0	0	0	0	0	0	0	0	0	0	0	0	0	0	0	0	0	0	0	0	0	0	0	0	0	0	0	0	0	0	0	0	0	0	0	0	0	0	0	0	0	0	0	1714	1738	1729	1708	1689	1685	1685	1677	1683	1678	1683	1672	1650	1662	1651	0	0	0	0	0	0	0	0	0	0	1479	1469	1464	1455	1432	1406	1393	1407	1411	1396	1387	1380	1385	1396	1402	1370	1370	1389	1403	1415	1417	1413	1403	1401	1399	1401	1401	1402	1409	1409	1404	1405	1397	1385	1375	1362	1354	1352	1356	1376	1382	1381	1376	1367	1364	1375	1373	1368	1371	1382	1407	1461	0	0	0	0	0	0	0	0	0	1663	1676	1679	1694	1752	1691	1669	1632	1615	1628	1617	1559	1510	1488	1467	1442	1412	1394	1421	1447	1448	1445	1437	1419	1422	1429	1442	1442	1435	1431	1426	1429	1432	1436	1437	1430	1426	1428	1422	1424	1426	1432	1439	1447	1445	1444	1440	1428	1433	1432	1438	1439	1418	1412	1411	1416	1410	1410	1415	1433	1446	1451	1451	1446	1429	1412	1410	1408	1404	1403	1395	1398	1409	1417	1421	1421	1415	1403	1400	1402	1397	1397	1408	1432	1446	1450	1447	1446	1444	1437	1414	1393	1375	1378	1373	1373	1370	1375	1386	1394	1393	0	0	0	0	0	0	0
0	0	0	1399	1400	1407	1407	1407	1430	1447	1446	1426	1412	1412	1412	1408	1396	1399	1401	1415	1442	1442	1482	1493	1481	1452	1424	1396	1386	1386	1396	1414	1426	1435	1441	1439	1435	1448	1448	0	0	0	0	0	0	0	0	0	0	0	0	0	0	0	0	0	0	0	0	0	0	1503	1500	1494	1495	1509	1526	0	1536	1529	1505	1505	1499	0	0	0	0	1543	1557	1571	1578	0	0	0	0	0	0	1460	1443	1435	1404	1388	1386	1396	1407	1408	1411	1404	1392	1382	1377	1380	1384	1381	1380	1380	1382	1392	1398	1396	1389	1387	1390	1388	1394	1391	1387	1388	1392	1388	1380	1379	1371	1356	1351	1360	1359	1356	1351	1379	1395	1387	1389	1391	1397	1409	1417	1431	1438	1468	1484	1492	1489	1479	1465	1473	1485	1499	1503	1489	1472	1466	1466	0	0	0	0	1648	1630	1634	1646	1651	1652	1652	1653	1656	1664	1665	1670	1675	1672	1667	1660	1671	1679	1685	1677	1670	1681	1687	1708	1703	1686	1674	1657	1654	1678	1687	1687	1691	1689	1579	1573	1488	1464	1456	1441	1435	1421	1407	1402	1401	1406	1418	1431	1428	1422	1424	1427	1418	1407	1399	1400	1405	1408	1406	1398	1398	1409	1414	1417	1420	1415	1420	1428	1428	1433	1438	1438	1413	1416	1412	1409	1409	1428	1439	1457	1459	1446	1450	1472	1460	1438	0	0	0	0	0	0	0	1582	1623	1634	1679	1716	1718	1713	1700	1698	1694	1699	1702	1712	1718	1716	1707	1673	0	0	0	0	0	0	0	0	0	0	0	0	0	0	0	0	0	0	0	0	0	0	0	0	0	0	0	0	0	0	0	0	0	0	0	0	0	0	0	0	0	0	0	0	0	0	0	0	0	0	0	0	0	0	0	0	0	0	0	0	0	0	0	1435	1404	1388	1381	1392	1410	1411	1387	1385	1384	1384	1388	1385	1396	1397	1384	1386	1386	1377	1374	1378	1379	1375	1375	1372	1373	1374	1375	1377	1385	1383	1358	1382	1376	1375	1361	1352	1355	1385	1395	1392	1404	1402	1399	1406	1414	1411	1411	1408	1399	1395	1387	1416	0	0	0	0	0	0	0	0	0	0	0	0	0	0	0	0	0	0	0	0	0	0	0	0	0	0	0	0	0	0	0	0	0	0	0	0	0	0	0	0	0	0	0	0	0	0	0	0	0	0	0	0	0	0	0	0	0	0	0	0	0	0	0	1741	1728	1716	1702	1693	1695	1691	1686	1684	1690	1695	1684	1679	1673	1663	0	0	0	0	0	0	0	0	0	0	0	1515	1496	1461	1428	1401	1399	1415	1421	1401	1373	1370	1379	1404	1417	1399	1402	1408	1411	1415	1411	1401	1392	1394	1394	1397	1395	1401	1409	1411	1403	1400	1390	1381	1380	1371	1359	1355	1354	1362	1377	1384	1382	1368	1374	1389	1388	1385	1395	1409	1411	1451	0	0	0	0	0	0	0	0	0	1690	1684	1679	1688	1749	1691	1677	1638	1626	1628	1617	1561	1501	1485	1453	1430	1407	1395	1420	1438	1437	1433	1429	1418	1423	1430	1437	1437	1432	1422	1417	1423	1430	1437	1439	1431	1427	1432	1428	1421	1420	1422	1431	1440	1443	1445	1432	1429	1442	1442	1433	1429	1416	1409	1410	1417	1419	1423	1428	1439	1455	1459	1455	1448	1427	1411	1402	1400	1408	1405	1408	1418	1421	1412	1416	1418	1415	1410	1407	1408	1408	1408	1425	1440	1451	1458	1454	1448	1446	1447	1424	1404	1386	1372	1369	1369	1367	1372	1381	1394	1403	0	0	0	0	0	0	0
0	0	0	1387	1400	1400	1405	1405	1428	1453	1448	1436	1426	1425	1425	1429	1424	1421	1433	1435	1448	1448	1464	1495	1489	1476	1456	1433	1419	1419	1420	1427	1428	1430	1439	1446	0	0	0	0	0	0	0	0	0	0	0	0	0	0	0	0	0	0	0	0	0	0	0	0	1545	1532	1516	1518	1533	1557	1573	1573	1567	1553	1547	1547	1539	1546	0	0	1587	1587	1596	1795	1797	1792	1782	0	0	0	0	0	1421	1400	1371	1372	1388	1403	1406	1404	1402	1394	1385	1380	1371	1373	1383	1385	1388	1386	1384	1388	1402	1394	1387	1385	1388	1394	1397	1396	1394	1392	1386	1379	1374	1368	1366	1363	1360	1352	1351	1353	1357	1372	1390	1388	1392	1394	1398	1410	1419	1433	1447	1467	1484	1488	1486	1476	1467	1473	1484	1506	1507	1499	1493	1493	1498	0	0	0	0	1646	1641	1638	1646	1640	1648	1648	1646	1658	1665	1660	1656	1660	1654	1651	1653	1673	1680	1691	1682	1689	1681	1681	1686	1685	1685	1674	1662	1658	1678	1681	1683	1685	1684	1572	1535	1480	1457	1458	1440	1428	1421	1411	1399	1398	1404	1409	1422	1416	1403	1408	1420	1422	1412	1404	1402	1406	1410	1407	1402	1397	1404	1408	1412	1420	1421	1422	1421	1423	1424	1428	1431	1422	1428	1422	1418	1408	1420	1441	1455	1464	1457	1478	1487	1454	1423	0	0	0	0	0	0	0	1608	1624	1658	1693	1722	1727	1722	1722	1728	1726	1726	1731	1742	1743	1745	1734	1714	0	0	0	0	0	0	0	0	0	0	0	0	0	0	0	0	0	0	0	0	0	0	0	0	0	0	0	0	0	0	0	0	0	0	0	0	0	0	0	0	0	0	0	0	0	0	0	0	0	0	0	0	0	0	0	0	0	0	0	0	0	0	0	1423	1407	1387	1392	1402	1423	1404	1384	1390	1389	1391	1396	1398	1405	1404	1398	1398	1401	1393	1383	1378	1378	1370	1380	1382	1376	1381	1378	1381	1391	1397	1373	1383	1380	1376	1363	1361	1364	1388	1398	1399	1402	1400	1397	1396	1397	1409	1409	1406	1390	1388	1400	0	0	0	0	0	0	0	0	0	0	0	0	0	0	0	0	0	0	0	0	0	0	0	0	0	0	0	0	0	0	0	0	0	0	0	0	0	0	0	0	0	0	0	0	0	0	0	0	0	0	0	0	0	0	0	0	0	0	0	0	0	0	0	0	1723	1716	1702	1693	1695	1700	1704	1700	1687	1689	1689	1682	1685	1688	1681	0	0	0	0	0	0	0	0	0	0	0	0	1508	1477	1428	1402	1407	1420	1421	1398	1377	1375	1381	1404	1416	1411	1411	1415	1417	1413	1403	1396	1390	1392	1394	1396	1395	1395	1400	1406	1391	1386	1379	1377	1382	1383	1372	1362	1356	1362	1380	1388	1390	1384	1381	1395	1400	1407	1423	1431	1423	1462	0	0	0	0	0	0	0	0	0	1677	1672	1677	1688	1693	1731	1680	1661	1649	1646	1634	1598	1511	1482	1455	1427	1411	1395	1411	1435	1426	1426	1427	1425	1426	1433	1436	1433	1427	1420	1414	1420	1430	1442	1438	1432	1433	1436	1436	1431	1426	1423	1423	1433	1438	1434	1419	1427	1448	1442	1427	1427	1417	1412	1423	1431	1432	1444	1450	1454	1459	1461	1456	1445	1432	1411	1406	1408	1414	1424	1430	1427	1421	1406	1404	1405	1406	1405	1407	1408	1408	1413	1426	1439	1457	1462	1456	1439	1435	1436	1431	1414	1397	1382	1374	1374	1378	1388	1394	1405	1437	0	0	0	0	0	0	0
0	0	0	1397	1402	1401	1408	1408	1422	1453	1456	1443	1442	1435	1435	1443	1438	1436	1438	1445	1449	1449	1464	1473	1480	1477	1471	1463	1457	1457	1451	1452	1449	1479	1470	1469	0	0	0	0	0	0	0	0	0	0	0	0	0	0	0	0	0	0	0	0	0	0	1747	1573	1563	1541	1535	1532	1549	1588	0	0	0	1582	1577	1577	1578	1578	1592	1592	1592	1596	1600	1602	1604	1812	0	1800	1606	0	0	0	1414	1366	1352	1366	1387	1404	1403	1398	1390	1387	1376	1368	1365	1375	1385	1393	1396	1392	1386	1390	1391	1385	1383	1383	1386	1389	1389	1389	1388	1384	1382	1377	1373	1369	1368	1370	1371	1353	1356	1361	1365	1368	1378	1384	1386	1391	1397	1406	1420	1435	1447	1458	1463	1469	1462	1458	1459	1473	1484	1496	1489	1490	1502	1511	1513	1521	0	0	0	0	1654	1645	1642	1637	1641	1642	1644	1667	1666	1658	1648	1656	1660	1652	1658	1678	1686	1688	1689	1696	1690	1678	1677	1670	1671	1679	1672	1665	1681	1676	1671	1679	1683	1573	1540	1467	1457	1456	1444	1431	1424	1418	1412	1408	1410	1415	1418	1410	1388	1401	1412	1423	1415	1408	1403	1407	1411	1410	1413	1417	1413	1405	1412	1416	1423	1422	1417	1418	1418	1425	1428	1436	1440	1428	1416	1422	1418	1432	1447	1456	1458	1482	1496	1458	1415	0	0	0	0	0	0	0	0	1643	1673	1706	1732	1732	1723	1729	1736	1746	1742	1735	1744	1750	1737	1729	1714	0	0	0	0	0	0	0	0	0	0	0	0	0	0	0	0	0	0	0	0	0	0	0	0	0	0	0	0	0	0	0	0	0	0	0	0	0	0	0	0	0	0	0	0	0	0	0	0	0	0	0	0	0	0	0	0	0	0	0	0	0	0	0	1417	1408	1390	1396	1407	1422	1399	1376	1385	1396	1395	1399	1400	1397	1399	1397	1402	1401	1402	1392	1383	1378	1373	1384	1383	1373	1384	1383	1393	1390	1392	1380	1377	1389	1390	1380	1385	1386	1406	1406	1406	1404	1404	1398	1391	1388	1392	1403	1410	1400	1398	1406	0	0	0	0	0	0	0	0	0	0	0	0	0	0	0	0	0	0	0	0	0	0	0	0	0	0	0	0	0	0	0	0	0	0	0	0	0	0	0	0	0	0	0	0	0	0	0	0	0	0	0	0	0	0	0	0	0	0	0	0	0	0	0	0	1699	1700	1695	1700	1698	1707	1710	1710	1690	1684	1679	1673	1684	1688	1686	0	0	0	0	0	0	0	0	0	0	0	0	1451	1455	1431	1412	1417	1423	1412	1396	1393	1387	1399	1401	1410	1414	1417	1421	1422	1425	1413	1405	1396	1390	1387	1397	1395	1400	1397	1400	1384	1381	1377	1380	1391	1390	1382	1367	1359	1368	1383	1391	1397	1392	1395	1399	1407	1421	1443	1449	1448	1492	0	0	0	0	0	0	0	0	0	1667	1657	1671	1679	1694	1966	1685	1666	1666	1672	1653	1623	1519	1486	1460	1436	1413	1394	1401	1428	1432	1433	1431	1431	1439	1443	1444	1440	1431	1414	1407	1411	1433	1438	1439	1436	1438	1447	1448	1445	1431	1431	1430	1435	1433	1429	1412	1431	1456	1451	1438	1436	1430	1429	1441	1441	1448	1457	1458	1461	1461	1452	1445	1438	1429	1415	1408	1411	1422	1434	1437	1427	1410	1401	1395	1395	1399	1403	1403	1401	1401	1402	1417	1428	1441	1460	1441	1431	1418	1420	1426	1415	1404	1388	1387	1387	1394	1399	1402	1405	1426	0	0	0	0	0	0	0
0	0	0	1414	1414	1412	1410	1410	1421	1450	1458	1466	1450	1450	1450	1454	1455	1444	1440	1439	1439	1439	1442	1453	1464	1484	1487	1483	1476	1476	1467	1472	1486	1496	1495	1485	1480	0	0	0	0	0	0	0	0	0	0	0	0	0	0	0	0	0	0	0	1568	1571	1767	0	1576	1555	1538	1542	1568	0	0	0	0	1800	1586	1586	1586	1583	1574	1574	1578	1580	1574	1577	1595	1817	0	1809	1609	0	0	0	1405	1360	1353	1370	1390	1396	1395	1387	1383	1375	1366	1357	1364	1377	1391	1404	1402	1395	1380	1375	1360	1370	1380	1384	1385	1382	1382	1383	1384	1386	1388	1389	1385	1383	1384	1386	1383	1364	1367	1372	1378	1379	1374	1372	1383	1385	1380	1394	1407	1422	1439	1444	1438	1435	1441	1440	1454	1474	1482	1477	1460	1464	1490	1503	1519	1529	0	0	0	0	1663	1644	1638	1636	1648	1647	1645	1663	1669	1660	1648	1647	1657	1661	1673	1683	1683	1682	1696	1708	1697	1677	1668	1668	1667	1690	1685	1683	1691	1669	1666	1683	1688	1595	1560	1466	1448	1444	1436	1434	1428	1426	1420	1411	1416	1412	1411	1406	1391	1396	1407	1421	1418	1408	1403	1402	1407	1412	1417	1421	1415	1411	1410	1415	1422	1420	1414	1411	1415	1419	1423	1430	1447	1438	1436	1430	1417	1427	1432	1443	1451	1471	1497	1467	1433	0	0	0	0	0	0	0	0	1664	1696	1721	1729	1735	1736	1740	1741	1746	1741	1734	1734	1725	1719	1708	1702	0	0	0	0	0	0	0	0	0	0	0	0	0	0	0	0	0	0	0	0	0	0	0	0	0	0	0	0	0	0	0	0	0	0	0	0	0	0	0	0	0	0	0	0	0	0	0	0	0	0	0	0	0	0	0	0	0	0	0	0	0	0	0	1424	1415	1394	1391	1396	1408	1411	1387	1387	1399	1400	1399	1395	1392	1396	1397	1401	1402	1398	1389	1384	1378	1378	1384	1380	1370	1364	1365	1378	1387	1391	1398	1369	1381	1389	1392	1396	1405	1405	1383	1382	1393	1397	1391	1391	1381	1385	1394	1409	1407	1410	1407	0	0	0	0	0	0	0	0	0	0	0	0	0	0	0	0	0	0	0	0	0	0	0	0	0	0	0	0	0	0	0	0	0	0	0	0	0	0	0	0	0	0	0	0	0	0	0	0	0	0	0	0	0	0	0	0	0	0	0	0	0	0	0	0	1705	1691	1696	1697	1703	1703	1712	1702	1676	1668	1669	1673	1679	1693	1701	0	0	0	0	0	0	0	0	0	0	0	1404	1423	1464	1434	1402	1409	1418	1413	1395	1394	1401	1408	1405	1399	1416	1418	1424	1429	1428	1421	1411	1411	1405	1398	1401	1396	1402	1399	1401	1395	1389	1385	1387	1392	1390	1377	1369	1371	1378	1388	1391	1394	1398	1399	1407	1411	1425	1438	1443	1453	1504	0	0	0	0	0	0	0	0	0	1640	1646	1652	1669	1691	1723	1684	1657	1675	0	0	1629	1507	1494	1472	1453	1426	1403	1408	1428	1432	1432	1437	1442	1447	1452	1450	1445	1436	1419	1411	1415	1430	1437	1439	1434	1443	1450	1453	1449	1442	1442	1440	1441	1436	1428	1419	1425	1455	1455	1448	1446	1443	1443	1449	1453	1453	1451	1453	1454	1451	1432	1424	1422	1423	1417	1414	1412	1423	1430	1429	1421	1405	1402	1403	1403	1404	1402	1395	1394	1394	1399	1407	1424	1427	1445	1428	1416	1406	1405	1408	1405	1399	1391	1396	1396	1401	1409	1404	1402	1395	0	0	0	0	0	0	0
0	0	0	1415	1424	1422	1421	1421	1425	1441	1460	1465	1459	1451	1451	1452	1459	1444	1449	1440	1440	1440	1449	1458	1465	1470	1492	1475	1471	1471	1466	1470	1491	1498	1496	1486	1478	0	0	0	0	0	0	0	0	0	0	0	0	0	0	0	0	0	0	0	1551	1568	1782	1783	1576	1555	1545	1556	1565	1582	0	0	0	1592	1584	1584	1576	1569	1561	1567	1569	1573	1572	1572	1577	1604	1817	1607	1609	0	0	0	1416	1374	1375	1375	1386	1392	1388	1382	1378	1375	1361	1356	1363	1379	1394	1406	1405	1392	1380	1359	1349	1359	1373	1380	1383	1384	1384	1385	1391	1400	1401	1404	1400	1399	1397	1397	1391	1368	1372	1378	1382	1386	1389	1368	1370	1376	1368	1384	1402	1421	1429	1427	1429	1409	1416	1440	1472	1483	1489	1476	1437	1445	1466	1509	1522	1528	0	0	0	0	1663	1643	1645	1650	1659	1663	1653	1658	1660	1652	1639	1641	1651	1655	1666	1673	1666	1672	1685	1708	1695	1683	1670	1668	1677	1683	1692	1688	1696	1680	1680	1696	1699	1617	1585	1465	1442	1437	1431	1433	1430	1424	1421	1415	1406	1403	1406	1406	1405	1407	1410	1415	1410	1404	1398	1395	1399	1399	1413	1414	1411	1407	1404	1414	1411	1411	1405	1400	1410	1403	1411	1421	1450	1452	1443	1434	1420	1422	1428	1438	1452	1461	1491	1475	1457	0	0	0	0	0	0	0	0	1686	1705	1720	1732	1739	1750	1754	1750	1746	1744	1727	1718	1710	1692	1683	1693	0	0	0	0	0	0	0	0	0	0	0	0	0	0	0	0	0	0	0	0	0	0	0	0	0	0	0	0	0	0	0	0	0	0	0	0	0	0	0	0	0	0	0	0	0	0	0	0	0	0	0	0	0	0	0	0	0	0	0	0	0	0	0	1416	1420	1405	1390	1387	1388	1413	1411	1399	1400	1401	1402	1397	1388	1397	1393	1394	1396	1393	1391	1385	1391	1386	1382	1376	1374	1368	1361	1354	1375	1382	1381	1386	1385	1388	1393	1401	1405	1394	1373	1372	1376	1383	1387	1387	1381	1384	1392	1399	1407	1416	1408	0	0	0	0	0	0	0	0	0	0	0	0	0	0	0	0	0	0	0	0	0	0	0	0	0	0	0	0	0	0	0	0	0	0	0	0	0	0	0	0	0	0	0	0	0	0	0	0	0	0	0	0	0	0	0	0	0	0	0	0	0	0	0	0	1732	1709	1701	1699	1704	1703	1704	1701	1666	1654	1670	1678	1689	1699	1720	0	0	0	0	0	0	0	0	0	0	0	1396	1417	1479	1447	1397	1399	1406	1416	1395	1394	1397	1405	1410	1401	1417	1419	1422	1429	1431	1424	1415	1417	1408	1418	1416	1411	1397	1401	1407	1405	1402	1403	1408	1408	1403	1394	1386	1393	1399	1396	1391	1392	1392	1411	1412	1412	1415	1422	1427	1444	1485	0	0	0	0	0	0	0	0	0	1637	1627	1642	1663	1680	1683	1661	1648	0	0	0	0	1529	1483	1471	1451	1447	1418	1426	1430	1424	1433	1437	1442	1448	1450	1449	1447	1438	1427	1419	1416	1427	1429	1434	1433	1440	1448	1446	1446	1447	1451	1454	1449	1442	1434	1418	1425	1466	1469	1480	1478	1463	1460	1450	1450	1449	1446	1443	1446	1438	1416	1408	1405	1421	1417	1415	1418	1424	1428	1424	1418	1413	1413	1424	1427	1422	1406	1401	1393	1393	1395	1402	1408	1426	1422	1413	1407	1398	1397	1396	1392	1388	1388	1400	1400	1410	1410	1406	1397	1388	0	0	0	0	0	0	0
0	0	0	1420	1427	1425	1429	1429	1436	1448	1460	1449	1439	1438	1438	1443	1446	1455	1455	1456	1456	1456	1460	1468	1471	1483	1472	1471	1461	1461	1462	1470	1481	1492	1482	1471	1458	0	0	0	0	0	0	0	0	0	0	0	0	0	0	0	0	0	0	0	1534	1554	1571	1578	1571	1557	1558	1551	1563	1565	1584	1593	1593	1583	1568	1568	1561	1555	1548	1554	1559	1569	1564	1565	1580	1586	1588	1589	1598	0	0	0	1442	1412	1388	1380	1386	1391	1381	1378	1375	1377	1368	1360	1365	1374	1388	1403	1403	1391	1383	1356	1350	1357	1365	1372	1382	1385	1390	1397	1406	1410	1410	1408	1401	1402	1401	1397	1388	1368	1371	1376	1376	1386	1400	1371	1371	1369	1357	1383	1405	1425	1428	1425	1410	1403	1409	1445	1459	1484	1483	1468	1433	1433	1457	1488	1510	0	0	0	0	1647	1668	1652	1641	1661	1671	1680	1672	1655	1652	1647	1641	1642	1643	1645	1647	1644	1657	1666	1684	1702	1694	1687	1670	1668	1661	1666	1673	1683	1691	1703	1706	1712	1699	1623	1593	1465	1436	1429	1426	1429	1428	1420	1414	1401	1398	1407	1410	1412	1417	1415	1414	1415	1412	1411	1406	1404	1407	1408	1405	1409	1403	1399	1400	1414	1419	1400	1404	1407	1407	1397	1402	1412	1439	1446	1442	1433	1421	1419	1431	1451	1469	1459	1473	1465	1466	0	0	0	0	0	0	0	0	1693	1711	1722	1732	1751	1763	1760	1752	1752	1745	1735	1719	1703	1688	1677	1684	0	0	0	0	0	0	0	0	0	0	0	0	0	0	0	0	0	0	0	0	0	0	0	0	0	0	0	0	0	0	0	0	0	0	0	0	0	0	0	0	0	0	0	0	0	0	0	0	0	0	0	0	0	0	0	0	0	0	0	0	0	0	0	1390	1428	1418	1400	1383	1388	1419	1417	1405	1403	1403	1400	1394	1391	1394	1389	1391	1391	1390	1391	1396	1400	1389	1387	1394	1393	1375	1363	1363	1370	1370	1368	1385	1387	1386	1390	1399	1404	1381	1369	1369	1375	1379	1380	1386	1379	1381	1393	1396	1406	1417	1417	0	0	0	0	0	0	0	0	0	0	0	0	0	0	0	0	0	0	0	0	0	0	0	0	0	0	0	0	0	0	0	0	0	0	0	0	0	0	0	0	0	0	0	0	0	0	0	0	0	0	0	0	0	0	0	0	0	0	0	0	0	0	0	0	1732	1701	1701	1700	1700	1703	1698	1698	1669	1661	1672	1684	1693	1698	1695	0	0	0	0	0	0	0	0	0	0	0	1426	1448	1485	1462	1408	1402	1409	1422	1389	1378	1382	1386	1403	1397	1404	1413	1414	1416	1413	1411	1414	1417	1420	1429	1427	1412	1402	1400	1395	1407	1416	1425	1428	1424	1418	1414	1410	1405	1402	1393	1392	1390	1390	1411	1416	1413	1404	1412	1415	1432	1467	0	0	0	0	0	0	0	0	0	1635	1627	1633	1646	1661	1662	1650	1643	0	0	0	0	1499	1477	1468	1457	1447	1443	1444	1433	1440	1433	1428	1426	1437	1451	1446	1436	1438	1444	1436	1426	1405	1400	1397	1401	1416	1421	1423	1435	1455	1479	1491	1471	1453	1425	1442	1432	1485	1503	1506	1509	1498	1476	1460	1454	1447	1434	1438	1443	1430	1412	1400	1400	1413	1420	1422	1423	1432	1434	1429	1421	1424	1432	1442	1443	1437	1420	1402	1397	1397	1396	1398	1398	1403	1402	1395	1404	1405	1400	1390	1380	1381	1388	1409	1409	1421	1427	1418	1405	1385	0	0	0	0	0	0	0
0	0	0	1404	1410	1425	1436	1436	1442	1452	1462	1449	1438	1425	1425	1431	1439	1448	1451	1450	1462	1462	1469	1472	1476	1479	1467	1457	1454	1454	1456	1462	1472	1476	1473	1470	1452	0	0	0	0	0	0	0	0	0	0	0	0	0	0	0	0	0	0	0	1533	1546	1563	1571	1562	1555	1558	1552	1554	1550	1561	1570	1579	1568	1567	1567	1559	1553	1548	1558	1560	1570	1564	1566	1566	1572	1574	1583	1590	0	0	0	1444	1410	1380	1381	1388	1384	1379	1378	1376	1379	1377	1370	1365	1370	1378	1386	1395	1391	1383	1356	1349	1350	1364	1372	1377	1383	1393	1404	1411	1412	1407	1398	1394	1391	1392	1389	1371	1364	1365	1367	1369	1394	1395	1383	1374	1369	1370	1397	1408	1422	1433	1433	1428	1431	1429	1439	1448	1455	1453	1457	1446	1435	1443	1472	1508	0	0	0	0	1648	1669	1661	1642	1653	1668	1679	1673	1661	1647	1651	1641	1644	1649	1653	1651	1653	1662	1679	1690	1699	1699	1693	1676	1665	1658	1660	1660	1660	1687	1714	1714	1712	1685	1613	1587	1474	1438	1432	1432	1426	1423	1417	1404	1400	1407	1417	1419	1417	1414	1412	1411	1414	1418	1416	1422	1421	1417	1414	1402	1397	1398	1405	1408	1410	1417	1404	1409	1416	1422	1410	1400	1401	1431	1433	1442	1430	1424	1424	1435	1465	1464	1432	1459	1456	1469	0	0	0	0	0	0	0	0	1685	1720	1725	1737	1749	1770	1758	1749	1750	1750	1743	1730	1705	1691	1690	1678	0	0	0	0	0	0	0	0	0	0	0	0	0	0	0	0	0	0	0	0	0	0	0	0	0	0	0	0	0	0	0	0	0	0	0	0	0	0	0	0	0	0	0	0	0	0	0	0	0	0	0	0	0	0	0	0	0	0	0	0	0	0	0	1395	1414	1412	1397	1383	1398	1420	1429	1412	1402	1397	1390	1388	1390	1403	1401	1390	1390	1389	1391	1391	1398	1395	1408	1406	1395	1385	1384	1382	1377	1375	1377	1392	1377	1380	1387	1403	1407	1381	1374	1375	1376	1381	1381	1386	1383	1390	1386	1395	1413	1420	1420	0	0	0	0	0	0	0	0	0	0	0	0	0	0	0	0	0	0	0	0	0	0	0	0	0	0	0	0	0	0	0	0	0	0	0	0	0	0	0	0	0	0	0	0	0	0	0	0	0	0	0	0	0	0	0	0	0	0	0	0	0	0	0	0	1716	1703	1705	1710	1692	1697	1697	1694	1688	1714	1703	1694	1692	1689	1685	0	0	0	0	0	0	0	0	0	0	0	0	1455	1471	1463	1430	1410	1413	1409	1389	1379	1381	1380	1376	1389	1408	1417	1423	1409	1404	1408	1411	1416	1428	1433	1432	1414	1398	1392	1390	1400	1413	1420	1424	1423	1415	1411	1412	1409	1404	1398	1391	1389	1388	1402	1415	1402	1401	1408	1424	1434	1441	0	0	0	0	0	0	0	0	0	1634	1636	1642	1655	1654	1650	1641	1640	0	0	0	0	1471	1466	1465	1466	1454	1449	1455	1438	1442	1441	1445	1448	1452	1444	1440	1430	1426	1425	1420	1418	1418	1423	1426	1435	1431	1424	1427	1444	1466	1479	1478	1464	1460	1453	1444	1469	1502	1516	1524	1530	1520	1488	1474	1461	1453	1441	1437	1439	1433	1419	1408	1405	1409	1419	1425	1427	1431	1434	1429	1425	1433	1446	1451	1445	1436	1421	1398	1391	1391	1394	1404	1405	1405	1401	1400	1400	1403	1391	1382	1373	1373	1390	1429	1429	1442	1447	1441	1427	1404	0	0	0	0	0	0	0
0	0	0	1418	1419	1424	1438	1438	1449	1456	1467	1453	1444	1436	1436	1433	1430	1433	1441	1445	1466	1454	1464	1464	1465	1468	1461	1451	1447	1447	1450	1456	1467	1485	1482	1480	1459	0	0	0	0	0	0	0	0	0	0	0	0	0	0	0	0	0	0	0	0	1550	1547	1552	1546	1548	1537	1537	1532	1539	1553	1563	1578	1576	1567	1576	1576	1577	1565	1550	1550	1562	1560	1563	1556	1566	1569	1576	1582	0	0	0	1419	1398	1382	1379	1387	1382	1380	1374	1377	1384	1385	1368	1358	1359	1366	1375	1384	1384	1377	1358	1353	1357	1367	1373	1377	1377	1390	1400	1407	1408	1395	1389	1384	1385	1388	1381	1364	1359	1365	1370	1375	1393	1391	1391	1388	1387	1396	1419	1423	1428	1438	1449	1459	1451	1447	1438	1435	1434	1439	1440	1452	1450	1448	1469	1485	0	0	0	0	1637	1662	1661	1639	1638	1647	1670	1667	1657	1649	1651	1659	1660	1663	1672	1677	1677	1682	1694	1700	1703	1710	1698	1685	1667	1663	1659	1666	1674	1697	1713	1710	1709	1657	1592	1578	1530	1446	1434	1434	1431	1426	1419	1406	1404	1413	1427	1428	1419	1413	1412	1414	1414	1420	1421	1424	1429	1427	1410	1396	1395	1398	1410	1414	1418	1418	1431	1431	1428	1433	1425	1411	1405	1422	1429	1428	1427	1428	1435	1457	1460	1448	1410	1406	1446	1489	0	0	0	0	0	0	0	1623	1685	1713	1727	1742	1746	1761	1755	1752	1750	1749	1742	1728	1719	1710	1713	1694	0	0	0	0	0	0	0	0	0	0	0	0	0	0	0	0	0	0	0	0	0	0	0	0	0	0	0	0	0	0	0	0	0	0	0	0	0	0	0	0	0	0	0	0	0	0	0	0	0	0	0	0	0	0	0	0	0	0	0	0	0	0	0	1408	1421	1420	1413	1400	1415	1427	1433	1426	1393	1386	1379	1381	1385	1398	1397	1387	1389	1387	1392	1387	1392	1400	1410	1405	1390	1385	1385	1387	1384	1387	1380	1389	1369	1371	1380	1396	1408	1401	1382	1382	1384	1379	1387	1393	1393	1403	1394	1398	1409	1415	1421	0	0	0	0	0	0	0	0	0	0	0	0	0	0	0	0	0	0	0	0	0	0	0	0	0	0	0	0	0	0	0	0	0	0	0	0	0	0	0	0	0	0	0	0	0	0	0	0	0	0	0	0	0	0	0	0	0	0	0	0	0	0	0	0	1703	1715	1715	1719	1710	1692	1700	1727	1749	1747	1725	1707	1687	1681	1678	0	0	0	0	0	0	0	0	0	0	0	0	1454	1456	1456	1430	1414	1411	1397	1394	1400	1385	1382	1393	1391	1422	1417	1416	1410	1405	1409	1406	1419	1432	1435	1426	1410	1401	1398	1391	1395	1400	1396	1403	1406	1396	1398	1401	1411	1410	1403	1391	1386	1380	1387	1399	1395	1401	1408	1448	1448	1444	0	0	0	0	0	0	0	0	0	1634	1652	1656	1662	1662	1653	1653	0	0	0	0	0	1462	1460	1466	1468	1467	1458	1449	1434	1434	1441	1451	1458	1446	1433	1427	1418	1411	1414	1416	1409	1410	1417	1419	1423	1407	1386	1369	1386	1412	1438	1447	1439	1449	1457	1462	1478	1504	1501	1501	1515	1516	1499	1479	1467	1456	1442	1429	1435	1440	1428	1417	1413	1413	1421	1423	1426	1428	1424	1421	1426	1440	1449	1450	1438	1420	1407	1395	1389	1389	1403	1412	1421	1417	1405	1400	1403	1394	1388	1373	1370	1374	1407	1439	1439	1452	1456	1454	1438	1419	0	0	0	0	0	0	0
0	0	0	1436	1445	1443	1438	1437	1437	1452	1467	1460	1461	1450	1450	1444	1438	1431	1433	1444	1435	1435	1436	1441	1448	1449	1452	1444	1445	1445	1446	1452	1471	1483	1489	1488	1466	0	0	0	0	0	0	0	0	0	0	0	0	0	0	0	0	0	0	0	0	1558	1545	1531	1526	1531	1526	1520	1522	1536	1556	1567	1575	1567	1573	1582	1582	1793	1598	1567	1558	1560	1549	1562	1557	1557	1566	1573	1561	1524	0	1433	1393	1377	1384	1387	1385	1378	1370	1368	1374	1384	1382	1372	1358	1354	1360	1370	1374	1378	1377	1365	1367	1370	1374	1374	1377	1380	1383	1393	1397	1401	1396	1386	1387	1391	1391	1388	1377	1366	1377	1381	1379	1384	1390	1402	1405	1408	1420	1439	1434	1438	1456	1470	1470	1469	1457	1441	1432	1425	1417	1430	1463	1463	1468	1474	1483	0	0	0	0	1609	1649	1649	1642	1634	1650	1670	1671	1660	1663	1672	1667	1667	1682	1689	1688	1688	1688	1705	1707	1702	1702	1700	1698	1685	1674	1670	1680	1687	1709	1698	1695	1688	1647	1584	1573	1531	1431	1431	1433	1434	1433	1425	1416	1409	1417	1429	1436	1424	1418	1416	1417	1419	1416	1415	1419	1428	1431	1417	1398	1390	1396	1414	1416	1418	1416	1430	1426	1428	1434	1430	1426	1424	1431	1427	1425	1424	1434	1448	1449	1450	1432	1393	1394	1451	1496	0	0	0	0	0	0	0	1618	1682	1695	1713	1717	1742	1752	1740	1750	1744	1740	1739	1735	1733	1744	1737	1716	0	0	0	0	0	0	0	0	0	0	0	0	0	0	0	0	0	0	0	0	0	0	0	0	0	0	0	0	0	0	0	0	0	0	0	0	0	0	0	0	0	0	0	0	0	0	0	0	0	0	0	0	0	0	0	0	0	0	0	0	0	0	0	1420	1411	1421	1419	1424	1425	1429	1432	1418	1385	1381	1376	1378	1386	1393	1400	1393	1384	1385	1389	1385	1388	1399	1403	1398	1382	1378	1379	1386	1393	1390	1382	1383	1363	1369	1371	1398	1408	1405	1390	1381	1383	1387	1392	1410	1407	1409	1398	1394	1402	1418	1416	0	0	0	0	0	0	0	0	0	0	0	0	0	0	0	0	0	0	0	0	0	0	0	0	0	0	0	0	0	0	0	0	0	0	0	0	0	0	0	0	0	0	0	0	0	0	0	0	0	0	0	0	0	0	0	0	0	0	0	0	0	0	0	0	1700	1721	1739	1735	1714	1709	1710	1730	1750	1756	1736	1714	1695	1689	1687	0	0	0	0	0	0	0	0	0	0	0	0	1440	1448	1445	1434	1425	1413	1397	1388	1408	1415	1413	1420	1404	1425	1422	1418	1409	1406	1407	1403	1418	1422	1427	1410	1410	1402	1409	1395	1395	1393	1391	1391	1393	1386	1386	1394	1409	1417	1413	1399	1390	1383	1384	1387	1390	1395	1403	1455	1467	1468	0	0	0	0	0	0	0	0	0	1648	1653	1663	1674	1673	1668	1654	0	0	0	0	0	1462	1459	1472	1471	1470	1451	1433	1430	1437	1440	1449	1450	1442	1439	1417	1396	1400	1408	1407	1405	1403	1409	1412	1406	1390	1377	0	1375	1397	1419	1443	1435	1436	1450	1457	1462	1471	1471	1482	1488	1499	1496	1472	1453	1439	1422	1424	1436	1442	1439	1428	1421	1421	1425	1417	1421	1413	1418	1415	1420	1434	1444	1441	1428	1404	1392	1388	1403	1403	1411	1423	1421	1420	1411	1411	1405	1399	1386	1378	1377	1391	1421	1438	1438	1450	1453	1455	1449	1427	0	0	0	0	0	0	0
0	0	0	1459	1456	1449	1432	1425	1425	1431	1444	1458	1468	1470	1470	1474	1459	1438	1430	1423	1429	1429	1421	1425	1434	1434	1441	1449	1449	1449	1451	1456	1470	1481	1489	1483	1465	0	0	0	0	0	0	0	0	0	0	0	0	0	0	0	0	0	0	0	0	0	1549	1530	1518	1512	1519	1520	1528	1545	1563	1566	1563	1566	1564	1573	1573	1596	1590	1574	1563	1554	1547	1551	1563	1562	1573	1569	1551	1507	1465	1416	1377	1367	1386	1405	1385	1376	1361	1358	1364	1374	1376	1369	1363	1354	1360	1362	1372	1377	1377	1375	1375	1381	1379	1382	1384	1384	1384	1382	1388	1401	1400	1397	1400	1408	1405	1395	1381	1369	1387	1394	1388	1380	1392	1403	1406	1413	1432	1437	1435	1435	1452	1464	1472	1462	1451	1443	1426	1411	1406	1425	1465	1468	1475	1476	1476	0	0	0	0	1626	1658	1662	1654	1652	1660	1679	1679	1675	1674	1687	1683	1684	1682	1680	1677	1679	1683	1696	1692	1683	1679	1686	1692	1691	1685	1683	1686	1694	1713	1680	1680	1678	1654	1595	1580	1507	1431	1414	1420	1435	1443	1436	1426	1417	1420	1427	1430	1420	1422	1424	1420	1422	1417	1412	1416	1430	1428	1422	1408	1395	1404	1413	1414	1409	1414	1419	1419	1417	1418	1418	1424	1431	1433	1430	1427	1424	1443	1447	1442	1441	1416	1405	1440	1493	0	0	0	0	0	0	0	0	1601	1676	1687	1698	1713	1713	1734	1740	1741	1739	1743	1739	1737	1749	1756	1751	1725	0	0	0	0	0	0	0	0	0	0	0	0	0	0	0	0	0	0	0	0	0	0	0	0	0	0	0	0	0	0	0	0	0	0	0	0	0	0	0	0	0	0	0	0	0	0	0	0	0	0	0	0	0	0	0	0	0	0	0	0	0	0	0	1414	1406	1429	1429	1437	1437	1434	1429	1402	1383	1378	1380	1390	1393	1410	1408	1401	1394	1394	1381	1383	1386	1384	1400	1391	1375	1368	1373	1383	1391	1395	1386	1386	1372	1368	1372	1394	1402	1406	1393	1391	1386	1390	1404	1421	1411	1403	1394	1394	1400	1413	1417	1448	0	0	0	0	0	0	0	0	0	0	0	0	0	0	0	0	0	0	0	0	0	0	0	0	0	0	0	0	0	0	0	0	0	0	0	0	0	0	0	0	0	0	0	0	0	0	0	0	0	0	0	0	0	0	0	0	0	0	0	0	0	0	0	1727	1762	1751	1743	1727	1716	1713	1710	1714	1738	1733	1716	1704	1696	1686	0	0	0	0	0	0	0	0	0	0	0	0	1433	1447	1454	1425	1431	1417	1399	1384	1406	1420	1431	1424	1402	1421	1423	1417	1414	1408	1404	1398	1402	1404	1402	1398	1406	1414	1422	1407	1395	1383	1390	1391	1390	1387	1384	1391	1408	1420	1417	1410	1402	1397	1391	1388	1387	1388	1388	1401	1462	1492	0	0	0	0	0	0	0	0	0	1662	1663	1662	1667	1662	1658	1633	0	0	0	0	0	1485	1473	1469	1471	1463	1445	1423	1420	1427	1436	1446	1446	1445	1439	1422	1407	1409	1417	1410	1409	1401	1399	1401	1409	1397	0	0	1376	1386	1410	1429	1439	1441	1443	1449	1448	1453	1451	1454	1464	1484	1482	1459	1440	1428	1417	1424	1438	1443	1437	1424	1421	1424	1424	1418	1417	1414	1413	1417	1417	1425	1437	1436	1415	1398	1385	1386	1399	1399	1415	1421	1422	1416	1413	1413	1404	1400	1389	1380	1381	1394	1412	1423	1423	1429	1435	1443	1439	1427	0	0	0	0	0	0	0
0	0	0	1451	1456	1453	1438	1427	1427	1420	1426	1444	1466	1484	1484	1477	1463	1434	1430	1424	1421	1421	1426	1426	1436	1445	1449	1458	1457	1447	1447	1457	1467	1476	1474	1474	1463	1466	0	0	0	0	0	0	0	0	0	0	0	0	0	0	0	0	0	0	0	0	1563	1541	1517	1512	1528	1529	1535	1556	1566	1575	1567	1568	1568	1567	1567	1568	1572	1564	1563	1562	1564	1565	1559	1567	1573	1576	1557	1513	1476	1431	1384	1361	1385	1408	1411	1380	1358	1355	1358	1368	1372	1375	1368	1361	1363	1364	1373	1382	1384	1389	1386	1386	1383	1384	1388	1387	1385	1377	1380	1394	1416	1418	1420	1415	1411	1400	1385	1377	1396	1398	1394	1385	1390	1398	1399	1407	1422	1432	1429	1429	1437	1449	1452	1453	1447	1447	1433	1423	1424	1434	1466	1471	1470	1476	1476	0	0	0	0	1640	1682	1689	1687	1665	1667	1689	1680	1681	1690	1696	1684	1680	1668	1666	1662	1661	1672	1681	1681	1664	1672	1679	1681	1682	1681	1681	1685	1696	1704	1677	1674	1674	1664	1610	1585	1501	1446	1419	1414	1421	1431	1435	1432	1424	1421	1419	1416	1414	1429	1433	1426	1420	1412	1405	1419	1429	1434	1431	1417	1411	1410	1411	1409	1407	1405	1407	1412	1416	1415	1411	1417	1423	1422	1416	1407	1418	1435	1435	1429	1421	1428	1441	1457	1499	0	0	0	0	0	0	0	0	1595	1686	1693	1696	1699	1721	1727	1742	1750	1746	1742	1748	1744	1743	1743	1753	1757	0	0	0	0	0	0	0	0	0	0	0	0	0	0	0	0	0	0	0	0	0	0	0	0	0	0	0	0	0	0	0	0	0	0	0	0	0	0	0	0	0	0	0	0	0	0	0	0	0	0	0	0	0	0	0	0	0	0	0	0	0	0	0	1406	1402	1433	1437	1438	1441	1435	1408	1399	1395	1388	1394	1395	1397	1417	1410	1404	1399	1398	1400	1383	1382	1382	1392	1392	1384	1374	1373	1384	1392	1394	1390	1386	1382	1371	1372	1392	1398	1398	1396	1394	1397	1404	1411	1419	1405	1400	1393	1391	1406	1416	1427	1496	0	0	0	0	0	0	0	0	0	0	0	0	0	0	0	0	0	0	0	0	0	0	0	0	0	0	0	0	0	0	0	0	0	0	0	0	0	0	0	0	0	0	0	0	0	0	0	0	0	0	0	0	0	0	0	0	0	0	0	0	0	0	0	1727	1777	1781	1767	1752	1740	1727	1697	1687	1700	1708	1709	1704	1698	1682	0	0	0	0	0	0	0	0	0	0	0	0	1423	1457	1458	1417	1427	1432	1409	1389	1401	1412	1424	1420	1395	1406	1409	1416	1414	1406	1397	1390	1387	1386	1387	1385	1396	1411	1414	1412	1396	1388	1393	1397	1395	1388	1385	1400	1411	1418	1416	1418	1421	1415	1394	1387	1385	1382	1382	1392	1455	1494	0	0	0	0	0	0	0	0	0	1688	1675	1663	1662	1644	1647	0	0	0	0	0	0	1495	1476	1460	1445	1434	1435	1430	1404	1417	1432	1443	1449	1448	1442	1431	1423	1422	1424	1423	1410	1408	1398	1400	1413	1413	0	0	1394	1392	1407	1425	1434	1434	1438	1441	1456	1455	1459	1455	1459	1468	1455	1448	1440	1426	1417	1427	1436	1446	1424	1416	1420	1415	1413	1416	1414	1415	1419	1418	1424	1429	1429	1425	1418	1402	1392	1386	1386	1393	1412	1415	1413	1407	1402	1399	1399	1396	1388	1370	1373	1388	1397	1405	1405	1412	1416	1416	1418	1411	0	0	0	0	0	0	0
0	0	0	1443	1447	1446	1440	1427	1427	1419	1413	1429	1453	1469	1469	1470	1437	1434	1419	1420	1424	1424	1427	1441	1451	1462	1464	1466	1467	1463	1463	1457	1452	1460	1468	1465	1462	1464	0	0	0	0	0	0	0	0	0	0	0	0	0	0	0	0	0	0	0	1754	1577	1555	1522	1519	1526	1543	1555	1565	1573	1575	1577	1579	1570	1561	1561	1552	1555	1556	1553	1550	1559	1574	1574	1574	1583	1591	1567	1535	1496	1459	1407	1370	1383	1408	1413	1393	1376	1366	1366	1373	1370	1378	1370	1368	1368	1369	1378	1387	1400	1396	1396	1392	1388	1388	1391	1395	1386	1380	1378	1394	1409	1419	1418	1410	1397	1390	1386	1382	1397	1400	1390	1383	1386	1390	1386	1394	1421	1432	1428	1431	1431	1438	1436	1443	1447	1449	1450	1450	1458	1469	1457	1467	1464	1470	1470	0	0	0	0	0	1700	1697	1681	1675	1668	1680	1676	1685	1695	1692	1687	1679	1670	1667	1656	1656	1655	1669	1672	1664	1665	1672	1680	1680	1669	1670	1680	1691	1688	1686	1685	1674	1654	1596	1572	1484	1454	1432	1406	1405	1412	1428	1431	1424	1415	1407	1399	1404	1414	1430	1427	1417	1407	1397	1408	1424	1437	1436	1425	1414	1408	1408	1409	1410	1411	1411	1422	1423	1422	1413	1410	1417	1415	1410	1401	1420	1441	1432	1421	1417	1439	1443	1447	1476	1511	0	0	0	0	0	0	0	1601	1702	1705	1703	1703	1728	1741	1749	1751	1753	1755	1756	1750	1740	1730	1728	1767	0	0	0	0	0	0	0	0	0	0	0	0	0	0	0	0	0	0	0	0	0	0	0	0	0	0	0	0	0	0	0	0	0	0	0	0	0	0	0	0	0	0	0	0	0	0	0	0	0	0	0	0	0	0	0	0	0	0	0	0	0	0	0	1401	1415	1440	1444	1442	1435	1424	1407	1400	1403	1400	1400	1397	1398	1415	1405	1400	1398	1399	1403	1382	1380	1379	1385	1388	1381	1372	1374	1381	1385	1392	1392	1387	1384	1374	1375	1395	1399	1391	1390	1399	1399	1406	1402	1416	1410	1402	1396	1392	1402	1424	1441	1520	0	0	0	0	0	0	0	0	0	0	0	0	0	0	0	0	0	0	0	0	0	0	0	0	0	0	0	0	0	0	0	0	0	0	0	0	0	0	0	0	0	0	0	0	0	0	0	0	0	0	0	0	0	0	0	0	0	0	0	0	0	0	0	1736	1785	1798	1794	1768	1752	1732	1681	1675	1696	1706	1710	1714	1708	1686	0	0	0	0	0	0	0	0	0	0	0	0	1435	1456	1463	1408	1412	1420	1412	1392	1393	1403	1415	1410	1393	1396	1402	1406	1408	1402	1395	1381	1372	1372	1375	1379	1388	1397	1400	1404	1397	1392	1395	1405	1399	1398	1390	1392	1406	1414	1423	1425	1433	1429	1402	1388	1382	1378	1382	1400	1440	1499	0	0	0	0	0	0	0	0	0	0	1701	1669	1650	1639	0	0	0	0	0	0	0	1499	1468	1462	1442	1430	1422	1424	1399	1408	1435	1445	1447	1451	1449	1431	1433	1431	1434	1436	1428	1405	1399	1400	1417	1435	1426	1418	1417	1413	1418	1420	1434	1432	1434	1439	1462	1470	1468	1455	1462	1461	1450	1442	1437	1427	1421	1427	1444	1440	1418	1411	1418	1414	1406	1410	1414	1416	1418	1423	1435	1440	1439	1431	1420	1409	1399	1393	1393	1396	1401	1402	1401	1393	1382	1385	1390	1389	1388	1371	1377	1379	1390	1390	1395	1401	1392	1393	1392	1388	0	0	0	0	0	0	0
