0	0	0	0	0	0	0	0	0	0	0	0	0	0	0	0	0	0	0	0	0	0	0	0	0	0	0	0	0	0	0	0	0	0	0	0	0	0	0	0	0	0	0	0	0	0	0	0	0	0	0	0	0	0	0	0	0	0	0	0	0	0	0	0	0	0	0	0	0	0	0	0	0	0	0	0	0	0	0	0	0	0	0	0	0	0	0	0	0	0	0	0	0	0	0	0	0	0	0	0	0	0	0	0	0	0	0	0	0	0	0	0	0	0	0	0	0	0	0	0	0	0	0	0	0	0	0	0	0	0	0	0	0	0	0	0	0	0	0	0	0	0	0	0	0	0	0	0	0	0	0	0	0	0	0	0	0	0	0	0	0	0	0	0	0	0	0	0	0	0	0	0	0	0	0	0	0	0	0	0	0	0	0	1356	1374	1391	1418	1414	1408	1396	1387	1379	1385	1401	1408	1403	1397	1383	1387	1395	1400	1411	1409	1409	1417	1425	1428	1421	1414	1410	1403	1407	1407	1407	1403	1399	1399	1402	1422	1411	1401	1397	1408	1418	1412	1400	1396	1403	1414	1413	1409	1411	1405	1402	1414	1419	1429	1433	1432	1429	1419	1403	1394	1385	1386	1387	1396	1407	1415	1416	1418	1414	1422	1431	1434	1426	1414	1407	1415	1422	1440	1438	1412	1413	1415	1416	1410	1406	1419	1430	1438	1446	1442	1435	1432	1439	1448	1443	1441	1431	1430	1434	1438	1433	1424	1416	1412	1419	1427	1430	1436	1439	1437	1431	1424	1421	1419	1413	1404	1408	1407	1417	1419	1419	1423	1428	1426	1419	1412	1414	1414	1413	1414	1419	1428	1434	1439	1442	1450	1447	1427	1411	1404	1412	1427	1427	1437	1457	1441	1435	1454	1452	1421	1418	1387	1419	1447	1449	1442	1430	1426	1430	1437	1455	1462	1455	1442	1433	1428	1423	1421	1414	1414	1424	1447	1471	1475	1471	1458	1445	1435	1438	1442	1451	1446	1437	1448	1446	1448	1437	1434	1432	1441	1442	1435	1415	1415	1419	1424	1430	1439	1439	1439	1439	1447	1453	1454	1448	1436	1432	1444	1455	1463	1453	1440	1440	1433	1425	1423	1423	1438	1447	1449	1443	1435	1434	1430	1423	1423	1440	1447	1448	1450	1455	1451	1444	1449	1450	1451	1456	1454	1454	1450	1442	1436	1445	1450	1456	1462	1465	1477	1477	1470	1467	1470	1474	1472	1468	1460	1442	1445	1458	1460	1454	1443	1451	1450	1453	1463	1457	1458	1456	1462	1455	1455	1457	1462	1461	1443	1442	1447	1455	1461	1465	1457	1452	1458	1463	1459	1457	1464	1459	1458	1446	1439	1434	1444	1450	1452	1440	1446	1448	0	0	0	0	0	0	0	0	0	0	0	0	0	0	0	0	0	0	0	0	0	0	0	1548	1532	1522	1514	1526	1531	1536	1537	1539	1535	1526	1518	1516	1534	1546	1546	1537	1526	1525	1525	1522	1520	1535	1533	1517	1515	1525	1537	1559	1580	0	0	0	0	0	0	0	0	0	0	0	0	0	0	0	0	0	0	1488	1465	1480	1496	1500	1491	1475	1458	1440	1434	1422	1444	1475	1498	1505	1512	1515	1516	1502	1503	1502	1492	1474	1470	1466	1458	1453	1471	1474	1464	1456	1460	1466	1463	1458	1457	1457	1473	1482	1466	1472	1478	1481	1472	1449	1465	1473	1496	1499	1497	1491	1485	1472	1469	1461	1461	1464	1464	1464	1460	1458	1466	1478	1473	1466	1454	1453	1472	1494	1499	1488	1488	1470	1461	1461	1468	1472	1470	1470	1461	1477	1477	0	0	0	0	0
0	0	0	0	0	0	0	0	0	0	0	0	0	0	0	0	0	0	0	0	0	0	0	0	0	0	0	0	0	0	0	0	0	0	0	0	0	0	0	0	0	0	0	0	0	0	0	0	0	0	0	0	0	0	0	0	0	0	0	0	0	0	0	0	0	0	0	0	0	0	0	0	0	0	0	0	0	0	0	0	0	0	0	0	0	0	0	0	0	0	0	0	0	0	0	0	0	0	0	0	0	0	0	0	0	0	0	0	0	0	0	0	0	0	0	0	0	0	0	0	0	0	0	0	0	0	0	0	0	0	0	0	0	0	0	0	0	0	0	0	0	0	0	0	0	0	0	0	0	0	0	0	0	0	0	0	0	0	0	0	0	0	0	0	0	0	0	0	0	0	0	0	0	0	0	0	0	0	0	0	0	0	0	1352	1372	1415	1425	1429	1426	1416	1394	1388	1392	1401	1401	1406	1399	1398	1397	1405	1414	1414	1399	1392	1386	1397	1404	1418	1411	1408	1407	1406	1410	1409	1403	1398	1397	1402	1427	1419	1409	1405	1410	1420	1413	1400	1402	1410	1412	1413	1411	1415	1418	1425	1423	1425	1428	1443	1442	1435	1427	1415	1405	1402	1400	1401	1407	1407	1409	1416	1421	1422	1429	1438	1433	1421	1409	1410	1416	1425	1424	1420	1411	1412	1407	1402	1400	1406	1421	1429	1436	1439	1436	1429	1429	1441	1457	1463	1459	1449	1439	1441	1444	1440	1418	1410	1411	1419	1426	1432	1436	1436	1433	1425	1428	1428	1426	1422	1419	1421	1424	1426	1431	1429	1427	1432	1432	1429	1417	1417	1415	1414	1419	1422	1416	1430	1429	1435	1444	1439	1412	1398	1400	1409	1414	1427	1442	1464	1448	1441	1444	1435	1413	1415	1411	1426	1437	1436	1438	1434	1422	1423	1438	1471	1467	1455	1439	1420	1415	1416	1418	1419	1419	1427	1435	1440	1427	1433	1431	1431	1430	1434	1438	1447	1442	1441	1446	1444	1446	1437	1426	1430	1437	1443	1433	1425	1420	1422	1420	1432	1437	1440	1440	1443	1451	1455	1456	1449	1438	1430	1442	1453	1459	1449	1441	1436	1443	1433	1435	1443	1450	1453	1451	1449	1443	1436	1426	1414	1413	1416	1426	1436	1434	1442	1448	1451	1451	1447	1450	1450	1451	1446	1440	1432	1427	1439	1445	1443	1449	1462	1469	1474	1474	1473	1474	1475	1475	1468	1462	1445	1442	1457	1464	1459	1452	1448	1451	1459	1467	1470	1465	1456	1449	1460	1466	1464	1472	1464	1460	1444	1446	1447	1458	1460	1460	1459	1466	1472	1472	1464	1462	1455	1451	1455	1450	1451	1456	1456	1443	1437	1456	1476	0	0	0	0	0	0	0	0	0	0	0	0	0	0	0	0	0	0	0	0	0	0	0	1551	1534	1531	1511	1521	1526	1531	1535	1540	1537	1530	1519	1523	1543	1548	1547	1537	1525	1525	1520	1516	1513	1518	1524	1515	1513	1514	1525	1557	1580	0	0	0	0	0	0	0	0	0	0	0	0	0	0	0	0	0	0	1507	1469	1473	1482	1489	1484	1470	1451	1437	1419	1426	1452	1483	1491	1493	1500	1493	1498	1497	1496	1503	1502	1482	1479	1473	1463	1465	1467	1476	1475	1477	1472	1473	1465	1466	1465	1478	1478	1482	1473	1473	1473	1476	1476	1488	1483	1488	1495	1493	1486	1485	1484	1484	1477	1474	1476	1473	1469	1466	1466	1465	1467	1471	1479	1472	1457	1458	1471	1490	1490	1487	1478	1478	1472	1475	1474	1475	1465	1459	1449	1456	0	0	0	0	0	0
0	0	0	0	0	0	0	0	0	0	0	0	0	0	0	0	0	0	0	0	0	0	0	0	0	0	0	0	0	0	0	0	0	0	0	0	0	0	0	0	0	0	0	0	0	0	0	0	0	0	0	0	0	0	0	0	0	0	0	0	0	0	0	0	0	0	0	0	0	0	0	0	0	0	0	0	0	0	0	0	0	0	0	0	0	0	0	0	0	0	0	0	0	0	0	0	0	0	0	0	0	0	0	0	0	0	0	0	0	0	0	0	0	0	0	0	0	0	0	0	0	0	0	0	0	0	0	0	0	0	0	0	0	0	0	0	0	0	0	0	0	0	0	0	0	0	0	0	0	0	0	0	0	0	0	0	0	0	0	0	0	0	0	0	0	0	0	0	0	0	0	0	0	0	0	0	0	0	0	0	0	0	0	1354	1379	1422	1430	1431	1430	1427	1398	1391	1395	1400	1404	1405	1414	1411	1408	1413	1422	1415	1400	1385	1385	1394	1397	1408	1414	1411	1407	1411	1417	1419	1415	1408	1409	1420	1436	1429	1416	1408	1413	1418	1413	1408	1410	1416	1409	1412	1412	1414	1422	1428	1427	1421	1428	1446	1447	1442	1437	1427	1426	1424	1421	1414	1412	1405	1410	1409	1414	1423	1436	1437	1431	1426	1423	1422	1428	1431	1432	1419	1416	1422	1421	1417	1414	1423	1427	1427	1433	1434	1431	1425	1441	1448	1457	1465	1463	1456	1442	1437	1438	1435	1429	1410	1414	1419	1435	1439	1439	1433	1420	1423	1427	1432	1430	1426	1430	1433	1445	1441	1437	1428	1435	1438	1437	1437	1428	1424	1421	1417	1423	1428	1417	1420	1417	1426	1432	1438	1424	1413	1411	1419	1425	1431	1441	1447	1431	1436	1437	1428	1416	1413	1412	1422	1417	1430	1438	1442	1452	1454	1462	1472	1476	1461	1432	1418	1409	1409	1420	1430	1439	1445	1446	1432	1429	1434	1440	1436	1428	1426	1426	1429	1436	1438	1453	1449	1453	1439	1431	1451	1453	1451	1439	1428	1422	1425	1419	1428	1430	1432	1441	1447	1448	1450	1453	1443	1435	1434	1441	1461	1455	1451	1440	1444	1442	1436	1441	1447	1453	1454	1454	1456	1457	1445	1436	1420	1412	1418	1421	1417	1418	1424	1446	1457	1455	1447	1445	1450	1446	1443	1427	1414	1409	1412	1416	1427	1442	1451	1454	1463	1472	1471	1467	1468	1466	1461	1469	1452	1444	1454	1457	1457	1451	1450	1457	1468	1471	1476	1468	1459	1449	1445	1460	1464	1468	1470	1463	1446	1443	1446	1444	1459	1461	1466	1469	1474	1471	1467	1463	1464	1463	1459	1462	1460	1452	1450	1431	1436	1450	1490	0	0	0	0	0	0	0	0	0	0	0	0	0	0	0	0	0	0	0	0	0	0	0	1560	1557	1544	1541	1521	1525	1527	1525	1524	1540	1534	1541	1546	1558	1558	1558	1539	1524	1518	1513	1514	1516	1517	1520	1510	1512	1517	1519	1544	1574	0	0	0	0	0	0	0	0	0	0	0	0	0	0	0	0	0	0	0	1478	1461	1473	1489	1490	1483	1467	1449	1444	1451	1465	1487	1486	1481	1486	1488	1481	1488	1488	1498	1495	1482	1480	1473	1471	1471	1480	1482	1482	1485	1479	1472	1468	1465	1472	1476	1476	1479	1480	1479	1476	1470	1468	1488	1482	1485	1492	1487	1488	1493	1492	1495	1489	1480	1472	1465	1465	1469	1469	1473	1472	1477	1486	1482	1487	1474	1469	1463	1471	1462	1450	1450	1448	1445	1467	1482	1467	1455	1445	1450	0	0	0	0	0	0
0	0	0	0	0	0	0	0	0	0	0	0	0	0	0	0	0	0	0	0	0	0	0	0	0	0	0	0	0	0	0	0	0	0	0	0	0	0	0	0	0	0	0	0	0	0	0	0	0	0	0	0	0	0	0	0	0	0	0	0	0	0	0	0	0	0	0	0	0	0	0	0	0	0	0	0	0	0	0	0	0	0	0	0	0	0	0	0	0	0	0	0	0	0	0	0	0	0	0	0	0	0	0	0	0	0	0	0	0	0	0	0	0	0	0	0	0	0	0	0	0	0	0	0	0	0	0	0	0	0	0	0	0	0	0	0	0	0	0	0	0	0	0	0	0	0	0	0	0	0	0	0	0	0	0	0	0	0	0	0	0	0	0	0	0	0	0	0	0	0	0	0	0	0	0	0	0	0	0	0	0	0	0	1367	1385	1439	1440	1431	1428	1419	1391	1387	1388	1397	1401	1409	1422	1420	1408	1413	1422	1423	1400	1387	1384	1392	1407	1412	1420	1411	1406	1412	1421	1427	1424	1418	1421	1438	1440	1430	1422	1419	1421	1419	1422	1426	1420	1407	1407	1406	1407	1411	1414	1408	1410	1412	1426	1433	1443	1444	1441	1442	1440	1432	1424	1422	1415	1410	1411	1408	1415	1429	1439	1440	1434	1433	1434	1436	1440	1440	1422	1416	1419	1424	1432	1431	1433	1440	1436	1432	1433	1430	1436	1446	1448	1449	1453	1457	1449	1439	1429	1417	1418	1432	1433	1423	1419	1433	1444	1451	1449	1440	1427	1431	1435	1437	1434	1433	1437	1453	1456	1447	1443	1441	1444	1438	1434	1433	1425	1422	1421	1421	1428	1431	1420	1419	1422	1419	1433	1438	1436	1431	1434	1434	1437	1430	1425	1424	1426	1439	1440	1426	1435	1412	1404	1414	1417	1418	1426	1442	1461	1463	1459	1463	1455	1448	1440	1432	1421	1413	1419	1426	1429	1434	1430	1432	1443	1454	1457	1449	1436	1424	1412	1405	1417	1444	1465	1472	1464	1456	1453	1457	1453	1453	1445	1439	1430	1427	1424	1425	1428	1429	1439	1456	1457	1466	1459	1457	1458	1465	1470	1472	1467	1458	1454	1443	1433	1434	1435	1441	1447	1451	1453	1464	1481	1484	1475	1442	1423	1426	1420	1412	1410	1422	1441	1461	1455	1446	1446	1440	1446	1437	1424	1410	1401	1405	1414	1426	1435	1438	1447	1454	1471	1462	1462	1457	1457	1459	1466	1468	1453	1450	1452	1451	1449	1451	1458	1463	1473	1480	1485	1475	1461	1452	1452	1461	1469	1471	1470	1451	1447	1449	1451	1452	1462	1459	1466	1471	1466	1465	1476	1483	1473	1461	1458	1462	1452	1445	1437	1444	1461	1486	0	0	0	0	0	0	0	0	0	0	0	0	0	0	0	0	0	0	0	0	0	0	0	1580	1583	1579	1567	1529	1519	1516	1515	1524	1536	1547	1558	1570	1573	1567	1557	1537	1525	1510	1507	1510	1520	1531	1518	1513	1514	1513	1515	1529	1553	0	0	0	0	0	0	0	0	0	0	0	0	0	0	0	0	0	0	0	1517	1468	1476	1495	1503	1507	1489	1474	1461	1469	1480	1482	1483	1488	1488	1483	1487	1493	1492	1476	1467	1470	1477	1482	1482	1480	1480	1485	1489	1488	1482	1478	1467	1472	1477	1493	1495	1495	1492	1484	1464	1458	1466	1474	1483	1472	1480	1483	1494	1496	1496	1494	1492	1478	1464	1461	1462	1470	1474	1474	1475	1478	1488	1491	1494	1476	1472	1463	1461	1457	1451	1451	1455	1463	1485	1494	1479	1462	1449	1448	0	0	0	0	0	0
0	0	0	0	0	0	0	0	0	0	0	0	0	0	0	0	0	0	0	0	0	0	0	0	0	0	0	0	0	0	0	0	0	0	0	0	0	0	0	0	0	0	0	0	0	0	0	0	0	0	0	0	0	0	0	0	0	0	0	0	0	0	0	0	0	0	0	0	0	0	0	0	0	0	0	0	0	0	0	0	0	0	0	0	0	0	0	0	0	0	0	0	0	0	0	0	0	0	0	0	0	0	0	0	0	0	0	0	0	0	0	0	0	0	0	0	0	0	0	0	0	0	0	0	0	0	0	0	0	0	0	0	0	0	0	0	0	0	0	0	0	0	0	0	0	0	0	0	0	0	0	0	0	0	0	0	0	0	0	0	0	0	0	0	0	0	0	0	0	0	0	0	0	0	0	0	0	0	0	0	0	0	0	1375	1404	1443	1443	1441	1438	1412	1388	1383	1386	1394	1401	1409	1420	1424	1420	1408	1408	1403	1402	1393	1386	1393	1405	1420	1419	1408	1403	1410	1417	1418	1421	1421	1427	1434	1436	1425	1417	1414	1417	1425	1432	1431	1424	1411	1402	1401	1405	1405	1408	1408	1406	1406	1419	1427	1433	1438	1440	1437	1439	1433	1436	1420	1416	1409	1410	1410	1419	1434	1446	1443	1439	1438	1434	1439	1431	1432	1412	1406	1409	1417	1430	1437	1445	1445	1447	1441	1441	1443	1441	1445	1445	1446	1443	1439	1430	1426	1417	1408	1419	1431	1435	1440	1439	1442	1448	1454	1454	1444	1431	1429	1431	1434	1431	1432	1436	1457	1456	1452	1446	1449	1450	1442	1430	1418	1418	1417	1418	1426	1437	1438	1426	1419	1419	1428	1433	1439	1443	1451	1454	1450	1446	1434	1432	1435	1440	1455	1460	1445	1460	1445	1416	1424	1420	1424	1434	1458	1481	1489	1489	1472	1453	1453	1460	1471	1472	1455	1445	1442	1442	1435	1436	1441	1451	1458	1453	1444	1439	1432	1435	1438	1442	1453	1465	1463	1447	1430	1425	1435	1443	1458	1466	1470	1461	1449	1451	1444	1430	1423	1427	1436	1446	1449	1455	1446	1444	1435	1442	1439	1442	1438	1445	1451	1469	1470	1460	1452	1446	1445	1445	1444	1461	1477	1477	1469	1466	1460	1441	1430	1421	1435	1456	1476	1464	1463	1444	1442	1443	1438	1417	1407	1405	1411	1422	1430	1434	1445	1464	1470	1468	1465	1456	1458	1450	1457	1468	1474	1456	1447	1446	1446	1444	1445	1450	1458	1467	1480	1485	1474	1465	1452	1457	1466	1476	1479	1472	1453	1457	1447	1458	1458	1461	1464	1460	1459	1460	1465	1472	1487	1495	1475	1453	1448	1449	1454	1447	1458	1466	1471	0	0	0	0	0	0	0	0	0	0	0	0	0	0	0	0	0	0	0	0	0	0	0	1581	1586	1587	1586	1559	1505	1509	1509	1518	1543	1555	1577	1591	1592	1575	1555	1539	1527	1512	1513	1523	1532	1541	1526	1525	1517	1516	1519	1534	0	0	0	0	0	0	0	0	0	0	0	0	0	0	0	0	0	0	0	0	1512	1480	1487	1506	1513	1518	1507	1498	1487	1487	1483	1475	1480	1489	1491	1486	1496	1507	1504	1483	1469	1469	1479	1489	1488	1486	1485	1488	1492	1495	1493	1479	1476	1480	1488	1497	1499	1490	1490	1477	1464	1464	1462	1469	1474	1473	1468	1475	1490	1491	1493	1486	1482	1475	1461	1459	1460	1469	1479	1479	1484	1482	1485	1493	1505	1494	1475	1471	1468	1472	1476	1485	1485	1497	1503	1498	1479	1460	1459	1456	0	0	0	0	0	0
0	0	0	0	0	0	0	0	0	0	0	0	0	0	0	0	0	0	0	0	0	0	0	0	0	0	0	0	0	0	0	0	0	0	0	0	0	0	0	0	0	0	0	0	0	0	0	0	0	0	0	0	0	0	0	0	0	0	0	0	0	0	0	0	0	0	0	0	0	0	0	0	0	0	0	0	0	0	0	0	0	0	0	0	0	0	0	0	0	0	0	0	0	0	0	0	0	0	0	0	0	0	0	0	0	0	0	0	0	0	0	0	0	0	0	0	0	0	0	0	0	0	0	0	0	0	0	0	0	0	0	0	0	0	0	0	0	0	0	0	0	0	0	0	0	0	0	0	0	0	0	0	0	0	0	0	0	0	0	0	0	0	0	0	0	0	0	0	0	0	0	0	0	0	0	0	0	0	0	0	0	0	0	1389	1431	1432	1433	1435	1434	1418	1389	1383	1387	1391	1396	1406	1416	1420	1422	1422	1415	1413	1411	1406	1394	1395	1413	1423	1417	1403	1403	1401	1404	1397	1402	1405	1419	1424	1426	1417	1411	1401	1411	1421	1422	1413	1400	1402	1405	1402	1407	1410	1414	1408	1402	1397	1405	1413	1421	1427	1427	1427	1431	1431	1435	1428	1404	1402	1412	1413	1425	1438	1448	1446	1439	1433	1426	1431	1433	1429	1408	1406	1404	1408	1417	1426	1435	1443	1447	1448	1452	1452	1439	1437	1440	1444	1441	1430	1425	1424	1413	1410	1417	1420	1432	1440	1446	1442	1445	1445	1445	1442	1431	1422	1422	1424	1424	1426	1438	1449	1458	1456	1453	1453	1453	1449	1430	1418	1415	1414	1415	1420	1434	1437	1431	1431	1424	1426	1431	1442	1448	1456	1459	1457	1449	1439	1440	1442	1455	1458	1460	1448	1442	1451	1441	1428	1423	1430	1440	1464	1479	1490	1501	1479	1456	1458	1468	1476	1471	1463	1449	1443	1447	1439	1440	1444	1452	1458	1455	1442	1434	1433	1432	1439	1441	1450	1457	1456	1442	1431	1424	1433	1448	1463	1465	1467	1461	1452	1453	1447	1433	1425	1422	1430	1441	1441	1445	1438	1435	1437	1440	1440	1441	1439	1440	1456	1471	1476	1473	1460	1455	1449	1448	1443	1452	1458	1463	1467	1467	1461	1447	1438	1432	1437	1450	1469	1463	1451	1456	1455	1458	1450	1434	1419	1435	1444	1443	1438	1439	1442	1455	1467	1472	1458	1440	1436	1448	1461	1481	1482	1476	1462	1463	1459	1455	1449	1443	1434	1430	1437	1442	1438	1439	1438	1454	1470	1478	1484	1481	1477	1475	1468	1474	1475	1481	1485	1480	1467	1444	1439	1448	1471	1486	1486	1482	1472	1477	1470	1462	1449	1452	1464	0	0	0	0	0	0	0	0	0	0	0	0	0	0	0	0	0	0	0	0	0	0	0	1586	1579	1580	1591	1569	1508	1499	1497	1524	1520	1520	1554	1592	1599	1582	1560	1545	1542	1530	1525	1531	1543	1548	1520	1527	1529	1520	1515	1526	0	0	0	0	0	0	0	0	0	0	0	0	0	0	0	0	0	0	0	0	1527	1502	1495	1507	1514	1518	1517	1511	1507	1496	1479	1471	1480	1488	1497	1498	1506	1519	1516	1501	1482	1480	1485	1491	1490	1488	1488	1488	1495	1497	1496	1488	1491	1495	1495	1501	1499	1491	1481	1473	1467	1462	1459	1455	1465	1462	1455	1462	1476	1478	1476	1471	1467	1467	1466	1467	1473	1481	1481	1481	1478	1473	1482	1484	1492	1493	1484	1478	1470	1473	1474	1482	1482	1491	1500	1491	1475	1472	1468	1480	0	0	0	0	0	0
0	0	0	0	0	0	0	0	0	0	0	0	0	0	0	0	0	0	0	0	0	0	0	0	0	0	0	0	0	0	0	0	0	0	0	0	0	0	0	0	0	0	0	0	0	0	0	0	0	0	0	0	0	0	0	0	0	0	0	0	0	0	0	0	0	0	0	0	0	0	0	0	0	0	0	0	0	0	0	0	0	0	0	0	0	0	0	0	0	0	0	0	0	0	0	0	0	0	0	0	0	0	0	0	0	0	0	0	0	0	0	0	0	0	0	0	0	0	0	0	0	0	0	0	0	0	0	0	0	0	0	0	0	0	0	0	0	0	0	0	0	0	0	0	0	0	0	0	0	0	0	0	0	0	0	0	0	0	0	0	0	0	0	0	0	0	0	0	0	0	0	0	0	0	0	0	0	0	0	0	0	0	0	0	1402	1418	1421	1427	1430	1420	1404	1382	1387	1389	1392	1411	1422	1426	1427	1425	1435	1438	1439	1445	1441	1438	1422	1419	1400	1387	1376	1372	1375	1376	1383	1382	1375	1412	1417	1415	1403	1395	1402	1407	1402	1388	1378	1386	1406	1415	1416	1423	1430	1433	1424	1404	1401	1401	1409	1413	1424	1420	1418	1423	1430	1434	1405	1400	1408	1413	1430	1442	1451	1446	1418	1406	1409	1428	1452	1443	1425	1416	1411	1409	1407	1412	1418	1430	1437	1442	1448	1444	1438	1435	1438	1432	1436	1427	1424	1422	1416	1407	1415	1419	1435	1446	1446	1434	1427	1428	1432	1435	1429	1421	1410	1409	1410	1417	1429	1442	1451	1451	1443	1437	1443	1444	1433	1418	1416	1408	1417	1420	1422	1419	1421	1425	1426	1424	1425	1426	1437	1451	1457	1456	1454	1449	1444	1449	1451	1452	1449	1437	1432	1442	1454	1470	1476	1469	1456	1453	1446	1436	1431	1428	1433	1445	1453	1457	1454	1434	1421	1420	1426	1434	1433	1428	1424	1427	1434	1440	1427	1420	1422	1435	1430	1420	1422	1434	1444	1457	1465	1469	1461	1457	1461	1473	1470	1465	1440	1438	1438	1447	1467	1464	1444	1433	1431	1422	1424	1438	1449	1442	1423	1421	1430	1439	1454	1478	1485	1484	1473	1469	1456	1447	1440	1440	1448	1446	1444	1453	1454	1451	1453	1455	1455	1456	1443	1409	1428	1445	1449	1444	1431	1417	1425	1439	1445	1447	1449	1449	1460	1474	1485	1471	1452	1445	1451	1460	1474	1471	1474	1466	1464	1464	1458	1446	1438	1424	1423	1438	1455	1449	1439	1432	1447	1459	1467	1474	1473	1478	1465	1459	1453	1459	1466	1472	1475	1467	1448	1434	1451	1461	1473	1480	1483	1486	1481	1468	1458	1447	1450	0	0	0	0	0	0	0	0	0	0	0	0	0	0	0	0	0	0	0	0	0	0	0	0	1560	1567	1573	1583	1582	1496	1489	1486	1528	1517	1500	1491	1544	1583	1581	1570	1556	1553	1547	1541	1551	1557	1550	1544	1542	1531	1520	1521	1518	1558	0	0	0	0	0	0	0	0	0	0	0	0	0	0	0	0	0	0	0	1517	1504	1503	1506	1513	1518	1527	1524	1512	1502	1478	1471	1481	1493	1504	1505	1513	1523	1519	1516	1499	1493	1491	1495	1486	1485	1484	1489	1492	1493	1499	1507	1503	1505	1505	1496	1489	1482	1472	1472	1463	1458	1445	1436	1437	1433	1439	1447	1461	1462	1464	1461	1457	1467	1474	1481	1498	1492	1491	1479	1479	1477	1474	1482	1482	1483	1486	1482	1479	1475	1475	1476	1476	1484	1488	1483	1478	1482	1480	1490	0	0	0	0	0	0
0	0	0	0	0	0	0	0	0	0	0	0	0	0	0	0	0	0	0	0	0	0	0	0	0	0	0	0	0	0	0	0	0	0	0	0	0	0	0	0	0	0	0	0	0	0	0	0	0	0	0	0	0	0	0	0	0	0	0	0	0	0	0	0	0	0	0	0	0	0	0	0	0	0	0	0	0	0	0	0	0	0	0	0	0	0	0	0	0	0	0	0	0	0	0	0	0	0	0	0	0	0	0	0	0	0	0	0	0	0	0	0	0	0	0	0	0	0	0	0	0	0	0	0	0	0	0	0	0	0	0	0	0	0	0	0	0	0	0	0	0	0	0	0	0	0	0	0	0	0	0	0	0	0	0	0	0	0	0	0	0	0	0	0	0	0	0	0	0	0	0	0	0	0	0	0	0	0	0	0	0	0	0	0	1370	1397	1418	1429	1448	1441	1410	1389	1385	1389	1400	1408	1421	1429	1425	1424	1429	1435	1434	1440	1446	1451	1444	1441	1441	1435	1424	1418	1401	1384	1374	1367	1390	1399	1413	1423	1427	1435	1441	1435	1413	1386	1377	1393	1406	1421	1415	1416	1425	1440	1450	1451	1442	1433	1434	1429	1439	1436	1433	1433	1428	1421	1412	1406	1411	1418	1422	1430	1415	1426	1427	1418	1417	1424	1427	1432	1418	1421	1427	1419	1426	1422	1423	1444	1461	1454	1445	1435	1442	1452	1460	1439	1428	1427	1437	1443	1443	1447	1450	1443	1434	1434	1435	1440	1447	1448	1451	1445	1452	1421	1413	1403	1409	1417	1429	1446	1448	1438	1425	1423	1429	1438	1434	1422	1425	1419	1429	1424	1417	1416	1418	1430	1435	1431	1423	1424	1429	1443	1453	1471	1477	1473	1455	1435	1421	1413	1429	1437	1434	1444	1459	1467	1466	1455	1443	1439	1437	1432	1430	1431	1436	1443	1449	1451	1443	1434	1424	1419	1425	1435	1436	1427	1422	1423	1424	1424	1413	1413	1421	1430	1442	1436	1437	1438	1450	1459	1464	1466	1460	1454	1457	1465	1472	1466	1458	1455	1449	1445	1458	1463	1463	1457	1452	1443	1440	1440	1440	1423	1414	1421	1428	1435	1448	1466	1485	1482	1475	1473	1469	1465	1451	1441	1433	1436	1447	1454	1460	1469	1465	1466	1459	1461	1448	1417	1432	1450	1453	1452	1453	1459	1468	1448	1447	1451	1454	1461	1468	1483	1490	1483	1464	1455	1451	1453	1459	1466	1463	1464	1456	1459	1453	1447	1446	1435	1432	1442	1456	1456	1445	1438	1445	1450	1451	1461	1461	1467	1457	1451	1439	1433	1441	1462	1468	1467	1453	1442	1451	1462	1468	1474	1472	1479	1478	1462	1454	1449	1451	0	0	0	0	0	0	0	0	0	0	0	0	0	0	0	0	0	0	0	0	0	0	0	0	1560	1550	1562	1576	1583	1500	1497	1498	1542	1516	1488	1471	1511	1550	1557	1554	1550	1553	1550	1554	1548	1562	1559	1551	1550	1549	1546	1534	1531	1540	0	0	0	0	0	0	0	0	0	0	0	0	0	0	0	0	0	0	0	1519	1513	1499	1498	1507	1528	1539	1537	1518	1494	1472	1466	1477	1492	1503	1507	1512	1516	1517	1517	1514	1504	1498	1493	1484	1476	1471	1476	1479	1488	1496	1506	1520	1527	1536	1508	1483	1476	1480	1488	1488	1456	1423	1431	1430	1456	1465	1469	1466	1471	1466	1460	1457	1466	1476	1489	1499	1500	1499	1505	1505	1509	1488	1471	1473	1480	1482	1488	1484	1477	1470	1472	1480	1480	1478	1482	1480	1479	1474	1481	0	0	0	0	0	0
0	0	0	0	0	0	0	0	0	0	0	0	0	0	0	0	0	0	0	0	0	0	0	0	0	0	0	0	0	0	0	0	0	0	0	0	0	0	0	0	0	0	0	0	0	0	0	0	0	0	0	0	0	0	0	0	0	0	0	0	0	0	0	0	0	0	0	0	0	0	0	0	0	0	0	0	0	0	0	0	0	0	0	0	0	0	0	0	0	0	0	0	0	0	0	0	0	0	0	0	0	0	0	0	0	0	0	0	0	0	0	0	0	0	0	0	0	0	0	0	0	0	0	0	0	0	0	0	0	0	0	0	0	0	0	0	0	0	0	0	0	0	0	0	0	0	0	0	0	0	0	0	0	0	0	0	0	0	0	0	0	0	0	0	0	0	0	0	0	0	0	0	0	0	0	0	0	0	0	0	0	0	0	0	1381	1393	1413	1430	1445	1395	1384	1381	1385	1391	1407	1413	1420	1428	1433	1422	1423	1426	1427	1427	1436	1439	1444	1449	1452	1453	1439	1425	1409	1398	1384	1383	1405	1410	1416	1421	1430	1440	1446	1437	1416	1397	1385	1400	1424	1435	1435	1424	1422	1431	1441	1445	1437	1428	1428	1422	1421	1420	1425	1430	1416	1413	1416	1420	1427	1421	1414	1414	1418	1430	1434	1432	1426	1431	1436	1434	1423	1424	1424	1415	1422	1425	1429	1448	1462	1453	1445	1439	1445	1458	1463	1458	1450	1441	1439	1443	1450	1453	1457	1456	1445	1436	1434	1436	1438	1431	1440	1447	1453	1461	1423	1410	1422	1426	1430	1433	1435	1425	1416	1415	1422	1429	1426	1420	1423	1428	1433	1429	1422	1423	1428	1434	1441	1435	1430	1423	1422	1433	1467	1471	1465	1448	1427	1415	1413	1431	1443	1443	1447	1452	1461	1461	1459	1446	1437	1433	1432	1430	1430	1434	1444	1448	1449	1434	1447	1440	1426	1422	1428	1440	1445	1436	1424	1422	1420	1416	1414	1421	1429	1436	1448	1447	1441	1443	1446	1453	1457	1458	1452	1444	1448	1451	1454	1451	1454	1458	1458	1450	1445	1439	1443	1451	1459	1457	1452	1444	1424	1416	1416	1423	1431	1442	1445	1467	1477	1473	1459	1457	1462	1456	1449	1441	1432	1433	1446	1459	1461	1461	1462	1468	1455	1460	1448	1431	1451	1456	1458	1455	1458	1463	1466	1464	1457	1458	1457	1457	1466	1467	1463	1464	1467	1463	1457	1452	1452	1452	1451	1444	1445	1445	1448	1446	1446	1439	1440	1445	1453	1452	1447	1443	1445	1449	1450	1446	1444	1446	1449	1440	1429	1425	1434	1452	1472	1467	1464	1446	1451	1455	1458	1465	1462	1463	1461	1457	1446	1444	1444	1464	0	0	0	0	0	0	0	0	0	0	0	0	0	0	0	0	0	0	0	0	0	0	0	1565	1560	1554	1562	1522	1510	1503	1527	1541	1516	1492	1469	1475	1513	1520	1528	1528	1535	1538	1548	1559	1568	1561	1548	1552	1557	1553	1552	1545	1542	0	0	0	0	0	0	0	0	0	0	0	0	0	0	0	0	0	0	0	1532	1530	1514	1508	1508	1527	1530	1520	1500	1471	1458	1454	1462	1477	1483	1472	1478	1486	1496	1504	1511	1504	1503	1490	1463	1442	1441	1448	1461	1488	1508	1527	1542	1552	1539	1505	1476	1460	1476	1491	1491	1474	1460	1451	1466	1488	1486	1495	1491	1490	1484	1471	1467	1476	1474	1474	1482	1491	1500	1511	1509	1509	1503	1483	1471	1465	1464	1464	1472	1471	1477	1481	1491	1491	1485	1470	1460	1459	1451	1446	0	0	0	0	0	0
0	0	0	0	0	0	0	0	0	0	0	0	0	0	0	0	0	0	0	0	0	0	0	0	0	0	0	0	0	0	0	0	0	0	0	0	0	0	0	0	0	0	0	0	0	0	0	0	0	0	0	0	0	0	0	0	0	0	0	0	0	0	0	0	0	0	0	0	0	0	0	0	0	0	0	0	0	0	0	0	0	0	0	0	0	0	0	0	0	0	0	0	0	0	0	0	0	0	0	0	0	0	0	0	0	0	0	0	0	0	0	0	0	0	0	0	0	0	0	0	0	0	0	0	0	0	0	0	0	0	0	0	0	0	0	0	0	0	0	0	0	0	0	0	0	0	0	0	0	0	0	0	0	0	0	0	0	0	0	0	0	0	0	0	0	0	0	0	0	0	0	0	0	0	0	0	0	0	0	0	0	0	0	1345	1381	1398	1408	1409	1410	1399	1392	1391	1401	1404	1410	1413	1421	1431	1434	1424	1416	1413	1409	1397	1412	1420	1427	1435	1438	1443	1441	1427	1413	1420	1426	1436	1430	1423	1419	1422	1425	1419	1423	1430	1435	1424	1419	1422	1434	1447	1449	1440	1425	1416	1431	1436	1428	1426	1429	1429	1425	1423	1430	1431	1419	1419	1413	1421	1419	1413	1420	1425	1434	1442	1450	1453	1459	1462	1442	1432	1435	1446	1447	1434	1421	1416	1428	1432	1429	1430	1438	1436	1439	1456	1468	1472	1465	1451	1446	1443	1441	1446	1463	1465	1454	1447	1437	1435	1425	1425	1423	1436	1457	1452	1439	1425	1432	1430	1433	1427	1423	1417	1405	1409	1420	1430	1428	1425	1422	1427	1428	1436	1439	1443	1448	1449	1456	1444	1432	1427	1417	1426	1470	1475	1467	1443	1425	1412	1412	1432	1456	1460	1461	1458	1453	1452	1439	1430	1427	1429	1432	1434	1440	1446	1453	1446	1447	1451	1453	1443	1429	1420	1420	1437	1449	1447	1434	1427	1421	1416	1414	1419	1427	1439	1450	1450	1450	1448	1448	1445	1438	1442	1442	1432	1438	1438	1449	1438	1436	1448	1451	1448	1438	1436	1435	1436	1452	1459	1452	1440	1419	1405	1414	1428	1436	1446	1454	1459	1461	1458	1448	1441	1445	1452	1446	1436	1428	1425	1439	1451	1456	1456	1463	1451	1446	1431	1428	1426	1455	1455	1453	1449	1450	1452	1451	1454	1454	1447	1439	1441	1454	1462	1462	1465	1463	1465	1462	1458	1459	1455	1452	1442	1440	1442	1445	1443	1440	1435	1436	1437	1437	1448	1446	1437	1445	1451	1447	1442	1439	1444	1448	1454	1442	1433	1435	1448	1466	1473	1466	1451	1446	1446	1448	1445	1451	1450	1453	1459	1455	1448	1444	1459	0	0	0	0	0	0	0	0	0	0	0	0	0	0	0	0	0	0	0	0	0	0	0	1574	1569	1555	1533	1501	1505	1509	1527	1534	1505	1485	1479	1456	1478	1492	1496	1505	1510	1515	1524	1531	1542	1544	1550	1553	1557	1553	1555	1549	1543	0	0	0	0	0	0	0	0	0	0	0	0	0	0	0	0	0	0	0	0	0	0	0	1515	1515	1513	1495	1474	1446	1441	1449	1466	1476	1476	1473	1460	1460	1474	1496	1502	1491	1488	1488	1487	1479	1478	1483	1498	1504	1513	1514	1532	1543	1541	1514	1482	1462	1469	1493	1484	1484	1469	1459	1472	1489	1488	1497	1500	1491	1495	1483	1485	1473	1473	1466	1469	1485	1488	1496	1489	1489	1479	1471	1464	1452	1454	1461	1463	1465	1470	1481	1501	1501	1491	1463	1452	1444	1444	1445	0	0	0	0	0	0
0	0	0	0	0	0	0	0	0	0	0	0	0	0	0	0	0	0	0	0	0	0	0	0	0	0	0	0	0	0	0	0	0	0	0	0	0	0	0	0	0	0	0	0	0	0	0	0	0	0	0	0	0	0	0	0	0	0	0	0	0	0	0	0	0	0	0	0	0	0	0	0	0	0	0	0	0	0	0	0	0	0	0	0	0	0	0	0	0	0	0	0	0	0	0	0	0	0	0	0	0	0	0	0	0	0	0	0	0	0	0	0	0	0	0	0	0	0	0	0	0	0	0	0	0	0	0	0	0	0	0	0	0	0	0	0	0	0	0	0	0	0	0	0	0	0	0	0	0	0	0	0	0	0	0	0	0	0	0	0	0	0	0	0	0	0	0	0	0	0	0	0	0	0	0	0	0	0	0	0	0	0	0	1400	1396	1400	1407	1414	1411	1411	1402	1398	1400	1402	1407	1407	1418	1429	1435	1426	1413	1411	1408	1399	1391	1407	1418	1424	1430	1432	1431	1422	1418	1423	1435	1438	1425	1413	1411	1420	1422	1428	1429	1426	1430	1428	1421	1420	1425	1430	1429	1428	1420	1410	1424	1443	1451	1442	1429	1427	1431	1438	1444	1450	1440	1434	1438	1433	1426	1419	1423	1423	1429	1431	1437	1436	1441	1435	1430	1436	1451	1459	1450	1442	1430	1420	1415	1413	1409	1410	1413	1421	1440	1456	1468	1466	1462	1457	1453	1438	1428	1424	1440	1450	1472	1467	1451	1436	1433	1433	1429	1423	1431	1434	1449	1443	1441	1439	1437	1433	1422	1417	1414	1416	1426	1432	1429	1423	1415	1417	1431	1440	1448	1457	1465	1461	1456	1440	1439	1431	1422	1422	1438	1462	1468	1462	1451	1439	1431	1432	1463	1474	1475	1468	1446	1434	1423	1426	1430	1438	1441	1439	1447	1450	1457	1455	1457	1451	1450	1438	1423	1413	1416	1438	1452	1454	1448	1440	1433	1421	1419	1423	1430	1440	1443	1447	1451	1460	1457	1448	1442	1440	1440	1430	1429	1433	1441	1428	1427	1428	1435	1435	1430	1433	1434	1434	1437	1452	1444	1432	1417	1409	1419	1432	1442	1452	1454	1449	1448	1441	1431	1430	1437	1449	1447	1429	1420	1421	1429	1446	1459	1462	1461	1449	1435	1412	1413	1428	1452	1456	1449	1444	1444	1445	1437	1449	1457	1457	1454	1448	1456	1457	1464	1462	1460	1458	1463	1467	1467	1462	1455	1449	1450	1446	1444	1434	1437	1435	1434	1432	1440	1445	1446	1452	1451	1455	1448	1445	1448	1453	1451	1464	1451	1441	1438	1448	1463	1473	1461	1455	1446	1441	1444	1437	1447	1457	1461	1466	1463	1456	1447	1449	0	0	0	0	0	0	0	0	0	0	0	0	0	0	0	0	0	0	0	0	0	0	0	1582	1571	1547	1530	1498	1517	1517	1509	1506	1497	1492	1484	1457	1464	1468	1475	1487	1500	1512	1520	1520	1514	1515	1527	1547	1547	1545	1552	1557	1552	0	0	0	0	0	0	0	0	0	0	0	0	0	0	0	0	0	0	0	0	0	0	0	1512	1500	1489	1480	1455	1433	1428	1434	1449	1466	1475	1466	1456	1454	1461	1477	1491	1481	1476	1473	1475	1481	1486	1489	1500	1484	1487	1490	1489	1494	1499	1503	1504	1489	1479	1477	1481	1475	1475	1472	1470	1472	1468	1468	1478	1479	1484	1490	1493	1483	1467	1461	1469	1474	1481	1479	1476	1476	1465	1464	1458	1448	1455	1455	1462	1470	1478	1487	1498	1492	1462	1446	1444	1449	1442	1454	0	0	0	0	0	0
0	0	0	0	0	0	0	0	0	0	0	0	0	0	0	0	0	0	0	0	0	0	0	0	0	0	0	0	0	0	0	0	0	0	0	0	0	0	0	0	0	0	0	0	0	0	0	0	0	0	0	0	0	0	0	0	0	0	0	0	0	0	0	0	0	0	0	0	0	0	0	0	0	0	0	0	0	0	0	0	0	0	0	0	0	0	0	0	0	0	0	0	0	0	0	0	0	0	0	0	0	0	0	0	0	0	0	0	0	0	0	0	0	0	0	0	0	0	0	0	0	0	0	0	0	0	0	0	0	0	0	0	0	0	0	0	0	0	0	0	0	0	0	0	0	0	0	0	0	0	0	0	0	0	0	0	0	0	0	0	0	0	0	0	0	0	0	0	0	0	0	0	0	0	0	0	0	0	0	0	0	0	0	1414	1393	1394	1404	1413	1414	1413	1406	1403	1399	1399	1403	1403	1410	1423	1434	1425	1413	1405	1408	1405	1393	1401	1415	1428	1424	1425	1420	1420	1417	1436	1439	1425	1411	1402	1402	1417	1428	1431	1428	1419	1424	1426	1426	1429	1429	1425	1420	1414	1411	1405	1425	1446	1450	1438	1421	1422	1429	1441	1448	1450	1453	1451	1447	1438	1440	1430	1425	1426	1429	1427	1430	1424	1427	1420	1422	1432	1447	1460	1450	1437	1433	1424	1417	1414	1410	1412	1409	1418	1437	1447	1448	1456	1458	1460	1461	1444	1431	1424	1430	1445	1458	1459	1452	1447	1449	1446	1437	1423	1422	1433	1435	1437	1442	1438	1447	1445	1442	1437	1429	1432	1433	1436	1434	1426	1417	1410	1429	1435	1437	1441	1438	1423	1436	1439	1438	1432	1425	1424	1422	1430	1439	1451	1452	1442	1439	1437	1445	1484	1489	1469	1439	1426	1417	1412	1432	1441	1437	1445	1442	1449	1450	1448	1442	1437	1439	1429	1415	1409	1417	1434	1448	1453	1451	1452	1443	1422	1422	1423	1428	1435	1437	1442	1454	1467	1469	1459	1452	1442	1444	1436	1440	1445	1435	1427	1422	1421	1426	1433	1434	1440	1442	1437	1445	1446	1439	1427	1420	1423	1435	1450	1458	1457	1455	1441	1433	1429	1426	1431	1446	1457	1450	1436	1418	1417	1427	1442	1455	1464	1466	1455	1431	1407	1408	1422	1452	1460	1455	1447	1445	1440	1445	1446	1458	1466	1463	1462	1463	1476	1484	1470	1458	1457	1458	1462	1465	1462	1454	1454	1454	1447	1436	1432	1441	1437	1437	1442	1442	1454	1456	1459	1460	1455	1450	1449	1459	1459	1463	1472	1468	1451	1446	1450	1459	1465	1453	1455	1451	1448	1450	1449	1457	1460	1468	1477	1476	1471	1473	0	0	0	0	0	0	0	0	0	0	0	0	0	0	0	0	0	0	0	0	0	0	0	0	1592	1572	1557	1542	1514	1523	1527	1513	1497	1492	1490	1476	1458	1462	1469	1475	1484	1498	1505	1506	1505	1500	1496	1503	1533	1540	1544	1543	1554	1554	0	0	0	0	0	0	0	0	0	0	0	0	0	0	0	0	0	0	0	0	0	0	1549	1494	1490	1481	1455	1430	1410	1406	1414	1445	1462	1483	1482	1479	1479	1476	1473	1475	1473	1460	1446	1446	1453	1461	1471	1476	1495	1502	1507	1498	1488	1477	1477	1484	1483	1478	1463	1462	1456	1456	1461	1460	1465	1465	1465	1467	1467	1479	1493	1494	1496	1490	1489	1485	1479	1483	1487	1485	1474	1474	1465	1457	1465	1474	1469	1465	1471	1474	1480	1480	1462	1444	1444	1452	1455	1455	1450	0	0	0	0	0	0
0	0	0	0	0	0	0	0	0	0	0	0	0	0	0	0	0	0	0	0	0	0	0	0	0	0	0	0	0	0	0	0	0	0	0	0	0	0	0	0	0	0	0	0	0	0	0	0	0	0	0	0	0	0	0	0	0	0	0	0	0	0	0	0	0	0	0	0	0	0	0	0	0	0	0	0	0	0	0	0	0	0	0	0	0	0	0	0	0	0	0	0	0	0	0	0	0	0	0	0	0	0	0	0	0	0	0	0	0	0	0	0	0	0	0	0	0	0	0	0	0	0	0	0	0	0	0	0	0	0	0	0	0	0	0	0	0	0	0	0	0	0	0	0	0	0	0	0	0	0	0	0	0	0	0	0	0	0	0	0	0	0	0	0	0	0	0	0	0	0	0	0	0	0	0	0	0	0	0	0	0	0	0	1408	1396	1403	1417	1420	1416	1412	1409	1398	1398	1403	1404	1411	1422	1427	1419	1419	1416	1418	1415	1415	1414	1412	1419	1429	1430	1417	1414	1416	1428	1436	1436	1409	1394	1388	1397	1409	1423	1430	1430	1424	1417	1428	1435	1440	1437	1423	1411	1402	1399	1415	1431	1451	1451	1435	1422	1420	1431	1443	1445	1447	1448	1452	1452	1451	1441	1431	1429	1431	1436	1440	1435	1425	1404	1408	1415	1428	1443	1454	1453	1446	1440	1431	1416	1415	1410	1410	1414	1414	1429	1434	1434	1436	1449	1463	1468	1463	1441	1426	1431	1438	1446	1456	1462	1458	1456	1455	1438	1422	1420	1424	1424	1421	1422	1424	1436	1446	1445	1447	1442	1438	1430	1425	1421	1424	1430	1431	1429	1436	1437	1437	1431	1430	1440	1442	1440	1435	1429	1423	1421	1420	1427	1430	1440	1441	1438	1436	1444	1486	1491	1475	1440	1432	1419	1423	1418	1419	1428	1435	1438	1436	1433	1432	1422	1421	1418	1419	1418	1410	1415	1425	1440	1451	1455	1451	1447	1431	1428	1430	1433	1433	1431	1439	1448	1464	1470	1458	1451	1444	1446	1449	1455	1450	1447	1438	1430	1427	1429	1434	1443	1450	1451	1449	1453	1446	1436	1429	1422	1436	1454	1462	1473	1465	1453	1442	1429	1428	1434	1443	1447	1457	1456	1441	1428	1422	1428	1441	1451	1460	1460	1450	1434	1417	1416	1429	1446	1454	1462	1458	1455	1453	1459	1458	1468	1463	1457	1453	1464	1468	1475	1472	1466	1452	1453	1450	1451	1453	1448	1451	1451	1426	1421	1434	1443	1445	1449	1449	1444	1453	1454	1458	1459	1458	1451	1455	1460	1464	1463	1475	1479	1469	1460	1453	1454	1452	1454	1453	1444	1451	1445	1457	1454	1461	1475	1489	1493	1480	1483	0	0	0	0	0	0	0	0	0	0	0	0	0	0	0	0	0	0	0	0	0	0	0	0	1594	1578	1561	1556	1536	1526	1527	1511	1511	1494	1493	1474	1475	1474	1472	1478	1478	1486	1494	1498	1498	1496	1490	1488	1516	1527	1536	1542	1539	1550	0	0	0	0	0	0	0	0	0	0	0	0	0	0	0	0	0	0	0	0	0	0	1512	1501	1501	1498	1474	1451	1433	1423	1426	1447	1466	1478	1483	1480	1483	1477	1471	1474	1473	1464	1461	1454	1459	1462	1471	1487	1509	1519	1523	1514	1498	1487	1478	1479	1474	1469	1460	1449	1445	1452	1452	1466	1470	1469	1466	1463	1470	1476	1481	1489	1493	1494	1496	1491	1479	1480	1485	1482	1480	1480	1464	1454	1463	1474	1471	1459	1454	1459	1463	1458	1452	1452	1450	1460	1466	1458	1449	0	0	0	0	0	0
0	0	0	0	0	0	0	0	0	0	0	0	0	0	0	0	0	0	0	0	0	0	0	0	0	0	0	0	0	0	0	0	0	0	0	0	0	0	0	0	0	0	0	0	0	0	0	0	0	0	0	0	0	0	0	0	0	0	0	0	0	0	0	0	0	0	0	0	0	0	0	0	0	0	0	0	0	0	0	0	0	0	0	0	0	0	0	0	0	0	0	0	0	0	0	0	0	0	0	0	0	0	0	0	0	0	0	0	0	0	0	0	0	0	0	0	0	0	0	0	0	0	0	0	0	0	0	0	0	0	0	0	0	0	0	0	0	0	0	0	0	0	0	0	0	0	0	0	0	0	0	0	0	0	0	0	0	0	0	0	0	0	0	0	0	0	0	0	0	0	0	0	0	0	0	0	0	0	0	0	0	0	0	1408	1408	1411	1418	1417	1409	1412	1404	1404	1408	1411	1407	1417	1423	1421	1408	1410	1417	1415	1425	1427	1436	1438	1442	1433	1431	1413	1406	1417	1426	1431	1426	1391	1379	1385	1382	1399	1415	1419	1417	1408	1405	1420	1439	1446	1442	1419	1405	1395	1397	1415	1433	1446	1447	1441	1439	1460	1457	1453	1447	1440	1440	1443	1450	1457	1448	1439	1431	1435	1450	1447	1433	1415	1403	1402	1413	1430	1441	1454	1456	1456	1451	1437	1422	1414	1411	1409	1405	1409	1415	1417	1415	1419	1435	1454	1461	1458	1450	1435	1434	1436	1447	1455	1464	1465	1461	1457	1441	1430	1429	1432	1421	1414	1412	1413	1423	1438	1447	1447	1446	1430	1424	1421	1419	1431	1436	1440	1438	1442	1443	1443	1437	1440	1444	1443	1441	1438	1432	1429	1423	1422	1422	1418	1426	1429	1428	1432	1443	1488	1487	1470	1440	1433	1430	1421	1412	1405	1406	1415	1422	1421	1415	1411	1408	1408	1411	1413	1418	1416	1415	1423	1432	1443	1447	1447	1438	1437	1437	1443	1443	1438	1440	1441	1451	1453	1455	1451	1446	1447	1453	1455	1454	1450	1446	1435	1427	1427	1429	1430	1441	1449	1455	1463	1460	1455	1443	1432	1429	1448	1463	1474	1474	1460	1445	1428	1425	1430	1439	1451	1458	1466	1465	1455	1445	1435	1434	1443	1454	1458	1455	1442	1431	1429	1427	1432	1444	1457	1460	1460	1455	1456	1465	1459	1467	1459	1446	1439	1442	1441	1463	1468	1464	1463	1457	1443	1437	1439	1443	1441	1437	1409	1414	1431	1449	1446	1454	1450	1452	1446	1444	1449	1445	1447	1448	1456	1459	1462	1463	1468	1480	1478	1474	1463	1452	1448	1446	1442	1443	1453	1458	1458	1458	1463	1478	1496	1500	1493	1509	0	0	0	0	0	0	0	0	0	0	0	0	0	0	0	0	0	0	0	0	0	0	0	0	1562	1561	1559	1552	1537	1521	1520	1521	1514	1516	1508	1498	1487	1490	1486	1480	1467	1478	1490	1501	1512	1514	1504	1494	1499	1511	1532	1533	1532	1534	0	0	0	0	0	0	0	0	0	0	0	0	0	0	0	0	0	0	0	0	0	1566	1520	1503	1513	1505	1490	1466	1458	1442	1445	1454	1466	1473	1471	1470	1469	1476	1480	1491	1483	1484	1480	1478	1479	1478	1483	1501	1515	1520	1526	1516	1510	1495	1482	1479	1477	1471	1462	1453	1454	1461	1461	1474	1488	1486	1476	1473	1468	1469	1468	1483	1493	1499	1491	1484	1489	1483	1488	1484	1464	1464	1456	1452	1457	1466	1462	1457	1451	1456	1458	1459	1465	1470	1470	1481	1480	1472	1458	0	0	0	0	0	0
0	0	0	0	0	0	0	0	0	0	0	0	0	0	0	0	0	0	0	0	0	0	0	0	0	0	0	0	0	0	0	0	0	0	0	0	0	0	0	0	0	0	0	0	0	0	0	0	0	0	0	0	0	0	0	0	0	0	0	0	0	0	0	0	0	0	0	0	0	0	0	0	0	0	0	0	0	0	0	0	0	0	0	0	0	0	0	0	0	0	0	0	0	0	0	0	0	0	0	0	0	0	0	0	0	0	0	0	0	0	0	0	0	0	0	0	0	0	0	0	0	0	0	0	0	0	0	0	0	0	0	0	0	0	0	0	0	0	0	0	0	0	0	0	0	0	0	0	0	0	0	0	0	0	0	0	0	0	0	0	0	0	0	0	0	0	0	0	0	0	0	0	0	0	0	0	0	0	0	0	0	0	0	1416	1418	1422	1415	1406	1404	1412	1416	1416	1413	1413	1417	1420	1423	1418	1411	1406	1409	1421	1429	1435	1441	1449	1442	1436	1432	1416	1410	1414	1418	1420	1398	1383	1384	1386	1393	1402	1409	1412	1407	1395	1394	1404	1430	1444	1440	1421	1405	1392	1411	1420	1428	1430	1433	1433	1452	1461	1466	1458	1441	1434	1431	1440	1447	1455	1452	1449	1447	1450	1452	1452	1438	1422	1405	1407	1414	1430	1440	1450	1456	1463	1456	1440	1423	1414	1410	1411	1406	1405	1407	1404	1399	1401	1415	1438	1450	1454	1450	1439	1439	1435	1438	1446	1454	1459	1457	1452	1447	1442	1441	1434	1425	1416	1408	1407	1414	1429	1443	1450	1443	1434	1421	1416	1422	1434	1442	1448	1445	1448	1457	1457	1454	1451	1459	1455	1438	1432	1431	1434	1431	1424	1427	1423	1424	1411	1412	1422	1423	1479	1473	1449	1430	1433	1428	1418	1403	1393	1397	1404	1409	1415	1407	1400	1399	1398	1401	1409	1414	1418	1422	1426	1434	1438	1446	1444	1438	1436	1437	1450	1452	1458	1456	1452	1450	1445	1445	1448	1449	1452	1452	1450	1443	1437	1431	1424	1421	1427	1429	1426	1431	1446	1447	1459	1463	1454	1445	1440	1441	1456	1480	1485	1473	1448	1431	1417	1422	1431	1439	1443	1455	1458	1461	1456	1437	1431	1434	1445	1452	1454	1447	1437	1431	1434	1446	1455	1452	1458	1448	1446	1451	1453	1460	1468	1460	1455	1445	1437	1423	1433	1454	1466	1470	1469	1462	1452	1445	1439	1439	1439	1426	1418	1421	1434	1452	1454	1457	1453	1445	1440	1433	1428	1437	1447	1453	1461	1457	1460	1459	1461	1484	1484	1465	1457	1459	1455	1454	1440	1439	1450	1458	1464	1463	1466	1477	1494	1495	1497	0	0	0	0	0	0	0	0	0	0	0	0	0	0	0	0	0	0	0	0	0	0	0	0	0	1551	1554	1563	1554	1517	1492	1514	1516	1526	1523	1508	1497	1497	1492	1495	1487	1474	1484	1496	1508	1515	1533	1530	1514	1510	1520	1530	1530	1529	0	0	0	0	0	0	0	0	0	0	0	0	0	0	0	0	0	0	0	0	0	0	1540	1516	1515	1510	1506	1492	1487	1479	1477	1466	1465	1470	1470	1468	1464	1474	1486	1496	1507	1499	1495	1494	1502	1501	1503	1499	1508	1513	1514	1518	1509	1508	1505	1490	1477	1467	1466	1462	1467	1466	1476	1487	1487	1499	1497	1492	1479	1472	1465	1461	1472	1475	1481	1472	1470	1479	1488	1491	1483	1461	1453	1453	1450	1455	1456	1452	1446	1452	1459	1465	1479	1484	1489	1489	1492	1486	1481	1472	0	0	0	0	0	0
0	0	0	0	0	0	0	0	0	0	0	0	0	0	0	0	0	0	0	0	0	0	0	0	0	0	0	0	0	0	0	0	0	0	0	0	0	0	0	0	0	0	0	0	0	0	0	0	0	0	0	0	0	0	0	0	0	0	0	0	0	0	0	0	0	0	0	0	0	0	0	0	0	0	0	0	0	0	0	0	0	0	0	0	0	0	0	0	0	0	0	0	0	0	0	0	0	0	0	0	0	0	0	0	0	0	0	0	0	0	0	0	0	0	0	0	0	0	0	0	0	0	0	0	0	0	0	0	0	0	0	0	0	0	0	0	0	0	0	0	0	0	0	0	0	0	0	0	0	0	0	0	0	0	0	0	0	0	0	0	0	0	0	0	0	0	0	0	0	0	0	0	0	0	0	0	0	0	0	0	0	0	0	1429	1442	1439	1424	1410	1407	1411	1417	1417	1415	1403	1404	1416	1418	1417	1416	1410	1409	1415	1421	1432	1440	1446	1443	1432	1431	1421	1416	1415	1417	1414	1398	1393	1393	1394	1404	1408	1412	1406	1390	1380	1379	1397	1418	1431	1426	1416	1411	1409	1417	1410	1409	1405	1417	1423	1438	1448	1451	1438	1431	1428	1428	1435	1443	1447	1447	1441	1441	1442	1446	1449	1436	1422	1411	1417	1421	1430	1438	1444	1453	1459	1457	1440	1424	1416	1419	1423	1415	1414	1403	1403	1397	1391	1397	1410	1431	1443	1446	1440	1435	1433	1430	1429	1440	1441	1444	1448	1438	1439	1435	1432	1422	1416	1407	1402	1411	1430	1441	1450	1448	1436	1427	1421	1428	1439	1445	1447	1451	1458	1470	1470	1469	1467	1461	1453	1447	1437	1431	1434	1429	1431	1432	1431	1424	1412	1404	1404	1418	1463	1454	1435	1401	1429	1434	1422	1403	1397	1395	1399	1409	1412	1413	1403	1398	1398	1401	1407	1415	1423	1426	1435	1439	1443	1445	1445	1437	1433	1440	1454	1465	1470	1467	1461	1451	1445	1446	1451	1455	1452	1450	1440	1435	1428	1422	1427	1429	1432	1423	1427	1427	1431	1437	1446	1457	1454	1446	1446	1448	1457	1479	1486	1479	1449	1427	1416	1417	1428	1434	1438	1448	1453	1457	1457	1438	1428	1433	1449	1458	1456	1447	1434	1432	1441	1460	1467	1462	1456	1444	1438	1435	1440	1443	1450	1450	1460	1445	1440	1427	1425	1446	1473	1476	1476	1465	1451	1448	1442	1448	1439	1435	1428	1432	1447	1459	1461	1462	1455	1445	1431	1422	1427	1441	1455	1464	1459	1461	1456	1451	1455	1465	1473	1464	1453	1456	1460	1456	1446	1438	1447	1458	1463	1459	1460	1466	1477	1489	1507	0	0	0	0	0	0	0	0	0	0	0	0	0	0	0	0	0	0	0	0	0	0	0	0	0	1533	1543	1549	1556	1519	1494	1523	1539	1542	1533	1520	1510	1508	1499	1497	1487	1481	1487	1503	1517	1531	1541	1539	1529	1534	1537	1532	1521	1517	0	0	0	0	0	0	0	0	0	0	0	0	0	0	0	0	0	0	0	0	0	1495	1520	1518	1507	1506	1495	1483	1483	1486	1485	1483	1482	1480	1480	1479	1471	1475	1487	1498	1515	1515	1507	1500	1509	1516	1524	1519	1519	1506	1495	1493	1497	1503	1501	1486	1470	1466	1461	1467	1475	1482	1488	1488	1488	1496	1493	1488	1481	1476	1470	1460	1455	1460	1466	1460	1460	1461	1475	1479	1474	1461	1449	1449	1456	1455	1453	1448	1446	1450	1459	1471	1487	1491	1497	1497	1491	1487	1481	1475	0	0	0	0	0	0
0	0	0	0	0	0	0	0	0	0	0	0	0	0	0	0	0	0	0	0	0	0	0	0	0	0	0	0	0	0	0	0	0	0	0	0	0	0	0	0	0	0	0	0	0	0	0	0	0	0	0	0	0	0	0	0	0	0	0	0	0	0	0	0	0	0	0	0	0	0	0	0	0	0	0	0	0	0	0	0	0	0	0	0	0	0	0	0	0	0	0	0	0	0	0	0	0	0	0	0	0	0	0	0	0	0	0	0	0	0	0	0	0	0	0	0	0	0	0	0	0	0	0	0	0	0	0	0	0	0	0	0	0	0	0	0	0	0	0	0	0	0	0	0	0	0	0	0	0	0	0	0	0	0	0	0	0	0	0	0	0	0	0	0	0	0	0	0	0	0	0	0	0	0	0	0	0	0	0	0	0	0	1413	1435	1454	1454	1433	1419	1410	1404	1408	1414	1402	1403	1402	1408	1409	1419	1421	1419	1410	1405	1407	1418	1434	1442	1444	1428	1425	1421	1416	1423	1421	1415	1404	1404	1406	1414	1417	1415	1412	1402	1385	1371	1377	1395	1413	1420	1409	1401	1405	1413	1409	1401	1401	1414	1414	1419	1423	1436	1434	1427	1417	1423	1435	1437	1439	1434	1431	1428	1426	1425	1425	1423	1427	1421	1417	1418	1425	1429	1434	1439	1448	1452	1446	1433	1423	1432	1433	1432	1426	1412	1406	1403	1392	1390	1392	1401	1418	1429	1438	1439	1439	1432	1426	1421	1430	1430	1431	1434	1432	1428	1424	1427	1420	1412	1403	1404	1417	1431	1444	1446	1446	1449	1444	1421	1416	1428	1432	1440	1452	1464	1469	1468	1465	1456	1452	1449	1446	1440	1439	1437	1428	1432	1435	1433	1433	1431	1430	1432	1437	1438	1426	1415	1391	1414	1432	1437	1422	1414	1407	1412	1428	1450	1463	1451	1433	1416	1412	1419	1421	1430	1437	1439	1444	1445	1446	1443	1437	1434	1441	1452	1464	1470	1465	1463	1455	1459	1461	1464	1462	1450	1433	1428	1423	1423	1429	1437	1440	1439	1427	1425	1431	1427	1424	1433	1448	1459	1457	1453	1460	1460	1469	1478	1470	1455	1437	1424	1421	1422	1434	1438	1446	1452	1457	1452	1441	1428	1435	1450	1462	1459	1445	1433	1429	1446	1464	1471	1462	1450	1437	1430	1430	1427	1432	1433	1445	1450	1456	1446	1436	1435	1452	1476	1483	1480	1467	1457	1445	1445	1447	1451	1448	1445	1451	1455	1456	1448	1442	1442	1435	1423	1427	1435	1448	1460	1460	1460	1453	1449	1449	1456	1466	1469	1458	1448	1451	1451	1455	1452	1442	1437	1450	1454	1453	1454	1459	1463	1473	1504	0	0	0	0	0	0	0	0	0	0	0	0	0	0	0	0	0	0	0	0	0	0	0	0	0	1522	1524	1530	1521	1496	1505	1531	1545	1547	1537	1523	1508	1505	1496	1490	1478	1466	1469	1483	1501	1534	1546	1543	1536	1538	1538	1531	1520	1498	0	0	0	0	0	0	0	0	0	0	0	0	0	0	0	0	0	0	0	0	1476	1485	1518	1509	1500	1491	1473	1458	1476	1491	1493	1491	1486	1485	1481	1480	1472	1476	1484	1499	1515	1522	1516	1508	1509	1524	1530	1526	1519	1503	1490	1480	1492	1500	1500	1487	1476	1466	1467	1479	1491	1498	1489	1488	1477	1477	1473	1470	1470	1475	1467	1451	1448	1443	1458	1462	1465	1467	1472	1475	1468	1459	1454	1454	1468	1470	1462	1452	1445	1446	1457	1467	1482	1488	1490	1490	1486	1481	1469	1466	0	0	0	0	0	0
0	0	0	0	0	0	0	0	0	0	0	0	0	0	0	0	0	0	0	0	0	0	0	0	0	0	0	0	0	0	0	0	0	0	0	0	0	0	0	0	0	0	0	0	0	0	0	0	0	0	0	0	0	0	0	0	0	0	0	0	0	0	0	0	0	0	0	0	0	0	0	0	0	0	0	0	0	0	0	0	0	0	0	0	0	0	0	0	0	0	0	0	0	0	0	0	0	0	0	0	0	0	0	0	0	0	0	0	0	0	0	0	0	0	0	0	0	0	0	0	0	0	0	0	0	0	0	0	0	0	0	0	0	0	0	0	0	0	0	0	0	0	0	0	0	0	0	0	0	0	0	0	0	0	0	0	0	0	0	0	0	0	0	0	0	0	0	0	0	0	0	0	0	0	0	0	0	0	0	0	0	0	0	1425	1443	1441	1426	1420	1414	1410	1406	1407	1402	1405	1413	1409	1402	1409	1414	1411	1411	1392	1403	1415	1429	1437	1437	1431	1419	1415	1423	1432	1429	1410	1413	1417	1422	1429	1424	1422	1420	1412	1389	1379	1385	1395	1415	1409	1398	1391	1395	1401	1400	1403	1413	1418	1418	1412	1421	1428	1432	1424	1422	1432	1440	1444	1438	1428	1420	1421	1412	1410	1411	1414	1423	1411	1408	1410	1411	1425	1426	1436	1440	1441	1441	1442	1434	1443	1436	1438	1427	1423	1408	1401	1395	1395	1392	1407	1417	1427	1431	1437	1440	1440	1429	1429	1429	1430	1431	1427	1427	1423	1416	1420	1420	1415	1398	1408	1429	1441	1441	1442	1450	1457	1448	1424	1410	1412	1423	1431	1441	1452	1460	1462	1455	1437	1435	1434	1438	1445	1453	1459	1451	1441	1431	1420	1430	1441	1442	1445	1440	1429	1428	1412	1394	1407	1423	1421	1423	1423	1433	1419	1425	1433	1424	1442	1423	1410	1401	1418	1427	1439	1441	1435	1445	1447	1448	1441	1435	1430	1438	1451	1460	1467	1463	1461	1465	1476	1487	1486	1473	1451	1433	1414	1411	1419	1429	1440	1446	1440	1437	1433	1425	1424	1424	1434	1445	1461	1469	1463	1459	1454	1458	1464	1464	1454	1440	1428	1432	1435	1446	1448	1448	1443	1444	1450	1446	1437	1444	1451	1465	1465	1453	1443	1442	1460	1461	1462	1456	1449	1443	1441	1420	1422	1428	1428	1438	1450	1454	1452	1436	1436	1445	1463	1467	1461	1456	1446	1444	1443	1439	1441	1442	1455	1458	1456	1444	1438	1430	1425	1426	1419	1428	1433	1442	1450	1457	1459	1458	1452	1453	1458	1464	1466	1465	1460	1447	1437	1440	1448	1444	1438	1438	1442	1446	1449	1453	1454	1452	1462	0	0	0	0	0	0	0	0	0	0	0	0	0	0	0	0	0	0	0	0	0	0	0	0	0	1527	1524	1523	1500	1483	1511	1539	1542	1548	1529	1507	1484	1483	1488	1484	1477	1469	1463	1469	1493	1524	1544	1545	1535	1518	1512	1508	1496	1491	1521	0	0	0	0	0	0	0	0	0	0	0	0	0	0	0	0	0	0	0	1481	1489	1500	1481	1470	1466	1454	1453	1459	1485	1489	1487	1482	1480	1477	1470	1470	1469	1480	1499	1514	1511	1508	1505	1513	1521	1524	1523	1513	1505	1489	1486	1488	1497	1493	1479	1476	1469	1475	1489	1499	1499	1486	1483	1472	1472	1451	1445	1454	1460	1463	1446	1440	1439	1461	1473	1476	1485	1481	1479	1472	1470	1474	1481	1481	1485	1478	1458	1447	1448	1456	1461	1470	1476	1479	1482	1482	1476	1455	1445	0	0	0	0	0	0
0	0	0	0	0	0	0	0	0	0	0	0	0	0	0	0	0	0	0	0	0	0	0	0	0	0	0	0	0	0	0	0	0	0	0	0	0	0	0	0	0	0	0	0	0	0	0	0	0	0	0	0	0	0	0	0	0	0	0	0	0	0	0	0	0	0	0	0	0	0	0	0	0	0	0	0	0	0	0	0	0	0	0	0	0	0	0	0	0	0	0	0	0	0	0	0	0	0	0	0	0	0	0	0	0	0	0	0	0	0	0	0	0	0	0	0	0	0	0	0	0	0	0	0	0	0	0	0	0	0	0	0	0	0	0	0	0	0	0	0	0	0	0	0	0	0	0	0	0	0	0	0	0	0	0	0	0	0	0	0	0	0	0	0	0	0	0	0	0	0	0	0	0	0	0	0	0	0	0	0	0	0	0	1422	1417	1415	1411	1417	1422	1411	1405	1408	1405	1425	1426	1420	1402	1402	1412	1420	1407	1396	1396	1417	1428	1432	1428	1420	1414	1412	1424	1427	1430	1415	1417	1421	1428	1427	1429	1427	1426	1427	1409	1395	1402	1411	1414	1399	1388	1385	1383	1394	1398	1405	1414	1420	1414	1413	1421	1428	1433	1433	1435	1449	1446	1440	1433	1420	1418	1415	1415	1414	1408	1413	1424	1413	1409	1405	1412	1417	1423	1433	1438	1438	1442	1449	1448	1449	1445	1434	1426	1418	1413	1402	1396	1399	1400	1411	1418	1421	1424	1427	1429	1437	1442	1435	1429	1427	1426	1425	1422	1417	1419	1419	1421	1420	1419	1431	1437	1443	1439	1432	1441	1453	1457	1425	1410	1408	1418	1424	1434	1442	1452	1448	1417	1413	1420	1429	1444	1447	1459	1466	1459	1444	1428	1417	1422	1436	1453	1453	1434	1432	1439	1421	1400	1404	1415	1414	1417	1427	1410	1410	1420	1422	1423	1442	1428	1423	1416	1411	1429	1449	1459	1453	1454	1455	1454	1449	1439	1441	1446	1450	1455	1457	1460	1461	1471	1478	1484	1484	1472	1454	1438	1418	1415	1424	1427	1433	1436	1431	1437	1433	1425	1426	1429	1437	1450	1467	1475	1458	1451	1444	1445	1449	1449	1442	1431	1425	1424	1436	1457	1445	1443	1446	1444	1454	1456	1451	1452	1455	1458	1464	1453	1439	1437	1446	1439	1450	1448	1435	1430	1429	1412	1414	1415	1416	1424	1436	1446	1451	1440	1422	1426	1440	1447	1441	1434	1434	1437	1430	1429	1434	1438	1442	1449	1447	1428	1415	1415	1421	1426	1428	1426	1426	1431	1428	1442	1453	1449	1444	1441	1434	1430	1449	1455	1445	1449	1443	1447	1444	1436	1428	1426	1434	1444	1457	1455	1439	1437	1450	0	0	0	0	0	0	0	0	0	0	0	0	0	0	0	0	0	0	0	0	0	0	0	0	0	1550	1538	1533	1509	1484	1512	1516	1527	1534	1520	1498	1479	1480	1478	1479	1473	1470	1470	1472	1491	1516	1542	1543	1535	1522	1520	1515	1514	1514	1537	0	0	0	0	0	0	0	0	0	0	0	0	0	0	0	0	0	0	0	1486	1493	1499	1480	1466	1462	1450	1443	1454	1474	1480	1483	1477	1477	1479	1471	1467	1470	1482	1496	1493	1494	1494	1498	1506	1518	1514	1507	1502	1499	1494	1500	1496	1501	1487	1480	1469	1470	1476	1484	1494	1497	1488	1475	1468	1455	1455	1441	1446	1454	1460	1456	1442	1448	1471	1490	1500	1502	1491	1484	1476	1478	1489	1504	1504	1505	1490	1471	1460	1462	1453	1457	1455	1469	1474	1477	1477	1482	1460	1445	0	0	0	0	0	0
0	0	0	0	0	0	0	0	0	0	0	0	0	0	0	0	0	0	0	0	0	0	0	0	0	0	0	0	0	0	0	0	0	0	0	0	0	0	0	0	0	0	0	0	0	0	0	0	0	0	0	0	0	0	0	0	0	0	0	0	0	0	0	0	0	0	0	0	0	0	0	0	0	0	0	0	0	0	0	0	0	0	0	0	0	0	0	0	0	0	0	0	0	0	0	0	0	0	0	0	0	0	0	0	0	0	0	0	0	0	0	0	0	0	0	0	0	0	0	0	0	0	0	0	0	0	0	0	0	0	0	0	0	0	0	0	0	0	0	0	0	0	0	0	0	0	0	0	0	0	0	0	0	0	0	0	0	0	0	0	0	0	0	0	0	0	0	0	0	0	0	0	0	0	0	0	0	0	0	0	0	0	0	1439	1433	1405	1400	1409	1424	1418	1419	1406	1423	1434	1437	1431	1419	1414	1425	1430	1413	1405	1406	1425	1423	1426	1420	1419	1414	1420	1422	1431	1433	1417	1417	1417	1425	1427	1433	1439	1439	1437	1424	1412	1407	1411	1413	1404	1398	1389	1391	1396	1403	1408	1418	1425	1411	1406	1421	1435	1438	1448	1452	1454	1448	1437	1425	1418	1415	1413	1412	1416	1416	1417	1424	1417	1414	1410	1406	1414	1418	1423	1432	1438	1445	1448	1458	1453	1443	1432	1419	1418	1409	1402	1400	1395	1407	1418	1424	1420	1421	1427	1434	1441	1449	1442	1434	1429	1425	1422	1419	1412	1415	1420	1425	1428	1431	1441	1441	1443	1438	1429	1431	1428	1430	1434	1432	1418	1417	1429	1432	1437	1441	1433	1421	1418	1427	1430	1442	1449	1459	1469	1476	1465	1442	1421	1419	1443	1460	1458	1424	1421	1427	1421	1411	1413	1412	1405	1405	1424	1431	1421	1418	1420	1422	1429	1439	1434	1436	1427	1426	1444	1450	1451	1451	1449	1453	1462	1462	1456	1449	1442	1431	1423	1414	1462	1471	1472	1473	1466	1460	1447	1438	1428	1420	1421	1428	1429	1432	1433	1432	1425	1423	1421	1427	1439	1455	1469	1469	1460	1445	1440	1436	1441	1442	1431	1416	1416	1419	1436	1459	1455	1454	1455	1456	1461	1464	1456	1452	1446	1451	1443	1448	1444	1429	1407	1405	1419	1422	1425	1426	1426	1405	1407	1404	1407	1411	1426	1445	1446	1434	1413	1412	1418	1413	1411	1408	1420	1424	1426	1428	1433	1440	1443	1444	1433	1434	1420	1410	1410	1427	1429	1426	1423	1421	1429	1433	1435	1439	1433	1427	1422	1427	1427	1446	1442	1453	1453	1452	1452	1439	1428	1432	1436	1454	1457	1452	1433	1426	1443	0	0	0	0	0	0	0	0	0	0	0	0	0	0	0	0	0	0	0	0	0	0	0	0	0	1560	1556	1560	1522	1483	1495	1504	1510	1517	1514	1507	1506	1483	1479	1478	1482	1480	1482	1479	1484	1509	1528	1538	1533	1525	1523	1531	1535	1541	1560	0	0	0	0	0	0	0	0	0	0	0	0	0	0	0	0	0	0	0	0	1504	1506	1492	1480	1469	1463	1456	1458	1467	1473	1476	1477	1484	1484	1484	1479	1479	1485	1487	1489	1479	1479	1487	1499	1508	1501	1490	1492	1492	1503	1507	1509	1502	1490	1476	1472	1462	1465	1466	1471	1481	1481	1486	1476	1467	1467	1470	1468	1469	1466	1457	1453	1458	1483	1500	1507	1485	1477	1461	1463	1495	1503	1515	1515	1514	1494	1475	1473	1464	1468	1462	1473	1468	1476	1482	1482	1481	1470	1456	0	0	0	0	0	0
0	0	0	0	0	0	0	0	0	0	0	0	0	0	0	0	0	0	0	0	0	0	0	0	0	0	0	0	0	0	0	0	0	0	0	0	0	0	0	0	0	0	0	0	0	0	0	0	0	0	0	0	0	0	0	0	0	0	0	0	0	0	0	0	0	0	0	0	0	0	0	0	0	0	0	0	0	0	0	0	0	0	0	0	0	0	0	0	0	0	0	0	0	0	0	0	0	0	0	0	0	0	0	0	0	0	0	0	0	0	0	0	0	0	0	0	0	0	0	0	0	0	0	0	0	0	0	0	0	0	0	0	0	0	0	0	0	0	0	0	0	0	0	0	0	0	0	0	0	0	0	0	0	0	0	0	0	0	0	0	0	0	0	0	0	0	0	0	0	0	0	0	0	0	0	0	0	0	0	0	0	0	0	1444	1445	1442	1428	1427	1434	1428	1432	1443	1437	1444	1441	1438	1422	1430	1427	1429	1412	1401	1405	1419	1411	1413	1407	1406	1418	1422	1435	1438	1444	1413	1408	1411	1418	1428	1441	1442	1442	1439	1429	1421	1409	1415	1413	1418	1412	1407	1400	1407	1414	1425	1425	1414	1417	1419	1426	1430	1441	1448	1459	1451	1438	1430	1418	1410	1405	1405	1413	1415	1418	1415	1415	1415	1421	1418	1409	1406	1407	1408	1409	1415	1421	1428	1435	1441	1445	1428	1419	1416	1416	1422	1423	1412	1412	1419	1424	1420	1422	1433	1442	1444	1447	1448	1438	1423	1419	1427	1408	1408	1418	1433	1437	1435	1436	1439	1439	1438	1419	1418	1418	1420	1425	1439	1436	1434	1441	1441	1441	1440	1448	1455	1452	1440	1440	1440	1444	1451	1458	1469	1473	1470	1459	1450	1451	1460	1461	1448	1413	1419	1415	1419	1419	1423	1423	1408	1411	1426	1433	1417	1416	1423	1430	1430	1428	1438	1437	1436	1424	1433	1441	1442	1442	1445	1452	1460	1459	1449	1440	1430	1420	1414	1414	1413	1421	1430	1439	1436	1434	1432	1427	1421	1421	1430	1428	1429	1427	1426	1427	1426	1434	1439	1445	1442	1432	1435	1448	1455	1454	1451	1457	1463	1452	1437	1424	1429	1436	1440	1438	1444	1450	1453	1462	1467	1467	1450	1439	1429	1433	1438	1445	1435	1423	1418	1414	1426	1429	1432	1424	1416	1414	1434	1448	1460	1443	1442	1444	1443	1447	1434	1436	1447	1440	1432	1440	1445	1450	1445	1445	1453	1466	1471	1454	1436	1439	1435	1422	1415	1423	1431	1429	1429	1435	1448	1453	1445	1437	1435	1436	1431	1434	1441	1460	1466	1466	1464	1466	1457	1444	1442	1442	1453	1464	1464	1449	1435	1431	1443	1517	0	0	0	0	0	0	0	0	0	0	0	0	0	0	0	0	0	0	0	0	0	0	0	0	1554	1567	1571	1549	1506	1498	1500	1490	1490	1502	1516	1499	1490	1485	1482	1490	1504	1502	1496	1496	1512	1523	1533	1529	1522	1524	1531	1549	1564	1591	0	0	0	0	0	0	0	0	0	0	0	0	0	0	0	0	0	0	0	0	1512	1521	1511	1488	1475	1476	1475	1474	1473	1470	1475	1483	1484	1489	1490	1489	1486	1487	1480	1472	1472	1479	1481	1494	1497	1491	1484	1482	1489	1499	1507	1510	1509	1498	1487	1479	1464	1457	1457	1466	1467	1476	1479	1473	1480	1485	1485	1483	1482	1475	1463	1467	1471	1492	1500	1499	1481	0	0	1457	1466	1497	1511	1507	1507	1494	1489	1473	1477	1482	1492	1495	1481	1473	1479	1479	1479	1472	1457	0	0	0	0	0	0
0	0	0	0	0	0	0	0	0	0	0	0	0	0	0	0	0	0	0	0	0	0	0	0	0	0	0	0	0	0	0	0	0	0	0	0	0	0	0	0	0	0	0	0	0	0	0	0	0	0	0	0	0	0	0	0	0	0	0	0	0	0	0	0	0	0	0	0	0	0	0	0	0	0	0	0	0	0	0	0	0	0	0	0	0	0	0	0	0	0	0	0	0	0	0	0	0	0	0	0	0	0	0	0	0	0	0	0	0	0	0	0	0	0	0	0	0	0	0	0	0	0	0	0	0	0	0	0	0	0	0	0	0	0	0	0	0	0	0	0	0	0	0	0	0	0	0	0	0	0	0	0	0	0	0	0	0	0	0	0	0	0	0	0	0	0	0	0	0	0	0	0	0	0	0	0	0	0	0	0	0	0	0	1437	1449	1449	1448	1441	1431	1432	1439	1445	1435	1440	1444	1429	1424	1425	1423	1419	1401	1397	1403	1417	1414	1406	1401	1403	1417	1421	1430	1440	1432	1415	1397	1407	1411	1421	1426	1439	1436	1433	1431	1434	1428	1423	1426	1428	1431	1424	1413	1419	1427	1440	1436	1432	1431	1431	1428	1434	1432	1440	1448	1447	1438	1427	1421	1420	1410	1406	1413	1420	1426	1419	1416	1419	1424	1421	1412	1408	1408	1414	1412	1410	1416	1430	1430	1434	1445	1431	1422	1424	1427	1433	1436	1421	1411	1416	1422	1421	1427	1438	1445	1451	1448	1448	1436	1422	1422	1426	1407	1411	1420	1436	1429	1423	1431	1436	1434	1432	1411	1414	1413	1421	1432	1433	1433	1438	1445	1445	1438	1434	1443	1458	1467	1456	1449	1449	1457	1457	1455	1452	1448	1453	1455	1453	1454	1459	1456	1449	1419	1398	1413	1415	1424	1433	1429	1415	1421	1432	1432	1423	1412	1420	1432	1444	1441	1435	1437	1426	1429	1437	1435	1434	1434	1439	1446	1453	1455	1447	1437	1427	1424	1422	1422	1422	1426	1434	1444	1444	1445	1441	1433	1428	1430	1440	1435	1441	1440	1438	1436	1439	1448	1455	1454	1452	1440	1437	1444	1449	1450	1453	1454	1455	1446	1437	1427	1427	1433	1436	1439	1449	1455	1464	1468	1470	1468	1456	1443	1438	1440	1444	1445	1440	1430	1426	1431	1443	1453	1453	1435	1425	1419	1442	1455	1467	1468	1460	1456	1454	1460	1453	1457	1449	1443	1440	1441	1455	1463	1467	1462	1470	1485	1488	1471	1443	1440	1436	1432	1431	1434	1439	1443	1445	1449	1455	1462	1465	1462	1451	1445	1441	1441	1450	1478	1472	1471	1467	1466	1455	1449	1445	1449	1455	1463	1459	1451	1443	1444	1447	1481	0	0	0	0	0	0	0	0	0	0	0	0	0	0	0	0	0	0	0	0	0	0	0	0	1545	1563	1559	1559	1535	1511	1504	1496	1488	1482	1487	1502	1495	1483	1496	1502	1521	1523	1521	1524	1520	1530	1533	1532	1524	1525	1526	1548	1572	1608	0	0	0	0	0	0	0	0	0	0	0	0	0	0	0	0	0	0	0	0	1527	1533	1524	1489	1479	1477	1479	1479	1475	1474	1479	1485	1490	1489	1484	1482	1477	1477	1468	1471	1476	1481	1486	1496	1498	1488	1480	1485	1490	1495	1505	1511	1505	1499	1497	1488	1480	1471	1462	1464	1465	1459	1461	1465	1479	1491	1491	1495	1488	1481	1467	1461	1471	1485	1498	1497	1474	1463	1457	1469	1474	1489	1497	1499	1499	1490	1491	1490	1487	1502	1502	1506	1492	1476	1471	1470	1470	1468	1455	0	0	0	0	0	0
0	0	0	0	0	0	0	0	0	0	0	0	0	0	0	0	0	0	0	0	0	0	0	0	0	0	0	0	0	0	0	0	0	0	0	0	0	0	0	0	0	0	0	0	0	0	0	0	0	0	0	0	0	0	0	0	0	0	0	0	0	0	0	0	0	0	0	0	0	0	0	0	0	0	0	0	0	0	0	0	0	0	0	0	0	0	0	0	0	0	0	0	0	0	0	0	0	0	0	0	0	0	0	0	0	0	0	0	0	0	0	0	0	0	0	0	0	0	0	0	0	0	0	0	0	0	0	0	0	0	0	0	0	0	0	0	0	0	0	0	0	0	0	0	0	0	0	0	0	0	0	0	0	0	0	0	0	0	0	0	0	0	0	0	0	0	0	0	0	0	0	0	0	0	0	0	0	0	0	0	0	0	1411	1433	1440	1425	1433	1426	1424	1426	1425	1420	1434	1442	1438	1417	1393	1399	1411	1416	1410	1402	1420	1423	1427	1421	1419	1427	1426	1424	1422	1426	1426	1415	1400	1399	1406	1413	1421	1427	1413	1418	1433	1441	1442	1439	1425	1425	1430	1419	1418	1423	1438	1451	1457	1456	1449	1437	1424	1417	1434	1450	1452	1441	1437	1437	1435	1434	1426	1416	1418	1431	1443	1437	1432	1426	1422	1423	1424	1433	1436	1432	1423	1422	1422	1426	1429	1436	1436	1434	1436	1445	1449	1445	1441	1425	1409	1408	1411	1421	1437	1448	1458	1454	1450	1440	1431	1425	1425	1413	1416	1425	1430	1430	1414	1412	1416	1421	1413	1421	1420	1425	1430	1437	1438	1438	1441	1449	1450	1446	1432	1431	1440	1456	1464	1459	1464	1462	1468	1470	1463	1456	1444	1437	1442	1447	1442	1440	1442	1443	1425	1407	1408	1419	1426	1432	1429	1424	1416	1429	1430	1432	1432	1430	1430	1422	1417	1420	1431	1438	1443	1449	1443	1439	1431	1433	1438	1448	1455	1450	1439	1431	1431	1434	1437	1428	1430	1430	1434	1433	1445	1444	1442	1439	1435	1442	1448	1452	1450	1447	1446	1460	1472	1469	1463	1456	1453	1443	1445	1452	1451	1451	1454	1451	1444	1432	1427	1430	1438	1438	1446	1460	1464	1473	1479	1473	1467	1461	1454	1449	1448	1446	1451	1449	1446	1440	1440	1451	1464	1463	1453	1429	1423	1441	1464	1473	1475	1475	1469	1468	1464	1462	1457	1450	1444	1439	1442	1454	1470	1476	1480	1480	1486	1488	1464	1444	1438	1441	1438	1438	1433	1438	1442	1444	1439	1441	1469	1472	1470	1461	1454	1443	1434	1452	1484	1485	1475	1468	1460	1462	1449	1451	1453	1455	1445	1446	1458	1457	1444	1447	1457	0	0	0	0	0	0	0	0	0	0	0	0	0	0	0	0	0	0	0	0	0	0	0	0	1547	1545	1548	1551	1552	1526	1519	1510	1505	1490	1486	1498	1491	1490	1504	1515	1534	1530	1531	1534	1533	1533	1536	1537	1527	1526	1529	1534	1571	1601	0	0	0	0	0	0	0	0	0	0	0	0	0	0	0	0	0	0	0	1504	1508	1526	1530	1497	1478	1471	1476	1465	1469	1465	1477	1486	1489	1481	1477	1474	1464	1466	1469	1474	1480	1490	1497	1496	1492	1481	1488	1490	1495	1494	1501	1503	1499	1497	1495	1493	1484	1474	1473	1468	1460	1452	1444	1448	1461	1472	1472	1483	1490	1482	1466	1461	1469	1482	1496	1497	1485	1478	1478	1471	1467	1480	1493	1497	1498	1500	1488	1489	1493	1510	1507	1506	1490	1473	1469	1469	1469	1464	1459	0	0	0	0	0	0
0	0	0	0	0	0	0	0	0	0	0	0	0	0	0	0	0	0	0	0	0	0	0	0	0	0	0	0	0	0	0	0	0	0	0	0	0	0	0	0	0	0	0	0	0	0	0	0	0	0	0	0	0	0	0	0	0	0	0	0	0	0	0	0	0	0	0	0	0	0	0	0	0	0	0	0	0	0	0	0	0	0	0	0	0	0	0	0	0	0	0	0	0	0	0	0	0	0	0	1429	1436	1461	1475	1475	1466	1453	1450	1449	1463	1455	1437	1408	1395	1394	1411	1422	1433	1413	1397	1388	1391	1400	1417	1416	1411	1408	1405	1408	1393	1383	1382	0	0	0	0	0	0	0	0	0	0	0	0	0	0	0	0	0	0	0	0	0	0	0	0	0	0	0	0	0	0	0	0	0	0	0	0	0	0	0	0	0	0	0	0	0	0	0	0	0	0	0	1395	1414	1412	1421	1425	1428	1431	1411	1409	1418	1437	1446	1445	1431	1417	1415	1412	1427	1433	1437	1428	1423	1428	1434	1438	1441	1438	1428	1420	1414	1427	1419	1410	1413	1411	1417	1418	1412	1414	1423	1434	1440	1445	1436	1433	1430	1427	1420	1416	1420	1430	1438	1443	1439	1430	1428	1425	1424	1428	1443	1448	1443	1441	1439	1437	1434	1423	1423	1425	1434	1447	1443	1433	1419	1414	1415	1418	1418	1420	1416	1409	1418	1420	1429	1434	1430	1431	1419	1429	1435	1437	1434	1426	1416	1414	1416	1414	1417	1431	1447	1455	1452	1445	1431	1428	1433	1431	1428	1429	1437	1436	1430	1417	1408	1402	1409	1415	1418	1421	1426	1436	1439	1442	1442	1444	1447	1452	1445	1438	1433	1435	1453	1458	1464	1467	1475	1478	1477	1470	1455	1440	1440	1441	1448	1441	1435	1419	1417	1427	1414	1417	1412	1425	1426	1421	1418	1416	1427	1428	1445	1451	1442	1432	1430	1425	1431	1445	1453	1464	1461	1457	1444	1437	1430	1434	1445	1453	1453	1447	1442	1442	1445	1445	1442	1431	1422	1416	1433	1441	1443	1441	1437	1435	1434	1441	1452	1456	1461	1466	1481	1483	1480	1469	1462	1459	1454	1455	1458	1465	1459	1456	1452	1440	1431	1429	1426	1444	1453	1457	1464	1474	1478	1475	1468	1464	1466	1458	1454	1454	1454	1456	1457	1452	1449	1445	1449	1454	1462	1458	1444	1428	1435	1457	1462	1469	1465	1467	1465	1471	1471	1462	1452	1447	1443	1440	1451	1466	1479	1485	1482	1478	1468	1461	1453	1444	1441	1443	1446	1439	1441	1436	1432	1428	1437	1451	1472	1478	1472	1458	1441	1440	1449	1465	1474	1472	1472	1461	1463	1466	1466	1467	1454	1442	1440	1450	1457	1452	1441	1461	0	0	0	0	0	0	0	0	0	0	0	0	0	0	0	0	0	0	0	0	0	0	0	0	1552	1545	1532	1539	1549	1535	1524	1525	1514	1507	1505	1493	1499	1508	1516	1523	1532	1525	1531	1532	1532	1532	1532	1536	1538	1538	1541	1544	1557	1565	0	0	0	0	0	0	0	0	0	0	0	0	0	0	0	0	0	0	0	1490	1487	1517	1523	1498	1488	1479	1473	1459	1463	1459	1478	1483	1486	1475	1470	1469	1468	1472	1477	1490	1498	1503	1504	1498	1488	1484	1486	1490	1496	1495	1504	1507	1493	1492	1490	1485	1476	1471	1478	1475	1454	1440	1431	1432	1438	1453	1465	1465	1470	1471	1470	1460	1466	1478	1499	1500	1497	1476	1464	1459	1462	1473	1491	1500	1497	1497	1485	1487	1492	1506	1506	1501	1484	1471	1470	1469	1469	1467	1466	0	0	0	0	0	0
0	0	0	0	0	0	0	0	0	0	0	0	0	0	0	0	0	0	0	0	0	0	0	0	0	0	0	0	0	0	0	0	0	0	0	0	0	0	0	0	0	0	0	0	0	0	0	0	0	0	0	0	0	0	0	0	0	0	0	0	0	0	0	0	0	0	0	0	0	0	0	0	0	0	0	0	0	0	0	0	0	0	0	0	0	0	0	0	0	1456	1440	1430	1426	1431	1438	1440	1446	1450	1444	1420	1412	1417	1442	1452	1452	1436	1424	1422	1418	1421	1405	1397	1392	1395	1390	1388	1379	1377	1384	1403	1416	1429	1440	1428	1414	1397	1389	1386	1384	1387	1390	1368	0	0	0	0	0	0	0	0	0	0	0	0	0	0	0	0	0	0	0	0	0	0	0	0	0	0	0	0	0	0	0	0	0	0	0	0	0	0	0	0	0	0	0	0	0	0	0	0	0	0	1392	1388	1402	1417	1429	1432	1420	1409	1407	1414	1432	1443	1441	1437	1427	1423	1427	1436	1444	1436	1425	1416	1421	1428	1441	1447	1442	1432	1417	1409	1429	1428	1417	1413	1418	1410	1413	1413	1413	1418	1431	1440	1443	1439	1437	1438	1436	1426	1418	1424	1423	1430	1433	1419	1414	1416	1421	1418	1421	1428	1433	1428	1433	1430	1425	1419	1424	1428	1430	1433	1438	1436	1428	1419	1409	1408	1415	1418	1417	1408	1401	1408	1419	1427	1430	1438	1422	1423	1423	1426	1432	1432	1424	1419	1422	1422	1423	1420	1430	1441	1448	1441	1435	1429	1431	1440	1439	1436	1438	1442	1442	1438	1426	1414	1428	1428	1423	1418	1417	1421	1422	1428	1428	1437	1437	1440	1447	1447	1444	1442	1443	1453	1454	1458	1463	1473	1476	1468	1461	1444	1437	1434	1443	1444	1445	1439	1422	1412	1422	1432	1425	1426	1456	1436	1419	1422	1421	1431	1437	1449	1460	1469	1463	1451	1446	1453	1457	1462	1466	1470	1463	1448	1437	1431	1437	1446	1454	1457	1452	1445	1446	1446	1450	1448	1433	1415	1415	1425	1440	1444	1441	1438	1435	1439	1443	1454	1463	1471	1477	1482	1484	1477	1472	1466	1464	1468	1467	1467	1467	1471	1465	1459	1451	1432	1429	1436	1451	1459	1462	1459	1465	1469	1465	1463	1464	1466	1457	1455	1452	1452	1453	1455	1456	1456	1449	1447	1451	1447	1457	1449	1436	1434	1438	1436	1434	1442	1456	1461	1463	1462	1460	1460	1456	1452	1451	1454	1463	1475	1476	1468	1463	1461	1463	1464	1470	1459	1455	1456	1458	1445	1430	1430	1434	1441	1457	1474	1480	1478	1462	1446	1441	1447	1452	1463	1466	1472	1477	1467	1469	1476	1477	1470	1448	1441	1442	1445	1447	1439	1467	0	0	0	0	0	0	0	0	0	0	0	0	0	0	0	0	0	0	0	0	0	0	0	1560	1550	1539	1525	1528	1540	1526	1525	1531	1529	1523	1513	1505	1508	1513	1520	1527	1522	1520	1527	1535	1533	1532	1531	1539	1553	1550	1552	1553	1539	1520	0	0	0	0	0	0	0	0	0	0	0	0	0	0	0	0	0	0	0	1487	1478	1499	1498	1495	1485	1477	1465	1461	1463	1469	1475	1483	1486	1475	1474	1476	1476	1484	1494	1504	1516	1518	1509	1496	1486	1477	1485	1491	1492	1491	1500	1498	1488	1484	1479	1469	1463	1465	1473	1475	1456	1444	1437	1430	1435	1435	1451	1451	1441	1453	1439	1434	1438	1457	1479	1499	1498	1478	1460	1457	1455	1472	1497	1505	1499	1499	1475	1478	1487	1499	1499	1490	1477	1467	1470	1468	1468	1468	1464	0	0	0	0	0	0
0	0	0	0	0	0	0	0	0	0	0	0	0	0	0	0	0	0	0	0	0	0	0	0	0	0	0	0	0	0	0	0	0	0	0	0	0	0	0	0	0	0	0	0	0	0	0	0	0	0	0	0	0	0	0	0	0	0	0	0	0	0	0	0	0	0	0	0	0	0	0	0	0	0	0	0	0	0	0	0	0	0	0	0	0	0	0	1516	1482	1447	1413	1400	1409	1418	1429	1441	1438	1430	1423	1436	1445	1443	1450	1457	1442	1433	1427	1432	1427	1424	1415	1406	1404	1399	1397	1391	1388	1384	1394	1416	1425	1436	1433	1419	1405	1397	1386	1396	1411	1416	1422	1403	1398	0	0	0	0	0	0	0	0	0	0	0	0	0	0	0	0	0	0	0	0	0	0	0	0	0	0	0	0	0	0	0	0	0	0	0	0	0	0	0	0	0	0	0	0	0	0	0	0	0	1369	1378	1397	1410	1412	1413	1406	1408	1412	1418	1428	1431	1432	1430	1428	1428	1434	1444	1444	1441	1425	1417	1418	1427	1437	1445	1445	1438	1425	1427	1427	1428	1423	1419	1415	1413	1414	1414	1410	1409	1416	1427	1433	1435	1441	1444	1441	1436	1429	1423	1422	1430	1423	1408	1406	1403	1411	1414	1418	1418	1416	1410	1407	1410	1412	1413	1418	1431	1433	1428	1431	1427	1420	1421	1421	1424	1421	1419	1420	1415	1407	1407	1425	1438	1437	1431	1425	1421	1424	1426	1432	1434	1430	1428	1433	1433	1429	1431	1431	1440	1440	1442	1440	1440	1439	1446	1445	1439	1441	1441	1442	1439	1439	1442	1442	1439	1431	1424	1419	1420	1420	1426	1433	1431	1427	1433	1440	1450	1442	1447	1451	1454	1455	1452	1451	1451	1453	1450	1447	1436	1430	1436	1439	1448	1448	1441	1424	1417	1437	1451	1431	1433	1460	1443	1429	1424	1428	1438	1441	1449	1462	1471	1473	1473	1464	1462	1460	1461	1458	1464	1462	1450	1442	1441	1442	1451	1455	1454	1450	1442	1438	1444	1452	1455	1440	1427	1423	1433	1443	1442	1444	1446	1450	1448	1451	1456	1462	1470	1468	1463	1454	1470	1462	1465	1466	1472	1476	1469	1470	1472	1472	1476	1461	1448	1450	1454	1457	1459	1458	1453	1454	1455	1456	1456	1456	1454	1448	1447	1446	1443	1440	1445	1448	1452	1447	1441	1435	1437	1438	1441	1430	1421	1421	1421	1425	1431	1441	1451	1458	1462	1468	1467	1473	1465	1459	1454	1462	1467	1461	1455	1451	1470	1480	1480	1491	1482	1480	1469	1458	1443	1439	1440	1441	1443	1453	1468	1474	1480	1475	1459	1442	1440	1441	1458	1464	1477	1489	1480	1470	1475	1475	1470	1465	1454	1450	1442	1434	1433	1472	0	0	0	0	0	0	0	0	0	0	0	0	0	0	0	0	0	0	0	0	0	0	0	1570	1556	1547	1537	1524	1527	1522	1521	1526	1538	1538	1528	1523	1532	1530	1534	1520	1503	1508	1521	1536	1538	1530	1524	1529	1549	1558	1561	1557	1537	1506	1505	0	0	0	0	0	0	0	0	0	0	0	0	0	0	0	0	0	0	1512	1507	1500	1489	1489	1479	1474	1466	1465	1479	1481	1484	1483	1481	1478	1479	1483	1484	1491	1503	1520	1519	1512	1496	1485	1473	1474	1484	1489	1495	1496	1492	1489	1480	1471	1462	1461	1458	1459	1469	1471	1459	1456	1450	1442	1451	1459	1456	1452	1452	1451	1452	1443	1442	1450	1473	1489	1486	1476	1468	1453	1459	1486	1500	1512	1501	1501	1478	1476	1481	1482	1492	1492	1489	1478	1461	1458	1455	1455	1457	0	0	0	0	0	0
0	0	0	0	0	0	0	0	0	0	0	0	0	0	0	0	0	0	0	0	0	0	0	0	0	0	0	0	0	0	0	0	0	0	0	0	0	0	0	0	0	0	0	0	0	0	0	0	0	0	0	0	0	0	1394	0	0	0	0	0	0	0	0	0	0	0	0	0	0	0	0	0	0	0	0	0	0	0	0	0	0	0	0	0	0	0	1523	1504	1465	1415	1394	1397	1397	1396	1428	1438	1427	1417	1425	1441	1454	1462	1458	1446	1427	1425	1427	1427	1435	1429	1420	1414	1402	1397	1406	1406	1400	1398	1402	1412	1422	1426	1414	1403	1396	1395	1390	1399	1418	1437	1437	1417	1422	0	0	0	0	0	0	0	0	0	0	0	0	0	0	0	0	0	0	0	0	0	0	0	0	0	0	0	0	0	0	0	0	0	0	0	0	0	0	0	0	0	0	0	0	0	0	0	0	0	1374	1380	1394	1401	1399	1394	1409	1413	1413	1414	1420	1430	1427	1425	1426	1428	1438	1450	1447	1441	1431	1422	1421	1427	1433	1440	1447	1442	1440	1431	1424	1421	1416	1414	1405	1404	1409	1413	1408	1404	1397	1408	1418	1432	1441	1449	1453	1444	1437	1427	1425	1426	1424	1414	1406	1403	1407	1411	1411	1406	1402	1398	1401	1401	1403	1407	1419	1434	1444	1423	1424	1418	1417	1418	1421	1429	1431	1432	1425	1423	1418	1417	1427	1438	1435	1439	1433	1425	1424	1431	1434	1439	1445	1444	1448	1445	1434	1430	1427	1425	1435	1440	1440	1441	1442	1446	1441	1439	1439	1432	1430	1434	1443	1450	1447	1448	1435	1425	1425	1425	1432	1438	1443	1438	1432	1432	1440	1452	1454	1461	1454	1452	1449	1445	1438	1435	1434	1437	1433	1432	1436	1444	1454	1455	1453	1447	1425	1431	1458	1463	1435	1438	1453	1462	1434	1433	1435	1445	1449	1457	1468	1478	1474	1466	1460	1456	1454	1455	1455	1456	1462	1451	1443	1445	1452	1454	1457	1449	1443	1430	1430	1439	1449	1454	1448	1441	1435	1442	1453	1453	1450	1453	1458	1457	1458	1456	1454	1452	1452	1448	1435	1436	1431	1451	1463	1474	1480	1465	1463	1463	1472	1475	1475	1463	1462	1461	1461	1459	1447	1445	1440	1450	1456	1461	1455	1448	1439	1433	1430	1431	1427	1427	1437	1444	1441	1436	1433	1440	1451	1447	1439	1420	1411	1419	1417	1425	1438	1453	1463	1472	1475	1476	1475	1472	1471	1465	1462	1466	1457	1445	1449	1459	1472	1480	1491	1494	1490	1475	1461	1450	1443	1445	1442	1444	1448	1456	1464	1474	1469	1455	1442	1438	1444	1458	1466	1480	1482	1475	1466	1469	1472	1477	1483	1475	1459	1448	1431	1436	1468	1494	0	0	0	0	0	0	0	0	0	0	0	0	0	0	0	0	0	0	0	0	0	0	0	1589	1557	1541	1521	1519	1520	1519	1532	1540	1544	1541	1546	1550	1543	1540	1526	1520	1534	1549	1558	1557	1552	1532	1522	1519	1527	1537	1553	1527	1516	1514	0	0	0	0	0	0	0	0	0	0	0	0	0	0	0	0	0	1519	1528	1533	1510	1488	1490	1476	1471	1465	1485	1494	1495	1479	1474	1480	1480	1481	1486	1489	1497	1502	1511	1506	1493	1483	1466	1469	1470	1482	1486	1499	1495	1491	1486	1479	1467	1453	1440	1451	1460	1478	1478	1479	1477	1486	1503	1506	1497	1484	1470	1470	1461	1449	1447	1453	1466	1466	1476	1483	1482	1474	1467	1480	1479	1498	1509	1494	1494	1479	1484	1487	1503	1504	1505	1497	1480	1462	1450	1445	1445	1450	0	0	0	0	0	0
0	0	1434	1440	1437	1415	1415	1396	1375	1360	1362	1383	1383	1404	0	0	0	0	0	1408	1389	1378	1369	1389	1420	1443	1443	1466	1471	1487	1486	1461	1435	1421	1421	1429	1443	1458	0	0	0	0	0	0	0	0	0	0	0	1408	1390	1381	1400	1412	1424	1426	1436	1454	1454	1460	1448	1421	1423	1436	1452	1453	1447	1440	1445	1453	1469	1476	1489	1483	1482	1472	1462	1457	1456	1458	1457	1456	1459	1476	1494	1500	1495	1480	1457	1457	1418	1411	1417	1421	1423	1424	1405	1401	1413	1431	1445	1452	1440	1432	1416	1413	1420	1425	1416	1415	1408	1396	1384	1386	1399	1406	1408	1406	1408	1409	1410	1407	1401	1395	1392	1390	1382	1389	1406	1433	1437	1429	1449	0	0	0	0	0	0	0	0	0	0	0	0	0	0	0	0	0	0	0	0	0	0	0	0	0	0	0	0	0	0	0	0	0	0	0	0	0	0	0	0	0	0	0	0	0	0	0	0	0	1389	1392	1405	1407	1400	1398	1407	1414	1410	1415	1424	1433	1426	1415	1412	1416	1423	1441	1446	1443	1432	1426	1424	1424	1430	1435	1440	1440	1435	1423	1420	1412	1410	1406	1407	1407	1408	1409	1406	1392	1388	1391	1414	1427	1443	1454	1457	1446	1440	1430	1423	1415	1414	1416	1401	1411	1414	1418	1411	1397	1395	1398	1402	1404	1405	1410	1422	1438	1447	1422	1417	1411	1411	1411	1420	1431	1441	1443	1433	1434	1429	1428	1425	1432	1433	1429	1425	1425	1426	1429	1435	1440	1439	1446	1452	1451	1439	1431	1427	1428	1437	1441	1436	1434	1436	1433	1436	1446	1445	1437	1432	1435	1444	1442	1447	1444	1439	1430	1429	1439	1448	1456	1459	1456	1445	1439	1450	1461	1466	1464	1452	1448	1443	1441	1436	1430	1424	1427	1427	1434	1446	1455	1464	1465	1463	1455	1446	1443	1463	1460	1446	1446	1445	1468	1444	1441	1439	1443	1450	1464	1472	1475	1472	1457	1452	1451	1449	1447	1451	1454	1453	1452	1449	1449	1455	1461	1456	1444	1434	1431	1429	1434	1443	1450	1453	1451	1447	1452	1456	1458	1455	1459	1465	1459	1468	1457	1453	1447	1450	1447	1444	1432	1432	1444	1455	1469	1477	1460	1456	1454	1463	1468	1466	1457	1451	1451	1452	1444	1440	1439	1445	1454	1459	1464	1458	1448	1438	1435	1436	1432	1423	1421	1430	1439	1442	1442	1437	1442	1449	1456	1441	1426	1409	1411	1417	1421	1434	1448	1468	1474	1483	1483	1479	1473	1471	1468	1464	1462	1456	1441	1440	1451	1463	1477	1483	1493	1492	1482	1461	1454	1450	1447	1446	1444	1445	1447	1459	1465	1459	1445	1446	1445	1456	1466	1462	1462	1467	1462	1465	1463	1473	1482	1488	1480	1469	1453	1443	1446	1465	1479	0	0	0	0	0	0	0	0	0	0	0	0	0	0	0	0	0	0	0	0	0	0	0	1601	1562	1546	1525	1517	1518	1532	1540	1542	1543	1543	1529	1522	1526	1536	1541	1539	1539	1547	1552	1552	1550	1539	1546	1544	1529	1528	1536	1527	1510	1524	0	0	0	0	0	0	0	0	0	0	0	0	0	0	0	0	0	1520	1528	1539	1514	1500	1495	1482	1470	1466	1497	1496	1492	1479	1480	1483	1482	1487	1489	1488	1497	1503	1494	1487	1477	1475	1475	1475	1483	1488	1489	1500	1501	1497	1485	1481	1472	1459	1443	1447	1469	1484	1489	1481	1485	1498	1509	1507	1499	1484	1474	1474	1453	1449	1462	1483	1478	1471	1467	1475	1479	1456	1469	1484	1492	1498	1501	1506	1504	1504	1507	1501	1506	1507	1500	1498	1488	1465	1446	1454	1454	1464	0	0	0	0	0	0
0	0	1440	1445	1434	1434	1419	1402	1385	1369	1383	1395	1395	1402	1407	1420	1420	1430	1430	1432	1425	1413	1402	1395	1412	1436	1436	1460	1475	1474	1464	1437	1425	1428	1428	1438	1444	1444	1430	1401	0	0	0	0	0	0	0	1424	1417	1412	1422	1436	1440	1442	1438	1443	1445	1448	1448	1447	1431	1422	1410	1418	1427	1436	1447	1467	1482	1484	1474	1460	1462	1467	1481	1479	1467	1440	1424	1415	1442	1466	1474	1479	1478	1479	1474	1461	1461	1444	1434	1433	1437	1440	1442	1433	1415	1398	1399	1418	1431	1438	1434	1421	1416	1420	1417	1415	1404	1400	1396	1385	1378	1378	1391	1405	1411	1412	1413	1409	1395	1387	1390	1395	1393	1387	1379	1380	1389	1402	1413	1410	1424	1454	0	0	0	0	0	0	0	0	0	0	0	0	0	0	0	0	0	0	0	0	0	0	0	0	0	0	0	0	0	0	0	0	0	0	0	0	0	0	0	0	0	0	0	0	0	0	0	1431	1401	1409	1415	1417	1412	1403	1413	1410	1412	1424	1430	1428	1425	1411	1399	1398	1410	1433	1437	1436	1428	1426	1427	1427	1430	1443	1445	1446	1441	1414	1404	1408	1410	1413	1416	1413	1411	1410	1391	1389	1386	1398	1413	1425	1441	1454	1454	1442	1438	1433	1432	1415	1412	1408	1408	1416	1423	1417	1408	1393	1393	1404	1414	1416	1419	1423	1433	1448	1454	1423	1411	1412	1409	1413	1422	1434	1447	1447	1443	1438	1430	1429	1421	1415	1417	1416	1419	1421	1427	1427	1433	1433	1433	1437	1446	1449	1441	1436	1430	1429	1432	1432	1428	1423	1421	1419	1442	1457	1452	1444	1437	1431	1439	1445	1447	1441	1441	1434	1437	1445	1461	1464	1469	1466	1456	1447	1455	1459	1462	1463	1454	1442	1439	1440	1437	1434	1426	1427	1434	1445	1455	1466	1470	1468	1461	1452	1447	1442	1454	1459	1459	1459	1447	1464	1459	1441	1437	1439	1453	1464	1470	1474	1467	1456	1453	1452	1452	1449	1444	1441	1438	1440	1446	1452	1462	1468	1458	1439	1432	1432	1439	1442	1444	1453	1453	1454	1449	1450	1446	1449	1449	1458	1463	1470	1473	1466	1455	1452	1443	1452	1443	1436	1432	1442	1443	1462	1467	1472	1455	1452	1453	1452	1451	1443	1438	1437	1437	1439	1446	1450	1455	1460	1464	1463	1457	1457	1446	1446	1452	1445	1435	1428	1431	1444	1447	1451	1447	1446	1451	1457	1444	1435	1423	1414	1419	1420	1430	1436	1459	1470	1476	1473	1466	1467	1470	1467	1464	1464	1456	1455	1451	1457	1455	1456	1467	1475	1482	1478	1467	1457	1449	1452	1451	1448	1450	1455	1458	1449	1443	1434	1446	1463	1468	1470	1471	1464	1460	1458	1458	1470	1474	1475	1474	1468	1456	1451	1453	1467	1472	1487	0	0	0	0	0	0	0	0	0	0	0	0	0	0	0	0	0	0	0	0	0	0	0	1592	1554	1527	1514	1515	1531	1537	1540	1543	1542	1542	1535	1525	1531	1544	1548	1546	1544	1544	1546	1546	1547	1549	1544	1538	1522	1526	1525	1522	1511	1530	0	0	0	0	0	0	0	0	0	0	0	0	0	0	0	0	0	1500	1518	1519	1501	1503	1506	1483	1476	1473	1487	1493	1491	1489	1488	1493	1498	1494	1491	1497	1498	1502	1494	1485	1477	1473	1479	1488	1494	1493	1500	1509	1509	1505	1502	1492	1475	1464	1451	1450	1471	1487	1496	1493	1493	1502	1516	1501	1484	1478	1484	1483	1483	1484	1498	1500	1493	1477	1468	1463	1455	1455	1458	1455	1456	1472	1489	1495	1498	1498	1499	1495	1492	1486	1484	1481	1486	1481	1477	1478	1478	1484	0	0	0	0	0	0
0	0	1427	1437	1442	1442	1438	1420	1405	1389	1401	1401	1415	1431	1419	1423	1429	1433	1433	1434	1424	1417	1412	1421	1426	1426	1435	1451	1452	1448	1444	1438	1433	1429	1429	1431	1433	1431	1415	1414	1415	1408	0	0	0	0	0	1420	1418	1420	1436	1443	1453	1455	1454	1451	1452	1453	1453	1451	1436	1429	1424	1427	1440	1448	1462	1479	1485	1489	1467	1451	1447	1460	1471	1468	1448	1429	1420	1421	1437	1476	1473	1479	1473	1468	1468	1450	1441	1443	1440	1449	1454	1461	1454	1441	1413	1396	1395	1409	1418	1427	1430	1429	1421	1422	1419	1414	1406	1398	1391	1380	1377	1380	1388	1404	1412	1412	1415	1411	1399	1391	1383	1380	1388	1391	1378	1378	1401	1407	1402	1409	1411	1440	0	0	0	0	0	0	0	0	0	0	0	0	0	0	0	0	0	0	0	0	0	0	0	0	0	0	0	0	0	0	0	0	0	0	0	0	0	0	0	0	0	0	0	0	0	0	0	1458	1417	1414	1429	1429	1420	1412	1409	1421	1425	1426	1432	1424	1412	1403	1393	1391	1405	1422	1426	1429	1426	1428	1427	1433	1443	1451	1451	1451	1445	1420	1416	1411	1408	1413	1414	1417	1414	1398	1393	1384	1399	1403	1410	1416	1433	1445	1442	1434	1444	1436	1431	1430	1417	1425	1429	1429	1421	1418	1408	1400	1396	1409	1423	1431	1434	1436	1444	1452	1448	1423	1417	1416	1419	1422	1428	1436	1438	1439	1440	1437	1434	1426	1418	1415	1411	1410	1417	1419	1429	1426	1428	1426	1426	1429	1437	1445	1445	1438	1432	1423	1424	1421	1417	1410	1411	1422	1443	1451	1451	1445	1438	1436	1436	1439	1444	1443	1439	1442	1440	1448	1458	1461	1461	1459	1458	1453	1454	1458	1456	1453	1449	1448	1437	1436	1433	1435	1431	1429	1438	1448	1461	1465	1463	1461	1455	1447	1443	1446	1458	1477	1487	1483	1456	1461	1461	1450	1445	1445	1454	1455	1459	1461	1461	1462	1459	1447	1442	1440	1440	1428	1424	1429	1438	1449	1466	1475	1463	1443	1435	1438	1446	1443	1441	1446	1449	1456	1454	1447	1442	1439	1443	1452	1469	1490	1483	1466	1452	1446	1447	1452	1461	1447	1434	1424	1421	1440	1453	1458	1462	1457	1458	1452	1447	1441	1434	1436	1437	1444	1459	1463	1461	1456	1454	1454	1454	1460	1456	1465	1470	1468	1458	1455	1458	1466	1468	1468	1463	1460	1454	1454	1450	1440	1431	1422	1422	1426	1430	1435	1447	1460	1466	1462	1456	1462	1465	1470	1467	1459	1460	1461	1465	1468	1463	1453	1453	1464	1481	1480	1468	1459	1452	1454	1459	1453	1452	1450	1452	1446	1431	1429	1437	1454	1463	1465	1474	1477	1472	1473	1469	1464	1463	1459	1451	1441	1435	1441	1461	1476	1480	1494	0	0	0	0	0	0	0	0	0	0	0	0	0	0	0	0	0	0	0	0	0	0	0	1548	1533	1515	1505	1514	1525	1514	1526	1539	1545	1538	1526	1529	1539	1549	1550	1552	1550	1546	1542	1540	1547	1546	1544	1540	1524	1521	1524	1525	1516	1503	1534	0	0	0	0	0	0	0	0	0	0	0	0	0	0	0	0	0	1500	1506	1500	1496	1502	1480	1472	1469	1486	1492	1491	1495	1497	1503	1509	1507	1498	1496	1505	1509	1499	1486	1479	1473	1486	1496	1494	1491	1501	1509	1515	1512	1506	1499	1486	1471	1455	1450	1460	1478	1485	1487	1494	1503	1504	1496	1477	1474	1481	1489	1489	1488	1480	1475	1471	1467	1471	1468	1462	1468	1461	1455	1460	1476	1481	1492	1490	1490	1494	1493	1491	1482	1470	1471	1475	1489	1492	1496	1503	1503	0	0	0	0	0	0
0	0	1430	1438	1441	1441	1449	1435	1421	1407	1410	1410	1416	1429	1426	1422	1423	1424	1424	1421	1416	1416	1419	1425	1438	1438	1445	1446	1443	1438	1435	1435	1438	1430	1430	1422	1422	1420	1418	1424	1447	1458	0	0	0	0	1432	1412	1417	1435	1448	1455	1459	1463	1455	1450	1450	1450	1454	1452	1448	1440	1438	1433	1449	1459	1469	1478	1478	1472	1457	1451	1442	1447	1448	1449	1446	1436	1429	1430	1439	1450	1472	1473	1471	1471	1457	1446	1437	1442	1449	1454	1462	1462	1460	1436	1405	1390	1387	1405	1418	1429	1429	1428	1425	1424	1421	1416	1413	1408	1396	1386	1385	1388	1395	1404	1406	1413	1420	1417	1410	1396	1390	1385	1390	1390	1392	1398	1412	1412	1398	1402	1408	1429	0	0	0	0	0	0	0	0	0	0	0	0	0	0	0	0	0	0	0	0	0	0	0	0	0	0	0	0	0	0	0	0	0	0	0	0	0	0	0	0	0	0	0	0	0	0	0	1473	1426	1421	1434	1439	1434	1419	1415	1416	1425	1422	1425	1425	1405	1395	1387	1391	1399	1412	1422	1429	1422	1424	1426	1434	1443	1448	1446	1439	1434	1424	1413	1407	1404	1403	1403	1416	1421	1408	1401	1409	1412	1404	1408	1407	1421	1433	1436	1429	1442	1441	1438	1437	1439	1439	1435	1429	1422	1417	1407	1410	1410	1421	1429	1437	1435	1440	1441	1440	1443	1438	1435	1442	1441	1437	1435	1436	1432	1440	1444	1444	1437	1428	1423	1422	1412	1415	1413	1418	1429	1425	1421	1419	1421	1420	1431	1437	1437	1431	1418	1418	1418	1418	1414	1408	1412	1424	1445	1442	1436	1432	1431	1432	1427	1438	1448	1455	1453	1447	1444	1445	1443	1449	1450	1449	1451	1457	1455	1459	1459	1457	1460	1453	1443	1432	1429	1428	1420	1434	1440	1457	1463	1458	1453	1455	1450	1441	1438	1453	1456	1494	1528	1528	1454	1455	1461	1459	1454	1451	1450	1448	1447	1441	1446	1450	1458	1446	1443	1436	1430	1416	1409	1414	1426	1447	1470	1478	1471	1448	1433	1433	1438	1438	1441	1439	1441	1460	1479	1471	1443	1437	1459	1491	1504	1496	1482	1469	1456	1445	1449	1453	1462	1448	1427	1412	1409	1428	1444	1449	1450	1465	1464	1457	1448	1445	1441	1446	1457	1472	1493	1487	1462	1452	1446	1450	1451	1455	1463	1471	1478	1475	1467	1464	1463	1472	1484	1485	1477	1467	1462	1457	1454	1450	1443	1430	1434	1438	1440	1441	1449	1457	1461	1459	1459	1465	1468	1470	1469	1467	1465	1467	1479	1484	1476	1460	1453	1462	1472	1471	1468	1461	1454	1460	1457	1454	1451	1452	1447	1443	1432	1432	1435	1451	1450	1462	1485	1482	1474	1467	1459	1462	1466	1455	1435	1426	1423	1431	1449	1481	1483	1487	0	0	0	0	0	0	0	0	0	0	0	0	0	0	0	0	0	0	0	0	0	0	0	1543	1525	1522	1512	1504	1515	1504	1521	1553	1551	1529	1524	1525	1538	1547	1549	1556	1558	1551	1544	1541	1540	1548	1547	1544	1533	1530	1528	1532	1521	1517	1535	0	0	0	0	0	0	0	0	0	0	0	0	0	0	0	0	0	1500	1509	1505	1505	1492	1475	1472	1478	1495	1497	1498	1500	1503	1507	1507	1501	1499	1504	1515	1516	1507	1494	1487	1488	1492	1494	1494	1490	1498	1503	1516	1515	1509	1498	1486	1466	1456	1445	1455	1475	1497	1500	1504	1504	1503	1492	1477	1475	1479	1483	1483	1484	1479	1475	1472	1489	1483	1472	1475	1475	1470	1470	1476	1480	1482	1486	1485	1485	1481	1485	1485	1471	1459	1456	1462	1483	1495	1505	1505	1505	0	0	0	0	0	0
0	0	1427	1428	1434	1434	1444	1445	1416	1402	1399	1399	1407	1411	1409	1420	1422	1421	1421	1423	1422	1412	1422	1428	1438	1438	1440	1437	1427	1428	1429	1434	1431	1421	1421	1420	1418	1419	1419	1440	1480	1484	0	0	0	1441	1425	1407	1423	1446	1453	1460	1466	1464	1451	1437	1439	1439	1432	1437	1439	1441	1439	1450	1456	1465	1462	1468	1462	1446	1438	1442	1440	1442	1445	1446	1448	1443	1438	1434	1427	1422	1431	1455	1455	1460	1461	1454	1446	1446	1445	1442	1449	1450	1442	1417	1394	1386	1386	1397	1420	1425	1424	1426	1419	1417	1413	1418	1426	1420	1408	1402	1405	1408	1404	1409	1408	1415	1417	1418	1411	1403	1401	1400	1402	1401	1409	1421	1423	1415	1403	1392	1406	1421	0	0	0	0	0	0	0	0	0	0	0	0	0	0	0	0	0	0	0	0	0	0	0	0	0	0	0	0	0	0	0	0	0	0	0	0	0	0	0	0	0	0	0	0	0	0	0	1494	1439	1425	1432	1434	1431	1427	1418	1413	1406	1413	1423	1423	1400	1395	1401	1397	1406	1412	1420	1428	1424	1422	1425	1439	1454	1449	1433	1427	1427	1420	1411	1402	1396	1392	1399	1415	1433	1430	1426	1423	1418	1414	1409	1412	1414	1423	1434	1442	1444	1443	1441	1439	1436	1433	1434	1426	1420	1424	1425	1423	1422	1430	1439	1439	1436	1435	1438	1436	1450	1451	1453	1457	1459	1454	1448	1440	1442	1446	1455	1455	1435	1429	1429	1427	1426	1425	1424	1430	1430	1429	1423	1419	1418	1425	1424	1442	1435	1423	1415	1420	1429	1429	1428	1411	1420	1431	1436	1429	1425	1423	1426	1425	1424	1431	1451	1466	1462	1453	1445	1441	1443	1440	1443	1437	1443	1456	1464	1463	1461	1466	1471	1468	1451	1442	1433	1430	1431	1439	1446	1455	1460	1451	1443	1445	1450	1459	1459	1447	1450	1507	1559	1552	1483	1452	1451	1449	1443	1437	1437	1434	1434	1437	1432	1430	1426	1411	1410	1407	1410	1419	1420	1425	1438	1447	1451	1464	1472	1473	1468	1461	1458	1462	1463	1459	1462	1478	1472	1439	1416	1413	1457	1490	1504	1494	1457	1439	1432	1435	1439	1438	1434	1432	1433	1427	1418	1426	1436	1442	1437	1451	1470	1462	1459	1448	1445	1451	1473	1497	1520	1511	1481	1456	1444	1445	1449	1454	1465	1474	1480	1480	1469	1456	1454	1466	1484	1486	1476	1475	1463	1462	1460	1461	1459	1456	1441	1448	1451	1456	1462	1472	1473	1482	1483	1479	1472	1467	1469	1471	1475	1487	1498	1502	1496	1479	1465	1458	1451	1464	1471	1469	1463	1459	1459	1461	1459	1457	1457	1461	1452	1441	1437	1441	1446	1466	1484	1482	1474	1462	1466	1466	1470	1467	1450	1458	1472	1490	1498	1482	1481	1468	0	0	0	0	0	0	0	0	0	0	0	0	0	0	0	0	0	0	0	0	0	0	0	1551	1536	1529	1519	1501	1509	1501	1514	1556	1549	1536	1523	1523	1534	1540	1545	1551	1558	1555	1545	1542	1547	1553	1558	1547	1541	1543	1539	1543	1545	1553	0	0	0	0	0	0	0	0	0	0	0	0	0	0	0	0	0	0	1500	1499	1514	1518	1497	1482	1475	1483	1504	1508	1505	1505	1506	1503	1501	1495	1497	1504	1512	1511	1509	1501	1494	1499	1501	1495	1484	1479	1484	1499	1506	1515	1500	1495	1484	1464	1454	1446	1456	1479	1502	1508	1510	1505	1507	1496	1488	1482	1480	1482	1486	1486	1488	1496	1498	1498	1501	1484	1481	1481	1475	1471	1477	1485	1484	1478	1463	1470	1470	1480	1477	1465	1458	1450	1457	1476	1487	1497	1498	1498	0	0	0	0	0	0
0	0	1410	1406	1417	1417	1432	1431	1410	1395	1387	1387	1379	1385	1391	1410	1421	1428	1428	1433	1431	1427	1423	1423	1427	1427	1431	1424	1420	1421	1424	1424	1413	1413	1411	1420	1420	1422	1417	1433	1482	1486	1473	1473	1449	1435	1425	1418	1420	1443	1453	1458	1457	1454	1449	1430	1425	1425	1423	1428	1434	1445	1453	1459	1459	1466	1464	1464	1453	1433	1427	1433	1435	1439	1445	1452	1453	1451	1440	1432	1424	1417	1424	1441	1441	1460	1459	1456	1451	1442	1430	1427	1429	1428	1412	1405	1391	1388	1395	1402	1413	1413	1414	1418	1421	1418	1414	1410	1426	1425	1419	1414	1415	1416	1417	1413	1412	1415	1417	1420	1416	1410	1410	1415	1414	1413	1418	1428	1431	1420	1402	1387	1407	1436	1389	0	0	0	0	0	0	0	0	0	0	0	0	0	0	0	0	0	0	0	0	0	0	0	0	0	0	0	0	0	0	0	0	0	0	0	0	0	0	0	0	0	0	0	0	0	0	1452	1450	1424	1423	1428	1429	1429	1427	1423	1410	1414	1422	1429	1411	1428	1439	1440	1423	1412	1424	1427	1430	1446	1460	1469	1470	1461	1443	1429	1417	1408	1395	1391	1391	1391	1399	1427	1442	1443	1434	1425	1424	1424	1420	1418	1418	1427	1433	1443	1446	1446	1443	1432	1424	1419	1416	1421	1427	1432	1433	1432	1429	1434	1445	1443	1442	1436	1431	1455	1460	1461	1458	1458	1456	1456	1447	1446	1451	1453	1455	1453	1440	1430	1423	1425	1422	1423	1433	1439	1440	1437	1427	1417	1423	1430	1438	1435	1428	1420	1425	1432	1435	1441	1429	1419	1429	1437	1440	1431	1425	1423	1423	1425	1424	1442	1461	1470	1459	1453	1444	1439	1440	1452	1441	1437	1440	1463	1478	1487	1481	1474	1482	1478	1463	1450	1438	1431	1435	1440	1446	1453	1456	1446	1441	1443	1447	1453	1448	1430	1434	1521	0	0	1552	1451	1444	1443	1433	1435	1432	1434	1434	1433	1434	1434	1428	1424	1423	1431	1438	1438	1432	1429	1442	1450	1455	1462	1472	1475	1477	1467	1460	1467	1460	1458	1465	1476	1469	1444	1423	1410	1444	1470	1490	1486	1465	1445	1439	1438	1441	1446	1442	1442	1445	1464	1484	1491	1493	1479	1473	1451	1433	1443	1449	1457	1461	1481	1499	1516	1527	1513	1504	1495	1492	1486	1480	1476	1465	1463	1462	1461	1451	1440	1433	1440	1445	1450	1444	1441	1425	1418	1427	1437	1447	1452	1450	1435	1448	1462	1471	1470	1474	1478	1478	1468	1449	1435	1435	1461	1482	1486	1477	1476	1467	1444	1418	1409	1430	1501	1533	1531	1521	1508	1483	1467	1450	1457	1466	1467	1472	1466	1466	1463	1460	1469	1477	1474	1473	1475	1479	1486	1484	1474	1476	1472	1480	1489	1508	1507	1492	1467	1465	0	0	0	0	0	0	0	0	0	0	0	0	0	0	0	0	0	0	0	0	0	0	1577	1555	1544	1529	1521	1520	1519	1533	1560	1554	1538	1531	1532	1524	1526	1519	1520	1523	1522	1519	1516	1529	1537	1538	1548	1568	1573	1569	1567	1585	1569	0	0	0	0	0	0	0	0	0	0	0	0	0	0	0	0	0	0	1494	1486	1512	1523	1508	1496	1482	1475	1485	1499	1499	1502	1506	1509	1498	1495	1501	1506	1510	1504	1502	1495	1499	1510	1504	1500	1481	1479	1471	1481	1492	1495	1489	1485	1478	1466	1456	1462	1470	1485	1502	1506	1509	1512	1508	1509	1498	1495	1491	1494	1498	1510	1501	1499	1502	1515	1512	1507	1492	1482	1480	1475	1475	1481	1477	1468	1463	1468	1468	1470	1462	1462	1461	1464	1475	1480	1479	1485	1480	1480	0	0	0	0	0	0
0	0	1388	1393	1404	1404	1422	1417	1398	1382	1372	1372	1376	1383	1386	1392	1422	1422	1435	1446	1445	1445	1437	1430	1418	1418	1414	1414	1417	1417	1423	1419	1409	1409	1408	1410	1415	1413	1410	1421	1459	1473	1460	1460	1446	1424	1406	1402	1405	1426	1453	1455	1451	1445	1440	1433	1433	1433	1418	1418	1436	1441	1446	1444	1449	1458	1467	1467	1454	1435	1428	1423	1423	1431	1445	1456	1459	1459	1447	1433	1426	1424	1427	1427	1447	1460	1457	1457	1438	1427	1415	1411	1407	1406	1407	1403	1402	1401	1406	1405	1411	1402	1403	1413	1421	1422	1419	1410	1419	1425	1418	1417	1416	1421	1424	1419	1420	1422	1422	1421	1417	1417	1418	1422	1414	1413	1416	1423	1428	1417	1405	1393	1414	1454	1401	0	0	0	0	0	0	0	0	0	0	0	0	0	0	0	0	0	0	0	0	0	0	0	0	0	0	0	0	0	0	0	0	0	0	0	0	0	0	0	0	0	0	0	0	0	0	1437	1454	1437	1419	1416	1423	1429	1430	1430	1423	1418	1436	1437	1447	1458	1463	1469	1455	1438	1420	1421	1432	1446	1467	1478	1481	1475	1461	1442	1415	1406	1390	1383	1386	1415	1437	1447	1457	1453	1437	1425	1424	1417	1418	1434	1450	1458	1449	1441	1444	1448	1443	1429	1413	1404	1408	1440	1453	1447	1437	1441	1438	1443	1448	1455	1451	1443	1444	1454	1460	1459	1451	1453	1447	1449	1457	1456	1454	1451	1452	1445	1431	1423	1420	1419	1424	1434	1445	1449	1458	1450	1434	1428	1429	1432	1435	1432	1444	1456	1453	1440	1432	1429	1439	1459	1463	1464	1468	1467	1467	1471	1461	1438	1438	1451	1473	1477	1453	1436	1420	1423	1434	1445	1456	1452	1455	1474	1497	1508	1508	1500	1496	1481	1469	1458	1456	1474	1473	1468	1459	1445	1445	1442	1444	1442	1438	1432	1428	1424	1447	1533	1580	1581	1563	1448	1435	1433	1431	1432	1435	1443	1441	1445	1450	1450	1446	1442	1446	1458	1469	1467	1462	1452	1448	1447	1458	1472	1490	1501	1503	1489	1479	1462	1453	1455	1463	1460	1454	1439	1421	1414	1409	1437	1464	1470	1460	1448	1443	1443	1447	1448	1447	1448	1450	1473	1486	1493	1491	1488	1474	1450	1429	1442	1445	1460	1454	1451	1455	1476	1481	1463	1447	1445	1461	1478	1468	1461	1434	1431	1423	1426	1426	1417	1411	1424	1430	1464	1469	1461	1445	1448	1454	1462	1465	1462	1458	1423	1436	1450	1457	1469	1470	1471	1460	1455	1450	1445	1450	1466	1484	1485	1477	1474	1462	1440	1428	1419	1438	1503	1524	1513	1507	1502	1483	1466	1453	1446	1464	1477	1479	1476	1474	1465	1468	1474	1481	1466	1465	1465	1477	1482	1483	1479	1482	1472	1476	1488	1495	1491	1482	1479	1484	0	0	0	0	0	0	0	0	0	0	0	0	0	0	0	0	0	0	0	0	0	0	1594	1568	1542	1542	1554	1542	1539	1550	1570	1554	1535	1546	1552	1559	1552	1551	1541	1521	1498	1468	1463	1476	1532	1552	1559	1567	1577	1589	1602	1594	1588	0	0	0	0	0	0	0	0	0	0	0	0	0	0	0	0	0	0	1490	1482	1502	1519	1517	1498	1484	1473	1460	1472	1475	1489	1500	1515	1524	1520	1515	1509	1503	1497	1490	1495	1499	1501	1508	1502	1480	1467	1468	1478	1488	1483	1476	1476	1470	1474	1484	1491	1485	1484	1488	1494	1499	1505	1511	1515	1504	1503	1504	1510	1517	1517	1502	1489	1492	1502	1506	1510	1512	1527	1520	1489	1485	1483	1473	1467	1469	1474	1474	1466	1458	1459	1472	1488	1508	1508	1488	1465	1474	0	0	0	0	0	0	0
0	0	1370	1387	1387	1399	1404	1397	1386	1381	1379	1379	1388	1396	1398	1407	1411	1411	1426	1439	1447	1456	1446	1432	1416	1416	1408	1415	1422	1423	1430	1410	1405	1405	1403	1403	1408	1406	1403	1417	1451	1464	1445	1445	1439	1410	1395	1401	1406	1427	1453	1452	1449	1445	1441	1434	1434	1426	1420	1417	1431	1436	1436	1436	1435	1440	1449	1452	1461	1443	1424	1420	1425	1432	1442	1456	1467	1465	1453	1437	1427	1431	1431	1444	1455	1458	1457	1449	1435	1417	1406	1401	1405	1406	1413	1413	1416	1415	1412	1411	1408	1404	1402	1411	1422	1432	1428	1419	1415	1411	1410	1408	1412	1422	1427	1427	1429	1429	1424	1420	1416	1416	1414	1416	1408	1406	1408	1415	1419	1416	1415	1408	1436	1476	1418	0	0	0	0	0	0	0	0	0	0	0	0	0	0	0	0	0	0	0	0	0	0	0	0	0	0	0	0	0	0	0	0	0	0	0	0	0	0	0	0	0	0	0	0	0	0	1410	1431	1437	1423	1414	1420	1420	1431	1439	1448	1449	1444	1440	1448	1444	1431	1412	1406	1408	1417	1422	1431	1438	1452	1466	1481	1488	1484	1458	1449	1441	1436	1417	1414	1411	1424	1432	1445	1460	1463	1468	1463	1453	1452	1449	1454	1456	1449	1434	1435	1437	1449	1449	1457	1462	1465	1472	1467	1454	1435	1435	1438	1447	1440	1441	1447	1457	1462	1465	1462	1460	1453	1444	1435	1434	1445	1452	1466	1458	1441	1426	1417	1413	1417	1432	1445	1456	1458	1464	1469	1460	1441	1432	1432	1431	1429	1433	1444	1448	1450	1432	1425	1417	1429	1442	1444	1441	1446	1452	1459	1464	1456	1445	1446	1453	1474	1475	1459	1431	1419	1416	1421	1431	1445	1443	1446	1468	1481	1483	1481	1472	1470	1454	1453	1463	1468	1475	1475	1463	1457	1447	1454	1453	1451	1443	1436	1433	1431	1433	1448	1502	1604	1600	1596	1455	1435	1439	1429	1441	1447	1448	1448	1450	1443	1443	1440	1441	1459	1471	1479	1475	1464	1457	1450	1449	1454	1469	1485	1500	1505	1499	1485	1466	1460	1457	1448	1443	1437	1432	1418	1408	1404	1413	1419	1432	1443	1454	1448	1450	1459	1469	1462	1454	1450	1456	1470	1479	1479	1476	1462	1450	1436	1434	1436	1435	1432	1440	1451	1456	1451	1450	1435	1436	1458	1473	1476	1454	1440	1426	1430	1423	1423	1418	1412	1427	1451	1461	1474	1465	1449	1456	1466	1474	1481	1468	1452	1417	1426	1443	1462	1472	1474	1462	1438	1429	1435	1443	1448	1464	1468	1477	1478	1476	1466	1459	1446	1441	1444	1444	1457	1461	1468	1463	1453	1439	1436	1434	1437	1463	1479	1466	1474	1480	1482	1484	1481	1457	1445	1439	1453	1454	1468	1482	1484	1477	1478	1480	1483	1481	1472	1476	1509	0	0	0	0	0	0	0	0	0	0	0	0	0	0	0	0	0	0	0	0	0	0	1588	1560	1547	1549	1581	1567	1545	1539	1554	1546	1531	1538	1550	1560	1560	1551	1537	1522	1515	1503	1498	1517	0	0	1573	1570	1571	1592	1600	1603	1583	0	0	0	0	0	0	0	0	0	0	0	0	0	0	0	0	0	0	1491	1488	1507	1518	1513	1498	1483	1470	1456	1457	1466	1474	1495	1514	1529	1525	1514	1509	1497	1490	1489	1486	1491	1497	1498	1487	1471	1459	1463	1477	1486	1482	1469	1470	1475	1487	1505	1496	1485	1470	1452	1449	1459	1470	1480	1476	1421	1435	1473	1501	1508	1493	1493	1473	1472	1485	1488	1491	1500	1515	1514	1505	1496	1491	1477	1473	1484	1494	1494	1479	1461	1455	1465	1491	1510	1509	1494	1471	1469	0	0	0	0	0	0	0
0	0	1378	1381	1381	1385	1388	1383	1379	1387	1387	1401	1418	1421	1422	1406	1391	1398	1410	1422	1441	1453	1450	1432	1432	1418	1417	1423	1431	1438	1442	1423	1407	1407	1405	1400	1401	1399	1411	1422	1451	1471	1460	1460	1446	1418	1389	1399	1412	1438	1452	1455	1454	1443	1436	1440	1440	1429	1435	1435	1432	1433	1429	1428	1426	1427	1433	1444	1446	1439	1430	1431	1434	1444	1452	1461	1473	1474	1464	1444	1431	1440	1440	1457	1463	1459	1455	1445	1433	1423	1411	1404	1405	1412	1418	1425	1428	1424	1416	1411	1411	1411	1409	1413	1425	1434	1430	1415	1408	1400	1400	1401	1407	1416	1422	1426	1435	1434	1428	1424	1419	1416	1414	1408	1408	1402	1401	1407	1416	1426	1422	1421	1438	1488	1430	0	0	0	0	0	0	0	0	0	0	0	0	0	0	0	0	0	0	0	0	0	0	0	0	0	0	0	0	0	0	0	0	0	0	0	0	0	0	0	0	0	0	0	0	0	0	1359	1409	1429	1419	1416	1414	1419	1431	1439	1440	1444	1440	1438	1447	1438	1425	1408	1403	1408	1423	1429	1435	1436	1446	1459	1469	1478	1477	1460	1452	1445	1447	1426	1417	1412	1417	1429	1443	1457	1469	1469	1469	1462	1455	1456	1459	1453	1443	1434	1438	1445	1450	1452	1463	1465	1475	1465	1458	1448	1430	1427	1434	1437	1440	1443	1440	1445	1469	1467	1458	1457	1450	1449	1444	1441	1456	1461	1461	1449	1433	1423	1414	1413	1422	1435	1446	1446	1448	1446	1461	1456	1442	1437	1436	1432	1433	1433	1438	1441	1443	1432	1427	1412	1404	1418	1422	1429	1432	1439	1451	1450	1440	1429	1444	1449	1451	1452	1440	1437	1429	1424	1427	1434	1440	1437	1442	1452	1452	1448	1456	1454	1447	1447	1444	1451	1462	1467	1470	1466	1457	1459	1456	1457	1453	1446	1439	1441	1445	1446	1450	1491	1594	1611	1597	1480	1446	1451	1445	1457	1460	1458	1448	1446	1448	1449	1444	1448	1463	1475	1480	1476	1470	1460	1454	1453	1455	1463	1475	1478	1483	1486	1480	1469	1464	1455	1446	1437	1432	1428	1426	1415	1411	1410	1415	1428	1437	1443	1444	1445	1454	1464	1460	1459	1454	1456	1459	1464	1459	1459	1459	1448	1440	1439	1432	1432	1427	1431	1442	1451	1449	1429	1413	1411	1421	1429	1448	1455	1450	1456	1465	1463	1464	1470	1472	1467	1453	1438	1430	1428	1424	1433	1452	1464	1471	1466	1452	1436	1428	1440	1448	1458	1474	1466	1446	1436	1437	1430	1410	1411	1422	1443	1465	1476	1476	1471	1462	1462	1460	1457	1454	1454	1458	1454	1452	1446	1429	1425	1435	1454	1472	1467	1480	1482	1485	1486	1489	1459	1437	1426	1428	1444	1460	1465	1469	1480	1479	1482	1483	1477	1473	1486	1545	0	0	0	0	0	0	0	0	0	0	0	0	0	0	0	0	0	0	0	0	0	0	1572	1557	1546	1555	1581	1561	1537	1526	1540	1532	1534	1543	1560	1570	1565	1548	1534	1530	1524	1524	1526	0	0	0	1576	1567	1576	1590	1594	1594	1583	0	0	0	0	0	0	0	0	0	0	0	0	0	0	0	0	0	0	1508	1506	1515	1509	1491	1499	1483	1475	1463	1460	1459	1473	1489	1504	1517	1515	1507	1496	1493	1496	1498	1494	1490	1491	1490	1485	1474	1466	1469	1476	1489	1483	1473	1472	1477	1491	1494	1483	1466	1455	1430	1428	1443	1445	1445	1431	1426	1440	1483	1499	1499	1484	1484	1466	1466	1477	1482	1482	1479	1491	1489	1486	1475	1480	1478	1496	1509	1503	1482	1482	1460	1446	1456	1482	1502	1500	1484	1469	1468	0	0	0	0	0	0	0
