0	0	0	1397	1391	1384	1369	1369	1363	1362	1361	1364	1381	1396	1396	1408	1418	1418	1418	1434	1434	1434	1443	1440	1425	1427	1440	1461	1465	1465	1458	1453	1443	1434	1423	1411	1386	0	0	0	0	0	0	0	0	0	0	0	0	0	0	0	0	0	0	0	0	0	0	0	0	1559	1543	1543	0	0	0	0	0	0	0	0	0	0	0	0	0	1518	1521	1535	1559	1579	0	0	0	0	0	1449	1423	1417	1405	1396	1385	1380	1383	1388	1394	1400	1401	1401	1403	1392	1390	1387	1385	1389	1393	1401	1398	1385	1372	1369	1374	1377	1394	1403	1401	1395	1387	1374	1374	1381	1378	1369	1357	1371	1374	1372	1363	1365	1362	1360	1372	1387	1401	1430	1447	1448	1444	1440	1441	1452	1460	1462	1458	1468	1469	1471	1471	1482	1494	1509	1525	0	0	0	0	1621	1642	1664	1676	1680	1679	1666	1660	1656	1664	1665	1669	1680	1698	1714	1712	1718	1712	1698	1682	1680	1688	1682	1690	1685	1686	1693	1698	1697	1686	1669	1669	1669	1660	1611	1591	1513	1456	1433	1418	1402	1398	1403	1408	1421	1436	1450	1448	1419	1401	1392	1401	1416	1436	1445	1443	1431	1423	1417	1412	1415	1424	1417	1407	1402	1398	1403	1411	1414	1414	1405	1397	1392	1411	1420	1424	1428	1430	1433	1435	1434	1462	1496	1485	1473	1469	0	0	0	0	0	0	0	0	1660	1662	1684	1703	1700	1704	1711	1714	1702	1701	1712	1723	1735	1730	1724	1701	0	0	0	0	0	0	0	0	0	0	0	0	0	0	0	0	0	0	0	0	0	0	0	0	0	0	0	0	0	0	0	0	0	0	0	0	0	0	0	0	0	0	0	0	0	0	0	0	0	0	0	0	0	0	0	0	0	0	0	0	0	0	0	1390	1406	1408	1416	1419	1413	1398	1397	1396	1403	1404	1402	1397	1400	1413	1395	1397	1397	1394	1393	1377	1378	1366	1381	1381	1386	1384	1379	1364	1364	1369	1376	1381	1375	1389	1386	1384	1384	1370	1376	1378	1386	1393	1393	1407	1410	1420	1408	1404	1399	1391	1402	1398	0	0	0	0	0	0	0	0	0	0	0	0	0	0	0	0	0	0	0	0	0	0	0	0	0	0	0	0	0	0	0	0	0	0	0	0	0	0	0	0	0	0	0	0	0	0	0	0	0	0	0	0	0	0	0	0	0	0	0	0	0	0	0	0	1732	1734	1725	1727	1736	1747	1753	1749	1740	1724	1719	1729	1739	1754	1757	0	0	0	0	0	0	0	0	0	1482	1448	1427	1401	1406	1410	1393	1379	1391	1399	1385	1372	1370	1368	1364	1384	1378	1374	1367	1378	1390	1402	1411	1415	1420	1421	1417	1410	1403	1397	1395	1395	1386	1381	1378	1374	1372	1368	1367	1369	1373	1382	1387	1389	1391	1388	1400	1405	1406	1413	1426	1439	0	0	0	0	0	0	0	0	0	1616	1634	1656	1673	1685	1672	1661	1631	1622	1613	1612	1609	1589	1522	1479	1463	1456	1448	1450	1436	1432	1423	1420	1418	1420	1422	1429	1431	1434	1434	1436	1442	1444	1444	1433	1424	1423	1430	1434	1432	1430	1422	1415	1416	1421	1436	1445	1463	1467	1447	1436	1439	1458	1487	1454	1406	1403	1400	1395	1399	1418	1424	1424	1421	1414	1416	1415	1411	1413	1407	1409	1425	1428	1410	1413	1423	1423	1412	1405	1403	1403	1389	1398	1402	1411	1421	1412	1403	1394	1400	1410	1421	1418	1411	1399	1399	1385	1370	1365	1378	1392	0	0	0	0	0	0	0
0	0	0	1412	1412	1398	1376	1376	1365	1361	1360	1368	1388	1409	1409	1436	1438	1434	1443	1455	1455	1455	1457	1456	1444	1441	1448	1470	1477	1477	1477	1467	1461	1454	1448	1428	1418	0	0	0	0	0	0	0	0	0	0	0	0	0	0	0	0	0	0	0	0	0	0	0	1575	1577	1573	1565	1566	0	0	0	1517	1502	1505	1505	1526	0	0	1542	1542	1550	1560	1582	1606	1795	1786	0	0	0	0	1462	1413	1406	1390	1378	1379	1383	1386	1390	1393	1398	1403	1411	1410	1404	1402	1391	1386	1386	1390	1386	1383	1372	1361	1362	1372	1383	1393	1403	1402	1390	1372	1367	1367	1369	1371	1368	1365	1368	1370	1373	1366	1355	1355	1362	1374	1383	1396	1419	1429	1424	1426	1422	1430	1435	1452	1461	1458	1468	1478	1481	1480	1480	1487	1503	1519	0	0	0	0	1611	1634	1659	1688	1689	1668	1667	1654	1659	1665	1666	1669	1680	1695	1712	1720	1805	1809	1718	1686	1679	1674	1677	1682	1687	1686	1693	1697	1696	1673	1665	1667	1664	1665	1605	1583	1509	1454	1422	1402	1399	1405	1405	1412	1424	1440	1445	1446	1426	1392	1387	1395	1410	1426	1440	1442	1435	1425	1413	1402	1404	1414	1413	1404	1399	1401	1406	1412	1416	1417	1407	1395	1388	1406	1404	1405	1425	1435	1443	1441	1436	1445	1462	1466	1473	1477	0	0	0	0	0	0	0	0	1684	1691	1692	1708	1713	1721	1730	1731	1723	1720	1732	1743	1751	1754	1734	1715	0	0	0	0	0	0	0	0	0	0	0	0	0	0	0	0	0	0	0	0	0	0	0	0	0	0	0	0	0	0	0	0	0	0	0	0	0	0	0	0	0	0	0	0	0	0	0	0	0	0	0	0	0	0	0	0	0	0	0	0	0	0	0	1404	1405	1409	1419	1425	1425	1402	1402	1396	1399	1400	1401	1398	1402	1406	1405	1403	1401	1395	1392	1377	1378	1392	1393	1382	1388	1387	1372	1359	1361	1373	1376	1390	1377	1377	1381	1381	1377	1367	1378	1400	1390	1389	1394	1399	1404	1414	1402	1399	1392	1385	1391	1390	0	0	0	0	0	0	0	0	0	0	0	0	0	0	0	0	0	0	0	0	0	0	0	0	0	0	0	0	0	0	0	0	0	0	0	0	0	0	0	0	0	0	0	0	0	0	0	0	0	0	0	0	0	0	0	0	0	0	0	0	0	0	0	0	1738	1728	1718	1718	1729	1740	1753	1758	1747	1731	1724	1726	1753	1768	1762	0	0	0	0	0	0	0	0	0	0	1454	1423	1408	1414	1413	1396	1393	1383	1381	1383	1372	1369	1363	1359	1385	1380	1370	1364	1373	1383	1400	1403	1412	1412	1413	1404	1397	1392	1391	1398	1400	1397	1392	1387	1382	1375	1372	1367	1369	1378	1386	1393	1400	1402	1401	1405	1408	1400	1403	1419	1424	0	0	0	0	0	0	0	0	0	1603	1613	1653	1680	1686	1670	1656	1642	1625	1605	1593	1573	1562	1499	1460	1434	1432	1430	1446	1440	1424	1421	1423	1425	1422	1424	1425	1429	1430	1429	1425	1434	1439	1438	1431	1422	1418	1422	1427	1430	1431	1425	1416	1418	1423	1430	1446	1453	1433	1436	1430	1442	1457	1489	1474	1416	1401	1398	1391	1394	1412	1418	1420	1415	1410	1413	1418	1418	1414	1409	1405	1407	1401	1396	1406	1419	1419	1408	1403	1402	1402	1404	1404	1398	1405	1408	1405	1399	1388	1395	1406	1417	1418	1412	1402	1402	1392	1386	1383	1391	1396	0	0	0	0	0	0	0
0	0	0	1429	1421	1415	1397	1397	1378	1379	1372	1384	1404	1434	1434	1459	1454	1441	1443	1458	1471	1471	1463	1450	1444	1447	1448	1455	1463	1463	1463	1470	1473	1468	1460	1445	1433	0	0	0	0	0	0	0	0	0	0	0	0	0	0	0	0	0	0	0	0	1550	1555	1573	1770	1575	1557	1552	1562	1578	1587	1558	1508	1497	1508	1508	1534	1552	1549	1548	1548	1560	1581	1601	0	0	0	1789	0	0	0	1468	1401	1383	1372	1366	1371	1385	1396	1395	1396	1402	1407	1416	1417	1408	1396	1382	1377	1380	1383	1380	1372	1366	1359	1359	1370	1381	1390	1392	1391	1378	1371	1362	1365	1368	1370	1366	1371	1377	1378	1379	1372	1356	1357	1370	1373	1380	1395	1405	1416	1408	1409	1414	1422	1425	1428	1452	1464	1476	1481	1482	1488	1490	1488	1493	1514	1527	0	0	0	1610	1634	1652	1674	1678	1674	1660	1663	1668	1680	1678	1681	1684	1695	1701	1718	2025	0	2022	1714	1676	1671	1673	1685	1685	1680	1686	1684	1687	1664	1667	1666	1669	1676	1586	1559	1485	1445	1406	1404	1403	1408	1410	1415	1420	1424	1428	1438	1419	1395	1396	1398	1405	1414	1423	1428	1431	1421	1409	1402	1404	1406	1407	1405	1397	1404	1408	1414	1419	1415	1413	1398	1388	1394	1396	1388	1429	1442	1451	1440	1436	1430	1421	1437	1472	1487	0	0	0	0	0	0	0	1653	1693	1699	1711	1715	1717	1715	1724	1726	1729	1731	1740	1765	1764	1749	1735	1707	0	0	0	0	0	0	0	0	0	0	0	0	0	0	0	0	0	0	0	0	0	0	0	0	0	0	0	0	0	0	0	0	0	0	0	0	0	0	0	0	0	0	0	0	0	0	0	0	0	0	0	0	0	0	0	0	0	0	0	0	0	0	0	1398	1444	1431	1422	1420	1420	1401	1396	1391	1403	1401	1401	1398	1391	1399	1409	1410	1403	1397	1388	1385	1383	1398	1396	1375	1369	1382	1369	1365	1361	1363	1380	1391	1393	1396	1394	1393	1398	1379	1407	1416	1410	1401	1397	1398	1403	1401	1397	1398	1395	1382	1377	1379	0	0	0	0	0	0	0	0	0	0	0	0	0	0	0	0	0	0	0	0	0	0	0	0	0	0	0	0	0	0	0	0	0	0	0	0	0	0	0	0	0	0	0	0	0	0	0	0	0	0	0	0	0	0	0	0	0	0	0	0	0	0	0	1698	1718	1722	1714	1711	1712	1729	1744	1746	1733	1720	1708	1710	1736	1747	1729	0	0	0	0	0	0	0	0	0	0	1459	1435	1427	1449	1434	1420	1408	1392	1387	1394	1396	1373	1385	1370	1385	1382	1378	1370	1379	1386	1401	1405	1409	1400	1405	1399	1398	1391	1391	1395	1400	1408	1404	1402	1393	1392	1388	1387	1385	1387	1396	1406	1412	1414	1414	1410	1407	1407	1402	1419	1411	1414	0	0	0	0	0	0	0	0	1616	1627	1660	1676	1680	1669	1658	1652	1632	1602	1573	1544	1524	1478	1451	1431	1416	1425	1435	1434	1431	1430	1429	1427	1429	1430	1433	1432	1428	1411	1405	1412	1430	1430	1429	1421	1420	1425	1426	1433	1429	1432	1423	1421	1423	1436	1449	1450	1429	1440	1435	1441	1463	1481	1477	1459	1411	1399	1391	1393	1407	1414	1418	1415	1412	1417	1421	1418	1415	1409	1402	1392	1383	1385	1399	1411	1415	1408	1403	1407	1407	1410	1403	1391	1389	1403	1398	1396	1389	1395	1412	1424	1426	1418	1411	1411	1404	1395	1397	1400	1398	0	0	0	0	0	0	0
0	0	0	1430	1427	1414	1401	1401	1387	1393	1404	1414	1434	1458	1458	1477	1471	1452	1447	1453	1453	1453	1440	1437	1427	1440	1441	1445	1446	1446	1450	1460	1467	1469	1455	1439	1433	0	0	0	0	0	0	0	0	0	0	0	0	0	0	0	0	0	0	0	1548	1543	1563	1767	0	1571	1551	1539	1548	1572	1571	1544	1506	1501	1511	1511	1535	1548	1547	1547	1551	1562	1566	1586	1604	0	0	1802	1598	0	0	1483	1398	1369	1360	1361	1376	1390	1398	1401	1402	1406	1410	1413	1412	1400	1383	1374	1371	1375	1378	1369	1357	1364	1366	1371	1378	1385	1391	1394	1388	1383	1376	1372	1372	1377	1381	1377	1374	1380	1389	1390	1384	1371	1363	1376	1383	1390	1399	1403	1403	1401	1409	1425	1431	1425	1427	1456	1472	1482	1487	1482	1489	1485	1490	1498	1517	1522	0	0	0	0	1632	1641	1653	1654	1660	1664	1682	1697	1703	1702	1690	1689	1692	1697	1715	1810	2025	1807	1714	1681	1671	1673	1683	1689	1677	1692	1686	1688	1663	1664	1668	1672	1680	1580	1552	1495	1437	1395	1394	1407	1411	1414	1413	1411	1418	1420	1419	1423	1429	1429	1428	1409	1408	1410	1415	1419	1417	1413	1406	1405	1407	1410	1405	1400	1412	1418	1418	1417	1417	1414	1402	1392	1390	1392	1393	1434	1453	1455	1442	1431	1425	1397	1420	1480	1490	0	0	0	0	0	0	0	1662	1712	1730	1733	1725	1725	1720	1721	1719	1724	1723	1747	1761	1759	1752	1734	1707	0	0	0	0	0	0	0	0	0	0	0	0	0	0	0	0	0	0	0	0	0	0	0	0	0	0	0	0	0	0	0	0	0	0	0	0	0	0	0	0	0	0	0	0	0	0	0	0	0	0	0	0	0	0	0	0	0	0	0	0	0	0	0	1397	1457	1458	1422	1414	1412	1405	1396	1394	1406	1410	1403	1394	1391	1399	1417	1416	1406	1395	1388	1389	1385	1397	1391	1382	1360	1372	1363	1362	1363	1367	1373	1361	1386	1395	1399	1405	1399	1381	1401	1409	1418	1413	1400	1398	1402	1394	1387	1392	1391	1383	1377	1380	0	0	0	0	0	0	0	0	0	0	0	0	0	0	0	0	0	0	0	0	0	0	0	0	0	0	0	0	0	0	0	0	0	0	0	0	0	0	0	0	0	0	0	0	0	0	0	0	0	0	0	0	0	0	0	0	0	0	0	0	0	0	0	1689	1701	1717	1712	1704	1709	1712	1722	1723	1710	1711	1703	1701	1712	1720	0	0	0	0	0	0	0	0	0	0	0	0	1443	1443	1469	1455	1443	1430	1413	1396	1401	1412	1414	1403	1385	1391	1386	1382	1384	1387	1400	1405	1408	1409	1412	1407	1398	1400	1398	1403	1400	1398	1405	1414	1413	1406	1399	1403	1406	1407	1404	1413	1423	1424	1423	1420	1412	1401	1394	1392	1403	1396	1404	0	0	0	0	0	0	0	0	1652	1666	1680	1673	1669	1659	1657	1661	1641	1601	1558	1520	1492	1472	1454	1439	1428	1430	1433	1431	1432	1430	1429	1430	1433	1438	1438	1435	1425	1406	1399	1406	1421	1425	1429	1425	1428	1425	1423	1427	1431	1433	1427	1426	1427	1433	1450	1451	1438	1445	1434	1430	1440	1469	1472	1468	1435	1409	1399	1401	1406	1416	1418	1414	1414	1424	1420	1413	1406	1406	1401	1396	1386	1386	1397	1411	1412	1408	1404	1401	1401	1410	1406	1401	1394	1403	1396	1395	1392	1396	1419	1429	1433	1427	1419	1419	1414	1408	1403	1402	1399	0	0	0	0	0	0	0
0	0	0	1418	1423	1416	1404	1404	1396	1403	1433	1451	1459	1475	1475	1484	1477	1446	1443	1448	1447	1447	1440	1428	1422	1427	1432	1429	1439	1439	1455	1467	1473	1465	1448	1439	1446	0	0	0	0	0	0	0	0	0	0	0	0	0	0	0	0	0	0	0	1530	1539	1567	0	0	1578	1544	1532	1546	1580	1579	1564	1523	1509	1527	1527	1543	1559	1558	1549	1560	1566	1557	1566	1587	1823	1814	1597	1589	0	0	0	1419	1373	1364	1368	1379	1403	1409	1412	1413	1416	1414	1411	1405	1392	1373	1366	1367	1374	1372	1363	1354	1362	1370	1376	1383	1387	1391	1390	1389	1388	1382	1385	1379	1381	1385	1390	1381	1374	1391	1393	1385	1378	1383	1380	1386	1402	1414	1407	1398	1404	1417	1442	1448	1428	1435	1462	1486	1506	1507	1494	1488	1486	1494	1510	1510	1502	0	0	0	0	1641	1640	1639	1647	1651	1681	1691	1698	1701	1694	1674	1681	1678	1683	1688	1702	1700	1704	1704	1681	1670	1672	1685	1696	1691	1697	1704	1695	1668	1664	1666	1673	1679	1590	1559	1502	1437	1390	1396	1415	1419	1414	1410	1410	1414	1416	1421	1424	1440	1439	1432	1426	1419	1417	1411	1412	1415	1411	1417	1419	1418	1413	1405	1405	1417	1424	1417	1406	1412	1408	1407	1398	1393	1393	1394	1433	1457	1455	1447	1425	1427	1407	1430	1478	1482	0	0	0	0	0	0	0	0	1728	1750	1755	1749	1743	1727	1721	1720	1711	1713	1716	1733	1745	1741	1729	1709	0	0	0	0	0	0	0	0	0	0	0	0	0	0	0	0	0	0	0	0	0	0	0	0	0	0	0	0	0	0	0	0	0	0	0	0	0	0	0	0	0	0	0	0	0	0	0	0	0	0	0	0	0	0	0	0	0	0	0	0	0	0	0	1413	1465	1467	1428	1409	1398	1397	1401	1405	1412	1413	1406	1399	1389	1404	1413	1412	1404	1392	1389	1389	1400	1396	1390	1376	1378	1390	1383	1380	1374	1367	1367	1365	1384	1391	1393	1396	1395	1385	1398	1405	1409	1411	1396	1396	1399	1398	1385	1382	1385	1384	1391	1394	0	0	0	0	0	0	0	0	0	0	0	0	0	0	0	0	0	0	0	0	0	0	0	0	0	0	0	0	0	0	0	0	0	0	0	0	0	0	0	0	0	0	0	0	0	0	0	0	0	0	0	0	0	0	0	0	0	0	0	0	0	0	0	1699	1711	1707	1707	1713	1712	1712	1709	1702	1697	1702	1696	1706	1706	1712	0	0	0	0	0	0	0	0	0	0	0	0	1439	1443	1473	1487	1460	1441	1421	1406	1405	1415	1415	1416	1402	1396	1395	1393	1400	1407	1417	1415	1417	1406	1418	1423	1418	1407	1409	1408	1395	1392	1399	1415	1422	1422	1412	1413	1423	1417	1419	1428	1431	1428	1419	1420	1405	1393	1377	1368	1376	1401	0	0	0	0	0	0	0	0	0	1690	1690	1694	1675	1656	1646	1650	1653	1636	1603	1556	1516	1482	1464	1449	1446	1443	1435	1431	1427	1425	1431	1432	1435	1443	1443	1442	1438	1427	1407	1407	1407	1418	1423	1434	1440	1443	1441	1420	1426	1433	1433	1430	1427	1425	1441	1449	1458	1449	1441	1432	1421	1429	1453	1463	1446	1444	1432	1423	1416	1414	1414	1415	1413	1425	1429	1418	1407	1401	1402	1404	1402	1400	1400	1406	1412	1416	1406	1405	1400	1400	1401	1402	1410	1414	1409	1404	1402	1396	1400	1420	1431	1427	1425	1422	1422	1412	1400	1392	1392	1394	0	0	0	0	0	0	0
0	0	0	1412	1419	1418	1410	1410	1410	1422	1446	1457	1461	1463	1463	1462	1451	1440	1431	1436	1442	1442	1444	1438	1428	1440	1428	1432	1441	1441	1456	1465	1462	1444	1435	1426	1458	0	0	0	0	0	0	0	0	0	0	0	0	0	0	0	0	0	0	0	1520	1533	1560	0	0	1580	1550	1536	1554	1787	0	1592	1550	1533	1543	1543	1553	1561	1554	1552	1566	1578	1564	1574	1589	1595	1589	1581	1562	0	0	0	1457	1421	1379	1370	1379	1403	1411	1417	1422	1418	1414	1403	1398	1386	1368	1367	1372	1374	1374	1366	1363	1366	1374	1379	1384	1387	1383	1385	1390	1389	1388	1386	1377	1379	1382	1390	1394	1368	1383	1384	1383	1380	1394	1380	1389	1414	1435	1421	1410	1410	1424	1449	1447	1435	1430	1455	1482	1513	1522	1512	1488	1485	1484	1484	1491	1491	0	0	0	0	1653	1636	1630	1644	1650	1686	1691	1695	1693	1682	1668	1661	1662	1659	1654	1647	1667	1681	1685	1677	1670	1675	1690	1693	1694	1692	1692	1697	1678	1669	1667	1672	1669	1587	1565	1483	1431	1392	1400	1417	1420	1411	1408	1407	1414	1423	1427	1431	1446	1442	1433	1425	1422	1418	1411	1407	1414	1432	1454	1437	1436	1420	1406	1404	1413	1418	1418	1413	1414	1409	1415	1400	1394	1394	1397	1419	1453	1457	1444	1429	1442	1417	1424	1449	1458	0	0	0	0	0	0	0	0	1737	1757	1763	1773	1763	1733	1719	1706	1702	1700	1704	1710	1721	1723	1713	1697	0	0	0	0	0	0	0	0	0	0	0	0	0	0	0	0	0	0	0	0	0	0	0	0	0	0	0	0	0	0	0	0	0	0	0	0	0	0	0	0	0	0	0	0	0	0	0	0	0	0	0	0	0	0	0	0	0	0	0	0	0	0	0	1441	1458	1442	1421	1404	1399	1404	1393	1395	1404	1405	1402	1398	1396	1398	1389	1407	1398	1387	1390	1400	1406	1412	1402	1396	1391	1392	1380	1378	1366	1358	1353	1359	1385	1391	1390	1391	1392	1397	1401	1408	1413	1403	1390	1385	1400	1399	1385	1379	1384	1405	1419	1434	0	0	0	0	0	0	0	0	0	0	0	0	0	0	0	0	0	0	0	0	0	0	0	0	0	0	0	0	0	0	0	0	0	0	0	0	0	0	0	0	0	0	0	0	0	0	0	0	0	0	0	0	0	0	0	0	0	0	0	0	0	0	0	1714	1718	1714	1714	1722	1719	1720	1707	1694	1686	1691	1701	1715	1736	1739	1720	0	0	0	0	0	0	0	0	0	0	0	1433	1439	1468	1479	1457	1435	1418	1405	1400	1399	1407	1411	1410	1393	1393	1397	1407	1415	1423	1426	1422	1416	1421	1429	1430	1423	1412	1398	1383	1388	1397	1413	1425	1425	1425	1421	1420	1417	1416	1425	1428	1426	1410	1400	1400	1389	1379	1369	1371	1394	0	0	0	0	0	0	0	0	0	1679	1683	1685	1666	1639	1641	1642	1641	1643	0	0	0	1468	1465	1457	1453	1450	1444	1421	1435	1430	1429	1443	1443	1447	1445	1439	1427	1413	1411	1407	1419	1424	1443	1456	1447	1440	1434	1457	1454	1448	1444	1438	1440	1443	1449	1461	1446	1454	1447	1434	1417	1419	1454	1449	1446	1444	1437	1439	1431	1421	1414	1413	1417	1428	1427	1413	1403	1399	1404	1409	1407	1409	1408	1415	1418	1410	1402	1402	1401	1401	1400	1404	1404	1407	1400	1392	1398	1398	1406	1420	1424	1420	1421	1414	1414	1404	1392	1378	1378	1392	0	0	0	0	0	0	0
0	0	0	1390	1404	1417	1429	1429	1435	1451	1462	1464	1452	1441	1441	1442	1437	1426	1415	1417	1433	1433	1445	1441	1446	1442	1438	1440	1450	1450	1458	1457	1447	1431	1415	1413	1462	0	0	0	0	0	0	0	0	0	0	0	0	0	0	0	0	0	0	1505	1503	1517	1543	1578	0	0	1566	1561	1569	0	0	1800	1577	1558	1558	1558	1559	1569	1570	1580	1583	1585	1595	1596	1589	1588	1574	1565	1569	0	0	1506	1476	1433	1391	1374	1378	1389	1402	1418	1426	1421	1407	1394	1389	1382	1369	1364	1369	1376	1381	1374	1369	1364	1371	1379	1380	1381	1383	1388	1391	1391	1386	1377	1367	1364	1370	1379	1394	1368	1371	1375	1379	1383	1393	1390	1398	1423	1448	1441	1427	1421	1426	1438	1440	1432	1433	1446	1473	1491	1514	1507	1482	1478	1468	1471	1474	1478	0	0	0	0	1668	1646	1641	1653	1661	1679	1686	1694	1687	1677	1660	1656	1654	1646	1639	1638	1641	1657	1674	1659	1662	1679	1688	1690	1689	1686	1686	1674	1669	1664	1660	1659	1657	1585	1560	1473	1423	1401	1407	1415	1413	1408	1407	1407	1415	1425	1430	1437	1443	1442	1431	1427	1423	1416	1408	1402	1413	1438	1454	1451	1440	1427	1413	1409	1412	1417	1417	1415	1416	1415	1413	1399	1400	1394	1403	1403	1438	1448	1438	1433	1452	1432	1422	1441	1452	0	0	0	0	0	0	0	0	1730	1753	1760	1757	1760	1740	1716	1701	1689	1696	1703	1713	1714	1714	1714	1690	0	0	0	0	0	0	0	0	0	0	0	0	0	0	0	0	0	0	0	0	0	0	0	0	0	0	0	0	0	0	0	0	0	0	0	0	0	0	0	0	0	0	0	0	0	0	0	0	0	0	0	0	0	0	0	0	0	0	0	0	0	0	0	1455	1429	1408	1399	1390	1402	1405	1382	1385	1394	1394	1394	1399	1401	1397	1401	1383	1380	1382	1389	1392	1402	1409	1405	1400	1398	1388	1368	1357	1352	1352	1361	1367	1386	1395	1396	1395	1396	1402	1410	1412	1413	1406	1394	1387	1404	1400	1378	1374	1388	1410	1439	1472	0	0	0	0	0	0	0	0	0	0	0	0	0	0	0	0	0	0	0	0	0	0	0	0	0	0	0	0	0	0	0	0	0	0	0	0	0	0	0	0	0	0	0	0	0	0	0	0	0	0	0	0	0	0	0	0	0	0	0	0	0	0	0	1731	1722	1726	1723	1719	1731	1725	1699	1695	1699	1692	1690	1702	1720	1740	1734	0	0	0	0	0	0	0	0	0	0	1463	1429	1426	1444	1455	1440	1423	1403	1394	1389	1390	1391	1400	1417	1392	1392	1400	1397	1416	1421	1425	1421	1417	1414	1427	1432	1423	1409	1391	1383	1394	1397	1404	1413	1422	1423	1419	1415	1407	1407	1415	1423	1420	1396	1394	1389	1395	1392	1387	1381	1403	0	0	0	0	0	0	0	0	0	1650	1665	1670	1646	1634	1632	1649	1647	0	0	0	0	1460	1455	1458	1460	1452	1446	1412	1442	1454	1461	1468	1447	1435	1429	1427	1424	1408	1410	1392	1387	1395	1418	1416	1409	1403	1438	1470	1469	1460	1451	1446	1439	1424	1421	1426	1421	1439	1451	1435	1431	1442	1471	1454	1440	1445	1444	1445	1436	1427	1419	1417	1423	1426	1416	1404	1403	1404	1410	1413	1412	1406	1406	1411	1412	1405	1403	1399	1397	1397	1397	1402	1406	1401	1389	1385	1385	1389	1392	1398	1410	1414	1411	1409	1409	1396	1382	1369	1371	1401	0	0	0	0	0	0	0
0	0	0	1403	1412	1423	1437	1437	1447	1455	1458	1453	1444	1431	1431	1429	1427	1423	1423	1425	1429	1433	1443	1443	1444	1440	1448	1451	1458	1458	1466	1458	1449	1426	1410	1398	1418	0	0	0	0	0	0	0	0	0	0	0	0	0	0	0	0	0	0	1495	1496	1491	1505	1552	1578	1792	1568	1569	1579	1805	0	1593	1576	1567	1567	1576	1576	1588	1590	1591	1590	1585	1582	1585	1579	1574	1569	1567	1568	0	0	1498	1475	1437	1401	1382	1382	1379	1390	1409	1421	1417	1406	1393	1385	1378	1371	1366	1373	1378	1384	1376	1371	1367	1369	1374	1375	1380	1389	1398	1398	1389	1379	1370	1362	1358	1365	1374	1393	1374	1366	1368	1374	1389	1404	1407	1415	1436	1455	1449	1436	1423	1426	1428	1428	1428	1427	1438	1466	1482	1498	1500	1479	1478	1472	1473	1475	0	0	0	0	1653	1666	1655	1655	1660	1662	1678	1681	1682	1689	1678	1666	1658	1662	1652	1644	1633	1640	1653	1665	1656	1678	1684	1684	1686	1682	1678	1675	1678	1670	1663	1655	1655	1649	1580	1560	1493	1421	1400	1406	1407	1410	1402	1406	1404	1411	1425	1433	1439	1447	1444	1438	1428	1426	1417	1404	1400	1407	1423	1428	1437	1431	1425	1414	1411	1414	1420	1417	1418	1422	1416	1415	1405	1409	1402	1398	1400	1426	1428	1425	1434	1458	1441	1434	1438	1464	0	0	0	0	0	0	0	0	1731	1745	1755	1755	1752	1748	1726	1717	1701	1701	1708	1716	1720	1724	1725	1699	0	0	0	0	0	0	0	0	0	0	0	0	0	0	0	0	0	0	0	0	0	0	0	0	0	0	0	0	0	0	0	0	0	0	0	0	0	0	0	0	0	0	0	0	0	0	0	0	0	0	0	0	0	0	0	0	0	0	0	0	0	0	0	1434	1425	1408	1399	1392	1408	1416	1387	1376	1378	1381	1396	1400	1403	1409	1404	1388	1389	1383	1392	1391	1390	1398	1402	1396	1396	1386	1362	1353	1353	1354	1365	1370	1385	1399	1399	1397	1400	1404	1407	1409	1410	1402	1400	1411	1404	1395	1381	1380	1391	1411	1449	1484	0	0	0	0	0	0	0	0	0	0	0	0	0	0	0	0	0	0	0	0	0	0	0	0	0	0	0	0	0	0	0	0	0	0	0	0	0	0	0	0	0	0	0	0	0	0	0	0	0	0	0	0	0	0	0	0	0	0	0	0	0	0	0	0	1737	1735	1733	1737	1725	1734	1732	1739	1720	1690	1688	1683	1694	1720	1722	0	0	0	0	0	0	0	0	0	0	1462	1437	1423	1424	1430	1422	1405	1396	1388	1378	1380	1388	1396	1410	1393	1384	1387	1388	1399	1411	1406	1410	1405	1402	1409	1422	1417	1407	1384	1396	1401	1396	1397	1407	1415	1419	1421	1412	1406	1405	1406	1411	1412	1382	1383	1382	1397	1400	1401	1397	1414	0	0	0	0	0	0	0	0	0	0	1646	1652	1639	1642	1652	1668	1645	0	0	0	0	1462	1445	1452	1458	1457	1447	1413	1455	1458	1471	1452	1439	1423	1415	1412	1418	1417	1417	1415	1407	1415	1416	1416	1430	1464	1487	1468	1464	1480	1492	1506	1437	1398	1384	1383	1393	1420	1448	1444	1452	1479	1489	1476	1453	1445	1447	1437	1428	1425	1426	1426	1434	1427	1401	1395	1402	1407	1413	1413	1406	1397	1401	1405	1410	1405	1397	1391	1391	1391	1395	1398	1398	1394	1385	1373	1375	1378	1384	1391	1401	1405	1408	1409	1409	1402	1387	1378	1378	1402	0	0	0	0	0	0	0
0	0	0	1420	1437	1442	1436	1435	1435	1443	1450	1444	1438	1430	1430	1424	1427	1427	1435	1438	1438	1438	1440	1445	1444	1436	1446	1460	1467	1467	1473	1462	1453	1430	1414	1398	1401	1434	0	0	0	0	0	0	0	0	0	0	0	0	0	0	0	0	0	1496	1489	1484	1504	1540	1567	1580	1582	1567	1569	1584	1588	1574	1566	1566	1564	1583	1583	1598	1817	1601	1581	1567	1550	1570	1564	1566	1558	1571	1567	0	0	1498	1475	1438	1413	1400	1394	1374	1378	1392	1409	1408	1402	1388	1375	1372	1367	1366	1367	1370	1375	1377	1371	1361	1359	1367	1375	1389	1400	1402	1397	1383	1368	1357	1355	1363	1369	1381	1400	1395	1372	1371	1373	1388	1405	1419	1427	1439	1453	1448	1441	1437	1422	1423	1417	1425	1430	1447	1461	1479	1491	1483	1467	1472	1479	1490	1485	0	0	0	0	1635	1663	1660	1659	1665	1666	1678	1691	1687	1683	1680	1668	1668	1675	1668	1655	1648	1645	1655	1665	1666	1676	1673	1684	1685	1681	1678	1676	1673	1676	1668	1666	1661	1662	1573	1554	1486	1422	1406	1409	1405	1401	1402	1407	1412	1417	1429	1439	1437	1443	1441	1436	1434	1424	1410	1401	1401	1403	1412	1414	1413	1412	1414	1407	1406	1408	1416	1405	1406	1418	1431	1430	1424	1416	1413	1404	1417	1426	1416	1414	1443	1459	1449	1448	1450	1489	0	0	0	0	0	0	0	0	1746	1752	1738	1728	1741	1752	1733	1736	1729	1730	1730	1733	1740	1748	1748	1721	0	0	0	0	0	0	0	0	0	0	0	0	0	0	0	0	0	0	0	0	0	0	0	0	0	0	0	0	0	0	0	0	0	0	0	0	0	0	0	0	0	0	0	0	0	0	0	0	0	0	0	0	0	0	0	0	0	0	0	0	0	0	0	1430	1421	1405	1393	1395	1408	1418	1413	1383	1374	1382	1401	1398	1398	1401	1404	1405	1399	1394	1397	1383	1373	1384	1385	1389	1397	1373	1365	1360	1372	1368	1366	1369	1382	1384	1384	1397	1405	1406	1401	1395	1402	1405	1406	1413	1407	1396	1387	1388	1400	1424	1446	1481	0	0	0	0	0	0	0	0	0	0	0	0	0	0	0	0	0	0	0	0	0	0	0	0	0	0	0	0	0	0	0	0	0	0	0	0	0	0	0	0	0	0	0	0	0	0	0	0	0	0	0	0	0	0	0	0	0	0	0	0	0	0	0	0	1725	1701	1712	1726	1735	1737	1740	1744	1719	1699	1686	1685	1695	1702	1699	0	0	0	0	0	0	0	0	0	0	0	1449	1426	1410	1413	1417	1407	1397	1388	1379	1383	1388	1394	1402	1390	1386	1383	1389	1394	1405	1397	1402	1397	1396	1401	1412	1406	1404	1392	1407	1411	1406	1406	1409	1409	1418	1420	1410	1405	1401	1393	1389	1389	1387	1385	1385	1388	1398	1400	1390	1413	0	0	0	0	0	0	0	0	0	0	1637	1642	1643	1652	1672	1669	1625	0	0	0	0	0	1450	1462	1460	1459	1458	1423	1462	1462	1457	1449	1432	1422	1408	1404	1419	1422	1425	1426	1423	1428	1431	1444	1458	1499	1492	0	0	1465	1477	1495	1480	1391	1373	1377	1386	1410	1446	1458	1468	1488	1504	1494	1469	1449	1443	1434	1426	1421	1430	1438	1438	1427	1390	1385	1403	1405	1418	1411	1400	1392	1389	1400	1407	1409	1405	1395	1397	1397	1392	1396	1393	1391	1380	1374	1369	1377	1384	1387	1395	1398	1403	1402	1402	1404	1400	1398	1405	1418	0	0	0	0	0	0	0
0	0	0	1458	1448	1443	1418	1404	1404	1408	1415	1430	1440	1428	1428	1432	1427	1428	1429	1437	1449	1449	1448	1445	1438	1422	1428	1450	1464	1464	1478	1468	1460	1449	1434	1422	1413	1431	0	0	0	0	0	0	0	0	0	0	0	0	0	0	0	0	0	0	1491	1492	1516	1556	1781	1787	1585	1576	1576	1578	1579	1574	1563	1574	1573	1583	1583	1598	1822	1600	1580	1563	1540	1544	1563	1562	1564	1567	1566	0	0	1506	1464	1438	1416	1407	1389	1371	1375	1382	1389	1388	1382	1377	1366	1359	1359	1357	1358	1362	1364	1371	1365	1361	1357	1367	1377	1387	1395	1397	1388	1377	1360	1352	1356	1370	1377	1386	1400	1393	1386	1385	1381	1396	1408	1413	1421	1438	1452	1448	1438	1429	1419	1411	1408	1426	1440	1461	1467	1476	1482	1479	1470	1463	1478	1484	1496	0	0	0	0	1643	1666	1672	1671	1668	1669	1693	1693	1689	1675	1675	1677	1693	1696	1688	1671	1659	1658	1659	1656	1661	1655	1665	1672	1678	1680	1680	1677	1679	1686	1684	1681	1691	1681	1578	1550	1482	1427	1416	1411	1405	1404	1403	1408	1416	1427	1446	1447	1437	1434	1440	1437	1438	1426	1411	1402	1400	1399	1406	1406	1401	1402	1396	1394	1392	1405	1405	1399	1401	1412	1426	1437	1416	1406	1413	1412	1430	1425	1419	1420	1445	1442	1447	1460	1477	1510	0	0	0	0	0	0	0	0	1756	1745	1721	1712	1713	1729	1742	1747	1757	1760	1756	1755	1758	1764	1761	1739	0	0	0	0	0	0	0	0	0	0	0	0	0	0	0	0	0	0	0	0	0	0	0	0	0	0	0	0	0	0	0	0	0	0	0	0	0	0	0	0	0	0	0	0	0	0	0	0	0	0	0	0	0	0	0	0	0	0	0	0	0	0	0	1426	1420	1399	1385	1391	1398	1408	1409	1393	1389	1396	1400	1396	1394	1403	1398	1397	1398	1404	1389	1370	1378	1372	1381	1385	1389	1384	1381	1392	1398	1397	1386	1376	1382	1378	1378	1391	1406	1411	1395	1398	1400	1405	1409	1408	1407	1393	1386	1394	1408	1425	1443	1490	0	0	0	0	0	0	0	0	0	0	0	0	0	0	0	0	0	0	0	0	0	0	0	0	0	0	0	0	0	0	0	0	0	0	0	0	0	0	0	0	0	0	0	0	0	0	0	0	0	0	0	0	0	0	0	0	0	0	0	0	0	0	0	0	1686	1682	1689	1704	1714	1727	1741	1736	1717	1696	1695	1699	1701	1694	1690	0	0	0	0	0	0	0	0	0	0	0	1461	1427	1411	1407	1414	1410	1406	1397	1389	1384	1389	1396	1399	1394	1391	1392	1398	1406	1410	1407	1400	1395	1391	1394	1401	1406	1398	1392	1406	1408	1414	1411	1411	1411	1413	1412	1414	1412	1402	1395	1386	1389	1394	1397	1384	1381	1389	1394	1387	1413	0	0	0	0	0	0	0	0	0	0	1631	1633	1632	1637	1643	1626	0	0	0	0	0	0	1463	1468	1476	1474	1464	1437	1458	1457	1446	1442	1432	1418	1409	1408	1421	1424	1430	1433	1433	1433	1441	1454	1473	1494	0	0	0	1440	1456	1477	1469	1391	1374	1375	1384	1403	1437	1451	1460	1480	1496	1501	1473	1453	1438	1429	1421	1421	1429	1431	1438	1429	1398	1393	1402	1410	1416	1414	1400	1382	1382	1398	1409	1417	1418	1409	1405	1405	1405	1399	1396	1391	1385	1385	1391	1395	1389	1385	1385	1387	1387	1398	1398	1403	1403	1405	1419	1432	0	0	0	0	0	0	0
0	0	0	1470	1464	1435	1401	1394	1394	1393	1405	1423	1432	1436	1436	1429	1431	1419	1429	1437	1448	1448	1452	1445	1426	1421	1424	1445	1463	1466	1466	1460	1464	1466	1458	1458	1453	0	0	0	0	0	0	0	0	0	0	0	0	0	0	0	0	0	0	0	1501	1509	1546	1575	0	0	1795	1578	1567	1572	1573	1575	1576	1584	1585	1585	1585	1596	1820	1598	1580	1562	1557	1558	1553	1566	1580	1582	1574	0	0	1497	1450	1426	1418	1394	1378	1369	1370	1370	1374	1373	1371	1367	1358	1355	1359	1354	1355	1356	1358	1371	1369	1367	1365	1371	1383	1389	1395	1391	1387	1377	1376	1372	1369	1375	1382	1387	1390	1392	1392	1390	1390	1405	1407	1405	1403	1421	1445	1441	1432	1418	1410	1403	1411	1429	1450	1463	1465	1472	1476	1474	1459	1456	1470	1488	1499	0	0	0	0	1625	1658	1675	1680	1687	1681	1695	1687	1681	1670	1676	1685	1701	1710	1708	1683	1669	1659	1657	1651	1654	1655	1665	1672	1687	1689	1682	1680	1685	1702	1706	1707	1714	1693	1580	1543	1478	1440	1430	1423	1402	1397	1395	1405	1420	1452	1462	1457	1443	1441	1445	1444	1434	1425	1410	1408	1400	1402	1404	1399	1393	1390	1387	1383	1385	1394	1396	1393	1401	1408	1415	1416	1397	1397	1404	1404	1429	1428	1426	1433	1428	1430	1439	1464	1496	1502	0	0	0	0	0	0	0	0	1743	1718	1708	1699	1716	1729	1750	1770	1773	1781	1774	1770	1763	1762	1761	1751	0	0	0	0	0	0	0	0	0	0	0	0	0	0	0	0	0	0	0	0	0	0	0	0	0	0	0	0	0	0	0	0	0	0	0	0	0	0	0	0	0	0	0	0	0	0	0	0	0	0	0	0	0	0	0	0	0	0	0	0	0	0	0	1448	1424	1401	1389	1383	1382	1390	1400	1400	1401	1402	1395	1389	1386	1397	1401	1396	1399	1406	1407	1383	1381	1382	1379	1376	1376	1390	1396	1406	1410	1404	1393	1379	1391	1380	1377	1385	1402	1408	1398	1400	1407	1407	1403	1393	1394	1392	1390	1396	1417	1425	1431	1483	0	0	0	0	0	0	0	0	0	0	0	0	0	0	0	0	0	0	0	0	0	0	0	0	0	0	0	0	0	0	0	0	0	0	0	0	0	0	0	0	0	0	0	0	0	0	0	0	0	0	0	0	0	0	0	0	0	0	0	0	0	0	0	0	1680	1679	1682	1683	1701	1718	1733	1721	1712	1699	1708	1713	1709	1706	1691	0	0	0	0	0	0	0	0	0	0	0	1461	1430	1415	1404	1415	1422	1419	1408	1394	1381	1384	1390	1388	1396	1399	1403	1411	1420	1420	1418	1406	1398	1393	1388	1386	1386	1373	1388	1402	1407	1413	1414	1411	1407	1403	1413	1423	1421	1415	1406	1402	1404	1400	1389	1385	1377	1374	1390	1385	1406	0	0	0	0	0	0	0	0	0	1634	1644	1635	1627	1619	1619	0	0	0	0	0	0	0	1491	1488	1481	1473	1476	1443	1430	1431	1431	1437	1434	1416	1413	1415	1427	1425	1425	1430	1428	1446	1454	1467	1471	1472	1453	0	0	1437	1445	1448	1431	1390	1382	1382	1387	1406	1434	1455	1467	1480	1483	1489	1469	1451	1437	1430	1421	1422	1415	1419	1430	1431	1411	1402	1400	1404	1415	1413	1401	1388	1382	1398	1420	1435	1432	1421	1421	1411	1410	1403	1399	1387	1383	1388	1401	1400	1396	1381	1381	1380	1380	1388	1388	1396	1398	1402	1415	1432	0	0	0	0	0	0	0
0	0	0	1470	1449	1422	1396	1389	1389	1398	1398	1409	1420	1428	1428	1429	1425	1430	1428	1442	1452	1452	1455	1443	1434	1431	1438	1459	1465	1460	1460	1460	1472	1481	1484	1482	1469	0	0	0	0	0	0	0	0	0	0	0	0	0	0	0	0	0	0	0	1500	1522	1560	0	0	0	1567	1560	1546	1556	1573	1574	1578	1588	1588	1596	1596	1813	1816	1598	1576	1558	1559	1565	1573	1581	1599	1599	1584	0	0	1480	1424	1401	1389	1375	1359	1356	1360	1358	1363	1359	1361	1362	1361	1367	1365	1358	1353	1352	1371	1377	1386	1383	1380	1382	1391	1393	1393	1393	1388	1388	1387	1384	1381	1380	1380	1378	1378	1384	1389	1390	1395	1404	1402	1397	1394	1402	1438	1445	1425	1412	1397	1399	1412	1423	1433	1451	1460	1470	1470	1469	1444	1457	1472	1485	1494	0	0	0	0	1609	1650	1668	1681	1688	1681	1685	1674	1670	1668	1672	1680	1707	1800	1716	1690	1670	1655	1648	1647	1653	1667	1679	1699	1705	1706	1689	1687	1699	1701	1713	1717	1713	1682	1580	1549	1493	1464	1452	1434	1402	1394	1392	1401	1429	1464	1474	1459	1442	1438	1446	1445	1430	1418	1404	1404	1402	1400	1398	1392	1384	1382	1380	1382	1385	1392	1399	1397	1403	1406	1406	1399	1389	1389	1400	1401	1421	1436	1442	1434	1420	1415	1437	1471	1486	1488	0	0	0	0	0	0	0	0	1731	1713	1712	1705	1731	1751	1764	1766	1773	1775	1770	1770	1760	1755	1750	1739	0	0	0	0	0	0	0	0	0	0	0	0	0	0	0	0	0	0	0	0	0	0	0	0	0	0	0	0	0	0	0	0	0	0	0	0	0	0	0	0	0	0	0	0	0	0	0	0	0	0	0	0	0	0	0	0	0	0	0	0	0	0	0	1454	1434	1410	1412	1404	1382	1375	1387	1400	1404	1399	1390	1383	1382	1392	1402	1396	1403	1419	1422	1394	1383	1377	1372	1373	1372	1389	1394	1403	1406	1405	1394	1381	1394	1386	1386	1381	1397	1395	1394	1404	1403	1401	1388	1381	1382	1389	1396	1429	1438	1431	1428	1483	0	0	0	0	0	0	0	0	0	0	0	0	0	0	0	0	0	0	0	0	0	0	0	0	0	0	0	0	0	0	0	0	0	0	0	0	0	0	0	0	0	0	0	0	0	0	0	0	0	0	0	0	0	0	0	0	0	0	0	0	0	0	0	0	1698	1701	1699	1690	1689	1700	1728	1715	1715	1719	1731	1728	1725	1700	1694	0	0	0	0	0	0	0	0	0	0	0	0	1454	1439	1405	1414	1420	1421	1413	1392	1378	1381	1384	1386	1396	1400	1405	1414	1421	1427	1422	1411	1397	1388	1383	1378	1370	1360	1383	1407	1405	1403	1408	1402	1399	1393	1399	1414	1416	1419	1411	1415	1411	1393	1382	1376	1374	1383	1390	1388	1425	0	0	0	0	0	0	0	0	0	0	1652	1632	1623	1610	0	0	0	0	0	0	0	0	1501	1494	1490	1486	1482	1430	1419	1419	1424	1435	1430	1415	1417	1433	1434	1429	1427	1428	1433	1441	1454	1460	1460	1452	1430	1417	1427	1428	1437	1433	1410	1391	1386	1397	1401	1409	1433	1453	1476	1483	1476	1463	1451	1437	1430	1428	1433	1423	1409	1407	1418	1422	1415	1404	1399	1410	1415	1418	1412	1405	1407	1421	1435	1443	1433	1425	1425	1411	1409	1409	1402	1387	1377	1389	1401	1403	1402	1388	1393	1384	1381	1381	1383	1387	1383	1391	1401	1408	0	0	0	0	0	0	0
0	0	0	1448	1434	1414	1394	1398	1398	1405	1405	1408	1412	1422	1422	1438	1438	1445	1439	1449	1456	1465	1465	1455	1444	1444	1461	1469	1469	1460	1460	1460	1475	1484	1491	1493	1480	0	0	0	0	0	0	0	0	0	0	0	0	0	0	0	0	0	0	0	1519	1529	1550	1569	1559	1552	1529	1519	1520	1546	1562	1563	1567	1572	1581	1597	0	0	1805	1585	1564	1557	1561	1568	1583	1594	1810	1804	1598	0	0	1464	1402	1389	1369	1361	1363	1354	1354	1355	1357	1359	1358	1367	1371	1371	1370	1364	1360	1361	1376	1380	1389	1387	1387	1387	1393	1397	1400	1400	1402	1397	1396	1396	1388	1379	1377	1365	1368	1374	1380	1383	1392	1399	1392	1390	1387	1382	1429	1440	1438	1415	1397	1389	1403	1416	1422	1431	1449	1462	1469	1462	1443	1446	1474	1482	1486	0	0	0	0	1574	1624	1647	1663	1664	1666	1674	1666	1670	1672	1680	1690	1699	1718	1787	1699	1677	1664	1654	1650	1671	1686	1705	1717	1718	1704	1687	1686	1692	1704	1704	1704	1706	1690	1642	1563	1518	1484	1467	1446	1422	1402	1400	1407	1438	1456	1468	1456	1439	1435	1438	1431	1414	1406	1403	1403	1394	1397	1390	1385	1381	1378	1388	1387	1396	1399	1401	1404	1406	1409	1407	1404	1398	1393	1406	1411	1425	1443	1445	1429	1423	1436	1434	1470	1488	1476	0	0	0	0	0	0	0	0	1724	1719	1723	1729	1744	1759	1760	1760	1756	1752	1757	1765	1769	1754	1746	1722	0	0	0	0	0	0	0	0	0	0	0	0	0	0	0	0	0	0	0	0	0	0	0	0	0	0	0	0	0	0	0	0	0	0	0	0	0	0	0	0	0	0	0	0	0	0	0	0	0	0	0	0	0	0	0	0	0	0	0	0	0	0	0	1449	1437	1424	1430	1423	1398	1381	1387	1398	1401	1394	1389	1386	1391	1398	1403	1406	1414	1415	1418	1399	1391	1380	1380	1378	1369	1383	1388	1397	1404	1400	1391	1390	1398	1392	1389	1386	1391	1393	1402	1402	1401	1391	1384	1378	1378	1393	1423	1441	1444	1437	1430	1488	0	0	0	0	0	0	0	0	0	0	0	0	0	0	0	0	0	0	0	0	0	0	0	0	0	0	0	0	0	0	0	0	0	0	0	0	0	0	0	0	0	0	0	0	0	0	0	0	0	0	0	0	0	0	0	0	0	0	0	0	0	0	0	0	1724	1722	1716	1702	1693	1694	1709	1715	1724	1741	1745	1741	1720	1705	0	0	0	0	0	0	0	0	0	0	0	0	0	1475	1460	1410	1420	1420	1420	1418	1404	1375	1381	1387	1391	1394	1398	1400	1405	1408	1417	1427	1426	1410	1394	1390	1380	1360	1361	1389	1406	1407	1401	1395	1395	1392	1388	1391	1402	1407	1409	1411	1411	1413	1391	1381	1382	1390	1390	1400	1408	1435	1460	0	0	0	0	0	0	0	0	0	1666	1649	1627	0	0	0	0	0	0	0	0	0	1493	1487	1486	1492	1486	1441	1427	1424	1421	1424	1429	1433	1434	1442	1446	1446	1441	1440	1445	1463	1470	1477	1475	1460	1452	1457	1476	1485	1482	1445	1427	1433	1435	1437	1409	1411	1440	1460	1475	1475	1453	1441	1433	1426	1431	1435	1437	1423	1412	1407	1408	1408	1401	1404	1407	1416	1425	1426	1424	1418	1422	1428	1433	1432	1425	1419	1419	1414	1421	1418	1411	1398	1393	1395	1407	1394	1395	1400	1404	1397	1386	1386	1381	1369	1369	1380	1383	1392	0	0	0	0	0	0	0
0	0	0	1418	1417	1417	1409	1409	1409	1411	1414	1415	1418	1426	1433	1445	1448	1451	1452	1453	1462	1465	1465	1463	1443	1454	1470	1472	1457	1450	1450	1456	1462	1476	1478	1477	1472	1462	0	0	0	0	0	0	0	0	0	0	0	0	0	0	0	0	0	0	1522	1532	1541	1542	1532	1508	1486	1502	1520	1545	1561	1561	1550	1555	1570	1586	1803	1803	1593	1578	1561	1559	1560	1564	1573	1598	1609	1608	1599	0	0	1434	1393	1381	1373	1372	1371	1366	1362	1360	1357	1363	1372	1379	1379	1380	1374	1369	1368	1369	1374	1379	1385	1382	1379	1381	1389	1394	1400	1400	1401	1400	1393	1390	1387	1379	1372	1365	1368	1372	1376	1377	1382	1382	1380	1384	1378	1376	1413	1451	1452	1438	1414	1404	1408	1413	1418	1431	1445	1470	1479	1479	1473	1487	1490	1478	1476	0	0	0	0	0	1612	1626	1647	1649	1650	1652	1659	1669	1677	1681	1688	1692	1701	1707	1698	1687	1674	1664	1659	1683	1700	1718	1714	1709	1688	1680	1674	1680	1687	1691	1694	1694	1703	1666	1589	1506	1483	1474	1459	1441	1418	1411	1416	1431	1444	1445	1438	1432	1432	1429	1420	1413	1409	1404	1405	1398	1395	1389	1388	1386	1388	1392	1406	1423	1416	1410	1407	1408	1409	1415	1415	1409	1398	1404	1401	1418	1431	1438	1433	1428	1448	1474	1505	1496	1478	0	0	0	0	0	0	0	0	1710	1719	1720	1724	1725	1740	1746	1738	1732	1735	1749	1761	1763	1756	1740	1715	0	0	0	0	0	0	0	0	0	0	0	0	0	0	0	0	0	0	0	0	0	0	0	0	0	0	0	0	0	0	0	0	0	0	0	0	0	0	0	0	0	0	0	0	0	0	0	0	0	0	0	0	0	0	0	0	0	0	0	0	0	0	0	1426	1431	1434	1433	1429	1410	1392	1388	1394	1398	1398	1397	1398	1407	1411	1401	1403	1404	1401	1396	1394	1402	1385	1380	1386	1375	1370	1380	1388	1394	1397	1400	1399	1405	1397	1394	1401	1396	1395	1398	1399	1394	1384	1380	1386	1392	1407	1425	1435	1440	1435	1424	1498	0	0	0	0	0	0	0	0	0	0	0	0	0	0	0	0	0	0	0	0	0	0	0	0	0	0	0	0	0	0	0	0	0	0	0	0	0	0	0	0	0	0	0	0	0	0	0	0	0	0	0	0	0	0	0	0	0	0	0	0	0	0	0	0	1739	1739	1732	1716	1698	1690	1697	1726	1719	1731	1738	1725	1716	0	0	0	0	0	0	0	0	0	0	0	0	0	1495	1490	1465	1411	1412	1417	1420	1425	1418	1389	1389	1391	1384	1381	1389	1391	1389	1388	1398	1415	1423	1416	1408	1397	1388	1374	1371	1393	1407	1400	1397	1391	1389	1391	1390	1395	1389	1392	1393	1401	1401	1407	1399	1394	1397	1414	1413	1412	1420	1437	1458	0	0	0	0	0	0	0	0	0	0	0	0	0	0	0	0	0	0	0	0	1505	1466	1467	1479	1491	1488	1454	1433	1432	1427	1422	1432	1435	1437	1442	1443	1447	1441	1435	1436	1436	1434	1445	1461	1457	1456	1457	1455	1459	1453	1444	1410	1409	1403	1419	1437	1421	1458	1467	1474	1461	1439	1431	1429	1425	1425	1424	1430	1434	1428	1418	1410	1405	1401	1404	1412	1421	1424	1429	1428	1425	1422	1424	1421	1415	1408	1408	1408	1414	1420	1423	1418	1417	1411	1408	1413	1408	1400	1417	1432	1424	1399	1399	1383	1369	1368	1380	1382	1384	0	0	0	0	0	0	0
0	0	0	1410	1411	1415	1425	1424	1424	1425	1427	1429	1432	1432	1440	1440	1441	1449	1458	1458	1462	1467	1467	1463	1450	1452	1456	1453	1442	1435	1435	1443	1452	1463	1471	1469	1465	1453	0	0	0	0	0	0	0	0	0	0	0	0	0	0	0	0	0	0	1534	1546	1544	1540	1536	1504	1480	1491	1521	1553	1560	1555	1546	1542	1553	1556	1576	1576	1583	1576	1568	1557	1544	1545	1566	1575	1591	1589	1579	0	0	1430	1398	1394	1386	1382	1385	1382	1374	1368	1367	1368	1367	1377	1388	1389	1386	1378	1372	1368	1371	1376	1380	1382	1378	1379	1381	1383	1387	1389	1390	1388	1386	1382	1381	1374	1372	1371	1371	1378	1378	1375	1379	1378	1374	1378	1375	1376	1407	1441	1464	1464	1452	1432	1427	1425	1428	1438	1454	1477	1495	1504	1522	1521	1509	1490	1474	0	0	0	0	0	1619	1623	1627	1638	1621	1640	1656	1677	1687	1683	1682	1675	1682	1692	1693	1697	1691	1678	1673	1673	1706	1717	1714	1706	1683	1670	1678	1679	1698	1697	1693	1693	1706	1676	1588	1492	1469	1463	1455	1445	1429	1416	1415	1422	1426	1428	1431	1429	1432	1423	1417	1414	1416	1417	1412	1406	1402	1402	1399	1395	1393	1402	1417	1431	1432	1427	1415	1414	1416	1417	1422	1417	1407	1403	1409	1412	1421	1429	1436	1437	1447	1486	1533	1526	1496	0	0	0	0	0	0	0	0	1698	1719	1713	1720	1720	1730	1724	1719	1710	1709	1739	1755	1761	1753	1733	1702	0	0	0	0	0	0	0	0	0	0	0	0	0	0	0	0	0	0	0	0	0	0	0	0	0	0	0	0	0	0	0	0	0	0	0	0	0	0	0	0	0	0	0	0	0	0	0	0	0	0	0	0	0	0	0	0	0	0	0	0	0	0	0	1402	1418	1427	1429	1424	1408	1399	1395	1395	1401	1401	1403	1410	1413	1419	1402	1401	1402	1396	1392	1388	1400	1389	1386	1386	1390	1385	1374	1382	1384	1383	1381	1386	1389	1400	1404	1404	1414	1405	1403	1404	1395	1386	1386	1391	1406	1418	1414	1421	1422	1419	1418	1500	0	0	0	0	0	0	0	0	0	0	0	0	0	0	0	0	0	0	0	0	0	0	0	0	0	0	0	0	0	0	0	0	0	0	0	0	0	0	0	0	0	0	0	0	0	0	0	0	0	0	0	0	0	0	0	0	0	0	0	0	0	0	0	0	1739	1738	1740	1725	1702	1683	1698	1714	1724	1714	1706	1717	0	0	0	0	0	0	0	0	0	0	0	0	0	0	1520	1490	1469	1416	1416	1419	1425	1430	1422	1399	1398	1402	1372	1376	1379	1383	1376	1370	1377	1392	1398	1407	1403	1403	1396	1385	1383	1405	1413	1406	1401	1392	1393	1392	1395	1401	1397	1394	1391	1388	1396	1401	1400	1399	1420	1425	1424	1419	1414	1449	1470	0	0	0	0	0	0	0	0	0	0	0	0	0	0	0	0	0	0	0	0	1469	1456	1462	1469	1478	1482	1482	1435	1422	1428	1432	1429	1433	1440	1445	1446	1444	1435	1436	1436	1438	1436	1431	1434	1445	1449	1443	1427	1417	1406	1406	1416	1417	1407	1403	1406	1424	1474	1467	1466	1437	1412	1421	1423	1427	1430	1426	1431	1438	1444	1434	1426	1412	1407	1411	1426	1429	1428	1427	1425	1423	1421	1418	1416	1403	1392	1402	1402	1413	1414	1421	1415	1415	1417	1419	1412	1406	1413	1429	1434	1423	1399	1399	1384	1375	1382	1397	1397	1397	0	0	0	0	0	0	0
0	0	0	1404	1408	1404	1410	1419	1419	1427	1435	1431	1430	1433	1423	1423	1425	1447	1456	1465	1462	1467	1467	1459	1455	1451	1453	1444	1430	1421	1421	1431	1447	1460	1462	1467	1459	0	0	0	0	0	0	0	0	0	0	0	0	0	0	0	0	0	0	0	0	1557	1576	1572	1555	1523	1511	1506	1527	1545	1569	1562	1543	1539	1528	1537	1555	1555	1575	1576	1568	1547	1535	1540	1554	1565	1573	1573	0	0	0	1446	1406	1403	1400	1395	1397	1393	1386	1377	1375	1375	1380	1389	1394	1398	1394	1385	1371	1366	1371	1376	1377	1375	1380	1383	1382	1375	1375	1375	1373	1375	1375	1372	1373	1373	1377	1377	1381	1385	1382	1379	1379	1380	1387	1383	1386	1402	1401	1420	1461	1474	1466	1455	1448	1449	1450	1448	1464	1480	1497	1507	1531	1532	1516	1503	1489	0	0	0	0	0	1654	1649	1635	1635	1642	1655	1674	1685	1688	1681	1669	1658	1671	1686	1704	1715	1710	1700	1687	1677	1711	1725	1727	1722	1708	1687	1678	1687	1689	1700	1692	1686	1692	1669	1575	1485	1457	1447	1447	1442	1436	1428	1417	1414	1420	1422	1421	1433	1437	1422	1413	1416	1422	1420	1415	1411	1409	1412	1408	1405	1404	1400	1409	1433	1436	1428	1415	1416	1416	1419	1418	1410	1401	1401	1404	1414	1416	1431	1441	1441	1435	1475	1524	1521	1495	0	0	0	0	0	0	0	0	1682	1712	1718	1721	1733	1735	1722	1712	1706	1704	1715	1737	1750	1743	1718	1695	0	0	0	0	0	0	0	0	0	0	0	0	0	0	0	0	0	0	0	0	0	0	0	0	0	0	0	0	0	0	0	0	0	0	0	0	0	0	0	0	0	0	0	0	0	0	0	0	0	0	0	0	0	0	0	0	0	0	0	0	0	0	0	1386	1405	1414	1417	1407	1395	1393	1395	1394	1399	1399	1403	1408	1411	1416	1398	1395	1403	1403	1401	1402	1410	1396	1391	1376	1370	1366	1360	1361	1376	1396	1369	1369	1385	1396	1406	1415	1422	1417	1412	1414	1403	1393	1390	1397	1406	1406	1406	1403	1406	1405	1416	1524	1634	0	0	0	0	0	0	0	0	0	0	0	0	0	0	0	0	0	0	0	0	0	0	0	0	0	0	0	0	0	0	0	0	0	0	0	0	0	0	0	0	0	0	0	0	0	0	0	0	0	0	0	0	0	0	0	0	0	0	0	0	0	0	0	1715	1731	1735	1716	1681	1668	1686	0	0	0	0	0	0	0	0	0	0	0	0	0	0	0	0	0	0	0	0	1494	1466	1433	1421	1421	1428	1434	1413	1409	1409	1405	1372	1371	1379	1369	1358	1351	1352	1369	1380	1391	1401	1403	1401	1398	1395	1413	1413	1411	1406	1401	1398	1397	1403	1408	1401	1398	1391	1388	1389	1396	1401	1401	1408	1416	1420	1417	1422	1468	1480	0	0	0	0	0	0	0	0	0	0	0	0	0	0	0	0	0	0	0	0	1465	1456	1458	1458	1459	1466	1483	1425	1419	1419	1421	1426	1430	1436	1446	1452	1447	1440	1434	1436	1436	1436	1436	1440	1446	1450	1450	1437	1417	1414	1415	1418	1417	1419	1410	1401	1424	1467	1477	1454	1418	1405	1419	1423	1429	1439	1439	1441	1446	1448	1442	1431	1424	1419	1422	1428	1425	1420	1420	1421	1422	1422	1423	1417	1406	1396	1410	1410	1409	1411	1410	1408	1403	1405	1408	1405	1410	1420	1426	1418	1403	1392	1392	1385	1385	1392	1409	1412	1407	0	0	0	0	0	0	0
0	0	0	1403	1396	1395	1390	1400	1400	1417	1429	1437	1432	1428	1414	1414	1422	1438	1451	1456	1460	1461	1461	1470	1474	1472	1455	1444	1432	1431	1431	1439	1450	1453	1461	1465	1456	0	0	0	0	0	0	0	0	0	0	0	0	0	0	0	0	0	0	0	0	0	0	0	0	1554	1522	1516	1535	1555	1576	1571	1555	1542	1529	1524	1539	1566	1566	1565	1558	1532	1529	1537	1557	1563	1569	1568	0	0	0	1468	1406	1396	1400	1397	1400	1393	1389	1386	1382	1380	1382	1389	1395	1396	1392	1379	1371	1372	1380	1378	1380	1377	1390	1392	1388	1376	1367	1365	1362	1361	1363	1364	1369	1374	1379	1382	1387	1388	1381	1370	1375	1381	1392	1399	1412	1416	1406	1413	1436	1455	1467	1460	1470	1469	1457	1457	1472	1487	1491	1505	1509	1511	1509	1518	1510	0	0	0	0	0	0	1683	1684	1685	1677	1683	1689	1691	1686	1668	1657	1658	1667	1700	1718	1721	1724	1714	1696	1682	1705	1718	1725	1724	1720	1712	1699	1692	1684	1683	1682	1677	1677	1649	1557	1479	1457	1437	1437	1441	1439	1444	1430	1415	1418	1417	1418	1427	1434	1415	1407	1403	1407	1413	1417	1412	1410	1407	1404	1398	1400	1411	1421	1431	1430	1424	1416	1416	1421	1420	1412	1399	1387	1390	1400	1410	1421	1435	1447	1449	1420	1448	1487	1508	1491	0	0	0	0	0	0	0	0	0	1735	1738	1740	1743	1742	1724	1706	1710	1708	1692	1713	1716	1716	1695	1681	0	0	0	0	0	0	0	0	0	0	0	0	0	0	0	0	0	0	0	0	0	0	0	0	0	0	0	0	0	0	0	0	0	0	0	0	0	0	0	0	0	0	0	0	0	0	0	0	0	0	0	0	0	0	0	0	0	0	0	0	0	0	0	1394	1400	1412	1412	1402	1397	1393	1395	1390	1392	1397	1394	1397	1399	1400	1391	1394	1398	1410	1412	1413	1414	1407	1387	1382	1370	1367	1364	1364	1381	1400	1370	1368	1385	1399	1410	1421	1426	1429	1428	1424	1410	1402	1401	1406	1397	1390	1396	1394	1395	1401	1427	1535	1651	0	0	0	0	0	0	0	0	0	0	0	0	0	0	0	0	0	0	0	0	0	0	0	0	0	0	0	0	0	0	0	0	0	0	0	0	0	0	0	0	0	0	0	0	0	0	0	0	0	0	0	0	0	0	0	0	0	0	0	0	0	0	0	1693	1700	1693	1667	1649	1644	0	0	0	0	0	0	0	0	0	0	0	0	0	0	0	0	0	0	0	0	0	1505	1482	1460	1433	1422	1422	1418	1409	1409	1412	1407	1381	1377	1369	1359	1355	1347	1354	1363	1373	1386	1397	1403	1406	1398	1400	1405	1406	1411	1411	1411	1405	1400	1399	1398	1396	1397	1394	1397	1396	1391	1393	1392	1387	1393	1398	1411	1429	1478	1485	0	0	0	0	0	0	0	0	0	0	0	0	0	0	0	0	0	0	0	0	1476	1459	1456	1440	1433	1439	1457	1412	1407	1406	1414	1425	1430	1441	1453	1460	1451	1436	1425	1423	1430	1436	1442	1445	1446	1443	1444	1434	1425	1415	1421	1428	1430	1426	1418	1411	1418	1441	1460	1445	1416	1408	1418	1424	1435	1442	1443	1442	1444	1447	1441	1436	1433	1428	1421	1419	1413	1411	1409	1410	1414	1420	1421	1424	1415	1410	1410	1415	1414	1410	1406	1402	1395	1387	1384	1379	1401	1416	1413	1402	1390	1381	1381	1371	1379	1390	1407	1414	1410	0	0	0	0	0	0	0
0	0	0	1406	1396	1391	1388	1390	1390	1411	1433	1430	1429	1428	1431	1431	1439	1448	1459	1458	1452	1452	1452	1471	1481	1478	1469	1454	1457	1455	1455	1466	1463	1458	1465	1455	1456	0	0	0	0	0	0	0	0	0	0	0	0	0	0	0	0	0	0	0	0	0	0	0	0	0	0	0	0	0	0	0	0	0	0	0	0	0	0	0	0	1534	1537	0	0	0	0	0	0	0	0	1476	1399	1386	1392	1389	1390	1387	1387	1382	1383	1385	1392	1397	1398	1393	1386	1376	1372	1375	1389	1385	1379	1379	1380	1394	1390	1376	1366	1364	1358	1359	1360	1362	1365	1376	1384	1385	1385	1388	1379	1362	1367	1373	1387	1399	1422	1424	1409	1414	1426	1439	1450	1461	1474	1475	1465	1471	1474	1498	1499	1488	1486	1473	1496	1518	0	0	0	0	0	0	0	0	0	0	1660	1650	1668	1672	1674	1660	1664	1659	1678	1696	1715	1918	1727	1715	1704	1674	1669	1691	1685	1670	1679	1675	1675	1675	1666	1662	1661	1656	1665	1635	1547	1488	1451	1427	1426	1439	1442	1448	1428	1417	1416	1415	1410	1410	1418	1416	1403	1394	1401	1402	1406	1404	1393	1391	1393	1384	1388	1405	1414	1422	1421	1411	1403	1410	1418	1418	1407	1394	1382	1387	1393	1403	1421	1440	1443	1445	1419	1421	1457	1493	1504	0	0	0	0	0	0	0	0	0	0	0	0	0	0	0	0	0	0	1729	1711	1689	1692	1669	1652	0	0	0	0	0	0	0	0	0	0	0	0	0	0	0	0	0	0	0	0	0	0	0	0	0	0	0	0	0	0	0	0	0	0	0	0	0	0	0	0	0	0	0	0	0	0	0	0	0	0	0	0	1758	1757	1757	0	1728	1723	1722	0	0	0	0	1408	1401	1418	1416	1406	1397	1393	1393	1386	1382	1388	1390	1389	1384	1379	1387	1397	1403	1419	1423	1422	1419	1407	1390	1382	1372	1360	1370	1387	1397	1400	1386	1390	1389	1396	1402	1412	1420	1428	1427	1428	1421	1421	1414	1407	1388	1380	1397	1408	1400	1394	1437	1564	1663	0	0	0	0	0	0	0	0	0	0	0	0	0	0	0	0	0	0	0	0	0	0	0	0	0	0	0	0	0	0	0	0	0	0	0	0	0	0	0	0	0	0	0	0	0	0	0	0	0	0	0	0	0	0	0	0	0	0	0	0	0	0	0	0	1687	1666	1643	1629	0	0	0	0	0	0	0	0	0	0	0	0	0	0	0	0	0	0	0	0	0	0	1491	1483	1472	1443	1415	1412	1411	1406	1407	1406	1407	1381	1373	1367	1363	1363	1364	1369	1368	1376	1387	1399	1406	1407	1400	1392	1390	1383	1396	1411	1414	1411	1404	1396	1389	1392	1397	1398	1402	1399	1388	1384	1380	1374	1371	1380	1404	1427	1451	1476	0	0	0	0	0	0	0	0	0	0	0	0	0	0	0	0	0	0	0	0	1492	1469	1452	1439	1427	1422	1423	1388	1388	1395	1414	1430	1437	1449	1461	1462	1449	1430	1419	1414	1425	1436	1441	1441	1434	1434	1436	1433	1429	1430	1438	1432	1434	1428	1418	1415	1416	1432	1428	1428	1423	1420	1422	1419	1423	1434	1434	1432	1437	1441	1442	1440	1442	1430	1412	1407	1403	1403	1402	1403	1408	1412	1419	1419	1412	1413	1413	1411	1413	1413	1403	1399	1394	1386	1373	1371	1380	1405	1408	1394	1384	1376	1376	1367	1368	1380	1397	1402	1396	0	0	0	0	0	0	0
0	0	0	1405	1406	1401	1396	1404	1404	1420	1432	1424	1426	1433	1442	1442	1438	1447	1453	1469	1460	1462	1462	1472	1480	1489	1486	1477	1477	1477	1477	1472	1479	1472	1457	1458	1457	0	0	0	0	0	0	0	0	0	0	0	0	0	0	0	0	0	0	0	0	0	0	0	0	0	0	0	0	0	0	0	0	0	0	0	0	0	0	0	0	0	0	0	0	0	0	0	0	0	0	1470	1380	1358	1373	1375	1375	1373	1378	1382	1387	1390	1395	1402	1405	1394	1388	1382	1378	1383	1398	1389	1378	1375	1377	1382	1379	1370	1370	1366	1360	1356	1360	1365	1368	1380	1390	1392	1386	1381	1371	1365	1361	1365	1378	1401	1415	1420	1408	1412	1419	1430	1443	1441	1454	1465	1469	1477	1498	1513	1513	1496	1471	1468	1481	1504	0	0	0	0	0	0	0	0	0	0	0	0	0	0	0	0	1671	1667	1668	1676	0	0	0	0	0	0	0	0	0	0	1628	1632	0	0	1652	1643	1643	1660	1662	1628	1528	1482	1449	1418	1419	1426	1434	1428	1417	1410	1414	1408	1403	1404	1408	1415	1409	1400	1401	1399	1402	1398	1390	1390	1387	1383	1387	1400	1405	1413	1407	1399	1397	1402	1410	1410	1403	1393	1390	1396	1400	1402	1424	1428	1426	1431	1422	1432	1459	1494	0	0	0	0	0	0	0	0	0	0	0	0	0	0	0	0	0	0	0	0	0	0	1709	1674	0	0	0	0	0	0	0	0	0	0	0	0	0	0	0	0	0	0	0	0	0	0	0	0	0	0	0	0	0	1757	1738	1736	1753	1787	1796	1808	0	0	0	0	0	0	0	0	0	0	0	0	0	0	0	0	1798	1784	1773	1766	1748	1719	1720	1718	1708	0	0	0	1435	1405	1416	1406	1400	1391	1393	1391	1385	1386	1383	1387	1395	1388	1381	1388	1401	1420	1430	1430	1423	1412	1402	1396	1395	1396	1410	1409	1421	1422	1413	1402	1391	1393	1395	1392	1389	1406	1418	1421	1426	1424	1421	1415	1411	1390	1384	1401	1418	1412	1411	1461	1582	1692	1721	1745	1752	1758	0	0	0	0	0	1755	1763	0	0	0	0	0	0	0	0	0	0	0	0	1740	1744	1738	1737	1726	0	0	0	0	0	0	0	0	0	0	0	0	0	0	0	0	0	0	0	0	0	0	0	0	0	0	0	0	0	0	0	0	0	0	0	0	0	0	0	0	0	0	0	0	0	0	0	0	0	0	0	0	0	0	0	0	0	0	0	0	0	0	1459	1467	1465	1456	1426	1405	1402	1405	1410	1409	1410	1384	1376	1376	1373	1379	1382	1388	1385	1383	1385	1393	1399	1402	1388	1373	1364	1372	1384	1403	1417	1424	1412	1398	1394	1393	1399	1406	1401	1394	1377	1379	1379	1373	1373	1393	1410	1424	1444	1455	0	0	0	0	0	0	0	0	0	0	0	0	0	0	0	0	0	0	0	0	1513	1483	1463	1444	1428	1417	1403	1373	1392	1397	1427	1436	1441	1440	1456	1458	1450	1427	1412	1415	1424	1435	1441	1438	1421	1425	1429	1427	1436	1434	1433	1428	1431	1429	1428	1425	1422	1417	1417	1426	1443	1442	1431	1432	1423	1423	1425	1428	1429	1432	1436	1440	1443	1435	1402	1397	1395	1404	1406	1401	1402	1405	1413	1414	1413	1407	1407	1404	1404	1400	1401	1399	1400	1401	1394	1375	1382	1390	1397	1393	1379	1379	1373	1372	1368	1374	1385	1385	1383	0	0	0	0	0	0	0
0	0	1400	1400	1399	1402	1413	1415	1422	1422	1419	1416	1424	1433	1441	1441	1447	1454	1465	1474	1476	1481	1481	1485	1496	1492	1491	1483	1477	1477	1478	1478	1488	1485	1479	1463	1464	0	0	0	0	0	0	0	0	0	0	0	0	0	0	0	0	0	0	0	0	0	0	0	0	0	0	0	0	0	0	0	0	0	0	0	0	0	0	0	0	0	0	0	0	0	0	0	0	0	0	0	1390	1355	1353	1356	1355	1362	1373	1379	1382	1386	1392	1396	1401	1404	1405	1402	1396	1401	1410	1396	1379	1374	1374	1374	1370	1370	1370	1366	1360	1361	1361	1364	1370	1381	1388	1393	1388	1378	1371	1366	1366	1372	1392	1412	1416	1415	1414	1417	1427	1433	1436	1433	1434	1452	1468	1473	1493	1516	1523	1511	1489	1468	1466	1496	0	0	0	0	0	0	0	0	0	0	0	0	0	0	0	0	0	0	0	0	0	0	0	0	0	0	0	0	0	0	0	0	0	0	0	1613	1625	1656	1661	0	1517	1471	1441	1417	1421	1421	1418	1411	1411	1410	1411	1407	1405	1399	1403	1407	1412	1407	1403	1406	1404	1397	1392	1390	1389	1389	1390	1395	1406	1410	1415	1399	1393	1394	1395	1394	1391	1401	1407	1414	1415	1432	1439	1422	1419	1420	1442	1452	1488	1514	0	0	0	0	0	0	0	0	0	0	0	0	0	0	0	0	0	0	0	0	0	0	0	0	0	0	0	0	0	0	0	0	0	0	0	0	0	0	0	0	0	0	0	0	0	0	0	0	0	0	0	0	1792	1781	1771	1766	1790	1798	1810	1799	1788	1758	1749	1746	1774	0	0	0	0	0	0	0	0	0	1800	1811	1813	1801	1781	1765	1749	1738	1733	1725	1709	0	0	0	1473	1404	1406	1400	1390	1384	1387	1391	1395	1399	1399	1396	1401	1403	1401	1400	1410	1422	1434	1427	1413	1399	1395	1395	1394	1395	1406	1416	1434	1433	1415	1400	1394	1396	1401	1391	1385	1384	1400	1404	1409	1416	1416	1411	1405	1394	1391	1403	1411	1414	1419	1462	1522	1691	1731	1758	1761	1768	1789	0	0	0	1772	1762	1772	1781	0	0	0	0	0	0	0	0	0	0	0	1744	1744	1741	1727	1714	1713	1723	0	0	0	0	0	0	0	0	0	0	0	0	0	0	0	0	0	0	0	0	0	0	0	0	0	0	0	0	0	0	0	0	0	0	0	0	0	0	0	0	0	0	0	0	0	0	0	0	0	0	0	0	0	0	0	0	0	0	0	0	1446	1449	1454	1454	1427	1401	1390	1405	1406	1415	1408	1396	1388	1380	1379	1379	1386	1390	1388	1385	1385	1391	1393	1390	1376	1350	1359	1369	1383	1400	1411	1421	1419	1412	1406	1407	1416	1413	1399	1392	1383	1381	1383	1383	1384	1392	1408	1422	1448	1444	0	0	0	0	0	0	0	0	0	0	0	0	0	0	0	0	0	0	0	0	1510	1510	1480	1452	1450	1433	1408	1382	1392	1424	1442	1444	1441	1439	1446	1466	1475	1458	1443	1434	1433	1438	1434	1426	1418	1415	1427	1440	1443	1436	1423	1419	1422	1433	1435	1434	1418	1414	1418	1434	1457	1455	1445	1438	1424	1422	1424	1422	1418	1420	1426	1433	1433	1428	1402	1393	1403	1415	1412	1411	1402	1403	1408	1415	1415	1405	1405	1395	1392	1393	1398	1405	1409	1406	1402	1385	1383	1389	1391	1392	1389	1389	1388	1378	1366	1367	1367	1382	1387	0	0	0	0	0	0	0
0	0	1392	1392	1398	1412	1415	1415	1422	1405	1408	1414	1431	1439	1442	1442	1446	1455	1462	1476	1488	1497	1497	1493	1496	1495	1497	1487	1468	1464	1467	1467	1480	1493	1489	1479	1466	0	0	0	0	0	0	0	0	0	0	0	0	0	0	0	0	0	0	0	0	0	0	0	0	0	0	0	0	0	0	0	0	0	0	0	0	0	0	0	0	0	0	0	0	0	0	0	0	0	0	0	1383	1353	1362	1359	1357	1357	1370	1383	1384	1382	1366	1368	1386	1404	1413	1411	1417	1422	1421	1413	1396	1384	1378	1372	1368	1367	1371	1364	1366	1359	1358	1357	1367	1384	1397	1397	1400	1392	1386	1389	1395	1402	1405	1420	1422	1414	1437	1454	1455	1451	1438	1425	1423	1430	1451	1462	1487	1492	1506	1502	1494	1473	1470	1506	0	0	0	0	0	0	0	0	0	0	0	0	0	0	0	0	0	0	0	0	0	0	0	0	0	0	0	0	0	0	0	0	0	0	0	0	0	0	0	0	0	1467	1432	1424	1432	1409	1404	1405	1403	1408	1414	1413	1409	1410	1409	1410	1417	1414	1408	1407	1402	1398	1400	1403	1402	1399	1398	1402	1408	1421	1415	1406	1396	1387	1387	1388	1390	1392	1407	1425	1435	1452	1446	1427	1419	1425	1451	1461	1475	0	0	0	0	0	0	0	0	0	0	0	0	0	0	0	0	0	0	0	0	0	0	0	0	0	0	0	0	0	0	0	0	0	0	0	0	0	0	0	0	0	0	0	1773	1777	1766	1751	0	0	0	0	0	1823	1816	1807	1805	1808	1819	1820	1810	1785	1757	1739	1719	1728	1736	1745	1757	1788	1811	1810	1794	0	1788	1789	1791	1800	1817	1810	1788	1762	1752	1740	1744	1736	1723	0	0	0	1494	1401	1394	1393	1384	1380	1390	1399	1401	1402	1410	1410	1414	1412	1407	1402	1409	1418	1420	1414	1402	1396	1391	1393	1395	1403	1397	1407	1430	1425	1416	1405	1399	1402	1405	1399	1391	1388	1389	1390	1393	1396	1399	1398	1391	1396	1400	1403	1406	1405	1411	1429	1496	1662	1703	1750	1760	1780	1797	1819	1821	1808	1794	1780	1786	1793	1793	0	0	0	0	0	0	0	0	0	0	1752	0	0	1742	1721	1701	1710	1728	0	0	0	0	0	0	0	0	0	0	0	0	0	0	0	0	0	0	0	0	0	0	0	0	0	0	0	0	0	0	0	0	0	0	0	0	0	0	0	0	0	0	0	0	0	0	0	0	0	0	0	0	0	0	0	0	0	0	0	1446	1446	1435	1443	1419	1400	1390	1395	1404	1410	1406	1396	1390	1383	1381	1381	1369	1381	1383	1387	1387	1386	1388	1383	1371	1358	1355	1369	1381	1393	1402	1412	1414	1420	1423	1426	1432	1428	1420	1402	1388	1389	1391	1399	1394	1405	1406	1425	1439	1438	0	0	0	0	0	0	0	0	0	0	0	0	0	0	0	0	0	0	0	0	1505	1518	1497	1480	1463	1450	1415	1399	1414	1424	1433	1438	1444	1459	1462	1462	1454	1448	1425	1408	1404	1413	1420	1418	1403	1396	1398	1417	1430	1429	1415	1396	1399	1413	1423	1400	1401	1416	1427	1447	1451	1454	1447	1435	1431	1424	1421	1411	1404	1406	1414	1416	1418	1417	1404	1401	1409	1418	1418	1414	1404	1405	1408	1412	1415	1407	1407	1394	1389	1390	1402	1410	1410	1408	1399	1386	1383	1385	1389	1397	1398	1398	1392	1385	1372	1366	1372	1392	1393	0	0	0	0	0	0	0
0	0	1397	1397	1398	1413	1412	1405	1405	1385	1397	1410	1430	1437	1445	1445	1447	1447	1455	1461	1470	1482	1485	1485	1479	1488	1487	1485	1468	1453	1460	1460	1473	1494	1497	1487	1473	0	0	0	0	0	0	0	0	0	0	0	0	0	0	0	0	0	0	0	0	0	0	0	0	0	0	0	0	0	0	0	0	0	0	0	0	0	0	0	0	0	0	0	0	0	0	0	0	0	0	0	1384	1367	1406	1396	1377	1368	1369	1375	1368	1357	1352	1360	1375	1394	1408	1406	1411	1415	1413	1387	1379	1377	1374	1369	1374	1370	1370	1372	1370	1370	1372	1372	1382	1389	1390	1394	1397	1395	1390	1394	1399	1405	1404	1407	1422	1422	1454	1471	1465	1451	1436	1418	1419	1432	1467	1473	1466	1455	1462	1487	1506	1482	1478	1520	0	0	0	0	0	0	0	0	0	0	0	0	0	0	0	0	0	0	0	0	0	0	0	0	0	0	0	0	0	0	0	0	0	0	0	0	0	0	0	0	0	1463	1432	1431	1425	1417	1411	1414	1414	1416	1410	1415	1420	1423	1420	1420	1417	1415	1414	1412	1400	1400	1407	1412	1413	1408	1407	1412	1418	1419	1419	1411	1400	1398	1392	1390	1394	1393	1410	1424	1440	1451	1447	1432	1421	1426	1439	1446	1451	0	0	0	0	0	0	0	0	0	0	0	0	0	0	0	0	0	0	0	0	0	0	0	0	0	0	0	0	0	0	0	0	0	0	0	0	0	0	0	0	0	0	0	1784	1787	1787	1765	0	0	0	0	0	0	0	1824	1828	1827	2051	2048	1804	1765	1746	1725	1726	1739	1738	1744	1761	1805	1829	2037	1818	1795	1788	1781	1783	1782	1782	1788	1771	1753	1752	1750	1752	1748	1728	0	0	0	1485	1406	1389	1390	1386	1383	1405	1413	1413	1407	1408	1415	1418	1417	1411	1403	1405	1405	1404	1402	1399	1395	1385	1386	1391	1392	1390	1399	1418	1413	1410	1408	1408	1408	1406	1387	1391	1392	1391	1385	1383	1384	1386	1393	1394	1397	1402	1403	1396	1385	1397	1429	1494	1657	1697	1723	1741	1772	1789	1814	1813	1797	1803	1790	1795	1793	1806	0	0	0	0	0	0	0	0	0	0	0	0	0	0	0	0	1707	0	0	0	0	0	0	0	0	0	0	0	0	0	0	0	0	0	0	0	0	0	0	0	0	0	0	0	0	0	0	0	0	0	0	0	0	0	0	0	0	0	0	0	0	0	0	0	0	0	0	0	0	0	0	0	0	0	0	0	0	1465	1441	1416	1422	1412	1399	1392	1394	1392	1399	1406	1403	1400	1389	1382	1375	1361	1363	1378	1388	1393	1392	1388	1379	1384	1380	1377	1384	1384	1390	1394	1403	1409	1422	1432	1439	1446	1439	1425	1414	1399	1402	1406	1415	1423	1418	1431	1427	1429	1430	0	0	0	0	0	0	0	0	0	0	0	0	0	0	0	0	0	0	0	0	0	0	1466	1447	1435	1435	1422	1430	1437	1443	1443	1438	1434	1425	1429	1439	1449	1454	1444	1420	1404	1419	1424	1424	1416	1408	1410	1417	1422	1426	1417	1407	1401	1409	1407	1392	1402	1420	1439	1447	1446	1440	1439	1429	1423	1421	1419	1407	1395	1396	1400	1398	1407	1410	1406	1405	1410	1415	1418	1417	1407	1405	1405	1408	1410	1410	1402	1392	1389	1391	1397	1408	1409	1399	1388	1382	1380	1384	1392	1396	1403	1403	1403	1393	1372	1372	1381	1383	1387	0	0	0	0	0	0	0
0	0	1387	1387	1396	1406	1409	1395	1385	1384	1386	1410	1424	1435	1436	1436	1443	1443	1436	1438	1444	1451	1461	1461	1473	1479	1477	1469	1461	1455	1458	1458	1468	1488	1487	1487	1480	0	0	0	0	0	0	0	0	0	0	0	0	0	0	0	0	0	0	0	0	0	0	0	0	0	0	0	0	0	0	0	0	0	0	0	0	0	0	0	0	0	0	0	0	0	0	0	0	0	0	0	0	1408	1419	1405	1384	1374	1371	1370	1366	1359	1355	1361	1371	1387	1396	1400	1407	1398	1395	1383	1375	1370	1369	1373	1374	1378	1384	1381	1382	1377	1380	1383	1388	1389	1390	1388	1390	1390	1385	1391	1395	1399	1398	1400	1420	1444	1466	1472	1467	1452	1431	1413	1414	1451	1481	1479	1461	1453	1462	1484	1510	1519	1520	0	0	0	0	0	0	0	0	0	0	0	0	0	0	0	0	0	0	0	0	0	0	0	0	0	0	0	0	0	0	0	0	0	0	0	0	0	0	0	0	0	0	1459	1448	1452	1451	1440	1427	1420	1419	1411	1405	1413	1425	1432	1426	1424	1415	1423	1426	1420	1411	1402	1410	1417	1419	1416	1417	1414	1414	1416	1414	1412	1408	1406	1401	1394	1394	1398	1401	1421	1430	1437	1431	1422	1415	1419	1420	1423	1433	0	0	0	0	0	0	0	0	0	0	0	0	0	0	0	0	0	0	0	0	0	0	0	0	0	0	0	0	0	0	0	0	0	0	0	0	0	0	0	0	0	0	0	0	1811	1800	0	0	0	0	0	0	0	0	0	0	0	0	0	0	1800	1769	1761	1755	1769	1767	1782	1800	0	0	0	1829	1795	1772	1763	1756	1734	1736	1728	1724	1739	1750	1748	1751	1744	0	0	0	0	1460	1404	1402	1401	1393	1392	1415	1428	1417	1404	1404	1412	1416	1415	1412	1402	1402	1396	1391	1391	1396	1394	1392	1391	1394	1396	1398	1399	1397	1396	1392	1395	1408	1406	1391	1381	1381	1391	1394	1388	1383	1382	1385	1387	1396	1398	1403	1404	1387	1377	1395	1451	1523	1636	1686	1711	1731	1751	1779	1801	1791	1789	0	0	1802	1795	0	0	0	0	0	0	0	0	0	0	0	0	0	0	0	0	0	0	0	0	0	0	0	0	0	0	0	0	0	0	0	0	0	0	0	0	0	0	0	0	0	0	0	0	0	0	0	0	0	0	0	0	0	0	0	0	0	0	0	0	0	0	0	0	0	0	0	0	0	0	0	0	0	0	0	0	0	0	1463	1434	1409	1397	1399	1400	1397	1389	1388	1395	1397	1405	1397	1390	1380	1372	1358	1355	1377	1396	1394	1397	1389	1388	1401	1405	1401	1394	1389	1385	1388	1400	1411	1420	1436	1443	1444	1440	1425	1416	1406	1403	1406	1421	1432	1429	1436	1436	1426	1422	0	0	0	0	0	0	0	0	0	0	0	0	0	0	0	0	0	0	0	0	0	0	0	1409	1407	1415	1439	1437	1435	1431	1436	1437	1438	1428	1430	1442	1444	1438	1429	1412	1409	1418	1426	1428	1424	1408	1405	1414	1422	1426	1423	1425	1420	1420	1420	1426	1438	1451	1458	1456	1444	1434	1434	1427	1415	1417	1418	1405	1400	1394	1391	1392	1397	1404	1406	1405	1406	1413	1418	1417	1407	1402	1398	1400	1403	1403	1401	1397	1393	1392	1398	1404	1399	1390	1387	1386	1388	1389	1393	1397	1399	1399	1398	1394	1389	1382	1381	1372	1368	0	0	0	0	0	0	0
0	0	1384	1384	1386	1403	1394	1385	1381	1381	1394	1416	1428	1431	1435	1438	1438	1437	1430	1424	1429	1433	1438	1438	1464	1471	1469	1454	1447	1448	1445	1445	1470	1483	1485	1490	1493	0	0	0	0	0	0	0	0	0	0	0	0	0	0	0	0	0	0	0	0	0	0	0	0	0	0	0	0	0	0	0	0	0	0	0	0	0	0	0	0	0	0	0	0	0	0	0	0	0	0	0	1392	1409	1418	1411	1394	1387	1380	1379	1373	1371	1368	1368	1370	1378	1388	1388	1388	1389	1384	1377	1374	1370	1367	1372	1377	1383	1387	1389	1384	1381	1385	1387	1389	1387	1382	1379	1377	1378	1379	1383	1383	1386	1389	1395	1414	1442	1459	1463	1458	1444	1433	1422	1436	1472	1478	1477	1459	1456	1471	1496	1523	1522	0	0	0	0	0	0	0	0	0	0	0	0	0	0	0	0	0	0	0	0	0	0	0	0	0	0	0	0	0	0	0	0	0	0	0	0	0	0	0	0	0	0	0	1439	1459	1475	1471	1440	1422	1414	1410	1398	1395	1403	1415	1424	1427	1426	1426	1434	1434	1432	1423	1410	1408	1422	1419	1423	1414	1414	1413	1411	1410	1410	1408	1408	1406	1406	1400	1397	1400	1408	1417	1422	1412	1402	1407	1406	1398	1427	1447	0	0	0	0	0	0	0	0	0	0	0	0	0	0	0	0	0	0	0	0	0	0	0	0	0	0	0	0	0	0	0	0	0	0	0	0	0	0	0	0	0	0	0	0	0	0	0	0	0	0	0	0	0	0	0	0	0	0	0	0	0	0	0	1786	1797	1809	1816	0	0	0	0	0	0	1774	1754	1734	1722	1707	1698	1732	1748	1746	1753	1750	0	0	0	0	0	1429	1408	1413	1412	1405	1400	1413	1427	1422	1409	1396	1400	1403	1405	1399	1404	1405	1391	1388	1391	1391	1393	1396	1396	1396	1400	1400	1400	1395	1386	1385	1386	1386	1384	1378	1381	1398	1403	1407	1408	1392	1389	1392	1397	1402	1401	1406	1409	1393	1386	1414	1454	1529	1643	1686	1710	1736	1748	1767	1777	1778	1776	0	0	0	0	0	0	0	0	0	0	0	0	0	0	0	0	0	0	0	0	0	0	0	0	0	0	0	0	0	0	0	0	0	0	0	0	0	0	0	0	0	0	0	0	0	0	0	0	0	0	0	0	0	0	0	0	0	0	0	0	0	0	0	0	0	0	0	0	0	0	0	0	0	0	0	0	0	0	0	0	0	0	1442	1453	1407	1379	1397	1400	1396	1394	1389	1392	1402	1399	1391	1387	1375	1370	1358	1362	1378	1395	1404	1406	1398	1403	1413	1422	1414	1400	1386	1386	1388	1399	1409	1418	1433	1443	1443	1431	1418	1414	1411	1407	1410	1421	1416	1420	1424	1434	1427	1417	0	0	0	0	0	0	0	0	0	0	0	0	0	0	0	0	0	0	0	0	0	0	0	1385	1392	1423	1453	1449	1434	1424	1430	1439	1448	1439	1443	1440	1439	1426	1413	1402	1411	1415	1421	1419	1416	1395	1385	1387	1401	1421	1424	1425	1421	1412	1399	1413	1432	1467	1478	1474	1452	1439	1431	1428	1417	1417	1421	1425	1415	1405	1399	1397	1393	1404	1407	1407	1405	1410	1419	1417	1409	1391	1393	1392	1398	1398	1401	1403	1396	1394	1392	1391	1398	1397	1393	1393	1392	1387	1387	1393	1389	1389	1393	1391	1393	1388	1382	1368	1352	0	0	0	0	0	0	0
0	0	1385	1385	1387	1397	1390	1384	1394	1394	1405	1416	1428	1425	1432	1425	1425	1429	1427	1430	1426	1428	1439	1439	1448	1470	1463	1458	1442	1434	1441	1441	1461	1475	1481	1495	1506	0	0	0	0	0	0	0	0	0	0	0	0	1435	1449	1467	0	0	0	0	0	0	0	0	0	0	0	0	0	0	0	0	0	0	0	0	0	0	0	0	0	0	0	0	0	0	0	0	0	0	0	0	1375	1398	1416	1420	1407	1401	1401	1389	1385	1391	1392	1383	1379	1378	1380	1386	1381	1368	1373	1376	1375	1376	1375	1377	1380	1375	1377	1389	1384	1381	1378	1380	1386	1382	1381	1377	1369	1362	1370	1376	1378	1381	1385	1389	1394	1429	1441	1445	1447	1441	1437	1433	1459	1468	1471	1463	1463	1463	1486	1512	1522	1508	0	0	0	0	0	0	0	0	0	0	0	0	0	0	0	0	0	0	0	0	0	0	0	0	0	0	0	0	0	0	0	0	0	0	0	0	0	0	0	0	0	0	0	1439	1467	1483	1479	1453	1428	1409	1400	1388	1386	1392	1402	1415	1423	1427	1439	1441	1439	1430	1425	1419	1414	1414	1418	1415	1415	1410	1410	1409	1407	1402	1401	1406	1407	1402	1404	1393	1391	1400	1408	1414	1405	1397	1392	1402	1389	1432	1495	0	0	0	0	0	0	0	0	0	0	0	0	0	0	0	0	0	0	0	0	0	0	0	0	0	0	0	0	0	0	0	0	0	0	0	0	0	0	0	0	0	0	0	0	0	0	0	0	0	0	0	0	0	0	0	0	0	0	0	0	0	0	0	0	0	0	0	0	0	0	0	0	0	1750	1740	1721	1713	1710	1705	1737	1747	1748	1754	0	0	0	0	0	0	1409	1421	1428	1419	1413	1395	1404	1416	1410	1394	1389	1389	1396	1391	1397	1405	1411	1413	1414	1413	1407	1396	1407	1404	1401	1397	1404	1405	1396	1384	1376	1375	1377	1376	1374	1386	1393	1401	1406	1404	1400	1396	1400	1402	1410	1413	1413	1409	1413	1421	1428	1437	1534	1639	1680	1711	1737	1745	1746	1754	1766	1755	1767	1778	1784	0	0	0	0	0	0	0	0	0	0	0	0	0	0	0	0	0	0	0	0	0	0	0	0	0	0	0	0	0	0	0	0	0	0	0	0	0	0	0	0	0	0	0	0	0	0	0	0	0	0	0	0	0	0	0	0	0	0	0	0	0	0	0	0	0	0	0	0	0	0	0	0	0	0	0	0	0	0	0	1417	1432	1412	1380	1394	1400	1402	1398	1392	1387	1392	1393	1385	1382	1375	1373	1369	1369	1381	1389	1404	1411	1412	1418	1424	1427	1415	1396	1391	1387	1392	1395	1406	1410	1423	1431	1430	1421	1413	1403	1407	1394	1400	1400	1399	1403	1412	1421	1420	1419	0	0	0	0	0	0	0	0	0	0	0	0	0	0	0	0	0	0	0	0	0	0	0	1395	1415	1435	1463	1454	1437	1424	1425	1434	1450	1464	1456	1443	1435	1409	1401	1401	1408	1414	1414	1411	1405	1397	1392	1392	1389	1414	1422	1428	1420	1410	1401	1397	1422	1469	1483	1480	1453	1446	1435	1433	1440	1428	1417	1418	1423	1414	1412	1412	1405	1407	1406	1406	1403	1409	1413	1415	1408	1397	1391	1388	1391	1391	1399	1401	1405	1398	1395	1396	1402	1406	1410	1403	1398	1393	1390	1380	1388	1388	1395	1391	1393	1393	1383	1374	1358	0	0	0	0	0	0	0
0	0	1390	1390	1392	1400	1404	1410	1408	1408	1414	1425	1429	1426	1421	1422	1422	1421	1416	1419	1421	1430	1445	1445	1454	1471	1478	1465	1449	1441	1438	1438	1457	1468	1484	1511	1517	0	0	0	0	0	0	1439	1464	0	0	0	1449	1436	1449	1465	1490	0	0	0	0	0	0	0	0	0	0	0	0	0	0	0	0	0	0	0	0	0	0	0	0	0	0	0	0	0	0	0	0	0	0	0	1356	1396	1416	1420	1417	1412	1410	1402	1398	1400	1403	1398	1390	1391	1396	1390	1379	1364	1366	1373	1382	1382	1385	1383	1378	1367	1368	1376	1382	1378	1374	1379	1386	1386	1382	1381	1369	1367	1368	1373	1381	1385	1388	1386	1388	1421	1435	1429	1430	1424	1427	1435	1466	1471	1467	1460	1459	1461	1482	1499	1508	1500	1494	0	0	0	0	0	0	0	0	0	0	0	0	0	0	0	0	0	0	0	0	0	0	0	0	0	0	0	0	0	0	0	0	0	0	0	0	0	0	0	0	0	0	1449	1468	1476	1468	1446	1430	1410	1398	1390	1385	1390	1403	1409	1421	1427	1438	1436	1431	1424	1415	1404	1398	1399	1407	1411	1409	1410	1409	1412	1402	1396	1394	1394	1396	1400	1399	1396	1392	1395	1400	1407	1404	1399	1399	1405	1385	1445	1529	0	0	0	0	0	0	0	0	0	0	0	0	0	0	0	0	0	0	0	0	0	0	0	0	0	0	0	0	0	0	0	0	0	0	0	0	0	0	0	0	0	0	0	0	0	0	0	1760	1768	0	0	0	0	0	0	0	0	0	0	0	0	0	0	0	0	1813	1813	0	0	0	0	0	1739	1739	1730	1722	1728	1740	1742	1738	1748	1756	1761	0	0	0	0	0	0	1407	1423	1440	1419	1413	1397	1402	1401	1398	1393	1390	1388	1390	1386	1388	1401	1405	1409	1413	1415	1411	1399	1399	1408	1395	1399	1400	1403	1393	1384	1379	1380	1382	1381	1374	1371	1382	1393	1402	1401	1396	1399	1400	1408	1420	1421	1417	1417	1425	1426	1431	1430	1527	1639	1672	1709	1739	1752	1743	1749	1753	1756	1758	1758	1745	1738	0	0	0	0	0	0	0	0	0	0	0	0	0	0	0	0	0	0	0	0	0	0	0	0	0	0	0	0	0	0	0	0	0	0	0	0	0	0	0	0	0	0	0	0	0	0	0	0	0	0	0	0	0	0	0	0	0	0	0	0	0	0	0	0	0	0	0	0	0	0	0	0	0	0	0	0	0	0	1398	1416	1415	1393	1403	1405	1404	1398	1391	1383	1384	1382	1384	1388	1384	1387	1385	1383	1386	1395	1402	1411	1412	1416	1423	1424	1413	1408	1403	1400	1399	1400	1400	1406	1405	1407	1411	1416	1409	1399	1393	1388	1385	1390	1385	1384	1388	1407	1416	1434	0	0	0	0	0	0	0	0	0	0	0	0	0	0	0	0	0	0	0	0	0	0	0	0	1445	1457	1460	1455	1442	1425	1416	1423	1448	1464	1469	1455	1428	1408	1407	1413	1415	1416	1409	1404	1402	1406	1401	1399	1400	1409	1418	1429	1424	1412	1407	1404	1420	1459	1482	1479	1466	1446	1432	1431	1433	1417	1408	1411	1415	1413	1411	1419	1407	1404	1403	1398	1404	1411	1413	1412	1409	1403	1391	1388	1385	1385	1392	1398	1396	1408	1404	1407	1415	1417	1419	1414	1405	1397	1395	1399	1399	1402	1394	1392	1390	1390	1397	1401	1400	0	0	0	0	0	0	0
0	0	1390	1390	1397	1408	1410	1423	1424	1424	1423	1423	1422	1419	1421	1420	1420	1428	1418	1420	1422	1430	1446	1446	1462	1471	1481	1480	1464	1449	1445	1454	1454	1472	1483	1511	1520	0	0	0	1441	1441	1430	1425	1454	0	0	0	1461	1445	1447	1463	1477	1495	1495	0	0	0	0	0	0	0	0	0	0	0	0	0	0	0	0	0	0	0	0	0	0	0	0	0	0	0	0	0	0	0	0	0	0	1400	1418	1424	1415	1415	1411	1403	1394	1400	1406	1407	1405	1408	1416	1407	1385	1362	1373	1378	1385	1392	1387	1380	1372	1359	1365	1376	1381	1379	1374	1379	1386	1390	1390	1387	1373	1369	1373	1376	1379	1384	1377	1382	1392	1433	1434	1424	1412	1399	1402	1427	1462	1465	1457	1451	1452	1451	1457	1470	1480	1479	0	0	0	0	0	0	0	0	0	0	0	0	0	0	0	0	0	0	0	0	0	0	0	0	0	0	0	0	0	0	0	0	0	0	0	0	0	0	0	0	0	0	0	1460	1469	1463	1440	1426	1414	1404	1393	1395	1392	1406	1412	1418	1426	1431	1438	1425	1416	1410	1403	1392	1386	1388	1400	1406	1405	1409	1415	1414	1401	1383	1383	1382	1393	1397	1401	1399	1397	1397	1399	1402	1405	1409	1422	1414	1394	1434	1501	1525	0	0	0	0	0	0	0	0	0	0	0	0	0	0	0	0	0	0	0	0	0	0	0	0	0	0	0	0	0	0	0	0	0	0	0	0	0	0	0	0	0	0	0	0	1800	1779	1773	1764	0	0	0	0	0	0	0	0	0	0	0	0	0	0	0	0	1799	1789	1799	0	0	1769	1749	1739	1751	1760	1753	1757	1766	1765	1762	1758	1763	1771	0	0	0	0	0	0	1409	1417	1438	1422	1410	1402	1399	1399	1401	1396	1391	1385	1388	1379	1377	1380	1388	1407	1411	1419	1415	1402	1404	1408	1411	1409	1399	1397	1388	1386	1386	1383	1388	1385	1386	1381	1383	1383	1385	1385	1395	1399	1398	1412	1420	1425	1420	1411	1422	1421	1418	1417	1513	1640	1691	1732	1760	1771	1757	1761	1761	1755	1745	1746	1732	1728	1723	0	0	0	0	0	0	0	0	0	0	0	0	0	0	0	0	0	0	0	0	0	0	0	0	0	0	0	0	0	0	0	0	0	0	0	0	0	0	0	0	0	0	0	0	0	0	0	0	0	0	0	0	0	0	0	0	0	0	0	0	0	0	0	0	0	0	0	0	0	0	0	0	0	0	0	0	0	1389	1407	1419	1412	1410	1413	1406	1398	1391	1380	1381	1384	1391	1397	1407	1406	1404	1404	1398	1400	1404	1402	1403	1405	1421	1422	1417	1417	1419	1416	1408	1401	1399	1397	1395	1394	1395	1402	1411	1417	1401	1385	1378	1374	1380	1377	1388	1400	1414	1435	0	0	0	0	0	0	0	0	0	0	0	0	0	0	0	0	0	0	0	0	0	0	0	0	1466	1463	1451	1441	1434	1422	1420	1425	1437	1454	1460	1450	1432	1414	1415	1421	1432	1419	1410	1402	1407	1415	1420	1416	1417	1425	1435	1435	1432	1426	1420	1418	1416	1454	1482	1486	1472	1451	1431	1424	1411	1396	1400	1403	1409	1401	1401	1399	1397	1399	1395	1393	1412	1409	1410	1413	1412	1406	1396	1389	1389	1387	1393	1398	1405	1416	1416	1419	1421	1423	1422	1418	1413	1409	1400	1405	1405	1404	1395	1391	1390	1398	1405	1420	1433	0	0	0	0	0	0	0
0	0	1399	1400	1400	1415	1424	1438	1431	1426	1426	1423	1419	1414	1412	1426	1426	1440	1443	1441	1436	1445	1452	1452	1465	1474	1484	1476	1467	1453	1447	1455	1455	1464	1483	1495	1505	0	0	0	1449	1442	1442	1434	1453	1485	0	0	0	1458	1464	1464	1472	0	0	0	0	0	0	0	0	0	0	0	0	0	0	0	0	0	0	0	0	0	0	0	0	0	0	0	0	0	0	0	0	0	0	0	0	1415	1425	1414	1406	1407	1408	1402	1393	1393	1399	1403	1413	1420	1419	1412	1394	1382	1378	1380	1388	1396	1393	1384	1373	1364	1371	1386	1387	1385	1380	1385	1387	1388	1393	1397	1384	1375	1372	1371	1375	1377	1377	1377	1396	1439	1435	1418	1399	1386	1386	1405	1433	1443	1447	1441	1436	1429	1434	1448	1460	1476	1476	0	0	0	0	0	0	0	0	0	0	0	0	0	0	0	0	0	0	0	0	0	0	0	0	0	0	0	0	0	0	0	0	0	0	0	0	0	0	0	0	0	0	0	1462	1434	1420	1413	1404	1395	1394	1392	1403	1415	1420	1420	1425	1422	1427	1414	1405	1397	1390	1385	1385	1388	1396	1403	1405	1411	1413	1412	1396	1380	1373	1380	1392	1396	1401	1405	1402	1400	1406	1410	1418	1424	1432	1427	1406	1428	1463	1462	0	0	0	0	0	0	0	0	0	0	0	0	0	0	0	0	0	0	0	0	0	0	0	0	0	0	0	0	0	0	0	0	0	0	0	0	0	0	0	0	0	0	1797	1806	1785	1782	1785	1786	0	0	0	0	1776	0	0	0	0	0	0	1776	1776	1784	1799	1797	1787	1777	1775	1787	1793	1782	1762	1762	1774	1784	1784	1778	1785	1788	1783	1779	1776	1788	1793	1794	0	0	0	0	1418	1406	1434	1425	1417	1412	1408	1400	1403	1403	1395	1391	1379	1377	1374	1365	1372	1395	1407	1412	1413	1415	1416	1418	1419	1417	1410	1403	1399	1396	1398	1401	1392	1390	1381	1383	1378	1383	1382	1383	1390	1398	1402	1407	1418	1420	1416	1408	1404	1414	1417	1412	1499	1656	1700	1744	0	0	1780	1772	1771	1753	1741	1733	1731	1733	1737	0	0	0	0	0	0	0	0	0	0	0	0	0	0	0	0	0	0	0	0	0	0	0	0	0	0	0	0	0	0	0	0	0	0	0	0	0	0	0	0	0	0	0	0	0	0	0	0	0	0	0	0	0	0	0	0	0	0	0	0	0	0	0	0	0	0	0	0	0	0	0	0	0	0	0	0	0	1377	1397	1431	1430	1418	1416	1412	1406	1402	1392	1391	1389	1395	1409	1420	1420	1418	1413	1409	1406	1399	1387	1388	1391	1396	1412	1428	1426	1420	1410	1403	1396	1392	1388	1384	1380	1374	1377	1391	1406	1402	1396	1381	1379	1385	1388	1394	1411	1409	1433	0	0	0	0	0	0	0	0	0	0	0	0	0	0	0	0	0	0	0	0	0	0	0	0	1484	1455	1442	1433	1421	1408	1416	1417	1429	1437	1446	1439	1427	1413	1412	1425	1442	1434	1416	1416	1423	1427	1436	1443	1448	1440	1431	1441	1446	1440	1433	1431	1419	1448	1490	1497	1487	1454	1431	1413	1394	1386	1396	1400	1405	1407	1397	1394	1399	1400	1393	1391	1390	1392	1394	1406	1417	1409	1398	1388	1388	1385	1384	1391	1407	1414	1418	1420	1425	1421	1419	1416	1412	1415	1405	1395	1395	1399	1396	1393	1394	1399	1409	1417	1449	0	0	0	0	0	0	0
0	0	1402	1407	1407	1422	1431	1443	1433	1425	1425	1412	1407	1414	1426	1439	1439	1457	1467	1455	1459	1460	1457	1458	1458	1470	1480	1482	1466	1450	1446	1455	1455	1466	1468	1474	1482	0	0	0	0	1464	1464	1466	1478	0	0	0	0	0	0	0	0	0	0	0	0	0	0	0	0	0	0	0	0	0	0	0	0	0	0	0	0	0	0	0	0	0	0	0	0	0	0	0	0	0	0	0	0	1420	1423	1404	1397	1402	1405	1406	1396	1400	1400	1406	1406	1409	1415	1411	1404	1392	1389	1385	1388	1393	1396	1385	1379	1377	1386	1398	1400	1395	1391	1389	1386	1384	1385	1394	1392	1381	1372	1371	1368	1377	1380	1379	1388	1431	1436	1421	1398	1383	1379	1379	1405	1433	1445	1446	1428	1414	1422	1441	1461	1470	1482	0	0	0	0	0	0	0	0	0	0	0	0	0	0	0	0	0	0	0	0	0	0	0	0	0	0	0	0	0	0	0	0	0	0	0	0	0	0	0	0	0	0	0	1461	1424	1407	1405	1405	1402	1397	1402	1408	1413	1420	1420	1423	1418	1415	1406	1403	1395	1381	1384	1388	1397	1402	1403	1405	1406	1405	1402	1394	1381	1363	1373	1383	1406	1411	1409	1405	1406	1410	1414	1423	1435	1431	1429	1417	1424	1451	1441	0	0	0	0	0	0	0	0	0	0	0	0	0	0	0	0	0	0	0	0	0	0	0	0	0	0	0	0	0	0	0	0	0	0	0	0	0	0	0	0	1745	1760	1777	1787	1773	1774	1796	0	0	0	0	0	1787	1788	1778	1768	1759	1750	1752	1766	1784	1796	1807	1807	1785	1775	1764	1767	1778	1783	1793	1785	1794	1805	1804	1795	1786	1787	1784	1788	1789	1792	1780	1766	1757	0	0	0	1424	1406	1431	1430	1428	1426	1421	1406	1412	1406	1399	1392	1381	1377	1369	1361	1376	1391	1407	1415	1413	1415	1414	1421	1423	1419	1410	1411	1411	1415	1411	1403	1390	1381	1377	1374	1385	1386	1389	1392	1387	1399	1401	1401	1404	1409	1410	1408	1406	1411	1412	1423	1504	1666	1712	1738	1746	1759	1771	1783	1775	1764	1741	1738	1737	1735	1733	0	0	0	0	0	0	0	0	0	0	0	0	0	0	0	0	0	0	0	0	0	0	0	0	0	0	0	0	0	0	0	0	0	0	0	0	0	0	0	0	0	0	0	0	0	0	0	0	0	0	0	0	0	0	0	0	0	0	0	0	0	0	0	0	0	0	0	0	0	0	0	0	0	0	0	0	0	1379	1404	1451	1447	1420	1414	1411	1412	1407	1400	1395	1395	1401	1415	1425	1424	1420	1417	1405	1397	1388	1387	1383	1378	1388	1405	1419	1419	1410	1400	1395	1392	1393	1388	1378	1371	1372	1365	1374	1386	1395	1391	1390	1383	1384	1391	1404	1423	1401	1405	0	0	0	0	0	0	0	0	0	0	0	0	0	0	0	0	0	0	0	0	0	0	0	0	1496	1465	1437	1423	1410	1399	1401	1411	1420	1427	1430	1419	1405	1403	1403	1416	1437	1447	1440	1431	1429	1426	1433	1450	1445	1436	1416	1422	1432	1444	1440	1433	1419	1420	1466	1484	1484	1465	1439	1424	1406	1396	1402	1407	1414	1414	1407	1406	1409	1410	1398	1391	1385	1390	1394	1411	1421	1422	1404	1395	1395	1386	1382	1389	1397	1411	1415	1411	1412	1408	1413	1417	1415	1408	1401	1394	1394	1389	1393	1393	1405	1413	1412	1420	1429	0	0	0	0	0	0	0
0	0	1396	1405	1405	1425	1434	1434	1432	1421	1421	1422	1418	1427	1433	1448	1448	1457	1458	1461	1474	1467	1457	1448	1448	1452	1477	1481	1459	1446	1453	1472	1472	1479	1463	1464	1480	0	0	0	0	0	0	0	0	0	0	0	0	0	0	0	0	0	0	0	0	0	0	0	0	0	0	0	0	0	0	0	0	0	0	0	0	0	0	0	0	0	0	0	0	0	0	0	0	0	0	0	0	1415	1414	1396	1395	1405	1406	1407	1402	1403	1399	1397	1391	1391	1397	1402	1401	1402	1401	1396	1388	1391	1387	1385	1385	1387	1398	1408	1407	1404	1398	1393	1384	1384	1380	1388	1392	1391	1382	1369	1366	1378	1385	1384	1391	1433	1441	1432	1412	1394	1385	1390	1406	1436	1446	1449	1431	1418	1417	1447	1474	1482	1496	1490	0	0	0	0	0	0	0	0	0	0	0	0	0	0	0	0	0	0	0	0	0	0	0	0	0	0	0	0	0	0	0	0	0	0	0	0	0	0	0	0	0	0	1461	1430	1406	1408	1412	1412	1405	1394	1401	1408	1409	1412	1408	1405	1407	1410	1408	1394	1389	1387	1396	1401	1403	1402	1401	1398	1396	1396	1392	1387	1385	1387	1398	1415	1424	1423	1413	1408	1412	1417	1423	1427	1432	1439	1436	1428	1451	1444	0	0	0	0	0	0	0	0	0	0	0	0	0	0	0	0	0	0	0	0	0	0	0	0	0	0	0	0	0	0	0	0	0	0	0	0	0	0	0	0	1748	1762	1757	1778	1759	1774	1798	0	0	0	0	0	1800	1779	1769	1752	1742	1744	1756	1777	1787	1807	1818	1817	1786	1764	1754	1765	1763	1776	1780	1791	1802	1802	1800	1793	1777	1775	1769	1785	1780	1782	1762	1751	1753	0	0	0	0	1422	1435	1426	1426	1427	1428	1416	1407	1399	1396	1393	1386	1388	1381	1380	1386	1385	1393	1415	1412	1404	1400	1404	1410	1411	1405	1399	1408	1414	1412	1403	1393	1381	1380	1376	1389	1389	1394	1392	1399	1401	1400	1398	1401	1402	1407	1406	1400	1402	1404	1420	1508	1667	1710	1739	1748	1749	1759	1773	1784	1766	1742	1728	1739	1734	1740	1734	1742	0	0	0	0	0	0	0	0	0	0	0	0	0	0	0	0	0	0	0	0	0	0	0	0	0	0	0	0	0	0	0	0	0	0	0	0	0	0	0	0	0	0	0	0	0	0	0	0	0	0	0	0	0	0	0	0	0	0	0	0	0	0	0	0	0	0	0	0	0	0	0	0	0	0	0	1379	1419	1455	1463	1429	1408	1409	1412	1410	1400	1396	1398	1402	1415	1420	1415	1403	1404	1401	1401	1400	1401	1397	1388	1386	1396	1410	1411	1408	1399	1385	1384	1386	1388	1383	1371	1367	1370	1362	1374	1386	1384	1374	1370	1378	1385	1407	1414	1390	1395	0	0	0	0	0	0	0	0	0	0	0	0	0	0	0	0	0	0	0	0	0	0	0	0	1487	1464	1427	1421	1412	1407	1406	1410	1417	1422	1414	1402	1401	1397	1402	1409	1428	1439	1437	1432	1412	1412	1423	1442	1442	1431	1410	1416	1422	1428	1428	1422	1412	1381	1424	1456	1471	1475	1460	1446	1428	1428	1431	1436	1429	1427	1418	1418	1420	1422	1414	1405	1400	1396	1402	1411	1425	1431	1427	1425	1410	1399	1400	1392	1401	1407	1405	1402	1398	1400	1408	1418	1422	1411	1401	1392	1392	1390	1394	1399	1408	1412	1419	1420	1420	0	0	0	0	0	0	0
0	0	1394	1412	1412	1429	1428	1427	1431	1420	1420	1423	1433	1445	1448	1447	1448	1448	1458	1467	1477	1473	1458	1454	1454	1457	1469	1470	1452	1448	1463	1479	1479	1486	1472	1470	0	0	0	0	0	0	0	0	0	0	0	0	0	0	0	0	0	0	0	0	0	0	0	0	0	0	0	0	0	0	0	0	0	0	0	0	0	0	0	0	0	0	0	0	0	0	0	0	0	0	0	0	0	1409	1407	1404	1403	1403	1409	1397	1390	1390	1393	1384	1376	1379	1387	1393	1395	1392	1392	1391	1390	1385	1381	1378	1384	1389	1396	1404	1401	1398	1398	1395	1391	1384	1381	1383	1386	1392	1389	1379	1374	1379	1388	1388	1392	1435	1441	1430	1417	1406	1404	1403	1421	1447	1455	1443	1426	1418	1430	1460	1489	1493	1505	1498	0	0	0	0	0	0	0	0	0	0	0	0	0	0	0	0	0	0	0	0	0	0	0	0	0	0	0	0	0	0	0	0	0	0	0	0	0	0	0	0	0	0	1443	1424	1401	1406	1415	1419	1408	1387	1387	1389	1394	1397	1394	1392	1401	1411	1403	1394	1387	1390	1397	1398	1400	1399	1397	1390	1388	1391	1389	1390	1397	1404	1405	1422	1431	1430	1418	1415	1412	1417	1418	1421	1432	1443	1439	1433	1447	0	0	0	0	0	0	0	0	0	0	0	0	0	0	0	0	0	0	0	1567	1580	1606	1616	0	0	0	0	0	0	0	0	0	0	0	0	0	0	0	0	0	0	0	1761	1760	1763	1758	1773	0	0	0	0	0	0	0	1772	1752	1735	1726	1734	1755	1774	1784	1816	1826	1814	1784	1755	1747	1747	1757	1759	1771	1779	1787	1796	1799	1778	1761	1753	1755	1764	1770	1756	1727	1737	0	0	0	0	0	1443	1439	1415	1415	1427	1428	1406	1397	1396	1394	1393	1393	1395	1397	1388	1376	1367	1359	1367	1379	1392	1395	1394	1396	1398	1390	1393	1403	1408	1407	1405	1397	1425	1402	1382	1384	1392	1394	1399	1404	1407	1407	1402	1399	1400	1407	1403	1402	1399	1399	1417	1500	1659	1722	1742	1746	1741	1761	1777	1773	1773	1750	1728	1729	1715	1732	1737	1736	1755	0	1787	0	0	0	0	0	0	0	0	0	0	0	0	0	0	0	0	0	0	0	0	0	0	0	0	0	0	0	0	0	0	0	0	0	0	0	0	0	0	0	0	0	0	0	0	0	0	0	0	0	0	0	0	0	0	0	0	0	0	0	0	0	0	0	0	0	0	0	0	0	0	0	0	0	1430	1444	1457	1434	1412	1404	1401	1403	1398	1396	1397	1407	1411	1409	1403	1403	1404	1412	1407	1420	1415	1406	1391	1366	1372	1391	1402	1409	1402	1386	1379	1381	1386	1395	1387	1382	1380	1370	1378	1376	1381	1378	1365	1365	1382	1397	1403	1385	1404	1460	0	0	0	0	0	0	0	0	0	0	0	0	0	0	0	0	0	0	0	0	0	0	0	1456	1449	1424	1422	1418	1419	1426	1422	1429	1423	1415	1405	1398	1398	1400	1407	1415	1425	1428	1418	1407	1401	1409	1429	1434	1427	1424	1427	1423	1416	1416	1415	1414	1381	1401	1428	1454	1457	1449	1453	1440	1439	1439	1445	1443	1431	1424	1421	1425	1436	1434	1432	1425	1413	1405	1414	1423	1426	1434	1434	1438	1435	1427	1406	1404	1404	1399	1391	1388	1397	1411	1418	1421	1416	1398	1398	1390	1389	1398	1406	1408	1410	1408	1396	1396	0	0	0	0	0	0	0
0	0	1399	1407	1407	1425	1413	1412	1413	1415	1415	1430	1442	1460	1462	1453	1437	1437	1439	1458	1474	1475	1468	1456	1456	1459	1454	1447	1438	1445	1461	1476	1476	0	0	0	0	0	0	0	0	0	0	0	0	0	0	0	0	0	0	0	0	0	0	0	0	0	0	0	0	0	0	0	0	0	0	0	0	0	0	0	0	0	0	0	0	0	0	0	0	0	0	0	0	0	0	0	0	1417	1416	1403	1401	1401	1393	1376	1376	1377	1376	1373	1369	1373	1381	1381	1374	1376	1378	1378	1377	1374	1375	1379	1381	1385	1394	1396	1386	1385	1393	1389	1388	1387	1383	1375	1377	1388	1392	1386	1376	1369	1377	1381	1386	1418	1423	1419	1413	1411	1415	1429	1444	1457	1452	1448	1430	1428	1446	1468	1486	1511	1520	0	0	0	0	0	0	0	0	0	0	0	0	0	0	0	0	0	0	0	0	0	0	0	0	0	0	0	0	0	0	0	0	0	0	0	0	0	0	0	0	0	0	0	1431	1414	1394	1401	1408	1414	1409	1390	1382	1384	1385	1386	1380	1384	1391	1403	1394	1387	1385	1387	1390	1394	1394	1393	1393	1387	1385	1385	1384	1385	1399	1414	1419	1428	1434	1433	1424	1414	1412	1410	1412	1420	1430	1436	1436	1408	1413	0	0	0	0	0	0	0	0	0	0	0	0	1412	1427	0	0	0	0	1463	1454	1452	1414	1414	1471	1533	1577	0	0	0	0	0	0	0	0	1692	1706	1745	0	0	0	0	0	1781	1772	1762	1761	1772	1794	0	0	0	0	0	1752	1733	1714	1711	1712	1721	1742	1762	1786	1799	1826	1815	1782	1752	1745	1744	1743	1755	1759	1768	1775	1793	1796	1777	1762	1753	1755	1756	1749	1722	1702	1707	0	0	0	0	0	1439	1427	1410	1409	1419	1416	1390	1387	1392	1396	1400	1409	1409	1396	1376	1372	1357	1351	1361	1372	1381	1386	1388	1391	1391	1383	1375	1382	1401	1407	1413	1441	1437	1424	1397	1385	1391	1396	1402	1410	1412	1411	1409	1403	1401	1404	1406	1396	1398	1406	1417	1492	1655	1729	0	1751	1746	1752	1753	1762	1771	1756	1737	1729	1723	1729	1737	1741	1737	1754	1762	0	0	0	0	0	0	0	0	1610	1570	1542	0	0	0	0	0	0	0	0	0	0	0	1507	1489	1483	0	0	0	0	0	0	0	0	0	0	0	0	0	0	0	0	0	0	0	0	0	0	0	0	0	0	0	0	0	0	0	0	0	0	0	0	0	0	0	0	0	0	0	0	0	0	0	1405	1436	1436	1433	1427	1419	1411	1405	1395	1392	1401	1407	1410	1417	1408	1403	1402	1413	1414	1420	1434	1430	1407	1379	1356	1359	1372	1391	1403	1405	1392	1377	1376	1389	1401	1405	1401	1397	1394	1394	1417	1422	1393	1389	1385	1388	1388	1381	1387	1420	0	0	0	0	0	0	0	0	0	0	0	0	0	0	0	0	0	0	0	0	0	0	0	0	1431	1430	1429	1422	1424	1435	1439	1444	1437	1426	1418	1408	1402	1403	1411	1416	1411	1414	1411	1408	1402	1401	1408	1421	1432	1432	1434	1431	1425	1417	1416	1432	1433	1397	1408	1424	1437	1441	1445	1444	1436	1430	1440	1444	1443	1432	1422	1422	1423	1435	1437	1435	1428	1415	1411	1419	1427	1433	1432	1432	1435	1435	1429	1416	1403	1398	1388	1382	1385	1394	1408	1420	1419	1408	1399	1399	1391	1392	1399	1409	1409	1407	1397	1384	1371	0	0	0	0	0	0	0
0	0	1400	1412	1412	1419	1405	1415	1412	1416	1416	1426	1438	1453	1460	1439	1427	1427	1429	1447	1464	1474	1467	1463	1463	1450	1443	1429	1427	1425	1444	0	0	0	0	0	0	0	0	0	0	0	0	0	0	0	0	0	0	0	0	0	0	0	0	0	0	0	0	0	0	0	0	0	0	0	0	0	0	0	0	0	0	0	0	0	0	0	0	0	0	0	0	0	0	0	0	0	0	1426	1438	1429	1399	1394	1376	1367	1367	1376	1376	1373	1375	1381	1384	1379	1364	1366	1366	1366	1366	1369	1374	1378	1379	1378	1380	1392	1386	1386	1382	1382	1384	1382	1375	1364	1370	1381	1387	1381	1365	1359	1364	1368	1377	1389	1384	1385	1399	1411	1419	1425	1431	1448	1450	1450	1447	1441	1449	1476	1498	1527	0	0	0	0	0	0	0	0	0	0	0	0	0	0	0	0	0	0	0	0	0	0	0	0	0	0	0	0	0	0	0	0	0	0	0	0	0	0	0	0	0	0	0	0	1444	1426	1414	1396	1410	1416	1412	1395	1388	1379	1388	1384	1382	1385	1395	1406	1403	1392	1391	1389	1393	1397	1397	1391	1394	1387	1385	1380	1378	1385	1405	1421	1420	1422	1434	1434	1421	1411	1403	1401	1399	1408	1420	1427	1411	1360	1353	1350	0	0	0	0	0	0	0	0	0	1265	1286	1313	1332	1335	1327	0	1342	1330	1318	1295	1290	1258	1263	1291	1313	1335	1388	1469	1463	1492	0	0	0	1638	1655	1688	1717	0	0	0	1751	1768	1762	1762	1751	1762	1762	1754	1731	1729	1719	1707	1690	1692	1687	1689	1690	1708	1728	1739	1762	1765	1786	1791	1768	1737	1729	1731	1731	1734	1725	1727	1738	1754	1772	1760	1764	1767	1746	1732	1714	1696	1669	1668	1667	0	0	0	0	1423	1417	1416	1413	1412	1404	1373	1375	1388	1401	1413	1418	1407	1394	1376	1372	1371	1356	1360	1369	1382	1389	1389	1390	1388	1387	1384	1382	1394	1404	1417	1439	1431	1422	1392	1385	1391	1398	1406	1417	1417	1412	1411	1408	1406	1412	1414	1410	1411	1414	1426	1473	1648	1703	1739	1723	1725	1717	1732	1740	1750	1737	1728	1712	1695	1698	1669	1682	1707	1712	1719	1717	0	0	0	1590	1532	1519	1517	1449	1409	1374	1371	1379	1407	1428	1418	1404	1331	1291	1303	1291	1285	1288	1282	1270	1339	1361	1277	1279	1348	1337	1331	1273	1297	1377	1459	0	0	0	0	0	0	0	0	0	0	0	0	0	0	0	0	0	0	0	0	0	0	0	0	0	0	0	0	0	0	0	0	0	0	0	0	1406	1430	1418	1407	1423	1427	1417	1399	1376	1386	1400	1415	1412	1423	1413	1402	1402	1416	1424	1431	1433	1420	1394	1370	1347	1347	1362	1380	1402	1405	1394	1377	1369	1389	1402	1406	1395	1399	1399	1404	1422	1426	1424	1413	1414	1398	1380	1379	1403	1447	0	0	0	0	0	0	0	0	0	0	0	0	0	0	0	0	0	0	0	0	0	0	0	1424	1412	1410	1431	1420	1433	1437	1440	1446	1431	1431	1419	1413	1407	1409	1415	1422	1410	1405	1404	1403	1397	1398	1413	1425	1431	1438	1437	1437	1437	1426	1425	1448	1454	1416	1421	1438	1438	1435	1437	1437	1423	1421	1435	1444	1442	1426	1416	1417	1423	1428	1428	1425	1416	1415	1416	1424	1436	1439	1439	1439	1435	1428	1419	1412	1399	1388	1383	1381	1381	1388	1400	1416	1413	1405	1391	1391	1386	1392	1406	1412	1406	1403	1395	1381	1367	0	0	0	0	0	0	0
0	0	1419	1425	1425	1421	1416	1411	1415	1416	1416	1418	1421	1438	1440	1434	1425	1425	1426	1445	1457	1464	1466	1451	1451	1445	1427	1417	1419	0	0	0	0	0	0	0	0	0	0	0	0	0	0	0	0	0	0	0	0	0	0	0	0	0	0	0	0	0	0	0	0	0	0	0	0	0	0	0	0	0	0	0	0	0	0	0	0	0	0	0	0	0	0	0	0	0	0	0	0	1436	1447	1430	1394	1389	1384	1374	1378	1387	1381	1378	1385	1390	1393	1383	1365	1365	1370	1367	1364	1363	1371	1376	1381	1380	1376	1381	1378	1376	1373	1376	1380	1381	1371	1357	1359	1376	1381	1373	1360	1356	1357	1370	1370	1373	1359	1363	1379	1396	1404	1415	1426	1436	1455	1463	1460	1448	1456	1474	1508	1532	0	0	0	0	0	0	0	0	0	0	0	0	0	0	0	0	0	0	0	0	0	0	0	0	0	0	0	0	0	0	0	0	0	0	0	0	0	0	0	0	0	0	0	0	1465	1439	1431	1432	1432	1420	1415	1413	1417	1403	1404	1398	1396	1401	1412	1411	1410	1411	1398	1396	1405	1403	1404	1398	1386	1383	1379	1379	1377	1387	1401	1410	1415	1416	1438	1434	1423	1410	1394	1377	1383	1390	1394	1368	1313	1298	1293	1292	1279	1250	1214	1182	1200	1235	0	0	1209	1206	1216	1231	1245	1241	1227	1212	1223	1224	1228	1225	1210	1200	1188	1166	1165	1168	1213	1262	1292	1344	1406	0	1504	1540	1584	1618	1644	1631	1639	0	1721	1724	1738	1731	1722	1710	1700	1675	1613	1612	1616	1634	1647	1629	1632	1641	1652	1660	1685	1707	1714	1729	1738	1739	1731	1702	1695	1699	1700	1694	1681	1658	1656	1688	1720	1724	1723	1735	1717	1691	1669	1647	1638	1609	1595	1584	0	0	1444	1415	1413	1416	1416	1409	1395	1371	1373	1389	1407	1418	1418	1406	1388	1382	1380	1386	1384	1379	1378	1389	1396	1395	1390	1390	1392	1390	1393	1398	1405	1420	1424	1419	1409	1397	1379	1384	1395	1403	1409	1410	1405	1403	1406	1405	1414	1418	1415	1412	1412	1428	1443	1526	1642	1669	1671	1662	1659	1678	1689	1689	1679	1672	1653	1606	1603	1627	1643	1661	1667	1659	1636	1580	1491	1422	1380	1343	1254	1222	1216	1228	1236	1245	1231	1206	1186	1200	1205	1200	1210	1221	1230	1210	1189	1166	1170	1174	1180	1190	1192	1188	1176	1159	1159	1173	1200	1243	1314	1314	1307	1305	1329	1356	1385	0	0	1396	0	0	0	0	0	0	0	0	1603	1616	1625	0	0	0	0	0	0	0	0	0	0	0	0	0	0	0	1413	1422	1398	1397	1395	1425	1423	1397	1376	1384	1403	1423	1441	1430	1417	1401	1409	1420	1415	1423	1421	1403	1389	1356	1349	1349	1363	1380	1396	1401	1390	1375	1369	1389	1402	1397	1389	1387	1391	1397	1412	1417	1420	1419	1413	1401	1388	1406	1419	1443	0	0	0	0	0	0	0	0	0	0	0	0	0	0	0	0	0	0	0	0	0	1441	1443	1430	1412	1411	1414	1420	1424	1433	1442	1435	1432	1433	1428	1418	1413	1413	1410	1417	1412	1409	1404	1397	1396	1401	1410	1420	1425	1427	1431	1437	1438	1435	1445	1455	1454	1426	1433	1451	1444	1432	1440	1441	1413	1422	1436	1448	1451	1434	1413	1413	1418	1415	1411	1408	1404	1404	1417	1429	1448	1456	1456	1449	1439	1427	1413	1403	1397	1391	1392	1387	1386	1389	1392	1400	1402	1399	1391	1391	1388	1394	1406	1411	1407	1398	1387	1377	1365	0	0	0	0	0	0	0
0	0	1410	1424	1418	1403	1403	1412	1418	1419	1411	1411	1415	1422	1425	1426	1427	1427	1434	1459	1464	1457	1451	1440	1422	1422	1414	1402	0	0	0	0	0	0	0	0	0	0	0	0	0	0	0	0	0	0	0	0	0	0	0	0	0	0	0	0	0	0	0	0	0	0	0	0	0	0	0	0	0	0	0	0	0	0	0	0	0	0	0	0	0	0	0	0	0	0	0	0	0	1430	1446	1414	1390	1388	1388	1394	1399	1394	1387	1377	1388	1402	1408	1388	1380	1378	1381	1375	1370	1373	1385	1384	1383	1375	1373	1369	1364	1367	1369	1377	1386	1386	1375	1358	1350	1368	1373	1374	1369	1366	1364	1379	1386	1364	1346	1346	1357	1375	1395	1402	1415	1436	1463	1473	1470	1454	1446	1460	1476	1491	0	0	0	0	0	0	0	0	0	0	0	0	0	0	0	0	0	0	0	0	0	0	0	0	0	0	0	0	0	0	1504	1485	1485	0	0	0	0	0	1451	1433	1438	0	0	1463	1458	1445	1442	1434	1433	1427	1420	1414	1424	1435	1435	1416	1408	1415	1430	1436	1417	1412	1409	1403	1401	1409	1406	1393	1377	1370	1372	1377	1381	1394	1401	1402	1403	1405	1418	1431	1423	1408	1372	1316	1283	1281	1266	1247	1233	1240	1242	1249	1244	1217	1184	1168	1175	1191	1214	1217	1185	1173	1166	1170	1179	1172	1162	1161	1177	1182	1191	1186	1182	1175	1153	1140	1134	1140	1152	1181	1212	1268	1312	0	1378	1429	1448	1497	1531	1544	1536	1550	1559	1637	1644	1638	1628	1628	1618	1577	1555	1546	1552	1584	1582	1555	1551	1552	1563	1563	1552	1553	1604	1643	1659	1678	1679	1670	1647	1653	1660	1630	1591	1545	1548	1604	1605	1598	1572	1568	1570	1590	1598	1595	1589	1559	1489	1471	1467	1444	1402	1413	1404	1403	1412	1401	1395	1383	1381	1393	1407	1419	1415	1400	1386	1382	1384	1390	1388	1383	1388	1394	1400	1400	1400	1402	1400	1396	1394	1396	1409	1418	1416	1412	1404	1387	1372	1377	1392	1402	1408	1401	1400	1399	1401	1404	1414	1415	1413	1414	1423	1428	1426	1435	1515	1574	1601	1601	1594	1618	1635	1609	1580	1409	1427	1440	1449	1453	1454	1452	1439	1425	1429	1426	1429	1372	1313	1260	1201	1176	1180	1186	1190	1192	1164	1139	1121	1125	1146	1158	1174	1188	1190	1179	1162	1143	1123	1126	1133	1146	1158	1160	1155	1146	1139	1142	1154	1171	1185	1203	1197	1195	1203	1201	1168	1155	1152	1160	1234	1272	1309	1348	1384	1395	1410	1435	1466	1469	1454	1455	1456	1431	1410	1378	1374	1384	1394	1396	1396	1409	1428	1445	0	1424	1422	1404	1392	1385	1381	1395	1417	1405	1404	1411	1424	1440	1452	1439	1421	1396	1407	1416	1421	1411	1411	1400	1382	1372	1371	1367	1367	1387	1396	1397	1386	1371	1369	1385	1389	1379	1372	1372	1381	1390	1396	1407	1411	1406	1400	1380	1386	1416	1426	1444	1458	1503	1510	1490	1484	1452	1460	1471	1475	1459	1448	1447	0	0	0	1452	1446	1454	1466	1463	1455	1441	1432	1421	1420	1423	1421	1420	1423	1431	1440	1436	1433	1432	1431	1423	1419	1410	1406	1413	1423	1421	1415	1408	1398	1399	1404	1416	1419	1418	1424	1431	1438	1443	1449	1456	1453	1428	1430	1437	1438	1431	1440	1428	1418	1424	1442	1451	1453	1450	1427	1413	1404	1396	1397	1386	1380	1385	1397	1414	1446	1453	1453	1447	1431	1410	1407	1401	1395	1390	1385	1385	1382	1387	1396	1390	1389	1383	1381	1381	1388	1399	1405	1404	1398	1396	1386	1373	1360	0	0	0	0	0	0	0
0	0	1393	1397	1403	1382	1403	1411	1422	1423	1416	1416	1407	1407	1410	1411	1426	1426	1440	1465	1463	1444	1438	1424	1410	1410	1401	1396	0	0	0	0	0	0	0	0	0	0	0	0	0	0	0	0	0	0	0	0	0	0	0	0	0	1459	1442	1413	1413	0	0	0	0	0	0	0	0	0	0	0	0	0	0	0	0	0	0	0	0	0	0	0	0	0	0	0	0	0	0	0	1429	1438	1415	1391	1389	1385	1389	1398	1401	1386	1374	1372	1385	1401	1412	1398	1386	1383	1380	1379	1377	1383	1392	1396	1390	1376	1379	1378	1371	1374	1390	1394	1394	1394	1387	1369	1355	1356	1376	1376	1377	1380	1383	1391	1386	1372	1364	1352	1350	1356	1375	1384	1411	1427	1451	1467	1468	1452	1436	1438	1437	1442	1437	1418	1417	0	0	1458	1459	1475	1480	1474	1485	1493	1496	1494	1483	1479	1477	1481	1465	1454	1454	1457	1453	1456	1465	1455	1456	1461	1465	1485	1490	1474	1447	1450	1474	1488	1471	1433	1406	1399	1409	1433	1445	1446	1448	1441	1435	1439	1437	1440	1427	1416	1421	1448	1455	1438	1427	1423	1430	1437	1434	1417	1410	1405	1402	1402	1401	1388	1369	1364	1369	1381	1404	1409	1415	1404	1397	1403	1397	1389	1352	1288	1263	1238	1224	1201	1187	1184	1196	1195	1210	1221	1215	1202	1177	1159	1165	1176	1200	1208	1176	1152	1126	1125	1134	1143	1150	1155	1172	1171	1164	1165	1168	1170	1162	1138	1137	1128	1134	1157	1196	1232	0	0	1298	1348	1398	1448	1456	1462	1457	1454	1451	1444	1437	1506	1483	1491	1506	1521	1507	1491	1495	1476	1468	1460	1481	1484	1495	1489	1465	1448	1462	1488	1493	1479	1448	1460	1498	1511	1478	1452	1436	1420	1431	1432	1427	1430	1433	1433	1440	1459	1473	1479	1469	1455	1433	1413	1402	1396	1406	1407	1401	1395	1393	1401	1396	1384	1377	1385	1406	1411	1404	1392	1383	1380	1390	1393	1388	1384	1385	1395	1404	1402	1399	1399	1401	1396	1392	1397	1407	1412	1414	1411	1404	1388	1373	1375	1390	1399	1404	1397	1398	1398	1397	1399	1409	1411	1394	1406	1422	1422	1422	1422	1430	1448	1449	1448	1443	1441	1433	1411	1416	1411	1403	1396	1390	1391	1390	1390	1382	1380	1395	1414	1408	1354	0	1218	1171	1154	1160	1172	1165	1147	1122	1092	1085	1094	1117	1137	1153	1160	1161	1160	1150	1135	1108	1105	1113	1120	1130	1139	1140	1144	1140	1138	1141	1150	1151	1135	1129	1128	1138	1132	1121	1121	1121	1124	1151	1192	1219	1257	1297	1334	1350	1367	1372	1379	1382	1404	1422	1433	1426	1424	1431	1439	1431	1427	1414	1407	1415	1433	1435	1412	1392	1399	1388	1390	1388	1381	1395	1402	1407	1413	1425	1443	1449	1439	1420	1406	1405	1417	1416	1407	1403	1410	1407	1385	1372	1370	1372	1388	1400	1402	1387	1379	1374	1386	1406	1420	1418	1410	1419	1425	1414	1404	1399	1398	1389	1390	1395	1418	1436	1449	1453	1456	1449	1459	1449	1434	1443	1464	1455	1436	1422	1432	1439	1431	1413	1406	1406	1422	1430	1421	1417	1421	1425	1426	1433	1446	1432	1424	1424	1436	1438	1447	1442	1436	1431	1427	1415	1409	1407	1417	1439	1447	1437	1417	1397	1399	1402	1410	1416	1417	1422	1427	1436	1443	1446	1450	1439	1429	1435	1440	1439	1419	1406	1409	1418	1432	1444	1452	1448	1467	1472	1466	1456	1427	1413	1399	1384	1374	1378	1395	1426	1455	1455	1447	1422	1413	1416	1421	1414	1402	1398	1385	1380	1384	1392	1405	1386	1374	1374	1375	1389	1404	1410	1404	1402	1396	1387	1375	1364	0	0	0	0	0	0	0
0	0	1373	1377	1382	1385	1390	1404	1408	1411	1412	1412	1404	1398	1398	1407	1416	1432	1432	1449	1441	1437	1432	1419	1408	1408	1391	1382	1390	1390	1400	1413	0	0	0	0	0	0	0	0	0	0	0	0	0	0	0	0	0	1400	1411	1444	1463	1461	1447	1435	1435	1422	1427	1428	1442	1468	1477	1482	1487	1481	1469	1477	1477	1501	1485	1470	1459	1462	1457	1456	1449	1458	1467	1469	1460	1449	1449	1442	1445	1447	1448	1442	1440	1437	1401	1390	1382	1384	1389	1397	1392	1370	1356	1360	1377	1392	1404	1388	1380	1381	1380	1377	1383	1387	1398	1401	1393	1374	1374	1375	1391	1400	1404	1415	1415	1411	1397	1381	1366	1367	1375	1376	1389	1398	1404	1392	1389	1382	1376	1363	1355	1359	1377	1386	1402	1414	1425	1445	1450	1449	1439	1427	1414	1406	1418	1423	1436	1439	1433	1431	1431	1429	1421	1421	1458	1470	1452	1447	1446	1449	1466	1474	1459	1430	1417	1405	1398	1407	1430	1452	1453	1446	1442	1437	1436	1427	1426	1434	1439	1442	1427	1419	1423	1433	1443	1434	1427	1423	1444	1443	1434	1428	1430	1435	1437	1430	1431	1442	1440	1416	1414	1419	1423	1428	1422	1401	1389	1384	1383	1388	1400	1407	1402	1395	1413	1419	1441	1444	1452	1436	1420	1407	1381	1319	1256	1225	1221	1215	1202	1183	1176	1176	1175	1177	1186	1197	1207	1196	1183	1163	1155	1160	1174	1194	1184	1138	1119	1114	1129	1137	1153	1161	1170	1156	1141	1141	1154	1158	1172	1155	1141	1125	1133	1165	1187	0	0	0	1258	1374	1443	1456	1456	1452	1448	1453	1448	1441	1431	1426	1428	1429	1431	1443	1466	1477	1482	1474	1463	1462	1460	1452	1438	1439	1451	1464	1476	1470	1458	1440	1442	1452	1450	1447	1447	1445	1443	1453	1457	1452	1432	1419	1424	1420	1421	1436	1451	1463	1464	1451	1441	1428	1420	1418	1404	1398	1393	1382	1390	1412	1421	1402	1413	1428	1428	1430	1419	1407	1395	1395	1405	1416	1415	1413	1401	1399	1406	1407	1393	1380	1381	1387	1392	1400	1418	1423	1424	1422	1415	1402	1383	1367	1381	1397	1395	1398	1401	1397	1396	1398	1392	1386	1387	1405	1420	1423	1420	1435	1457	1477	1477	1437	1418	1405	1413	1420	1420	1415	1404	1393	1394	1391	1390	1392	1390	1382	1389	1394	1395	0	0	0	1168	1153	1163	1165	1150	1131	1106	1094	1086	1095	1119	1138	1143	1146	1142	1136	1136	1119	1100	1101	1100	1103	1111	1120	1126	1134	1137	1146	1148	1146	1132	1117	1102	1099	1106	1102	1101	1096	1097	1102	1127	1135	1153	1189	1256	1302	1328	1348	1359	1376	1382	1405	1422	1429	1431	1432	1437	1443	1436	1430	1423	1429	1466	1462	1442	1423	1400	1389	1393	1396	1397	1390	1391	1399	1397	1399	1421	1441	1449	1445	1429	1417	1416	1418	1425	1416	1412	1413	1423	1395	1387	1384	1398	1420	1444	1460	1448	1430	1410	1404	1414	1435	1444	1443	1419	1394	1391	1381	1375	1387	1385	1394	1398	1426	1429	1430	1437	1441	1437	1438	1434	1419	1429	1442	1441	1427	1427	1433	1445	1436	1420	1411	1408	1414	1417	1416	1417	1417	1423	1429	1440	1454	1436	1426	1418	1426	1430	1428	1426	1439	1441	1427	1424	1402	1412	1429	1451	1464	1448	1430	1409	1400	1401	1409	1417	1424	1427	1428	1430	1433	1441	1448	1435	1439	1446	1446	1438	1421	1402	1405	1418	1432	1441	1440	1447	1456	1462	1465	1454	1434	1413	1400	1395	1388	1391	1402	1434	1456	1456	1448	1431	1423	1425	1431	1440	1433	1420	1398	1387	1377	1389	1404	1420	1410	1410	1408	1409	1419	1412	1405	1403	1402	1391	1378	1369	1369	0	0	0	0	0	0
