0	0	0	1443	1430	1430	1436	1431	1431	1412	1397	1407	1416	1426	1425	1425	1414	1423	1425	1430	1417	1413	1413	1414	1416	1418	1416	1421	1427	1431	1431	1435	1438	1426	1421	1425	1434	1436	1433	1404	1404	1391	1419	1421	1420	1415	1414	1417	1418	1416	1428	1438	1438	1446	1451	1446	1436	1435	1437	1444	1443	1431	1429	1436	1453	1461	1455	1447	1440	1434	1429	1434	1449	1456	1456	1455	1453	1450	1465	1473	1484	1485	1470	1461	1459	1466	1466	1444	1418	1409	1411	1419	1417	1410	1407	1405	1406	1405	1406	1411	1417	1432	1436	1453	1456	1439	1425	1416	1417	1420	1418	1428	1433	1429	1417	1403	1404	1406	1420	1423	1425	1423	1425	1422	1416	1405	1406	1414	1421	1422	1425	1412	1419	1418	1423	1448	0	0	0	0	0	0	0	0	0	0	0	0	0	0	0	0	0	0	0	0	0	0	0	0	0	0	0	0	1639	1659	1676	1691	1687	1688	1700	1713	1938	0	0	0	0	0	0	0	0	0	0	1462	1470	1452	1413	1400	1406	1410	1429	1451	1445	1438	1441	1446	1438	1421	1411	1404	1405	1407	1407	1417	1439	1447	1446	1442	1435	1431	1433	1443	1445	1452	1454	1463	1465	1453	1444	1441	1440	1434	1437	1433	1428	1428	1429	1443	1452	1457	1449	1436	1433	1433	1434	1446	1455	1456	1452	1448	1452	1459	1462	1449	1432	1429	1433	1436	1443	1450	1444	1442	1441	1437	1427	1416	1406	1424	1444	1439	1441	1442	1434	1435	1431	1428	1442	1455	1463	1465	1448	1434	1426	1427	1432	1436	1430	1435	1438	1434	1440	1440	1446	1449	1437	1429	1426	1420	1417	1430	1435	1441	1438	1440	1449	1459	1468	1467	1451	1441	1435	1438	1441	1450	1452	1455	1454	1440	1436	1432	1428	1438	1454	1449	1450	1451	1448	1449	1449	1445	1454	1464	1456	1448	1439	1432	1439	1441	1443	1445	1426	1426	1427	1442	1447	1452	1451	1451	1449	1442	1438	1430	1427	1425	1427	1427	1430	1434	1444	1447	1445	1444	1454	1467	1477	1469	1458	1450	1441	1438	1428	1428	1436	1445	1450	1456	1452	1448	1441	1447	1449	1457	1474	1493	1493	1490	1476	1471	1467	1466	1464	1461	1452	1445	1450	1443	1451	1465	1473	1479	1480	1480	1478	1472	1466	1462	1457	1461	1462	1456	1450	1448	1444	1446	1454	1458	1452	1444	1439	1434	1447	1452	1456	1464	1469	1475	1488	1494	1496	1500	1495	1479	1480	1479	1486	1484	1478	1472	1464	1464	1457	1444	1430	1428	1432	1443	1449	1445	1451	1449	1439	1445	1451	1458	1468	1471	1458	1442	1437	1437	1447	1442	1440	1442	1456	1466	1472	1472	1468	1467	1466	1462	1464	1467	1467	1463	1453	1454	1452	1459	1475	1483	1477	1472	1468	1471	1471	1469	1473	1473	1476	0	0	0	0	0	0	0	0	0	0	0	0	0	0	0	0	0	0	0	0	0	0	0	1591	1588	1599	1599	1599	1582	1562	1543	1534	1524	1508	1530	1557	1558	1554	1547	1538	1527	1543	1533	1517	1491	1492	1508	1528	1528	1511	1498	1515	1534	1547	1572	0	0	0	0	0	0	0	0	0	0	0	0	0	0	0	0	0	0	1538	1544	1525	1491	1473	1469	1470	1474	1466	1471	1481	1489	1499	1508	1511	1496	1490	1491	1494	1503	1502	1502	1496	1492	1480	1479	1475	1465	1448	1457	1487	1489	1498	1499	1490	1478	1465	1463	1467	1460	1458	1446	1448	1446	1459	1465	1467	1481	1499	1512	1514	1504	1500	1496	1492	1490	1490	1499	1510	1512	1501	1488	1480	1479	1470	1462	1462	1455	1446	1442	1456	1473	1473	1490	1504	1498	1479	1471	1463	0	0	0	0	0	0	0
0	0	0	1443	1447	1435	1435	1424	1424	1403	1408	1414	1417	1422	1416	1416	1410	1411	1419	1432	1415	1405	1405	1406	1394	1392	1395	1405	1423	1419	1419	1438	1436	1424	1424	1431	1436	1430	1415	1396	1396	1395	1431	1426	1415	1415	1411	1411	1406	1409	1423	1432	1432	1443	1445	1439	1443	1443	1445	1450	1445	1432	1426	1429	1457	1467	1472	1459	1455	1445	1436	1437	1453	1459	1459	1457	1448	1445	1446	1453	1472	1470	1459	1452	1451	1452	1459	1435	1419	1410	1408	1412	1404	1401	1392	1398	1408	1415	1415	1420	1426	1439	1438	1440	1443	1433	1424	1412	1414	1416	1417	1418	1425	1430	1420	1408	1409	1411	1412	1417	1416	1418	1416	1415	1404	1398	1398	1401	1409	1414	1416	1406	1404	1404	1454	1476	0	0	0	0	0	0	0	0	0	0	0	0	0	0	0	0	0	0	0	0	0	0	0	0	0	0	0	0	1648	1656	1670	1681	1686	1695	1710	1799	1717	0	0	0	0	0	0	0	0	0	0	1452	1453	1432	1415	1406	1401	1411	1426	1446	1434	1435	1435	1444	1439	1433	1416	1413	1404	1403	1406	1420	1441	1448	1447	1442	1435	1436	1436	1442	1449	1454	1457	1461	1464	1453	1447	1448	1442	1439	1435	1426	1427	1431	1445	1454	1460	1461	1457	1448	1440	1428	1428	1436	1449	1450	1445	1443	1448	1451	1458	1446	1430	1429	1434	1439	1447	1453	1454	1454	1454	1450	1436	1423	1422	1430	1445	1445	1444	1437	1435	1430	1424	1430	1437	1449	1450	1445	1445	1431	1426	1426	1432	1436	1435	1432	1435	1440	1441	1453	1460	1465	1464	1450	1438	1437	1433	1441	1440	1441	1440	1443	1449	1454	1460	1462	1455	1439	1440	1440	1448	1459	1469	1469	1464	1453	1446	1440	1445	1445	1454	1449	1453	1458	1458	1451	1441	1443	1453	1461	1460	1455	1451	1444	1448	1447	1448	1454	1462	1439	1441	1432	1447	1454	1463	1462	1460	1449	1444	1441	1435	1433	1436	1442	1443	1449	1450	1448	1445	1450	1457	1475	1483	1478	1467	1458	1452	1444	1432	1427	1437	1441	1446	1450	1447	1446	1446	1455	1467	1475	1493	1501	1496	1497	1490	1479	1475	1467	1465	1455	1452	1452	1435	1435	1438	1450	1457	1466	1465	1465	1466	1464	1461	1458	1451	1451	1455	1461	1452	1442	1438	1448	1461	1463	1458	1450	1444	1443	1449	1458	1459	1462	1471	1475	1484	1483	1486	1489	1487	1473	1469	1467	1472	1476	1477	1481	1476	1471	1463	1448	1439	1440	1443	1451	1459	1461	1463	1466	1479	1480	1473	1462	1467	1469	1460	1441	1436	1441	1445	1441	1440	1448	1458	1474	1476	1477	1470	1464	1459	1455	1459	1463	1467	1463	1453	1456	1459	1474	1491	1489	1479	1473	1467	1469	1469	1471	1490	1496	1469	0	0	0	0	0	0	0	0	0	0	0	0	0	0	0	0	0	0	0	0	0	0	0	1592	1584	1595	1594	1590	1575	1556	1542	1525	1522	1517	1527	1567	1558	1546	1545	1538	1532	1540	1547	1526	1503	1487	1502	1517	1523	1513	1490	1508	1525	1543	1557	0	0	0	0	0	0	0	0	0	0	0	0	0	0	0	0	0	1543	1537	1546	1524	1490	1482	1484	1489	1491	1482	1476	1476	1483	1498	1512	1518	1516	1504	1499	1500	1497	1493	1491	1499	1491	1488	1483	1472	1457	1452	1458	1486	1496	1505	1507	1492	1470	1459	1457	1459	1455	1460	1453	1448	1449	1460	1466	1466	1486	1507	1526	1537	1529	1519	1506	1502	1499	1503	1503	1516	1517	1498	1497	1488	1480	1474	1466	1467	1454	1448	1446	1455	1468	1468	1482	1491	1491	1482	1472	1466	0	0	0	0	0	0	0
0	0	0	1437	1441	1435	1436	1425	1425	1410	1414	1420	1417	1413	1413	1413	1413	1414	1415	1418	1420	1411	1411	1401	1390	1384	1388	1415	1424	1430	1430	1433	1443	1430	1427	1427	1430	1423	1405	1392	1392	1418	1444	1435	1413	1416	1413	1409	1401	1403	1411	1421	1421	1422	1437	1439	1443	1452	1449	1450	1444	1433	1427	1432	1458	1470	1475	1479	1467	1441	1432	1436	1452	1452	1463	1461	1449	1438	1444	1449	1452	1458	1449	1447	1450	1455	1466	1448	1428	1408	1398	1399	1398	1393	1394	1401	1409	1415	1423	1429	1434	1443	1445	1439	1435	1425	1421	1411	1407	1412	1411	1414	1415	1420	1420	1411	1411	1411	1411	1415	1415	1416	1411	1405	1398	1388	1398	1404	1413	1414	1415	1414	1407	1413	1461	1498	0	0	0	0	0	0	0	0	0	0	0	0	0	0	0	0	0	0	0	0	0	0	0	0	0	0	0	0	1635	1650	1658	1666	1677	1693	1706	1711	1708	0	0	0	0	0	0	0	0	0	0	1453	1452	1433	1418	1413	1407	1407	1418	1432	1428	1423	1432	1434	1439	1427	1424	1421	1411	1402	1406	1420	1442	1448	1438	1437	1443	1444	1442	1438	1447	1453	1454	1456	1456	1452	1446	1436	1434	1432	1429	1432	1431	1438	1450	1461	1467	1466	1460	1439	1413	1406	1416	1437	1447	1454	1453	1449	1446	1445	1443	1442	1441	1435	1436	1442	1449	1456	1448	1449	1457	1452	1436	1424	1424	1434	1441	1446	1441	1445	1449	1430	1430	1433	1432	1441	1434	1435	1436	1436	1432	1428	1433	1437	1439	1434	1432	1441	1455	1462	1471	1477	1471	1459	1459	1460	1454	1449	1447	1448	1448	1443	1446	1448	1454	1457	1444	1439	1443	1443	1452	1465	1474	1474	1465	1458	1445	1441	1444	1445	1451	1448	1450	1459	1460	1449	1442	1440	1443	1449	1455	1456	1455	1454	1453	1454	1453	1452	1463	1462	1444	1438	1451	1456	1468	1468	1460	1449	1444	1442	1438	1437	1441	1453	1453	1456	1454	1443	1443	1446	1464	1473	1479	1477	1471	1458	1447	1439	1429	1436	1436	1440	1452	1451	1448	1448	1449	1468	1482	1499	1500	1504	1500	1506	1503	1492	1478	1466	1463	1463	1463	1455	1432	1430	1431	1448	1455	1455	1455	1454	1453	1458	1460	1453	1444	1442	1450	1467	1459	1445	1435	1446	1466	1475	1478	1477	1471	1469	1466	1467	1462	1462	1468	1470	1474	1469	1459	1456	1456	1457	1454	1451	1455	1466	1481	1487	1486	1479	1464	1452	1446	1452	1458	1464	1471	1469	1468	1470	1470	1472	1463	1456	1450	1443	1451	1443	1440	1446	1447	1446	1446	1461	1475	1487	1488	1489	1477	1463	1449	1453	1459	1460	1464	1459	1458	1456	1462	1480	1496	1489	1474	1465	1464	1468	1469	1473	1493	1506	1479	0	0	0	0	0	0	0	0	0	0	0	0	0	0	0	0	0	0	0	0	0	0	0	1588	1584	1576	1582	1580	1563	1541	1532	1527	1530	1528	1543	1570	1530	1522	1525	1538	1537	1543	1548	1550	1537	1518	1526	1534	1533	1526	1503	1508	1521	1536	1550	0	0	0	0	0	0	0	0	0	0	0	0	0	0	0	0	0	1545	1529	1533	1518	1507	1509	1505	1504	1498	1488	1482	1480	1484	1501	1517	1523	1523	1504	1500	1494	1491	1490	1495	1502	1496	1492	1489	1474	1457	1456	1476	1496	1512	1519	1512	1494	1474	1458	1456	1464	1470	1471	1473	1464	1466	1461	1465	1468	1488	1513	1532	1541	1537	1525	1513	1505	1503	1508	1508	1520	1510	1497	1497	1489	1481	1474	1471	1466	1457	1444	1447	1456	1466	1466	1483	1487	1487	1476	1465	1469	0	0	0	0	0	0	0
0	0	0	1419	1427	1430	1431	1427	1427	1418	1409	1420	1409	1406	1406	1403	1405	1402	1399	1411	1411	1417	1417	1400	1393	1392	1400	1412	1424	1432	1432	1440	1443	1434	1421	1411	1408	1409	1401	1401	1406	1433	1444	1434	1422	1414	1418	1417	1400	1396	1401	1409	1409	1419	1425	1424	1439	1449	1452	1445	1443	1437	1431	1440	1460	1472	1481	1471	1448	1433	1423	1429	1443	1443	1455	1449	1441	1438	1439	1447	1443	1445	1444	1447	1454	1458	1466	1459	1432	1414	1400	1397	1393	1391	1391	1399	1408	1418	1427	1432	1440	1445	1442	1436	1429	1423	1411	1404	1405	1405	1405	1403	1408	1411	1413	1421	1422	1418	1413	1416	1420	1422	1416	1407	1397	1391	1398	1411	1416	1415	1418	1430	1425	1425	1445	1469	1487	0	0	0	0	0	0	0	0	0	0	0	0	0	0	0	0	0	0	0	0	0	0	0	0	0	0	0	1637	1644	1651	1653	1669	1684	1700	1697	1685	0	0	0	0	0	0	0	0	0	1406	1447	1452	1438	1427	1415	1406	1405	1416	1427	1419	1411	1415	1423	1426	1423	1421	1420	1417	1411	1411	1430	1445	1448	1444	1447	1456	1462	1463	1454	1450	1450	1446	1442	1446	1447	1439	1427	1427	1427	1423	1435	1442	1453	1462	1477	1471	1467	1458	1435	1406	1400	1412	1435	1458	1466	1469	1457	1453	1443	1445	1449	1447	1442	1438	1443	1446	1439	1440	1444	1454	1453	1434	1426	1429	1438	1442	1445	1446	1450	1453	1443	1433	1427	1432	1432	1428	1430	1443	1448	1444	1437	1436	1443	1444	1435	1434	1441	1448	1464	1471	1475	1468	1462	1463	1463	1465	1460	1457	1455	1453	1449	1443	1444	1445	1445	1440	1437	1439	1441	1448	1458	1462	1462	1454	1452	1441	1435	1438	1440	1442	1446	1451	1453	1452	1450	1442	1441	1441	1444	1450	1455	1461	1464	1461	1459	1455	1454	1466	1460	1451	1439	1454	1467	1473	1465	1454	1443	1441	1439	1441	1441	1443	1454	1463	1460	1455	1445	1437	1443	1452	1468	1473	1473	1472	1459	1447	1440	1431	1441	1460	1467	1459	1451	1446	1442	1451	1470	1490	1506	1508	1506	1505	1524	1533	1511	1484	1463	1458	1458	1460	1457	1451	1436	1430	1442	1448	1453	1451	1445	1445	1457	1462	1452	1439	1445	1471	1483	1470	1446	1438	1451	1464	1476	1486	1484	1479	1478	1489	1488	1480	1461	1462	1466	1460	1457	1450	1449	1450	1452	1444	1433	1440	1457	1480	1494	1487	1478	1465	1448	1452	1463	1471	1472	1478	1472	1464	1466	1468	1469	1464	1463	1456	1447	1437	1432	1433	1449	1447	1454	1453	1470	1486	1496	1506	1501	1487	1464	1453	1453	1460	1464	1456	1454	1450	1456	1463	1475	1494	1481	1468	1462	1460	1464	1472	1476	1499	1510	1488	0	0	0	0	0	0	0	0	0	0	0	0	0	0	0	0	0	0	0	0	0	0	0	1566	1570	1571	1572	1573	1559	1529	1515	1518	1531	1563	1577	1565	1540	1528	1526	1528	1534	1550	1564	1565	1559	1550	1544	1532	1525	1522	1526	1533	1543	1550	1537	0	0	0	0	0	0	0	0	0	0	0	0	0	0	0	0	1541	1520	1518	1512	1513	1515	1518	1517	1508	1502	1488	1487	1491	1493	1507	1516	1520	1510	1499	1487	1494	1499	1504	1500	1501	1501	1498	1498	1484	1467	1469	1483	1494	1507	1509	1504	1491	1465	1461	1459	1471	1477	1482	1478	1467	1466	1464	1465	1475	1491	1509	1524	1532	1531	1519	1500	1488	1497	1509	1509	1526	1510	1504	1496	1486	1481	1477	1480	1475	1454	1443	1440	1456	1461	1461	1486	1488	1487	1480	1456	1464	0	0	0	0	0	0	0
0	0	0	1422	1419	1419	1432	1420	1420	1413	1408	1406	1408	1403	1403	1397	1395	1393	1385	1387	1402	1402	1418	1410	1398	1399	1407	1417	1420	1424	1424	1431	1437	1430	1414	1412	1411	1409	1402	1400	1397	1424	1434	1433	1421	1420	1432	1437	1416	1394	1396	1404	1404	1418	1418	1424	1437	1442	1430	1436	1435	1437	1438	1448	1453	1473	1477	1464	1451	1436	1435	1441	1449	1449	1453	1448	1443	1441	1442	1449	1439	1439	1442	1451	1457	1457	1462	1457	1436	1417	1401	1398	1397	1388	1390	1400	1407	1420	1428	1438	1443	1439	1439	1437	1422	1417	1415	1408	1406	1405	1406	1400	1405	1408	1416	1431	1428	1417	1408	1410	1417	1429	1426	1410	1403	1396	1397	1412	1416	1419	1415	1445	1447	1429	1443	1463	1457	1438	0	0	0	0	0	0	0	0	0	0	0	0	0	0	0	0	0	0	0	0	0	0	0	0	0	0	1639	1639	1641	1645	1662	1679	1680	1677	1676	0	0	0	0	0	0	0	0	1439	1398	1441	1449	1443	1432	1419	1411	1413	1419	1423	1415	1415	1414	1423	1430	1426	1427	1423	1422	1426	1429	1439	1450	1451	1451	1450	1458	1478	1475	1458	1452	1443	1437	1431	1436	1438	1438	1434	1429	1422	1421	1450	1476	1478	1479	1473	1464	1456	1447	1422	1407	1401	1413	1431	1448	1466	1471	1466	1453	1450	1452	1452	1448	1447	1444	1430	1424	1429	1426	1428	1441	1445	1437	1432	1432	1443	1445	1447	1447	1455	1454	1456	1437	1437	1427	1429	1428	1432	1442	1456	1454	1456	1458	1459	1447	1437	1431	1429	1429	1445	1458	1464	1457	1451	1448	1451	1467	1468	1457	1456	1452	1449	1446	1443	1442	1442	1443	1433	1429	1434	1440	1457	1468	1467	1454	1443	1437	1435	1439	1444	1440	1444	1452	1455	1453	1451	1443	1436	1430	1442	1448	1454	1461	1466	1465	1458	1456	1454	1466	1448	1438	1440	1433	1450	1454	1453	1443	1432	1432	1431	1440	1436	1445	1449	1452	1452	1450	1450	1450	1453	1457	1454	1450	1452	1461	1463	1462	1455	1440	1438	1447	1451	1456	1454	1445	1459	1472	1482	1482	1487	1477	1462	1463	1465	1469	1477	1466	1457	1452	1453	1456	1465	1471	1471	1475	1466	1456	1443	1446	1448	1450	1463	1475	1477	1475	1470	1478	1471	1465	1452	1450	1453	1460	1462	1468	1475	1480	1490	1498	1490	1481	1461	1457	1462	1449	1448	1456	1463	1451	1438	1431	1426	1435	1452	1464	1478	1480	1473	1465	1456	1449	1450	1468	1481	1485	1473	1467	1463	1452	1450	1459	1460	1459	1449	1437	1429	1432	1440	1453	1453	1458	1472	1484	1499	1512	1507	1490	1468	1459	1459	1461	1467	1463	1460	1460	1454	1458	1468	1484	1479	1471	1464	1463	1459	1465	1481	1510	1501	1472	0	0	0	0	0	0	0	0	0	0	0	0	0	0	0	0	0	0	0	0	0	0	0	1546	1541	1548	1559	1568	1566	1531	1522	1535	1545	1554	1567	1562	1544	1532	1521	1527	1544	1560	1568	1568	1556	1534	1520	1517	1517	1522	1532	1535	1544	1553	1535	0	0	0	0	0	0	0	0	0	0	0	0	0	0	0	0	1531	1521	1510	1508	1514	1525	1520	1505	1496	1490	1486	1488	1491	1493	1505	1516	1515	1500	1484	1486	1501	1510	1509	1506	1495	1501	1501	1497	1486	1479	1476	1491	1499	1496	1496	1486	1480	1458	1461	1470	1489	1502	1494	1486	1474	1458	1464	1481	1489	1496	1503	1511	1510	1505	1508	1498	1479	1484	1510	1510	1516	1512	1502	1489	1487	1491	1491	1491	1486	1470	1456	1449	1461	1473	1473	1484	1489	1481	1463	1465	1461	0	0	0	0	0	0	0
0	0	0	1422	1415	1418	1425	1419	1419	1414	1410	1414	1410	1403	1403	1395	1397	1393	1390	1390	1406	1406	1416	1413	1420	1414	1417	1421	1420	1419	1419	1422	1421	1416	1407	1421	1423	1417	1399	1399	1397	1412	1438	1430	1431	1431	1436	1453	1432	1417	1402	1408	1408	1413	1417	1421	1425	1430	1420	1430	1430	1435	1436	1450	1469	1475	1480	1463	1455	1439	1434	1439	1457	1457	1460	1456	1450	1450	1449	1449	1441	1438	1441	1449	1457	1455	1458	1456	1441	1425	1411	1399	1403	1399	1399	1407	1416	1425	1435	1440	1445	1442	1438	1439	1428	1418	1416	1417	1414	1408	1404	1403	1403	1410	1424	1435	1436	1422	1407	1409	1419	1428	1421	1415	1408	1401	1397	1411	1416	1419	1417	1444	1441	1430	1444	1464	1445	1421	0	0	0	0	0	0	0	0	0	0	0	0	0	0	0	0	0	0	0	0	0	0	0	0	0	0	1661	1640	1643	1642	1659	1663	1664	1660	1672	0	0	0	0	0	0	1506	1494	1452	1433	1448	1448	1439	1434	1423	1424	1427	1435	1428	1425	1427	1427	1438	1434	1431	1424	1422	1426	1431	1435	1442	1448	1455	1450	1454	1457	1463	1463	1459	1445	1444	1430	1424	1419	1426	1445	1442	1436	1441	1443	1455	1458	1459	1467	1468	1463	1449	1442	1427	1415	1413	1412	1421	1436	1444	1445	1453	1448	1445	1440	1426	1433	1438	1439	1433	1410	1403	1402	1408	1416	1430	1439	1445	1446	1440	1432	1427	1429	1442	1433	1428	1425	1433	1426	1428	1429	1429	1442	1460	1471	1475	1480	1467	1445	1435	1429	1419	1425	1425	1433	1437	1442	1435	1433	1445	1462	1464	1459	1451	1452	1452	1444	1439	1439	1441	1436	1428	1420	1422	1437	1454	1471	1476	1462	1441	1427	1436	1447	1451	1448	1443	1443	1445	1450	1448	1441	1440	1433	1437	1449	1458	1469	1472	1465	1461	1453	1462	1436	1426	1442	1450	1450	1434	1436	1436	1432	1427	1428	1438	1439	1452	1454	1454	1455	1455	1454	1456	1454	1459	1459	1457	1452	1455	1459	1461	1457	1449	1438	1435	1438	1445	1449	1453	1455	1466	1475	1479	1474	1470	1464	1455	1452	1449	1452	1466	1459	1456	1459	1463	1470	1470	1474	1465	1461	1454	1444	1440	1437	1447	1456	1463	1470	1468	1470	1469	1474	1465	1459	1459	1459	1458	1461	1468	1466	1466	1473	1490	1502	1492	1480	1465	1451	1445	1448	1446	1454	1455	1451	1438	1433	1433	1440	1443	1447	1449	1453	1466	1469	1475	1470	1460	1467	1467	1468	1470	1470	1463	1444	1432	1441	1449	1457	1454	1446	1444	1452	1451	1447	1446	1465	1478	1473	1471	1493	1498	1487	1468	1460	1470	1482	1489	1486	1485	1475	1479	1470	1454	1446	1457	1465	1458	1468	1485	1500	1507	1515	1514	1501	0	0	0	0	0	0	0	0	0	0	0	0	0	0	0	0	0	0	0	0	0	0	0	1546	1539	1546	1565	1576	1560	1536	1538	1542	1544	1554	1564	1564	1551	1535	1532	1538	1546	1554	1556	1552	1545	1541	1537	1540	1535	1537	1538	1531	1533	1552	1525	0	0	0	0	0	0	0	0	0	0	0	0	0	0	0	0	0	1515	1506	1514	1515	1521	1509	1494	1482	1476	1475	1484	1485	1490	1496	1505	1501	1488	1473	1478	1494	1506	1502	1501	1493	1500	1503	1504	1492	1480	1475	1481	1486	1489	1487	1472	1467	1458	1461	1478	1490	1500	1495	1481	1469	1462	1460	1479	1488	1495	1493	1491	1485	1481	1486	1490	1480	1488	1499	1499	1513	1504	1496	1492	1492	1498	1502	1501	1498	1485	1471	1464	1471	1471	1471	1480	1465	1459	1461	1459	1464	0	0	0	0	0	0	0
0	0	0	1407	1410	1411	1412	1419	1419	1421	1428	1428	1424	1408	1408	1403	1405	1400	1399	1407	1416	1416	1418	1422	1420	1424	1427	1429	1423	1423	1421	1413	1409	1404	1400	1421	1420	1422	1409	1409	1408	1412	1437	1455	1457	1440	1448	1445	1436	1418	1414	1414	1409	1410	1415	1410	1414	1419	1424	1426	1433	1431	1429	1434	1463	1473	1475	1467	1455	1439	1431	1434	1434	1446	1462	1459	1456	1456	1455	1447	1445	1440	1452	1458	1457	1459	1448	1457	1444	1428	1412	1408	1410	1409	1411	1418	1423	1431	1434	1440	1439	1441	1438	1434	1428	1419	1422	1420	1417	1415	1411	1407	1406	1412	1420	1424	1428	1420	1409	1409	1417	1426	1423	1422	1412	1406	1408	1419	1422	1425	1425	1437	1432	1419	1446	1470	1456	1425	0	0	0	0	0	0	0	0	0	0	0	0	0	0	0	0	0	0	0	0	0	0	0	0	0	0	1677	1658	1653	1649	1656	1657	1657	1666	1671	0	0	0	0	1447	1438	1431	1428	1429	1435	1436	1435	1434	1435	1431	1435	1439	1451	1446	1431	1445	1450	1447	1438	1424	1413	1411	1415	1423	1432	1438	1440	1445	1444	1444	1437	1453	1446	1440	1442	1437	1428	1425	1419	1425	1436	1443	1451	1448	1446	1439	1436	1437	1456	1462	1460	1455	1446	1433	1421	1424	1426	1433	1432	1431	1425	1438	1439	1434	1425	1414	1419	1427	1429	1422	1412	1402	1397	1402	1412	1424	1443	1452	1449	1442	1430	1425	1426	1423	1424	1431	1435	1441	1427	1414	1414	1426	1445	1466	1476	1478	1480	1464	1448	1439	1440	1423	1410	1410	1414	1425	1427	1428	1418	1432	1446	1453	1451	1445	1441	1437	1433	1440	1446	1449	1445	1433	1432	1436	1436	1443	1450	1450	1455	1459	1450	1457	1460	1453	1446	1442	1438	1437	1431	1435	1432	1430	1431	1431	1435	1443	1455	1455	1469	1462	1443	1440	1418	0	1462	1487	1475	1434	1437	1440	1436	1436	1439	1447	1446	1455	1459	1463	1459	1460	1460	1460	1461	1461	1461	1450	1445	1450	1456	1465	1459	1451	1437	1429	1434	1447	1452	1455	1454	1461	1467	1474	1473	1466	1458	1458	1453	1443	1441	1445	1451	1455	1458	1460	1470	1476	1471	1465	1453	1444	1433	1430	1437	1450	1447	1456	1458	1456	1455	1458	1457	1453	1465	1470	1468	1461	1461	1465	1452	1457	1465	1483	1496	1492	1466	1464	1451	1446	1444	1447	1449	1445	1443	1442	1434	1437	1436	1437	1437	1456	1462	1462	1461	1472	1474	1452	1461	1463	1462	1462	1456	1451	1436	1424	1436	1453	1459	1456	1446	1446	1447	1448	1439	1441	1459	1479	1480	1467	1460	1460	1463	1475	1475	1488	1501	1499	1483	1472	1471	1470	1458	1452	1444	1457	1459	1456	1465	1486	1505	1512	1517	1527	1529	1499	0	0	0	0	0	0	0	0	0	0	0	0	0	0	0	0	0	0	0	0	0	0	1570	1550	1562	1573	1581	1548	1535	1542	1545	1541	1547	1554	1567	1559	1545	1546	1545	1551	1549	1551	1554	1549	1550	1545	1545	1540	1541	1539	1537	1540	1544	1541	0	0	0	0	0	0	0	0	0	0	0	0	0	0	0	0	0	1520	1509	1499	1510	1507	1496	1485	1480	1474	1476	1481	1483	1482	1486	1484	1485	1482	1474	1473	1481	1493	1495	1494	1493	1494	1501	1501	1497	1487	1474	1476	1471	1462	1456	1456	1460	1470	1480	1491	1496	1504	1506	1491	1474	1469	1464	1470	1482	1487	1482	1472	1466	1463	1464	1472	1485	1496	1505	1505	1509	1504	1495	1493	1489	1493	1496	1497	1489	1492	1486	1474	1466	1458	1461	1461	1460	1461	1457	1459	1465	0	0	0	0	0	0	0
0	0	0	1401	1408	1410	1417	1429	1429	1428	1436	1437	1431	1419	1419	1404	1400	1408	1413	1421	1429	1429	1429	1423	1424	1427	1428	1429	1429	1429	1422	1412	1406	1404	1401	1411	1424	1425	1419	1419	1416	1412	1429	1458	1469	1459	1440	1426	1428	1416	1411	1411	1408	1407	1406	1404	1409	1420	1431	1435	1433	1431	1433	1439	1452	1460	1461	1459	1444	1435	1428	1420	1420	1419	1429	1443	1450	1451	1453	1447	1443	1452	1461	1472	1468	1459	1469	1455	1443	1429	1420	1407	1405	1411	1419	1428	1434	1438	1436	1429	1431	1432	1427	1425	1425	1417	1412	1416	1417	1415	1413	1407	1404	1404	1407	1419	1420	1421	1415	1419	1426	1425	1426	1424	1423	1419	1429	1435	1434	1432	1433	1431	1422	1417	1448	1461	1454	0	0	0	0	0	0	0	0	0	0	0	0	0	0	0	0	0	0	0	0	0	0	0	0	0	0	0	1680	1675	1676	1659	1646	1647	1650	1651	1647	0	0	0	0	1433	1400	1390	1399	1408	1413	1417	1425	1433	1437	1432	1434	1443	1455	1459	1457	1464	1464	1447	1425	1413	1395	1394	1396	1414	1423	1432	1436	1436	1442	1439	1427	1422	1423	1430	1426	1423	1428	1438	1447	1434	1434	1446	1443	1445	1437	1432	1429	1435	1448	1465	1459	1449	1446	1438	1426	1426	1426	1431	1425	1434	1432	1433	1431	1420	1417	1400	1404	1413	1418	1412	1405	1404	1405	1406	1414	1427	1444	1453	1453	1445	1431	1430	1422	1422	1418	1427	1445	1439	1432	1421	1421	1440	1457	1473	1477	1477	1464	1452	1445	1440	1432	1425	1416	1416	1422	1433	1437	1430	1430	1430	1439	1451	1450	1445	1432	1431	1433	1437	1450	1453	1454	1444	1440	1438	1433	1434	1436	1447	1458	1462	1463	1473	1465	1462	1458	1452	1450	1440	1433	1431	1437	1436	1433	1426	1429	1434	1444	1448	1449	1444	1431	0	0	0	0	1511	1484	1440	1438	1438	1440	1446	1447	1454	1454	1460	1460	1461	1462	1460	1461	1465	1463	1458	1446	1434	1434	1447	1458	1462	1465	1456	1446	1437	1435	1434	1452	1451	1440	1449	1455	1468	1465	1461	1460	1461	1452	1443	1438	1447	1452	1453	1460	1466	1472	1477	1473	1467	1463	1451	1442	1436	1436	1437	1440	1442	1447	1444	1440	1445	1449	1455	1467	1485	1471	1463	1461	1448	1443	1445	1454	1458	1468	1463	1465	1461	1453	1451	1450	1453	1455	1456	1459	1447	1432	1424	1429	1435	1442	1453	1461	1458	1464	1465	1464	1452	1456	1452	1449	1445	1439	1430	1423	1422	1441	1458	1462	1456	1447	1443	1441	1440	1433	1438	1448	1462	1473	1459	1444	1443	1453	1472	1487	1497	1494	1475	1466	1456	1453	1458	1462	1457	1456	1440	1439	1448	1453	1480	1498	1503	1499	1497	1506	1511	1513	0	0	0	0	0	0	0	0	0	0	0	0	0	0	0	0	1591	0	0	0	0	1594	1577	1580	1580	1582	1525	1523	1548	1546	1534	1538	1547	1565	1565	1564	1559	1551	1552	1548	1546	1542	1547	1545	1547	1546	1548	1543	1540	1535	1526	1535	1548	0	0	0	0	0	0	0	0	0	0	0	0	0	0	0	0	0	1526	1521	1513	1499	1490	1487	1481	1483	1481	1475	1476	1479	1481	1478	1472	1476	1482	1483	1479	1485	1497	1507	1502	1488	1494	1504	1501	1497	1488	1472	1464	1451	1447	1460	1456	1462	1474	1487	1496	1506	1505	1512	1511	1496	1480	1466	1464	1478	1482	1473	1464	1457	1454	1452	1465	1488	1499	1506	1506	1506	1504	1496	1495	1492	1495	1493	1487	1484	1486	1481	1474	1464	1458	1455	1455	1462	1470	1468	1467	1468	0	0	0	0	0	0	0
0	0	0	1408	1415	1415	1417	1417	1422	1422	1423	1426	1420	1414	1414	1406	1407	1412	1422	1432	1430	1430	1430	1424	1421	1422	1428	1430	1433	1433	1422	1415	1414	1408	1404	1410	1426	1423	1422	1422	1419	1416	1431	1454	1463	1460	1441	1425	1418	1427	1426	1416	1409	1414	1414	1418	1419	1430	1443	1443	1442	1430	1440	1448	1447	1445	1447	1443	1436	1428	1419	1412	1412	1404	1409	1419	1432	1445	1444	1443	1446	1457	1466	1481	1483	1482	1486	1466	1442	1429	1421	1411	1414	1415	1420	1432	1439	1440	1435	1427	1424	1418	1417	1414	1414	1417	1412	1414	1412	1414	1413	1407	1403	1403	1408	1416	1418	1421	1426	1426	1430	1432	1424	1423	1426	1429	1440	1444	1439	1433	1431	1425	1417	1431	1447	1449	1431	0	0	0	0	0	0	0	0	0	0	0	0	0	0	0	0	0	0	0	0	0	0	0	0	0	0	0	1659	1679	1679	1669	1649	1653	1656	1667	1639	0	0	0	1420	1419	1396	1396	1402	1411	1412	1413	1427	1435	1436	1432	1421	1427	1446	1451	1450	1449	1442	1409	1396	1387	1388	1384	1388	1406	1416	1430	1432	1426	1439	1436	1415	1410	1425	1428	1430	1428	1439	1449	1453	1449	1430	1434	1438	1437	1438	1431	1432	1436	1454	1462	1446	1439	1431	1432	1427	1427	1429	1424	1428	1436	1437	1437	1433	1419	1412	1401	1401	1414	1413	1411	1405	1406	1412	1415	1422	1428	1434	1444	1450	1450	1439	1427	1419	1419	1420	1423	1435	1437	1435	1429	1433	1445	1463	1478	1476	1469	1441	1433	1437	1439	1441	1430	1420	1421	1429	1452	1456	1447	1443	1443	1451	1458	1454	1451	1434	1426	1433	1441	1450	1454	1461	1450	1446	1438	1423	1419	1426	1437	1449	1459	1467	1471	1470	1461	1462	1461	1456	1448	1439	1437	1435	1434	1431	1428	1433	1438	1437	1439	1433	1427	0	0	0	0	0	1510	1482	1441	1441	1442	1447	1449	1455	1462	1466	1465	1465	1453	1447	1446	1446	1457	1458	1449	1434	1423	1428	1440	1455	1464	1463	1458	1451	1443	1445	1447	1452	1445	1438	1442	1441	1438	1435	1439	1448	1455	1453	1445	1441	1449	1448	1452	1462	1467	1469	1468	1458	1458	1460	1459	1451	1444	1443	1442	1443	1448	1447	1447	1452	1451	1450	1456	1468	1481	1469	1456	1452	1451	1444	1445	1442	1445	1440	1447	1449	1453	1457	1464	1458	1456	1456	1459	1458	1450	1438	1429	1432	1436	1438	1440	1446	1451	1461	1462	1468	1465	1453	1445	1442	1433	1427	1424	1421	1429	1447	1462	1457	1440	1435	1435	1441	1441	1439	1440	1444	1460	1463	1448	1434	1434	1441	1457	1473	1482	1481	1463	1442	1439	1448	1474	1479	1467	1463	1445	1444	1449	1463	1478	1487	1488	1489	1485	1487	1492	1506	0	0	0	0	0	0	0	0	0	0	0	0	0	0	0	0	0	0	0	0	0	1619	1601	1591	1592	1583	1517	1521	1544	1538	1535	1534	1538	1560	1567	1572	1567	1559	1544	1544	1542	1537	1537	1540	1541	1547	1548	1546	1543	1533	1522	1524	1538	0	0	0	0	0	0	0	0	0	0	0	0	0	0	0	0	0	0	1539	1527	1504	1479	1483	1486	1481	1477	1464	1460	1468	1471	1471	1470	1474	1481	1487	1490	1501	1512	1517	1512	1501	1490	1499	1501	1494	1485	1473	1463	1451	1451	1462	1464	1456	1461	1478	1486	1506	1518	1522	1520	1505	1483	1482	1478	1485	1483	1481	1468	1458	1441	1431	1449	1478	1501	1508	1508	1508	1499	1488	1481	1488	1493	1503	1506	1495	1484	1486	1478	1467	1461	1465	1465	1472	1478	1482	1475	1477	0	0	0	0	0	0	0
0	0	0	1426	1422	1418	1419	1419	1417	1414	1411	1409	1413	1411	1411	1405	1411	1422	1435	1441	1447	1447	1437	1420	1422	1424	1430	1431	1432	1432	1433	1421	1415	1412	1406	1413	1428	1428	1427	1427	1427	1429	1440	1439	1439	1446	1440	1421	1434	1444	1442	1442	1442	1447	1451	1435	1434	1438	1439	1450	1443	1444	1454	1453	1446	1440	1438	1439	1428	1425	1412	1408	1408	1400	1401	1408	1422	1429	1437	1438	1451	1462	1474	1482	1493	1489	1492	1472	1441	1424	1417	1419	1419	1410	1417	1423	1435	1438	1433	1428	1420	1413	1407	1409	1413	1413	1416	1409	1414	1412	1412	1410	1412	1412	1414	1417	1426	1421	1418	1434	1435	1431	1423	1418	1421	1427	1438	1441	1441	1433	1428	1424	1413	1429	1433	1425	1422	0	0	0	0	0	0	0	0	0	0	0	0	0	0	0	0	0	0	0	0	0	0	0	0	0	0	0	1647	1672	1681	1671	1656	1659	1670	1663	1638	0	0	0	1394	1414	1399	1405	1416	1421	1427	1423	1432	1439	1437	1426	1413	1421	1436	1432	1426	1424	1414	1394	1384	1385	1393	1391	1393	1399	1422	1426	1423	1421	1437	1427	1412	1406	1406	1415	1421	1430	1448	1456	1456	1446	1427	1423	1428	1439	1441	1430	1429	1437	1453	1452	1449	1427	1417	1419	1426	1433	1426	1429	1429	1434	1435	1434	1435	1431	1424	1413	1415	1418	1423	1415	1410	1412	1415	1422	1424	1426	1430	1437	1444	1441	1436	1429	1419	1417	1418	1429	1430	1437	1439	1436	1434	1443	1455	1467	1468	1458	1428	1426	1428	1436	1445	1444	1435	1435	1442	1450	1466	1464	1460	1461	1468	1469	1459	1449	1445	1443	1442	1445	1444	1452	1461	1459	1449	1440	1423	1415	1421	1433	1445	1452	1447	1450	1451	1449	1458	1463	1461	1444	1439	1435	1419	1414	1419	1426	1438	1448	1450	1437	1425	1439	0	0	0	0	0	1505	1477	1442	1447	1452	1452	1454	1457	1464	1469	1465	1460	1452	1445	1437	1436	1446	1450	1443	1430	1423	1430	1439	1451	1456	1456	1454	1447	1446	1442	1447	1449	1447	1441	1441	1442	1435	1429	1433	1439	1445	1446	1444	1449	1455	1456	1454	1462	1468	1467	1454	1448	1446	1458	1460	1460	1453	1449	1451	1452	1457	1460	1463	1465	1468	1466	1468	1471	1476	1467	1451	1447	1447	1444	1450	1449	1444	1437	1436	1436	1441	1457	1463	1460	1454	1454	1455	1458	1454	1449	1444	1444	1441	1433	1435	1436	1445	1453	1461	1466	1467	1461	1449	1437	1430	1425	1427	1430	1436	1450	1454	1440	1426	1422	1421	1434	1439	1444	1440	1445	1454	1459	1441	1429	1428	1430	1442	1459	1464	1464	1457	1442	1444	1460	1481	1489	1481	1482	1467	1464	1469	1469	1469	1467	1468	1464	1468	1470	1488	0	0	0	0	0	0	0	0	0	0	0	0	0	0	0	0	0	0	0	0	1622	1636	1642	1618	1599	1587	1577	1530	1519	1537	1536	1539	1543	1539	1554	1565	1568	1564	1556	1538	1532	1536	1533	1535	1534	1537	1540	1549	1550	1547	1530	1530	1534	1541	0	0	0	0	0	0	0	0	0	0	0	0	0	0	0	0	0	0	1559	1548	1514	1498	1493	1491	1486	1482	1465	1455	1466	1473	1478	1478	1479	1486	1493	1495	1507	1515	1520	1512	1498	1487	1488	1501	1493	1492	1486	1476	1461	1473	1469	1469	1462	1450	1461	1476	1497	1519	1534	1522	1506	1485	1482	1485	1492	1493	1496	1481	1465	1442	1431	1445	1478	1497	1497	1495	1495	1493	1461	1455	1472	1490	1508	1517	1510	1495	1485	1477	1474	1471	1470	1470	1481	1490	1489	1483	1480	0	0	0	0	0	0	0
0	0	0	1435	1425	1421	1417	1417	1412	1413	1408	1407	1411	1409	1409	1412	1417	1421	1442	1444	1445	1445	1435	1421	1412	1418	1425	1435	1435	1435	1431	1426	1421	1412	1416	1422	1431	1430	1435	1435	1436	1441	1437	1431	1422	1420	1427	1435	1449	1460	1460	1460	1453	1452	1452	1446	1442	1431	1431	1432	1439	1443	1451	1453	1443	1444	1439	1439	1427	1420	1408	1407	1407	1408	1407	1405	1415	1426	1432	1443	1454	1463	1474	1485	1491	1495	1495	1480	1459	1435	1427	1426	1420	1409	1409	1415	1427	1434	1434	1433	1423	1417	1413	1412	1407	1408	1414	1417	1409	1402	1403	1413	1425	1429	1430	1426	1421	1419	1428	1431	1432	1431	1424	1415	1415	1417	1427	1433	1438	1434	1425	1424	1418	1431	1424	1417	1435	0	0	0	0	0	0	0	0	0	0	0	0	0	0	0	0	0	0	0	0	0	0	0	0	0	0	0	1653	1661	1668	1671	1672	1667	1676	1668	1643	0	0	0	1403	1419	1406	1417	1420	1431	1434	1435	1437	1430	1428	1421	1422	1425	1421	1416	1408	1404	1400	1396	1387	1425	1435	1432	1427	1414	1404	1401	1404	1426	1443	1439	1416	1406	1407	1411	1417	1430	1452	1460	1454	1435	1417	1415	1428	1441	1441	1430	1428	1429	1443	1455	1443	1422	1411	1418	1428	1434	1431	1429	1424	1419	1422	1431	1432	1436	1446	1436	1429	1428	1433	1425	1428	1426	1419	1427	1426	1423	1424	1429	1434	1431	1430	1425	1423	1419	1422	1426	1435	1442	1447	1440	1433	1436	1437	1447	1446	1440	1419	1418	1432	1437	1446	1450	1450	1443	1444	1449	1454	1465	1456	1463	1465	1465	1457	1451	1448	1444	1444	1442	1443	1449	1454	1455	1452	1447	1431	1422	1417	1429	1447	1449	1438	1438	1436	1444	1447	1462	1455	1445	1434	1428	1412	1411	1419	1431	1445	1457	1461	1453	1432	1456	0	0	0	0	0	1506	1489	1473	1460	1457	1457	1463	1465	1469	1466	1464	1452	1442	1440	1434	1438	1445	1446	1442	1440	1443	1439	1444	1450	1459	1453	1452	1451	1450	1448	1449	1449	1450	1445	1441	1442	1437	1436	1433	1432	1436	1440	1452	1466	1483	1485	1471	1463	1464	1462	1449	1436	1441	1439	1446	1457	1459	1454	1453	1456	1462	1469	1472	1477	1482	1487	1482	1477	1483	1461	1450	1444	1439	1441	1449	1453	1446	1437	1433	1429	1437	1453	1465	1465	1455	1445	1441	1449	1455	1460	1459	1447	1442	1437	1434	1435	1440	1447	1459	1466	1462	1453	1439	1435	1435	1434	1434	1437	1441	1449	1447	1434	1419	1412	1414	1418	1435	1445	1448	1451	1456	1448	1435	1428	1423	1426	1434	1444	1454	1462	1459	1448	1449	1457	1475	1485	1482	1480	1479	1477	1484	1483	1478	1462	1456	1460	1453	1455	1455	0	0	0	0	0	0	0	0	0	0	0	0	0	0	0	0	0	0	0	1592	1615	1640	1647	1619	1604	1589	1569	1527	1519	1531	1536	1535	1548	1547	1553	1559	1565	1568	1557	1542	1534	1531	1533	1533	1532	1538	1545	1552	1550	1548	1532	1518	1537	1551	0	0	0	0	0	0	0	0	0	0	0	0	0	0	0	0	0	0	1570	1547	1510	1498	1504	1502	1496	1490	1482	1463	1469	1486	1499	1500	1495	1497	1496	1499	1500	1507	1507	1501	1490	1483	1487	1499	1501	1502	1496	1501	1495	1494	1494	1489	1482	1479	1478	1473	1473	1474	1482	1484	1479	1469	1454	1467	1487	1500	1508	1495	1483	1474	1475	1469	1475	1488	1486	1485	1485	1480	1473	1468	1475	1497	1513	1517	1505	1491	1478	1475	1480	1477	1481	1481	1489	1495	1494	1478	1467	0	0	0	0	0	0	0
0	0	0	1433	1425	1415	1410	1410	1411	1414	1405	1406	1415	1412	1412	1415	1417	1420	1435	1435	1435	1435	1412	1394	1391	1408	1421	1433	1438	1438	1435	1422	1420	1414	1415	1420	1428	1435	1434	1434	1437	1443	1438	1422	1409	1413	1431	1443	1457	1467	1476	1476	1468	1452	1439	1436	1428	1429	1430	1436	1435	1434	1433	1430	1432	1436	1451	1452	1445	1440	1444	1444	1428	1414	1413	1412	1420	1423	1436	1457	1470	1462	1469	1477	1484	1492	1494	1486	1470	1457	1438	1426	1422	1417	1408	1410	1416	1422	1433	1439	1432	1420	1416	1408	1405	1410	1414	1416	1409	1404	1409	1423	1439	1441	1438	1433	1426	1425	1427	1427	1420	1421	1419	1417	1415	1416	1422	1428	1438	1434	1431	1430	1421	1422	1409	1416	1456	0	0	0	0	0	0	0	0	0	0	0	0	0	0	0	0	0	0	0	0	0	0	0	0	0	0	0	1668	1660	1665	1679	1688	1690	1683	1674	1661	0	0	0	1452	1445	1433	1428	1430	1434	1437	1435	1438	1429	1422	1422	1424	1423	1413	1413	1410	1402	1399	1408	1424	1439	1450	1443	1430	1421	1400	1393	1394	1422	1433	1431	1423	1422	1419	1426	1427	1441	1453	1454	1445	1433	1423	1423	1434	1449	1447	1433	1433	1435	1443	1445	1442	1428	1414	1417	1426	1431	1436	1425	1414	1410	1410	1415	1424	1438	1447	1445	1432	1436	1435	1440	1439	1438	1429	1431	1430	1427	1428	1430	1429	1431	1428	1429	1427	1427	1427	1429	1442	1451	1455	1441	1430	1429	1420	1415	1426	1432	1428	1424	1428	1441	1450	1454	1452	1446	1448	1441	1444	1451	1446	1451	1444	1445	1445	1445	1443	1440	1438	1440	1441	1446	1452	1454	1458	1455	1434	1418	1419	1427	1445	1446	1441	1435	1431	1448	1459	1458	1452	1443	1436	1429	1426	1420	1427	1441	1453	1467	1467	1461	1498	1479	0	0	0	0	0	1510	1505	1492	1478	1466	1463	1461	1465	1460	1460	1450	1445	1446	1444	1443	1438	1442	1445	1447	1454	1462	1458	1458	1458	1455	1454	1456	1458	1458	1451	1450	1451	1455	1458	1444	1449	1449	1451	1445	1431	1433	1438	1457	1485	1494	1497	1475	1465	1460	1458	1447	1437	1433	1432	1443	1442	1449	1456	1456	1455	1460	1458	1460	1465	1483	1488	1485	1474	1465	1446	1444	1444	1442	1444	1455	1461	1452	1443	1436	1429	1438	1451	1459	1460	1453	1444	1441	1441	1456	1454	1458	1451	1442	1443	1442	1441	1441	1452	1462	1468	1456	1436	1432	1436	1439	1448	1454	1459	1456	1449	1443	1420	1408	1411	1418	1423	1436	1456	1467	1454	1453	1447	1441	1429	1424	1424	1433	1438	1451	1458	1450	1444	1442	1449	1463	1471	1477	1480	1485	1492	1493	1488	1482	1473	1469	1475	1465	1448	0	0	0	0	0	0	0	0	0	0	0	0	0	0	0	0	0	0	0	0	1586	1610	1626	1633	1615	1598	1575	1549	1507	1507	1529	1537	1544	1544	1551	1549	1554	1559	1559	1551	1544	1536	1534	1534	1536	1540	1541	1549	1552	1551	1543	1521	1515	1537	1552	0	0	0	0	0	0	0	0	0	0	0	0	0	0	0	0	0	0	1572	1531	1498	1495	1508	1515	1514	1501	1489	1486	1479	1500	1513	1519	1515	1511	1506	1498	1498	1499	1493	1484	1478	1477	1484	1493	1498	1504	1508	1510	1511	1508	1509	1494	1486	1488	1491	1484	1480	1481	1484	1487	1482	1480	1467	1469	1481	1490	1500	1492	1491	1484	1481	1483	1483	1490	1492	1484	1484	1482	1480	1482	1494	1502	1508	1507	1495	1480	1476	1482	1485	1483	1480	1480	1487	1495	1487	1465	1459	0	0	0	0	0	0	0
0	0	0	1429	1430	1419	1414	1414	1410	1412	1409	1411	1411	1416	1416	1408	1414	1418	1417	1418	1408	1408	1393	1371	1377	1393	1412	1425	1429	1429	1420	1414	1413	1412	1409	1415	1426	1431	1429	1429	1426	1422	1416	1400	1409	1424	1444	1453	1463	1474	1482	1482	1474	1453	1435	1427	1420	1432	1444	1445	1445	1439	1430	1423	1425	1438	1449	1468	1484	1484	1477	1477	1451	1422	1423	1414	1421	1435	1451	1474	1470	1467	1464	1469	1477	1487	1488	1486	1476	1463	1437	1419	1420	1422	1418	1409	1412	1421	1433	1438	1438	1425	1420	1413	1411	1404	1412	1416	1415	1414	1422	1436	1446	1444	1436	1428	1426	1427	1419	1416	1410	1414	1420	1419	1418	1416	1423	1429	1436	1438	1437	1432	1413	1417	1417	1427	1473	0	0	0	0	0	0	0	0	0	0	0	0	0	0	0	0	0	0	0	0	0	0	0	0	0	0	0	1660	1662	1672	1696	1706	1711	1707	1693	1681	0	0	0	0	1463	1462	1456	1444	1439	1444	1444	1446	1441	1444	1445	1445	1436	1421	1421	1421	1412	1405	1417	1428	1442	1449	1444	1437	1428	1414	1405	1407	1432	1431	1426	1425	1426	1437	1437	1440	1448	1456	1449	1438	1430	1429	1433	1443	1452	1450	1442	1445	1446	1442	1444	1442	1428	1420	1426	1426	1427	1423	1412	1407	1402	1405	1412	1421	1436	1431	1424	1428	1431	1434	1438	1442	1445	1436	1436	1431	1432	1432	1437	1432	1429	1421	1423	1423	1425	1430	1431	1439	1445	1446	1440	1430	1425	1410	1409	1411	1424	1433	1431	1428	1438	1444	1449	1453	1450	1442	1432	1435	1439	1445	1442	1439	1439	1439	1443	1437	1435	1432	1441	1442	1449	1449	1454	1466	1468	1445	1435	1425	1426	1441	1443	1446	1444	1444	1446	1449	1453	1450	1446	1445	1445	1438	1428	1424	1445	1458	1472	1474	1465	1495	1476	1481	1530	0	1546	1518	1490	1505	1502	1490	1472	1467	1462	1462	1450	1448	1445	1443	1451	1455	1453	1447	1444	1441	1437	1450	1474	1471	1464	1454	1454	1457	1459	1464	1460	1451	1444	1445	1449	1454	1454	1455	1465	1468	1456	1444	1445	1455	1480	1494	1502	1496	1467	1457	1456	1452	1442	1433	1426	1427	1435	1446	1459	1465	1459	1456	1452	1444	1446	1455	1465	1479	1472	1459	1451	1435	1434	1444	1454	1467	1470	1458	1451	1431	1439	1435	1441	1449	1460	1459	1456	1451	1437	1437	1442	1445	1453	1443	1442	1445	1449	1452	1448	1448	1453	1455	1446	1429	1431	1433	1448	1455	1464	1468	1470	1459	1442	1419	1414	1425	1429	1440	1448	1467	1479	1466	1459	1443	1437	1431	1435	1439	1442	1448	1450	1456	1450	1445	1440	1444	1452	1456	1460	1467	1492	1499	1501	1491	1483	1483	1477	1477	1463	0	0	0	0	0	0	0	0	0	0	0	0	0	0	0	0	0	0	0	0	0	1585	1592	1611	1608	1596	1576	1559	1540	1504	1518	1532	1539	1543	1545	1543	1547	1550	1551	1552	1547	1544	1543	1542	1537	1538	1541	1547	1549	1545	1541	1531	1523	1520	1537	1541	0	0	0	0	0	0	0	0	0	0	0	0	0	0	0	0	0	0	1552	1521	1493	1496	1506	1507	1516	1517	1504	1494	1486	1492	1518	1527	1531	1531	1519	1508	1510	1504	1493	1475	1473	1476	1483	1487	1489	1493	1504	1504	1506	1514	1515	1506	1499	1496	1496	1492	1483	1480	1478	1472	1478	1487	1491	1489	1481	1482	1484	1487	1485	1482	1479	1476	1480	1486	1486	1487	1487	1481	1481	1488	1499	1503	1498	1492	1485	1474	1476	1481	1483	1478	1481	1481	1486	1489	1480	1464	1454	0	0	0	0	0	0	0
0	0	0	1424	1426	1424	1414	1414	1409	1409	1411	1415	1411	1410	1410	1403	1407	1406	1411	1414	1408	1408	1386	1365	1374	1386	1397	1409	1419	1419	1410	1413	1409	1403	1404	1408	1425	1426	1426	1421	1407	1404	1393	1397	1409	1432	1451	1460	1456	1469	1475	1475	1471	1459	1447	1429	1427	1443	1457	1462	1461	1450	1437	1424	1423	1435	1451	1470	1486	1496	1482	1482	1455	1435	1433	1426	1432	1448	1455	1456	1465	1465	1464	1463	1470	1482	1483	1483	1476	1457	1427	1413	1418	1423	1425	1418	1409	1420	1432	1445	1444	1429	1420	1416	1415	1412	1414	1416	1414	1416	1420	1437	1439	1436	1424	1421	1422	1414	1413	1411	1409	1415	1421	1426	1421	1421	1426	1434	1441	1440	1438	1433	1419	1413	1425	1464	0	0	0	0	0	0	0	0	0	0	0	0	0	0	0	0	0	0	0	0	0	0	0	0	0	0	0	0	1637	1662	1677	1695	1717	2041	2039	2033	1753	0	0	0	0	0	1490	1483	1474	1449	1443	1443	1447	1442	1445	1443	1450	1448	1425	1424	1421	1416	1412	1420	1426	1437	1438	1437	1432	1436	1433	1431	1424	1426	1434	1432	1437	1439	1447	1452	1454	1459	1451	1437	1433	1423	1420	1426	1431	1441	1447	1449	1452	1451	1448	1446	1440	1431	1430	1433	1433	1423	1415	1407	1403	1407	1411	1417	1432	1444	1424	1419	1419	1422	1426	1433	1437	1441	1443	1436	1431	1432	1430	1425	1428	1427	1420	1414	1417	1422	1427	1436	1437	1434	1436	1434	1427	1427	1413	1411	1420	1421	1430	1434	1430	1430	1435	1441	1444	1444	1429	1420	1418	1425	1435	1435	1433	1437	1439	1438	1436	1438	1439	1445	1444	1451	1457	1467	1477	1482	1456	1440	1438	1434	1435	1447	1450	1453	1446	1440	1441	1449	1453	1455	1459	1459	1448	1431	1434	1440	1457	1467	1472	1469	1483	1464	1480	1515	1558	1554	1511	1472	1487	1485	1481	1467	1456	1457	1451	1451	1445	1441	1434	1428	1427	1424	1419	1418	1407	1405	1411	1457	1471	1462	1455	1455	1454	1452	1455	1458	1446	1438	1441	1448	1456	1458	1462	1462	1472	1465	1457	1456	1473	1491	1501	1496	1486	1463	1458	1453	1445	1441	1433	1432	1428	1434	1445	1459	1465	1462	1451	1444	1436	1436	1446	1454	1463	1460	1453	1441	1432	1436	1446	1461	1477	1476	1466	1454	1447	1444	1443	1449	1447	1454	1456	1457	1458	1447	1450	1441	1443	1434	1442	1447	1447	1450	1450	1440	1439	1442	1441	1435	1436	1436	1434	1444	1448	1463	1476	1483	1473	1451	1427	1436	1445	1455	1458	1470	1479	1488	1482	1461	1440	1432	1438	1439	1433	1444	1457	1449	1450	1448	1449	1444	1442	1444	1449	1450	1453	1484	1496	1496	1491	1483	1478	1467	1459	1463	0	0	0	0	0	0	0	0	0	0	0	0	0	0	0	0	0	0	0	0	0	1599	1594	1606	1597	1583	1568	1552	1539	1523	1520	1530	1544	1548	1546	1542	1548	1551	1546	1543	1539	1542	1550	1558	1551	1535	1536	1537	1546	1541	1534	1528	1518	1535	1536	1525	0	0	0	0	0	0	0	0	0	0	0	0	0	0	0	0	0	1552	1543	1518	1505	1501	1505	1505	1514	1519	1513	1496	1490	1493	1514	1535	1546	1552	1544	1537	1533	1526	1499	1475	1465	1468	1482	1483	1483	1492	1499	1497	1498	1476	1488	1492	1490	1487	1490	1489	1479	1466	1458	1461	1467	1478	1485	1482	1479	1477	1480	1482	1485	1482	1475	1472	1477	1482	1485	1481	1481	1481	1485	1495	1507	1499	1490	1484	1475	1476	1474	1479	1471	1465	1470	1470	1478	1482	1472	1461	1457	0	0	0	0	0	0	0
0	0	0	1427	1429	1428	1421	1421	1415	1404	1410	1418	1416	1402	1402	1400	1401	1409	1423	1430	1417	1417	1406	1404	1410	1406	1405	1409	1417	1417	1418	1419	1414	1412	1403	1407	1422	1430	1430	1427	1413	1395	1403	1412	1425	1442	1453	1453	1459	1461	1464	1464	1469	1464	1462	1449	1441	1446	1461	1470	1466	1458	1441	1431	1425	1432	1446	1461	1484	1496	1486	1486	1452	1443	1438	1439	1438	1443	1447	1455	1468	1471	1464	1458	1456	1482	1482	1459	1445	1421	1410	1410	1415	1420	1419	1411	1407	1411	1427	1439	1424	1414	1415	1414	1415	1410	1396	1402	1402	1406	1420	1430	1435	1435	1409	1417	1420	1412	1419	1423	1420	1433	1430	1422	1419	1421	1427	1432	1438	1442	1436	1424	1423	1429	1433	1464	0	0	0	0	0	0	0	0	0	0	0	0	0	0	0	0	0	0	0	0	0	0	0	0	0	0	0	0	1596	1662	1684	1694	1698	1694	1687	1702	1788	0	0	0	0	0	1500	1471	1461	1444	1429	1429	1433	1435	1431	1434	1442	1440	1414	1408	1408	1408	1412	1413	1422	1423	1427	1430	1437	1442	1454	1454	1445	1433	1438	1446	1452	1452	1456	1458	1461	1458	1445	1431	1425	1423	1412	1413	1417	1421	1427	1437	1448	1455	1453	1445	1433	1421	1427	1434	1442	1434	1416	1406	1421	1416	1418	1425	1442	1448	1425	1419	1421	1417	1418	1424	1431	1437	1437	1442	1433	1418	1425	1421	1426	1426	1419	1410	1412	1418	1426	1432	1436	1430	1427	1431	1432	1425	1417	1416	1413	1423	1431	1428	1427	1425	1427	1431	1429	1424	1411	1411	1415	1414	1419	1419	1424	1434	1440	1443	1440	1445	1452	1450	1456	1461	1463	1471	1477	1476	1469	1451	1440	1441	1442	1446	1456	1455	1442	1437	1444	1452	1457	1466	1469	1465	1450	1435	1431	1434	1445	1458	1462	1462	1473	1465	1491	1521	1564	1552	1518	1463	1465	1462	1461	1459	1459	1447	1454	1451	1445	1441	1437	1431	1428	1425	1423	1426	1412	1412	1414	1409	1457	1453	1454	1456	1456	1449	1448	1446	1435	1436	1444	1456	1460	1467	1471	1477	1468	1459	1447	1449	1467	1493	1498	1491	1475	1463	1461	1458	1450	1445	1440	1441	1435	1440	1454	1458	1459	1458	1451	1438	1431	1428	1434	1438	1445	1449	1439	1433	1423	1428	1446	1465	1474	1473	1467	1457	1455	1458	1459	1459	1442	1441	1454	1460	1463	1464	1454	1447	1440	1438	1450	1446	1447	1449	1443	1439	1427	1426	1430	1431	1440	1437	1443	1431	1440	1458	1476	1487	1481	1460	1449	1449	1460	1470	1471	1479	1482	1484	1476	1462	1450	1442	1443	1443	1446	1451	1461	1442	1436	1427	1431	1434	1440	1439	1445	1445	1451	1478	1484	1483	1470	1462	1460	1455	1446	1465	0	0	0	0	0	0	0	0	0	0	0	0	0	0	0	0	0	0	0	0	0	1614	1597	1593	1589	1580	1574	1566	1551	1553	1552	1569	1577	1567	1540	1529	1515	1527	1539	1549	1555	1562	1574	1581	1563	1547	1535	1539	1550	1567	1561	1546	1533	1547	1526	1513	0	0	0	0	0	0	0	0	0	0	0	0	0	0	0	0	0	1544	1546	1536	1517	1516	1508	1511	1511	1519	1519	1505	1498	1501	1513	1523	1532	1538	1528	1530	1523	1509	1483	1454	1444	1445	1457	1467	1472	1491	1506	1513	1497	1495	1481	1486	1488	1481	1473	1474	1462	1456	1454	1458	1466	1477	1481	1480	1484	1482	1485	1487	1488	1493	1483	1477	1477	1481	1483	1478	1478	1480	1486	1497	1507	1502	1490	1477	1476	1474	1470	1465	1459	1450	1461	1461	1470	1478	1472	1463	1468	0	0	0	0	0	0	0
0	0	0	1429	1438	1435	1428	1428	1420	1415	1428	1435	1427	1411	1411	1409	1411	1422	1434	1445	1456	1456	1451	1447	1437	1436	1433	1427	1425	1425	1433	1434	1427	1418	1406	1410	1416	1431	1431	1441	1430	1417	1426	1425	1434	1444	1451	1461	1468	1464	1461	1461	1465	1470	1472	1465	1454	1452	1452	1462	1467	1457	1449	1442	1439	1436	1444	1452	1463	1487	1483	1483	1466	1454	1456	1446	1443	1439	1446	1459	1474	1474	1462	1450	1455	1473	1480	1451	1432	1430	1422	1421	1420	1421	1416	1415	1405	1403	1411	1414	1405	1403	1407	1409	1407	1396	1402	1406	1407	1407	1412	1424	1431	1432	1422	1417	1418	1417	1428	1427	1426	1420	1415	1411	1409	1414	1418	1428	1440	1442	1439	1409	1429	1430	1435	1428	0	0	0	0	0	0	0	0	0	0	0	0	0	0	0	0	0	0	0	0	0	0	0	0	0	0	0	0	1608	1660	1674	1680	1686	1669	1676	1681	1706	0	0	0	0	0	1489	1457	1440	1427	1418	1414	1424	1424	1421	1420	1426	1423	1398	1399	1404	1399	1402	1405	1404	1421	1425	1429	1433	1442	1452	1458	1446	1429	1434	1447	1449	1454	1457	1461	1457	1454	1442	1435	1421	1414	1406	1411	1422	1425	1415	1424	1443	1456	1457	1446	1431	1418	1426	1431	1447	1440	1425	1432	1430	1422	1422	1428	1439	1447	1432	1424	1421	1415	1418	1423	1432	1438	1446	1441	1429	1423	1405	1413	1412	1422	1422	1416	1417	1417	1426	1426	1432	1431	1434	1430	1422	1415	1404	1405	1409	1420	1424	1425	1424	1426	1424	1424	1418	1416	1420	1422	1427	1413	1407	1408	1417	1428	1434	1441	1445	1449	1458	1468	1467	1457	1455	1462	1461	1464	1458	1448	1443	1446	1443	1446	1447	1447	1437	1436	1438	1450	1460	1470	1479	1467	1448	1434	1425	1428	1437	1445	1452	1452	1459	1472	1492	1516	0	0	1528	1457	1454	1449	1447	1449	1451	1455	1447	1445	1448	1449	1451	1451	1457	1449	1446	1445	1444	1443	1416	1406	1442	1444	1451	1457	1457	1454	1449	1436	1433	1432	1438	1462	1473	1481	1482	1481	1466	1453	1435	1439	1452	1468	1481	1473	1460	1461	1460	1466	1457	1447	1440	1431	1436	1436	1440	1445	1452	1452	1445	1435	1424	1423	1420	1419	1430	1441	1435	1426	1426	1429	1442	1455	1458	1453	1447	1449	1460	1460	1458	1457	1446	1445	1447	1461	1469	1468	1463	1457	1451	1444	1441	1444	1444	1437	1433	1426	1421	1418	1424	1427	1442	1445	1441	1432	1433	1445	1463	1475	1469	1459	1449	1456	1466	1470	1472	1470	1476	1474	1475	1468	1452	1449	1447	1455	1466	1464	1454	1436	1423	1427	1421	1426	1436	1440	1446	1455	1459	1478	1476	1463	1448	1439	1439	1445	1480	0	0	0	0	0	0	0	0	0	0	0	0	0	0	0	0	0	0	0	0	0	0	0	1598	1584	1592	1590	1587	1575	1558	1558	1564	1569	1565	1554	1541	1534	1520	1532	1538	1542	1544	1564	1568	1556	1520	1512	1499	1513	1526	1543	1546	1548	1538	1541	1528	1519	0	0	0	0	0	0	0	0	0	0	0	0	0	0	0	0	0	0	1544	1548	1526	1504	1497	1513	1509	1504	1506	1504	1506	1509	1515	1522	1522	1523	1514	1516	1514	1493	1473	1456	1442	1444	1452	1464	1475	1485	1500	1502	1495	1500	1486	1480	1484	1483	1469	1459	1455	1455	1454	1460	1477	1482	1489	1489	1489	1494	1494	1495	1498	1499	1492	1484	1485	1485	1481	1478	1478	1478	1487	1502	1518	1509	1491	1479	1468	1465	1462	1455	1449	1447	1456	1456	1468	1486	1487	1486	1488	0	0	0	0	0	0	0
0	0	0	1444	1443	1443	1435	1435	1430	1435	1451	1448	1434	1434	1423	1416	1419	1433	1451	1459	1453	1453	1457	1448	1447	1451	1443	1439	1437	1437	1436	1441	1436	1429	1416	1417	1422	1431	1431	1451	1450	1442	1440	1434	1432	1436	1443	1462	1479	1474	1463	1463	1467	1470	1471	1457	1448	1444	1441	1447	1450	1455	1452	1452	1448	1442	1439	1438	1461	1482	1492	1492	1478	1473	1464	1461	1448	1434	1441	1460	1473	1474	1459	1450	1450	1463	1465	1453	1439	1443	1437	1431	1427	1425	1422	1420	1410	1409	1416	1422	1417	1410	1412	1413	1407	1401	1408	1417	1422	1417	1418	1424	1431	1435	1420	1410	1401	1409	1417	1417	1414	1414	1414	1412	1408	1410	1414	1432	1449	1453	1442	1420	1430	1434	1430	1417	0	0	0	0	0	0	0	0	0	0	0	0	0	0	0	0	0	0	0	0	0	0	0	0	0	0	0	0	1632	1670	1682	1680	1669	1663	1662	1664	1665	0	0	0	0	0	1471	1452	1438	1411	1404	1407	1414	1417	1407	1406	1412	1407	1392	1395	1394	1398	1394	1394	1402	1418	1426	1430	1426	1435	1440	1442	1432	1426	1430	1434	1436	1435	1445	1451	1454	1446	1435	1432	1422	1418	1417	1431	1447	1439	1412	1419	1427	1450	1455	1447	1433	1426	1430	1445	1450	1447	1436	1441	1439	1431	1423	1428	1438	1439	1425	1429	1416	1412	1413	1424	1440	1441	1455	1448	1437	1415	1412	1404	1399	1403	1414	1417	1420	1426	1425	1422	1431	1432	1432	1426	1425	1406	1395	1396	1397	1418	1424	1424	1427	1422	1423	1418	1416	1414	1423	1440	1442	1437	1403	1399	1407	1419	1428	1437	1441	1451	1465	1467	1464	1455	1453	1453	1447	1446	1448	1451	1447	1444	1439	1434	1438	1441	1441	1433	1436	1442	1453	1465	1473	1455	1441	1432	1425	1425	1435	1440	1444	1444	1445	1472	1476	1507	0	1535	1480	1460	1453	1448	1436	1441	1445	1444	1442	1441	1444	1455	1452	1455	1456	1454	1448	1443	1437	1434	1431	1432	1430	1437	1447	1452	1459	1452	1447	1437	1430	1434	1443	1474	1485	1475	1472	1478	1474	1448	1432	1424	1444	1462	1469	1460	1447	1443	1462	1469	1458	1444	1439	1435	1432	1436	1437	1450	1454	1455	1449	1439	1424	1418	1412	1412	1420	1430	1430	1422	1415	1433	1439	1441	1446	1440	1440	1438	1449	1452	1456	1451	1435	1437	1453	1458	1457	1478	1477	1472	1458	1452	1447	1448	1440	1429	1418	1406	1405	1419	1421	1429	1442	1443	1440	1434	1426	1434	1438	1450	1461	1464	1459	1462	1466	1461	1457	1459	1464	1464	1465	1462	1450	1438	1444	1456	1467	1460	1450	1434	1436	1437	1429	1427	1425	1427	1442	1461	1467	1478	1471	1456	1440	1429	1433	1457	1511	0	0	0	0	0	0	0	0	0	0	0	0	0	0	0	0	0	0	0	0	0	0	0	1612	1593	1591	1595	1582	1580	1566	1548	1563	1561	1553	1549	1552	1551	1540	1539	1531	1536	1540	1552	1556	1538	1510	1484	1468	1480	1510	1532	1548	1543	1534	1536	1538	1533	0	0	0	0	0	0	0	0	0	0	0	0	0	0	0	0	0	0	1538	1529	1510	1495	1510	1524	1523	1507	1496	1487	1496	1498	1506	1511	1514	1506	1506	1502	1501	1499	1477	1458	1441	1439	1453	1469	1474	1484	1480	1489	1490	1486	1484	1481	1481	1481	1466	1460	1452	1455	1455	1463	1482	1492	1497	1500	1496	1492	1493	1499	1499	1501	1498	1487	1485	1487	1479	1467	1467	1474	1490	1511	1517	1512	1493	1479	1465	1459	1455	1449	1445	1453	1464	1464	1481	1494	1499	1497	1498	0	0	0	0	0	0	0
0	0	0	1440	1440	1436	1436	1436	1440	1444	1444	1441	1426	1426	1423	1427	1428	1439	1450	1439	1434	1434	1432	1438	1445	1454	1450	1440	1436	1436	1434	1430	1431	1429	1426	1426	1426	1437	1437	1457	1461	1452	1447	1432	1428	1422	1426	1446	1464	1480	1480	1468	1464	1462	1455	1447	1439	1437	1435	1440	1444	1451	1457	1462	1457	1450	1447	1444	1462	1473	1488	1488	1489	1480	1475	1471	1458	1445	1453	1455	1472	1467	1456	1447	1449	1457	1456	1452	1444	1446	1440	1433	1435	1435	1429	1423	1414	1415	1426	1430	1430	1420	1417	1420	1419	1409	1414	1421	1421	1419	1424	1428	1428	1423	1409	1403	1402	1406	1411	1412	1418	1420	1421	1420	1415	1412	1420	1440	1457	1464	1453	1439	1438	1435	1429	1415	0	0	0	0	0	0	0	0	0	0	0	0	0	0	0	0	0	0	0	0	0	0	0	0	0	0	0	0	1650	1671	1681	1674	1667	1655	1653	1648	1652	0	0	0	0	0	0	1469	1439	1411	1404	1405	1416	1416	1412	1403	1401	1394	1395	1396	1397	1395	1400	1405	1426	1435	1431	1422	1416	1415	1411	1420	1423	1431	1422	1400	1403	1407	1415	1430	1432	1424	1423	1425	1417	1409	1412	1430	1438	1428	1418	1434	1441	1441	1444	1437	1431	1426	1435	1437	1444	1448	1457	1460	1450	1431	1425	1425	1427	1424	1429	1424	1417	1400	1400	1400	1410	1417	1430	1437	1431	1419	1410	1407	1397	1394	1403	1409	1421	1443	1443	1428	1422	1419	1424	1429	1436	1431	1413	1405	1403	1415	1422	1420	1418	1419	1417	1419	1414	1417	1429	1445	1457	1445	1426	1402	1407	1412	1429	1441	1445	1454	1461	1462	1458	1462	1458	1448	1441	1438	1453	1454	1449	1440	1428	1419	1431	1440	1447	1445	1435	1437	1448	1454	1451	1443	1435	1433	1426	1425	1433	1437	1432	1434	1446	1462	1480	1498	1486	1467	1464	1461	1458	1453	1445	1440	1438	1434	1429	1432	1440	1454	1456	1457	1460	1452	1448	1437	1430	1426	1426	1429	1425	1425	1434	1444	1449	1450	1447	1445	1441	1438	1458	1469	1454	1460	1471	1474	1477	1460	1442	1440	1453	1464	1465	1455	1444	1439	1459	1455	1455	1445	1438	1438	1439	1437	1447	1447	1464	1467	1470	1474	1479	1476	1436	1422	1424	1424	1418	1425	1430	1441	1438	1434	1435	1432	1424	1429	1437	1438	1437	1434	1434	1435	1448	1464	1466	1470	1478	1474	1464	1459	1457	1457	1448	1437	1426	1406	1407	1427	1433	1438	1458	1463	1452	1433	1421	1412	1417	1434	1453	1467	1474	1471	1458	1448	1440	1440	1444	1458	1472	1462	1459	1447	1450	1450	1454	1456	1465	1473	1483	1469	1447	1427	1420	1427	1432	1432	1433	1454	1458	1457	1457	1458	1472	1483	0	0	0	0	0	0	0	0	0	0	0	0	0	0	0	0	0	0	0	0	0	0	0	0	1617	1601	1598	1592	1581	1569	1553	1542	1561	1558	1547	1550	1554	1555	1549	1533	1532	1530	1536	1559	1551	1532	1504	1477	1467	1473	1504	1526	1539	1541	1523	1533	1550	1553	0	0	0	0	0	0	0	0	0	0	0	0	0	0	0	0	0	1521	1521	1518	1510	1506	1515	1514	1515	1524	1508	1482	1476	1475	1491	1491	1492	1496	1497	1498	1494	1488	1474	1461	1446	1444	1458	1473	1479	1481	1473	1485	1490	1490	1480	1471	1472	1476	1467	1461	1461	1461	1461	1462	1477	1490	1513	1512	1502	1493	1482	1488	1496	1504	1499	1491	1487	1488	1480	1475	1475	1475	1491	1510	1519	1508	1486	1472	1455	1450	1451	1449	1453	1460	1479	1479	1488	1495	1489	1479	1481	0	0	0	0	0	0	0
0	0	0	1427	1426	1425	1432	1432	1425	1436	1442	1426	1424	1424	1418	1423	1423	1427	1421	1416	1421	1421	1422	1427	1437	1452	1445	1431	1428	1428	1425	1425	1427	1425	1425	1430	1425	1428	1428	1452	1463	1462	1447	1443	1426	1421	1412	1426	1444	1467	1467	1460	1459	1454	1441	1434	1437	1437	1432	1437	1440	1449	1457	1468	1472	1467	1464	1461	1465	1473	1481	1481	1478	1471	1467	1470	1464	1464	1460	1467	1470	1464	1453	1447	1450	1452	1451	1452	1446	1438	1423	1422	1432	1434	1426	1416	1407	1416	1426	1433	1431	1422	1417	1425	1428	1422	1419	1409	1417	1421	1426	1430	1421	1412	1404	1405	1412	1415	1417	1417	1419	1426	1434	1436	1432	1427	1427	1443	1460	1466	1465	1459	1440	1427	1425	1403	1386	0	0	0	0	0	0	0	0	0	0	0	0	0	0	0	0	0	0	0	0	0	0	0	0	0	0	0	1672	1671	1671	1668	1660	1660	1654	1646	1648	0	0	0	0	0	0	1472	1454	1424	1407	1407	1412	1418	1417	1408	1402	1391	1399	1396	1399	1396	1405	1418	1437	1444	1441	1431	1423	1420	1414	1419	1425	1422	1406	1394	1388	1395	1402	1413	1417	1405	1410	1416	1420	1411	1410	1418	1422	1422	1416	1429	1435	1438	1440	1442	1438	1434	1435	1442	1443	1445	1455	1460	1447	1433	1431	1427	1424	1427	1415	1413	1413	1410	1403	1398	1401	1412	1427	1431	1424	1414	1407	1409	1408	1402	1404	1414	1429	1447	1446	1431	1428	1428	1438	1441	1446	1439	1429	1421	1413	1416	1414	1411	1407	1411	1417	1417	1419	1418	1428	1448	1459	1465	1453	1448	1434	1442	1453	1462	1461	1463	1458	1461	1460	1461	1463	1462	1462	1472	1471	1458	1455	1447	1431	1432	1430	1449	1457	1462	1450	1450	1447	1441	1431	1426	1424	1428	1428	1428	1428	1433	1432	1433	1445	1463	1484	1497	1486	1465	1463	1462	1459	1448	1442	1437	1431	1424	1427	1432	1443	1449	1452	1464	1465	1458	1446	1434	1425	1423	1425	1425	1423	1417	1423	1434	1444	1446	1445	1453	1455	1459	1460	1454	1445	1456	1466	1470	1475	1458	1458	1459	1467	1467	1478	1473	1457	1458	1456	1454	1453	1449	1444	1440	1441	1442	1448	1453	1465	1467	1470	1472	1478	1477	1444	1436	1431	1425	1424	1434	1440	1438	1429	1427	1428	1426	1423	1423	1425	1427	1431	1438	1435	1431	1439	1456	1446	1459	1474	1470	1460	1458	1464	1471	1462	1446	1432	1416	1429	1437	1446	1453	1465	1468	1457	1437	1419	1413	1417	1436	1456	1471	1477	1471	1455	1445	1440	1434	1429	1452	1471	1466	1465	1446	1445	1440	1445	1455	1473	1492	1492	1478	1450	1433	1420	1424	1431	1437	1428	1440	1450	1455	1470	1483	1487	1500	0	0	0	0	0	0	0	0	0	0	0	0	0	0	0	0	0	0	0	0	0	0	0	0	1600	1598	1592	1596	1581	1554	1539	1537	1557	1562	1558	1556	1563	1561	1540	1532	1533	1528	1529	1541	1551	1539	1508	1482	1463	1469	1493	1525	1534	1530	1517	1540	1560	1575	0	0	0	0	0	0	0	0	0	0	0	0	0	0	0	0	0	1514	1523	1511	1513	1508	1503	1503	1517	1517	1516	1505	1464	1458	1442	1457	1475	1478	1489	1483	1483	1470	1461	1453	1452	1460	1476	1491	1490	1480	1482	1493	1500	1497	1482	1470	1470	1469	1467	1467	1469	1471	1470	1462	1466	1489	1521	1521	1502	1484	1472	1477	1484	1486	1486	1482	1481	1487	1486	1478	1476	1476	1487	1497	1502	1494	1480	1465	1455	1455	1459	1457	1454	1463	1471	1487	1487	1481	1472	1465	1461	0	0	0	0	0	0	0
0	0	0	1386	1396	1388	1401	1401	1416	1427	1434	1423	1419	1419	1415	1421	1418	1404	1396	1401	1401	1411	1419	1424	1442	1446	1444	1427	1424	1424	1422	1424	1424	1424	1422	1418	1415	1414	1414	1438	1463	1472	1468	1448	1441	1434	1410	1406	1422	1430	1430	1435	1455	1447	1429	1432	1429	1432	1435	1436	1440	1444	1455	1464	1473	1469	1466	1469	1476	1473	1473	1467	1460	1458	1457	1464	1467	1472	1476	1482	1478	1466	1456	1453	1451	1449	1442	1437	1442	1429	1414	1410	1427	1427	1414	1403	1399	1407	1420	1429	1424	1422	1424	1433	1437	1434	1424	1417	1416	1420	1427	1426	1428	1421	1413	1419	1421	1425	1422	1422	1423	1430	1441	1444	1439	1435	1430	1442	1448	1460	1461	1451	1445	1427	1419	1393	1376	0	0	0	0	0	0	0	0	0	0	0	0	0	0	0	0	0	0	0	0	0	0	0	0	0	0	0	1688	1665	1662	1661	1660	1657	1659	1657	1665	0	0	0	0	0	0	1483	1459	1430	1407	1409	1413	1421	1423	1421	1409	1397	1406	1409	1407	1407	1418	1424	1438	1442	1445	1442	1440	1428	1429	1429	1432	1411	1389	1390	1385	1387	1389	1384	1383	1388	1402	1423	1427	1423	1415	1415	1415	1410	1396	1390	1404	1419	1432	1448	1447	1438	1438	1435	1418	1416	1412	1421	1439	1437	1433	1430	1431	1424	1412	1414	1421	1438	1432	1426	1414	1416	1428	1432	1428	1410	1401	1410	1415	1412	1410	1419	1418	1425	1435	1437	1432	1431	1434	1443	1445	1433	1423	1413	1412	1425	1424	1418	1411	1412	1417	1416	1412	1414	1424	1442	1453	1455	1456	1445	1437	1447	1454	1463	1455	1457	1454	1453	1452	1453	1457	1462	1468	1474	1461	1459	1455	1445	1433	1437	1440	1453	1460	1465	1458	1449	1448	1436	1422	1419	1417	1427	1431	1435	1435	1434	1430	1439	1448	1462	1481	1477	1469	1473	1476	1475	1457	1442	1434	1428	1418	1423	1424	1427	1430	1448	1455	1465	1468	1462	1446	1431	1421	1419	1421	1425	1421	1421	1425	1432	1430	1433	1442	1456	1459	1462	1458	1456	1452	1457	1466	1462	1456	1451	1459	1460	1471	1479	1480	1480	1476	1469	1463	1458	1450	1446	1442	1443	1445	1445	1440	1444	1447	1457	1464	1466	1465	1459	1451	1440	1441	1437	1436	1440	1449	1443	1433	1425	1424	1419	1415	1418	1426	1427	1431	1438	1436	1437	1442	1446	1455	1460	1477	1460	1450	1453	1456	1453	1451	1444	1439	1441	1445	1450	1459	1462	1446	1444	1440	1432	1428	1428	1440	1452	1463	1470	1470	1471	1466	1458	1451	1445	1438	1428	1419	1411	1407	1419	1412	1401	1412	1433	1458	1468	1482	1472	1461	1457	1451	1452	1457	1463	1476	1485	1474	1480	1491	1503	1517	1517	0	0	0	0	0	0	0	0	0	0	0	0	0	0	0	0	0	0	0	0	0	0	0	0	1567	1581	1596	1591	1575	1549	1534	1539	1553	1549	1555	1560	1561	1563	1552	1545	1539	1531	1516	1519	1514	1501	1495	1493	1487	1484	1492	1520	1543	1549	1517	1526	1565	1589	0	0	0	0	0	0	0	0	0	0	0	0	0	0	0	0	0	1530	1539	1515	1500	1496	1501	1502	1515	1512	1498	1488	1462	1455	1443	1453	1455	1466	1475	1472	1473	1462	1456	1450	1459	1472	1492	1506	1501	1488	1481	1493	1509	1507	1498	1485	1471	1468	1466	1474	1480	1486	1477	1470	1462	1486	1513	1521	1500	1481	1471	1474	1475	1473	1472	1480	1485	1484	1485	1477	1477	1477	1476	1486	1490	1483	1473	1470	1466	1467	1465	1464	1458	1456	1458	1465	1465	1467	1460	1455	1452	0	0	0	0	0	0	0
0	0	0	1379	1374	1373	1384	1384	1406	1428	1436	1409	1405	1405	1408	1414	1414	1410	1395	1387	1387	1401	1412	1423	1431	1437	1437	1431	1430	1430	1427	1430	1429	1425	1416	1412	1407	1410	1410	1426	1466	1481	1474	1456	1451	1434	1416	1401	1397	1405	1405	1420	1445	1449	1442	1436	1424	1423	1434	1442	1442	1453	1458	1463	1466	1466	1464	1460	1467	1469	1469	1461	1450	1453	1453	1462	1475	1475	1483	1481	1469	1460	1454	1456	1454	1447	1439	1432	1438	1437	1428	1413	1423	1421	1405	1397	1392	1399	1412	1416	1415	1419	1434	1447	1456	1452	1439	1432	1424	1420	1423	1428	1426	1423	1425	1425	1427	1422	1417	1418	1424	1431	1443	1449	1444	1436	1432	1442	1451	1449	1447	1412	1432	1424	1413	1392	1380	0	0	0	0	0	0	0	0	0	0	0	0	0	0	0	0	0	0	0	0	0	0	0	0	0	0	0	1701	1673	1659	1651	1652	1660	1662	1675	1684	0	0	0	0	0	0	1465	1449	1420	1406	1408	1411	1417	1420	1422	1422	1406	1410	1414	1418	1419	1417	1426	1431	1433	1435	1431	1436	1441	1441	1433	1428	1420	1418	1414	1408	1406	1399	1395	1394	1402	1415	1432	1446	1443	1435	1415	1407	1382	1380	1383	1393	1412	1425	1446	1443	1430	1419	1414	1408	1410	1415	1427	1428	1418	1401	1410	1420	1425	1427	1434	1443	1460	1461	1445	1432	1445	1450	1448	1433	1424	1413	1415	1420	1415	1413	1416	1415	1419	1425	1433	1431	1428	1430	1436	1433	1415	1407	1410	1421	1444	1456	1464	1448	1440	1439	1435	1430	1430	1432	1430	1428	1422	1420	1419	1421	1434	1444	1442	1440	1437	1438	1441	1443	1443	1450	1451	1449	1435	1429	1428	1434	1435	1433	1437	1440	1445	1448	1451	1448	1442	1446	1437	1422	1415	1425	1433	1434	1440	1443	1442	1437	1437	1450	1468	1450	1446	1462	1485	1501	1483	1457	1441	1431	1424	1417	1418	1424	1431	1429	1437	1454	1457	1463	1459	1442	1428	1422	1424	1431	1440	1439	1433	1433	1433	1435	1430	1439	1450	1464	1458	1460	1464	1461	1455	1449	1446	1444	1432	1441	1462	1477	1485	1485	1476	1469	1464	1463	1461	1453	1444	1441	1446	1457	1455	1454	1451	1449	1454	1463	1469	1466	1458	1452	1449	1450	1444	1442	1448	1456	1451	1439	1427	1416	1421	1419	1420	1424	1424	1435	1436	1438	1439	1443	1456	1462	1476	1473	1460	1450	1447	1448	1447	1438	1437	1443	1449	1455	1459	1463	1465	1449	1447	1443	1437	1431	1437	1453	1467	1467	1469	1471	1467	1471	1465	1457	1445	1439	1430	1417	1411	1406	1410	1413	1411	1418	1433	1447	1465	1478	1469	1468	1472	1467	1460	1466	1479	1493	1494	1493	1493	1499	1513	1528	1526	1534	0	0	0	0	0	0	0	0	0	0	0	0	0	0	0	0	0	0	0	0	0	0	0	1545	1567	1595	1598	1591	1560	1540	1545	1548	1552	1570	1579	1582	1579	1560	1552	1542	1517	1508	1495	1496	1496	1493	1498	1518	1520	1522	1524	1535	1542	1532	1531	1554	1594	0	0	0	0	0	0	0	0	0	0	0	0	0	0	0	0	0	1544	1551	1556	1533	1518	1504	1507	1510	1508	1510	1487	1480	1473	1459	1453	1453	1449	1463	1464	1463	1465	1461	1455	1461	1475	1488	1504	1509	1499	1493	1500	1501	1498	1486	1486	1482	1478	1475	1486	1502	1498	1481	1469	1461	1476	1493	1511	1495	1484	1480	1480	1471	1460	1463	1475	1479	1484	1482	1479	1471	1471	1478	1481	1479	1474	1471	1473	1477	1480	1474	1467	1458	1448	1452	1458	1458	1450	1451	1444	1443	0	0	0	0	0	0	0
0	0	0	1378	1370	1369	1378	1378	1399	1412	1398	1386	1397	1397	1402	1411	1422	1419	1404	1398	1398	1401	1407	1412	1411	1417	1417	1429	1430	1430	1437	1430	1429	1424	1413	1405	1416	1412	1412	1431	1469	1470	1462	1457	1453	1431	1417	1406	1392	1402	1402	1424	1447	1450	1442	1428	1418	1417	1427	1443	1454	1460	1463	1463	1458	1452	1454	1458	1467	1473	1473	1472	1467	1467	1466	1467	1473	1472	1471	1464	1460	1454	1451	1455	1454	1447	1438	1432	1437	1436	1436	1434	1428	1425	1415	1405	1398	1400	1405	1407	1416	1425	1444	1458	1462	1461	1451	1435	1423	1420	1421	1423	1428	1423	1423	1425	1419	1415	1407	1406	1415	1429	1438	1450	1450	1444	1436	1442	1447	1446	1428	1418	1420	1418	1409	1393	0	0	0	0	0	0	0	0	0	0	0	0	0	0	0	0	0	0	0	0	0	0	0	0	0	0	0	0	1698	1678	1662	1658	1648	1659	1666	1677	1695	0	0	0	0	0	0	1448	1435	1409	1414	1416	1411	1408	1416	1422	1429	1420	1428	1416	1415	1414	1416	1419	1424	1423	1427	1427	1432	1441	1439	1438	1426	1427	1428	1429	1420	1413	1415	1409	1413	1415	1427	1442	1450	1448	1430	1420	1413	1397	1388	1386	1392	1408	1426	1445	1443	1431	1422	1416	1412	1412	1422	1433	1434	1417	1404	1401	1416	1429	1432	1437	1453	1470	1469	1449	1428	1426	1442	1448	1440	1426	1420	1416	1415	1415	1413	1419	1419	1423	1431	1440	1437	1436	1438	1439	1433	1424	1409	1409	1421	1443	1456	1460	1454	1442	1433	1433	1432	1436	1437	1440	1436	1428	1423	1414	1422	1422	1428	1436	1443	1455	1457	1452	1448	1444	1445	1447	1444	1434	1437	1437	1438	1437	1432	1437	1432	1437	1437	1441	1436	1441	1449	1448	1430	1431	1434	1446	1449	1452	1453	1452	1447	1448	1447	1454	1439	1446	1462	1505	1522	1490	1452	1438	1425	1423	1421	1423	1427	1426	1427	1432	1446	1447	1447	1455	1442	1432	1426	1432	1441	1450	1449	1440	1433	1433	1433	1437	1445	1455	1454	1460	1460	1468	1459	1446	1438	1437	1438	1431	1440	1449	1469	1479	1480	1473	1463	1458	1460	1455	1454	1447	1451	1458	1469	1471	1465	1459	1454	1455	1460	1473	1471	1450	1442	1450	1454	1451	1445	1452	1457	1455	1444	1437	1427	1421	1425	1424	1419	1429	1426	1427	1430	1440	1453	1464	1473	1481	1470	1460	1458	1442	1439	1435	1435	1434	1441	1453	1460	1460	1464	1469	1470	1461	1448	1442	1437	1441	1450	1461	1466	1465	1474	1473	1473	1469	1474	1457	1443	1434	1425	1426	1423	1429	1442	1441	1435	1443	1456	1468	1479	1474	1475	1487	1475	1474	1472	1482	1493	1494	1473	1466	1476	1496	1522	1529	1530	0	0	0	0	0	0	0	0	0	0	0	0	0	0	0	0	0	0	0	0	0	0	0	1534	1578	1593	1610	1611	1575	1553	1542	1555	1558	1575	1585	1580	1570	1553	1559	1560	1559	1540	1532	1518	1512	1514	1523	1536	1540	1539	1538	1542	1549	1539	1537	1550	1587	0	0	0	0	0	0	0	0	0	0	0	0	0	0	0	0	0	0	1543	1540	1545	1529	1501	1503	1504	1510	1494	1490	1498	1494	1482	1465	1449	1436	1439	1449	1459	1463	1464	1462	1463	1470	1480	1495	1514	1511	1506	1504	1493	1480	1476	1486	1491	1500	1507	1509	1511	1502	1485	1468	1458	1471	1483	1491	1490	1486	1485	1480	1470	1462	1462	1471	1483	1487	1483	1482	1482	1482	1482	1477	1473	1473	1476	1473	1475	1479	1474	1466	1456	1453	1454	1452	1452	1446	1437	1424	1429	0	0	0	0	0	0	0
0	0	0	1394	1383	1382	1388	1388	1403	1401	1391	1387	1392	1392	1405	1412	1426	1429	1418	1408	1408	1404	1408	1403	1406	1409	1414	1423	1423	1428	1430	1423	1422	1421	1420	1411	1408	1414	1414	1420	1454	1455	1455	1455	1450	1429	1429	1417	1420	1415	1415	1434	1444	1450	1441	1434	1425	1420	1426	1439	1448	1457	1459	1461	1453	1445	1456	1461	1469	1476	1476	1483	1485	1483	1475	1467	1470	1466	1461	1451	1448	1456	1455	1459	1454	1451	1439	1437	1435	1435	1433	1439	1434	1437	1420	1415	1409	1406	1408	1412	1425	1432	1444	1453	1455	1455	1446	1428	1416	1412	1410	1416	1421	1424	1425	1424	1415	1407	1405	1406	1412	1417	1426	1441	1451	1453	1446	1438	1435	1435	1431	1431	1434	1424	1408	1401	0	0	0	0	0	0	0	0	0	0	0	0	0	0	0	0	0	0	0	0	0	0	0	0	0	0	0	0	1683	1673	1667	1655	1653	1652	1662	1681	1688	0	0	0	0	0	0	1429	1420	1411	1419	1420	1415	1411	1410	1419	1429	1433	1430	1416	1408	1405	1412	1418	1421	1413	1416	1417	1429	1438	1445	1444	1429	1432	1443	1440	1435	1430	1421	1423	1427	1426	1426	1436	1452	1442	1435	1433	1428	1417	1401	1399	1401	1416	1435	1444	1438	1428	1423	1424	1423	1432	1437	1434	1430	1422	1410	1409	1420	1428	1429	1439	1459	1474	1474	1457	1431	1434	1434	1438	1434	1431	1427	1423	1415	1417	1422	1424	1427	1432	1437	1443	1445	1440	1431	1428	1426	1420	1412	1407	1412	1439	1454	1470	1462	1442	1431	1429	1435	1447	1448	1447	1443	1431	1420	1416	1418	1418	1419	1433	1447	1464	1469	1463	1450	1446	1447	1450	1449	1451	1452	1452	1447	1440	1437	1430	1431	1431	1428	1424	1434	1450	1454	1448	1441	1440	1447	1458	1459	1462	1460	1463	1459	1465	1449	1443	1416	1451	1459	1498	1518	1495	1435	1430	1417	1424	1423	1427	1429	1429	1432	1439	1445	1443	1442	1440	1448	1443	1440	1438	1451	1456	1449	1435	1431	1428	1428	1436	1444	1450	1444	1445	1456	1460	1453	1448	1439	1441	1448	1442	1439	1449	1455	1468	1475	1471	1461	1453	1449	1444	1452	1447	1451	1470	1476	1476	1467	1458	1452	1451	1461	1474	1471	1450	1443	1447	1456	1453	1450	1449	1452	1448	1444	1446	1445	1440	1435	1431	1422	1421	1419	1416	1427	1446	1459	1473	1482	1478	1473	1472	1459	1446	1430	1431	1428	1432	1442	1455	1461	1465	1470	1472	1474	1468	1457	1448	1436	1434	1441	1450	1456	1464	1467	1479	1487	1481	1468	1457	1449	1446	1454	1453	1445	1444	1451	1459	1457	1453	1454	1463	1478	1491	1490	1488	1480	1477	1480	1489	1501	1496	1467	1463	1468	1482	1490	1520	1537	0	0	0	0	0	0	0	0	0	0	0	0	0	0	0	0	0	0	0	0	0	0	0	1580	1575	1600	1585	1588	1607	1553	1552	1553	1558	1569	1575	1576	1566	1557	1561	1562	1561	1557	1555	1550	1545	1542	1521	1520	1531	1540	1545	1549	1553	1561	1546	1559	1591	0	0	0	0	0	0	0	0	0	0	0	0	0	0	0	0	0	0	1513	1515	1546	1518	1501	1514	1510	1514	1507	1503	1509	1507	1492	1475	1452	1431	1427	1434	1445	1462	1467	1463	1459	1459	1466	1495	1514	1520	1513	1503	1485	1473	1473	1480	1500	1511	1522	1524	1516	1500	1488	1476	1472	1478	1490	1488	1489	1482	1480	1471	1473	1467	1466	1457	1476	1484	1483	1486	1486	1486	1480	1473	1469	1473	1482	1486	1479	1475	1472	1468	1465	1467	1466	1458	1458	1448	1438	1425	1436	0	0	0	0	0	0	0
0	0	0	1411	1413	1423	1412	1412	1408	1402	1399	1400	1406	1406	1414	1420	1431	1433	1434	1428	1428	1421	1418	1413	1413	1411	1414	1418	1418	1421	1419	1414	1413	1418	1422	1418	1415	1411	1411	1410	1438	1444	1452	0	1456	1441	1434	1441	1439	1443	1443	1449	1450	1450	1438	1426	1428	1423	1424	1433	1445	1458	1467	1465	1460	1456	1468	1470	1480	1483	1483	1483	1482	1480	1472	1466	1463	1463	1453	1448	1454	1463	1467	1461	1459	1449	1449	1447	1436	1431	1425	1429	1432	1425	1421	1422	1417	1417	1422	1428	1439	1440	1436	1433	1440	1439	1428	1416	1417	1419	1417	1414	1423	1426	1431	1424	1416	1407	1412	1415	1412	1409	1413	1429	1447	1453	1445	1441	1433	1432	1448	1448	1441	1432	1410	1419	0	0	0	0	0	0	0	0	0	0	0	0	0	0	0	0	0	0	0	0	0	0	0	0	0	0	0	0	1678	1669	1660	1653	1656	1648	1648	1658	1667	0	0	0	0	0	0	1422	1418	1420	1424	1424	1426	1415	1415	1415	1423	1437	1426	1412	1404	1402	1408	1417	1419	1410	1409	1416	1422	1436	1445	1448	1433	1435	1446	1443	1434	1432	1427	1430	1431	1421	1414	1417	1427	1441	1444	1448	1449	1435	1419	1407	1407	1425	1443	1441	1426	1417	1417	1425	1436	1447	1448	1443	1435	1429	1421	1415	1418	1426	1423	1425	1445	1464	1466	1452	1440	1433	1431	1433	1431	1427	1428	1425	1425	1425	1428	1432	1438	1438	1440	1444	1439	1430	1424	1418	1413	1410	1409	1400	1410	1446	1469	1478	1468	1446	1436	1436	1444	1464	1463	1453	1439	1430	1419	1418	1418	1416	1416	1429	1452	1474	1476	1470	1457	1456	1462	1469	1467	1459	1458	1462	1451	1441	1431	1430	1434	1434	1431	1431	1438	1451	1456	1450	1448	1450	1451	1459	1452	1457	1462	1462	1463	1467	1466	1457	1396	1426	1447	1473	1502	1486	1439	1423	1420	1423	1430	1439	1443	1452	1451	1454	1450	1448	1445	1442	1453	1450	1445	1442	1442	1448	1444	1433	1424	1421	1428	1441	1449	1447	1440	1436	1439	1451	1450	1451	1455	1458	1460	1457	1448	1449	1462	1458	1466	1466	1456	1443	1431	1429	1442	1452	1465	1471	1472	1465	1454	1452	1449	1454	1468	1480	1478	1466	1450	1455	1452	1449	1446	1444	1442	1445	1451	1469	1463	1454	1447	1440	1431	1420	1414	1417	1432	1460	1478	1487	1485	1480	1472	1473	1461	1447	1437	1426	1428	1435	1449	1458	1465	1472	1478	1475	1474	1471	1460	1452	1440	1438	1441	1445	1447	1457	1467	1478	1489	1490	1473	1458	1453	1458	1467	1474	1470	1460	1462	1467	1460	1452	1456	1465	1485	1497	1504	1499	1482	1476	1478	1492	1498	1494	1491	1487	1477	1483	1486	1512	1528	0	0	0	0	0	0	0	0	0	0	0	0	0	0	0	0	0	0	0	0	0	0	0	1580	1566	1581	1584	1585	1569	1555	1550	1547	1542	1539	1551	1563	1562	1555	1559	1564	1565	1559	1556	1554	1553	1544	1527	1523	1536	1544	1546	1554	1559	1559	1555	1581	1592	0	0	0	0	0	0	0	0	0	0	0	0	0	0	0	0	0	1514	1502	1510	1526	1507	1504	1500	1519	1512	1494	1499	1504	1503	1493	1475	1470	1464	1438	1441	1449	1459	1460	1455	1461	1456	1468	1486	1502	1512	1505	1494	1484	1475	1468	1478	1494	1508	1522	1525	1514	1503	1478	1486	1486	1490	1490	1491	1487	1479	1475	1476	1476	1483	1468	1467	1476	1483	1484	1480	1478	1478	1470	1465	1467	1484	1498	1495	1486	1477	1473	1471	1481	1484	1471	1470	1470	1456	1458	1466	1457	0	0	0	0	0	0	0
0	0	0	1410	1413	1429	1439	1439	1428	1421	1410	1405	1412	1412	1420	1422	1424	1433	1433	1429	1429	1423	1420	1415	1415	1418	1417	1416	1416	1413	1413	1408	1409	1423	1433	1444	1440	1411	1411	1402	1435	1439	1439	0	1445	1437	1442	1447	1456	1462	1462	1466	1465	1458	1437	1429	1427	1426	1426	1426	1439	1455	1467	1465	1465	1463	1467	1475	1479	1477	1477	1467	1464	1458	1457	1455	1457	1456	1452	1448	1458	1473	1476	1472	1468	1463	1459	1458	1440	1427	1423	1428	1426	1430	1418	1416	1420	1426	1432	1446	1445	1438	1428	1417	1417	1420	1411	1409	1417	1423	1422	1416	1421	1434	1442	1433	1423	1416	1416	1420	1416	1403	1400	1415	1435	1450	1448	1437	1432	1438	1451	1458	1450	1425	1413	0	0	0	0	0	0	0	0	0	0	0	0	0	0	0	0	0	0	0	0	0	0	0	0	0	0	0	0	0	1687	1679	1670	1665	1665	1659	1647	1642	1657	0	0	0	0	0	0	1417	1409	1419	1437	1437	1438	1429	1417	1412	1421	1424	1417	1408	1407	1405	1408	1409	1412	1408	1407	1417	1420	1430	1440	1441	1428	1431	1442	1438	1432	1426	1428	1420	1419	1415	1412	1416	1423	1436	1454	1455	1459	1441	1429	1412	1413	1430	1443	1430	1416	1411	1417	1427	1443	1448	1449	1447	1448	1438	1427	1423	1419	1424	1421	1422	1431	1442	1447	1436	1432	1434	1440	1433	1432	1430	1430	1432	1434	1433	1439	1439	1439	1443	1449	1445	1435	1423	1417	1412	1412	1416	1417	1416	1426	1465	1479	1479	1465	1449	1437	1437	1450	1470	1470	1457	1437	1429	1423	1422	1425	1421	1418	1420	1448	1473	1466	1454	1442	1451	1460	1471	1469	1464	1462	1467	1460	1447	1437	1436	1442	1445	1445	1441	1444	1445	1446	1445	1446	1454	1458	1455	1443	1446	1452	1454	1455	1458	1462	1458	1386	1428	1443	1462	1483	1456	1428	1418	1420	1432	1443	1454	1451	1458	1465	1469	1470	1458	1450	1454	1458	1459	1452	1442	1439	1441	1442	1434	1425	1423	1428	1441	1459	1454	1446	1440	1446	1447	1454	1454	1457	1462	1462	1459	1454	1463	1455	1453	1458	1470	1459	1442	1429	1429	1439	1461	1472	1467	1457	1444	1439	1441	1447	1456	1472	1482	1483	1466	1466	1460	1455	1448	1451	1446	1441	1445	1452	1469	1468	1455	1452	1440	1438	1429	1426	1432	1451	1478	1492	1497	1495	1493	1484	1479	1474	1469	1448	1437	1437	1439	1453	1461	1460	1462	1471	1481	1473	1466	1461	1461	1454	1452	1451	1456	1454	1457	1461	1477	1485	1487	1477	1461	1455	1462	1477	1482	1483	1466	1469	1463	1458	1449	1451	1468	1491	1506	1505	1492	1477	1468	1478	1485	1495	1497	1497	1496	1491	1490	1499	1498	0	0	0	0	0	0	0	0	0	0	0	0	0	0	0	0	0	0	0	0	0	0	0	0	1588	1565	1569	1576	1575	1567	1565	1560	1547	1515	1521	1531	1547	1548	1542	1547	1552	1554	1554	1553	1554	1544	1538	1529	1527	1534	1545	1555	1559	1567	1563	1569	1598	1585	0	0	0	0	0	0	0	0	0	0	0	0	0	0	0	0	0	1515	1516	1520	1524	1514	1517	1513	1513	1502	1481	1487	1490	1487	1477	1471	1475	1484	1482	1461	1463	1466	1461	1463	1471	1475	1474	1478	1484	1493	1493	1488	1481	1473	1473	1475	1479	1499	1516	1523	1512	1504	1495	1490	1496	1496	1492	1486	1484	1484	1482	1485	1485	1496	1496	1480	1479	1477	1481	1475	1468	1468	1464	1466	1473	1484	1500	1503	1495	1484	1470	1484	1488	1494	1489	1482	1482	1473	1476	1481	1483	0	0	0	0	0	0	0
0	0	0	1409	1412	1430	1442	1442	1439	1428	1418	1411	1413	1413	1415	1408	1422	1430	1432	1433	1433	1423	1419	1415	1419	1425	1425	1417	1417	1415	1414	1411	1415	1433	1450	1453	1448	1429	1429	1410	1449	1439	1433	1436	1438	1435	1442	1439	1453	1463	1463	1478	1481	1470	1435	1427	1426	1430	1431	1432	1441	1452	1456	1462	1458	1455	1450	1458	1463	1462	1462	1457	1452	1445	1439	1439	1450	1451	1450	1454	1464	1474	1481	1480	1477	1474	1480	1466	1443	1425	1419	1425	1435	1430	1423	1421	1423	1433	1443	1453	1453	1445	1430	1417	1410	1408	1409	1411	1420	1424	1430	1426	1429	1438	1446	1446	1434	1424	1421	1421	1416	1408	1403	1414	1431	1447	1439	1432	1428	1434	1445	1452	1446	1424	1414	0	0	0	0	0	0	0	0	0	0	0	0	0	0	0	0	0	0	0	0	0	0	0	0	0	0	0	0	0	1699	1698	1683	1671	1669	1664	1660	1639	1676	0	0	0	0	0	0	1405	1395	1420	1447	1448	1442	1429	1418	1408	1410	1403	1412	1420	1420	1409	1407	1406	1404	1411	1415	1418	1429	1428	1429	1428	1417	1424	1429	1430	1435	1423	1418	1416	1413	1419	1430	1424	1429	1426	1449	1452	1449	1443	1431	1407	1405	1424	1428	1421	1413	1411	1417	1431	1440	1444	1441	1438	1441	1437	1437	1429	1424	1425	1429	1425	1430	1429	1429	1427	1425	1431	1440	1438	1438	1435	1433	1430	1434	1442	1443	1445	1446	1453	1455	1445	1438	1432	1421	1413	1412	1422	1433	1441	1447	1472	1484	1469	1455	1442	1434	1444	1450	1470	1472	1458	1441	1433	1430	1430	1427	1423	1421	1431	1452	1467	1455	1435	1423	1433	1443	1459	1463	1467	1462	1473	1474	1460	1453	1455	1459	1462	1455	1450	1446	1445	1443	1449	1452	1453	1451	1444	1434	1435	1443	1447	1444	1445	1445	1451	1424	1415	1437	1454	1461	1436	1411	1420	1428	1442	1451	1455	1456	1455	1462	1471	1471	1467	1453	1457	1461	1464	1458	1453	1450	1448	1442	1436	1431	1433	1434	1451	1470	1462	1455	1451	1453	1457	1451	1448	1445	1445	1449	1447	1451	1445	1441	1446	1454	1457	1447	1436	1428	1429	1444	1466	1475	1468	1451	1436	1432	1434	1446	1452	1469	1474	1473	1472	1470	1467	1457	1453	1454	1448	1444	1449	1456	1462	1455	1449	1449	1441	1437	1438	1437	1438	1444	1470	1487	1497	1496	1490	1486	1484	1490	1487	1469	1457	1448	1449	1455	1454	1450	1455	1473	1480	1478	1471	1468	1468	1464	1467	1459	1459	1456	1454	1453	1460	1479	1480	1473	1460	1450	1461	1481	1488	1493	1471	1465	1462	1456	1457	1459	1476	1490	1488	1477	1468	1462	1470	1478	1487	1495	1500	1494	1485	1492	1494	1497	1468	0	0	0	0	0	0	0	0	0	0	0	0	0	0	0	0	0	0	0	0	0	0	0	0	0	1565	1562	1569	1567	1561	1568	1561	1532	1510	1513	1513	1521	1527	1535	1536	1540	1546	1547	1542	1537	1533	1531	1526	1524	1524	1527	1540	1557	1567	1554	1563	1576	1587	0	0	0	0	0	0	0	0	0	0	0	0	0	0	0	1477	1490	1515	1530	1533	1520	1513	1516	1514	1508	1501	1476	1476	1472	1466	1459	1455	1471	1489	1491	1482	1477	1478	1472	1473	1481	1484	1478	1478	1484	1486	1492	1490	1475	1470	1465	1467	1479	1498	1520	1529	1520	1506	1499	1500	1499	1485	1482	1474	1481	1485	1483	1495	1494	1492	1490	1488	1486	1484	1480	1473	1471	1471	1468	1463	1477	1491	1499	1497	1487	1484	1475	1477	1494	1500	1500	1485	1485	1477	1480	1483	1481	0	0	0	0	0	0	0
0	0	0	1406	1411	1430	1439	1439	1445	1444	1428	1414	1410	1410	1411	1417	1416	1429	1430	1426	1426	1421	1409	1420	1430	1437	1437	1431	1431	1428	1419	1418	1419	1434	1447	1456	1447	1436	1436	1431	1455	1445	1439	1440	1440	1446	1446	1438	1450	1458	1458	1470	1478	1470	1445	1438	1435	1439	1443	1447	1451	1452	1449	1455	1453	1442	1440	1445	1453	1455	1455	1454	1448	1440	1446	1447	1456	1453	1454	1457	1467	1479	1484	1486	1481	1483	1486	1468	1443	1419	1414	1430	1443	1444	1439	1424	1429	1433	1444	1453	1454	1444	1431	1415	1414	1418	1420	1419	1431	1439	1442	1435	1431	1434	1446	1446	1440	1436	1431	1430	1422	1416	1411	1422	1432	1442	1440	1425	1410	1407	1416	1435	1437	1423	1421	0	0	0	0	0	0	0	0	0	0	0	0	0	0	0	0	0	0	0	0	0	0	0	0	0	0	0	0	0	1706	1694	1681	1680	1676	1668	1669	1670	1707	0	0	0	0	0	0	1394	1394	1420	1441	1441	1431	1425	1413	1406	1399	1384	1419	1432	1439	1423	1407	1406	1411	1423	1430	1428	1427	1421	1410	1406	1398	1413	1432	1436	1433	1422	1413	1410	1422	1438	1452	1450	1444	1436	1446	1442	1438	1432	1430	1418	1415	1418	1423	1422	1417	1417	1424	1428	1433	1430	1424	1425	1425	1435	1439	1440	1439	1433	1440	1436	1436	1432	1433	1422	1422	1427	1437	1446	1449	1444	1436	1435	1442	1442	1451	1454	1463	1463	1457	1451	1450	1442	1443	1430	1423	1433	1444	1455	1464	1464	1465	1453	1445	1442	1432	1434	1444	1463	1471	1459	1441	1432	1434	1433	1428	1426	1431	1439	1456	1459	1449	1425	1413	1416	1424	1442	1453	1465	1474	1481	1476	1465	1461	1464	1469	1461	1458	1455	1449	1459	1460	1465	1460	1459	1452	1441	1434	1430	1438	1437	1440	1433	1429	1433	1432	1422	1426	1453	1445	1426	1421	1416	1439	1451	1458	1461	1456	1452	1456	1467	1472	1463	1456	1458	1463	1470	1469	1464	1457	1450	1443	1437	1435	1433	1449	1467	1469	1460	1458	1459	1462	1462	1457	1445	1431	1432	1440	1444	1444	1441	1439	1446	1450	1454	1432	1418	1418	1430	1444	1469	1473	1468	1454	1436	1428	1430	1441	1456	1460	1462	1465	1465	1466	1465	1462	1455	1458	1457	1450	1461	1454	1450	1445	1441	1438	1437	1431	1432	1436	1438	1440	1455	1470	1482	1482	1480	1479	1488	1498	1499	1480	1466	1451	1448	1448	1442	1443	1448	1458	1476	1485	1481	1473	1467	1469	1469	1469	1467	1459	1450	1446	1453	1468	1474	1472	1461	1453	1463	1479	1495	1498	1468	1454	1454	1454	1458	1464	1481	1492	1480	1461	1455	1458	1466	1474	1486	1498	1503	1480	1473	1480	1491	1491	1439	0	0	0	0	0	0	0	0	0	0	0	0	0	0	0	0	0	0	0	0	0	0	0	0	0	1577	1574	1567	1560	1552	1554	1554	1536	1512	1512	1511	1511	1524	1531	1537	1540	1543	1546	1538	1532	1532	1531	1528	1525	1525	1530	1537	1551	1562	1543	1544	1556	1566	0	0	0	0	0	0	0	0	0	0	0	0	0	0	1489	1481	1503	1525	1537	1535	1538	1521	1503	1517	1504	1494	1468	1470	1471	1462	1456	1455	1468	1484	1496	1500	1500	1499	1498	1495	1491	1488	1485	1485	1494	1499	1503	1496	1486	1477	1469	1473	1480	1495	1519	1534	1528	1522	1505	1501	1498	1476	1460	1468	1487	1493	1497	1498	1496	1494	1493	1492	1493	1490	1479	1469	1472	1472	1477	1486	1492	1506	1498	1497	1488	1483	1494	1493	1484	1499	1503	1494	1494	1485	1477	1476	1484	0	0	0	0	0	0	0
0	0	0	1413	1419	1435	1442	1442	1448	1447	1437	1422	1411	1411	1412	1414	1423	1428	1431	1427	1427	1414	1421	1422	1429	1440	1447	1445	1445	1432	1424	1424	1420	1428	1441	1447	1447	1446	1446	1442	1449	1453	1449	1449	1451	1454	1460	1453	1449	1452	1452	1459	1464	1464	1452	1441	1435	1441	1452	1464	1462	1456	1451	1451	1456	1449	1436	1442	1440	1442	1442	1449	1456	1465	1466	1468	1466	1463	1457	1460	1471	1482	1480	1479	1479	1482	1480	1466	1443	1428	1426	1434	1452	1450	1442	1434	1433	1440	1447	1443	1439	1429	1425	1409	1412	1423	1426	1429	1436	1450	1451	1444	1434	1430	1439	1442	1441	1440	1440	1436	1427	1420	1417	1420	1431	1437	1438	1428	1403	1398	1400	1423	1430	1430	1441	0	0	0	0	0	0	0	0	0	0	0	0	0	0	0	0	0	0	0	0	0	0	0	0	0	0	0	0	0	1695	1671	1663	1663	1664	1675	1673	1677	1712	0	0	0	0	0	0	1410	1399	1418	1423	1424	1419	1418	1412	1402	1391	1388	1414	1444	1442	1435	1424	1425	1427	1435	1439	1434	1424	1410	1396	1388	1392	1415	1433	1433	1430	1421	1416	1416	1429	1454	1458	1456	1444	1445	1449	1440	1441	1441	1430	1422	1416	1411	1422	1428	1435	1432	1428	1426	1422	1418	1411	1413	1418	1427	1435	1442	1442	1439	1443	1443	1440	1438	1436	1429	1426	1427	1436	1446	1454	1454	1445	1445	1456	1459	1464	1466	1460	1465	1464	1459	1453	1456	1455	1450	1437	1443	1454	1465	1467	1454	1448	1448	1446	1445	1439	1441	1448	1457	1467	1454	1437	1431	1434	1439	1436	1431	1430	1441	1448	1449	1436	1428	1424	1421	1423	1438	1451	1464	1468	1470	1462	1455	1456	1460	1460	1460	1454	1453	1461	1472	1463	1470	1468	1462	1451	1437	1431	1430	1431	1438	1439	1434	1437	1438	1456	1441	1446	1448	1438	1433	1428	1436	1448	1464	1466	1464	1455	1449	1448	1455	1463	1463	1463	1466	1472	1473	1477	1476	1466	1459	1443	1443	1434	1435	1447	1455	1467	1461	1455	1453	1462	1469	1460	1442	1428	1429	1438	1445	1442	1439	1435	1440	1448	1446	1445	1429	1430	1436	1449	1465	1468	1462	1455	1448	1437	1436	1442	1450	1463	1461	1462	1459	1458	1457	1453	1452	1454	1454	1458	1468	1463	1451	1440	1432	1429	1429	1423	1427	1420	1427	1430	1444	1465	1475	1477	1475	1474	1488	1494	1497	1482	1465	1454	1451	1457	1463	1451	1448	1457	1473	1486	1484	1474	1463	1467	1467	1468	1464	1459	1450	1448	1454	1464	1475	1476	1467	1457	1466	1477	1492	1494	1458	1444	1434	1440	1453	1463	1480	1486	1482	1459	1447	1450	1457	1468	1486	1504	1504	1474	1459	1464	1477	1491	1431	1387	0	0	0	0	0	0	0	0	0	0	0	0	0	0	0	0	0	0	0	0	0	0	0	0	1581	1601	1575	1559	1559	1558	1547	1540	1520	1518	1520	1520	1524	1533	1545	1549	1549	1548	1538	1534	1535	1537	1530	1528	1527	1535	1545	1557	1557	1537	1525	1550	1557	0	0	0	0	0	0	0	0	0	0	0	0	0	0	1507	1504	1518	1528	1538	1533	1534	1504	1521	1518	1516	1530	1469	1468	1476	1479	1470	1464	1472	1487	1504	1518	1519	1523	1513	1508	1496	1489	1489	1490	1499	1505	1509	1495	1489	1481	1487	1483	1480	1492	1516	1536	1532	1522	1513	1505	1499	1471	1461	1473	1493	1503	1502	1500	1493	1497	1495	1500	1506	1496	1481	1473	1475	1475	1483	1494	1505	1519	1513	1502	1491	1497	1502	1492	1491	1494	1496	1502	1502	1494	1485	1484	1482	0	0	0	0	0	0	0
0	0	0	1413	1420	1433	1450	1450	1453	1453	1443	1433	1416	1416	1401	1398	1407	1421	1433	1423	1423	1420	1412	1426	1430	1437	1444	1436	1436	1431	1429	1423	1424	1422	1419	1434	1443	1448	1448	1436	1433	1452	0	0	0	1460	1476	1477	1454	1444	1444	1451	1456	1463	1457	1440	1434	1440	1459	1468	1471	1465	1456	1459	1461	1453	1455	1442	1430	1430	1430	1441	1458	1462	1470	1470	1469	1464	1463	1460	1465	1470	1475	1474	1471	1476	1478	1467	1451	1443	1440	1449	1452	1455	1447	1442	1435	1435	1435	1428	1415	1412	1406	1397	1407	1421	1425	1432	1440	1452	1453	1448	1440	1434	1435	1428	1432	1434	1439	1437	1431	1422	1419	1417	1425	1436	1442	1429	1412	1400	1397	1421	1426	1446	1464	0	0	0	0	0	0	0	0	0	0	0	0	0	0	0	0	0	0	0	0	0	0	0	0	0	0	0	0	0	1673	1667	1651	1653	1659	1662	1674	1692	1680	0	0	0	0	0	0	1424	1410	1415	1415	1414	1421	1427	1418	1410	1394	1395	1413	1434	1445	1444	1439	1431	1433	1438	1436	1433	1424	1422	1398	1393	1403	1430	1437	1434	1428	1422	1419	1423	1437	1462	1464	1457	1451	1452	1454	1457	1448	1451	1438	1426	1410	1416	1422	1435	1451	1440	1430	1416	1411	1409	1405	1409	1417	1424	1441	1440	1446	1446	1443	1442	1434	1435	1445	1438	1436	1430	1433	1444	1454	1461	1453	1453	1458	1468	1469	1467	1457	1455	1445	1455	1461	1464	1461	1455	1452	1453	1464	1473	1472	1453	1444	1441	1443	1448	1445	1443	1446	1461	1471	1457	1437	1429	1438	1453	1445	1437	1434	1439	1443	1442	1437	1430	1435	1435	1437	1439	1446	1453	1451	1450	1445	1439	1442	1453	1452	1454	1452	1460	1464	1471	1462	1464	1465	1457	1456	1442	1430	1429	1433	1446	1448	1448	1454	1454	1476	1451	1450	1462	1448	1443	1442	1445	1454	1468	1475	1465	1455	1445	1439	1447	1460	1473	1483	1484	1485	1482	1479	1479	1477	1468	1462	1456	1449	1440	1441	1441	1448	1443	1429	1432	1449	1462	1457	1442	1423	1424	1438	1446	1448	1443	1440	1447	1450	1453	1458	1448	1442	1447	1448	1462	1462	1464	1469	1472	1465	1456	1451	1461	1466	1458	1458	1455	1444	1444	1447	1444	1449	1451	1458	1473	1463	1445	1436	1434	1434	1438	1426	1418	1432	1432	1440	1448	1462	1479	1486	1485	1484	1491	1500	1494	1476	1463	1459	1466	1477	1475	1463	1452	1453	1457	1478	1480	1467	1458	1455	1455	1462	1464	1466	1456	1457	1465	1475	1481	1491	1480	1463	1467	1474	1484	1491	1449	1430	1428	1440	1456	1473	1481	1488	1484	1470	1456	1445	1450	1463	1484	1510	1520	1488	1468	1466	1485	1486	1448	1381	0	0	0	0	0	0	0	0	0	0	0	0	0	0	0	0	0	0	0	0	0	0	0	0	1604	1608	1590	1585	1580	1574	1546	1545	1533	1533	1530	1535	1532	1534	1541	1553	1558	1549	1534	1537	1541	1543	1536	1534	1529	1542	1548	1557	1557	1537	1535	1539	1541	0	0	0	0	0	0	0	0	0	0	0	0	0	1530	1529	1530	1530	1531	1533	1523	1503	1517	1505	1501	1541	1483	1467	1483	1507	1513	1508	1497	1494	1496	1514	1527	1534	1530	1514	1508	1498	1494	1494	1495	1504	1510	1506	1500	1491	1490	1494	1493	1475	1489	1518	1532	1527	1512	1503	1500	1492	1478	1462	1474	1498	1506	1503	1495	1501	1494	1502	1514	1519	1508	1491	1469	1460	1460	1470	1485	1499	1506	1506	1496	1497	1495	1497	1491	1490	1488	1500	1500	1500	1494	1491	1486	1492	0	0	0	0	0	0	0
0	0	0	1402	1411	1428	1447	1447	1466	1464	1458	1438	1417	1417	1403	1395	1393	1414	1425	1420	1420	1412	1407	1412	1425	1429	1429	1424	1424	1418	1414	1414	1419	1427	1406	1421	1439	1446	1446	1436	1425	1446	0	0	0	1463	1482	1483	1464	1454	1454	1455	1466	1469	1459	1445	1435	1427	1453	1461	1472	1471	1466	1460	1467	1461	1454	1442	1429	1415	1415	1434	1448	1457	1469	1466	1469	1467	1459	1451	1451	1452	1449	1459	1463	1476	1476	1470	1454	1452	1452	1446	1452	1451	1455	1450	1441	1434	1428	1416	1404	1395	1385	1390	1400	1417	1424	1431	1439	1451	1457	1453	1443	1438	1431	1435	1422	1425	1441	1442	1437	1427	1422	1417	1423	1437	1436	1428	1419	1414	1406	1427	1458	1468	1493	0	0	0	0	0	0	0	0	0	0	0	0	0	0	0	0	0	0	0	0	0	0	0	0	0	0	0	0	0	1672	1658	1651	1650	1659	1668	1676	1676	0	0	0	0	0	0	0	1433	1420	1420	1414	1416	1430	1442	1425	1420	1410	1406	1414	1422	1437	1443	1440	1437	1434	1434	1433	1428	1425	1425	1428	1423	1426	1434	1438	1436	1433	1426	1421	1427	1441	1454	1454	1452	1450	1457	1466	1469	1468	1455	1445	1425	1416	1435	1451	1453	1449	1439	1422	1412	1409	1410	1415	1430	1439	1455	1460	1452	1452	1456	1454	1446	1442	1440	1444	1441	1438	1438	1438	1446	1460	1472	1468	1458	1461	1467	1464	1460	1449	1441	1435	1443	1451	1459	1464	1467	1463	1471	1474	1477	1479	1458	1447	1444	1449	1450	1442	1436	1438	1452	1474	1465	1447	1441	1456	1461	1461	1445	1435	1434	1436	1441	1443	1446	1446	1453	1454	1455	1464	1451	1444	1439	1430	1431	1434	1446	1451	1452	1457	1463	1466	1462	1458	1451	1453	1462	1455	1449	1436	1440	1446	1455	1465	1470	1471	1475	1500	1466	1464	1472	1478	1470	1465	1469	1482	1492	1482	1470	1458	1445	1439	1448	1467	1481	1494	1495	1495	1496	1492	1484	1479	1473	1474	1472	1469	1451	1438	1444	1443	1432	1428	1439	1460	1486	1492	1469	1448	1438	1440	1455	1468	1475	1481	1474	1471	1473	1487	1487	1502	1488	1458	1453	1449	1452	1470	1490	1504	1494	1472	1458	1451	1445	1437	1439	1442	1450	1451	1458	1461	1468	1496	1476	1459	1448	1451	1459	1468	1477	1473	1474	1463	1461	1459	1467	1477	1489	1492	1496	1499	1494	1501	1488	1479	1471	1460	1473	1495	1494	1488	1471	1457	1460	1477	1478	1477	1464	1462	1474	1479	1478	1471	1469	1473	1483	1493	1492	1500	1491	1476	1464	1475	1491	1495	1466	1455	1458	1472	1481	1483	1487	1484	1485	1477	1469	1462	1458	1479	1509	1529	1532	1495	1482	1480	1492	1497	1492	1466	1436	0	0	0	0	0	0	0	0	0	0	0	0	0	0	0	0	0	0	0	0	0	0	0	1620	1608	1604	1603	1604	1595	1572	1541	1537	1542	1547	1547	1542	1525	1534	1549	1553	1538	1530	1528	1537	1545	1544	1541	1540	1545	1550	1551	1551	1549	1547	1551	1525	0	0	0	0	0	0	0	0	0	0	0	1532	1536	1555	1562	1563	1552	1544	1534	1525	1517	1509	1506	1511	1514	1493	1503	1517	1525	1528	1519	1503	1496	1497	1511	1526	1533	1520	1511	1498	1500	1505	1503	1515	1510	1510	1501	1503	1502	1500	1498	1496	1494	1518	1534	1538	1510	1496	1484	1479	1482	1473	1468	1475	1488	1489	1494	1500	1512	1512	1502	1508	1514	1517	1493	1479	1461	1461	1457	1463	1475	1489	1500	1501	1490	1482	1485	1488	1480	1484	1489	1488	1488	1488	1491	1494	1498	0	0	0	0	0	0	0
0	0	0	1371	1388	1411	1437	1437	1457	1450	1442	1428	1408	1408	1392	1390	1391	1401	1403	1405	1405	1389	1396	1401	1414	1422	1416	1406	1406	1400	1396	1389	1410	1439	1435	1421	1443	1448	1448	1433	1430	1441	0	0	0	0	1482	1482	1472	1475	1475	1489	1482	1483	1472	1457	1442	1423	1419	1434	1455	1472	1482	1476	1455	1442	1436	1437	1432	1432	1432	1441	1454	1451	1447	1452	1451	1452	1448	1436	1431	1424	1430	1439	1454	1464	1466	1450	1441	1429	1435	1438	1445	1448	1456	1463	1467	1474	1468	1450	1413	1392	1394	1413	1428	1425	1417	1414	1428	1441	1446	1449	1450	1443	1444	1450	1451	1447	1450	1460	1459	1452	1431	1426	1430	1433	1428	1416	1411	1424	1448	1487	1485	1488	0	0	0	0	0	0	0	0	0	0	0	0	0	0	0	0	0	0	0	0	0	0	0	0	0	0	0	0	0	0	0	1654	1624	1613	0	0	0	0	0	0	0	0	0	0	0	1451	1433	1430	1438	1439	1453	1460	1456	1431	1424	1419	1411	1412	1430	1444	1445	1445	1438	1432	1431	1428	1427	1431	1438	1438	1433	1428	1432	1441	1445	1438	1432	1440	1442	1448	1448	1450	1454	1467	1475	1495	1504	1485	1463	1444	1454	1469	1474	1463	1447	1436	1429	1430	1430	1430	1434	1442	1454	1469	1468	1466	1466	1467	1483	1478	1456	1433	1440	1449	1459	1468	1461	1457	1461	1470	1471	1478	1478	1471	1463	1455	1446	1438	1432	1436	1438	1455	1470	1479	1484	1485	1487	1478	1471	1468	1465	1468	1460	1454	1443	1432	1437	1463	1479	1477	1464	1459	1466	1469	1463	1452	1448	1437	1442	1449	1459	1455	1455	1456	1464	1469	1479	1464	1449	1447	1434	1438	1442	1445	1455	1457	1465	1466	1466	1462	1455	1454	1456	1454	1453	1446	1449	1459	1467	1470	1477	1488	1489	1496	1509	1516	1484	1484	1484	1476	1474	1477	1481	1482	1478	1469	1460	1448	1442	1448	1465	1493	1504	1511	1502	1505	1498	1486	1475	1476	1480	1478	1468	1455	1444	1448	1450	1440	1430	1439	1462	1486	1491	1479	1452	1447	1449	1463	1475	1488	1495	1491	1486	1490	1503	1509	1509	1487	1450	1447	1440	1447	1465	1491	1502	1489	1466	1455	1444	1438	1432	1434	1445	1457	1465	1470	1473	1482	1512	1480	1462	1454	1458	1474	1488	1490	1488	1491	1487	1485	1480	1479	1483	1488	1496	1494	1496	1503	1504	1493	1488	1475	1470	1477	1499	1505	1500	1492	1478	1468	1475	1479	1483	1480	1473	1481	1487	1480	1477	1475	1482	1488	1492	1503	1508	1503	1477	1462	1469	1489	1492	1484	1483	1489	1491	1495	1497	1487	1478	1479	1483	1487	1490	1487	1496	1521	1539	1537	1496	1487	1491	1500	1508	1508	1506	1492	1499	1510	1526	0	0	0	0	0	0	0	0	0	0	0	0	0	0	0	0	0	0	0	0	1623	1604	1609	1613	1611	1601	1578	1538	1532	1550	1559	1558	1544	1526	1525	1543	1534	1526	1518	1523	1529	1529	1545	1553	1552	1553	1549	1546	1545	1560	1561	1549	1525	0	0	0	0	0	1528	1514	1506	1498	1498	1505	1514	1526	1544	1574	1576	1565	1556	1544	1535	1534	1532	1522	1519	1526	1530	1522	1528	1535	1536	1526	1517	1505	1501	1513	1520	1518	1512	1510	1506	1506	1522	1523	1522	1519	1511	1509	1511	1507	1506	1511	1502	1505	1520	1533	1529	1511	1484	1468	1472	1479	1482	1490	1500	1497	1496	1497	1511	1519	1509	1505	1502	1513	1516	1502	1491	1470	1470	1456	1456	1454	1474	1489	1489	1487	1476	1468	1475	1478	1484	1485	1478	1478	1484	1487	1489	1501	0	0	0	0	0	0	0
0	0	0	1351	1371	1397	1417	1417	1425	1430	1412	1404	1387	1387	1387	1385	1398	1403	1409	1397	1397	1388	1381	1387	1407	1411	1402	1393	1393	1383	1381	1389	1415	1449	1466	1478	1481	1465	1465	1442	1426	1444	0	0	1457	1457	1475	1491	1496	1507	1507	1502	1488	1471	1449	1431	1420	1411	1415	1428	1457	1465	1472	1463	1455	1445	1437	1433	1436	1443	1443	1453	1456	1445	1432	1420	1417	1414	1414	1410	1405	1405	1412	1425	1438	1433	1428	1416	1408	1406	1416	1426	1448	1455	1446	1442	1442	1442	1448	1448	1429	1407	1406	1419	1434	1448	1440	1428	1436	1431	1407	1397	1404	1407	1422	1436	1441	1436	1428	1428	1434	1443	1436	1435	1431	1440	1444	1442	1444	1451	1468	1487	1482	1474	0	0	0	0	0	0	0	0	0	0	0	0	0	0	0	0	0	0	0	0	0	0	0	0	0	0	0	0	0	0	0	0	1634	1624	0	0	0	0	0	0	0	0	0	0	1488	1476	1461	1450	1455	1469	1480	1490	1483	1475	1468	1455	1423	1420	1432	1446	1451	1449	1448	1442	1440	1437	1432	1435	1442	1447	1439	1435	1437	1447	1452	1452	1445	1442	1445	1446	1441	1453	1459	1467	1481	1500	1510	1493	1476	1467	1483	1488	1483	1468	1452	1442	1445	1443	1440	1437	1436	1454	1462	1473	1472	1473	1470	1471	1493	1485	1465	1445	1444	1455	1472	1484	1478	1465	1461	1467	1472	1480	1483	1474	1468	1463	1453	1447	1438	1433	1436	1450	1466	1478	1491	1493	1488	1479	1470	1469	1469	1470	1463	1457	1448	1442	1445	1455	1487	1492	1487	1482	1481	1478	1468	1462	1459	1450	1454	1459	1466	1463	1456	1463	1459	1469	1473	1477	1461	1455	1445	1448	1462	1458	1475	1481	1487	1479	1475	1491	1498	1494	1476	1460	1452	1450	1462	1471	1478	1488	1492	1503	1509	1507	1511	1490	1483	1477	1483	1487	1501	1496	1495	1484	1481	1480	1469	1469	1468	1481	1504	1528	1544	1555	1548	1529	1513	1512	1507	1482	1487	1486	1495	1491	1491	1485	1491	1495	1493	1485	1473	1475	1483	1494	1491	1490	1489	1497	1513	1526	1524	1517	1510	1510	1514	1514	1508	1498	1483	1475	1485	1499	1503	1510	1512	1505	1486	1481	1459	1458	1472	1467	1469	1473	1480	1487	1488	1489	1485	1478	1471	1476	1486	1498	1506	1511	1505	1504	1500	1494	1484	1473	1480	1488	1503	1513	1518	1519	1500	1499	1501	1490	1482	1490	1506	1517	1516	1508	1497	1489	1463	1460	1474	1486	1496	1501	1496	1488	1489	1492	1498	1501	1503	1501	1511	1518	1502	1489	1485	1496	1499	1508	1513	1516	1521	1523	1520	1514	1495	1482	1503	1522	1539	1532	1531	1531	1528	1523	1510	1516	1515	1515	1518	1516	1511	1517	1519	1519	1511	1532	0	0	0	0	0	0	0	0	0	0	0	0	0	0	0	0	0	0	0	1618	1605	1600	1600	1596	1589	1561	1533	1537	1532	1541	1540	1529	1530	1523	1518	1517	1525	1539	1538	1528	1527	1537	1549	1544	1556	1565	1572	1570	1569	1558	1538	1531	1536	1546	1545	1554	1550	1558	1542	1530	1507	1519	1514	1508	1509	1517	1534	1530	1522	1525	1545	1550	1549	1539	1536	1528	1528	1538	1535	1536	1531	1531	1531	1520	1518	1518	1520	1518	1519	1519	1524	1524	1518	1532	1539	1535	1523	1515	1512	1511	1503	1503	1505	1505	1501	1513	1520	1523	1506	1489	1479	1477	1489	1497	1509	1517	1514	1499	1499	1512	1512	1509	1506	1505	1510	1513	1509	1498	1485	1485	1478	1467	1453	1458	1483	1497	1491	1473	1468	1466	1478	1478	1478	1477	1477	1478	1480	1484	1501	0	0	0	0	0	0	0
