0	0	1418	1414	1411	1419	1416	1403	1389	1387	1406	1406	1436	1456	1462	1454	1442	1420	1420	1407	1410	1404	1412	1413	1412	1412	1410	1417	1431	1417	1400	1383	1369	1370	1370	1374	1363	1375	1390	1410	1425	1440	1439	1427	1427	1424	1421	1411	1416	1422	1422	1421	1415	1407	1408	1415	1415	1415	1417	1412	1389	1373	1378	1397	1418	1421	1414	1409	1416	1421	1420	1420	1445	1464	1471	1469	1464	1457	1448	1440	1439	1414	1398	1398	1387	1393	1402	1396	1383	1387	1381	1387	1376	1365	1362	1371	1384	1382	1368	1356	1353	1370	1387	1377	1370	1370	1381	1393	1394	1398	1396	1397	1401	1401	1398	1382	1376	1376	1383	1386	1381	1382	1372	1375	1383	1385	1389	1390	1389	1382	1372	1369	1386	1419	1407	1400	1407	1425	1430	1422	1412	1400	1401	1406	1407	1410	1416	1414	1407	1400	1405	1408	1407	1418	1418	1418	1424	1438	1452	1465	1455	1442	1435	1436	1430	1432	1432	1436	1447	1456	1466	1467	1466	1453	1442	1417	1404	1396	1388	1381	1380	1388	1396	1390	1392	1402	1407	1398	1401	1406	1419	1431	1435	1442	1457	1451	1421	1417	1422	1426	1432	1439	1449	1449	1440	1449	1445	1435	1425	1419	1420	1411	1361	1362	1362	1371	1392	1422	1425	1420	1405	1384	1367	1347	1323	1299	1259	1225	1206	1197	1198	1197	1205	1204	1201	1196	1195	1189	1180	1162	1155	1158	1159	1151	1129	1116	1112	1114	1106	1092	1086	1103	1101	1105	1109	1118	1132	1140	1140	1129	1119	1124	1135	1152	1156	1152	1156	1173	0	0	0	0	0	0	0	1363	1403	1421	1428	1430	1427	1422	1424	1432	1441	1448	1438	1427	1422	1421	1415	1435	1452	1464	1472	1462	1443	1431	1438	1449	1465	1466	1464	1467	1459	1463	1455	1451	1450	1444	1442	1432	1449	1454	1446	1438	1444	1450	1450	1451	1441	1440	1449	1455	1448	1448	1449	1447	1452	1464	1471	1470	1457	1444	1440	1443	1448	1454	1449	1449	1441	1439	1432	1429	1420	1414	1425	1444	1446	1442	1446	1452	1444	1442	1444	1438	1428	1436	1428	1441	1450	1453	1446	1428	1413	1408	1409	1415	1414	1416	1416	1425	1426	1425	1424	1415	1412	1413	1428	1440	1442	1443	1441	1445	1451	1420	1417	1428	1435	1436	1427	1415	1425	1433	1447	1454	1452	1438	1429	1424	1418	1419	1423	1437	1441	0	0	0	0	0	0	0	0	1127	1123	1128	1127	1118	1116	1107	1099	1098	1101	1099	1092	1099	1107	1097	1075	1052	1042	1043	1059	1089	1112	1117	1102	1089	1081	1078	1080	1080	1085	1087	1089	1090	1091	1116	1117	1113	1104	1105	1112	1127	1131	1148	1162	1219	1338	1377	1380	1396	1410	1418	1420	1417	1413	1425	1447	1454	1451	1435	1434	1443	1454	1463	1448	1432	1425	1436	1417	1410	1409	1418	1426	1419	1404	1404	1407	1414	1420	1409	1412	1415	1428	1432	1427	1411	1415	1421	1425	1428	1428	1426	1436	1440	1445	1445	1430	1425	1418	1424	1420	1411	1396	1385	1388	1400	1409	1417	1421	1433	1436	1437	1433	1425	1415	1403	1403	1432	1429	1424	1423	1415	1417	1420	1415	1425	1444	1440	1421	1400	1382	1386	1402	1409	1407	1422	1455	1465	1464	1454	1427	1413	1411	1422	0	0	1434	1402	1416	1417	1423	1431	1440	1446	1453	1451	1432	1420	1413	1421	1447	1449	1435	1412	1398	1399	1408	1424	1431	1442	1454	1442	1402	1395	1395	1402	1412	1427	1434	1427	1421	1414	1420	1429	1439	1439	1432	1425	1426	1425	1425	1418	1420	1420	1430	1425	1415	1403	1406	1403	1409	1421	1420	1411	1397	1393	1400	1401	1400	1403	1403	1391	1411	1422	1436	1438	1436	1424	1415	1421	1435	1435	0	0	0	0	0	0
0	0	1398	1415	1419	1420	1418	1421	1410	1419	1428	1428	1440	1452	1442	1430	1416	1410	1410	1405	1401	1424	1412	1405	1398	1398	1393	1402	1416	1411	1396	1384	1376	1378	1378	1372	1384	1385	1402	1416	1433	1441	1442	1434	1434	1425	1409	1397	1400	1406	1413	1409	1404	1399	1391	1399	1416	1416	1422	1417	1403	1389	1383	1399	1413	1426	1424	1431	1426	1421	1414	1412	1429	1442	1453	1451	1456	1455	1448	1445	1448	1435	1427	1417	1417	1422	1425	1410	1393	1389	1394	1392	1381	1365	1369	1379	1382	1384	1385	1363	1362	1379	1375	1378	1388	1403	1411	1403	1393	1393	1386	1383	1391	1404	1412	1404	1399	1387	1394	1394	1395	1397	1399	1404	1402	1396	1393	1386	1385	1383	1376	1377	1388	1421	1419	1412	1415	1435	1450	1452	1438	1416	1409	1405	1409	1412	1414	1414	1414	1401	1403	1405	1402	1410	1414	1417	1431	1446	1461	1474	1464	1443	1438	1435	1433	1435	1433	1435	1439	1456	1463	1463	1459	1455	1441	1424	1413	1404	1391	1386	1381	1386	1395	1401	1403	1418	1415	1404	1394	1400	1413	1431	1442	1449	1452	1447	1417	1422	1426	1431	1433	1431	1433	1422	1412	1417	1428	1436	1445	1445	1447	1450	1427	1413	1390	1403	1425	1447	1440	1416	1387	1366	1342	1319	1279	1247	1224	1198	1181	1174	1176	1182	1186	1194	1191	1192	1190	1186	1170	1145	1127	1120	1128	1119	1103	1097	1101	1104	1095	1074	1064	1069	1093	1092	1095	1108	1125	1136	1133	1125	1114	1112	1130	1138	1145	1151	1163	0	0	0	0	0	0	0	1309	1386	1426	1432	1428	1427	1422	1425	1441	1454	1456	1448	1436	1426	1421	1422	1418	1424	1437	1456	1461	1458	1441	1437	1445	1464	1476	1469	1465	1462	1460	1455	1459	1447	1444	1436	1433	1434	1449	1449	1446	1437	1438	1443	1449	1447	1434	1435	1436	1441	1442	1438	1438	1445	1458	1480	1492	1485	1476	1466	1458	1454	1447	1445	1442	1441	1444	1448	1449	1444	1429	1442	1443	1427	1444	1443	1450	1456	1457	1444	1445	1446	1443	1455	1454	1454	1465	1462	1447	1430	1421	1414	1414	1417	1420	1420	1424	1424	1426	1430	1421	1416	1417	1421	1431	1441	1446	1440	1439	1429	1433	1435	1433	1436	1426	1418	1419	1420	1424	1427	1436	1438	1439	1430	1429	1424	1423	1433	1438	1445	1462	0	0	0	0	0	0	0	1112	1106	1097	1104	1103	1100	1105	1095	1093	1088	1086	1087	1076	1083	1096	1087	1068	1039	1028	1033	1049	1083	1111	1109	1094	1073	1070	1079	1075	1072	1066	1074	1080	1086	1091	1105	1115	1110	1104	1095	1090	1093	1099	1114	1118	1123	1168	1295	1332	1370	1385	1418	1432	1410	1415	1425	1445	1450	1448	1437	1431	1440	1453	1456	1447	1421	1427	1428	1425	1404	1410	1419	1428	1421	1411	1410	1412	1421	1419	1423	1418	1418	1428	1427	1430	1427	1426	1432	1444	1448	1438	1434	1438	1446	1449	1444	1439	1426	1428	1428	1431	1419	1402	1394	1398	1407	1408	1423	1429	1431	1431	1427	1429	1434	1432	1427	1425	1440	1432	1425	1423	1420	1402	1411	1415	1434	1452	1461	1448	1428	1408	1402	1413	1424	1437	1447	1460	1474	1465	1449	1429	1417	1411	1418	1423	1431	1430	1405	1414	1417	1415	1422	1429	1434	1448	1442	1435	1423	1424	1423	1432	1444	1433	1413	1405	1406	1420	1432	1431	1425	1423	1413	1397	1395	1399	1410	1422	1434	1435	1438	1427	1420	1424	1426	1436	1441	1437	1433	1432	1434	1425	1418	1422	1422	1430	1429	1416	1403	1386	1375	1388	1398	1406	1406	1409	1406	1412	1415	1412	1412	1406	1407	1426	1443	1454	1454	1452	1448	1436	1442	1451	1451	0	0	0	0	0	0
0	0	1401	1402	1420	1413	1420	1425	1434	1433	1438	1438	1438	1434	1418	1412	1414	1416	1416	1411	1423	1431	1419	1399	1382	1381	1381	1390	1400	1400	1397	1391	1382	1380	1380	1384	1394	1416	1420	1435	1442	1444	1444	1438	1430	1420	1402	1388	1387	1394	1400	1414	1413	1400	1395	1397	1415	1426	1426	1430	1418	1402	1387	1401	1413	1423	1431	1444	1444	1434	1420	1414	1423	1431	1430	1435	1441	1447	1442	1437	1440	1449	1451	1440	1438	1438	1441	1430	1409	1399	1402	1396	1389	1379	1381	1384	1386	1406	1413	1417	1411	1413	1409	1408	1409	1416	1412	1407	1407	1415	1405	1413	1420	1414	1411	1412	1421	1428	1429	1417	1418	1417	1412	1412	1411	1413	1426	1429	1414	1404	1405	1396	1397	1417	1413	1406	1401	1401	1427	1446	1451	1446	1431	1422	1417	1419	1429	1431	1421	1411	1406	1417	1410	1416	1421	1430	1438	1446	1460	1473	1470	1460	1447	1450	1445	1436	1430	1438	1446	1458	1454	1445	1438	1436	1439	1436	1432	1421	1414	1408	1389	1383	1401	1415	1426	1432	1424	1419	1404	1405	1420	1439	1439	1442	1442	1437	1407	1413	1423	1431	1432	1434	1431	1430	1419	1420	1420	1441	1453	1458	1465	1465	1437	1422	1419	1423	1424	1438	1418	1390	1364	1342	1301	1246	1220	1201	1188	1179	1168	1166	1164	1171	1176	1185	1185	1185	1187	1182	1160	1128	1104	1094	1092	1085	1081	1082	1090	1093	1083	1070	1061	1068	1088	1093	1095	1106	1119	1128	1127	1131	1130	1130	1133	1138	1137	0	0	0	0	0	0	0	0	1314	1387	1447	1437	1433	1425	1413	1417	1431	1448	1461	1466	1454	1436	1431	1429	1426	1430	1427	1432	1434	1431	1429	1434	1436	1448	1462	1464	1456	1452	1454	1451	1444	1431	1422	1421	1418	1424	1427	1437	1445	1446	1437	1434	1441	1448	1442	1432	1422	1422	1420	1427	1423	1436	1441	1464	1477	1498	1497	1485	1470	1464	1470	1468	1461	1448	1439	1453	1461	1453	1442	1443	1442	1431	1422	1432	1430	1439	1447	1425	1425	1432	1444	1442	1452	1469	1473	1448	1424	1426	1434	1436	1433	1429	1428	1434	1438	1445	1438	1439	1440	1442	1437	1428	1421	1429	1437	1450	1445	1450	1447	1448	1444	1447	1449	1434	1424	1424	1434	1435	1424	1415	1415	1422	1428	1429	1426	1427	1429	1445	1458	1469	1454	0	0	0	0	0	0	1104	1092	1086	1085	1082	1090	1091	1078	1077	1072	1073	1071	1067	1078	1087	1079	1054	1038	1030	1032	1051	1086	1103	1103	1083	1071	1078	1083	1078	1067	1060	1060	1063	1070	1080	1091	1100	1104	1100	1093	1084	1081	1081	1084	1077	1072	1074	1113	1127	1177	1221	1268	1341	1413	1411	1425	1436	1440	1436	1427	1422	1432	1445	1452	1433	1418	1427	1436	1441	1410	1410	1429	1438	1430	1425	1424	1426	1424	1423	1427	1428	1423	1426	1420	1428	1433	1432	1440	1445	1451	1446	1436	1438	1442	1444	1448	1449	1446	1439	1444	1444	1425	1404	1400	1400	1412	1407	1417	1425	1425	1423	1416	1424	1437	1448	1449	1444	1437	1427	1422	1425	1433	1410	1404	1420	1448	1468	1478	1474	1452	1431	1426	1427	1442	1446	1443	1457	1466	1462	1441	1422	1412	1410	1423	1428	1433	1416	1412	1410	1413	1408	1415	1423	1435	1443	1438	1434	1426	1421	1416	1414	1423	1425	1412	1407	1416	1424	1431	1424	1414	1407	1398	1398	1402	1411	1422	1436	1438	1434	1434	1433	1434	1435	1428	1436	1434	1423	1421	1419	1425	1420	1414	1414	1414	1419	1419	1405	1394	1385	1372	1386	1395	1405	1408	1415	1405	1408	1416	1417	1417	1414	1414	1421	1436	1458	1455	1450	1443	1444	1444	1453	1453	0	0	0	0	0	0
0	0	1402	1404	1413	1425	1425	1424	1425	1429	1430	1429	1429	1420	1410	1412	1414	1417	1417	1429	1436	1433	1420	1397	1379	1371	1371	1386	1396	1403	1400	1398	1391	1389	1389	1402	1416	1438	1441	1442	1436	1431	1438	1433	1427	1427	1404	1388	1378	1386	1403	1422	1422	1413	1394	1403	1418	1428	1428	1431	1425	1414	1398	1401	1414	1426	1434	1457	1463	1454	1437	1425	1422	1423	1426	1418	1432	1432	1416	1412	1417	1433	1444	1442	1442	1442	1440	1433	1425	1419	1410	1398	1393	1383	1387	1394	1413	1425	1437	1442	1433	1428	1422	1421	1417	1414	1406	1406	1410	1417	1428	1435	1441	1434	1420	1418	1422	1431	1434	1430	1415	1412	1410	1411	1410	1411	1420	1422	1420	1426	1431	1423	1419	1415	1407	1395	1402	1408	1417	1436	1441	1441	1441	1425	1424	1423	1437	1440	1426	1413	1410	1414	1414	1424	1430	1431	1430	1434	1442	1457	1458	1465	1462	1455	1447	1439	1428	1437	1447	1451	1442	1426	1413	1418	1426	1432	1435	1436	1437	1432	1420	1398	1413	1423	1435	1446	1441	1428	1415	1418	1425	1443	1440	1436	1433	1428	1410	1414	1432	1439	1441	1440	1443	1433	1424	1420	1428	1438	1454	1464	1469	1462	1425	1413	1396	1359	1318	1296	1278	1327	1300	1249	1170	1186	1184	1175	1169	1163	1158	1149	1161	1167	1171	1171	1171	1173	1176	1166	1143	1107	1082	1065	1061	1060	1055	1066	1075	1082	1073	1067	1063	1066	1087	1093	1101	1107	1114	1121	1122	1128	1132	1134	0	0	0	0	0	0	0	0	0	0	1340	1403	1467	1461	1443	1430	1417	1412	1413	1428	1440	1458	1458	1448	1436	1435	1427	1433	1448	1446	1438	1432	1432	1433	1433	1431	1442	1455	1447	1445	1445	1446	1445	1429	1406	1399	1402	1412	1414	1420	1429	1440	1439	1439	1441	1449	1455	1445	1427	1416	1409	1407	1412	1418	1424	1432	1458	1487	1506	1506	1487	1466	1466	1471	1476	1460	1449	1444	1445	1452	1440	1440	1439	1437	1422	1413	1417	1434	1436	1449	1426	1427	1441	1430	1430	1457	1458	1465	1441	1425	1415	1433	1437	1439	1426	1421	1430	1435	1433	1427	1436	1439	1445	1442	1441	1437	1447	1449	1444	1443	1446	1451	1450	1447	1453	1453	1442	1430	1432	1437	1439	1427	1406	1403	1412	1422	1427	1423	1417	1422	1432	1440	1444	1437	0	0	0	0	0	0	0	1086	1080	1074	1076	0	0	0	1065	1066	1058	1057	1058	1071	1078	1074	1061	1049	1042	1054	1073	1092	1110	1098	1084	1071	1078	1087	1079	1066	1050	1040	1042	1054	1069	1078	1083	1098	1100	1095	1082	1072	1071	1067	1062	1050	1050	1077	1113	1143	1166	1187	1251	1342	1360	1375	1400	1422	1421	1418	1415	1422	1434	1445	1440	1427	1422	1436	1443	1417	1410	1422	1434	1436	1434	1434	1434	1426	1429	1427	1427	1431	1428	1424	1417	1421	1432	1433	1442	1443	1433	1430	1434	1431	1426	1431	1439	1451	1457	1459	1449	1424	1404	1388	1393	1399	1406	1410	1416	1416	1413	1411	1421	1436	1448	1452	1446	1425	1416	1411	1416	1415	1406	1413	1430	1458	1479	1487	1481	1467	1454	1443	1441	1448	1444	1441	1447	1464	1461	1432	1414	1405	1403	1404	1400	1403	1411	1412	1414	1414	1415	1419	1426	1433	1432	1432	1428	1423	1421	1417	1407	1407	1414	1418	1422	1428	1425	1420	1417	1409	1407	1404	1400	1403	1422	1430	1443	1441	1431	1426	1431	1440	1439	1431	1427	1419	1411	1405	1404	1409	1416	1415	1415	1413	1415	1409	1400	1394	1384	1380	1384	1399	1408	1417	1410	1403	1406	1415	1414	1414	1417	1419	1421	1425	1430	1440	1435	1436	1436	1442	1442	1449	0	0	0	0	0	0
0	0	1407	1414	1422	1429	1429	1430	1425	1424	1425	1419	1419	1417	1415	1422	1416	1421	1440	1440	1441	1435	1407	1391	1380	1387	1387	1401	1408	1414	1416	1409	1410	1405	1416	1416	1427	1447	1447	1436	1425	1417	1425	1432	1429	1429	1418	1395	1392	1395	1418	1432	1433	1426	1408	1419	1422	1419	1419	1423	1418	1408	1404	1418	1416	1425	1438	1462	1469	1458	1437	1426	1428	1426	1420	1419	1422	1418	1407	1404	1391	1396	1409	1429	1431	1430	1430	1432	1431	1421	1424	1407	1399	1391	1387	1394	1417	1438	1451	1448	1443	1438	1425	1427	1416	1407	1400	1401	1414	1424	1436	1441	1441	1436	1442	1446	1441	1436	1435	1429	1420	1412	1403	1404	1411	1414	1424	1423	1434	1435	1448	1441	1432	1412	1394	1394	1405	1419	1427	1436	1435	1439	1429	1424	1421	1425	1439	1439	1424	1409	1405	1409	1416	1427	1432	1429	1418	1416	1426	1436	1444	1450	1442	1450	1448	1434	1422	1435	1443	1440	1418	1406	1396	1402	1415	1424	1428	1434	1446	1446	1438	1421	1423	1432	1433	1436	1435	1423	1417	1412	1429	1445	1438	1429	1431	1432	1421	1422	1450	1454	1464	1455	1449	1436	1421	1428	1437	1443	1458	1457	1445	1430	1393	1380	1312	1248	1213	1176	1153	1149	1135	1148	1153	1156	1151	1154	1151	1150	1143	1137	1154	1165	1164	1158	1154	1150	1151	1138	1120	1090	1072	1056	1052	1048	1045	1056	1064	1069	1068	1066	1068	1062	1069	1085	1101	1104	1107	1101	1103	1112	1118	1115	0	0	0	0	0	0	0	0	0	0	1398	1474	1468	1454	1435	1420	1415	1412	1411	1429	1442	1450	1450	1444	1438	1441	1439	1445	1454	1449	1438	1431	1436	1440	1442	1441	1439	1439	1429	1435	1433	1434	1431	1420	1398	1395	1398	1408	1417	1421	1432	1439	1437	1440	1444	1451	1454	1447	1432	1418	1406	1402	1409	1416	1419	1426	1447	1483	1502	1502	1488	1472	1462	1464	1452	1455	1451	1442	1443	1448	1435	1436	1428	1427	1426	1418	1428	1410	1405	1427	1427	1448	1463	1448	1436	1430	1431	1438	1432	1426	1422	1424	1438	1439	1424	1417	1420	1431	1427	1427	1438	1439	1441	1436	1433	1439	1447	1448	1448	1433	1434	1432	1438	1441	1450	1458	1447	1440	1439	1437	1437	1427	1404	1400	1406	1419	1420	1418	1412	1415	1423	1424	1422	1423	1413	0	0	0	0	0	0	0	0	0	0	0	0	0	0	1068	1064	1050	1045	1057	1076	1078	1076	1072	1081	1095	1108	1112	1109	1095	1083	1075	1077	1086	1082	1063	1036	1016	1020	1041	1057	1061	1066	1086	1094	1087	1075	1068	1062	1056	1029	1029	1040	1064	1093	1107	1124	1130	1135	1171	1257	1294	1337	1382	1410	1410	1409	1414	1416	1427	1431	1425	1433	1436	1430	1417	1411	1420	1430	1430	1439	1445	1433	1428	1427	1427	1431	1437	1434	1424	1417	1421	1436	1421	1428	1428	1425	1425	1433	1426	1412	1413	1425	1444	1458	1461	1450	1420	1398	1378	1390	1409	1413	1414	1415	1418	1419	1418	1419	1429	1438	1448	1438	1419	1399	1394	1391	1400	1397	1410	1423	1450	1472	1480	1483	1481	1475	1461	1455	1444	1433	1433	1439	1451	1461	1432	1409	1395	1399	1385	1393	1398	1407	1416	1421	1423	1427	1430	1433	1434	1427	1428	1420	1420	1424	1417	1411	1411	1419	1430	1441	1438	1431	1419	1413	1407	1410	1410	1408	1412	1423	1436	1444	1443	1434	1426	1435	1440	1439	1428	1419	1407	1402	1397	1401	1405	1406	1404	1404	1412	1417	1411	1411	1400	1391	1392	1397	1407	1420	1426	1412	1405	1413	1422	1427	1427	1422	1421	1420	1416	1412	1410	1417	1421	1430	1430	1430	1437	0	0	0	0	0	0
0	0	1407	1418	1425	1424	1424	1429	1420	1416	1413	1422	1422	1429	1421	1418	1427	1434	1442	1442	1435	1423	1406	1398	1389	1393	1393	1419	1427	1435	1438	1432	1428	1417	1417	1417	1424	1441	1435	1425	1413	1408	1431	1439	1437	1437	1426	1411	1407	1417	1429	1444	1446	1442	1429	1422	1415	1405	1405	1404	1403	1399	1412	1418	1426	1433	1442	1454	1451	1436	1421	1419	1432	1434	1429	1419	1415	1414	1409	1401	1390	1392	1388	1405	1417	1426	1437	1438	1438	1437	1434	1418	1408	1403	1401	1404	1417	1438	1435	1434	1431	1432	1426	1423	1411	1406	1400	1401	1408	1424	1439	1441	1436	1432	1441	1442	1443	1432	1433	1432	1423	1414	1404	1405	1411	1419	1422	1427	1431	1432	1438	1436	1434	1410	1393	1398	1416	1445	1450	1444	1440	1430	1419	1413	1409	1414	1432	1433	1428	1411	1399	1399	1412	1422	1422	1415	1406	1405	1420	1427	1435	1437	1436	1436	1442	1435	1422	1430	1436	1436	1421	1403	1400	1396	1404	1414	1423	1428	1436	1446	1439	1429	1432	1434	1429	1429	1429	1415	1411	1410	1421	1438	1430	1428	1431	1434	1433	1430	1448	1467	1473	1467	1440	1425	1419	1428	1436	1442	1441	1433	1410	1387	1360	1247	1179	1135	1123	1115	1109	1115	1123	1129	1128	1135	1133	1130	1126	1114	1109	1103	1122	1145	1146	1139	1128	1120	1116	1109	1093	1080	1069	1066	1063	1056	1049	1053	1062	1071	1072	1073	1072	1062	1055	1071	1084	1090	1091	1090	1084	1085	1090	0	0	0	0	0	0	0	0	0	0	1337	1444	1459	1455	1440	1425	1415	1415	1415	1419	1427	1438	1448	1447	1442	1443	1451	1453	1456	1454	1444	1434	1431	1436	1445	1443	1445	1448	1443	1438	1426	1419	1416	1421	1414	1407	1404	1410	1415	1420	1425	1431	1437	1436	1435	1437	1438	1444	1445	1439	1423	1412	1412	1418	1422	1418	1419	1441	1464	1485	1491	1486	1478	1458	1452	1455	1462	1456	1457	1452	1452	1443	1429	1417	1419	1424	1436	1434	1435	1433	1425	1423	1429	1449	1443	1439	1436	1447	1453	1444	1436	1428	1431	1441	1439	1431	1420	1420	1430	1430	1434	1434	1441	1435	1428	1419	1426	1435	1431	1429	1427	1426	1425	1427	1435	1452	1462	1467	1464	1459	1447	1444	1441	1432	1416	1423	1430	1438	1441	1431	1429	1423	1414	1408	1411	1423	1404	0	0	0	0	0	0	0	0	0	0	0	0	0	1077	1077	1062	1045	1049	1071	1086	1092	1091	1100	1105	1114	1110	1108	1098	1088	1076	1072	1074	1076	1061	1023	1009	1021	1041	1057	1062	1064	1078	1086	1073	1075	1063	1042	1021	1014	1009	1030	1051	1064	1075	1086	1095	1086	1083	1087	1172	1232	1289	1359	1389	1402	1398	1396	1402	1416	1433	1438	1437	1423	1412	1405	1415	1420	1437	1441	1446	1440	1430	1430	1428	1439	1441	1435	1422	1412	1427	1437	1425	1418	1417	1416	1417	1436	1428	1408	1408	1418	1432	1451	1442	1429	1413	1388	1378	1392	1404	1418	1422	1420	1423	1426	1429	1428	1432	1436	1441	1439	1414	1401	1394	1394	1396	1396	1408	1418	1434	1445	1458	1473	1480	1477	1469	1449	1435	1423	1418	1424	1434	1466	1460	1415	1397	1393	1384	1386	1392	1407	1420	1428	1436	1444	1445	1446	1439	1429	1422	1419	1420	1424	1420	1420	1423	1417	1427	1451	1450	1442	1426	1406	1415	1422	1429	1424	1421	1425	1441	1443	1440	1435	1429	1430	1433	1429	1424	1411	1404	1406	1408	1411	1406	1399	1399	1398	1402	1404	1417	1403	1406	1412	1409	1411	1419	1435	1435	1417	1412	1417	1431	1431	1435	1430	1419	1412	1408	1398	1396	1406	1409	1418	1420	1420	1428	0	0	0	0	0	0
0	0	1403	1412	1422	1424	1424	1423	1421	1410	1414	1429	1429	1435	1446	1435	1428	1431	1436	1436	1436	1428	1416	1407	1406	1404	1404	1433	1446	1446	1457	1454	1435	1418	1416	1416	1418	1423	1415	1407	1409	1418	1431	1433	1429	1429	1427	1419	1424	1440	1445	1445	1446	1446	1444	1427	1412	1401	1399	1399	1399	1404	1415	1425	1431	1437	1439	1442	1425	1410	1406	1411	1440	1446	1443	1429	1420	1419	1417	1406	1398	1392	1396	1409	1426	1446	1447	1442	1434	1434	1431	1428	1422	1422	1415	1421	1429	1441	1446	1431	1422	1422	1419	1415	1419	1414	1408	1403	1410	1423	1427	1439	1451	1456	1457	1456	1448	1448	1441	1436	1428	1429	1434	1430	1445	1451	1442	1429	1425	1432	1436	1438	1443	1438	1431	1431	1439	1450	1443	1442	1442	1430	1423	1409	1403	1401	1418	1424	1427	1422	1407	1394	1404	1410	1407	1396	1403	1416	1425	1437	1440	1443	1436	1435	1437	1443	1451	1449	1449	1448	1431	1418	1408	1402	1405	1407	1421	1425	1422	1421	1429	1436	1441	1442	1433	1426	1418	1414	1409	1411	1426	1434	1427	1428	1432	1434	1427	1422	1443	1455	1476	1461	1434	1419	1421	1424	1426	1420	1410	1384	1329	1293	1279	1127	1096	1095	1087	1083	1083	1094	1104	1117	1123	1112	1098	1102	1093	1087	1076	1073	1087	1111	1116	1112	1103	1091	1090	1085	1075	1076	1076	1079	1076	1066	1057	1057	1061	1079	1085	1090	1084	1065	1053	1053	1067	1079	1078	1075	1066	1072	0	0	0	0	0	0	0	0	0	0	1290	1427	1443	1446	1439	1426	1425	1420	1419	1417	1422	1427	1438	1448	1448	1456	1452	1456	1457	1458	1449	1444	1433	1431	1437	1438	1447	1451	1460	1452	1439	1429	1419	1415	1422	1429	1439	1430	1431	1423	1425	1428	1437	1437	1436	1433	1425	1425	1433	1438	1442	1440	1438	1436	1437	1433	1428	1423	1432	1448	1462	1467	1471	1472	1465	1440	1453	1467	1468	1464	1456	1454	1444	1436	1422	1415	1422	1427	1440	1443	1431	1426	1416	1419	1427	1432	1437	1449	1462	1471	1466	1464	1460	1448	1451	1450	1442	1444	1444	1449	1442	1443	1443	1439	1432	1427	1421	1427	1431	1427	1423	1426	1429	1428	1433	1435	1444	1453	1465	1464	1459	1447	1452	1450	1442	1422	1426	1437	1445	1448	1445	1436	1430	1421	1413	1409	1424	1440	0	0	0	0	0	0	0	0	0	0	0	0	0	1090	1091	1065	1059	1059	1077	1090	1096	1098	1094	1098	1100	1099	1093	1096	1082	1069	1060	1060	1066	1052	1031	1024	1034	1077	1072	1067	1070	1070	1076	1065	1066	1070	1058	1030	1008	1004	1015	1037	1052	1052	1061	1072	1062	1056	1064	1085	1104	1165	1250	1295	1366	1367	1368	1377	1392	1410	1430	1438	1421	1411	1412	1415	1438	1457	1454	1448	1438	1432	1424	1431	1431	1437	1429	1422	1409	1422	1430	1419	1412	1409	1409	1426	1433	1429	1410	1406	1413	1428	1444	1435	1426	1402	1389	1378	1392	1413	1422	1421	1423	1424	1436	1434	1435	1433	1438	1447	1437	1428	1415	1409	1406	1402	1407	1420	1422	1425	1430	1432	1448	1460	1463	1466	1431	1415	1408	1408	1408	1425	1434	1450	1425	1404	1392	1381	1376	1389	1401	1417	1425	1437	1441	1445	1445	1440	1432	1425	1419	1414	1422	1428	1427	1430	1425	1433	1453	1456	1441	1422	1419	1425	1425	1430	1426	1425	1431	1430	1435	1434	1432	1429	1430	1428	1422	1419	1414	1411	1412	1415	1417	1407	1394	1394	1390	1397	1402	1404	1408	1410	1420	1420	1422	1426	1432	1427	1417	1408	1415	1428	1428	1435	1428	1411	1400	1393	1391	1395	1404	1410	1412	1413	1413	1420	0	0	0	0	0	0
0	0	1406	1407	1419	1432	1432	1432	1422	1412	1411	1432	1439	1439	1439	1416	1405	1414	1429	1429	1433	1429	1423	1420	1413	1421	1432	1432	1446	1462	1475	1467	1449	1423	1412	1412	1412	1413	1405	1402	1414	1426	1430	1426	1429	1431	1431	1432	1436	1443	1449	1448	1448	1453	1440	1435	1424	1404	1401	1401	1402	1406	1408	1420	1426	1441	1441	1439	1414	1397	1406	1424	1435	1454	1448	1431	1428	1427	1421	1416	1410	1408	1416	1441	1456	1472	1462	1444	1432	1427	1427	1421	1420	1420	1417	1421	1439	1454	1452	1432	1419	1422	1420	1433	1441	1445	1432	1423	1409	1410	1409	1433	1448	1463	1472	1466	1462	1455	1448	1438	1430	1427	1435	1443	1454	1456	1448	1431	1432	1432	1443	1448	1449	1443	1433	1444	1452	1453	1442	1432	1428	1436	1440	1432	1425	1411	1410	1417	1430	1434	1433	1401	1404	1406	1404	1404	1418	1426	1438	1449	1451	1449	1447	1438	1447	1457	1467	1468	1474	1466	1449	1429	1418	1406	1409	1418	1422	1416	1409	1408	1418	1428	1446	1447	1436	1416	1412	1413	1414	1419	1430	1432	1424	1419	1417	1415	1410	1413	1434	1458	1470	1453	1429	1417	1413	1417	1406	1353	1288	1249	1217	1146	1113	1087	1076	1071	1071	1068	1068	1075	1087	1100	1103	1100	1086	1062	1040	1027	1040	1040	1059	1081	1089	1093	1090	1085	1076	1071	1071	1082	1088	1092	1080	1066	1065	1067	1078	1096	0	0	1099	1078	1059	1051	1056	1057	1063	1062	0	0	0	0	0	0	0	0	0	0	0	1290	1423	1448	1446	1442	1433	1428	1433	1441	1432	1422	1422	1430	1438	1448	1459	1458	1466	1462	1458	1459	1462	1446	1435	1426	1422	1425	1440	1450	1461	1452	1443	1433	1428	1420	1424	1438	1455	1470	1463	1450	1439	1434	1441	1441	1438	1429	1422	1414	1420	1433	1449	1444	1444	1447	1454	1444	1429	1416	1415	1429	1434	1445	1451	1456	1439	1424	1427	1428	1432	1446	1448	1451	1444	1446	1437	1429	1420	1422	1426	1430	1433	1421	1418	1425	1431	1432	1438	1446	1464	1476	1482	1469	1457	1449	1452	1455	1465	1479	1475	1453	1439	1442	1449	1451	1442	1424	1428	1429	1431	1429	1429	1436	1441	1443	1440	1451	1453	1446	1450	1437	1430	1449	1467	1471	1445	1439	1434	1442	1448	1452	1457	1455	1455	1445	1422	1419	1424	1438	1442	0	0	0	0	0	0	0	0	0	0	0	0	1091	1077	1061	1057	1061	1077	1085	1088	1086	1083	1080	1077	1083	1081	1081	1071	1055	1043	1046	1047	1044	1034	1036	1047	1087	1092	1086	1073	1077	1078	1077	1077	1079	1065	1041	1016	1001	1008	1028	1037	1043	1049	1053	1043	1047	1052	1070	1089	1121	1147	1166	1233	1285	1315	1338	1359	1381	1406	1416	1416	1408	1420	1432	1454	1467	1457	1451	1432	1427	1424	1426	1431	1428	1421	1415	1414	1421	1423	1421	1412	1410	1423	1434	1444	1431	1410	1407	1418	1433	1447	1440	1431	1419	1399	1385	1392	1413	1419	1417	1418	1419	1432	1420	1430	1429	1437	1441	1451	1444	1432	1430	1423	1428	1436	1450	1452	1447	1428	1430	1430	1439	1440	1427	1422	1398	1393	1402	1408	1425	1434	1433	1418	1413	1401	1388	1385	1393	1406	1421	1431	1433	1436	1442	1440	1444	1442	1431	1425	1418	1424	1433	1432	1431	1434	1438	1447	1443	1430	1418	1420	1427	1421	1424	1424	1419	1419	1423	1425	1428	1432	1439	1427	1411	1416	1414	1418	1419	1419	1423	1418	1405	1405	1397	1395	1398	1406	1405	1410	1419	1422	1420	1423	1429	1429	1422	1411	1401	1409	1419	1419	1430	1425	1407	1396	1389	1389	1389	1398	1410	1412	1412	1412	1416	0	0	0	0	0	0
0	0	1407	1414	1424	1435	1442	1442	1434	1422	1417	1424	1428	1428	1418	1411	1396	1404	1416	1416	1428	1424	1423	1416	1424	1419	1420	1420	1425	1446	1467	1464	1452	1433	1425	1414	1414	1405	1403	1424	1433	1432	1425	1429	1432	1432	1432	1431	1439	1440	1440	1437	1441	1445	1445	1436	1427	1414	1405	1405	1406	1405	1407	1419	1429	1436	1441	1435	1427	1407	1410	1432	1445	1452	1454	1444	1429	1427	1422	1418	1416	1410	1426	1444	1469	1472	1464	1445	1422	1411	1407	1403	1405	1407	1415	1428	1450	1453	1442	1437	1432	1422	1423	1436	1451	1454	1450	1435	1430	1422	1409	1411	1434	1454	1463	1471	1460	1451	1441	1423	1420	1428	1436	1445	1449	1446	1441	1433	1439	1444	1454	1455	1453	1438	1438	1452	1457	1456	1443	1425	1423	1433	1438	1437	1431	1412	1403	1409	1416	1433	1441	1438	1440	1444	1443	1425	1427	1434	1444	1446	1452	1443	1444	1446	1454	1465	1477	1477	1472	1458	1441	1424	1411	1405	1404	1414	1419	1414	1403	1400	1412	1418	1451	1446	1428	1409	1407	1411	1415	1420	1429	1431	1425	1407	1403	1398	1393	1409	1429	1448	1451	1425	1408	1387	1363	1336	1298	1203	1151	1133	1117	1103	1097	1070	1059	1051	1050	1051	1056	1062	1072	1076	1086	1085	1071	1056	1039	1029	1028	1033	1044	1057	1078	1089	1094	1087	1077	1072	1071	1085	1095	1093	1081	1069	1068	1077	1094	1106	0	0	0	1093	1075	1063	1058	1061	0	0	0	0	0	0	0	0	0	0	0	0	1310	1434	1465	1460	1451	1439	1431	1436	1445	1451	1446	1437	1433	1441	1444	1449	1463	1472	1472	1468	1450	1448	1451	1450	1437	1427	1424	1431	1440	1445	1448	1445	1442	1436	1432	1427	1437	1445	1458	1463	1458	1446	1432	1428	1436	1433	1433	1429	1419	1413	1419	1434	1453	1454	1445	1447	1452	1450	1427	1419	1411	1417	1413	1423	1431	1439	1432	1427	1424	1426	1424	1424	1439	1447	1451	1453	1455	1419	1414	1414	1428	1462	1462	1450	1443	1444	1445	1444	1443	1441	1450	1479	1477	1476	1470	1449	1445	1447	1458	1465	1447	1439	1448	1463	1471	1452	1403	1434	1434	1438	1439	1438	1441	1449	1455	1459	1452	1448	1442	1431	1420	1398	1414	1425	1443	1444	1470	1445	1441	1433	1426	1450	1471	1480	1463	1425	1415	1425	1429	1433	1439	1441	0	0	0	0	0	0	0	0	0	0	0	0	1064	1056	1053	1061	1072	1080	1081	1073	1071	1073	1076	1077	1072	1062	1049	1037	1028	1024	1031	1031	1030	1041	1049	1085	1087	1056	1049	1055	1058	1067	1078	1079	1063	1044	1027	1010	1018	1030	1036	1041	1045	1034	1035	1042	1052	1066	1079	1091	1103	1109	1113	1141	1187	1246	1303	1338	1363	1379	1399	1403	1419	1446	1467	1470	1465	1453	1435	1425	1421	1424	1429	1416	1404	1410	1413	1415	1420	1416	1410	1410	1425	1434	1438	1424	1410	1406	1416	1430	1433	1441	1449	1443	1426	1405	1402	1413	1412	1409	1409	1415	1415	1409	1411	1422	1426	1440	1447	1444	1435	1444	1447	1447	1451	1462	1478	1483	1478	1461	1439	1425	1418	1422	1421	1428	1427	1440	1450	1457	1447	1411	1408	1413	1410	1419	1417	1424	1432	1442	1450	1436	1431	1437	1449	1450	1449	1441	1430	1430	1435	1436	1431	1428	1427	1423	1433	1425	1413	1410	1411	1415	1418	1418	1412	1407	1410	1416	1420	1426	1439	1442	1431	1417	1411	1412	1412	1419	1425	1429	1431	1415	1415	1405	1402	1403	1410	1406	1408	1416	1415	1407	1411	1421	1425	1416	1412	1406	1403	1403	1418	1423	1420	1410	1397	1388	1386	1392	1403	1412	1407	1411	1409	1408	0	0	0	0	0	0
0	0	1405	1420	1424	1422	1431	1431	1436	1429	1418	1417	1421	1421	1421	1406	1398	1397	1410	1418	1418	1416	1410	1411	1417	1421	1415	1415	1411	1420	1447	1455	1449	1440	1432	1421	1421	1412	1423	1431	1431	1431	1424	1425	1430	1437	1437	1433	1430	1425	1430	1428	1433	1441	1436	1429	1424	1415	1407	1404	1404	1402	1410	1417	1420	1425	1429	1428	1436	1437	1432	1439	1443	1450	1453	1438	1432	1420	1418	1412	1409	1408	1414	1424	1442	1462	1462	1449	1426	1416	1400	1397	1400	1404	1415	1411	1413	1419	1427	1435	1438	1433	1441	1452	1458	1462	1450	1446	1447	1435	1414	1404	1406	1433	1450	1448	1446	1440	1428	1419	1420	1429	1433	1438	1434	1430	1429	1433	1443	1457	1463	1461	1466	1459	1451	1454	1455	1455	1443	1427	1419	1422	1437	1435	1434	1419	1411	1397	1402	1427	1438	1445	1444	1447	1445	1435	1421	1419	1425	1427	1443	1436	1438	1441	1455	1471	1474	1459	1450	1444	1425	1403	1397	1386	1394	1401	1410	1408	1404	1397	1401	1415	1445	1446	1436	1415	1411	1414	1422	1428	1426	1420	1408	1387	1391	1389	1383	1385	1410	1411	1391	1360	1325	1298	1186	1124	1112	1109	1105	1096	1080	1070	1063	1057	1036	1035	1034	1041	1045	1056	1059	1066	1070	1076	1064	1055	1045	1039	1038	1039	1046	1054	1071	1084	1095	1089	1080	1076	1074	1077	1089	1085	1075	1064	1067	1082	1093	1104	0	0	0	0	1084	1072	1064	0	0	0	0	0	0	0	0	0	0	0	0	1317	1436	1472	1473	1460	1449	1444	1439	1448	1448	1448	1444	1439	1437	1444	1451	1462	1471	1474	1471	1454	1442	1441	1451	1458	1437	1429	1429	1426	1437	1451	1443	1432	1426	1428	1425	1430	1437	1449	1458	1452	1441	1429	1420	1417	1420	1432	1436	1436	1433	1422	1423	1442	1456	1454	1444	1442	1446	1449	1437	1423	1429	1416	1415	1416	1422	1430	1440	1438	1434	1431	1424	1419	1429	1439	1444	1438	1417	1405	1459	1478	1472	1450	1448	1461	1461	1419	1419	1447	1407	1413	1417	1449	1482	1473	1469	1463	1451	1448	1454	1445	1442	1443	1441	1462	1466	1446	1409	1418	1433	1440	1445	1447	1450	1456	1459	1462	1449	1443	1430	1426	1419	1401	1405	1422	1423	1421	1415	1431	1427	1405	1406	1427	1446	1458	1436	1408	1408	1412	1426	1432	1432	1433	1410	0	0	0	0	0	0	0	0	0	0	0	1047	1045	1046	1055	1067	1073	1077	1077	1069	1075	1072	1070	1061	1049	1036	1027	1018	1014	1014	1016	1022	1025	1056	1046	1037	1026	1017	1015	1024	1032	1046	1051	1050	1034	1026	1022	1028	1035	1044	1051	1050	1027	1021	1030	1046	1053	1057	1062	1066	1067	1067	1066	1085	1110	1189	1244	1294	1352	1362	1378	1414	1454	1476	1475	1463	1450	1431	1424	1418	1426	1425	1405	1386	1400	1416	1416	1415	1411	1406	1406	1413	1423	1425	1421	1410	1411	1404	1417	1428	1433	1456	1448	1431	1411	1402	1402	1408	1411	1412	1408	1414	1418	1425	1441	1440	1430	1392	1406	1423	1442	1444	1448	1447	1453	1463	1469	1468	1449	1428	1416	1418	1418	1425	1426	1438	1440	1465	1466	1451	1412	1420	1428	1433	1427	1429	1434	1439	1443	1446	1434	1427	1433	1433	1432	1429	1413	1415	1412	1433	1436	1424	1410	1407	1418	1416	1413	1407	1401	1403	1417	1417	1410	1404	1402	1412	1423	1427	1430	1440	1439	1430	1410	1402	1402	1408	1418	1420	1427	1431	1427	1427	1414	1413	1408	1412	1415	1413	1413	1402	1392	1385	1404	1414	1412	1411	1410	1414	1414	1420	1421	1413	1403	1398	1390	1391	1400	1409	1414	1404	1404	1402	1407	0	0	0	0	0	0
0	0	1398	1402	1412	1397	1420	1420	1425	1426	1412	1413	1417	1417	1412	1412	1407	1412	1417	1415	1415	1404	1403	1403	1412	1418	1411	1411	1410	1423	1434	1441	1426	1427	1427	1421	1421	1418	1422	1425	1415	1407	1408	1424	1434	1438	1438	1436	1428	1417	1422	1417	1420	1428	1422	1422	1415	1418	1410	1410	1410	1408	1404	1412	1409	1407	1409	1416	1438	1451	1458	1450	1451	1447	1447	1438	1433	1419	1415	1410	1410	1402	1399	1412	1424	1443	1464	1461	1443	1427	1440	1440	1427	1419	1421	1417	1413	1415	1420	1429	1436	1443	1448	1454	1466	1459	1447	1449	1455	1449	1428	1399	1399	1408	1429	1441	1442	1441	1428	1425	1427	1432	1426	1421	1418	1425	1436	1451	1465	1474	1475	1469	1474	1463	1452	1450	1451	1451	1436	1426	1422	1413	1419	1424	1432	1430	1423	1414	1403	1419	1429	1429	1433	1436	1435	1432	1419	1414	1412	1414	1421	1425	1425	1429	1450	1455	1453	1441	1433	1425	1413	1399	1378	1380	1383	1396	1406	1409	1404	1394	1391	1407	1421	1445	1432	1428	1417	1415	1418	1424	1431	1427	1398	1382	1387	1384	1377	1370	1358	1328	1284	1249	1193	1112	1071	1064	1066	1065	1066	1059	1048	1036	1023	1014	1001	1007	1017	1030	1038	1047	1049	1056	1062	1064	1065	1061	1051	1043	1044	1044	1050	1056	1059	1061	1088	1086	1078	1074	1071	1073	1072	1069	1064	1059	1062	1076	1081	1092	1098	1109	0	0	1069	1063	1062	0	0	0	0	0	0	0	0	0	0	0	1332	1428	1456	1465	1473	1466	1453	1440	1451	1455	1458	1453	1442	1434	1435	1439	1446	1450	1462	1468	1464	1448	1432	1431	1444	1469	1446	1433	1427	1433	1445	1449	1441	1427	1413	1409	1402	1411	1422	1438	1450	1445	1432	1424	1415	1419	1418	1431	1443	1443	1439	1432	1429	1439	1446	1441	1434	1430	1442	1456	1466	1464	1458	1440	1431	1425	1425	1435	1448	1457	1441	1437	1430	1427	1434	1438	1431	1424	1398	1444	1459	1473	1466	1446	1446	1442	1451	1445	1435	1397	1397	1409	1441	1437	1470	1463	1460	1483	1455	1456	1449	1433	1434	1435	1426	1427	1431	1427	1415	1426	1440	1441	1443	1452	1458	1453	1449	1451	1443	1425	1418	1441	1437	1428	1424	1425	1408	1407	1407	1407	1402	1394	1397	1406	1416	1415	1392	1375	1384	1399	1423	1424	1422	1431	1421	1402	0	0	0	0	0	0	0	0	0	0	1023	1025	1031	1040	1049	1064	1062	1060	1064	1062	1056	1050	1043	1039	1027	1023	1014	1017	1010	1005	1011	1022	1034	1027	1019	1004	990	978	979	991	992	991	1004	1008	1016	1024	1037	1043	1049	1050	1047	1010	1006	1019	1029	1035	1030	1032	1036	1037	1041	1039	1044	1062	1076	1085	1113	1303	1327	1355	1394	1446	1473	1471	1455	1445	1427	1422	1417	1421	1419	1400	1379	1391	1415	1420	1422	1411	1403	1398	1397	1404	1423	1418	1418	1419	1426	1417	1409	1422	1431	1432	1416	1401	1394	1375	1373	1398	1426	1422	1412	1415	1431	1438	1438	1428	1396	1417	1432	1450	1449	1444	1436	1436	1441	1441	1430	1432	1421	1406	1405	1404	1407	1411	1426	1444	1463	1474	1458	1427	1442	1450	1449	1441	1432	1430	1433	1431	1430	1427	1426	1429	1423	1416	1411	1406	1400	1395	1397	1401	1398	1397	1417	1417	1427	1412	1402	1405	1405	1415	1417	1412	1406	1407	1422	1433	1442	1439	1434	1425	1416	1403	1393	1398	1406	1414	1416	1424	1427	1427	1418	1409	1406	1407	1417	1420	1421	1412	1404	1397	1381	1390	1390	1394	1402	1409	1421	1421	1426	1418	1407	1395	1388	1388	1393	1409	1420	1415	1410	1410	1403	1405	0	0	0	0	0	0
0	0	1386	1383	1380	1386	1404	1404	1416	1408	1405	1402	1400	1400	1403	1400	1403	1411	1412	1407	1407	1406	1404	1403	1415	1425	1422	1422	1422	1427	1434	1421	1408	1408	1405	1409	1409	1400	1401	1396	1388	1381	1395	1406	1428	1438	1435	1435	1422	1419	1415	1410	1412	1418	1423	1424	1421	1418	1418	1418	1418	1411	1401	1395	1398	1401	1401	1409	1437	1452	1466	1465	1462	1452	1442	1435	1433	1433	1424	1415	1409	1408	1403	1412	1419	1436	1455	1434	1441	1450	1447	1443	1438	1427	1429	1435	1424	1413	1417	1424	1439	1440	1442	1450	1458	1456	1452	1453	1459	1455	1430	1408	1394	1400	1420	1438	1449	1444	1440	1439	1437	1442	1440	1433	1434	1433	1441	1460	1460	1462	1462	1466	1472	1461	1444	1442	1441	1442	1439	1423	1412	1407	1409	1418	1423	1431	1430	1418	1406	1412	1414	1420	1426	1428	1432	1428	1424	1419	1416	1409	1421	1418	1423	1427	1434	1426	1420	1414	1445	1437	1427	1401	1383	1379	1392	1403	1413	1413	1404	1397	1399	1401	1420	1439	1438	1433	1424	1415	1414	1423	1434	1427	1395	1377	1381	1380	1362	1340	1270	1216	1142	1112	1074	1040	1030	1026	1029	1027	1022	1012	1002	999	992	980	972	975	989	1008	1020	1024	1029	1030	1032	1038	1045	1044	1038	1033	1031	1034	1040	1043	1043	1035	1033	1033	1060	1060	1055	1049	1048	1048	1044	1042	1052	1058	1059	1054	1060	1078	1077	0	0	1040	0	0	0	0	0	0	0	0	0	0	0	1313	1416	1442	1458	1463	1467	1464	1460	1457	1451	1461	1459	1451	1443	1431	1429	1431	1431	1429	1442	1448	1449	1438	1423	1428	1454	1477	1480	1428	1415	1429	1437	1443	1437	1425	1409	1395	1390	1399	1412	1428	1438	1436	1430	1424	1428	1423	1426	1432	1439	1448	1445	1448	1445	1447	1453	1447	1442	1438	1441	1457	1476	1476	1473	1465	1454	1445	1445	1452	1456	1470	1458	1429	1423	1426	1430	1421	1427	1432	1422	1438	1441	1445	1440	1440	1440	1442	1439	1438	1427	1408	1400	1408	1415	1420	1422	1453	1449	1468	1451	1453	1445	1439	1430	1424	1427	1431	1432	1416	1425	1437	1444	1448	1444	1452	1456	1450	1445	1443	1435	1422	1419	1437	1451	1444	1459	1440	1445	1424	1416	1407	1394	1395	1385	1425	1420	1408	1402	1389	1394	1403	1423	1411	1412	1420	1451	1452	0	0	0	0	0	0	0	0	0	0	0	994	998	994	1010	1029	1041	1040	1036	1034	1029	1018	1014	1008	1006	1006	1013	1009	1007	996	1002	1010	1017	1015	1002	985	971	958	960	969	973	973	975	989	996	1015	1029	1037	1034	1031	1016	1006	999	996	1004	1000	1006	1012	1019	1023	1028	1026	1025	1039	1048	1050	1060	1172	1260	1287	1341	1393	1429	1444	1432	1430	1418	1413	1398	1407	1410	1408	1390	1403	1417	1421	1423	1418	1412	1398	1402	1410	1420	1421	1420	1427	1426	1423	1408	1400	1410	1403	1398	1392	1374	1373	1387	1407	1432	1430	1415	1411	1425	1434	1434	1434	1430	1425	1440	1449	1454	1439	1423	1417	1417	1414	1416	1417	1417	1414	1404	1396	1402	1408	1417	1423	1453	1476	1475	1467	1459	1457	1449	1432	1405	1411	1414	1417	1417	1421	1422	1421	1417	1412	1401	1399	1393	1391	1385	1386	1419	1420	1423	1437	1436	1415	1405	1401	1413	1426	1431	1420	1414	1414	1437	1450	1454	1443	1431	1416	1402	1395	1392	1399	1409	1418	1423	1419	1415	1415	1409	1401	1398	1402	1417	1433	1435	1434	1420	1411	1405	1391	1389	1390	1392	1403	1423	1423	1428	1417	1398	1383	1378	1383	1399	1424	1434	1432	1432	1421	1416	1406	0	0	0	0	0	0
0	1372	1372	1371	1368	1397	1412	1412	1411	1399	1386	1387	1396	1395	1395	1392	1400	1408	1408	1402	1402	1399	1424	1426	1433	1434	1432	1437	1437	1444	1434	1414	1394	1395	1396	1395	1400	1384	1380	1372	1363	1370	1381	1405	1424	1429	1430	1430	1417	1414	1412	1415	1423	1420	1424	1430	1431	1426	1429	1418	1414	1414	1409	1394	1399	1414	1416	1430	1436	1452	1460	1463	1458	1444	1439	1432	1432	1444	1433	1424	1419	1416	1416	1415	1424	1421	1413	1413	1419	1433	1439	1449	1446	1439	1445	1441	1429	1421	1415	1420	1426	1434	1429	1437	1447	1456	1457	1455	1451	1442	1425	1411	1399	1405	1423	1439	1442	1442	1432	1434	1440	1442	1437	1441	1439	1442	1448	1457	1460	1453	1450	1454	1464	1461	1442	1432	1432	1432	1423	1413	1406	1401	1410	1415	1422	1430	1430	1423	1414	1408	1411	1416	1432	1439	1448	1450	1452	1450	1447	1435	1427	1419	1419	1425	1426	1434	1441	1445	1474	1473	1463	1449	1408	1412	1412	1416	1420	1414	1416	1414	1417	1419	1429	1444	1442	1437	1427	1414	1410	1423	1420	1404	1378	1374	1360	1309	1278	1247	1155	1101	1068	1041	1018	1004	1003	997	996	992	988	978	971	977	975	965	949	956	969	984	992	995	994	1003	1008	1019	1021	1026	1022	1018	1018	1022	1025	1024	1024	1015	1014	1007	1005	1006	1023	1019	1020	1028	1034	1032	1036	1033	1032	1030	1038	1047	1052	0	0	0	0	0	0	0	0	0	0	0	0	0	1331	1419	1443	1462	1460	1457	1456	1458	1459	1449	1452	1449	1448	1440	1441	1433	1428	1424	1415	1403	1417	1430	1435	1431	1426	1435	1452	1467	1471	1419	1411	1420	1432	1434	1437	1429	1417	1397	1391	1399	1409	1429	1433	1435	1429	1430	1433	1435	1434	1432	1439	1449	1454	1453	1454	1455	1455	1460	1454	1449	1453	1456	1464	1454	1447	1445	1444	1447	1452	1453	1458	1463	1465	1436	1430	1427	1420	1420	1422	1441	1425	1422	1425	1438	1432	1436	1436	1448	1437	1428	1418	1412	1414	1414	1417	1416	1413	1418	1430	1458	1448	1448	1463	1450	1442	1426	1431	1442	1434	1414	1423	1433	1444	1444	1448	1451	1444	1446	1453	1444	1439	1431	1425	1429	1449	1452	1455	1455	1457	1426	1421	1404	1402	1397	1389	1436	1454	1441	1403	1399	1408	1423	1423	1411	1414	1418	1428	1467	1450	0	0	0	0	0	0	0	0	0	0	962	952	948	947	961	966	978	988	998	995	987	973	968	974	986	999	996	991	989	993	998	1006	999	983	973	962	959	969	973	971	968	966	968	980	994	1012	1017	1014	1006	1006	1009	1002	987	984	989	994	1012	1018	1018	1019	1018	1014	1022	1023	1022	1026	1068	1115	1164	1227	1298	1343	1373	1387	1385	1383	1380	1382	1384	1397	1409	1421	1419	1420	1424	1422	1418	1417	1408	1419	1420	1427	1424	1416	1418	1425	1435	1432	1430	1421	1411	1404	1403	1406	1402	1404	1416	1423	1423	1412	1403	1417	1430	1433	1435	1430	1436	1439	1451	1449	1437	1417	1411	1401	1405	1415	1426	1424	1408	1404	1400	1410	1420	1431	1434	1450	1466	1473	1460	1455	1452	1440	1425	1407	1400	1404	1411	1411	1416	1420	1415	1408	1398	1393	1398	1396	1395	1394	1431	1431	1422	1434	1443	1423	1409	1403	1401	1399	1409	1431	1440	1430	1429	1436	1440	1435	1422	1419	1413	1409	1396	1392	1399	1416	1428	1436	1429	1429	1415	1401	1397	1394	1404	1421	1433	1434	1431	1422	1416	1408	1391	1390	1390	1396	1415	1415	1429	1430	1417	1398	1389	1390	1396	1415	1439	1459	1441	1441	1438	1434	1410	0	0	0	0	0	0
0	1368	1368	1374	1381	1411	1413	1411	1411	1388	1375	1378	1384	1383	1383	1395	1403	1418	1415	1400	1396	1396	1408	1435	1444	1446	1441	1441	1441	1436	1426	1406	1398	1399	1396	1388	1376	1376	1377	1374	1379	1387	1406	1438	1434	1426	1425	1425	1421	1419	1429	1438	1430	1434	1437	1447	1444	1433	1429	1422	1415	1415	1412	1411	1411	1423	1431	1439	1444	1445	1447	1446	1442	1434	1428	1425	1434	1438	1434	1425	1423	1429	1419	1421	1422	1406	1399	1391	1401	1405	1431	1449	1462	1461	1460	1448	1439	1431	1423	1431	1428	1424	1424	1428	1439	1445	1455	1453	1439	1429	1408	1406	1397	1401	1424	1435	1442	1442	1447	1440	1431	1428	1424	1431	1434	1444	1450	1450	1446	1441	1431	1429	1436	1448	1435	1426	1424	1414	1405	1404	1407	1418	1420	1420	1426	1434	1446	1439	1429	1417	1423	1431	1452	1457	1463	1468	1468	1474	1458	1446	1431	1419	1410	1416	1426	1439	1459	1475	1481	1473	1465	1451	1449	1446	1446	1437	1418	1413	1414	1417	1419	1433	1432	1444	1439	1443	1434	1418	1409	1402	1385	1346	1308	1286	1259	1223	1177	1136	1092	1024	1011	1001	989	984	982	981	977	968	958	955	955	955	965	967	960	957	968	977	982	984	985	994	1001	1008	1010	1016	1012	1013	1004	1007	1014	1013	1009	1018	1020	1021	1015	1003	992	991	1004	1022	1031	1023	1019	1021	1024	1027	1035	1041	1040	0	0	0	0	0	0	0	0	0	0	0	0	1344	1436	1455	1466	1469	1462	1450	1435	1433	1436	1435	1430	1427	1429	1438	1445	1441	1430	1414	1401	1390	1403	1418	1423	1420	1424	1421	1440	1457	1454	1437	1413	1424	1429	1436	1444	1441	1426	1409	1397	1398	1414	1429	1438	1439	1430	1430	1437	1441	1432	1431	1438	1443	1456	1450	1450	1447	1457	1460	1460	1452	1446	1446	1445	1424	1417	1413	1424	1442	1448	1449	1449	1454	1460	1448	1437	1440	1432	1421	1423	1433	1424	1413	1417	1418	1438	1447	1445	1445	1426	1423	1412	1416	1433	1437	1414	1414	1412	1411	1417	1435	1443	1449	1466	1463	1459	1437	1438	1451	1460	1448	1429	1432	1441	1439	1442	1445	1441	1446	1455	1445	1441	1434	1426	1424	1425	1434	1450	1441	1434	1430	1428	1422	1407	1394	1386	1432	1425	1413	1407	1397	1408	1417	1411	1415	1415	1418	1425	1440	1482	0	0	0	0	0	0	0	0	0	0	0	936	932	922	926	924	933	946	964	973	968	959	957	976	983	992	998	993	987	992	999	1005	1000	986	974	965	971	980	983	977	971	955	948	961	975	990	1002	996	987	997	1001	998	992	991	995	1007	1021	1021	1017	1013	1002	997	999	999	999	1017	1030	1053	1081	1093	1143	1216	1266	1303	1330	1341	1354	1364	1376	1395	1410	1429	1432	1426	1424	1423	1421	1420	1429	1432	1431	1425	1417	1407	1420	1437	1451	1456	1446	1442	1414	1414	1413	1425	1429	1432	1427	1429	1423	1418	1412	1416	1424	1422	1426	1421	1422	1441	1446	1444	1429	1416	1404	1402	1411	1429	1434	1430	1418	1405	1420	1437	1448	1450	1439	1437	1453	1446	1432	1432	1447	1449	1441	1427	1415	1409	1414	1419	1421	1420	1406	1407	1395	1390	1401	1403	1407	1420	1430	1423	1418	1414	1417	1409	1404	1387	1394	1397	1404	1417	1441	1451	1450	1444	1429	1412	1412	1410	1407	1407	1401	1393	1401	1423	1434	1439	1434	1434	1424	1405	1402	1409	1413	1420	1430	1422	1417	1418	1413	1411	1395	1395	1403	1415	1426	1426	1427	1429	1428	1414	1411	1412	1425	1429	1438	1445	1450	1450	1449	1438	1434	0	0	0	0	0	0
0	1384	1384	1393	1396	1410	1414	1403	1403	1390	1368	1386	1390	1390	1390	1396	1419	1428	1415	1401	1394	1394	1411	1443	1445	1434	1431	1430	1430	1419	1408	1406	1416	1425	1411	1401	1401	1401	1402	1404	1411	1425	1454	1451	1439	1428	1421	1418	1418	1430	1439	1448	1441	1439	1438	1447	1436	1434	1423	1411	1415	1414	1414	1416	1424	1426	1442	1445	1443	1432	1433	1434	1430	1424	1412	1419	1431	1433	1428	1426	1424	1416	1419	1422	1418	1406	1388	1380	1383	1398	1424	1459	1476	1483	1483	1468	1454	1439	1431	1434	1432	1426	1417	1421	1430	1441	1451	1447	1432	1413	1413	1410	1402	1406	1418	1429	1437	1445	1452	1436	1420	1400	1406	1414	1429	1443	1443	1446	1441	1435	1418	1410	1420	1439	1432	1434	1428	1418	1408	1401	1408	1421	1424	1423	1429	1441	1453	1460	1456	1445	1440	1440	1457	1465	1470	1467	1469	1468	1462	1436	1424	1413	1411	1409	1425	1441	1460	1483	1472	1468	1460	1454	1446	1456	1450	1442	1436	1423	1414	1413	1410	1414	1426	1428	1432	1438	1434	1419	1401	1362	1323	1271	1217	1166	1136	1107	1080	1040	1017	1008	998	985	977	972	971	969	960	954	950	946	945	945	957	966	968	963	971	976	982	983	989	993	996	1002	1010	1014	1019	1016	1003	1006	1008	1010	1018	1016	1032	1037	1027	1014	1005	1005	1025	1043	1039	1037	1025	1020	1015	1030	1034	1042	0	0	0	0	0	0	0	0	0	0	0	0	1354	1459	1458	1455	1457	1467	1454	1433	1423	1421	1417	1408	1405	1408	1419	1433	1436	1433	1430	1415	1406	1410	1412	1413	1416	1416	1419	1433	1452	1458	1444	1422	1422	1427	1436	1433	1443	1451	1439	1425	1408	1402	1414	1427	1440	1436	1432	1434	1439	1435	1434	1426	1436	1443	1454	1449	1445	1442	1446	1449	1446	1438	1435	1436	1432	1418	1405	1411	1417	1439	1452	1441	1445	1445	1454	1445	1440	1438	1432	1426	1427	1428	1428	1431	1424	1417	1421	1429	1433	1428	1428	1423	1429	1431	1446	1448	1424	1410	1415	1416	1420	1430	1442	1446	1497	1475	1475	1438	1445	1455	1461	1460	1458	1445	1449	1445	1447	1443	1442	1445	1446	1445	1439	1435	1424	1425	1429	1431	1428	1421	1423	1419	1414	1402	1392	1384	1371	1360	1421	1416	1391	1389	1395	1403	1400	1419	1419	1422	1431	1439	1457	1456	0	0	0	0	0	0	0	0	0	0	0	942	923	903	895	902	912	940	958	966	964	966	970	978	986	994	991	989	989	1013	1015	1008	988	975	970	979	991	993	989	967	950	929	935	944	960	980	988	988	991	992	994	997	1007	1021	1026	1026	1024	1016	1005	990	979	977	974	979	993	1005	1014	1021	1029	1041	1085	1148	1193	1251	1282	1312	1335	1364	1387	1405	1428	1435	1423	1417	1420	1424	1420	1426	1434	1427	1423	1423	1422	1434	1454	1462	1458	1449	1439	1430	1433	1427	1438	1452	1456	1450	1439	1432	1426	1429	1421	1415	1414	1416	1416	1417	1413	1419	1417	1415	1399	1396	1393	1411	1424	1431	1422	1412	1415	1434	1456	1462	1450	1441	1429	1431	1426	1406	1414	1439	1457	1461	1452	1439	1424	1427	1426	1425	1422	1413	1405	1408	1406	1420	1422	1425	1419	1420	1416	1404	1405	1407	1412	1406	1396	1393	1404	1409	1419	1432	1440	1449	1445	1427	1401	1398	1402	1404	1399	1396	1398	1405	1428	1433	1441	1441	1437	1425	1419	1418	1425	1423	1420	1419	1414	1403	1407	1408	1404	1404	1415	1424	1431	1437	1437	1440	1436	1438	1435	1431	1430	1428	1424	1422	1421	1430	1430	1430	1426	1425	0	0	0	0	0	0
0	1400	1400	1404	1401	1405	1412	1412	1412	1391	1386	1394	1407	1411	1411	1419	1425	1429	1411	1398	1396	1396	1407	1426	1428	1428	1422	1424	1419	1419	1400	1412	1427	1433	1424	1424	1432	1432	1430	1434	1444	1451	1459	1440	1434	1423	1420	1423	1423	1437	1455	1454	1442	1433	1434	1421	1425	1410	1400	1400	1417	1422	1422	1427	1427	1438	1443	1448	1438	1427	1415	1418	1409	1399	1403	1408	1422	1432	1446	1447	1431	1414	1414	1419	1423	1416	1408	1398	1388	1414	1448	1475	1488	1491	1491	1476	1456	1438	1431	1434	1438	1432	1426	1424	1429	1443	1446	1443	1440	1430	1427	1422	1411	1409	1417	1436	1453	1471	1472	1456	1416	1399	1401	1410	1426	1431	1438	1435	1434	1424	1409	1401	1410	1432	1432	1437	1431	1426	1417	1409	1416	1425	1424	1420	1422	1432	1442	1457	1466	1459	1446	1446	1457	1462	1462	1452	1448	1445	1437	1432	1425	1416	1414	1416	1425	1448	1472	1474	1461	1459	1454	1444	1439	1438	1442	1438	1439	1435	1415	1406	1397	1404	1407	1397	1408	1418	1408	1391	1357	1290	1224	1160	1106	1070	1027	1010	1005	996	994	998	986	971	961	962	959	957	953	955	959	960	957	957	963	976	982	978	980	977	979	984	983	984	987	993	1006	1021	1020	1015	1005	1010	1001	1014	1012	1018	1037	1039	1038	1029	1025	1025	1037	1046	1049	1042	1033	1014	1008	1010	0	0	0	0	0	0	0	0	0	0	0	0	0	1324	1471	1475	1441	1443	1450	1454	1439	1434	1426	1416	1413	1396	1391	1400	1413	1425	1424	1429	1429	1421	1417	1425	1431	1422	1418	1420	1420	1437	1456	1467	1447	1423	1414	1424	1419	1421	1436	1447	1452	1447	1427	1411	1412	1427	1431	1430	1429	1426	1425	1426	1427	1428	1431	1441	1443	1454	1455	1449	1445	1437	1432	1430	1429	1435	1436	1434	1429	1428	1442	1450	1446	1445	1438	1439	1449	1448	1442	1439	1434	1436	1434	1429	1433	1442	1438	1426	1421	1422	1418	1422	1437	1438	1439	1444	1450	1447	1442	1431	1420	1414	1413	1423	1440	1446	1444	1486	1458	1461	1480	1470	1466	1481	1466	1462	1462	1472	1468	1453	1438	1423	1432	1439	1441	1438	1430	1421	1431	1432	1412	1421	1430	1420	1414	1409	1417	1387	1384	1380	1379	1385	1397	1391	1400	1402	1404	1404	1429	1432	1432	1447	1442	1440	0	0	0	0	0	0	0	0	0	0	0	0	925	891	880	880	894	911	921	945	957	964	966	969	975	978	975	972	989	1001	1001	995	981	972	968	980	994	999	990	963	938	913	905	914	934	962	979	984	983	982	985	993	1010	1026	1029	1025	1016	1004	989	977	967	960	961	964	984	987	988	996	998	999	1018	1046	1073	1142	1211	1247	1276	1318	1352	1381	1415	1408	1388	1396	1406	1416	1420	1425	1430	1420	1420	1428	1433	1447	1458	1454	1441	1437	1433	1439	1440	1434	1445	1453	1461	1464	1451	1444	1435	1430	1419	1415	1406	1413	1430	1417	1409	1407	1401	1404	1402	1391	1391	1396	1402	1413	1412	1410	1415	1435	1448	1464	1455	1435	1418	1413	1404	1399	1409	1435	1452	1470	1475	1455	1440	1442	1437	1432	1430	1428	1423	1420	1425	1428	1428	1423	1416	1419	1410	1403	1399	1412	1415	1398	1398	1395	1404	1416	1420	1426	1435	1440	1443	1436	1425	1404	1400	1392	1385	1385	1396	1411	1427	1436	1434	1434	1430	1428	1426	1423	1426	1425	1425	1421	1408	1402	1409	1403	1410	1414	1429	1434	1438	1438	1441	1440	1437	1435	1430	1435	1432	1422	1410	1414	1410	1410	1409	1413	1419	1420	0	0	0	0	0	0
0	1410	1410	1402	1399	1405	1422	1431	1431	1432	1421	1425	1426	1425	1425	1435	1439	1420	1398	1392	1391	1391	1399	1394	1393	1409	1420	1419	1417	1417	1410	1417	1431	1424	1421	1431	1439	1445	1445	1450	1454	1443	1438	1421	1408	1411	1412	1412	1412	1436	1452	1461	1449	1436	1423	1419	1417	1405	1397	1402	1424	1430	1430	1436	1433	1430	1438	1442	1439	1427	1416	1413	1409	1394	1399	1410	1421	1438	1448	1446	1435	1425	1420	1427	1435	1442	1441	1437	1428	1441	1458	1482	1482	1478	1457	1456	1442	1423	1424	1424	1428	1431	1430	1431	1432	1439	1446	1448	1448	1443	1447	1438	1430	1439	1447	1451	1466	1479	1480	1465	1436	1417	1416	1428	1429	1428	1428	1426	1426	1414	1406	1412	1415	1425	1431	1434	1438	1434	1425	1423	1427	1431	1427	1423	1410	1412	1424	1442	1454	1452	1441	1433	1444	1443	1440	1432	1430	1429	1429	1427	1424	1418	1416	1413	1429	1448	1463	1461	1452	1444	1452	1443	1429	1417	1419	1428	1431	1433	1419	1406	1397	1399	1391	1372	1279	1358	1359	1331	1274	1153	1080	1034	1001	987	978	975	966	962	974	976	965	951	940	941	945	952	957	967	973	976	979	978	977	985	995	992	988	983	980	976	980	983	977	983	994	1007	1014	1014	1008	1010	1005	1001	1003	1009	1031	1038	1038	1031	1032	1033	1043	1044	1040	1027	996	964	0	0	0	0	0	0	0	0	0	0	0	0	0	0	1261	1457	1481	1466	1434	1428	1433	1442	1435	1423	1422	1419	1408	1396	1391	1407	1409	1414	1418	1425	1431	1434	1431	1443	1448	1445	1423	1422	1423	1447	1458	1463	1445	1433	1429	1415	1411	1410	1421	1439	1461	1458	1446	1432	1425	1420	1425	1425	1431	1429	1425	1421	1424	1431	1431	1440	1449	1463	1467	1467	1448	1436	1427	1417	1432	1435	1437	1438	1445	1447	1447	1448	1444	1435	1431	1438	1456	1457	1452	1450	1444	1443	1442	1430	1420	1442	1444	1429	1466	1462	1489	1457	1433	1450	1454	1449	1456	1455	1453	1452	1443	1419	1421	1422	1437	1443	1447	1456	1470	1477	1469	1459	1447	1457	1461	1454	1459	1462	1462	1446	1404	1396	1398	1401	1410	1433	1439	1435	1454	1425	1414	1424	1427	1444	1432	1421	1413	1421	1404	1384	1383	1390	1410	1403	1415	1421	1409	1404	1397	1397	1400	1422	1431	1428	0	0	0	0	0	0	0	0	0	0	0	0	0	892	862	863	865	882	910	935	955	965	969	969	971	973	972	960	975	980	975	968	960	966	972	984	995	1000	989	965	933	904	888	898	919	940	957	966	965	963	961	970	991	1006	1005	997	988	980	972	961	954	951	950	959	978	980	981	983	981	982	988	1001	1012	1035	1080	1153	1194	1237	1279	1226	1319	1356	1375	1386	1403	1416	1422	1425	1422	1426	1422	1426	1430	1436	1439	1432	1409	1413	1423	1438	1443	1443	1434	1431	1444	1444	1447	1438	1434	1419	1411	1410	1409	1432	1436	1430	1421	1413	1411	1407	1402	1404	1392	1394	1394	1395	1397	1403	1418	1428	1438	1448	1447	1438	1421	1409	1396	1399	1412	1431	1438	1441	1446	1445	1448	1451	1448	1441	1437	1434	1432	1424	1421	1427	1431	1419	1419	1418	1416	1410	1411	1421	1412	1402	1398	1390	1401	1418	1429	1427	1426	1434	1436	1442	1440	1423	1414	1400	1397	1393	1401	1414	1423	1427	1427	1422	1423	1423	1422	1428	1431	1428	1427	1429	1418	1410	1411	1418	1418	1431	1432	1436	1442	1442	1439	1434	1419	1408	1411	1424	1425	1414	1408	1407	1407	1407	1413	1417	1415	1421	0	0	0	0	0	0
0	0	1410	1410	1393	1427	1437	1456	1456	1453	1447	1440	1435	1444	1444	1444	1436	1404	1388	1387	1394	1394	1393	1390	1387	1402	1421	1430	1423	1423	1422	1420	1420	1416	1398	1413	1431	1441	1441	1452	1454	1441	1416	1394	1390	1398	1399	1404	1404	1425	1448	1457	1453	1441	1429	1425	1414	1403	1402	1416	1444	1446	1435	1435	1431	1428	1425	1427	1420	1432	1432	1432	1417	1410	1411	1425	1434	1441	1451	1442	1435	1430	1430	1437	1447	1462	1469	1466	1468	1467	1468	1468	1456	1449	1429	1422	1419	1415	1410	1411	1415	1421	1420	1430	1427	1436	1436	1444	1449	1450	1450	1456	1452	1453	1461	1469	1485	1486	1486	1469	1457	1438	1435	1441	1447	1440	1428	1426	1431	1432	1428	1428	1426	1433	1436	1433	1431	1435	1428	1425	1430	1439	1434	1424	1398	1403	1414	1427	1446	1446	1437	1425	1424	1424	1420	1416	1422	1437	1442	1437	1427	1419	1413	1411	1415	1436	1441	1441	1427	1439	1444	1439	1427	1416	1416	1416	1430	1429	1412	1402	1394	1390	1371	1327	1147	1086	1017	997	1049	1016	980	962	955	955	960	961	958	957	962	975	946	929	919	917	930	943	959	970	974	981	985	987	986	990	1000	1004	990	985	977	975	976	976	978	980	982	996	1000	1004	1002	996	991	986	984	996	1011	1031	1032	1032	1030	1029	1026	1031	1024	1004	970	0	0	0	0	0	0	0	0	0	0	0	0	0	0	1258	1417	1456	1462	1462	1450	1426	1429	1431	1428	1424	1421	1421	1418	1412	1411	1413	1415	1411	1413	1421	1437	1444	1443	1451	1448	1440	1428	1424	1427	1439	1454	1448	1441	1439	1436	1436	1410	1407	1410	1425	1447	1453	1446	1440	1429	1422	1421	1430	1437	1437	1429	1424	1420	1426	1427	1430	1447	1456	1469	1461	1446	1431	1427	1419	1431	1444	1439	1438	1433	1424	1424	1424	1424	1426	1432	1448	1461	1464	1461	1461	1457	1450	1444	1426	1411	1438	1441	1461	1457	1479	1463	1481	1452	1457	1467	1474	1464	1465	1462	1457	1457	1436	1432	1421	1425	1432	1450	1453	1457	1465	1457	1446	1426	1441	1453	1447	1449	1452	1456	1449	1411	1403	1404	1406	1419	1435	1449	1458	1438	1414	1414	1425	1441	1431	1421	1418	1410	1411	1418	1428	1434	1444	1432	1445	1439	1439	1418	1414	1403	1402	1414	1421	1424	1424	0	0	0	0	0	0	0	0	0	0	0	0	0	0	0	892	871	882	907	934	951	962	966	969	971	972	970	962	956	955	949	942	948	965	977	988	994	1000	993	971	940	912	899	903	916	932	938	943	940	937	941	948	965	977	981	969	954	940	942	941	944	945	941	965	970	974	974	973	969	969	972	979	985	999	1018	1051	1029	1060	1093	1185	1223	1277	1324	1354	1378	1401	1418	1419	1429	1438	1443	1434	1426	1424	1412	1408	1394	1396	1405	1427	1442	1441	1434	1421	1414	1421	1430	1434	1429	1408	1404	1407	1401	1425	1443	1442	1439	1438	1425	1418	1412	1415	1413	1405	1394	1385	1388	1401	1415	1417	1411	1416	1430	1416	1404	1410	1406	1406	1421	1424	1427	1425	1421	1432	1434	1446	1450	1446	1440	1436	1431	1417	1419	1425	1430	1423	1417	1418	1414	1417	1424	1427	1424	1409	1393	1385	1387	1408	1425	1425	1426	1427	1429	1434	1431	1425	1420	1416	1417	1406	1410	1421	1427	1425	1425	1421	1407	1406	1412	1416	1420	1424	1427	1422	1416	1410	1411	1424	1429	1431	1428	1436	1441	1441	1441	1433	1412	1401	1406	1413	1420	1410	1410	1412	1415	1415	1425	1426	1430	1429	0	0	0	0	0	0
0	0	0	0	1411	0	1452	1457	1463	1463	1451	1445	1437	1447	1441	1441	1418	1400	1398	1393	1403	1413	1413	1412	1411	1419	1434	1440	1436	1436	1426	1419	1411	1398	1386	1393	1407	1422	1422	1445	1453	1440	1400	1376	1374	1384	1393	1396	1422	1422	1442	1456	1458	1446	1434	1416	1404	1398	1408	1441	1453	1448	1438	1438	1431	1418	1410	1400	1405	1423	1434	1440	1436	1436	1436	1437	1437	1436	1442	1437	1431	1438	1444	1444	1446	1455	1461	1468	1463	1459	1453	1441	1438	1426	1414	1411	1413	1407	1402	1400	1406	1417	1418	1419	1425	1430	1431	1437	1445	1452	1465	1480	1474	1465	1465	1479	1482	1479	1474	1464	1456	1453	1447	1450	1449	1442	1439	1438	1442	1448	1457	1453	1454	1435	1417	1411	1427	1428	1427	1424	1428	1436	1440	1430	1414	1406	1412	1430	1442	1447	1446	1430	1421	1415	1417	1420	1429	1441	1447	1443	1436	1425	1410	1403	1403	1414	1424	1418	1413	1434	1452	1450	1440	1424	1418	1425	1429	1414	1394	1375	1364	1293	1188	1122	997	968	958	947	949	956	964	955	952	955	960	965	959	959	958	968	944	917	905	902	913	937	953	960	967	974	983	985	986	990	1004	1009	1001	991	983	979	975	977	977	970	970	972	983	996	996	986	981	974	976	992	1008	1019	1020	1024	1021	1011	1003	1000	0	0	0	0	0	920	934	955	0	0	0	0	0	0	0	0	1209	1377	1422	1429	1439	1441	1433	1428	1429	1429	1434	1424	1423	1416	1415	1419	1423	1419	1415	1407	1410	1423	1444	1448	1440	1434	1438	1431	1428	1430	1435	1445	1440	1432	1434	1432	1443	1442	1431	1411	1406	1419	1438	1445	1445	1446	1434	1422	1426	1440	1449	1449	1438	1424	1418	1423	1426	1434	1447	1453	1459	1443	1434	1429	1434	1441	1447	1449	1436	1419	1414	1409	1410	1417	1424	1436	1449	1457	1467	1464	1468	1461	1456	1450	1445	1427	1416	1412	1447	1429	1445	1446	1442	1465	1473	1456	1481	1473	1479	1462	1464	1458	1470	1458	1446	1426	1421	1428	1451	1451	1445	1442	1439	1435	1420	1441	1447	1445	1446	1440	1445	1444	1432	1415	1406	1411	1423	1439	1449	1436	1421	1414	1417	1430	1420	1421	1420	1415	1410	1411	1419	1434	1442	1445	1456	1458	1447	1433	1425	1426	1411	1411	1418	1426	1422	1407	1404	1431	0	0	0	0	0	0	0	0	0	0	0	0	0	0	0	882	907	927	937	945	950	954	964	970	966	949	942	934	933	933	946	961	975	981	988	992	991	975	953	931	919	921	928	934	926	919	918	917	924	933	952	962	962	943	927	914	915	918	927	936	941	956	963	966	969	970	965	959	959	958	962	950	959	972	998	1012	1013	1067	1131	1185	1238	1281	1332	1367	1401	1414	1419	1433	1445	1449	1433	1414	1404	1406	1406	1406	1409	1416	1425	1431	1431	1423	1404	1407	1416	1417	1419	1411	1398	1395	1397	1424	1435	1446	1450	1449	1437	1418	1413	1428	1425	1411	1398	1393	1394	1405	1411	1406	1398	1389	1387	1389	1395	1410	1426	1416	1419	1418	1417	1417	1415	1425	1422	1430	1432	1441	1437	1435	1427	1417	1418	1426	1427	1431	1426	1417	1412	1418	1429	1438	1433	1409	1386	1382	1384	1404	1420	1425	1424	1413	1415	1420	1426	1425	1425	1430	1424	1425	1423	1427	1426	1426	1425	1416	1412	1404	1401	1410	1412	1412	1413	1414	1405	1400	1409	1417	1421	1418	1428	1435	1435	1448	1450	1433	1414	1405	1403	1406	1412	1416	1419	1416	1416	1418	1424	1431	1434	1433	0	0	0	0	0	0
0	0	0	0	0	0	0	0	0	0	0	1437	1431	1417	1411	1411	1405	1400	1396	1401	1424	1432	1432	1436	1431	1437	1440	1445	1446	1433	1433	1419	1400	1379	1378	1387	1395	1408	1408	1431	1440	1426	1392	1369	1373	1390	1400	1402	1421	1421	1436	1451	1458	1446	1429	1414	1408	1406	1416	1432	1444	1441	1438	1438	1437	1416	1399	1380	1382	1396	1418	1427	1429	1442	1443	1435	1434	1429	1430	1427	1421	1430	1443	1443	1445	1443	1449	1444	1437	1441	1434	1433	1426	1420	1414	1417	1412	1406	1400	1394	1404	1414	1417	1422	1428	1435	1434	1433	1440	1450	1468	1480	1474	1464	1464	1469	1473	1465	1450	1439	1437	1448	1454	1456	1445	1438	1437	1440	1453	1462	1472	1483	1473	1432	1409	1408	1419	1438	1434	1426	1431	1446	1446	1433	1418	1416	1418	1426	1443	1447	1453	1443	1428	1411	1411	1423	1444	1446	1448	1444	1438	1435	1426	1413	1399	1392	1397	1408	1411	1435	1459	1462	1452	1439	1427	1421	1414	1387	1364	1304	1151	1046	1018	1005	975	942	928	929	937	956	974	985	976	965	961	959	972	974	976	973	958	924	903	902	912	931	944	952	957	969	979	982	986	993	999	1002	1000	1002	991	975	967	969	970	969	962	961	970	986	995	990	983	975	981	993	1012	1013	1013	1018	1014	993	969	0	0	0	0	0	0	912	929	950	0	0	0	0	0	0	0	0	1187	1410	1424	1424	1427	1431	1432	1434	1437	1438	1444	1435	1416	1399	1402	1426	1436	1440	1429	1415	1418	1423	1444	1447	1432	1425	1429	1438	1443	1446	1456	1452	1431	1426	1427	1432	1443	1447	1441	1420	1417	1429	1441	1445	1446	1436	1429	1413	1417	1434	1452	1461	1447	1430	1425	1433	1437	1440	1440	1438	1436	1430	1424	1427	1436	1444	1446	1445	1436	1426	1423	1417	1418	1414	1422	1442	1456	1466	1462	1454	1446	1454	1449	1439	1437	1428	1422	1429	1431	1434	1419	1428	1435	1427	1453	1463	1467	1484	1469	1471	1460	1456	1469	1477	1462	1431	1420	1427	1431	1441	1414	1404	1435	1422	1446	1439	1442	1450	1445	1456	1472	1471	1455	1442	1427	1410	1429	1438	1442	1423	1422	1420	1434	1426	1416	1417	1422	1434	1432	1419	1429	1460	1442	1456	1437	1441	1440	1430	1448	1436	1430	1432	1435	1435	1429	1423	1413	1426	1448	0	0	0	0	0	0	0	0	0	0	0	0	0	0	0	0	907	917	917	923	933	949	960	953	927	923	924	927	937	948	958	961	961	962	968	971	971	955	946	939	941	943	944	929	921	918	916	924	936	948	951	946	926	907	896	896	906	918	927	934	948	956	967	978	977	967	954	959	966	959	950	956	967	992	1000	993	989	1022	1076	1117	1166	1240	1286	1337	1372	1381	1398	1422	1441	1429	1425	1425	1428	1434	1426	1416	1416	1410	1418	1427	1432	1424	1415	1415	1414	1404	1396	1389	1389	1394	1422	1429	1434	1441	1437	1424	1418	1419	1407	1420	1423	1411	1407	1408	1405	1408	1397	1386	1379	1379	1386	1401	1417	1435	1443	1428	1415	1414	1403	1393	1404	1425	1435	1443	1446	1445	1437	1427	1423	1428	1432	1431	1427	1422	1410	1411	1420	1433	1442	1439	1422	1397	1384	1393	1409	1423	1428	1418	1409	1407	1413	1418	1420	1429	1435	1435	1428	1423	1427	1421	1422	1422	1420	1422	1426	1422	1424	1416	1409	1404	1401	1395	1395	1395	1404	1413	1417	1428	1441	1441	1458	1452	1435	1416	1410	1403	1401	1409	1420	1418	1419	1419	1421	1425	1424	1428	1426	0	0	0	0	0	0
0	0	0	0	0	0	0	0	0	0	0	0	0	0	0	0	1393	1389	1393	1410	1432	1448	1448	1452	1448	1446	1443	1447	1440	1439	1439	1423	1399	1379	1373	1372	1379	1389	1405	1405	1422	1414	1393	1375	1383	1400	1413	1417	1419	1419	1428	1446	1453	1441	1425	1419	1412	1409	1417	1438	1439	1443	1437	1438	1438	1433	1412	1390	1387	1396	1419	1426	1435	1438	1439	1432	1433	1430	1418	1417	1413	1425	1439	1441	1438	1428	1436	1431	1429	1428	1424	1427	1436	1434	1436	1430	1430	1416	1405	1402	1408	1420	1415	1425	1432	1438	1436	1434	1440	1438	1453	1461	1463	1449	1451	1465	1461	1453	1430	1422	1426	1445	1449	1448	1437	1430	1434	1438	1447	1464	1473	1476	1481	1436	1414	1420	1441	1446	1442	1438	1435	1448	1449	1432	1425	1420	1422	1431	1449	1447	1453	1451	1429	1403	1408	1426	1446	1444	1438	1439	1445	1444	1437	1423	1399	1382	1389	1401	1414	1439	1445	1448	1432	1418	1421	1408	1381	1328	1175	1039	1000	976	957	946	940	943	944	942	949	962	976	979	968	952	951	964	986	991	981	977	959	952	923	920	932	936	940	943	954	965	977	978	979	982	983	980	979	987	981	964	948	958	966	976	968	964	969	983	993	993	992	987	994	1006	1019	1016	1014	1018	1000	957	0	0	0	0	0	0	0	918	927	948	0	0	0	0	0	0	0	1181	1342	1417	1428	1425	1426	1428	1431	1432	1445	1448	1445	1433	1415	1406	1408	1429	1444	1450	1444	1432	1434	1440	1455	1448	1433	1424	1426	1441	1450	1461	1467	1464	1448	1438	1433	1443	1450	1455	1453	1435	1435	1445	1456	1445	1442	1429	1417	1406	1409	1426	1443	1454	1448	1437	1436	1436	1440	1434	1437	1440	1430	1421	1420	1424	1434	1443	1447	1443	1444	1439	1433	1428	1420	1419	1423	1447	1460	1461	1452	1446	1441	1445	1449	1441	1436	1432	1431	1432	1427	1421	1425	1428	1433	1433	1457	1460	1440	1458	1466	1466	1462	1458	1454	1469	1460	1437	1431	1435	1431	1413	1406	1396	1419	1440	1448	1446	1452	1460	1450	1468	1463	1457	1447	1441	1429	1418	1412	1429	1441	1435	1437	1450	1431	1445	1431	1430	1421	1412	1396	1400	1426	1429	1418	1426	1419	1424	1423	1438	1447	1439	1431	1432	1447	1449	1449	1445	1428	1423	1421	0	0	0	0	0	0	0	0	0	0	0	0	0	0	0	0	0	894	892	897	911	924	935	930	912	912	918	922	935	943	948	950	946	940	943	947	951	951	946	947	952	954	950	945	939	933	928	932	941	952	947	934	915	894	885	892	902	908	921	929	946	964	980	989	1001	994	985	981	989	980	964	953	964	981	993	981	956	964	990	1011	1057	1105	1174	1228	1274	1304	1327	1357	1396	1411	1420	1436	1458	1459	1456	1439	1422	1410	1407	1421	1433	1434	1425	1418	1420	1417	1408	1396	1389	1396	1416	1421	1427	1420	1419	1413	1415	1422	1418	1430	1425	1417	1407	1407	1406	1400	1394	1395	1393	1407	1409	1412	1418	1435	1442	1428	1427	1413	1384	1371	1389	1415	1434	1452	1454	1449	1434	1428	1426	1421	1419	1413	1404	1397	1405	1413	1424	1437	1439	1440	1426	1408	1390	1404	1427	1435	1427	1420	1406	1408	1411	1410	1411	1428	1445	1443	1438	1429	1426	1426	1425	1422	1431	1438	1441	1444	1436	1417	1408	1404	1407	1397	1391	1391	1395	1406	1422	1434	1449	1449	1459	1454	1435	1421	1408	1402	1400	1403	1410	1414	1415	1415	1415	1419	1416	1416	1422	0	0	0	0	0	0
0	0	0	0	0	1444	1430	1426	1445	1445	1458	1441	0	0	0	0	0	1391	1405	1427	1444	1452	1452	1455	1449	1433	1440	1445	1445	1442	1442	1427	1406	1379	1359	1363	1367	1370	1390	1390	1404	1405	1397	1391	1401	1419	1427	1418	1412	1421	1421	1432	1440	1431	1422	1420	1415	1409	1401	1415	1428	1428	1432	1445	1445	1449	1438	1425	1414	1420	1416	1426	1435	1436	1428	1424	1426	1424	1415	1409	1415	1425	1440	1448	1447	1427	1419	1419	1424	1423	1425	1429	1439	1447	1444	1446	1449	1439	1435	1425	1426	1427	1422	1425	1439	1441	1446	1436	1433	1435	1434	1442	1450	1453	1453	1456	1455	1449	1433	1423	1435	1441	1451	1443	1436	1432	1435	1440	1441	1446	1454	1452	1464	1435	1428	1436	1452	1454	1447	1440	1447	1458	1456	1439	1419	1418	1421	1438	1449	1448	1451	1439	1425	1396	1408	1424	1442	1430	1423	1423	1434	1444	1442	1428	1401	1383	1386	1402	1421	1442	1430	1407	1384	1372	1365	1245	1114	959	936	936	930	910	904	905	912	939	950	955	960	962	960	953	945	935	932	946	970	983	981	983	968	962	961	950	944	943	936	938	947	956	970	965	967	966	963	958	959	965	959	943	927	942	961	977	977	966	972	983	995	1003	1005	1009	1011	1014	1021	1022	1021	1003	0	0	0	0	0	0	0	0	0	917	927	950	0	0	0	0	0	1281	1387	1363	1403	1422	1429	1428	1431	1426	1427	1431	1440	1445	1435	1431	1413	1415	1416	1421	1441	1453	1454	1446	1443	1452	1459	1459	1438	1427	1421	1433	1446	1447	1457	1458	1455	1452	1447	1454	1463	1465	1457	1444	1455	1468	1473	1456	1445	1428	1414	1405	1408	1424	1442	1450	1450	1442	1435	1434	1433	1432	1437	1437	1431	1417	1413	1419	1430	1444	1442	1441	1443	1443	1446	1443	1446	1433	1440	1445	1446	1445	1439	1437	1440	1447	1452	1447	1445	1442	1440	1436	1437	1438	1435	1442	1452	1459	1449	1448	1451	1460	1461	1458	1454	1440	1439	1452	1457	1448	1439	1441	1441	1418	1404	1401	1428	1441	1456	1462	1458	1445	1455	1468	1447	1439	1440	1436	1431	1427	1427	1434	1433	1435	1440	1449	1458	1450	1436	1421	1414	1400	1384	1387	1421	1425	1423	1423	1418	1411	1427	1436	1434	1438	1431	1433	1445	1453	1451	1449	1447	1450	1442	0	0	0	0	0	0	0	0	0	0	0	0	0	0	0	0	0	0	871	878	889	904	913	911	910	909	912	921	930	941	947	947	934	922	911	913	924	931	933	944	949	951	950	953	953	947	941	941	944	949	935	916	899	893	889	896	902	909	910	934	948	973	993	1006	1004	1000	1001	1006	1003	985	961	950	949	956	962	955	933	937	945	962	987	1020	1060	1110	1155	1184	1212	1252	1301	1334	1379	1420	1470	1472	1468	1458	1437	1416	1415	1423	1429	1441	1435	1426	1421	1417	1434	1420	1408	1403	1404	1404	1407	1401	1398	1397	1408	1421	1422	1421	1415	1404	1398	1389	1395	1393	1400	1404	1412	1429	1436	1427	1417	1429	1436	1422	1426	1418	1389	1362	1376	1407	1439	1454	1460	1456	1438	1421	1416	1407	1400	1391	1387	1385	1395	1416	1435	1438	1438	1441	1431	1414	1396	1403	1427	1443	1435	1414	1406	1406	1402	1395	1397	1431	1450	1453	1440	1439	1436	1436	1432	1429	1439	1450	1455	1449	1443	1425	1413	1407	1410	1398	1389	1389	1404	1422	1434	1445	1445	1454	1461	1452	1436	1422	1408	1406	1409	1408	1416	1419	1419	1420	1417	1416	1413	1411	1415	0	0	0	0	0	0
0	0	0	0	0	1441	1439	1429	1430	1438	1438	1441	1426	0	0	0	0	0	1425	1436	1444	1445	1442	1442	1432	1417	1425	1437	1446	1442	1442	1431	1413	1393	1366	1360	1361	1368	1387	1387	1393	1410	1411	1417	1429	1432	1435	1427	1423	1427	1427	1434	1436	1426	1423	1420	1413	1408	1400	1413	1421	1427	1433	1439	1460	1460	1470	1456	1449	1430	1413	1423	1430	1436	1432	1428	1428	1426	1421	1423	1425	1430	1436	1441	1443	1437	1419	1416	1424	1428	1430	1434	1437	1444	1445	1453	1460	1467	1459	1453	1437	1425	1424	1428	1437	1436	1441	1436	1431	1430	1429	1438	1440	1447	1453	1459	1465	1459	1448	1438	1436	1438	1442	1443	1434	1434	1441	1446	1443	1437	1431	1428	1433	1433	1440	1453	1455	1455	1450	1445	1457	1468	1465	1440	1423	1420	1424	1432	1434	1444	1439	1428	1417	1413	1417	1431	1433	1422	1408	1404	1419	1434	1439	1432	1410	1399	1397	1407	1415	1425	1404	1366	1336	1294	1024	963	929	899	881	881	871	862	852	858	876	915	933	945	950	949	943	935	924	921	923	934	943	958	962	967	971	978	973	968	953	939	932	932	937	947	946	949	945	947	951	956	953	950	944	938	931	936	951	961	963	960	965	978	998	1018	1021	1016	1016	1021	1021	1021	0	0	0	0	0	0	0	0	0	0	0	922	929	947	0	0	0	0	0	1390	1402	1416	1440	1438	1431	1426	1425	1433	1426	1431	1437	1442	1431	1421	1417	1412	1413	1416	1428	1438	1442	1439	1440	1445	1457	1454	1449	1428	1419	1409	1421	1427	1431	1442	1447	1454	1459	1466	1474	1469	1459	1442	1443	1478	1481	1471	1454	1433	1414	1409	1413	1427	1442	1450	1452	1442	1431	1422	1425	1427	1428	1435	1431	1427	1431	1437	1441	1443	1439	1434	1436	1434	1437	1442	1441	1437	1448	1449	1449	1425	1416	1421	1433	1444	1450	1446	1445	1447	1461	1469	1468	1471	1465	1444	1436	1438	1442	1451	1459	1460	1452	1451	1439	1433	1441	1440	1455	1454	1464	1460	1449	1430	1416	1416	1429	1444	1452	1463	1447	1443	1445	1452	1433	1434	1430	1430	1435	1436	1437	1433	1441	1441	1451	1467	1470	1454	1438	1415	1403	1410	1448	1459	1475	1451	1440	1439	1440	1450	1432	1425	1422	1428	1428	1436	1448	1451	1451	1449	1450	1460	1459	1475	1461	0	0	0	0	0	0	0	0	0	0	0	0	0	0	0	0	864	860	866	881	897	914	919	918	914	917	925	934	944	946	924	903	889	894	903	913	925	932	937	937	944	947	947	941	937	935	941	935	917	900	893	891	894	891	897	895	891	886	920	938	950	981	988	987	991	992	981	966	943	931	920	927	933	909	907	909	918	929	945	961	976	997	1030	1056	1086	1125	1172	1225	1287	1341	1440	1453	1464	1453	1448	1428	1425	1419	1429	1436	1439	1441	1440	1438	1447	1447	1451	1436	1409	1395	1393	1391	1382	1385	1401	1412	1422	1419	1407	1392	1382	1376	1381	1397	1407	1412	1424	1442	1449	1434	1425	1425	1423	1416	1406	1409	1411	1397	1384	1409	1435	1443	1455	1449	1433	1417	1416	1400	1389	1376	1374	1377	1402	1428	1445	1455	1450	1452	1441	1419	1396	1403	1425	1435	1438	1414	1404	1400	1393	1387	1388	1433	1455	1457	1446	1438	1438	1433	1437	1433	1438	1442	1457	1455	1444	1431	1415	1413	1406	1396	1389	1393	1424	1432	1440	1449	1449	1455	1455	1453	1436	1413	1408	1404	1408	1416	1429	1433	1433	1426	1426	1417	1407	1406	1413	0	0	0	0	0	0
0	0	0	1451	1451	1441	1427	1422	1415	1414	1414	1425	1425	0	0	0	0	1421	1436	1439	1421	1410	1409	1409	1408	1399	1401	1418	1436	1448	1444	1444	1424	1401	1392	1379	1374	1373	1393	1403	1403	1415	1426	1431	1438	1443	1444	1438	1435	1445	1445	1449	1445	1434	1424	1417	1411	1406	1400	1422	1425	1427	1422	1437	1461	1461	1474	1467	1448	1424	1415	1418	1431	1438	1442	1442	1442	1437	1438	1433	1436	1430	1425	1430	1430	1421	1416	1422	1428	1425	1432	1431	1432	1430	1432	1446	1470	1481	1476	1463	1442	1425	1417	1416	1421	1426	1429	1437	1432	1438	1432	1431	1430	1443	1459	1466	1474	1475	1474	1456	1447	1440	1433	1440	1437	1433	1440	1442	1440	1428	1418	1422	1424	1438	1451	1461	1464	1459	1445	1447	1450	1446	1443	1433	1425	1420	1421	1420	1429	1430	1427	1425	1424	1437	1443	1442	1433	1411	1389	1392	1401	1418	1427	1427	1411	1398	1391	1393	1390	1392	1247	1081	1025	957	926	908	883	864	852	844	842	832	827	830	847	890	902	914	927	926	921	918	907	912	911	915	924	941	947	952	956	971	971	967	955	936	932	932	932	926	922	925	925	937	948	953	954	951	937	937	939	945	945	951	953	951	956	966	987	1005	1011	1008	1007	1008	1004	0	0	0	0	0	0	0	0	0	0	0	0	915	928	948	977	0	0	0	1389	1402	1411	1416	1438	1446	1437	1418	1420	1429	1430	1438	1446	1443	1426	1414	1412	1409	1408	1410	1418	1421	1426	1429	1431	1436	1445	1452	1449	1436	1418	1416	1419	1414	1413	1422	1435	1443	1452	1461	1465	1467	1450	1435	1433	1466	1476	1474	1462	1441	1424	1421	1422	1428	1441	1447	1448	1435	1427	1423	1420	1423	1428	1433	1437	1430	1436	1442	1443	1435	1430	1423	1424	1427	1437	1438	1442	1444	1452	1456	1444	1421	1410	1416	1426	1430	1439	1438	1439	1449	1468	1475	1474	1468	1458	1442	1435	1436	1442	1446	1453	1457	1445	1433	1425	1431	1440	1448	1456	1461	1466	1457	1440	1424	1413	1423	1434	1440	1446	1445	1441	1437	1436	1440	1436	1434	1432	1438	1439	1439	1434	1433	1436	1444	1456	1465	1462	1453	1445	1440	1446	1449	1455	1470	1479	1475	1467	1455	1445	1442	1436	1432	1431	1425	1428	1439	1449	1450	1446	1438	1443	1469	1467	1456	1406	0	0	0	0	0	0	0	0	0	0	0	0	0	0	0	0	0	850	854	872	888	900	913	912	897	899	901	920	922	916	904	885	875	878	894	906	914	928	925	921	923	928	922	917	913	915	922	918	905	889	884	888	887	882	856	836	822	861	894	916	929	937	947	952	951	951	947	932	908	901	901	909	914	896	888	887	890	894	907	924	930	938	947	959	975	1003	1032	1087	1147	1221	1351	1377	1411	1425	1432	1436	1427	1424	1423	1434	1442	1446	1449	1454	1458	1465	1468	1461	1424	1409	1395	1387	1381	1398	1407	1416	1417	1419	1402	1387	1374	1374	1388	1402	1411	1409	1421	1442	1450	1435	1425	1427	1427	1400	1399	1403	1420	1431	1414	1391	1410	1430	1435	1440	1430	1422	1413	1403	1393	1387	1385	1388	1409	1433	1446	1465	1457	1454	1435	1412	1387	1393	1418	1426	1428	1424	1414	1405	1396	1386	1390	1400	1443	1443	1443	1434	1434	1429	1432	1436	1433	1429	1431	1444	1437	1427	1422	1412	1405	1395	1388	1396	1418	1434	1449	1449	1453	1458	1454	1446	1427	1409	1398	1402	1405	1416	1424	1434	1434	1426	1426	1418	1403	1400	1407	0	0	0	0	0	0
0	1418	1438	1446	1446	1438	1415	1406	1401	1407	1407	1412	1436	1442	1444	1447	1447	1445	1447	1439	1418	1395	1390	1390	1391	1396	1400	1418	1431	1447	1444	1444	1428	1428	1420	1398	1383	1386	1397	1410	1410	1421	1428	1430	1428	1431	1432	1440	1442	1445	1458	1458	1452	1445	1428	1421	1414	1407	1408	1426	1433	1416	1408	1422	1440	1460	1455	1463	1449	1426	1413	1421	1434	1446	1452	1456	1453	1450	1448	1450	1439	1426	1414	1406	1401	1405	1419	1431	1432	1428	1424	1423	1429	1424	1431	1448	1471	1478	1477	1451	1440	1424	1417	1415	1416	1415	1422	1432	1424	1427	1429	1429	1425	1436	1454	1467	1478	1478	1477	1469	1454	1435	1429	1428	1431	1430	1434	1437	1448	1440	1432	1430	1442	1454	1459	1467	1471	1457	1446	1438	1432	1436	1428	1431	1434	1434	1430	1424	1428	1427	1430	1426	1433	1452	1465	1461	1440	1417	1396	1391	1403	1407	1411	1411	1398	1373	1353	1331	1319	1202	984	960	922	902	889	878	871	858	843	837	831	825	823	830	837	854	874	885	891	895	900	895	894	897	895	897	907	917	928	935	939	942	952	948	942	931	918	922	916	904	898	897	915	930	943	946	947	943	931	934	941	943	950	949	950	943	943	947	963	978	982	983	986	972	0	0	0	0	0	0	0	0	0	0	0	0	894	904	922	952	980	1033	1118	1358	1405	1418	1420	1409	1423	1429	1425	1419	1418	1426	1433	1445	1454	1450	1426	1414	1411	1415	1414	1416	1410	1418	1421	1426	1429	1431	1440	1448	1444	1443	1425	1426	1426	1414	1410	1417	1426	1436	1444	1453	1456	1454	1438	1432	1428	1435	1461	1471	1470	1459	1446	1434	1431	1436	1443	1442	1441	1439	1432	1428	1427	1426	1430	1438	1435	1434	1432	1438	1434	1425	1416	1408	1413	1426	1432	1438	1439	1441	1442	1444	1442	1427	1416	1419	1426	1433	1432	1432	1440	1451	1465	1474	1468	1455	1446	1439	1435	1438	1439	1444	1450	1448	1441	1427	1427	1432	1431	1446	1452	1459	1459	1455	1437	1421	1414	1428	1436	1444	1442	1440	1441	1432	1422	1428	1431	1430	1435	1432	1435	1433	1431	1427	1432	1439	1454	1460	1455	1447	1442	1442	1447	1452	1460	1469	1480	1481	1470	1462	1451	1442	1442	1437	1432	1420	1423	1432	1449	1449	1434	1434	1444	1459	1456	1458	1434	1422	0	0	0	0	0	0	0	0	0	0	0	0	0	0	0	0	0	842	860	889	893	887	860	845	854	869	886	887	884	877	870	864	866	880	893	898	905	913	903	899	893	884	873	878	891	899	898	889	880	875	875	855	851	845	832	817	843	874	891	898	900	906	912	909	911	909	888	875	873	882	901	909	892	882	874	869	868	880	895	902	905	901	896	896	899	915	961	1021	1158	1225	1267	1307	1357	1399	1424	1422	1422	1410	1419	1437	1446	1450	1452	1454	1451	1448	1457	1432	1415	1403	1399	1407	1414	1416	1417	1422	1425	1409	1400	1390	1401	1420	1426	1420	1406	1420	1436	1447	1439	1423	1409	1407	1402	1401	1419	1424	0	1402	1394	1399	1417	1422	1426	1427	1424	1420	1421	1415	1407	1402	1399	1412	1440	1466	1459	1460	1448	1420	1410	1392	1397	1417	1432	1433	1432	1429	1427	1421	1404	1403	1400	1413	1425	1424	1424	1425	1429	1440	1438	1428	1420	1421	1431	1438	1421	1414	1405	1398	1393	1386	1394	1405	1424	1434	1434	1443	1447	1440	1430	1423	1410	1404	1407	1406	1408	1418	1418	1429	1435	1422	1410	1402	1397	1403	0	0	0	0	0	0
0	1437	1435	1427	1425	1425	1405	1403	1404	1402	1402	1417	1435	1461	1474	1470	1467	1467	1452	1437	1420	1397	1390	1387	1387	1386	1397	1414	1432	1440	1433	1433	1439	1434	1417	1405	1389	1390	1398	1406	1406	1415	1421	1421	1428	1422	1423	1417	1432	1438	1455	1455	1454	1455	1443	1431	1418	1417	1418	1428	1426	1406	1399	1404	1426	1443	1443	1457	1454	1437	1419	1425	1438	1456	1463	1454	1454	1457	1457	1456	1445	1426	1410	1388	1393	1399	1418	1440	1441	1425	1425	1425	1422	1422	1432	1447	1460	1459	1454	1443	1430	1418	1420	1418	1421	1420	1416	1424	1425	1421	1423	1417	1422	1435	1452	1459	1465	1469	1470	1465	1448	1440	1448	1434	1425	1422	1425	1430	1435	1438	1437	1449	1464	1479	1479	1476	1472	1457	1438	1432	1432	1432	1430	1433	1447	1448	1439	1429	1433	1441	1444	1438	1439	1456	1471	1466	1445	1412	1399	1389	1390	1385	1380	1375	1357	1317	1276	1150	1041	980	901	892	871	861	855	858	862	854	845	833	826	830	833	839	843	851	869	870	867	863	860	863	865	864	869	876	888	884	894	913	921	932	935	923	916	903	890	877	879	887	885	891	906	924	933	933	938	935	926	927	932	940	957	961	953	940	926	928	937	948	950	942	940	0	0	0	0	0	0	0	0	0	0	0	0	0	0	891	928	970	1019	1112	1346	1381	1402	1420	1417	1413	1411	1410	1415	1418	1428	1424	1429	1440	1460	1456	1440	1423	1420	1429	1430	1420	1411	1411	1421	1437	1439	1438	1446	1442	1447	1447	1447	1445	1439	1427	1415	1419	1429	1434	1437	1444	1445	1437	1428	1429	1433	1428	1447	1468	1482	1477	1462	1451	1443	1443	1443	1441	1445	1441	1436	1437	1430	1427	1429	1435	1436	1432	1429	1426	1422	1417	1410	1408	1408	1415	1428	1429	1434	1429	1434	1440	1441	1441	1434	1430	1435	1437	1432	1430	1426	1426	1441	1447	1444	1437	1429	1427	1432	1446	1449	1443	1441	1442	1442	1438	1438	1431	1429	1424	1431	1428	1426	1435	1440	1444	1453	1463	1464	1453	1442	1435	1430	1434	1417	1416	1419	1424	1419	1422	1421	1430	1428	1426	1422	1426	1429	1433	1435	1436	1435	1437	1439	1442	1453	1468	1485	1488	1479	1461	1453	1442	1443	1444	1429	1419	1416	1430	1441	1426	1427	1421	1428	1445	1453	1455	1454	1437	0	0	0	0	0	0	0	0	0	0	0	0	0	0	0	0	0	0	849	880	885	868	840	825	827	838	854	862	861	861	861	859	859	863	868	870	875	874	871	864	861	861	862	866	876	885	886	884	858	850	843	844	845	846	837	831	850	862	865	866	867	876	878	875	870	866	852	844	848	870	899	909	893	878	869	860	853	863	878	889	890	879	865	849	840	846	864	907	1023	1093	1142	1195	1261	1332	1388	1418	1422	1405	1398	1407	1426	1435	1443	1437	1436	1429	1431	1429	1416	1413	1416	1425	1433	1434	1431	1414	1417	1415	1405	1398	1418	1435	1437	1431	1407	1409	1429	1449	1433	1409	1401	1402	1412	1419	1424	1415	0	1386	1378	1403	1431	1426	1423	1422	1431	1426	1435	1436	1428	1416	1408	1403	1434	1459	1450	1455	1440	1420	1404	1412	1415	1427	1431	1427	1426	1422	1436	1434	1426	1415	1404	1412	1422	1428	1428	1424	1422	1439	1440	1432	1421	1416	1411	1400	1410	1394	1390	1396	1395	1391	1389	1389	1403	1418	1418	1426	1426	1427	1424	1412	1411	1404	1394	1398	1400	1409	1409	1413	1423	1412	1403	1398	1393	1399	0	0	0	0	0	0
0	1444	1431	1415	1411	1411	1394	1401	1408	1416	1425	1425	1447	1466	1468	1456	1442	1442	1437	1434	1425	1412	1396	1386	1386	1388	1402	1424	1437	1444	1445	1435	1435	1431	1417	1403	1387	1394	1398	1401	1399	1399	1411	1419	1423	1422	1412	1411	1418	1437	1449	1449	1452	1455	1448	1439	1432	1425	1430	1432	1423	1412	1399	1400	1411	1428	1446	1446	1447	1433	1426	1426	1442	1455	1447	1441	1436	1444	1457	1466	1457	1447	1408	1388	1382	1401	1420	1432	1426	1419	1418	1420	1423	1425	1439	1451	1452	1444	1434	1425	1418	1410	1410	1413	1418	1414	1416	1414	1419	1413	1415	1411	1419	1436	1443	1448	1457	1448	1453	1464	1465	1467	1467	1448	1429	1420	1414	1420	1414	1423	1428	1451	1473	1486	1480	1464	1450	1442	1428	1426	1433	1426	1426	1436	1443	1452	1447	1437	1439	1449	1446	1445	1436	1443	1460	1453	1432	1405	1379	1363	1353	1334	1314	1299	1239	1119	1035	969	851	842	845	839	824	822	822	829	842	849	841	827	824	825	839	845	853	863	870	867	849	841	839	837	832	837	850	868	878	876	878	888	913	930	921	902	879	869	863	866	868	877	887	890	903	917	920	925	934	938	933	916	922	936	958	969	963	944	921	911	920	925	915	914	914	0	0	0	0	0	0	0	0	0	0	0	0	0	0	902	954	1015	1146	1362	1373	1389	1396	1410	1415	1407	1410	1405	1410	1421	1435	1430	1428	1439	1455	1458	1443	1426	1425	1428	1429	1422	1413	1414	1426	1440	1442	1451	1456	1448	1447	1447	1455	1449	1445	1430	1417	1423	1430	1432	1438	1436	1432	1430	1429	1436	1438	1432	1427	1459	1490	1494	1475	1461	1454	1444	1443	1446	1450	1450	1446	1436	1424	1424	1426	1431	1440	1437	1427	1419	1416	1417	1420	1416	1411	1414	1423	1426	1425	1424	1430	1439	1450	1453	1441	1440	1440	1441	1436	1431	1425	1424	1430	1438	1439	1434	1430	1424	1426	1435	1442	1444	1443	1441	1440	1440	1425	1421	1420	1427	1423	1429	1440	1456	1453	1455	1464	1475	1480	1461	1441	1427	1424	1438	1445	1451	1463	1467	1451	1449	1441	1434	1425	1421	1421	1426	1423	1427	1431	1436	1432	1427	1427	1435	1442	1447	1448	1437	1437	1430	1435	1432	1441	1441	1440	1423	1412	1411	1419	1423	1423	1424	1434	1445	1452	1459	1462	1476	1496	0	0	0	0	0	0	0	0	0	0	0	0	0	0	0	0	0	845	861	874	873	839	823	818	823	835	840	849	857	860	860	852	849	845	844	839	834	828	824	836	842	852	858	863	868	847	847	839	836	831	836	844	847	846	842	842	840	834	832	839	849	850	849	845	835	823	819	827	852	888	894	883	874	867	855	848	857	870	882	882	871	857	838	823	813	817	838	905	948	1013	1067	1142	1242	1321	1371	1387	1378	1369	1380	1399	1422	1433	1429	1423	1415	1415	1415	1412	1417	1426	1441	1446	1444	1430	1422	1410	1410	1411	1409	1414	1448	1442	1427	1402	1406	1424	1444	1432	1407	1398	1401	1420	1423	1425	1413	1389	1373	1398	1436	1449	1446	1428	1427	1434	1437	1448	1452	1439	1423	1413	1410	1418	1434	1437	1443	1430	1420	1419	1423	1434	1441	1440	1422	1408	1408	1419	1430	1429	1419	1416	1412	1423	1423	1424	1421	1422	1432	1447	1443	1423	1414	1404	1395	1387	1389	1392	1400	1398	1394	1381	1382	1392	1392	1401	1409	1413	1414	1413	1406	1399	1397	1391	1394	1397	1402	1402	1407	1402	1402	1393	1392	1393	1403	0	0	0	0	0	0
0	1443	1430	1416	1395	1395	1402	1410	1420	1429	1440	1440	1457	1465	1460	1441	1415	1415	1411	1421	1425	1424	1412	1401	1401	1403	1406	1418	1432	1446	1448	1434	1434	1419	1403	1403	1410	1411	1409	1399	1403	1403	1410	1418	1426	1424	1419	1416	1427	1439	1447	1444	1444	1445	1441	1443	1441	1438	1437	1437	1430	1415	1397	1381	1400	1415	1438	1438	1439	1436	1430	1430	1446	1447	1439	1426	1414	1424	1441	1464	1467	1454	1413	1387	1386	1400	1411	1411	1413	1413	1416	1416	1415	1411	1431	1443	1449	1429	1410	1404	1406	1410	1410	1413	1409	1405	1415	1420	1412	1410	1407	1413	1423	1439	1445	1447	1447	1450	1448	1460	1471	1483	1485	1467	1446	1426	1409	1405	1399	1414	1424	1442	1461	1469	1464	1451	1436	1421	1418	1422	1422	1423	1421	1425	1433	1439	1440	1441	1450	1452	1452	1438	1436	1430	1435	1423	1393	1350	1309	1278	1261	1227	1138	1099	970	880	863	841	819	805	808	805	799	792	796	802	819	829	834	823	821	821	833	848	863	878	880	867	848	834	821	813	809	807	821	847	864	873	878	892	911	919	899	886	866	860	856	860	871	886	899	910	914	927	921	929	938	941	939	920	933	944	961	970	960	935	908	903	910	907	0	0	0	0	0	0	0	0	0	0	0	0	0	0	0	0	0	924	1002	1147	1329	1388	1404	1404	1400	1409	1415	1411	1408	1407	1411	1414	1434	1433	1433	1445	1455	1458	1446	1426	1419	1427	1430	1429	1411	1420	1433	1444	1446	1451	1453	1446	1444	1445	1460	1461	1452	1428	1416	1424	1435	1441	1441	1436	1431	1438	1440	1454	1457	1447	1430	1469	1504	1503	1489	1465	1453	1451	1450	1446	1449	1454	1450	1433	1419	1418	1419	1429	1445	1435	1429	1419	1421	1424	1433	1436	1427	1418	1421	1432	1430	1435	1437	1451	1469	1472	1458	1443	1442	1447	1443	1432	1432	1431	1432	1436	1439	1434	1425	1413	1421	1442	1446	1448	1450	1446	1445	1435	1424	1419	1419	1423	1428	1437	1452	1464	1464	1458	1465	1483	1487	1467	1437	1422	1424	1441	1454	1471	1476	1475	1466	1450	1446	1440	1431	1426	1431	1433	1431	1427	1427	1437	1434	1428	1420	1425	1428	1436	1431	1430	1430	1418	1421	1430	1436	1436	1463	1452	1422	1410	1410	1415	1424	1426	1433	1441	1442	1459	1465	1476	1455	0	0	0	0	0	0	0	0	0	0	0	0	0	0	0	0	0	0	847	863	877	862	833	825	824	830	836	846	859	862	857	842	829	826	823	822	811	800	811	818	831	839	846	835	836	833	828	824	821	821	832	843	848	849	841	831	816	807	805	809	814	819	822	821	818	812	808	817	836	857	874	870	859	854	849	845	853	866	873	873	861	850	838	826	813	810	814	842	855	894	948	1037	1147	1227	1299	1321	1321	1337	1354	1383	1403	1424	1420	1410	1403	1403	1407	1413	1423	1438	1450	1452	1447	1440	1425	1415	1416	1416	1417	1439	1446	1428	1414	1393	1400	1417	1440	1428	1410	1406	1408	1424	1418	1424	1428	1425	1418	1427	1442	1455	1463	1447	1431	1428	1432	1449	1454	1446	1429	1422	1413	1412	1415	1421	1424	1422	1413	1418	1427	1437	1437	1430	1405	1387	1388	1398	1413	1416	1419	1407	1413	1413	1421	1425	1416	1410	1428	1447	1445	1433	1423	1405	1400	1392	1404	1398	1408	1408	1403	1388	1379	1391	1391	1395	1404	1405	1415	1418	1406	1401	1393	1388	1389	1401	1401	1410	1410	1392	1385	1386	1385	1398	1413	0	0	0	0	0	0
0	1449	1435	1421	1406	1406	1427	1439	1435	1431	1435	1435	1443	1445	1438	1432	1394	1394	1401	1403	1427	1440	1439	1421	1421	1408	1404	1410	1420	1430	1440	1430	1430	1421	1422	1424	1434	1432	1426	1407	1396	1396	1408	1424	1431	1426	1428	1425	1425	1441	1436	1435	1435	1434	1438	1443	1444	1451	1449	1441	1427	1412	1385	1379	1381	1397	1429	1429	1445	1450	1443	1433	1440	1433	1427	1413	1405	1409	1431	1454	1454	1437	1399	1380	1382	1394	1402	1404	1401	1407	1408	1410	1394	1390	1413	1435	1436	1421	1403	1396	1408	1411	1407	1402	1400	1401	1412	1417	1419	1415	1408	1408	1423	1435	1436	1435	1436	1437	1440	1453	1466	1486	1487	1470	1449	1429	1410	1396	1390	1407	1424	1438	1448	1445	1438	1432	1426	1421	1423	1415	1419	1420	1420	1419	1414	1420	1427	1437	1452	1453	1444	1433	1435	1435	1397	1347	1295	1236	1183	1150	1109	999	957	877	833	831	829	824	808	797	794	791	787	779	779	784	791	802	818	819	817	815	827	846	869	884	892	871	854	835	817	796	786	789	801	828	851	868	880	892	907	908	888	876	866	863	869	878	892	899	916	932	943	952	946	949	940	955	963	964	950	955	958	952	928	905	882	882	880	0	0	0	0	0	0	0	0	0	0	0	0	0	0	0	0	0	0	959	1124	1258	1359	1406	1434	1438	1428	1421	1419	1416	1412	1425	1437	1433	1428	1457	1476	1478	1466	1463	1460	1456	1461	1465	1463	1427	1421	1428	1436	1448	1459	1459	1448	1439	1424	1440	1458	1472	1467	1454	1434	1428	1444	1454	1448	1438	1435	1449	1469	1491	1486	1460	1449	1453	1495	1498	1485	1455	1445	1439	1442	1440	1434	1445	1448	1447	1451	1453	1443	1440	1446	1453	1455	1435	1424	1428	1445	1467	1468	1460	1460	1450	1439	1441	1448	1475	1494	1505	1475	1462	1445	1432	1417	1405	1404	1404	1406	1416	1429	1453	1471	1473	1449	1425	1427	1437	1451	1453	1451	1441	1424	1397	1387	1402	1425	1440	1442	1441	1442	1433	1449	1470	1466	1441	1413	1394	1403	1413	1440	1470	1495	1497	1488	1469	1455	1451	1451	1446	1437	1428	1416	1402	1396	1406	1416	1419	1415	1421	1432	1448	1468	1487	1476	1450	1416	1410	1404	1408	1409	1413	1421	1425	1444	1451	1437	1424	1430	1457	1478	1480	1468	1452	1423	1402	0	0	0	0	0	0	0	0	0	0	0	0	0	0	0	0	0	0	0	0	0	856	838	831	826	826	839	852	859	853	832	819	817	815	820	803	803	808	813	815	820	826	828	825	818	813	810	812	818	830	838	843	842	835	823	809	796	789	785	788	794	801	810	815	814	814	818	828	838	847	843	839	833	832	837	847	857	862	859	848	836	826	822	827	825	821	825	824	834	847	873	922	964	1014	1084	1145	1194	1243	1315	1354	1350	1353	1359	1383	1424	1430	1427	1426	1436	1437	1441	1445	1440	1443	1441	1447	1450	1446	1451	1448	1443	1410	1390	1393	1405	1431	1441	1419	1412	1420	1417	1416	1420	1424	1431	1437	1432	1444	1453	1456	1450	1428	1428	1428	1441	1447	1444	1432	1421	1420	1414	1414	1420	1424	1421	1415	1414	1423	1430	1434	1421	1391	1369	1369	1381	1392	1395	1396	1406	1416	1416	1419	1417	1409	1409	1422	1434	1441	1437	1438	1437	1424	1413	1424	1437	1421	1425	1409	1394	1389	1400	1400	1406	1408	1417	1422	1417	1417	1410	1395	1386	1393	1416	1416	1419	1408	1392	1371	1368	1385	1393	1404	0	0	0	0	0	0
0	0	0	0	1423	1423	0	0	0	0	0	0	0	1419	1420	1423	1410	1396	1396	1397	1420	1445	1451	1439	1418	1418	1396	1394	1401	1425	1427	1434	1435	1435	1445	1451	1453	1450	1441	1429	1414	1408	1408	1421	1423	1429	1426	1426	1431	1436	1432	1421	1416	1416	1413	1432	1443	1458	1451	1444	1432	1404	1389	1375	1377	1403	1429	1441	1441	1442	1433	1423	1412	1408	1386	1380	1383	1399	1417	1433	1434	1414	1391	1377	1385	1406	1416	1414	1409	1414	1405	1395	1374	1371	1402	1417	1426	1413	1397	1392	1397	1405	1411	1404	1401	1402	1415	1422	1436	1427	1419	1408	1409	1418	1426	1434	1439	1441	1444	1455	1475	1484	1487	1469	1446	1426	1413	1399	1386	1403	1429	1443	1439	1424	1421	1424	1429	1435	1438	1430	1419	1422	1419	1406	1398	1403	1417	1447	1441	1427	1420	1419	1421	1408	1298	1228	1163	1090	1030	994	906	862	830	802	800	0	0	816	803	795	793	784	780	775	775	776	776	783	800	815	815	816	826	843	869	887	889	871	851	834	816	793	782	781	796	821	842	864	882	892	899	900	896	886	889	894	895	902	910	918	929	948	967	972	971	962	965	984	991	1001	962	945	936	913	856	834	841	847	0	0	0	0	0	0	0	0	0	0	0	0	0	0	0	0	0	0	951	1099	1203	1295	1360	1406	1422	1445	1464	1472	1459	1433	1418	1418	1431	1435	1432	1449	1461	1469	1454	1450	1450	1460	1462	1459	1460	1453	1446	1437	1451	1464	1477	1474	1455	1422	1406	1420	1451	1472	1462	1454	1454	1452	1443	1424	1414	1414	1439	1460	1490	1475	1453	1428	1421	1425	1459	1475	1476	1467	1448	1429	1417	1415	1416	1428	1444	1466	1475	1486	1489	1482	1470	1469	1464	1443	1424	1414	1418	1432	1454	1458	1462	1448	1439	1435	1453	1474	1493	1500	1501	1492	1484	1470	1455	1422	1414	1411	1406	1425	1435	1451	1462	1462	1443	1439	1440	1448	1462	1460	1442	1433	1420	1407	1403	1421	1439	1445	1450	1440	1434	1439	1445	1439	1426	1409	1408	1413	1416	1440	1453	1466	1472	1468	1468	1470	1482	1481	1479	1464	1464	1457	1438	1414	1404	1411	1447	1475	1485	1477	1465	1446	1442	1431	1429	1420	1406	1396	1398	1405	1404	1409	1408	1417	1437	1443	1440	1419	1425	1443	1462	1472	1456	1435	1413	1389	0	0	0	0	0	0	0	0	0	0	0	0	0	0	0	0	0	0	0	0	0	0	848	823	811	798	803	822	837	834	818	813	811	812	818	813	816	822	820	817	819	820	820	815	808	801	804	808	817	828	834	837	830	824	818	802	786	774	766	769	778	788	801	815	825	828	828	820	824	815	811	804	802	803	820	830	838	843	844	833	817	806	812	820	830	831	829	828	826	827	833	858	875	903	947	995	1044	1097	1167	1228	1288	1329	1341	1374	1432	1440	1425	1409	1399	1402	1410	1427	1440	1449	1450	1446	1439	1436	1433	0	0	0	0	0	1402	1421	1449	1434	1435	1434	1437	1423	1424	1421	1428	1441	1447	1447	1448	1451	1448	1438	1430	1425	1432	1440	1437	1425	1424	1423	1420	1417	1418	1427	1425	1424	1421	1425	1425	1425	1411	1408	1395	1396	1390	1383	1377	1395	1416	1416	1438	1427	1413	1400	1411	1429	1439	1435	1430	1438	1437	1433	1421	1429	1437	1437	1442	1432	1419	1414	1414	1418	1431	1437	1449	1445	1440	1437	1428	1416	1414	1419	1428	1428	1426	1417	1406	1380	1377	1374	1377	1391	0	0	0	0	0	0
0	0	0	0	0	0	0	0	0	0	0	0	0	0	0	0	1417	1405	1405	1392	1410	1432	1440	1429	1415	1415	1407	1406	1416	1424	1425	1429	1431	1431	1441	1455	1460	1458	1445	1427	1418	1421	1421	1427	1439	1443	1438	1438	1429	1439	1429	1416	1403	1403	1405	1418	1435	1443	1454	1442	1435	1409	1397	1391	1403	1416	1430	1439	1439	1441	1428	1415	1391	1372	1357	1352	1370	1394	1418	1427	1414	1404	1381	1389	1414	1448	1476	1476	1463	1445	1436	1412	1388	1387	1399	1413	1420	1414	1405	1394	1392	1391	1408	1417	1423	1423	1445	1475	0	0	0	0	1446	1431	1429	1430	1433	1441	1456	1475	1490	1514	1503	1482	1468	1472	1460	1443	1423	1420	1416	1428	1426	1429	1431	1431	1426	1429	1435	1441	1440	1426	1411	1404	1405	1422	1446	1451	1431	1393	1359	1330	1275	1178	1013	996	1012	957	915	842	800	786	782	780	785	0	0	794	793	789	790	785	779	776	779	778	777	781	793	810	812	819	830	843	857	873	877	857	844	828	817	804	801	804	815	828	842	858	878	887	889	895	897	898	899	888	896	909	921	929	937	952	969	978	982	981	977	980	975	960	920	923	899	858	819	795	804	0	0	0	0	0	0	0	0	0	0	0	0	0	0	0	0	0	0	959	1054	1202	1290	1353	1397	1413	1420	1444	1473	1476	1462	1436	1419	1415	1421	1428	1424	1423	1443	1458	1444	1440	1443	1454	1461	1458	1458	1457	1451	1444	1436	1439	1469	1477	1455	1421	1407	1421	1454	1465	1455	1453	1452	1455	1444	1427	1416	1416	1434	1459	1466	1452	1439	1423	1408	1417	1435	1472	1485	1475	1443	1426	1410	1411	1419	1434	1451	1470	1472	1485	1496	1487	1477	1479	1471	1451	1429	1417	1415	1433	1453	1457	1460	1450	1446	1445	1454	1474	1494	1502	1503	1495	1483	1479	1467	1438	1435	1445	1460	1462	1456	1456	1464	1466	1458	1452	1460	1465	1469	1468	1446	1428	1422	1421	1427	1448	1455	1455	1449	1436	1427	1425	1438	1432	1415	1408	1411	1434	1448	1445	1459	1467	1468	1466	1458	1464	1482	1487	1483	1482	1475	1463	1443	1421	1411	1416	1442	1462	1476	1477	1466	1446	1433	1424	1420	1406	1388	1381	1390	1399	1401	1408	1405	1416	1432	1446	1438	1423	1420	1420	1426	1435	1441	1424	1405	1399	1381	0	0	0	0	0	0	0	0	0	0	0	0	0	0	0	0	0	0	0	0	0	0	812	784	765	772	784	799	813	815	805	805	816	827	829	826	820	820	816	815	815	811	804	793	792	797	806	817	828	830	830	823	817	806	787	770	760	755	756	768	780	794	809	828	831	829	817	810	800	785	770	760	770	784	801	812	823	821	812	802	793	800	810	817	832	834	830	828	822	819	824	826	832	849	875	907	953	1038	1114	1206	1272	1316	1354	1434	1441	1426	1399	1379	1381	1401	1423	1440	1450	1447	1435	1429	1417	1417	0	0	0	0	0	1400	1429	1449	1441	1441	1444	1448	1430	1422	1423	1427	1441	1449	1449	1439	1438	1437	1437	1431	1425	1423	1426	1422	1423	1420	1422	1421	1418	1422	1441	1440	1431	1429	1426	1419	1417	1417	1416	1416	1408	1410	1392	1396	1405	1405	1426	1439	1435	1413	1399	1404	1422	1436	1421	1413	1426	1426	1420	1420	1421	1427	1419	1397	1413	1409	1416	1416	1428	1433	1440	1446	1434	1424	1420	1419	1404	1404	1414	1414	1427	1428	1425	1418	1402	1397	1396	1389	1395	1395	0	0	0	0	0
