0	0	0	1369	1393	1419	1435	1435	1435	1423	1406	1383	1371	1371	1374	1385	1387	1385	1378	1373	1373	1375	1387	1396	1395	1397	1398	1401	1401	1396	1388	1377	1386	1395	1398	1396	1399	1399	1399	1400	1400	1402	1408	1421	1417	1397	1391	1387	1395	1392	1392	1394	1400	1415	1408	1395	1379	1377	1403	1411	1410	1393	1386	1396	1404	1409	1405	1389	1401	1419	1419	1432	1441	1433	1419	1406	1408	1414	1421	1424	1421	1414	1408	1412	1419	1427	1426	1419	1409	1404	1404	1416	1413	1418	1414	1425	1434	1442	1443	1434	1441	1439	1426	1427	1415	1386	1364	1345	1340	1353	1362	1377	1382	1378	1368	1366	1363	1372	1372	1376	1379	1383	1386	1391	1390	1396	1398	1392	1378	1368	1362	1361	1366	1373	1373	1370	1372	1368	1364	1361	1352	1348	1355	1363	1371	1373	1354	1367	1387	1366	1390	1413	0	0	0	0	0	0	0	0	0	0	0	0	0	0	0	0	0	0	0	0	0	0	0	0	0	0	0	0	0	0	0	1684	1673	1660	1646	1651	1664	1668	1642	0	0	0	0	1389	1368	1378	1377	1349	1349	1356	1372	1381	1371	1359	1366	1376	1385	1382	1368	1357	1351	1347	1348	1349	1350	1340	1341	1350	1366	1366	1352	1341	1336	1336	1335	1330	1330	1330	1332	1338	1344	1354	1362	1351	1344	1340	1333	1329	1330	1330	1346	1347	1347	1355	1357	1360	1351	1366	1361	1351	1348	1359	1365	1356	1341	1340	1346	1348	1344	1347	1357	1375	1387	1387	1379	1381	1384	1382	1384	1381	1381	1386	1377	1373	1367	1354	1340	1331	1322	1324	1333	1340	1344	1349	1358	1369	1363	1350	1342	1338	1340	1344	1353	1361	1360	1352	1341	1337	1341	1351	1356	1352	1340	1335	1336	1342	1348	1350	1344	1336	1333	1345	1349	1350	1355	1360	1357	1352	1343	1343	1346	1361	1360	1360	1347	1348	1348	1342	1347	1351	1349	1348	1347	1356	1347	1352	1355	1359	1363	1363	1363	1367	1371	1361	1358	1357	1357	1353	1344	1339	1336	1338	1343	1341	1326	1353	1364	1365	1362	1357	1346	1348	1349	1352	1350	1347	1337	1332	1341	1344	1347	1357	1357	1354	1352	1348	1339	1336	1338	1342	1352	1352	1355	1359	1354	1346	1343	1345	1352	1356	1358	1360	1357	1342	1335	1333	1342	1347	1352	1350	1348	1345	1347	1350	1351	1344	1338	1340	1346	1360	1363	1360	1359	1363	1361	1359	1352	1329	1322	1322	1321	1327	1322	1327	1333	1352	1363	1374	1374	1370	1370	1362	1351	1353	1354	1357	1355	1354	1358	1357	1351	1350	1348	1352	1357	1364	1367	1366	1356	1347	1338	1331	1331	1331	1327	1331	1337	1333	1330	1334	1342	1344	1333	1325	1316	1327	1337	1341	1340	1331	1329	1335	1339	1342	1344	1345	1343	1339	1344	1343	1346	1345	1346	1349	1344	1341	1343	1347	1346	1340	1329	1325	1319	1322	1329	1334	1339	1335	1334	1329	1346	1367	1382	1386	1377	1365	1353	1346	1340	1334	1324	1319	1310	1317	1405	0	0	0	0	0	0	0	0	0	0	0	0	0	0	0	0	0	0	0	0	0	0	0	0	0	0	1464	1464	1464	1482	1476	1470	1472	1475	1469	1454	1446	1425	1421	1426	1424	1415	1412	1407	1405	1396	1390	1385	1389	1394	1403	1408	1410	1415	1421	1420	1415	1408	1400	1402	1407	1428	1449	1461	0	0	0	0	0	1478	1466	1446	1438	1425	1429	1427	1425	1421	1429	1441	1442	1435	1430	1418	1417	1418	1418	1411	1394	1374	1388	1395	1392	1385	1379	1377	1377	1382	1385	1383	1373	1366	1362	1359	1361	1362	1358	1358	1362	1370	1369	1369	1373	1365	1350	1355	0	0	0	0	0	0	0
0	0	0	1350	1382	1428	1443	1443	1445	1415	1402	1387	1377	1377	1385	1390	1394	1390	1384	1377	1377	1377	1387	1397	1397	1387	1385	1388	1388	1396	1394	1395	1402	1406	1409	1405	1399	1400	1400	1401	1399	1407	1416	1428	1425	1411	1394	1391	1392	1393	1393	1398	1401	1421	1413	1395	1391	1403	1418	1417	1404	1398	1398	1401	1410	1416	1416	1406	1408	1420	1420	1427	1426	1421	1413	1406	1406	1409	1413	1425	1427	1421	1414	1410	1418	1429	1435	1430	1416	1407	1410	1407	1410	1412	1414	1426	1432	1444	1444	1437	1441	1441	1423	1421	1418	1383	1368	1343	1340	1350	1363	1373	1374	1363	1357	1359	1366	1369	1371	1376	1374	1379	1383	1385	1386	1396	1395	1393	1383	1377	1375	1373	1374	1371	1375	1368	1363	1359	1355	1351	1343	1347	1362	1372	1378	1375	1369	1383	1377	1351	1373	1399	0	0	0	0	0	0	0	0	0	0	0	0	0	0	0	0	0	0	0	0	0	0	0	0	0	0	0	0	0	0	1650	1686	1673	1644	1632	1639	1655	1680	1654	0	0	0	0	1386	1384	1401	1396	1365	1357	1358	1378	1382	1370	1367	1370	1372	1375	1373	1365	1360	1357	1348	1350	1356	1358	1352	1346	1350	1359	1363	1358	1352	1340	1340	1337	1332	1327	1324	1323	1329	1340	1353	1362	1355	1350	1337	1330	1328	1330	1333	1344	1342	1346	1354	1360	1366	1367	1364	1358	1350	1347	1351	1358	1350	1342	1341	1344	1346	1350	1350	1359	1378	1386	1385	1382	1380	1379	1381	1381	1385	1392	1387	1380	1377	1368	1356	1347	1336	1329	1337	1341	1344	1352	1355	1360	1365	1357	1350	1344	1344	1348	1352	1359	1364	1363	1356	1349	1341	1346	1349	1353	1355	1341	1335	1337	1340	1348	1354	1349	1346	1349	1348	1350	1349	1354	1355	1352	1350	1339	1347	1356	1364	1363	1356	1347	1346	1342	1343	1352	1363	1363	1362	1361	1360	1358	1356	1364	1361	1359	1364	1367	1372	1379	1371	1367	1363	1360	1356	1349	1337	1329	1333	1337	1334	1337	1357	1361	1360	1352	1343	1345	1345	1346	1348	1346	1345	1339	1338	1342	1346	1350	1359	1370	1360	1359	1355	1345	1339	1341	1343	1345	1350	1352	1352	1350	1349	1348	1352	1355	1350	1351	1359	1358	1352	1335	1339	1342	1352	1355	1360	1351	1338	1342	1353	1359	1359	1352	1348	1350	1352	1354	1353	1353	1356	1361	1360	1360	1350	1337	1337	1340	1341	1339	1327	1335	1347	1355	1358	1360	1359	1364	1363	1358	1356	1357	1354	1353	1351	1349	1353	1350	1351	1351	1348	1347	1353	1357	1356	1349	1340	1333	1335	1338	1338	1334	1334	1334	1329	1332	1335	1347	1349	1344	1333	1323	1324	1335	1344	1339	1333	1336	1340	1343	1348	1347	1340	1342	1342	1344	1342	1343	1343	1348	1350	1348	1334	1336	1340	1338	1343	1335	1327	1324	1326	1326	1334	1339	1341	1341	1341	1350	1369	1386	1386	1369	1356	1345	1346	1344	1335	1331	1322	1314	1317	1404	0	0	0	0	0	0	0	0	0	0	0	0	0	0	0	0	0	0	0	0	0	0	0	0	0	0	1458	1471	1467	1479	1480	1465	1473	1480	1467	1461	1454	1440	1435	1435	1431	1425	1419	1415	1408	1402	1403	1390	1388	1390	1400	1406	1414	1424	1426	1424	1413	1405	1398	1407	1411	1429	1440	1425	1450	0	0	0	0	1478	1462	1432	1425	1426	1437	1441	1432	1414	1434	1440	1436	1430	1415	1398	1399	1394	1400	1406	1389	1365	1389	1396	1397	1385	1383	1383	1383	1383	1387	1386	1376	1370	1368	1366	1361	1356	1348	1353	1366	1372	1389	1389	1384	1375	1363	1349	0	0	0	0	0	0	0
0	0	0	1342	1368	1418	1436	1436	1427	1404	1395	1382	1389	1389	1391	1397	1400	1397	1379	1370	1370	1363	1377	1386	1388	1386	1381	1384	1384	1388	1397	1403	1408	1413	1415	1408	1400	1395	1395	1393	1392	1396	1409	1426	1419	1407	1396	1392	1395	1400	1400	1401	1400	1417	1425	1409	1411	1424	1427	1426	1413	1409	1413	1409	1412	1413	1409	1409	1417	1421	1421	1422	1417	1409	1407	1408	1409	1409	1414	1422	1422	1422	1421	1417	1425	1436	1445	1445	1429	1421	1415	1414	1415	1420	1417	1421	1431	1439	1442	1441	1434	1431	1409	1404	1402	1373	1359	1342	1340	1354	1370	1372	1367	1359	1356	1363	1369	1370	1371	1371	1370	1374	1377	1377	1375	1377	1380	1381	1381	1380	1379	1373	1369	1371	1367	1365	1357	1349	1348	1343	1339	1345	1367	1380	1387	1379	1374	1384	1370	1339	1364	0	0	0	0	0	0	0	0	0	0	0	0	0	0	0	0	0	0	0	0	0	0	0	0	0	0	0	0	0	0	0	1640	1679	1676	1648	1634	1645	1662	1670	1678	0	0	0	0	1378	1388	1407	1407	1383	1356	1349	1350	1355	1352	1362	1368	1362	1363	1362	1364	1359	1356	1357	1361	1370	1371	1371	1366	1361	1362	1366	1364	1354	1343	1343	1345	1336	1333	1329	1327	1329	1333	1347	1355	1358	1354	1338	1326	1330	1334	1337	1348	1349	1349	1357	1361	1362	1358	1357	1354	1346	1347	1352	1349	1347	1347	1346	1348	1351	1353	1358	1370	1376	1381	1374	1370	1368	1372	1374	1380	1383	1389	1382	1380	1375	1369	1361	1350	1346	1347	1353	1354	1357	1358	1365	1369	1372	1361	1348	1348	1350	1350	1361	1357	1361	1365	1361	1353	1352	1349	1354	1360	1353	1348	1339	1337	1337	1342	1343	1345	1350	1350	1355	1353	1350	1348	1345	1349	1351	1349	1360	1365	1367	1361	1354	1349	1350	1340	1357	1365	1368	1369	1366	1365	1364	1364	1368	1365	1360	1356	1359	1360	1367	1375	1374	1369	1368	1366	1362	1356	1340	1333	1330	1332	1349	1349	1366	1356	1348	1347	1343	1348	1349	1350	1347	1350	1351	1352	1348	1346	1346	1347	1362	1364	1365	1365	1370	1363	1363	1348	1346	1347	1349	1349	1348	1350	1354	1357	1357	1354	1347	1344	1351	1356	1349	1345	1345	1347	1350	1357	1361	1355	1340	1336	1350	1366	1371	1369	1358	1356	1347	1347	1348	1347	1347	1347	1356	1362	1360	1355	1351	1355	1361	1360	1357	1353	1346	1349	1348	1341	1343	1348	1358	1356	1359	1358	1358	1353	1352	1348	1348	1346	1348	1344	1340	1337	1339	1343	1347	1346	1344	1339	1336	1343	1343	1349	1345	1347	1337	1336	1338	1344	1348	1347	1338	1332	1331	1341	1343	1341	1334	1343	1347	1353	1356	1355	1350	1345	1344	1341	1345	1346	1353	1361	1361	1357	1342	1342	1344	1346	1343	1339	1336	1331	1329	1330	1339	1340	1341	1340	1339	1350	1358	1366	1364	1351	1344	1346	1353	1357	1349	1340	1332	1322	1322	1393	0	0	0	0	0	0	0	0	0	0	0	0	0	0	0	0	0	0	0	0	0	0	0	0	0	0	1452	1482	1494	1494	1494	1456	1453	1463	1458	1457	1453	1451	1449	1443	1437	1430	1424	1420	1416	1417	1411	1406	1394	1394	1403	1413	1420	1430	1432	1425	1411	1404	1406	1417	1427	1434	1429	1396	1438	0	0	0	1479	1467	1451	1428	1410	1424	1446	1449	1442	1428	1425	1432	1425	1411	1390	1381	1378	1387	1391	1400	1387	1399	1365	1389	1378	1382	1379	1382	1382	1389	1389	1381	1372	1365	1364	1365	1363	1348	1348	1352	1363	1380	1390	1390	1389	1386	1376	1364	0	0	0	0	0	0	0
0	0	0	1347	1380	1409	1424	1424	1418	1397	1396	1389	1395	1395	1404	1400	1405	1395	1379	1356	1356	1354	1368	1383	1389	1390	1389	1384	1384	1385	1388	1391	1403	1415	1417	1412	1402	1389	1389	1386	1387	1390	1398	1410	1408	1400	1398	1396	1400	1407	1407	1408	1411	1410	1408	1410	1427	1430	1434	1424	1415	1416	1420	1425	1411	1407	1399	1405	1417	1422	1422	1420	1410	1406	1405	1407	1417	1418	1419	1421	1418	1411	1413	1415	1429	1443	1451	1451	1436	1425	1423	1422	1419	1418	1417	1426	1427	1429	1431	1431	1425	1423	1401	1393	1385	1370	1358	1345	1346	1360	1377	1377	1373	1360	1360	1369	1378	1373	1368	1362	1365	1377	1379	1379	1368	1370	1373	1377	1377	1374	1375	1370	1370	1372	1368	1361	1357	1354	1345	1343	1341	1347	1367	1375	1383	1374	1368	1370	1367	1323	1340	0	0	0	0	0	0	0	0	0	0	0	0	0	0	0	0	0	0	0	0	0	0	0	0	0	0	0	0	0	0	0	1622	1666	1659	1659	1650	1648	1659	1656	1646	1645	0	0	0	0	1385	1402	1401	1379	1360	1346	1339	1339	1341	1360	1349	1348	1355	1354	1359	1364	1363	1361	1371	1380	1387	1373	1377	1373	1373	1370	1363	1339	1330	1338	1341	1343	1342	1338	1336	1336	1338	1341	1345	1338	1332	1328	1335	1342	1345	1347	1365	1361	1362	1360	1356	1354	1351	1345	1342	1347	1352	1357	1356	1355	1358	1361	1360	1363	1362	1372	1374	1372	1369	1362	1353	1355	1357	1368	1374	1378	1380	1373	1376	1373	1368	1363	1359	1371	1370	1372	1370	1363	1359	1366	1371	1371	1361	1351	1352	1357	1363	1367	1363	1366	1363	1366	1358	1355	1354	1360	1355	1356	1347	1344	1341	1340	1336	1336	1337	1348	1356	1360	1362	1359	1348	1341	1342	1352	1361	1368	1372	1375	1369	1359	1355	1357	1360	1363	1367	1368	1369	1366	1354	1361	1362	1361	1361	1358	1359	1357	1357	1358	1361	1366	1368	1372	1369	1368	1360	1354	1352	1331	1331	1357	1370	1370	1349	1344	1344	1342	1349	1351	1350	1347	1351	1359	1361	1359	1354	1345	1348	1347	1351	1368	1373	1377	1368	1368	1353	1349	1349	1352	1354	1358	1359	1361	1362	1360	1353	1343	1344	1345	1346	1350	1347	1347	1342	1347	1353	1356	1354	1347	1343	1355	1370	1379	1379	1360	1352	1345	1341	1345	1337	1340	1339	1347	1360	1360	1357	1352	1357	1370	1373	1367	1358	1353	1353	1348	1345	1343	1350	1349	1356	1363	1364	1362	1357	1352	1345	1341	1344	1341	1339	1332	1333	1332	1342	1350	1350	1350	1349	1346	1352	1351	1361	1363	1362	1353	1345	1342	1342	1344	1345	1349	1343	1343	1346	1351	1350	1349	1355	1351	1358	1356	1354	1347	1341	1342	1342	1348	1358	1366	1372	1371	1367	1354	1349	1349	1360	1355	1356	1342	1339	1340	1347	1343	1346	1344	1340	1325	1334	1342	1347	1349	1342	1341	1347	1358	1363	1359	1354	1345	1341	1334	1382	0	0	0	0	0	0	0	0	0	0	0	0	0	0	0	0	0	0	0	0	0	0	0	0	0	0	0	1488	1513	1519	1513	1461	1453	1456	1438	1442	1442	1442	1444	1443	1439	1428	1424	1422	1423	1426	1421	1408	1398	1400	1407	1417	1424	1434	1435	1426	1422	1414	1412	1418	1427	1435	1423	1390	1440	1469	0	0	1469	1466	1457	1429	1420	1426	1442	1453	1442	1439	1428	1429	1411	1401	1392	1383	1379	1387	1401	1407	1389	1383	1394	1385	1379	1378	1385	1388	1388	1394	1375	1366	1362	1358	1359	1358	1352	1361	1355	1352	1357	1368	1380	1380	1383	1388	1387	1374	0	0	0	0	0	0	0
0	0	0	1379	1395	1412	1412	1412	1400	1399	1391	1402	1402	1402	1413	1416	1406	1395	1375	1358	1358	1354	1366	1383	1396	1401	1404	1399	1399	1393	1385	1388	1396	1410	1415	1413	1399	1390	1390	1390	1384	1387	1389	1393	1395	1392	1391	1398	1408	1417	1417	1414	1415	1412	1395	1403	1425	1432	1429	1430	1429	1429	1422	1421	1415	1397	1399	1411	1419	1422	1422	1416	1413	1409	1414	1416	1422	1428	1427	1418	1412	1402	1403	1409	1423	1439	1453	1450	1434	1425	1424	1432	1442	1442	1435	1427	1422	1418	1416	1422	1418	1414	1403	1391	1372	1360	1354	1353	1359	1370	1378	1377	1369	1361	1366	1382	1387	1379	1367	1362	1365	1376	1379	1374	1368	1368	1380	1381	1366	1367	1366	1370	1369	1377	1377	1370	1366	1362	1365	1362	1360	1359	1365	1371	1380	1375	1370	1359	1354	1326	1329	1383	0	0	0	0	0	0	0	0	0	0	0	0	0	0	0	0	0	0	0	0	0	0	0	0	0	0	0	0	0	0	1636	1647	1642	1643	1646	1658	1663	1638	1651	1641	1632	0	0	0	1377	1388	1386	1374	1360	1348	1340	1340	1341	1347	1349	1344	1346	1352	1361	1369	1371	1369	1365	1382	1384	1370	1381	1382	1374	1358	1353	1342	1339	1341	1347	1351	1350	1346	1347	1346	1345	1344	1342	1340	1337	1336	1346	1356	1361	1364	1378	1376	1369	1363	1359	1349	1344	1339	1338	1347	1357	1367	1376	1381	1374	1367	1362	1364	1372	1375	1374	1366	1361	1353	1347	1347	1351	1361	1364	1370	1366	1367	1371	1370	1369	1372	1369	1378	1384	1387	1377	1362	1355	1355	1365	1368	1356	1353	1350	1355	1365	1368	1371	1366	1365	1368	1368	1368	1369	1376	1368	1360	1352	1347	1350	1343	1338	1332	1340	1352	1361	1369	1369	1360	1350	1339	1346	1355	1370	1377	1386	1379	1375	1365	1360	1362	1368	1369	1360	1367	1371	1362	1358	1348	1360	1360	1365	1365	1359	1358	1354	1358	1358	1356	1359	1362	1370	1375	1374	1367	1360	1334	1326	1348	1370	1353	1355	1352	1342	1338	1344	1346	1349	1349	1356	1365	1373	1376	1372	1363	1362	1360	1364	1379	1382	1385	1368	1357	1348	1350	1347	1357	1367	1371	1372	1369	1365	1358	1353	1341	1337	1336	1340	1337	1339	1340	1341	1344	1352	1354	1353	1352	1344	1349	1364	1371	1370	1356	1341	1336	1338	1343	1344	1336	1336	1346	1358	1365	1360	1349	1353	1364	1365	1368	1361	1359	1360	1349	1351	1351	1344	1346	1359	1361	1363	1359	1355	1348	1339	1339	1341	1342	1335	1330	1333	1336	1342	1354	1358	1358	1356	1359	1362	1361	1366	1377	1372	1364	1350	1348	1353	1352	1354	1361	1357	1354	1349	1352	1358	1363	1369	1365	1354	1344	1342	1341	1340	1333	1344	1360	1365	1378	1380	1377	1372	1372	1362	1356	1360	1365	1362	1354	1351	1351	1357	1353	1353	1350	1337	1319	1325	1335	1346	1346	1346	1353	1356	1363	1362	1365	1365	1364	1363	1350	1363	0	0	0	0	0	0	0	0	0	0	0	0	0	0	0	0	0	0	0	0	0	0	0	0	0	0	0	1488	1516	1523	1520	1478	1460	1456	1435	1429	1425	1427	1436	1438	1432	1425	1422	1429	1428	1431	1428	1418	1409	1409	1415	1424	1426	1434	1439	1436	1431	1429	1424	1422	1428	1434	1426	1409	1448	1467	0	0	1488	1470	1457	1439	1428	1435	1452	1455	1446	1436	1434	1428	1413	1397	1389	1401	1400	1410	1422	1425	1395	1381	1376	1366	1358	1369	1391	1401	1401	1399	1384	1353	1347	1341	1348	1350	1355	1372	1373	1355	1358	1358	1365	1365	1375	1382	1390	1395	0	0	0	0	0	0	0
0	0	0	1404	1412	1411	1392	1392	1380	1380	1389	1407	1420	1420	1427	1426	1413	1396	1382	1367	1367	1366	1374	1385	1393	1407	1409	1405	1405	1390	1391	1396	1397	1404	1415	1411	1403	1393	1393	1391	1383	1386	1391	1382	1376	1379	1389	1399	1418	1424	1424	1422	1423	1418	1392	1387	1413	1417	1423	1440	1444	1435	1421	1421	1423	1407	1408	1417	1422	1423	1423	1420	1423	1428	1426	1431	1432	1432	1430	1420	1409	1401	1396	1404	1415	1439	1453	1453	1435	1428	1430	1440	1447	1440	1430	1419	1414	1414	1415	1425	1427	1422	1400	1385	1362	1354	1352	1358	1365	1374	1377	1375	1363	1357	1370	1387	1392	1383	1372	1365	1368	1371	1374	1370	1363	1367	1373	1374	1359	1358	1354	1371	1375	1380	1377	1376	1373	1378	1386	1388	1380	1371	1372	1372	1381	1381	1374	1363	1361	1326	1341	1364	0	0	0	0	0	0	0	0	0	0	0	0	0	0	0	0	0	0	0	0	0	0	0	0	0	0	0	0	0	0	1643	1637	1620	1619	1628	1646	1663	1645	1626	1648	1617	0	0	0	1382	1386	1392	1382	1368	1359	1352	1345	1343	1339	1338	1333	1342	1350	1363	1372	1375	1366	1356	1357	1353	1363	1371	1373	1372	1360	1350	1351	1353	1354	1358	1361	1368	1360	1359	1352	1346	1341	1343	1346	1344	1343	1350	1356	1362	1372	1387	1385	1372	1361	1357	1348	1343	1339	1340	1350	1363	1381	1388	1392	1386	1376	1369	1371	1373	1374	1370	1363	1361	1356	1354	1352	1349	1354	1358	1358	1357	1362	1366	1366	1368	1370	1381	1390	1390	1385	1376	1359	1350	1351	1361	1364	1355	1348	1345	1352	1361	1367	1373	1374	1376	1376	1371	1380	1384	1382	1374	1366	1369	1369	1363	1352	1344	1343	1348	1360	1373	1379	1371	1365	1352	1344	1347	1352	1367	1381	1389	1391	1384	1372	1369	1372	1379	1380	1377	1365	1368	1365	1355	1359	1365	1372	1378	1376	1362	1356	1356	1358	1355	1354	1356	1359	1364	1373	1375	1368	1359	1345	1328	1338	1349	1344	1351	1350	1355	1349	1343	1342	1349	1355	1364	1371	1383	1387	1387	1382	1386	1388	1388	1381	1379	1378	1377	1362	1358	1354	1352	1362	1367	1370	1370	1367	1363	1358	1344	1334	1336	1333	1338	1338	1336	1335	1340	1347	1354	1354	1353	1348	1346	1349	1361	1361	1359	1348	1334	1333	1333	1340	1340	1335	1339	1347	1363	1373	1368	1349	1346	1351	1356	1356	1355	1356	1364	1368	1363	1362	1355	1353	1363	1362	1358	1353	1349	1344	1341	1340	1342	1340	1333	1332	1338	1341	1350	1360	1358	1360	1357	1363	1375	1369	1371	1369	1366	1362	1352	1355	1359	1367	1366	1366	1368	1361	1360	1365	1369	1373	1375	1366	1352	1345	1347	1346	1350	1349	1361	1370	1373	1377	1379	1377	1381	1387	1368	1360	1357	1360	1358	1359	1362	1362	1363	1360	1359	1350	1339	1315	1320	1330	1350	1361	1362	1363	1363	1354	1353	1354	1361	1372	1373	1365	1374	0	0	0	0	0	0	0	0	0	0	0	0	0	0	0	0	0	0	0	0	0	0	0	0	0	0	0	1487	1517	1515	1508	1484	1477	1466	1444	1423	1416	1414	1420	1429	1429	1423	1424	1429	1433	1435	1428	1414	1409	1412	1419	1423	1424	1436	1447	1444	1444	1436	1433	1427	1429	1436	1442	1425	1446	0	0	0	0	0	1469	1449	1438	1449	1461	1461	1454	1437	1426	1416	1398	1387	1391	1410	1421	1426	1436	1438	1403	1380	1375	1370	1357	1365	1389	1407	1407	1401	1383	1356	1340	1338	1344	1347	1362	1373	1374	1369	1359	1351	1365	1365	1374	1386	1394	1398	0	0	0	0	0	0	0
0	0	0	1429	1419	1404	1378	1378	1366	1371	1395	1412	1422	1422	1416	1409	1408	1400	1392	1380	1380	1380	1378	1389	1399	1410	1413	1405	1405	1396	1398	1406	1408	1412	1411	1413	1407	1396	1396	1393	1392	1397	1392	1379	1366	1373	1385	1397	1416	1415	1415	1416	1418	1423	1407	1380	1402	1416	1430	1446	1441	1430	1420	1418	1424	1420	1427	1427	1429	1431	1431	1434	1436	1427	1430	1432	1431	1431	1426	1418	1407	1404	1399	1406	1422	1441	1460	1457	1439	1429	1434	1437	1430	1427	1416	1413	1410	1417	1425	1431	1431	1425	1403	1375	1360	1358	1361	1365	1369	1373	1372	1368	1348	1351	1370	1387	1392	1385	1374	1374	1372	1370	1367	1364	1363	1367	1365	1366	1358	1346	1338	1362	1368	1368	1372	1371	1380	1385	1394	1398	1393	1384	1379	1384	1386	1387	1385	1391	1384	1383	1362	1375	0	0	0	0	0	0	0	0	0	0	0	0	0	0	0	0	0	0	0	0	0	0	0	0	0	0	0	0	0	0	1638	1632	1617	1607	1614	1629	1638	1650	1638	1620	0	0	0	1402	1384	1393	1396	1390	1380	1369	1360	1354	1351	1348	1341	1338	1342	1355	1366	1372	1375	1371	1358	1353	1352	1360	1366	1372	1364	1365	1364	1369	1367	1371	1367	1370	1380	1372	1364	1352	1345	1344	1344	1344	1349	1350	1346	1343	1356	1370	1388	1387	1372	1362	1361	1356	1353	1345	1351	1358	1366	1380	1384	1390	1389	1386	1376	1375	1371	1372	1363	1368	1368	1370	1363	1358	1351	1349	1347	1348	1353	1361	1363	1358	1359	1367	1378	1387	1385	1374	1368	1360	1361	1365	1366	1365	1354	1350	1346	1352	1358	1366	1374	1374	1374	1373	1373	1384	1384	1379	1378	1376	1377	1379	1375	1368	1357	1352	1359	1377	1382	1383	1371	1363	1351	1346	1354	1354	1360	1375	1388	1397	1390	1380	1378	1376	1380	1380	1374	1375	1372	1370	1365	1363	1368	1380	1386	1378	1362	1352	1353	1358	1359	1359	1361	1363	1368	1366	1364	1365	1359	1358	1339	1326	1352	1347	1355	1358	1367	1358	1352	1349	1356	1361	1366	1376	1392	1404	1406	1401	1399	1398	1395	1387	1375	1371	1369	1365	1357	1355	1350	1359	1365	1365	1366	1369	1370	1368	1345	1332	1330	1334	1339	1339	1332	1334	1338	1346	1354	1359	1356	1351	1344	1344	1353	1362	1363	1353	1346	1343	1353	1337	1342	1337	1342	1353	1374	1386	1381	1361	1348	1348	1347	1350	1353	1359	1366	1367	1368	1368	1361	1358	1366	1363	1350	1349	1347	1343	1339	1345	1352	1340	1337	1336	1344	1348	1354	1358	1359	1359	1359	1370	1393	1381	1372	1367	1365	1364	1362	1369	1378	1386	1385	1381	1375	1375	1382	1383	1375	1373	1379	1371	1365	1360	1357	1363	1362	1365	1372	1375	1377	1377	1375	1379	1390	1398	1391	1366	1357	1361	1365	1368	1368	1369	1366	1361	1359	1348	1342	1325	1330	1341	1352	1365	1371	1368	1355	1335	1335	1341	1356	1363	1371	1370	1392	0	0	0	0	0	0	0	0	0	0	0	0	0	0	0	0	0	0	0	0	0	0	0	0	0	0	0	1486	1514	1508	1509	1487	1477	1454	1455	1428	1417	1413	1414	1418	1430	1428	1426	1430	1430	1425	1417	1407	1406	1417	1421	1419	1417	1431	1448	1454	1451	1442	1437	1434	1438	1443	1446	1427	1441	0	0	0	0	0	1460	1442	1444	1462	1478	1474	1454	1430	1418	1401	1390	1381	1393	1409	1418	1426	1434	1438	1404	1397	1379	1368	1370	1382	1396	1398	1398	1396	1383	1362	1342	1341	1346	1358	1365	1374	1376	1371	1352	1351	1357	1357	1371	1382	1394	1395	0	0	0	0	0	0	0
0	0	0	1437	1413	1388	1364	1364	1355	1373	1402	1430	1431	1431	1420	1413	1400	1403	1397	1389	1389	1384	1381	1383	1392	1399	1397	1397	1397	1399	1403	1409	1413	1417	1418	1415	1411	1405	1405	1396	1397	1393	1392	1384	1375	1370	1381	1395	1406	1406	1406	1410	1419	1420	1415	1412	1415	1411	1426	1434	1438	1426	1416	1414	1433	1439	1437	1436	1433	1424	1424	1439	1432	1429	1430	1424	1427	1422	1420	1410	1402	1397	1396	1407	1424	1448	1461	1465	1450	1436	1432	1421	1421	1413	1408	1407	1409	1420	1427	1434	1432	1417	1404	1387	1368	1373	1384	1376	1378	1380	1378	1364	1346	1351	1362	1380	1384	1376	1375	1377	1377	1374	1372	1366	1369	1371	1365	1365	1353	1345	1339	1358	1363	1357	1364	1373	1382	1386	1396	1398	1398	1394	1386	1384	1390	1388	1389	1399	1408	1395	1385	1390	0	0	0	0	0	0	0	0	0	0	0	0	0	0	0	0	0	0	0	0	0	0	0	0	0	0	0	0	0	0	1628	1625	1610	1601	1600	1619	1627	1620	1598	0	0	0	0	1391	1387	1396	1403	1399	1385	1377	1368	1361	1360	1361	1349	1347	1353	1364	1368	1377	1376	1377	1365	1360	1364	1369	1375	1374	1367	1370	1382	1382	1383	1390	1386	1380	1381	1375	1360	1348	1342	1344	1347	1352	1356	1350	1341	1335	1346	1364	1391	1391	1388	1375	1368	1360	1359	1359	1361	1372	1380	1381	1384	1388	1388	1381	1373	1378	1371	1376	1384	1388	1379	1375	1369	1366	1356	1354	1345	1337	1346	1369	1369	1366	1359	1371	1375	1376	1366	1357	1360	1365	1373	1379	1385	1374	1366	1363	1364	1365	1362	1371	1373	1375	1376	1374	1378	1384	1395	1379	1378	1374	1375	1379	1378	1374	1367	1362	1368	1380	1388	1384	1376	1364	1361	1369	1361	1357	1357	1374	1393	1400	1399	1391	1383	1386	1381	1383	1377	1381	1378	1374	1367	1364	1371	1382	1383	1380	1363	1354	1352	1364	1368	1368	1369	1373	1376	1368	1360	1356	1353	1369	1352	1340	1336	1368	1365	1364	1361	1359	1363	1368	1376	1375	1379	1384	1395	1403	1404	1394	1386	1382	1385	1381	1375	1363	1359	1354	1361	1358	1355	1362	1359	1362	1367	1375	1381	1375	1356	1347	1347	1346	1354	1367	1363	1351	1348	1353	1375	1384	1391	1388	1379	1368	1365	1373	1382	1400	1402	1389	1372	1351	1342	1343	1350	1375	1384	1399	1399	1389	1373	1351	1356	1378	1374	1369	1364	1364	1367	1372	1378	1383	1382	1382	1387	1383	1374	1358	1352	1364	1378	1377	1374	1373	1375	1360	1362	1360	1362	1368	1381	1395	1400	1390	1384	1389	1387	1386	1387	1397	1402	1408	1395	1384	1382	1385	1392	1383	1373	1365	1373	1377	1380	1377	1376	1377	1381	1390	1394	1384	1377	1374	1378	1384	1392	1405	1402	1388	1387	1386	1385	1387	1384	1376	1365	1356	1351	1352	1348	1341	1343	1346	1361	1370	1374	1369	1346	1334	1334	1341	1354	1371	1380	1377	1379	1424	0	0	0	0	0	0	0	0	0	0	0	0	0	0	0	0	0	0	0	0	0	0	0	0	0	0	1501	1511	1504	1496	1481	1465	1443	1458	1430	1424	1416	1412	1417	1426	1434	1438	1434	1428	1423	1414	1403	1409	1410	1415	1406	1406	1428	1446	1456	1450	1439	1436	1441	1443	1440	1426	1432	1452	0	0	0	0	1441	1446	1449	1467	1490	1502	1491	1456	1425	1404	1395	1392	1394	1409	1423	1423	1429	1429	1429	1407	1402	1389	1387	1394	1390	1392	1399	1399	1392	1377	1368	1354	1360	1368	1368	1366	1377	1381	1374	1367	1360	1361	1361	1366	1380	1385	1384	0	0	0	0	0	0	0
0	0	0	1427	1402	1368	1353	1353	1353	1380	1415	1442	1443	1443	1429	1402	1391	1391	1401	1404	1404	1396	1388	1386	1385	1388	1386	1387	1387	1391	1402	1401	1414	1423	1433	1428	1426	1415	1415	1405	1402	1401	1398	1390	1386	1376	1382	1394	1402	1415	1415	1401	1410	1424	1434	1423	1412	1412	1409	1410	1405	1403	1410	1416	1428	1440	1433	1425	1417	1420	1420	1427	1427	1414	1406	1417	1413	1411	1404	1402	1395	1389	1391	1396	1415	1439	1458	1458	1444	1426	1416	1406	1406	1406	1409	1414	1417	1424	1424	1425	1423	1417	1403	1396	1398	1407	1414	1418	1409	1396	1386	1385	1377	1363	1362	1369	1373	1368	1365	1366	1377	1381	1388	1388	1395	1396	1398	1386	1374	1367	1367	1374	1364	1354	1360	1375	1389	1387	1383	1385	1395	1396	1383	1380	1381	1386	1384	1408	1397	1405	1393	0	0	0	0	0	0	0	0	0	0	0	0	0	0	0	0	0	0	0	0	0	0	0	0	0	0	0	0	0	0	0	0	1623	1618	1628	1647	1651	1658	1639	0	0	0	0	0	1392	1388	1395	1404	1405	1394	1380	1374	1368	1368	1371	1363	1365	1369	1377	1382	1386	1389	1397	1400	1396	1391	1383	1379	1377	1380	1389	1395	1398	1404	1404	1391	1381	1374	1371	1357	1347	1346	1349	1360	1376	1386	1383	1377	1370	1367	1374	1390	1388	1385	1381	1384	1381	1377	1380	1379	1382	1383	1384	1382	1381	1370	1367	1371	1380	1381	1385	1391	1395	1385	1377	1371	1367	1365	1365	1365	1354	1356	1385	1395	1397	1390	1382	1380	1373	1368	1367	1366	1370	1377	1389	1393	1383	1370	1373	1384	1382	1381	1378	1380	1380	1380	1375	1379	1387	1397	1385	1372	1372	1368	1377	1379	1380	1378	1372	1376	1387	1390	1391	1382	1383	1383	1383	1374	1368	1369	1383	1400	1402	1406	1407	1399	1395	1385	1377	1385	1382	1380	1376	1370	1367	1372	1378	1383	1379	1366	1352	1355	1367	1376	1388	1392	1403	1392	1381	1366	1357	1352	1350	1353	1336	1354	1373	1375	1371	1366	1364	1364	1371	1377	1379	1380	1382	1386	1393	1398	1394	1383	1383	1390	1389	1382	1370	1363	1360	1359	1357	1353	1363	1367	1367	1375	1381	1387	1380	1360	1354	1354	1349	1353	1365	1363	1360	1354	1358	1383	1392	1402	1402	1392	1381	1372	1376	1385	1398	1399	1398	1387	1375	1362	1355	1363	1383	1395	1403	1403	1393	1379	1362	1365	1383	1383	1371	1366	1364	1367	1376	1383	1390	1388	1390	1390	1387	1374	1365	1360	1366	1389	1394	1387	1379	1376	1372	1365	1366	1360	1365	1379	1398	1403	1391	1389	1394	1395	1395	1402	1414	1413	1410	1402	1388	1387	1390	1393	1384	1370	1363	1376	1388	1390	1388	1381	1379	1387	1398	1400	1383	1373	1370	1377	1387	1398	1414	1414	1409	1395	1383	1388	1402	1400	1390	1375	1353	1344	1348	1353	1353	1348	1347	1365	1374	1383	1378	1361	1345	1337	1347	1367	1387	1393	1386	1391	1413	1420	1399	1374	1424	0	0	0	0	0	0	0	0	0	0	0	0	0	0	0	0	0	0	0	0	0	0	1506	1504	1489	1486	1459	1443	1426	1459	1456	1430	1427	1432	1437	1435	1435	1435	1440	1442	1440	1433	1427	1418	1415	1417	1414	1409	1428	1441	1441	1431	1420	1413	1420	1434	1416	1425	1449	1488	1478	0	0	1463	1449	1435	1447	1466	1479	1469	1455	1433	1424	1432	1436	1424	1422	1432	1432	1437	1440	1437	1422	1413	1413	1407	1408	1402	1397	1400	1392	1392	1386	1379	1370	1369	1366	1374	1375	1376	1382	1388	1390	1382	1376	1371	1371	1377	1381	1385	1377	0	0	0	0	0	0	0
0	0	0	1390	1375	1357	1343	1343	1352	1385	1411	1430	1431	1431	1415	1398	1394	1405	1437	1461	1461	1438	1399	1378	1378	1380	1375	1370	1370	1372	1385	1398	1417	1430	1439	1444	1428	1420	1420	1411	1402	1398	1391	1375	1373	1378	1395	1407	1420	1413	1413	1422	1436	1445	1420	1406	1399	1391	1390	1390	1384	1393	1401	1410	1414	1418	1410	1405	1394	1384	1384	1382	1371	1370	1379	1393	1392	1376	1377	1388	1406	1426	1426	1413	1404	1409	1413	1416	1397	1388	1391	1395	1404	1403	1400	1408	1413	1423	1424	1421	1411	1398	1384	1383	1402	1426	1433	1403	1385	1376	1376	1367	1367	1371	1376	1376	1374	1369	1362	1370	1371	1373	1380	1394	1406	1411	1413	1406	1417	1412	1414	1395	1365	1345	1344	1363	1403	1416	1406	1398	1401	1434	1439	1431	1418	1419	1427	1428	1423	1409	0	0	0	0	0	0	0	0	0	0	0	0	0	0	0	0	0	0	0	0	0	0	0	0	0	0	0	0	0	0	0	0	1613	1623	1638	1650	1659	1665	1661	1642	0	0	0	0	1415	1399	1395	1394	1404	1410	1407	1394	1391	1391	1393	1397	1395	1388	1390	1393	1393	1396	1402	1412	1417	1419	1406	1394	1390	1391	1396	1409	1410	1409	1417	1411	1399	1380	1374	1367	1359	1350	1349	1353	1359	1384	1393	1398	1391	1389	1388	1392	1398	1388	1384	1386	1390	1394	1391	1394	1392	1387	1387	1391	1388	1386	1371	1370	1379	1390	1388	1390	1389	1394	1384	1380	1372	1369	1376	1376	1375	1375	1371	1391	1402	1404	1397	1387	1382	1378	1376	1364	1370	1374	1385	1392	1391	1381	1371	1379	1391	1394	1397	1396	1389	1386	1384	1388	1381	1393	1396	1390	1372	1361	1358	1366	1381	1391	1388	1385	1388	1392	1395	1396	1390	1387	1391	1388	1382	1379	1386	1391	1396	1405	1408	1411	1409	1399	1388	1370	1386	1394	1396	1387	1377	1374	1384	1386	1386	1380	1366	1361	1361	1371	1388	1400	1407	1418	1415	1401	1388	1385	1370	1363	1359	1348	1354	1369	1388	1383	1376	1363	1355	1355	1357	1366	1379	1386	1383	1360	1357	1371	1383	1389	1394	1416	1419	1416	1412	1406	1376	1372	1378	1390	1382	1376	1373	1381	1389	1400	1401	1396	1390	1386	1384	1379	1378	1372	1369	1369	1380	1399	1412	1409	1404	1397	1392	1384	1381	1380	1375	1386	1390	1394	1403	1400	1410	1409	1405	1401	1401	1400	1383	1383	1393	1390	1381	1376	1373	1378	1386	1392	1395	1400	1404	1392	1380	1372	1369	1370	1375	1395	1407	1412	1403	1393	1391	1387	1381	1372	1365	1362	1365	1374	1383	1388	1381	1372	1372	1375	1380	1384	1394	1398	1396	1396	1404	1405	1392	1378	1372	1375	1386	1391	1389	1388	1383	1369	1370	1380	1382	1377	1373	1380	1394	1407	1412	1418	1421	1415	1397	1391	1395	1406	1417	1409	1385	1366	1350	1354	1376	1380	1370	1366	1370	1394	1396	1391	1375	1369	1374	1382	1395	1416	1417	1407	1403	1418	1434	1423	1404	1413	1476	0	0	0	0	0	0	0	0	0	0	0	0	0	0	0	0	0	0	0	0	0	1506	1508	1484	1479	1440	1431	1429	1441	1458	1442	1435	1433	1435	1434	1436	1435	1443	1455	1457	1453	1443	1433	1434	1445	1446	1437	1439	1442	1438	1418	1402	1410	1414	1428	1428	1454	1461	1506	1521	1518	1495	1476	1448	1417	1407	1418	1419	1423	1436	1438	1423	1412	1408	1416	1427	1442	1457	1470	1461	1445	1427	1421	1414	1409	1406	1405	1401	1404	1403	1403	1400	1400	1379	1376	1387	1391	1393	1389	1390	1395	1397	1398	1399	1400	1400	1399	1398	1388	1378	0	0	0	0	0	0	0
0	0	0	1356	1349	1353	1347	1347	1357	1376	1395	1416	1411	1411	1400	1379	1366	1388	1420	1444	1444	1435	1405	1374	1372	1378	1372	1372	1372	1371	1384	1398	1412	1427	1438	1435	1426	1412	1412	1399	1389	1377	1371	1365	1357	1370	1386	1403	1418	1427	1427	1433	1433	1427	1415	1392	1379	1368	1368	1375	1384	1390	1394	1412	1422	1406	1399	1390	1384	1374	1374	1359	1357	1360	1373	1376	1371	1363	1359	1372	1396	1436	1431	1418	1401	1398	1394	1387	1374	1367	1376	1388	1392	1391	1388	1396	1406	1418	1416	1413	1397	1383	1373	1374	1399	1425	1430	1395	1377	1369	1366	1367	1377	1393	1415	1415	1393	1374	1364	1372	1374	1370	1375	1383	1396	1411	1419	1410	1425	1427	1428	1406	1397	1380	1383	1435	1448	1429	1414	1414	1416	1426	1448	1447	1449	1455	1466	1480	1454	1430	1423	0	0	0	0	0	0	0	0	0	0	0	0	0	0	0	0	0	0	0	0	0	0	0	0	0	0	1621	1608	1593	1595	1613	1628	1640	1652	1651	1654	1667	1667	1655	0	0	1523	1439	1409	1417	1403	1396	1405	1414	1410	1401	1400	1403	1402	1406	1405	1404	1406	1403	1402	1404	1407	1416	1419	1423	1411	1399	1399	1405	1408	1415	1415	1415	1415	1414	1397	1379	1370	1358	1358	1356	1356	1357	1356	1371	1394	1402	1404	1405	1405	1408	1410	1399	1390	1393	1411	1420	1421	1404	1390	1387	1387	1389	1393	1396	1397	1395	1402	1395	1377	1373	1377	1389	1391	1398	1401	1399	1401	1404	1403	1405	1399	1391	1403	1407	1396	1388	1384	1398	1412	1414	1410	1411	1402	1398	1394	1386	1389	1401	1413	1417	1422	1425	1429	1423	1428	1425	1424	1420	1406	1394	1379	1365	1364	1377	1392	1399	1394	1388	1399	1411	1422	1409	1393	1380	1372	1371	1365	1371	1386	1389	1395	1391	1396	1401	1410	1402	1383	1386	1394	1400	1399	1396	1398	1397	1396	1390	1390	1395	1395	1383	1381	1382	1413	1427	1430	1410	1395	1396	1398	1396	1398	1390	1389	1392	1395	1405	1410	1407	1394	1390	1386	1382	1379	1388	1405	1408	1408	1433	1383	1383	1367	1344	1358	1383	1389	1393	1391	1378	1365	1366	1396	1392	1382	1384	1381	1390	1398	1402	1392	1376	1362	1356	1365	1386	1392	1388	1384	1378	1381	1385	1389	1400	1405	1399	1391	1384	1382	1379	1376	1381	1382	1383	1377	1392	1404	1412	1410	1407	1399	1394	1390	1392	1397	1387	1374	1365	1367	1376	1384	1394	1401	1399	1399	1396	1382	1375	1368	1366	1367	1384	1399	1399	1385	1373	1368	1370	1375	1373	1375	1378	1377	1382	1384	1383	1377	1374	1371	1373	1376	1378	1373	1371	1374	1389	1399	1400	1383	1368	1368	1378	1388	1385	1392	1390	1389	1373	1375	1379	1386	1389	1389	1401	1413	1421	1416	1407	1407	1408	1398	1396	1382	1394	1402	1406	1396	1376	1362	1367	1379	1386	1386	1391	1397	1401	1400	1390	1378	1376	1382	1386	1386	1389	1407	1410	1413	1417	1429	1431	1428	1445	1483	0	0	0	0	0	0	0	0	0	0	0	0	0	0	0	0	0	0	0	0	0	0	1491	1466	1455	1445	1432	1439	1438	1433	1422	1406	1394	1397	1409	1421	1432	1427	1431	1431	1428	1400	1416	1447	1478	1490	1487	1458	1449	1423	1408	1382	1398	1418	1441	1463	1475	1499	1520	1526	1523	1498	1455	1434	1421	1415	1406	1405	1414	1426	1427	1404	1396	1400	1397	1388	1388	1396	1421	1435	1430	1419	1408	1397	1393	1391	1393	1403	1405	1411	1411	1413	1407	1389	1389	1394	1402	1399	1396	1394	1391	1398	1403	1415	1420	1420	1421	1414	1398	1383	0	0	0	0	0	0	0
0	0	0	1340	1347	1346	1347	1347	1341	1350	1377	1392	1393	1393	1381	1359	1354	1362	1390	1412	1412	1409	1383	1373	1373	1374	1375	1375	1375	1375	1385	1399	1407	1420	1424	1421	1409	1401	1401	1394	1380	1368	1359	1350	1344	1362	1377	1393	1405	1413	1413	1416	1418	1413	1394	1376	1357	1347	1355	1373	1390	1397	1408	1414	1419	1398	1393	1383	1374	1362	1362	1357	1354	1362	1365	1359	1353	1353	1353	1366	1390	1416	1425	1412	1396	1389	1392	1390	1366	1362	1368	1386	1382	1377	1374	1372	1393	1397	1393	1376	1369	1363	1365	1382	1402	1424	1422	1390	1371	1370	1377	1375	1381	1402	1422	1421	1398	1378	1366	1370	1372	1372	1371	1381	1391	1393	1397	1404	1407	1417	1439	1426	1409	1393	1390	1431	1442	1424	1408	1410	1414	1427	1438	1446	1443	1447	1461	1501	1485	1465	1453	1451	1439	1431	1424	1428	1479	1520	1526	1515	1502	1491	1509	1545	1580	1610	1606	1578	1568	1572	1577	1594	1588	1577	1570	1584	1620	1625	1621	1609	1617	1625	1638	1641	1651	1647	1650	1660	1674	1661	1585	1540	1473	1430	1435	1426	1403	1384	1392	1406	1404	1411	1415	1414	1415	1422	1426	1420	1425	1415	1411	1420	1413	1416	1423	1415	1414	1416	1420	1427	1427	1423	1419	1412	1415	1408	1396	1383	1377	1384	1395	1399	1388	1377	1358	1358	1374	1396	1418	1424	1421	1421	1409	1405	1408	1411	1419	1419	1407	1392	1367	1375	1384	1399	1402	1403	1402	1391	1390	1359	1353	1360	1376	1384	1397	1394	1389	1391	1401	1405	1400	1385	1376	1364	1368	1387	1386	1387	1388	1399	1415	1416	1416	1408	1402	1392	1388	1387	1396	1397	1396	1408	1419	1426	1430	1429	1425	1425	1424	1421	1415	1406	1391	1386	1382	1387	1399	1399	1393	1390	1399	1403	1408	1420	1409	1397	1391	1390	1400	1396	1391	1382	1389	1401	1402	1395	1391	1388	1384	1393	1400	1401	1401	1404	1401	1396	1393	1396	1406	1408	1386	1391	1390	1383	1388	1403	1398	1392	1393	1396	1399	1400	1395	1397	1400	1399	1401	1399	1402	1396	1395	1387	1386	1383	1383	1386	1395	1408	1402	1383	1395	1382	1371	1374	1361	1370	1389	1390	1383	1370	1375	1375	1408	1406	1389	1387	1386	1389	1390	1383	1374	1361	1351	1358	1369	1386	1394	1394	1387	1381	1381	1376	1374	1391	1397	1397	1388	1384	1380	1377	1381	1385	1391	1395	1393	1396	1404	1402	1405	1408	1398	1388	1387	1389	1393	1390	1380	1371	1371	1374	1383	1394	1403	1399	1399	1396	1387	1381	1379	1372	1367	1375	1377	1377	1369	1367	1365	1370	1371	1380	1382	1386	1391	1394	1395	1386	1381	1376	1379	1375	1373	1374	1368	1365	1366	1379	1393	1394	1388	1381	1371	1381	1384	1387	1390	1392	1382	1381	1383	1389	1398	1401	1408	1413	1420	1427	1425	1396	1395	1399	1394	1387	1379	1380	1388	1396	1393	1384	1377	1373	1378	1382	1385	1396	1407	1412	1405	1395	1386	1385	1385	1390	1383	1381	1392	1404	1415	1416	1423	1423	1433	1472	1493	0	0	0	0	0	0	0	0	0	0	0	0	0	0	0	0	0	0	0	0	0	0	1464	1461	1454	1464	1459	1455	1445	1437	1421	1403	1392	1396	1406	1422	1431	1417	1417	1415	1408	1404	1419	1446	1469	1469	1449	1445	1442	1423	1399	1380	1378	1412	1433	1460	1485	1492	1525	1534	1522	1479	1455	1436	1423	1415	1405	1404	1411	1418	1406	1397	1396	1405	1406	1397	1395	1397	1409	1412	1398	1397	1395	1390	1382	1387	1395	1401	1405	1405	1405	1406	1399	1394	1381	1388	1391	1397	1395	1388	1390	1394	1401	1409	1419	1419	1423	1415	1402	1385	0	0	0	0	0	0	0
0	0	0	1356	1356	1359	1353	1353	1349	1352	1364	1375	1379	1379	1375	1358	1345	1353	1365	1378	1378	1376	1371	1362	1372	1381	1388	1377	1377	1377	1382	1387	1402	1414	1421	1408	1394	1386	1386	1388	1377	1359	1353	1346	1344	1344	1356	1370	1375	1369	1369	1366	1377	1392	1388	1373	1359	1360	1379	1411	1434	1439	1430	1415	1403	1393	1386	1367	1350	1335	1335	1341	1369	1369	1363	1358	1359	1365	1370	1386	1375	1382	1389	1383	1374	1382	1375	1374	1372	1371	1372	1368	1371	1375	1370	1357	1361	1360	1353	1343	1341	1350	1365	1391	1407	1406	1399	1390	1385	1392	1400	1388	1368	1359	1372	1392	1395	1374	1370	1365	1361	1372	1374	1365	1354	1369	1381	1389	1404	1408	1414	1422	1411	1392	1381	1395	1417	1409	1406	1406	1421	1435	1446	1444	1440	1434	1445	1478	1483	1493	1487	1483	1453	1436	1429	1449	1502	1542	1519	1508	1503	1508	1531	1559	1594	1616	1610	1586	1559	1559	1568	1583	1583	1574	1564	1579	1622	1626	1614	1615	1624	1632	1634	1638	1640	1637	1638	1648	1668	1686	1598	1548	1497	1458	1441	1424	1400	1387	1392	1405	1417	1417	1421	1425	1425	1423	1424	1422	1421	1417	1417	1426	1431	1420	1421	1419	1423	1431	1432	1432	1429	1426	1409	1401	1397	1396	1389	1383	1388	1394	1400	1409	1400	1386	1379	1379	1380	1395	1414	1419	1423	1418	1402	1399	1394	1404	1407	1405	1390	1374	1367	1373	1391	1400	1402	1394	1385	1376	1364	1354	1347	1355	1369	1382	1390	1387	1385	1384	1392	1400	1396	1385	1371	1360	1360	1363	1369	1372	1383	1392	1401	1406	1409	1408	1399	1389	1387	1402	1397	1398	1394	1397	1404	1402	1395	1384	1380	1390	1403	1413	1410	1406	1400	1387	1382	1385	1395	1397	1393	1394	1398	1403	1402	1404	1405	1395	1390	1392	1397	1398	1386	1378	1385	1397	1401	1395	1386	1385	1385	1393	1397	1395	1397	1395	1398	1399	1396	1400	1403	1387	1386	1387	1384	1386	1386	1393	1399	1407	1403	1405	1416	1390	1388	1390	1386	1382	1376	1371	1391	1392	1394	1388	1387	1386	1387	1391	1392	1397	1397	1400	1398	1379	1384	1387	1374	1371	1385	1395	1384	1371	1372	1408	1420	1416	1405	1396	1384	1385	1392	1387	1368	1361	1356	1354	1368	1386	1387	1389	1388	1382	1381	1374	1375	1388	1396	1391	1386	1381	1378	1379	1384	1398	1405	1408	1406	1400	1395	1400	1401	1395	1389	1391	1389	1387	1389	1385	1385	1384	1383	1377	1385	1395	1407	1405	1395	1391	1394	1393	1387	1383	1376	1376	1371	1370	1362	1364	1366	1371	1376	1383	1389	1396	1408	1403	1395	1392	1387	1384	1379	1376	1372	1373	1373	1370	1370	1377	1388	1395	1392	1390	1385	1385	1391	1396	1394	1387	1385	1390	1393	1406	1409	1411	1414	1416	1417	1423	1423	1398	1394	1400	1395	1388	1375	1375	1381	1390	1394	1390	1381	1372	1371	1386	1390	1401	1413	1411	1403	1393	1393	1396	1394	1396	1385	1384	1384	1398	1422	1424	1422	1424	1439	1469	1490	0	0	0	0	0	0	0	0	0	0	0	0	0	0	0	0	0	0	0	0	0	0	1459	1461	1471	1476	1480	1470	1449	1443	1421	1407	1395	1399	1412	1438	1432	1421	1413	1413	1412	1417	1427	1441	1456	1453	1433	0	0	1410	1388	1377	1374	1404	1426	1454	1467	1478	1511	1525	1526	1515	1477	1447	1431	1424	1416	1407	1408	1407	1404	1403	1409	1421	1419	1414	1403	1403	1407	1399	1396	1397	1397	1395	1395	1400	1405	1410	1408	1405	1405	1394	1386	1379	1383	1389	1393	1398	1394	1395	1390	1391	1389	1395	1401	1401	1407	1403	1392	1380	0	0	0	0	0	0	0
0	0	0	1362	1372	1377	1376	1376	1371	1367	1356	1350	1356	1356	1370	1366	1360	1355	1359	1361	1361	1355	1351	1354	1369	1379	1390	1390	1390	1381	1374	1379	1390	1409	1416	1405	1382	1370	1370	1376	1375	1365	1362	1363	1365	1371	1372	1375	1375	1381	1381	1373	1384	1390	1392	1389	1389	1384	1382	1387	1402	1418	1414	1398	1390	1393	1383	1367	1343	1334	1334	1340	1354	1371	1364	1357	1361	1378	1393	1392	1387	1387	1384	1380	1376	1376	1374	1371	1374	1366	1362	1364	1378	1386	1386	1376	1364	1357	1357	1355	1355	1364	1375	1373	1364	1362	1372	1388	1378	1380	1385	1393	1396	1390	1383	1379	1380	1375	1372	1377	1379	1379	1375	1363	1364	1374	1375	1378	1387	1396	1401	1400	1396	1390	1378	1368	1382	1402	1410	1419	1433	1444	1455	1453	1440	1430	1433	1450	1474	1493	1496	1485	1462	1441	1431	1448	1508	1542	1520	1507	1513	1519	1544	1559	1590	1606	1600	1576	1555	1554	1563	1571	1582	1573	1571	1574	1611	1613	1607	1605	1620	1638	1641	1637	1627	1627	1627	1647	1659	1682	1629	1588	1532	1459	1427	1424	1405	1398	1407	1413	1413	1417	1426	1432	1430	1418	1417	1423	1424	1422	1425	1430	1430	1424	1421	1421	1423	1425	1421	1420	1414	1417	1395	1392	1390	1395	1396	1392	1395	1401	1410	1415	1410	1403	1400	1391	1385	1394	1405	1408	1411	1411	1404	1399	1397	1393	1394	1395	1386	1374	1367	1374	1388	1396	1394	1387	1382	1372	1366	1359	1353	1356	1367	1375	1382	1387	1385	1387	1394	1397	1397	1388	1383	1373	1367	1369	1375	1379	1383	1393	1401	1402	1401	1402	1399	1395	1401	1404	1403	1403	1400	1400	1401	1399	1396	1386	1380	1384	1394	1404	1404	1403	1397	1390	1388	1388	1391	1394	1387	1389	1391	1388	1393	1392	1395	1389	1384	1388	1393	1396	1389	1387	1394	1405	1401	1393	1383	1381	1386	1391	1397	1390	1389	1383	1394	1396	1396	1396	1383	1372	1381	1383	1384	1386	1375	1377	1373	1384	1391	1391	1393	1385	1385	1387	1382	1379	1384	1380	1380	1381	1397	1394	1390	1376	1364	1382	1378	1397	1402	1402	1391	1382	1387	1386	1378	1375	1390	1392	1372	1370	1390	1413	1414	1414	1400	1397	1392	1382	1393	1388	1380	1373	1366	1368	1372	1381	1385	1381	1381	1383	1385	1379	1376	1398	1393	1391	1383	1380	1378	1377	1392	1403	1415	1417	1415	1410	1402	1400	1400	1397	1394	1394	1391	1385	1383	1388	1388	1394	1397	1395	1393	1408	1414	1411	1390	1389	1389	1391	1389	1391	1388	1382	1373	1366	1362	1362	1371	1377	1383	1388	1395	1402	1408	1398	1392	1396	1394	1380	1383	1378	1380	1380	1380	1379	1377	1388	1395	1403	1403	1397	1387	1384	1392	1396	1397	1394	1393	1388	1397	1408	1408	1405	1405	1395	1397	1413	1417	1403	1403	1403	1393	1384	1382	1380	1387	1394	1396	1392	1381	1369	1369	1391	1396	1403	1408	1410	1403	1397	1397	1400	1398	1395	1391	1389	1389	1397	1423	1432	1431	1430	1435	1448	1477	0	0	0	0	0	0	0	0	0	0	1652	1683	1681	1680	1664	1641	0	0	0	0	0	1469	1461	1441	1450	1457	1460	1461	1444	1443	1432	1416	1409	1407	1414	1448	1441	1428	1424	1413	1419	1419	1423	1433	1432	1428	1422	1422	1415	1407	1389	1386	1384	1401	1418	1437	1454	1456	1488	1500	1499	1515	1493	1453	1432	1436	1431	1416	1402	1402	1407	1410	1417	1430	1428	1421	1416	1416	1412	1407	1404	1405	1403	1405	1407	1412	1414	1410	1404	1392	1392	1370	1375	1375	1385	1393	1403	1403	1400	1400	1402	1395	1385	1381	1386	1386	1394	1388	1384	1373	0	0	0	0	0	0	0
0	0	0	1381	1390	1384	1389	1389	1392	1380	1364	1351	1354	1354	1367	1373	1370	1373	1369	1362	1362	1352	1353	1359	1374	1384	1394	1395	1395	1388	1382	1383	1391	1400	1409	1397	1374	1360	1360	1354	1361	1358	1367	1383	1390	1386	1384	1386	1388	1388	1388	1384	1382	1384	1389	1391	1396	1387	1386	1387	1394	1399	1387	1368	1365	1379	1382	1368	1349	1332	1332	1341	1358	1366	1364	1358	1365	1382	1393	1386	1386	1385	1383	1380	1377	1375	1378	1380	1377	1362	1361	1364	1380	1384	1386	1377	1369	1362	1365	1368	1372	1380	1383	1363	1356	1361	1370	1385	1381	1372	1375	1392	1399	1397	1383	1376	1375	1379	1388	1387	1388	1384	1381	1373	1373	1376	1376	1374	1386	1399	1400	1385	1380	1391	1381	1371	1368	1378	1396	1420	1437	1454	1455	1455	1444	1426	1427	1446	1467	1490	1489	1477	1455	1449	1442	1455	1490	1523	1547	1560	1575	1587	1580	1581	1591	1599	1586	1577	1574	1569	1568	1569	1580	1589	1580	1579	1598	1592	1601	1602	1619	1638	1634	1634	1631	1635	1634	1657	1680	1688	1651	1616	1572	1447	1414	1411	1413	1416	1419	1416	1408	1414	1422	1430	1436	1422	1425	1428	1433	1435	1431	1430	1427	1420	1417	1420	1419	1425	1416	1406	1406	1413	1390	1383	1396	1401	1404	1399	1398	1401	1412	1414	1415	1413	1410	1404	1394	1384	1393	1397	1400	1405	1406	1403	1398	1395	1396	1392	1390	1375	1368	1376	1387	1397	1394	1389	1379	1373	1367	1366	1364	1366	1370	1373	1379	1385	1390	1396	1398	1410	1403	1391	1390	1386	1382	1380	1386	1392	1394	1394	1399	1399	1404	1404	1405	1404	1404	1405	1406	1407	1402	1402	1402	1403	1401	1392	1384	1380	1396	1401	1403	1396	1390	1384	1391	1393	1393	1390	1383	1382	1381	1378	1380	1388	1385	1385	1385	1393	1393	1393	1395	1397	1407	1408	1398	1382	1379	1382	1386	1390	1393	1389	1385	1385	1388	1394	1393	1390	1373	1361	1366	1379	1386	1388	1380	1376	1373	1383	1385	1386	1388	1378	1380	1382	1378	1380	1384	1370	1365	1380	1380	1383	1381	1381	1383	1380	1375	1377	1395	1393	1391	1389	1380	1378	1381	1387	1379	1384	1359	1365	1382	1405	1401	1395	1392	1390	1388	1386	1387	1380	1372	1370	1370	1379	1383	1377	1375	1370	1375	1378	1386	1386	1389	1408	1407	1392	1385	1379	1382	1384	1388	1397	1411	1422	1418	1410	1398	1398	1399	1397	1400	1402	1399	1387	1380	1378	1383	1388	1402	1406	1405	1412	1411	1405	1389	1383	1385	1385	1388	1389	1398	1394	1386	1375	1367	1366	1374	1385	1389	1393	1402	1400	1401	1390	1387	1391	1381	1381	1380	1382	1381	1384	1386	1386	1393	1413	1419	1421	1419	1405	1386	1382	1390	1391	1394	1390	1387	1394	1401	1405	1402	1395	1386	1384	1386	1403	1413	1412	1409	1398	1388	1384	1381	1388	1398	1403	1404	1391	1379	1379	1375	1398	1402	1409	1413	1409	1405	1403	1402	1401	1399	1396	1393	1391	1392	1397	1425	1430	1438	1437	1433	1431	1434	0	0	0	0	0	0	0	0	0	1635	1660	1688	1699	1695	1672	1644	1615	0	0	0	0	1472	1435	1434	1433	1436	1438	1445	1429	1431	1432	1431	1426	1414	1409	1415	1442	1433	1419	1407	1412	1411	1417	1420	1412	1412	1404	1408	1393	1397	1400	1413	1410	1416	1417	1425	1428	1445	1462	1473	1488	1507	1493	1449	1430	1439	1437	1406	1398	1398	1411	1416	1422	1420	1419	1418	1411	1419	1422	1420	1413	1409	1406	1410	1417	1413	1412	1410	1402	1390	1390	1371	1368	1381	1392	1403	1405	1403	1407	1407	1406	1402	1392	1384	1377	1377	1382	1377	1371	1368	0	0	0	0	0	0	0
0	0	0	1407	1408	1408	1404	1404	1397	1387	1374	1360	1358	1358	1365	1369	1380	1380	1376	1364	1364	1360	1360	1370	1377	1394	1394	1393	1393	1392	1390	1388	1396	1401	1404	1397	1376	1364	1364	1359	1358	1358	1371	1380	1390	1389	1385	1384	1393	1397	1397	1391	1383	1382	1389	1395	1395	1381	1382	1379	1386	1385	1375	1360	1360	1372	1376	1366	1347	1339	1339	1344	1358	1368	1365	1367	1372	1386	1395	1393	1388	1384	1382	1377	1373	1374	1377	1379	1371	1362	1363	1363	1373	1382	1387	1381	1378	1374	1372	1380	1387	1397	1388	1373	1368	1369	1373	1372	1363	1362	1372	1386	1395	1395	1382	1376	1377	1382	1390	1391	1387	1386	1386	1381	1380	1374	1378	1383	1385	1397	1403	1378	1375	1405	1404	1393	1378	1367	1384	1416	1437	1450	1445	1440	1440	1434	1440	1447	1469	1486	1484	1473	1458	1455	1461	1474	1496	1522	1552	1574	1594	1611	1619	1608	1598	1591	1582	1581	1587	1586	1590	1590	1599	1600	1600	1597	1586	1591	1596	1600	1621	1632	1637	1644	1644	1660	1681	1688	1703	1701	1668	1632	1599	1443	1403	1402	1407	1416	1415	1413	1407	1407	1413	1429	1436	1423	1423	1433	1435	1433	1429	1421	1421	1414	1415	1413	1416	1419	1406	1404	1404	1410	1389	1388	1396	1404	1406	1404	1399	1403	1411	1417	1415	1418	1413	1407	1394	1385	1383	1389	1393	1402	1409	1411	1399	1393	1395	1391	1384	1383	1378	1370	1389	1398	1399	1394	1381	1369	1366	1366	1366	1369	1378	1381	1384	1389	1396	1395	1402	1407	1405	1396	1396	1397	1388	1390	1391	1398	1410	1411	1404	1404	1407	1416	1414	1409	1402	1400	1403	1405	1401	1405	1404	1401	1399	1392	1387	1382	1388	1397	1395	1392	1388	1386	1397	1400	1393	1386	1379	1379	1379	1377	1383	1385	1382	1383	1393	1404	1402	1392	1393	1402	1405	1403	1390	1380	1377	1375	1390	1390	1389	1388	1386	1385	1396	1395	1397	1395	1378	1367	1360	1366	1372	1388	1370	1378	1385	1379	1380	1380	1385	1389	1384	1371	1361	1375	1375	1373	1373	1375	1369	1370	1396	1387	1379	1378	1372	1374	1392	1390	1387	1380	1370	1365	1369	1384	1379	1376	1370	1371	1383	1389	1388	1387	1382	1376	1382	1385	1385	1379	1372	1374	1384	1395	1388	1380	1371	1370	1370	1381	1387	1390	1400	1414	1407	1399	1402	1415	1407	1385	1383	1387	1396	1409	1408	1398	1391	1396	1399	1401	1404	1409	1402	1389	1375	1372	1376	1387	1400	1405	1410	1409	1407	1399	1381	1388	1391	1385	1384	1388	1396	1395	1385	1376	1364	1357	1365	1377	1392	1393	1398	1402	1395	1387	1375	1384	1382	1386	1388	1389	1386	1387	1391	1400	1418	1431	1436	1432	1434	1427	1402	1391	1389	1394	1400	1392	1400	1399	1395	1396	1394	1391	1387	1386	1394	1396	1403	1403	1400	1394	1380	1377	1379	1383	1391	1402	1401	1401	1390	1387	1387	1401	1401	1409	1411	1415	1409	1407	1405	1402	1400	1395	1394	1397	1393	1395	1418	1427	1432	1437	1427	1420	1420	1450	0	0	0	0	0	0	0	0	1638	1656	1676	1689	1689	1670	1649	1628	1608	0	0	0	1482	1443	1439	1435	1433	1437	1437	1420	1422	1424	1439	1429	1411	1407	1419	1445	1421	1410	1401	1401	1406	1407	1407	1415	1408	1393	1387	1384	1405	1421	1433	1434	1431	1424	1422	1420	1428	1440	1451	1470	1492	1493	1456	1430	1435	1430	1409	1395	1397	1408	1422	1424	1414	1404	1404	1409	1416	1422	1426	1421	1410	1413	1415	1414	1418	1414	1413	1405	1391	1391	1382	1382	1394	1399	1405	1402	1403	1409	1417	1416	1412	1404	1399	1389	1389	1381	1377	1375	1373	0	0	0	0	0	0	0
0	0	0	1413	1416	1420	1416	1416	1410	1395	1387	1372	1365	1365	1358	1363	1367	1375	1376	1369	1369	1369	1377	1381	1397	1402	1399	1386	1386	1388	1384	1387	1397	1404	1410	1407	1392	1376	1376	1370	1368	1365	1378	1386	1389	1386	1382	1381	1398	1399	1399	1391	1377	1381	1388	1395	1393	1388	1389	1384	1381	1374	1369	1362	1364	1370	1368	1365	1349	1344	1344	1351	1363	1375	1370	1376	1386	1398	1401	1401	1386	1385	1386	1380	1375	1373	1367	1370	1363	1370	1364	1365	1371	1378	1387	1391	1385	1376	1378	1381	1396	1401	1397	1388	1380	1378	1375	1354	1349	1358	1374	1390	1399	1394	1383	1380	1382	1384	1386	1387	1384	1380	1385	1385	1382	1365	1366	1371	1368	1380	1393	1390	1378	1408	1423	1398	1390	1384	1388	1407	1438	1447	1440	1439	1443	1461	1463	1464	1471	1477	1472	1465	1467	1465	1470	1490	1513	1528	1551	1583	1600	1607	1628	1631	1615	1598	1581	1580	1593	1611	1632	1642	1633	1622	1621	1610	1582	1592	1597	1617	1627	1630	1640	1655	1681	1703	1699	1696	1702	1708	1673	1630	1589	1423	1410	1406	1401	1408	1411	1409	1405	1405	1406	1423	1427	1417	1419	1424	1427	1422	1418	1410	1407	1415	1420	1419	1417	1415	1400	1409	1407	1410	1390	1392	1401	1410	1411	1410	1403	1404	1408	1415	1418	1424	1425	1413	1403	1387	1382	1387	1391	1400	1410	1404	1398	1389	1386	1385	1380	1381	1382	1388	1393	1396	1399	1390	1378	1372	1362	1362	1365	1374	1382	1389	1393	1396	1400	1409	1413	1407	1405	1397	1399	1409	1403	1392	1392	1402	1412	1415	1412	1410	1416	1427	1430	1417	1403	1395	1400	1406	1403	1409	1409	1402	1395	1389	1386	1383	1391	1391	1392	1390	1387	1389	1395	1401	1401	1394	1388	1382	1374	1374	1377	1379	1392	1395	1407	1409	1407	1401	1392	1396	1399	1394	1383	1377	1378	1376	1387	1385	1385	1383	1384	1385	1398	1404	1408	1409	1396	1384	1379	1391	1375	1379	1382	1392	1391	1382	1383	1379	1392	1387	1383	1386	1388	1382	1373	1383	1377	1377	1374	1371	1371	1388	1376	1373	1373	1372	1395	1397	1387	1369	1358	1358	1364	1383	1385	1383	1360	1366	1380	1383	1383	1375	1373	1376	1385	1388	1388	1374	1377	1387	1394	1394	1390	1384	1379	1378	1374	1378	1382	1387	1394	1395	1396	1401	1411	1426	1423	1409	1389	1378	1382	1398	1403	1393	1388	1396	1406	1409	1408	1413	1412	1386	1365	1359	1367	1384	1398	1407	1408	1408	1396	1392	1401	1399	1396	1391	1384	1386	1387	1391	1387	1376	1356	1354	1365	1377	1384	1392	1403	1401	1399	1383	1381	1389	1401	1413	1414	1405	1399	1398	1402	1411	1422	1425	1422	1424	1435	1439	1433	1391	1391	1395	1406	1412	1408	1409	1398	1396	1397	1398	1394	1389	1397	1400	1398	1390	1387	1386	1381	1375	1376	1372	1380	1391	1401	1402	1403	1394	1394	1393	1398	1404	1412	1411	1409	1405	1398	1400	1399	1390	1388	1388	1386	1392	1413	1415	1418	1418	1409	1407	1431	1460	0	0	0	0	0	0	0	0	1636	1651	1674	1682	1691	1676	1663	1646	1633	1619	1585	1546	1497	1467	1468	1456	1443	1437	1438	1415	1418	1421	1420	1419	1415	1417	1424	1434	1437	1422	1420	1430	1434	1437	1435	1427	1419	1420	1426	1441	1444	1451	1456	1459	1455	1431	1422	1416	1422	1423	1442	1458	1475	1483	1472	1422	1422	1424	1409	1399	1396	1413	1427	1426	1415	1397	1402	1409	1426	1427	1429	1424	1417	1414	1414	1414	1408	1417	1424	1423	1412	1412	1402	1392	1392	1395	1398	1400	1404	1412	1425	1422	1416	1405	1408	1404	1404	1391	1383	1385	1383	0	0	0	0	0	0	0
0	0	0	1397	1399	1409	1415	1415	1420	1409	1401	1387	1370	1370	1355	1348	1348	1353	1364	1371	1371	1378	1379	1389	1397	1404	1398	1384	1376	1376	1380	1386	1389	1397	1406	1416	1397	1384	1384	1382	1388	1401	1408	1404	1392	1377	1375	1388	1396	1398	1398	1390	1380	1384	1394	1393	1398	1397	1390	1385	1382	1384	1376	1376	1370	1376	1373	1366	1352	1349	1349	1358	1366	1379	1383	1383	1398	1406	1409	1402	1393	1387	1384	1379	1370	1366	1363	1361	1366	1372	1368	1368	1366	1380	1389	1395	1390	1379	1379	1385	1386	1396	1396	1388	1382	1383	1385	1365	1368	1379	1401	1410	1410	1401	1388	1387	1394	1395	1391	1381	1373	1371	1371	1389	1377	1347	1351	1353	1357	1375	1388	1390	1383	1402	1420	1415	1396	1397	1399	1410	1438	1451	1450	1447	1456	1477	1490	1483	1472	1464	1469	1468	1474	1479	1484	1503	1517	1540	1558	1578	1590	1609	1634	1634	1632	1615	1585	1576	1607	1651	1693	1693	1674	1654	1642	1632	1615	1604	1608	1626	1645	1641	1650	1677	1707	1729	1711	1688	1680	1683	1673	1618	1584	1440	1431	1423	1407	1404	1405	1404	1403	1405	1411	1413	1413	1407	1413	1415	1416	1407	1402	1403	1401	1406	1414	1416	1410	1401	1400	1407	1407	1400	1387	1393	1404	1414	1419	1416	1409	1401	1400	1406	1415	1424	1430	1423	1411	1395	1386	1387	1392	1402	1400	1397	1393	1384	1382	1381	1381	1386	1389	1394	1400	1398	1399	1393	1383	1372	1365	1364	1367	1379	1392	1401	1401	1394	1396	1405	1414	1414	1399	1394	1399	1421	1421	1416	1413	1413	1409	1411	1409	1408	1417	1424	1420	1410	1391	1380	1390	1399	1407	1412	1417	1406	1398	1391	1383	1380	1374	1371	1373	1380	1388	1394	1405	1410	1405	1399	1391	1389	1380	1377	1374	1382	1383	1395	1402	1400	1400	1402	1403	1412	1409	1396	1386	1383	1382	1379	1376	1386	1386	1381	1376	1397	1403	1399	1411	1419	1414	1412	1411	1402	1388	1376	1382	1390	1389	1383	1381	1391	1387	1389	1389	1385	1387	1381	1376	1384	1392	1394	1377	1379	1391	1389	1379	1367	1369	1373	1393	1378	1371	1364	1360	1355	1365	1385	1396	1388	1370	1360	1368	1379	1378	1375	1373	1380	1396	1397	1392	1389	1391	1385	1388	1392	1390	1392	1395	1405	1414	1399	1381	1371	1371	1376	1392	1400	1414	1421	1419	1405	1389	1375	1378	1394	1414	1405	1386	1396	1412	1416	1420	1424	1416	1393	1369	1358	1357	1384	1403	1399	1394	1396	1385	1380	1380	1391	1391	1385	1371	1360	1348	1352	1353	1350	1342	1354	1373	1375	1369	1382	1395	1404	1417	1412	1418	1414	1417	1414	1421	1415	1411	1401	1403	1408	1415	1416	1413	1420	1433	1444	1444	1408	1398	1406	1417	1419	1412	1409	1402	1399	1405	1402	1398	1399	1405	1400	1399	1381	1388	1390	1386	1379	1374	1370	1377	1387	1397	1403	1405	1402	1397	1391	1395	1401	1408	1408	1403	1399	1392	1390	1385	1380	1379	1375	1375	1387	1407	1407	1405	1396	1389	1402	1435	0	0	0	0	0	0	0	0	0	1645	1649	1673	1681	1689	1689	1681	1666	1651	1639	1607	1572	1533	1495	1487	1475	1466	1457	1451	1436	1440	1427	1440	1451	1445	1446	1443	1451	1457	1450	1439	1432	1436	1451	1454	1445	1430	1422	1409	1416	1433	1440	1444	1440	1431	1426	1420	1415	1419	1423	1435	1447	1463	1477	1470	1430	1416	1419	1415	1404	1406	1422	1433	1428	1421	1406	1410	1424	1431	1440	1437	1425	1415	1410	1407	1409	1411	1416	1429	1425	1414	1414	1396	1393	1389	1394	1394	1399	1405	1420	1420	1408	1396	1396	1400	1398	1398	1387	1386	1397	1398	0	0	0	0	0	0	0
0	0	0	1382	1385	1389	1399	1399	1414	1408	1406	1398	1385	1385	1358	1346	1340	1346	1362	1378	1378	1389	1388	1393	1398	1402	1395	1384	1375	1375	1376	1388	1392	1390	1405	1407	1396	1381	1381	1385	1399	1413	1423	1417	1396	1371	1369	1384	1397	1397	1397	1392	1389	1391	1387	1391	1392	1391	1393	1398	1401	1392	1395	1382	1379	1381	1376	1367	1362	1359	1359	1362	1379	1384	1385	1386	1383	1382	1395	1403	1400	1382	1362	1342	1340	1346	1364	1379	1387	1382	1381	1377	1373	1374	1375	1373	1370	1369	1378	1381	1379	1384	1385	1381	1382	1387	1392	1395	1392	1398	1406	1406	1401	1397	1399	1397	1399	1396	1391	1384	1381	1382	1382	1384	1371	1339	1336	1338	1352	1371	1382	1382	1396	1391	1395	1413	1422	1425	1420	1427	1446	1458	1479	1493	1501	1518	1518	1514	1502	1506	1511	1478	1485	1482	0	0	0	0	0	1592	1598	1613	1625	1632	1642	1623	1595	1588	1630	1701	0	1927	1716	1687	1662	1659	1643	1642	1637	1654	1662	1666	1673	1697	1717	1722	1706	1688	1680	1676	1674	1610	1561	1451	1439	1438	1426	1404	1402	1400	1411	1408	1411	1416	1410	1400	1404	1404	1405	1401	1400	1394	1393	1399	1413	1417	1413	1395	1392	1404	1402	1406	1396	1397	1403	1411	1419	1414	1406	1390	1389	1401	1410	1418	1431	1425	1420	1408	1398	1404	1405	1403	1383	1380	1376	1372	1365	1375	1386	1397	1396	1407	1409	1418	1416	1415	1413	1405	1371	1367	1374	1399	1406	1405	1396	1380	1373	1380	1401	1404	1405	1395	1400	1421	1427	1433	1425	1413	1400	1397	1403	1407	1411	1412	1412	1404	1371	1363	1368	1373	1385	1400	1416	1420	1421	1410	1395	1384	1376	1366	1364	1375	1397	1405	1399	1390	1376	1364	1360	1360	1370	1368	1366	1363	1355	1364	1364	1369	1378	1386	1395	1404	1403	1386	1371	1367	1372	1384	1384	1385	1392	1397	1393	1393	1400	1405	1408	1418	1421	1421	1418	1405	1396	1376	1379	1390	1387	1381	1377	1388	1389	1381	1382	1385	1385	1373	1373	1373	1369	1370	1379	1382	1370	1381	1377	1364	1366	1381	1389	1375	1375	1368	1367	1367	1374	1393	1398	1381	1372	1368	1377	1390	1388	1382	1378	1364	1370	1370	1364	1376	1405	1400	1401	1405	1411	1414	1422	1444	1446	1426	1407	1392	1372	1373	1383	1393	1394	1398	1399	1395	1390	1381	1402	1420	1432	1419	1390	1380	1382	1414	1428	1415	1386	1360	1353	1350	1372	1394	1405	1411	1417	1428	1410	1414	1398	1404	1412	1399	1372	1349	1347	1363	1373	1366	1374	1400	1442	1440	1413	1406	1428	1465	1506	1529	1518	1495	1476	1466	1458	1449	1440	1431	1429	1431	1434	1431	1417	1416	1431	1448	1441	1405	1403	1410	1417	1424	1417	1413	1406	1404	1402	1393	1395	1398	1403	1399	1381	1378	1392	1399	1397	1393	1391	1392	1389	1391	1399	1405	1405	1398	1395	1388	1394	1399	1400	1399	1394	1385	1381	1377	1378	1376	1370	1369	1368	1379	1407	1404	1394	1386	1376	1370	1399	0	0	0	0	0	0	0	0	0	1649	1661	1673	1672	1683	1683	1686	1671	1657	1641	1636	1616	1589	1546	1509	1495	1498	1474	1463	1470	1431	1426	1427	1431	1430	1422	1421	1429	1438	1435	1430	1436	1447	1462	1470	1465	1448	1426	1419	1419	1414	1419	1422	1425	1430	1434	1445	1433	1410	1400	1424	1433	1452	1469	1465	1434	1434	1436	1427	1412	1412	1426	1433	1431	1427	1407	1408	1422	1432	1438	1435	1423	1411	1406	1405	1409	1415	1423	1423	1419	1409	1409	1395	1387	1389	1393	1397	1401	1410	1413	1407	1394	1382	1383	1384	1383	1383	1380	1384	1399	1404	0	0	0	0	0	0	0
0	0	0	1369	1369	1379	1376	1376	1391	1396	1404	1395	1382	1382	1370	1355	1348	1350	1375	1391	1402	1402	1403	1389	1389	1396	1389	1379	1381	1381	1382	1391	1401	1396	1400	1392	1380	1371	1371	1375	1391	1410	1426	1419	1398	1373	1367	1375	1392	1393	1393	1392	1393	1387	1382	1375	1375	1378	1383	1397	1412	1396	1378	1374	1387	1395	1401	1403	1397	1388	1388	1383	1394	1415	1426	1426	1413	1392	1388	1395	1392	1373	1341	1322	1320	1333	1355	1375	1395	1394	1387	1375	1367	1372	1369	1365	1359	1364	1379	1374	1375	1379	1378	1380	1384	1389	1395	1395	1396	1392	1395	1386	1375	1385	1397	1407	1402	1397	1389	1376	1374	1381	1373	1371	1359	1338	1335	1340	1357	1371	1381	1390	1399	1395	1402	1419	1431	1430	1427	1441	1446	1459	1464	1471	1491	1491	1500	1497	1516	1531	1526	1518	1506	0	0	0	0	0	0	1659	1684	1699	1696	1670	1651	1635	1596	1598	1619	1920	0	0	1711	1693	1687	1682	1684	1690	1683	1676	1676	1676	1683	1688	1703	1700	1697	1689	1680	1676	1675	1598	1561	1451	1440	1440	1430	1409	1406	1410	1413	1416	1420	1421	1414	1396	1389	1396	1402	1401	1400	1390	1387	1396	1408	1412	1406	1398	1400	1399	1399	1408	1411	1413	1409	1409	1409	1404	1389	1382	1387	1397	1405	1412	1428	1432	1435	1427	1421	1416	1417	1419	1414	1413	1419	1414	1414	1420	1429	1442	1450	1476	1501	1525	1528	1537	1531	1489	1425	1421	1418	1434	1475	1481	1470	1448	1421	1414	1396	1392	1389	1381	1378	1382	1378	1363	1351	1352	1352	1365	1385	1409	1440	1464	1487	1475	1428	1417	1421	1425	1420	1417	1408	1396	1389	1379	1359	1331	1313	1308	1341	1390	1427	1422	1400	1370	1360	1370	1371	1370	1366	1356	1348	1354	1358	1367	1357	1355	1365	1373	1368	1347	1343	1343	1347	1342	1361	1414	1385	1380	1379	1376	1370	1378	1389	1399	1404	1408	1424	1425	1420	1409	1398	1370	1380	1392	1390	1384	1375	1381	1383	1372	1377	1394	1382	1363	1362	1367	1364	1367	1372	1383	1378	1374	1372	1366	1372	1391	1393	1378	1378	1376	1372	1376	1383	1407	1402	1391	1391	1399	1403	1412	1412	1406	1383	1340	0	0	0	0	0	0	0	0	0	0	0	0	0	0	0	0	0	0	0	0	0	0	0	0	0	0	0	0	0	0	0	0	0	0	0	0	0	0	0	0	0	0	0	0	0	0	0	0	0	0	0	0	0	0	0	0	0	0	0	0	0	1640	1626	1628	1631	1621	1608	1608	1600	1630	1640	1622	1609	1608	1588	0	0	0	0	0	0	0	0	0	1465	1394	1394	1408	1420	1413	1413	1407	1394	1392	1392	1388	1390	1393	1391	1388	1365	1370	1386	1404	1416	1415	1414	1414	1423	1424	1418	1403	1405	1403	1394	1381	1389	1391	1392	1387	1382	1381	1375	1375	1378	1379	1376	1391	1389	1390	1395	1394	1395	1397	1392	1383	1450	0	0	0	0	0	0	0	0	0	1650	1662	1667	1667	1669	1672	1679	1679	1665	1649	1633	1625	1602	1566	1519	1506	1495	1475	1454	1482	1462	1437	1431	1431	1422	1419	1420	1425	1433	1435	1430	1434	1451	1463	1469	1461	1447	1424	1430	1435	1430	1428	1430	1432	1434	1434	1439	1443	1421	1409	1425	1441	1455	1460	1447	1431	1433	1433	1433	1424	1413	1423	1429	1422	1414	1397	1395	1404	1411	1421	1418	1415	1410	1403	1401	1400	1413	1420	1419	1412	1398	1398	1390	1389	1393	1395	1394	1395	1401	1407	1402	1391	1380	1380	1386	1387	1387	1383	1388	1397	1412	0	0	0	0	0	0	0
0	0	0	1362	1359	1368	1387	1387	1388	1400	1394	1394	1386	1386	1383	1380	1379	1384	1386	1399	1408	1408	1408	1399	1379	1383	1391	1405	1403	1403	1404	1411	1418	1430	1418	1390	1366	1358	1358	1357	1369	1392	1404	1402	1379	1359	1359	1359	1367	1366	1366	1317	1330	1352	1393	1402	1400	1400	1405	1402	1404	1398	1392	1393	1405	1428	1438	1441	1429	1406	1406	1395	1404	1430	1443	1444	1443	1425	1404	1399	1393	1375	1358	1346	1346	1362	1365	1377	1391	1409	1404	1383	1382	1373	1367	1364	1363	1374	1385	1382	1378	1380	1384	1380	1384	1390	1391	1388	1381	1370	1365	1361	1360	1366	1386	1408	1410	1397	1390	1372	1367	1372	1359	1357	1353	1348	1346	1348	1363	1376	1380	1390	1394	1401	1411	1426	1433	1430	1435	1438	1450	1452	1454	1457	1458	1451	1458	1464	1499	1516	1516	1511	1500	1493	0	0	0	0	1653	1677	1705	0	1693	1668	1663	1661	1662	1666	1671	1673	1674	1672	1667	1660	1655	1658	1695	1684	1668	1654	1658	1672	1667	1671	1672	1676	1695	1693	1682	1684	1672	1611	1567	1435	1427	1434	1429	1406	1405	1412	1416	1417	1422	1423	1422	1389	1388	1395	1399	1402	1403	1397	1389	1392	1402	1410	1406	1397	1394	1400	1407	1411	1423	1424	1417	1412	1403	1386	1383	1383	1383	1392	1396	1403	1413	1431	1448	1446	1442	1437	1438	1443	1480	1480	1494	1508	1498	1491	1495	1533	1613	1668	1698	1680	1662	1656	1645	1644	1632	1641	1649	1652	1659	1664	1667	1659	1624	0	0	0	0	0	0	0	0	0	0	0	0	0	0	0	0	0	0	0	0	0	0	0	0	0	0	0	0	0	0	0	0	0	0	0	0	0	0	0	0	0	0	0	0	0	0	0	0	0	0	0	0	0	0	0	0	0	0	0	0	0	1430	1419	1403	1392	1371	1377	1388	1396	1401	1402	1416	1416	1414	1409	1400	1366	1382	1396	1397	1388	1379	1377	1376	1380	1389	1409	1406	1382	1371	1371	1372	1379	1380	1375	1378	1378	1381	1373	1377	1396	1394	1381	1378	1378	1375	1376	1400	1417	1412	1387	1381	1387	1397	1404	1400	1375	1388	0	0	0	0	0	0	0	0	0	0	0	0	0	0	0	0	0	0	0	0	0	0	0	0	0	0	0	0	0	0	0	0	0	0	0	0	0	0	0	0	0	0	0	0	0	0	0	0	0	0	0	0	0	0	0	0	0	0	0	0	0	0	1662	1656	1661	1655	1667	1663	1661	1660	1675	1690	1684	1663	1641	1630	0	0	0	0	0	0	0	0	0	0	1415	1394	1413	1423	1405	1404	1404	1397	1391	1392	1391	1394	1400	1377	1378	1364	1368	1390	1404	1415	1418	1426	1432	1432	1432	1436	1427	1419	1404	1389	1370	1380	1381	1379	1369	1378	1378	1375	1373	1379	1388	1399	1403	1400	1395	1384	1385	1387	1398	1407	1415	1459	0	0	0	0	0	0	0	0	0	0	1666	1668	1671	1672	1679	1682	1688	1672	1660	1636	1616	1588	1557	1520	1494	1486	1472	1425	1482	1474	1447	1443	1435	1428	1427	1430	1437	1433	1430	1430	1434	1444	1456	1463	1458	1443	1438	1434	1435	1432	1434	1432	1435	1435	1434	1442	1456	1447	1426	1440	1441	1446	1444	1432	1425	1417	1422	1436	1437	1427	1417	1421	1417	1409	1400	1402	1404	1409	1418	1421	1421	1418	1418	1408	1403	1406	1414	1416	1414	1404	1404	1395	1392	1390	1384	1382	1376	1398	1409	1408	1387	1377	1382	1396	1398	1398	1397	1397	1405	1416	0	0	0	0	0	0	0
0	0	0	1354	1359	1383	1397	1397	1406	1406	1406	1397	1399	1399	1401	1402	1397	1392	1383	1397	1396	1396	1397	1390	1388	1398	1413	1421	1423	1423	1427	1426	1435	1446	1438	1425	1401	1401	1401	1402	1389	1357	1338	1328	1331	0	0	0	0	0	0	0	0	0	0	0	0	0	0	0	0	0	0	1464	1464	1469	1475	1467	1467	1461	1481	1481	1487	1476	1479	1486	1498	1477	1459	1453	1455	1491	1486	0	0	0	1404	1390	1403	1417	1422	1402	1382	1365	1356	1365	1375	1388	1399	1395	1394	1384	1390	1388	1385	1394	1392	1378	1372	1363	1358	1349	1351	1364	1383	1402	1405	1394	1387	1370	1361	1364	1355	1355	1346	1359	1360	1362	1372	1378	1379	1392	1391	1398	1413	1438	1439	1433	1436	1440	1453	1461	1462	1457	1441	1430	1417	1425	1463	1483	1486	1486	1481	1476	0	0	0	1625	1641	1639	1650	1670	1676	1669	1672	1671	1677	1681	1684	1683	1670	1667	1662	1654	1650	1659	1666	1667	1666	1671	1679	1682	1672	1665	1664	1668	1688	1701	1693	1689	1678	1628	1577	1431	1422	1428	1415	1397	1398	1413	1417	1417	1418	1423	1423	1406	1398	1399	1400	1399	1403	1400	1402	1400	1406	1415	1414	1404	1401	1402	1407	1416	1431	1420	1422	1410	1402	1392	1388	1386	1386	1383	1387	1390	1402	1413	1446	1456	1452	1455	1457	1480	1505	0	0	0	0	0	0	0	1616	1682	1701	1707	1698	1675	1666	1658	1653	1667	1683	1689	1682	1675	1694	1684	1673	0	0	0	0	0	0	0	0	0	0	0	0	0	0	0	0	0	0	0	0	0	0	0	0	0	0	0	0	0	0	0	0	0	0	0	0	0	0	0	0	0	0	0	0	0	0	0	0	0	0	0	0	0	0	0	0	0	0	0	0	0	0	1420	1407	1401	1389	1379	1390	1403	1404	1401	1405	1406	1407	1405	1387	1359	1387	1400	1403	1404	1383	1388	1389	1389	1398	1407	1402	1390	1383	1374	1372	1368	1368	1380	1388	1388	1391	1381	1394	1398	1397	1382	1384	1383	1380	1381	1393	1419	1410	1384	1369	1376	1392	1395	1378	1373	0	0	0	0	0	0	0	0	0	0	0	0	0	0	0	0	0	0	0	0	0	0	0	0	0	0	0	0	0	0	0	0	0	0	0	0	0	0	0	0	0	0	0	0	0	0	0	0	0	0	0	0	0	0	0	0	0	0	0	0	0	0	0	1687	1687	1689	1688	1698	1700	1702	1695	1694	1711	1713	1699	1681	1655	1634	0	0	0	0	0	0	0	0	0	1436	1429	1431	1444	1417	1407	1405	1402	1401	1396	1384	1375	1379	1380	1378	1365	1369	1383	1391	1400	1413	1417	1426	1432	1438	1447	1451	1444	1402	1377	1372	1380	1385	1379	1378	1380	1383	1383	1378	1380	1385	1396	1401	1394	1378	1369	1374	1381	1393	1414	1429	1459	0	0	0	0	0	0	0	0	0	0	1668	1673	1680	1682	1687	1695	1713	1668	1658	1639	1610	1571	1532	1506	1486	1467	1458	1424	1479	1477	1448	1446	1445	1443	1440	1442	1444	1439	1439	1432	1432	1443	1452	1460	1457	1446	1437	1421	1422	1421	1425	1427	1430	1430	1437	1444	1457	1464	1452	1454	1446	1441	1437	1432	1423	1419	1424	1437	1445	1438	1419	1417	1417	1413	1411	1409	1406	1405	1413	1411	1413	1422	1426	1423	1415	1410	1418	1424	1430	1415	1415	1403	1396	1387	1379	1378	1378	1388	1407	1415	1410	1389	1396	1403	1403	1407	1408	1409	1411	1417	0	0	0	0	0	0	0
0	0	0	1356	1368	1394	1401	1401	1412	1423	1424	1428	1430	1430	1430	1426	1420	1412	1404	1403	1394	1394	1389	1392	1397	1414	1425	1433	1431	1431	1433	1431	1435	1441	1440	1429	1423	0	0	0	0	0	0	0	0	0	0	0	0	0	0	0	0	0	0	0	0	0	0	0	0	0	0	1493	1496	1505	1496	1486	1490	1499	1510	1510	1526	1537	1538	1548	1537	1525	1521	1527	1533	1533	1536	0	0	0	0	1409	1395	1406	1420	1400	1390	1383	1375	1375	1390	1404	1407	1399	1394	1391	1392	1386	1388	1394	1391	1374	1375	1374	1364	1350	1351	1359	1381	1397	1400	1392	1384	1370	1365	1362	1360	1358	1355	1369	1373	1370	1371	1380	1381	1396	1389	1396	1416	1434	1436	1432	1441	1453	1468	1478	1481	1467	1441	1421	1409	1414	1446	1460	1469	1472	1469	0	0	0	0	1648	1643	1633	1631	1644	1672	1679	1679	1669	1670	1673	1683	1688	1685	1674	1659	1657	1652	1659	1666	1671	1678	1683	1691	1685	1668	1663	1662	1662	1677	1702	1706	1709	1701	1622	1570	1430	1425	1428	1407	1392	1400	1414	1420	1415	1415	1416	1422	1421	1415	1406	1404	1403	1404	1408	1414	1410	1417	1425	1412	1402	1406	1400	1401	1405	1422	1426	1423	1416	1412	1408	1404	1399	1392	1392	1391	1390	1390	1406	1434	1456	1457	1460	1479	1518	1531	0	0	0	0	0	0	0	1654	1706	1713	1734	1725	1696	1675	1669	1684	1693	1713	1718	1701	1683	1689	1703	1691	0	0	0	0	0	0	0	0	0	0	0	0	0	0	0	0	0	0	0	0	0	0	0	0	0	0	0	0	0	0	0	0	0	0	0	0	0	0	0	0	0	0	0	0	0	0	0	0	0	0	0	0	0	0	0	0	0	0	0	0	0	0	0	1399	1409	1395	1390	1394	1404	1409	1397	1392	1394	1398	1402	1399	1386	1392	1390	1387	1388	1383	1378	1377	1378	1387	1400	1396	1392	1384	1380	1370	1363	1362	1364	1388	1381	1380	1385	1390	1396	1391	1390	1386	1390	1393	1393	1389	1415	1409	1378	1369	1372	1395	1397	1382	0	0	0	0	0	0	0	0	0	0	0	0	0	0	0	0	0	0	0	0	0	0	0	0	0	0	0	0	0	0	0	0	0	0	0	0	0	0	0	0	0	0	0	0	0	0	0	0	0	0	0	0	0	0	0	0	0	0	0	0	0	0	0	0	1705	1696	1689	1695	1703	1709	1713	1701	1703	1714	1717	1711	1689	1674	1640	0	0	0	0	0	0	0	0	0	0	1454	1456	1466	1453	1405	1403	1405	1408	1397	1365	1362	1368	1376	1408	1398	1398	1389	1374	1379	1392	1418	1430	1444	1453	1458	1451	1445	1417	1379	1376	1390	1393	1390	1392	1394	1394	1388	1381	1379	1379	1384	1389	1382	1376	1368	1378	1384	1389	1421	1437	1453	0	0	0	0	0	0	0	0	0	0	1667	1671	1689	1693	1769	1761	1709	1672	1649	1628	1600	1556	1511	1481	1471	1456	1449	1430	1472	1466	1439	1445	1451	1456	1452	1449	1446	1444	1440	1436	1437	1444	1454	1457	1453	1443	1434	1421	1411	1414	1416	1415	1421	1426	1436	1436	1447	1473	1469	1451	1442	1445	1450	1430	1424	1424	1429	1437	1444	1440	1425	1420	1421	1419	1417	1408	1404	1403	1400	1403	1417	1421	1418	1421	1425	1427	1429	1435	1436	1436	1417	1415	1401	1391	1389	1387	1387	1395	1406	1413	1409	1400	1391	1389	1389	1396	1406	1406	1411	1415	0	0	0	0	0	0	0
0	0	0	1370	1382	1402	1401	1401	1419	1431	1442	1446	1444	1435	1435	1446	1447	1441	1436	1424	1408	1408	1394	1401	1403	1413	1431	1440	1441	1441	1443	1435	1428	1429	1437	1436	1437	0	0	0	0	0	0	0	0	0	0	0	0	0	0	0	0	0	0	0	0	0	0	0	0	1557	1519	1521	1532	1548	1537	1528	1523	1533	1544	1544	1565	1577	1588	1581	1579	1567	1560	1573	1588	1588	1578	1576	0	0	0	1459	1397	1399	1407	1393	1382	1380	1379	1381	1392	1401	1404	1395	1382	1376	1382	1382	1386	1388	1386	1366	1372	1378	1369	1353	1348	1356	1373	1386	1387	1381	1373	1370	1368	1369	1375	1377	1380	1377	1377	1379	1377	1374	1378	1408	1396	1408	1420	1427	1425	1430	1444	1461	1470	1479	1482	1470	1442	1428	1417	1420	1445	1458	1467	1479	1487	0	0	0	0	1664	1650	1637	1637	1633	1674	1686	1679	1671	1665	1666	1682	1694	1695	1685	1673	1667	1660	1660	1664	1676	1689	1689	1694	1686	1674	1670	1674	1677	1679	1698	1704	1708	1698	1612	1573	1467	1458	1448	1430	1422	1418	1423	1424	1419	1415	1409	1418	1416	1421	1417	1410	1412	1417	1422	1423	1427	1431	1433	1414	1401	1400	1399	1397	1400	1409	1412	1414	1416	1418	1421	1418	1419	1410	1401	1399	1391	1389	1403	1423	1447	1446	1460	1479	1511	1532	0	0	0	0	0	0	0	1666	1719	1737	1740	1735	1720	1709	1703	1707	1726	1733	1733	1712	1694	1703	1719	1728	0	0	0	0	0	0	0	0	0	0	0	0	0	0	0	0	0	0	0	0	0	0	0	0	0	0	0	0	0	0	0	0	0	0	0	0	0	0	0	0	0	0	0	0	0	0	0	0	0	0	0	0	0	0	0	0	0	0	0	0	0	0	0	1407	1414	1405	1399	1400	1409	1403	1391	1385	1390	1397	1407	1408	1400	1393	1383	1384	1384	1380	1378	1374	1377	1368	1380	1398	1396	1398	1386	1372	1360	1364	1354	1372	1382	1384	1388	1393	1403	1395	1393	1392	1400	1401	1398	1386	1405	1413	1388	1382	1385	1412	1428	1410	0	0	0	0	0	0	0	0	0	0	0	0	0	0	0	0	0	0	0	0	0	0	0	0	0	0	0	0	0	0	0	0	0	0	0	0	0	0	0	0	0	0	0	0	0	0	0	0	0	0	0	0	0	0	0	0	0	0	0	0	0	0	0	0	1716	1690	1683	1692	1697	1702	1707	1708	1707	1705	1705	1701	1695	1677	1648	0	0	0	0	0	0	0	0	0	0	1464	1460	1461	1451	1411	1399	1419	1423	1418	1375	1365	1370	1381	1419	1410	1405	1396	1381	1381	1391	1409	1427	1439	1454	1460	1455	1439	1419	1397	1385	1397	1404	1406	1410	1407	1399	1392	1381	1378	1378	1384	1386	1387	1375	1368	1375	1391	1398	1428	1451	1468	0	0	0	0	0	0	0	0	0	0	1657	1670	1688	1695	1760	1691	1681	1663	1651	1628	1589	1538	1490	1458	1441	1442	1436	1435	1476	1444	1432	1439	1447	1455	1456	1450	1446	1446	1444	1435	1438	1445	1454	1452	1447	1439	1432	1422	1415	1416	1415	1410	1419	1425	1427	1429	1433	1470	1462	1448	1446	1451	1450	1422	1426	1425	1431	1434	1440	1440	1429	1428	1429	1430	1424	1415	1408	1405	1404	1413	1420	1421	1413	1420	1426	1435	1438	1437	1434	1434	1422	1418	1415	1412	1405	1396	1391	1394	1400	1407	1402	1389	1381	1381	1381	1390	1402	1413	1412	1402	0	0	0	0	0	0	0
0	0	0	1393	1392	1405	1421	1421	1431	1448	1444	1446	1446	1439	1439	1445	1454	1457	1450	1442	1432	1432	1424	1419	1412	1415	1431	1440	1458	1458	1459	1453	1441	1463	1460	1457	1446	0	0	0	0	0	0	0	0	0	0	0	0	0	0	0	0	0	0	0	0	0	1563	1754	1763	1540	1530	1544	1564	1579	1579	1570	1553	1555	1575	1575	1594	1789	1790	1594	1586	1588	1592	1593	1604	1599	1599	1596	1588	0	0	1491	1403	1395	1397	1384	1371	1373	1377	1384	1393	1396	1391	1383	1370	1366	1366	1367	1374	1382	1379	1364	1370	1373	1369	1354	1348	1353	1364	1369	1374	1373	1372	1374	1377	1379	1380	1384	1386	1381	1380	1381	1382	1372	1377	1406	1398	1412	1419	1418	1416	1424	1439	1448	1456	1459	1461	1455	1443	1444	1440	1436	1452	1472	1480	1496	1498	0	0	0	0	1664	1659	1653	1639	1636	1653	1684	1682	1666	1660	1665	1681	1691	1703	1701	1692	1679	1673	1662	1665	1672	1685	1685	1690	1678	1673	1680	1691	1699	1694	1701	1701	1703	1691	1622	1608	1505	1476	1457	1441	1426	1423	1421	1422	1428	1422	1419	1418	1413	1415	1418	1422	1423	1421	1424	1422	1431	1433	1429	1416	1406	1396	1400	1406	1406	1400	1398	1404	1413	1416	1421	1423	1428	1424	1412	1400	1396	1396	1403	1420	1437	1438	1455	1474	1499	1522	0	0	0	0	0	0	0	0	1720	1730	1749	1745	1738	1723	1716	1730	1740	1743	1724	1715	1707	1704	1721	1726	0	0	0	0	0	0	0	0	0	0	0	0	0	0	0	0	0	0	0	0	0	0	0	0	0	0	0	0	0	0	0	0	0	0	0	0	0	0	0	0	0	0	0	0	0	0	0	0	0	0	0	0	0	0	0	0	0	0	0	0	0	0	0	1408	1414	1410	1402	1403	1411	1396	1374	1381	1396	1400	1414	1415	1400	1384	1370	1379	1376	1379	1388	1386	1382	1364	1365	1386	1394	1404	1383	1379	1358	1359	1366	1368	1389	1395	1401	1424	1426	1404	1392	1394	1397	1403	1400	1388	1409	1422	1405	1404	1412	1435	1449	1419	0	0	0	0	0	0	0	0	0	0	0	0	0	0	0	0	0	0	0	0	0	0	0	0	0	0	0	0	0	0	0	0	0	0	0	0	0	0	0	0	0	0	0	0	0	0	0	0	0	0	0	0	0	0	0	0	0	0	0	0	0	0	0	0	1731	1690	1684	1690	1700	1704	1711	1716	1713	1700	1696	1685	1688	1685	1668	0	0	0	0	0	0	0	0	0	0	0	1447	1441	1438	1436	1422	1424	1427	1417	1370	1368	1373	1381	1415	1403	1406	1399	1389	1392	1394	1406	1415	1424	1430	1447	1442	1434	1416	1399	1387	1397	1409	1416	1416	1415	1404	1392	1378	1373	1382	1391	1397	1394	1382	1376	1385	1401	1415	1437	1457	1461	0	0	0	0	0	0	0	0	0	0	1648	1670	1678	1688	1683	1672	1655	1647	1641	1617	1586	1534	1468	1439	1423	1418	1423	1432	1463	1444	1435	1437	1441	1453	1452	1449	1444	1443	1434	1424	1419	1437	1441	1440	1434	1429	1428	1427	1428	1421	1425	1420	1425	1425	1425	1420	1424	1468	1464	1447	1447	1447	1445	1423	1423	1435	1437	1436	1441	1443	1434	1430	1430	1431	1425	1415	1409	1405	1409	1418	1426	1428	1426	1423	1428	1436	1442	1435	1431	1431	1424	1422	1421	1414	1412	1396	1392	1391	1396	1399	1395	1389	1382	1381	1381	1388	1401	1415	1413	1405	0	0	0	0	0	0	0
0	0	0	1383	1386	1405	1427	1427	1439	1446	1439	1438	1438	1439	1439	1450	1458	1459	1462	1460	1460	1460	1447	1436	1418	1423	1433	1452	1470	1470	1475	1479	1485	1487	1485	1474	1452	0	0	0	0	0	0	0	0	0	0	0	0	0	0	0	0	0	0	0	0	1560	1759	1770	1567	1537	1533	1554	1583	0	0	1591	1574	1567	1586	1586	1797	0	1801	1582	1586	1580	1591	1587	1596	1597	1597	1598	1599	1578	0	1492	1407	1400	1401	1385	1376	1376	1384	1387	1388	1391	1391	1380	1371	1362	1360	1361	1367	1374	1372	1368	1363	1377	1375	1366	1358	1353	1359	1363	1369	1373	1379	1383	1387	1384	1383	1389	1387	1381	1382	1383	1384	1373	1386	1399	1395	1398	1412	1413	1420	1423	1423	1422	1421	1420	1429	1435	1447	1468	1455	1445	1463	1467	1489	1495	1506	0	0	0	0	0	1675	1660	1642	1642	1653	1676	1674	1662	1662	1668	1669	1689	1700	1704	1702	1691	1683	1670	1670	1677	1679	1684	1694	1687	1682	1705	1705	1718	1710	1700	1695	1695	1684	1637	1623	1536	1476	1441	1430	1433	1427	1421	1420	1415	1421	1417	1407	1398	1400	1413	1422	1427	1425	1421	1414	1417	1418	1420	1411	1401	1396	1411	1418	1418	1397	1398	1406	1411	1415	1412	1415	1423	1423	1411	1406	1401	1402	1413	1424	1428	1428	1452	1469	1501	1520	0	0	0	0	0	0	0	0	1693	1719	1743	1748	1740	1736	1734	1737	1749	1744	1723	1711	1694	1705	1715	1695	0	0	0	0	0	0	0	0	0	0	0	0	0	0	0	0	0	0	0	0	0	0	0	0	0	0	0	0	0	0	0	0	0	0	0	0	0	0	0	0	0	0	0	0	0	0	0	0	0	0	0	0	0	0	0	0	0	0	0	0	0	0	0	1408	1405	1396	1392	1399	1408	1410	1376	1387	1401	1406	1416	1412	1400	1375	1364	1372	1374	1383	1391	1394	1388	1372	1371	1382	1397	1381	1366	1365	1362	1367	1369	1355	1389	1416	1427	1434	1424	1402	1388	1392	1401	1408	1405	1395	1418	1435	1427	1426	1434	1446	1447	1424	0	0	0	0	0	0	0	0	0	0	0	0	0	0	0	0	0	0	0	0	0	0	0	0	0	0	0	0	0	0	0	0	0	0	0	0	0	0	0	0	0	0	0	0	0	0	0	0	0	0	0	0	0	0	0	0	0	0	0	0	0	0	0	0	1714	1700	1696	1702	1710	1722	1725	1710	1700	1699	1684	1685	1690	1698	1697	0	0	0	0	0	0	0	0	0	0	0	1455	1433	1424	1430	1428	1432	1429	1411	1373	1372	1376	1391	1399	1395	1397	1395	1399	1396	1401	1401	1405	1408	1411	1423	1421	1423	1414	1403	1388	1389	1399	1406	1412	1414	1401	1388	1384	1378	1386	1400	1406	1401	1379	1378	1389	1403	1410	1423	1443	1455	0	0	0	0	0	0	0	0	0	0	1658	1658	1661	1664	1661	1658	1647	1646	1638	1619	1587	1545	1467	1425	1405	1405	1417	1435	1444	1433	1432	1436	1438	1444	1446	1445	1443	1441	1432	1422	1415	1421	1422	1418	1415	1417	1424	1428	1428	1433	1434	1433	1432	1427	1422	1419	1424	1456	1444	1434	1436	1439	1444	1426	1433	1441	1442	1439	1442	1441	1437	1433	1431	1430	1423	1414	1410	1406	1410	1418	1434	1442	1438	1431	1426	1429	1431	1429	1430	1430	1428	1430	1430	1421	1409	1394	1391	1393	1396	1394	1393	1393	1387	1388	1388	1393	1403	1408	1411	1406	0	0	0	0	0	0	0
0	0	0	1378	1383	1396	1425	1425	1437	1424	1427	1423	1426	1435	1435	1443	1463	1461	1472	1477	1476	1476	1476	1457	1435	1432	1454	1474	1478	1478	1479	1484	1498	1506	1503	1492	0	0	0	0	0	0	0	0	0	0	0	0	0	0	0	0	0	0	0	0	0	1575	0	1779	1559	1529	1527	1546	1579	1804	0	1592	1567	1566	1576	1576	1593	1803	1592	1583	1576	1590	1596	1589	1587	1588	1596	1598	1599	1579	1530	1476	1402	1397	1401	1388	1388	1394	1393	1392	1392	1396	1397	1386	1375	1368	1364	1361	1367	1372	1379	1376	1371	1382	1385	1383	1372	1363	1360	1359	1365	1375	1383	1388	1381	1382	1384	1391	1394	1379	1380	1383	1381	1372	1384	1389	1395	1400	1414	1422	1420	1423	1419	1419	1418	1408	1417	1441	1472	1485	1485	1466	1461	1463	1478	1502	1503	0	0	0	0	0	1666	1645	1644	1650	1652	1666	1663	1657	1660	1666	1668	1682	1693	1696	1702	1695	1681	1679	1678	1681	1689	1697	1710	1701	1704	1710	1723	1719	1719	1696	1687	1679	1677	1640	1623	1544	1460	1426	1423	1437	1430	1421	1413	1409	1407	1406	1399	1390	1400	1413	1421	1426	1418	1405	1396	1399	1403	1401	1406	1401	1405	1420	1433	1432	1398	1401	1404	1405	1409	1396	1405	1417	1416	1408	1403	1407	1411	1421	1424	1420	1411	1452	1477	1500	1522	0	0	0	0	0	0	0	0	1667	1702	1722	1739	1744	1742	1742	1740	1730	1727	1710	1700	1691	1697	1702	1678	0	0	0	0	0	0	0	0	0	0	0	0	0	0	0	0	0	0	0	0	0	0	0	0	0	0	0	0	0	0	0	0	0	0	0	0	0	0	0	0	0	0	0	0	0	0	0	0	0	0	0	0	0	0	0	0	0	0	0	0	0	0	0	1406	1401	1386	1383	1397	1401	1410	1406	1399	1403	1406	1413	1415	1398	1377	1359	1364	1373	1385	1393	1398	1397	1390	1395	1391	1367	1362	1348	1360	1369	1375	1374	1374	1389	1404	1413	1418	1416	1398	1398	1397	1403	1409	1410	1397	1423	1443	1436	1432	1437	1443	1432	1420	0	0	0	0	0	0	0	0	0	0	0	0	0	0	0	0	0	0	0	0	0	0	0	0	0	0	0	0	0	0	0	0	0	0	0	0	0	0	0	0	0	0	0	0	0	0	0	0	0	0	0	0	0	0	0	0	0	0	0	0	0	0	0	0	1710	1714	1726	1734	1733	1734	1725	1697	1684	1692	1693	1697	1700	1709	1716	0	0	0	0	0	0	0	0	0	0	0	1472	1444	1414	1415	1426	1432	1433	1417	1386	1377	1377	1386	1392	1393	1397	1401	1413	1412	1411	1409	1406	1403	1417	1425	1425	1409	1406	1397	1385	1387	1386	1393	1404	1412	1405	1398	1398	1390	1394	1403	1408	1406	1392	1394	1393	1396	1398	1397	1414	1449	0	0	0	0	0	0	0	0	0	0	1663	1662	1655	1652	1649	1638	1633	1627	1623	0	0	1540	1485	1436	1410	1419	1422	1437	1430	1429	1430	1436	1438	1443	1444	1444	1443	1442	1436	1428	1414	1410	1406	1406	1405	1414	1417	1423	1428	1434	1440	1440	1432	1425	1419	1430	1436	1454	1443	1442	1443	1447	1459	1438	1429	1440	1440	1435	1436	1432	1430	1431	1429	1428	1420	1413	1405	1402	1406	1420	1439	1449	1445	1435	1422	1415	1419	1424	1431	1431	1429	1424	1423	1422	1406	1397	1401	1400	1403	1399	1397	1394	1394	1392	1392	1392	1399	1401	1407	1402	0	0	0	0	0	0	0
0	0	0	1382	1391	1399	1412	1412	1419	1417	1420	1410	1413	1428	1428	1447	1464	1473	1479	1484	1484	1484	1480	1466	1448	1460	1470	1476	1479	1479	1472	1479	1492	1499	1500	1496	0	0	0	0	0	0	0	0	0	0	0	0	0	0	0	0	0	0	0	0	1568	1767	1774	1783	1562	1532	1533	1543	1570	1580	1584	1569	1560	1550	1560	1560	1577	1586	1579	1577	1591	1602	1604	1605	1588	1586	1589	1598	1588	1558	1511	1451	1389	1392	1391	1385	1394	1403	1399	1395	1396	1400	1401	1397	1390	1384	1373	1373	1378	1379	1388	1393	1392	1393	1398	1394	1390	1373	1358	1354	1360	1370	1376	1377	1372	1374	1383	1394	1402	1384	1381	1383	1381	1371	1388	1382	1395	1403	1417	1426	1422	1418	1421	1430	1428	1424	1433	1451	1477	1495	1494	1480	1464	1455	1470	1485	1506	0	0	0	0	0	1638	1639	1640	1660	1663	1665	1658	1649	1659	1669	1676	1677	1682	1685	1686	1672	1673	1675	1678	1683	1701	1721	1722	1704	1693	1699	1705	1709	1704	1691	1681	1671	1658	1630	1613	1518	1439	1410	1415	1433	1427	1415	1405	1402	1399	1401	1402	1400	1407	1410	1414	1414	1407	1399	1392	1390	1398	1408	1415	1408	1413	1424	1435	1433	1416	1398	1402	1406	1404	1391	1402	1409	1412	1411	1415	1417	1413	1420	1417	1410	1405	1440	1460	1493	1514	0	0	0	0	0	0	0	0	1659	1685	1708	1732	1750	1754	1740	1716	1711	1708	1702	1693	1688	1696	1705	1684	0	0	0	0	0	0	0	0	0	0	0	0	0	0	0	0	0	0	0	0	0	0	0	0	0	0	0	0	0	0	0	0	0	0	0	0	0	0	0	0	0	0	0	0	0	0	0	0	0	0	0	0	0	0	0	0	0	0	0	0	0	0	0	1424	1417	1384	1383	1389	1400	1416	1410	1392	1396	1399	1417	1420	1407	1383	1380	1366	1374	1384	1395	1401	1402	1407	1395	1370	1362	1361	1354	1364	1369	1370	1361	1366	1390	1401	1406	1408	1407	1422	1405	1404	1405	1406	1398	1393	1412	1432	1432	1425	1430	1441	1432	1411	0	0	0	0	0	0	0	0	0	0	0	0	0	0	0	0	0	0	0	0	0	0	0	0	0	0	0	0	0	0	0	0	0	0	0	0	0	0	0	0	0	0	0	0	0	0	0	0	0	0	0	0	0	0	0	0	0	0	0	0	0	0	0	0	1717	1727	1741	1750	1741	1735	1716	1690	1688	1692	1708	1710	1700	1686	1672	0	0	0	0	0	0	0	0	0	0	0	0	1465	1413	1411	1425	1427	1435	1421	1401	1377	1383	1377	1385	1384	1393	1414	1426	1427	1422	1417	1418	1418	1421	1430	1421	1405	1394	1381	1381	1391	1385	1386	1397	1412	1420	1414	1403	1396	1391	1396	1401	1401	1404	1403	1403	1398	1395	1391	1402	1444	0	0	0	0	0	0	0	0	0	1678	1682	1685	1666	1641	1637	1624	1618	1615	0	0	0	1515	1500	1474	1444	1431	1429	1424	1414	1423	1423	1422	1425	1432	1434	1436	1441	1439	1432	1413	1402	1390	1396	1396	1393	1401	1409	1419	1422	1425	1435	1431	1427	1429	1432	1444	1461	1454	1455	1459	1459	1464	1470	1445	1431	1430	1420	1430	1428	1421	1422	1425	1430	1425	1417	1405	1403	1404	1408	1424	1438	1449	1446	1432	1412	1405	1413	1426	1432	1432	1421	1409	1399	1395	1392	1390	1405	1410	1413	1408	1402	1396	1398	1397	1397	1390	1389	1390	1387	1381	0	0	0	0	0	0	0
0	0	0	1386	1394	1397	1404	1404	1404	1408	1414	1416	1419	1428	1428	1441	1447	1463	1465	1471	1475	1475	1467	1441	1438	1456	1466	1476	1472	1472	1464	1469	1475	1476	1478	1485	1505	0	0	0	0	0	0	0	0	0	0	0	0	0	0	0	0	0	0	0	1568	1580	1580	1571	1562	1554	1549	1568	1577	1573	1576	1561	1553	1534	1534	1534	1551	1569	1579	1598	1822	0	1826	1605	1596	1588	1591	1591	1589	0	0	1435	1385	1380	1383	1381	1388	1392	1393	1385	1391	1393	1398	1398	1397	1391	1380	1374	1379	1385	1393	1401	1400	1399	1409	1411	1403	1386	1356	1348	1359	1368	1376	1370	1366	1372	1383	1402	1410	1388	1376	1378	1386	1392	1395	1381	1389	1402	1418	1423	1419	1416	1429	1441	1451	1459	1455	1465	1481	1488	1488	1485	1468	1463	1471	1492	1520	0	0	0	0	1613	1614	1633	1649	1666	1673	1665	1652	1655	1655	1665	1669	1678	1682	1679	1669	1661	1658	1668	1679	1687	1706	1726	1721	1695	1668	1671	1680	1681	1681	1690	1680	1668	1655	1614	1579	1480	1422	1406	1412	1418	1410	1400	1404	1408	1408	1409	1410	1417	1412	1405	1403	1404	1406	1398	1389	1386	1393	1410	1424	1429	1427	1417	1414	1424	1411	1392	1397	1405	1402	1396	1401	1406	1417	1420	1431	1424	1419	1418	1412	1406	1406	1438	1451	1490	1499	0	0	0	0	0	0	0	0	1659	1687	1705	1717	1735	1750	1739	1713	1701	1699	1702	1702	1700	1712	1719	1710	0	0	0	0	0	0	0	0	0	0	0	0	0	0	0	0	0	0	0	0	0	0	0	0	0	0	0	0	0	0	0	0	0	0	0	0	0	0	0	0	0	0	0	0	0	0	0	0	0	0	0	0	0	0	0	0	0	0	0	0	0	0	0	1441	1422	1398	1394	1381	1402	1417	1407	1385	1389	1391	1411	1413	1410	1399	1398	1396	1395	1390	1384	1382	1398	1402	1377	1371	1364	1361	1364	1368	1371	1372	1368	1372	1388	1397	1401	1406	1405	1423	1410	1406	1402	1399	1391	1383	1401	1418	1410	1413	1423	1441	1438	1419	0	0	0	0	0	0	0	0	0	0	0	0	0	0	0	0	0	0	0	0	0	0	0	0	0	0	0	0	0	0	0	0	0	0	0	0	0	0	0	0	0	0	0	0	0	0	0	0	0	0	0	0	0	0	0	0	0	0	0	0	0	0	0	0	1721	1747	1752	1748	1739	1721	1694	1696	1718	1715	1715	1711	1693	1676	1674	0	0	0	0	0	0	0	0	0	0	0	0	1481	1420	1409	1414	1419	1423	1413	1401	1383	1376	1373	1381	1387	1403	1432	1439	1437	1428	1422	1419	1420	1420	1427	1416	1397	1388	1376	1388	1398	1386	1381	1391	1415	1426	1420	1412	1400	1394	1392	1394	1394	1403	1408	1396	1398	1400	1400	1406	1437	0	0	0	0	0	0	0	0	0	0	1692	1695	1691	1642	1619	1604	1597	0	0	0	0	0	1499	1488	1474	1458	1439	1423	1403	1414	1420	1419	1403	1397	1401	1413	1424	1434	1430	1415	1405	1397	1393	1390	1392	1403	1438	1439	1426	1404	1407	1422	1435	1453	1461	1460	1460	1464	1475	1469	1469	1476	1480	1452	1432	1423	1415	1419	1415	1408	1417	1423	1428	1421	1410	1401	1402	1404	1419	1430	1435	1442	1438	1424	1405	1403	1414	1427	1427	1427	1410	1400	1397	1387	1390	1395	1396	1404	1411	1409	1404	1400	1397	1401	1401	1390	1382	1377	1371	1368	0	0	0	0	0	0	0
0	0	0	1412	1416	1416	1411	1411	1407	1400	1411	1412	1416	1423	1423	1432	1430	1439	1446	1457	1463	1454	1455	1447	1442	1453	1467	1471	1464	1464	1464	1470	1477	1477	1477	1490	1514	0	0	0	0	0	0	0	0	0	0	0	0	0	0	0	0	0	0	0	1567	1561	1549	1561	1562	1572	1577	1577	1571	1577	1575	1568	1551	1534	1534	1536	1536	1555	1582	1600	0	0	1824	1593	1587	1590	1594	1601	1589	0	0	1435	1392	1385	1387	1380	1381	1377	1378	1381	1385	1396	1401	1400	1400	1390	1374	1371	1377	1385	1396	1405	1402	1407	1411	1415	1406	1386	1363	1357	1365	1381	1386	1377	1372	1380	1397	1406	1408	1396	1390	1390	1395	1420	1414	1380	1384	1394	1415	1419	1414	1410	1422	1450	1473	1473	1466	1470	1476	1482	1484	1482	1487	1483	1483	1504	1513	0	0	0	0	1590	1606	1627	1647	1665	1673	1663	1654	1645	1652	1661	1674	1673	1676	1672	1664	1651	1650	1663	1675	1691	1703	1724	1717	1690	1659	1650	1655	1664	1663	1687	1676	1668	1654	1603	1574	1471	1427	1424	1415	1413	1404	1404	1414	1426	1428	1430	1429	1431	1422	1410	1405	1404	1410	1403	1390	1382	1391	1406	1424	1434	1426	1414	1407	1408	1406	1411	1403	1401	1404	1400	1399	1412	1428	1433	1432	1427	1424	1418	1414	1416	1439	1445	1455	1485	1481	0	0	0	0	0	0	0	0	1670	1690	1702	1716	1720	1744	1743	1735	1714	1712	1720	1718	1721	1724	1725	1719	0	0	0	0	0	0	0	0	0	0	0	0	0	0	0	0	0	0	0	0	0	0	0	0	0	0	0	0	0	0	0	0	0	0	0	0	0	0	0	0	0	0	0	0	0	0	0	0	0	0	0	0	0	0	0	0	0	0	0	0	0	0	0	1443	1441	1438	1431	1407	1412	1420	1409	1390	1385	1389	1400	1402	1397	1396	1404	1403	1400	1393	1387	1378	1381	1391	1378	1376	1364	1366	1368	1375	1378	1372	1367	1379	1386	1391	1394	1398	1399	1419	1412	1407	1400	1385	1379	1381	1405	1416	1409	1408	1422	1439	1449	1435	0	0	0	0	0	0	0	0	0	0	0	0	0	0	0	0	0	0	0	0	0	0	0	0	0	0	0	0	0	0	0	0	0	0	0	0	0	0	0	0	0	0	0	0	0	0	0	0	0	0	0	0	0	0	0	0	0	0	0	0	0	0	0	0	1733	1751	1764	1754	1728	1717	1723	1730	1727	1715	1705	1701	1685	1668	1685	0	0	0	0	0	0	0	0	0	0	0	0	1465	1430	1416	1409	1407	1408	1406	1400	1383	1377	1374	1378	1401	1401	1422	1436	1441	1430	1414	1413	1409	1414	1412	1408	1398	1388	1384	1394	1398	1377	1379	1392	1412	1423	1424	1420	1413	1407	1398	1395	1390	1382	1391	1389	1394	1402	1409	1412	1442	0	0	0	0	0	0	0	0	0	0	1695	1696	1683	1647	1619	1594	0	0	0	0	0	0	1503	1499	1484	1465	1446	1417	1405	1407	1425	1414	1411	1395	1400	1400	1411	1417	1427	1427	1413	1409	1406	1413	1425	1445	1477	0	0	1434	1430	1433	1428	1437	1444	1447	1460	1458	1463	1466	1467	1481	1483	1451	1433	1419	1410	1409	1407	1406	1414	1422	1424	1417	1405	1404	1410	1419	1431	1432	1435	1435	1429	1422	1412	1406	1416	1427	1422	1422	1415	1407	1404	1394	1401	1397	1395	1396	1402	1406	1400	1394	1392	1397	1397	1392	1380	1366	1357	1353	0	0	0	0	0	0	0
0	0	0	1444	1450	1449	1429	1420	1420	1419	1407	1403	1411	1413	1413	1415	1422	1423	1432	1444	1445	1445	1452	1463	1469	1468	1478	1471	1471	1471	1479	1484	1490	1481	1504	1514	1530	0	0	0	0	0	0	0	0	0	0	0	0	0	0	0	0	0	0	0	1557	1524	1522	1534	1560	1795	1802	1568	1563	1568	1570	1573	1563	1556	1546	1540	1540	1556	1567	1592	1599	1599	1580	1584	1580	1588	1598	1607	1596	0	0	1463	1420	1395	1397	1389	1378	1368	1370	1378	1396	1404	1404	1397	1394	1382	1374	1371	1375	1384	1389	1405	1408	1410	1407	1406	1401	1390	1375	1372	1382	1395	1393	1381	1382	1394	1407	1409	1410	1397	1392	1391	1393	1412	1418	1384	1381	1394	1413	1411	1409	1407	1415	1455	1477	1475	1465	1466	1473	1481	1480	1481	1498	1496	1487	1493	1492	0	0	0	0	1587	1603	1630	1651	1663	1677	1670	1664	1655	1659	1661	1662	1668	1676	1668	1662	1655	1650	1666	1682	1696	1708	1720	1724	1703	1665	1656	1655	1658	1660	1682	1675	1665	1662	1617	1583	1472	1445	1435	1422	1413	1412	1419	1435	1442	1438	1437	1436	1437	1443	1425	1416	1416	1413	1403	1391	1389	1389	1400	1415	1423	1418	1414	1407	1406	1409	1409	1398	1396	1408	1413	1412	1423	1437	1440	1433	1422	1423	1423	1417	1428	1455	1459	1468	1485	1477	0	0	0	0	0	0	0	0	1679	1699	1707	1704	1722	1741	1735	1751	1751	1756	1755	1749	1743	1734	1726	1712	0	0	0	0	0	0	0	0	0	0	0	0	0	0	0	0	0	0	0	0	0	0	0	0	0	0	0	0	0	0	0	0	0	0	0	0	0	0	0	0	0	0	0	0	0	0	0	0	0	0	0	0	0	0	0	0	0	0	0	0	0	0	0	1433	1447	1455	1447	1441	1424	1417	1403	1396	1390	1395	1401	1398	1397	1389	1384	1400	1399	1393	1390	1376	1379	1384	1381	1378	1374	1371	1371	1380	1383	1370	1360	1373	1388	1381	1384	1395	1397	1415	1418	1403	1393	1383	1368	1380	1418	1426	1415	1415	1417	1439	1445	1446	0	0	0	0	0	0	0	0	0	0	0	0	0	0	0	0	0	0	0	0	0	0	0	0	0	0	0	0	0	0	0	0	0	0	0	0	0	0	0	0	0	0	0	0	0	0	0	0	0	0	0	0	0	0	0	0	0	0	0	0	0	0	0	0	1726	1723	1730	1723	1719	1713	1732	1731	1728	1710	1696	1693	1682	1675	1679	0	0	0	0	0	0	0	0	0	0	0	0	1445	1426	1444	1422	1411	1405	1405	1401	1392	1379	1375	1374	1397	1402	1418	1432	1433	1429	1410	1410	1404	1408	1407	1408	1393	1394	1388	1400	1395	1387	1387	1395	1410	1422	1428	1420	1428	1429	1418	1408	1389	1370	1372	1377	1386	1391	1407	1412	1431	0	0	0	0	0	0	0	0	0	0	1686	1678	1673	1649	1620	1595	0	0	0	0	0	0	1508	1505	1489	1470	1450	1417	1409	1413	1428	1423	1410	1392	1392	1392	1397	1410	1420	1427	1414	1411	1419	1428	1437	1460	0	0	0	0	1432	1434	1430	1419	1431	1440	1448	1447	1462	1465	1468	1472	1462	1438	1430	1419	1411	1405	1410	1414	1422	1426	1421	1415	1413	1412	1420	1419	1435	1432	1432	1436	1429	1428	1423	1417	1421	1427	1427	1427	1419	1416	1418	1420	1408	1398	1387	1391	1391	1392	1389	1389	1394	1399	1399	1398	1386	1372	1361	1352	0	0	0	0	0	0	0
0	0	0	1472	1470	1463	1451	1437	1437	1426	1406	1400	1403	1404	1404	1406	1415	1419	1423	1431	1449	1449	1461	1471	1485	1482	1481	1483	1484	1484	1501	1506	1506	1511	1528	1540	0	0	0	0	0	0	0	0	0	0	0	0	0	0	0	0	0	0	0	0	1536	1509	1500	1523	1551	1579	1585	1570	1562	1570	1579	1581	1570	1572	1563	1549	1549	1548	1560	1568	1572	1570	1555	1560	1579	1586	1596	1603	1595	1553	0	1478	1438	1399	1395	1392	1378	1373	1371	1382	1397	1408	1402	1398	1389	1377	1373	1375	1381	1388	1388	1403	1409	1409	1403	1402	1402	1392	1386	1385	1394	1402	1395	1386	1390	1401	1407	1409	1410	1397	1389	1391	1382	1395	1402	1384	1379	1398	1410	1407	1397	1390	1408	1435	1457	1454	1454	1455	1462	1469	1468	1481	1489	1482	1475	1477	1486	0	0	0	0	1612	1612	1634	1657	1668	1674	1678	1671	1669	1670	1676	1678	1680	1676	1675	1665	1660	1658	1671	1680	1697	1705	1712	1712	1710	1683	1681	1672	1669	1663	1681	1678	1667	1693	1636	1605	1500	1444	1426	1415	1412	1420	1431	1442	1446	1441	1433	1434	1436	1435	1432	1427	1426	1419	1407	1399	1395	1390	1392	1401	1406	1410	1405	1403	1402	1410	1403	1394	1396	1406	1413	1412	1412	1419	1435	1432	1415	1421	1428	1427	1438	1456	1471	1474	1484	1474	0	0	0	0	0	0	0	0	1683	1704	1715	1717	1718	1727	1747	1760	1769	1781	1776	1761	1755	1739	1727	1704	0	0	0	0	0	0	0	0	0	0	0	0	0	0	0	0	0	0	0	0	0	0	0	0	0	0	0	0	0	0	0	0	0	0	0	0	0	0	0	0	0	0	0	0	0	0	0	0	0	0	0	0	0	0	0	0	0	0	0	0	0	0	0	1431	1456	1464	1452	1440	1432	1427	1409	1400	1398	1402	1410	1414	1411	1402	1373	1366	1364	1375	1389	1384	1387	1379	1380	1377	1386	1382	1387	1390	1383	1372	1363	1373	1389	1379	1381	1391	1398	1419	1418	1411	1391	1376	1363	1382	1418	1428	1418	1421	1423	1424	1434	1450	0	0	0	0	0	0	0	0	0	0	0	0	0	0	0	0	0	0	0	0	0	0	0	0	0	0	0	0	0	0	0	0	0	0	0	0	0	0	0	0	0	0	0	0	0	0	0	0	0	0	0	0	0	0	0	0	0	0	0	0	0	0	0	0	1694	1696	1705	1700	1703	1715	1732	1728	1719	1706	1697	1689	1679	1678	1686	0	0	0	0	0	0	0	0	0	0	0	0	1436	1433	1447	1434	1409	1399	1398	1401	1402	1390	1390	1378	1407	1411	1411	1424	1429	1424	1411	1402	1402	1403	1408	1405	1397	1390	1385	1392	1391	1397	1394	1401	1414	1421	1423	1428	1439	1441	1437	1421	1401	1366	1372	1374	1382	1390	1398	1401	1418	1446	0	0	0	0	0	0	0	0	0	1678	1658	1649	1636	1609	1581	0	0	0	0	0	0	1499	1496	1482	1464	1450	1423	1421	1420	1418	1425	1412	1395	1388	1393	1404	1415	1428	1433	1418	1414	1418	1433	1439	1442	0	0	0	0	1418	1433	1426	1414	1425	1436	1431	1440	1458	1470	1474	1470	1442	1428	1424	1424	1416	1414	1422	1429	1436	1426	1424	1433	1429	1421	1423	1424	1430	1432	1428	1430	1433	1440	1434	1427	1425	1424	1423	1423	1426	1423	1425	1420	1411	1396	1384	1384	1380	1377	1376	1384	1399	1404	1404	1402	1395	1382	1368	1361	0	0	0	0	0	0	0
0	0	0	1484	1470	1461	1453	1453	1453	1438	1423	1406	1401	1405	1405	1405	1414	1426	1430	1437	1455	1455	1471	1486	1495	1488	1484	1479	1486	1497	1497	1508	1519	1537	1537	1538	0	0	0	0	0	0	0	0	0	0	0	0	0	0	0	0	0	0	0	1549	1539	1519	1513	1525	1551	1571	1578	1572	1562	1573	1581	1583	1583	1576	1569	1561	1561	1548	1543	1550	1557	1555	1558	1559	1553	1583	1589	1601	1583	0	0	1476	1434	1406	1392	1389	1384	1381	1382	1387	1401	1403	1400	1390	1381	1378	1379	1376	1384	1387	1390	1398	1406	1409	1407	1405	1408	1403	1394	1389	1389	1394	1399	1397	1395	1401	1405	1409	1411	1401	1386	1384	1375	1381	1388	1380	1380	1401	1408	1400	1393	1393	1404	1420	1425	1441	1447	1454	1470	1466	1469	1473	1477	1470	1465	1476	1487	0	0	0	0	1634	1619	1644	1666	1674	1675	1681	1672	1673	1677	1683	1681	1682	1684	1681	1670	1669	1666	1671	1676	1697	1704	1712	1699	1693	1699	1699	1696	1682	1674	1679	1679	1669	1702	1653	1618	1495	1433	1425	1413	1409	1417	1427	1435	1435	1431	1422	1421	1423	1430	1434	1431	1431	1425	1408	1404	1397	1391	1386	1378	1373	1381	1398	1399	1402	1406	1394	1390	1399	1408	1410	1408	1399	1414	1419	1415	1410	1420	1435	1438	1431	1445	1476	1477	1479	1485	0	0	0	0	0	0	0	0	1686	1715	1726	1722	1738	1738	1754	1775	1777	1781	1774	1757	1750	1741	1738	1706	0	0	0	0	0	0	0	0	0	0	0	0	0	0	0	0	0	0	0	0	0	0	0	0	0	0	0	0	0	0	0	0	0	0	0	0	0	0	0	0	0	0	0	0	0	0	0	0	0	0	0	0	0	0	0	0	0	0	0	0	0	0	0	1447	1467	1459	1436	1429	1434	1434	1427	1412	1401	1402	1406	1409	1408	1405	1371	1364	1364	1370	1380	1393	1391	1392	1373	1381	1386	1397	1398	1393	1380	1367	1364	1373	1394	1376	1376	1383	1401	1418	1419	1412	1394	1378	1362	1369	1405	1417	1418	1420	1418	1416	1419	1472	0	0	0	0	0	0	0	0	0	0	0	0	0	0	0	0	0	0	0	0	0	0	0	0	0	0	0	0	0	0	0	0	0	0	0	0	0	0	0	0	0	0	0	0	0	0	0	0	0	0	0	0	0	0	0	0	0	0	0	0	0	0	0	0	1692	1691	1689	1693	1704	1719	1739	1720	1714	1702	1701	1695	1695	1698	1689	0	0	0	0	0	0	0	0	0	0	0	0	1468	1445	1450	1434	1402	1393	1390	1394	1401	1401	1394	1399	1402	1406	1409	1411	1416	1409	1404	1392	1389	1394	1398	1396	1392	1374	1376	1385	1394	1404	1405	1412	1421	1420	1426	1435	1443	1448	1443	1433	1411	1371	1368	1372	1374	1386	1398	1398	1404	1432	0	0	0	0	0	0	0	0	0	1659	1650	1641	1625	1617	0	0	0	0	0	0	1513	1489	1475	1461	1457	1456	1442	1421	1416	1414	1429	1430	1412	1398	1409	1422	1428	1435	1433	1413	1413	1421	1425	1434	1430	1433	0	0	0	1409	1409	1401	1405	1419	1422	1425	1436	1465	1482	1479	1462	1417	1421	1421	1427	1423	1426	1434	1441	1431	1426	1432	1436	1434	1423	1416	1420	1423	1426	1425	1429	1430	1432	1433	1426	1422	1416	1416	1417	1427	1426	1423	1414	1406	1397	1389	1386	1379	1368	1379	1393	1406	1405	1405	1402	1396	1391	1384	1379	0	0	0	0	0	0	0
