0	0	0	0	0	0	0	0	0	0	0	0	0	0	0	0	0	0	0	0	0	0	0	0	0	0	0	0	0	0	0	0	0	0	0	0	0	0	0	0	0	0	0	0	0	0	0	0	0	0	0	0	0	0	0	0	0	0	0	0	0	0	0	0	0	0	0	0	0	0	0	0	0	0	0	0	0	0	0	0	0	0	0	0	0	0	0	0	0	0	0	0	0	0	0	0	0	0	0	0	0	0	0	0	0	0	0	0	0	0	0	0	0	0	0	0	0	0	0	0	0	0	0	0	0	0	0	0	0	0	0	0	0	0	0	0	0	0	0	0	0	0	0	0	0	0	0	0	0	0	0	0	0	0	0	0	0	0	0	0	0	0	0	0	0	0	0	0	0	0	0	0	0	0	0	0	0	0	0	0	0	0	0	1462	1437	1420	1401	1385	1385	1384	1386	1386	1390	1389	1399	1405	1407	1406	1403	1389	1392	1402	1408	1407	1398	1390	1392	1403	1415	1417	1414	1409	1402	1398	1397	1412	1433	1442	1435	1423	1418	1412	1402	1403	1413	1411	1402	1389	1392	1399	1414	1421	1423	1425	1418	1408	1401	1407	1424	1437	1438	1430	1430	1427	1426	1424	1424	1424	1426	1427	1433	1456	1459	1449	1437	1429	1423	1425	1430	1435	1444	1442	1439	1436	1440	1437	1437	1439	1443	1441	1435	1443	1443	1446	1445	1447	1449	1441	1425	1418	1419	1414	1423	1435	1443	1451	1447	1434	1427	1420	1422	1423	1430	1442	1432	1424	1416	1417	1421	1429	1433	1441	1439	1434	1425	1424	1428	1434	1441	1440	1439	1432	1425	1418	1411	1420	1432	1445	1449	1444	1443	1451	1454	1450	1446	1443	1447	1450	1449	1448	1451	1452	1448	1445	1455	1445	1436	1446	1460	1469	1457	1423	1406	1412	1415	1413	1419	1431	1445	1466	1488	1488	1451	1421	1413	1423	1440	1462	1468	1470	1465	1446	1425	1407	1398	1400	1415	1433	1442	1449	1455	1456	1449	1444	1445	1443	1445	1434	1424	1428	1430	1434	1433	1433	1438	1431	1427	1424	1432	1438	1442	1445	1440	1429	1422	1412	1417	1418	1427	1428	1434	1432	1440	1442	1440	1434	1431	1433	1434	1439	1438	1432	1419	1428	1438	1456	1443	1438	1467	1460	1452	1444	1427	1418	1429	1451	1461	1460	1458	1467	1469	1472	1467	1470	1468	1471	1456	1440	1423	1425	1478	1490	1494	1489	1477	1475	1468	1463	1458	1458	1461	1457	1455	1449	1452	1449	1456	1462	1463	1482	1490	1468	1456	1440	1435	1440	1440	1436	1439	1441	1441	1441	1442	1444	1448	1451	1455	1448	1463	1474	1499	1527	0	0	0	0	0	0	0	0	0	0	0	0	0	0	0	0	0	0	0	0	0	0	0	1568	1572	1572	1567	1573	1537	1542	1536	1522	1507	1513	1536	1545	1545	1541	1544	1539	1529	1523	1530	1536	1542	1546	1538	1539	1528	1524	1515	1505	1525	0	0	0	0	0	0	0	0	0	0	0	0	0	0	0	0	0	0	0	1514	1520	1505	1488	1478	1485	1506	1511	1502	1489	1489	1492	1503	1506	1498	1485	1478	1474	1482	1491	1499	1504	1504	1507	1508	1506	1502	1506	1507	1502	1489	1482	1476	1476	1484	1483	1486	1485	1485	1483	1485	1495	1503	1512	1517	1510	1489	1482	1472	1466	1470	1472	1472	1463	1461	1464	1471	1473	1479	1479	1479	1476	1479	1487	1485	1467	1457	1452	1466	1468	1460	1446	1446	1448	1460	1467	1466	1457	1450	1453	0	0	0	0	0	0
0	0	0	0	0	0	0	0	0	0	0	0	0	0	0	0	0	0	0	0	0	0	0	0	0	0	0	0	0	0	0	0	0	0	0	0	0	0	0	0	0	0	0	0	0	0	0	0	0	0	0	0	0	0	0	0	0	0	0	0	0	0	0	0	0	0	0	0	0	0	0	0	0	0	0	0	0	0	0	0	0	0	0	0	0	0	0	0	0	0	0	0	0	0	0	0	0	0	0	0	0	0	0	0	0	0	0	0	0	0	0	0	0	0	0	0	0	0	0	0	0	0	0	0	0	0	0	0	0	0	0	0	0	0	0	0	0	0	0	0	0	0	0	0	0	0	0	0	0	0	0	0	0	0	0	0	0	0	0	0	0	0	0	0	0	0	0	0	0	0	0	0	0	0	0	0	0	0	0	0	0	0	0	1444	1439	1425	1404	1388	1381	1379	1381	1390	1392	1395	1393	1397	1393	1389	1391	1392	1408	1410	1415	1413	1407	1403	1403	1413	1411	1411	1406	1404	1405	1398	1405	1412	1420	1421	1411	1403	1397	1397	1405	1407	1408	1410	1409	1409	1404	1397	1414	1427	1440	1436	1426	1416	1405	1424	1444	1445	1444	1436	1439	1438	1431	1427	1417	1419	1422	1427	1436	1448	1448	1442	1435	1431	1430	1431	1432	1436	1442	1448	1449	1446	1442	1436	1434	1446	1450	1447	1443	1443	1437	1444	1443	1445	1442	1430	1416	1414	1418	1425	1432	1431	1447	1455	1452	1441	1432	1423	1426	1432	1433	1433	1429	1417	1417	1420	1429	1430	1435	1441	1439	1430	1422	1421	1426	1433	1436	1430	1425	1423	1423	1420	1426	1437	1441	1443	1444	1442	1443	1446	1450	1446	1449	1448	1452	1458	1465	1462	1470	1465	1446	1434	1430	1421	1427	1434	1454	1466	1450	1419	1411	1413	1417	1420	1423	1431	1450	1468	1486	1486	1454	1423	1418	1428	1444	1468	1473	1475	1464	1447	1427	1408	1402	1404	1419	1439	1452	1457	1455	1451	1451	1450	1448	1445	1449	1450	1429	1430	1435	1433	1432	1432	1437	1434	1430	1424	1434	1448	1458	1454	1446	1432	1411	1412	1414	1421	1427	1432	1441	1437	1437	1441	1440	1436	1438	1438	1441	1444	1443	1440	1435	1433	1443	1456	1455	1427	1431	1449	1461	1457	1432	1407	1411	1423	1440	1455	1456	1455	1457	1466	1465	1463	1461	1455	1454	1455	1467	1479	1483	1488	1485	1463	1440	1433	1442	1442	1434	1423	1410	1412	1425	1428	1426	1426	1433	1444	1444	1442	1453	1454	1449	1438	1432	1439	1459	1458	1451	1450	1454	1451	1445	1437	1441	1443	1448	1431	1439	1464	1500	1512	0	0	0	0	0	0	0	0	0	0	0	0	0	0	0	0	0	0	0	0	0	0	0	1563	1566	1567	1580	1585	1544	1541	1543	1535	1561	1589	1565	1548	1540	1538	1540	1543	1540	1542	1540	1550	1553	1551	1532	1538	1540	1528	1517	1508	1538	0	0	0	0	0	0	0	0	0	0	0	0	0	0	0	0	0	0	0	1521	1529	1504	1491	1486	1492	1501	1506	1502	1496	1487	1491	1499	1502	1501	1487	1482	1487	1488	1491	1492	1493	1499	1505	1515	1517	1514	1513	1509	1509	1499	1484	1485	1486	1489	1485	1480	1481	1475	1479	1487	1491	1504	1503	1506	1504	1487	1472	1461	1453	1466	1477	1482	1476	1473	1473	1474	1472	1471	1471	1474	1474	1491	1502	1497	1477	1465	1463	1460	1463	1463	1463	1463	1470	1474	1476	1467	1463	1453	1461	0	0	0	0	0	0
0	0	0	0	0	0	0	0	0	0	0	0	0	0	0	0	0	0	0	0	0	0	0	0	0	0	0	0	0	0	0	0	0	0	0	0	0	0	0	0	0	0	0	0	0	0	0	0	0	0	0	0	0	0	0	0	0	0	0	0	0	0	0	0	0	0	0	0	0	0	0	0	0	0	0	0	0	0	0	0	0	0	0	0	0	0	0	0	0	0	0	0	0	0	0	0	0	0	0	0	0	0	0	0	0	0	0	0	0	0	0	0	0	0	0	0	0	0	0	0	0	0	0	0	0	0	0	0	0	0	0	0	0	0	0	0	0	0	0	0	0	0	0	0	0	0	0	0	0	0	0	0	0	0	0	0	0	0	0	0	0	0	0	0	0	0	0	0	0	0	0	0	0	0	0	0	0	0	0	0	0	0	0	0	1430	1429	1412	1399	1395	1407	1414	1404	1396	1394	1393	1380	1383	1380	1388	1394	1421	1431	1435	1439	1442	1440	1427	1422	1421	1419	1425	1424	1419	1417	1425	1418	1414	1400	1390	1390	1396	1400	1401	1396	1390	1397	1401	1406	1417	1417	1418	1436	1452	1460	1440	1405	1409	1440	1459	1464	1451	1440	1440	1442	1445	1428	1417	1418	1420	1422	1426	1433	1435	1434	1401	1405	1405	1408	1417	1422	1424	1422	1432	1437	1431	1427	1430	1443	1453	1452	1449	1451	1445	1437	1435	1425	1430	1419	1410	1411	1424	1436	1438	1442	1454	1452	1452	1441	1430	1424	1428	1428	1432	1429	1422	1419	1418	1423	1432	1428	1423	1422	1425	1417	1412	1414	1422	1424	1420	1414	1421	1423	1424	1426	1430	1439	1444	1439	1435	1434	1431	1434	1440	1443	1448	1454	1454	1461	1473	1478	1482	1454	1442	1437	1420	1417	1424	1436	1441	1441	1431	1414	1407	1409	1422	1431	1427	1430	1449	1462	1469	1462	1442	1434	1424	1436	1449	1461	1470	1469	1463	1452	1444	1437	1431	1429	1440	1453	1457	1448	1432	1433	1437	1450	1445	1440	1427	1419	1419	1438	1460	1478	1480	1472	1449	1438	1435	1425	1427	1441	1469	1471	1460	1442	1425	1416	1412	1428	1440	1450	1453	1450	1439	1439	1449	1451	1449	1449	1444	1443	1447	1448	1449	1451	1456	1463	1454	1405	1421	1438	1468	1479	1449	1422	1417	1432	1451	1467	1469	1464	1461	1463	1467	1466	1460	1453	1455	1458	1468	1482	1487	1481	1476	1459	1439	1435	1445	1444	1437	1415	1408	1408	1411	1409	1418	1424	1438	1445	1448	1448	1448	1442	1441	1444	1454	1463	1461	1444	1442	1446	1463	1458	1447	1439	1438	1447	1457	1441	1439	1487	1502	0	0	0	0	0	0	0	0	0	0	0	0	0	0	0	0	0	0	0	0	0	0	0	0	1565	1572	1580	1581	1592	1534	1532	1544	1563	1600	1604	1593	1565	1563	1549	1541	1543	1546	1547	1549	1557	1552	1542	1533	1536	1537	1527	1524	1521	1544	0	0	0	0	0	0	0	0	0	0	0	0	0	0	0	0	0	0	0	1514	1521	1493	1478	1480	1485	1492	1498	1496	1490	1480	1482	1492	1487	1488	1490	1491	1497	1493	1492	1489	1487	1491	1504	1516	1518	1517	1511	1507	1511	1517	1513	1506	1497	1501	1486	1484	1479	1480	1480	1488	1493	1494	1490	1486	1471	1466	1465	1460	1459	1472	1488	1484	1482	1477	1479	1480	1476	1475	1466	1466	1483	1499	1509	1497	1479	1467	1466	1471	1475	1480	1477	1477	1478	1483	1485	1490	1476	1463	1467	0	0	0	0	0	0
0	0	0	0	0	0	0	0	0	0	0	0	0	0	0	0	0	0	0	0	0	0	0	0	0	0	0	0	0	0	0	0	0	0	0	0	0	0	0	0	0	0	0	0	0	0	0	0	0	0	0	0	0	0	0	0	0	0	0	0	0	0	0	0	0	0	0	0	0	0	0	0	0	0	0	0	0	0	0	0	0	0	0	0	0	0	0	0	0	0	0	0	0	0	0	0	0	0	0	0	0	0	0	0	0	0	0	0	0	0	0	0	0	0	0	0	0	0	0	0	0	0	0	0	0	0	0	0	0	0	0	0	0	0	0	0	0	0	0	0	0	0	0	0	0	0	0	0	0	0	0	0	0	0	0	0	0	0	0	0	0	0	0	0	0	0	0	0	0	0	0	0	0	0	0	0	0	0	0	0	0	0	0	0	1418	1414	1419	1425	1434	1438	1435	1433	1422	1407	1398	1400	1399	1390	1385	1385	1419	1435	1443	1452	1452	1447	1438	1432	1425	1421	1422	1428	1436	1448	1462	1456	1437	1411	1410	1410	1411	1411	1408	1401	1388	1375	1370	1381	1399	1417	1423	1427	1437	1438	1424	1381	1374	1379	1397	1411	1412	1407	1412	1429	1434	1437	1425	1416	1412	1411	1410	1399	1422	1409	1398	1392	1404	1424	1440	1448	1422	1418	1424	1411	1414	1414	1427	1451	1464	1467	1470	1466	1456	1431	1408	1389	1408	1428	1450	1462	1464	1458	1447	1440	1433	1437	1438	1438	1427	1399	1386	1376	1379	1410	1415	1425	1424	1427	1433	1428	1424	1410	1412	1409	1404	1408	1416	1420	1420	1411	1422	1428	1431	1434	1437	1441	1444	1434	1426	1423	1419	1421	1428	1442	1444	1432	1430	1428	1439	1453	1447	1457	1446	1434	1428	1427	1432	1438	1441	1444	1433	1416	1408	1413	1419	1423	1422	1422	1428	1448	1462	1455	1442	1435	1431	1444	1454	1460	1464	1461	1446	1442	1444	1438	1441	1432	1441	1452	1456	1451	1441	1436	1442	1454	1456	1444	1434	1424	1414	1429	1442	1452	1460	1456	1457	1451	1443	1432	1427	1438	1456	1465	1462	1448	1440	1432	1435	1440	1456	1468	1465	1457	1443	1442	1445	1466	1466	1465	1457	1447	1441	1447	1451	1456	1453	1457	1456	1411	1413	1440	1465	1485	1483	1468	1455	1450	1455	1467	1478	1472	1457	1456	1459	1463	1455	1453	1451	1454	1471	1489	1502	1485	1460	1451	1442	1445	1453	1458	1444	1417	1421	1421	1429	1427	1431	1437	1450	1454	1450	1447	1443	1442	1442	1449	1456	1461	1451	1437	1431	1435	1451	1453	1445	1443	1442	1457	1464	1455	1448	1483	1502	0	0	0	0	0	0	0	0	0	0	0	0	0	0	0	0	0	0	0	0	0	0	0	0	1573	1582	1583	1588	1585	1532	1534	1543	1567	1596	1590	1589	1587	1582	1562	1539	1539	1543	1549	1550	1542	1538	1531	1521	1526	1538	1542	1532	1532	1546	0	0	0	0	0	0	0	0	0	0	0	0	0	0	0	0	0	0	0	1530	1514	1484	1461	1468	1481	1487	1487	1484	1477	1471	1475	1477	1476	1479	1487	1495	1501	1503	1494	1489	1483	1492	1504	1515	1516	1507	1496	1493	1504	1522	1527	1522	1518	1510	1500	1483	1483	1486	1482	1482	1474	1468	1478	1464	1469	1463	1465	1484	1490	1499	1495	1494	1480	1478	1475	1481	1483	1486	1485	1485	1495	1509	1517	1504	1477	1464	1466	1472	1486	1489	1490	1486	1486	1490	1495	1493	1477	1461	1459	0	0	0	0	0	0
0	0	0	0	0	0	0	0	0	0	0	0	0	0	0	0	0	0	0	0	0	0	0	0	0	0	0	0	0	0	0	0	0	0	0	0	0	0	0	0	0	0	0	0	0	0	0	0	0	0	0	0	0	0	0	0	0	0	0	0	0	0	0	0	0	0	0	0	0	0	0	0	0	0	0	0	0	0	0	0	0	0	0	0	0	0	0	0	0	0	0	0	0	0	0	0	0	0	0	0	0	0	0	0	0	0	0	0	0	0	0	0	0	0	0	0	0	0	0	0	0	0	0	0	0	0	0	0	0	0	0	0	0	0	0	0	0	0	0	0	0	0	0	0	0	0	0	0	0	0	0	0	0	0	0	0	0	0	0	0	0	0	0	0	0	0	0	0	0	0	0	0	0	0	0	0	0	0	0	0	0	0	0	0	1417	1417	1418	1430	1442	1448	1435	1416	1413	1414	1420	1417	1410	1398	1387	1394	1415	1430	1440	1447	1450	1450	1443	1434	1426	1422	1424	1430	1442	1454	1458	1458	1445	1423	1414	1416	1420	1418	1418	1400	1389	1371	1363	1376	1402	1422	1428	1437	1440	1438	1417	1382	1374	1374	1388	1406	1412	1408	1417	1437	1434	1427	1406	1411	1418	1430	1434	1433	1430	1416	1404	1401	1409	1428	1455	1444	1430	1420	1424	1412	1411	1420	1434	1453	1458	1459	1468	1467	1457	1431	1401	1384	1398	1423	1449	1465	1462	1451	1437	1430	1426	1431	1428	1425	1417	1408	1413	1403	1391	1400	1408	1425	1433	1434	1431	1422	1418	1411	1411	1407	1404	1409	1416	1417	1418	1417	1426	1429	1431	1436	1434	1435	1435	1429	1427	1416	1408	1404	1423	1440	1447	1445	1426	1412	1403	1409	1419	1432	1441	1438	1433	1431	1433	1439	1441	1437	1434	1417	1411	1413	1423	1421	1420	1404	1419	1434	1446	1450	1440	1434	1438	1454	1463	1464	1464	1452	1444	1440	1440	1436	1437	1435	1434	1444	1453	1453	1446	1439	1441	1451	1458	1446	1436	1421	1417	1421	1436	1446	1444	1442	1447	1453	1450	1437	1435	1442	1449	1454	1454	1444	1441	1443	1445	1460	1469	1471	1464	1463	1455	1441	1438	1466	1477	1471	1464	1455	1449	1449	1447	1452	1448	1455	1453	1435	1429	1441	1460	1473	1474	1466	1448	1440	1437	1446	1444	1441	1438	1440	1438	1446	1453	1455	1454	1469	1485	1505	1510	1502	1464	1448	1448	1454	1462	1457	1444	1434	1434	1443	1447	1450	1453	1457	1458	1458	1455	1443	1442	1448	1452	1458	1457	1454	1448	1429	1432	1429	1440	1438	1437	1447	1455	1467	1476	1476	1457	1455	1482	0	0	0	0	0	0	0	0	0	0	0	0	0	0	0	0	0	0	0	0	0	0	0	0	1580	1583	1584	1580	1573	1534	1533	1545	1569	1569	1566	1560	1573	1569	1551	1527	1535	1545	1551	1553	1542	1532	1520	1505	1515	1527	1538	1536	1534	1553	0	0	0	0	0	0	0	0	0	0	0	0	0	0	0	0	0	0	0	0	1514	1482	1453	1446	1460	1454	1462	1459	1452	1449	1453	1460	1473	1482	1494	1499	1504	1498	1490	1488	1492	1508	1518	1508	1484	1453	1435	1433	1456	1477	1475	1495	1482	1490	1491	1478	1482	1490	1490	1490	1472	1474	1477	1489	1481	1480	1488	1497	1503	1504	1494	1482	1475	1488	1487	1489	1502	1503	1513	1520	1520	1516	1502	1500	1480	1476	1475	1486	1501	1503	1490	1491	1491	1501	1512	1498	1475	1451	1449	0	0	0	0	0	0
0	0	0	0	0	0	0	0	0	0	0	0	0	0	0	0	0	0	0	0	0	0	0	0	0	0	0	0	0	0	0	0	0	0	0	0	0	0	0	0	0	0	0	0	0	0	0	0	0	0	0	0	0	0	0	0	0	0	0	0	0	0	0	0	0	0	0	0	0	0	0	0	0	0	0	0	0	0	0	0	0	0	0	0	0	0	0	0	0	0	0	0	0	0	0	0	0	0	0	0	0	0	0	0	0	0	0	0	0	0	0	0	0	0	0	0	0	0	0	0	0	0	0	0	0	0	0	0	0	0	0	0	0	0	0	0	0	0	0	0	0	0	0	0	0	0	0	0	0	0	0	0	0	0	0	0	0	0	0	0	0	0	0	0	0	0	0	0	0	0	0	0	0	0	0	0	0	0	0	0	0	0	0	1476	1442	1437	1444	1431	1426	1399	1396	1400	1414	1419	1417	1411	1405	1402	1399	1408	1419	1427	1435	1440	1441	1436	1432	1438	1435	1439	1441	1440	1433	1433	1427	1436	1441	1427	1419	1420	1426	1430	1424	1421	1408	1396	1401	1415	1430	1450	1451	1449	1448	1439	1397	1384	1374	1380	1393	1412	1418	1417	1425	1438	1442	1431	1397	1404	1410	1422	1432	1442	1448	1442	1437	1435	1434	1434	1423	1422	1434	1445	1447	1437	1437	1435	1439	1436	1434	1438	1453	1455	1442	1419	1393	1381	1390	1414	1443	1457	1455	1435	1424	1424	1421	1427	1412	1403	1408	1422	1423	1418	1411	1418	1412	1422	1435	1435	1431	1423	1416	1414	1407	1411	1414	1422	1425	1422	1421	1423	1426	1432	1436	1432	1432	1431	1434	1429	1423	1419	1411	1407	1420	1441	1448	1441	1428	1409	1401	1398	1408	1419	1426	1427	1438	1432	1427	1424	1424	1425	1431	1425	1417	1419	1425	1415	1418	1421	1422	1431	1439	1445	1432	1433	1442	1453	1465	1467	1462	1451	1444	1439	1434	1433	1430	1433	1441	1440	1445	1448	1439	1440	1443	1442	1453	1445	1451	1428	1416	1419	1438	1445	1440	1436	1441	1445	1444	1439	1438	1445	1446	1440	1441	1434	1431	1438	1456	1479	1481	1484	1477	1471	1454	1445	1435	1441	1470	1474	1472	1469	1457	1447	1447	1437	1445	1441	1438	1434	1433	1439	1448	1460	1461	1457	1445	1439	1435	1432	1433	1433	1433	1436	1442	1449	1450	1455	1459	1468	1483	1497	1507	1501	1466	1453	1452	1451	1452	1449	1441	1438	1437	1457	1456	1444	1452	1460	1459	1454	1452	1449	1438	1448	1459	1468	1466	1460	1456	1447	1440	1440	1441	1442	1446	1443	1456	1467	1483	1486	1475	1467	1472	0	0	0	0	0	0	0	0	0	0	0	0	0	0	0	0	0	0	0	0	0	0	0	0	1578	1583	1574	1557	1549	1524	1537	1558	1578	1544	1541	1535	1553	1542	1524	1515	1524	1540	1550	1552	1543	1519	1509	1495	1503	1517	1527	1535	1536	1555	0	0	0	0	0	0	0	0	0	0	0	0	0	0	0	0	0	0	0	0	0	1477	1445	1443	1441	1456	1458	1465	1462	1487	1515	1530	1524	1515	1499	1492	1494	1491	1497	1495	1492	1498	1504	1502	1486	1463	1445	1437	1430	1437	1444	1458	1466	1476	1476	1476	1475	1489	1493	1482	1482	1482	1485	1487	1491	1489	1490	1498	1497	1503	1492	1481	1469	1480	1489	1492	1507	1511	1511	1503	1503	1486	1482	1476	1481	1494	1501	1501	1503	1487	1482	1486	1486	1497	1498	1482	1466	1457	1456	0	0	0	0	0	0
0	0	0	0	0	0	0	0	0	0	0	0	0	0	0	0	0	0	0	0	0	0	0	0	0	0	0	0	0	0	0	0	0	0	0	0	0	0	0	0	0	0	0	0	0	0	0	0	0	0	0	0	0	0	0	0	0	0	0	0	0	0	0	0	0	0	0	0	0	0	0	0	0	0	0	0	0	0	0	0	0	0	0	0	0	0	0	0	0	0	0	0	0	0	0	0	0	0	0	0	0	0	0	0	0	0	0	0	0	0	0	0	0	0	0	0	0	0	0	0	0	0	0	0	0	0	0	0	0	0	0	0	0	0	0	0	0	0	0	0	0	0	0	0	0	0	0	0	0	0	0	0	0	0	0	0	0	0	0	0	0	0	0	0	0	0	0	0	0	0	0	0	0	0	0	0	0	0	0	0	0	0	0	1454	1463	1455	1445	1433	1417	1398	1393	1402	1413	1417	1409	1398	1396	1396	1404	1412	1417	1420	1427	1430	1423	1422	1418	1423	1426	1435	1445	1443	1436	1434	1436	1458	1449	1435	1418	1423	1425	1432	1431	1415	1407	1403	1415	1427	1434	1440	1445	1439	1433	1418	1415	1418	1420	1418	1420	1426	1424	1419	1418	1409	1400	1397	1393	1405	1413	1421	1431	1431	1432	1435	1440	1443	1449	1445	1442	1441	1445	1451	1447	1453	1454	1453	1452	1447	1446	1444	1437	1424	1415	1408	1397	1389	1398	1416	1435	1444	1443	1431	1424	1423	1450	1446	1429	1423	1425	1429	1430	1432	1435	1425	1414	1429	1436	1436	1434	1424	1417	1415	1419	1424	1434	1442	1434	1429	1422	1430	1437	1435	1432	1432	1430	1428	1429	1421	1430	1429	1427	1427	1430	1435	1439	1444	1444	1439	1432	1422	1416	1418	1422	1418	1420	1427	1418	1423	1424	1426	1435	1432	1428	1423	1423	1420	1419	1419	1427	1434	1453	1448	1446	1449	1450	1449	1453	1449	1445	1448	1450	1448	1437	1429	1429	1433	1446	1457	1453	1446	1445	1442	1443	1437	1436	1443	1452	1431	1419	1415	1445	1444	1438	1430	1432	1438	1438	1431	1432	1440	1443	1443	1430	1429	1426	1434	1461	1477	1485	1485	1478	1472	1461	1453	1446	1442	1459	1465	1471	1470	1465	1450	1447	1442	1444	1439	1445	1442	1454	1444	1444	1449	1450	1451	1441	1441	1443	1440	1437	1430	1430	1437	1453	1456	1458	1460	1463	1471	1482	1485	1490	1487	1476	1456	1443	1434	1440	1442	1436	1436	1436	1443	1448	1446	1445	1458	1461	1460	1460	1458	1443	1451	1465	1476	1480	1473	1471	1463	1450	1453	1450	1455	1454	1442	1448	1460	1484	1500	1492	1483	1473	0	0	0	0	0	0	0	0	0	0	0	0	0	0	0	0	0	0	0	0	0	0	0	0	1572	1573	1558	1545	1525	1537	1542	1567	1583	1537	1525	1540	1564	1554	1534	1517	1525	1544	1552	1553	1542	1528	1513	1504	1502	1518	1533	1538	1539	1544	0	0	0	0	0	0	0	0	0	0	0	0	0	0	0	0	0	0	0	0	0	0	1457	1442	1448	1455	1472	1471	1480	1498	1522	1536	1536	1519	1505	1487	1490	1497	1496	1496	1484	1480	1484	1483	1480	1473	1462	1448	1475	1470	1474	1472	1463	1453	1457	1478	1483	1481	1468	1460	1474	1474	1484	1492	1479	1480	1494	1499	1493	1491	1483	1475	1460	1470	1477	1488	1504	1517	1510	1487	1487	1468	1459	1464	1484	1511	1515	1515	1507	1495	1475	1477	1491	1478	1467	1444	1444	1454	1465	0	0	0	0	0	0
0	0	0	0	0	0	0	0	0	0	0	0	0	0	0	0	0	0	0	0	0	0	0	0	0	0	0	0	0	0	0	0	0	0	0	0	0	0	0	0	0	0	0	0	0	0	0	0	0	0	0	0	0	0	0	0	0	0	0	0	0	0	0	0	0	0	0	0	0	0	0	0	0	0	0	0	0	0	0	0	0	0	0	0	0	0	0	0	0	0	0	0	0	0	0	0	0	0	0	0	0	0	0	0	0	0	0	0	0	0	0	0	0	0	0	0	0	0	0	0	0	0	0	0	0	0	0	0	0	0	0	0	0	0	0	0	0	0	0	0	0	0	0	0	0	0	0	0	0	0	0	0	0	0	0	0	0	0	0	0	0	0	0	0	0	0	0	0	0	0	0	0	0	0	0	0	0	0	0	0	0	0	0	1452	1447	1444	1431	1418	1404	1394	1395	1401	1411	1418	1408	1396	1394	1403	1412	1417	1414	1411	1414	1414	1412	1413	1416	1420	1426	1436	1440	1443	1436	1436	1434	1458	1454	1440	1427	1426	1428	1429	1430	1415	1410	1410	1423	1427	1430	1426	1428	1425	1425	1425	1420	1426	1431	1432	1440	1442	1434	1422	1409	1394	1390	1396	1407	1409	1430	1434	1435	1431	1426	1424	1438	1446	1455	1455	1452	1446	1452	1455	1451	1448	1457	1457	1455	1449	1445	1444	1434	1424	1420	1415	1407	1407	1411	1423	1435	1439	1438	1431	1424	1430	1447	1451	1445	1441	1442	1440	1438	1435	1439	1446	1435	1430	1436	1434	1435	1423	1419	1423	1436	1441	1447	1451	1457	1448	1449	1444	1457	1459	1449	1440	1432	1423	1434	1440	1441	1444	1448	1447	1447	1440	1434	1434	1436	1433	1432	1425	1417	1422	1426	1425	1415	1415	1415	1415	1428	1430	1433	1441	1439	1435	1426	1423	1416	1416	1426	1454	1462	1465	1462	1455	1447	1443	1435	1439	1436	1439	1449	1451	1440	1434	1426	1433	1451	1467	1466	1458	1452	1446	1445	1436	1433	1447	1440	1432	1426	1419	1431	1435	1428	1420	1417	1421	1425	1417	1418	1431	1436	1439	1436	1429	1431	1437	1447	1463	1475	1477	1475	1469	1462	1459	1455	1456	1451	1452	1458	1463	1460	1452	1454	1455	1451	1445	1443	1444	1458	1458	1457	1451	1451	1442	1436	1431	1433	1436	1436	1435	1434	1453	1465	1470	1469	1467	1467	1470	1472	1469	1469	1471	1482	1451	1433	1428	1434	1437	1437	1442	1433	1431	1432	1435	1445	1457	1463	1465	1470	1464	1459	1459	1472	1482	1488	1486	1479	1469	1455	1461	1468	1470	1465	1454	1447	1461	1481	1497	1496	1482	1467	0	0	0	0	0	0	0	0	0	0	0	0	0	0	0	0	0	0	0	0	0	0	0	0	1565	1556	1545	1538	1531	1545	1548	1571	1583	1562	1541	1549	1563	1555	1543	1542	1540	1546	1540	1544	1545	1543	1532	1523	1511	1522	1537	1538	1529	1526	0	0	0	0	0	0	0	0	0	0	0	0	0	0	0	0	0	0	0	0	0	1488	1470	1482	1504	1505	1493	1486	1484	1489	1496	1518	1526	1539	1523	1504	1490	1487	1487	1477	1461	1454	1458	1476	1492	1489	1490	1472	1474	1476	1484	1482	1479	1471	1476	1486	1492	1494	1478	1470	1462	1462	1474	1477	1483	1491	1507	1500	1480	1459	1454	1462	1477	1491	1498	1491	1485	1480	1466	1449	1438	1438	1444	1451	1466	1482	1496	1506	1506	1495	1489	1484	1478	1488	1466	1451	1448	1457	1468	0	0	0	0	0	0
0	0	0	0	0	0	0	0	0	0	0	0	0	0	0	0	0	0	0	0	0	0	0	0	0	0	0	0	0	0	0	0	0	0	0	0	0	0	0	0	0	0	0	0	0	0	0	0	0	0	0	0	0	0	0	0	0	0	0	0	0	0	0	0	0	0	0	0	0	0	0	0	0	0	0	0	0	0	0	0	0	0	0	0	0	0	0	0	0	0	0	0	0	0	0	0	0	0	0	0	0	0	0	0	0	0	0	0	0	0	0	0	0	0	0	0	0	0	0	0	0	0	0	0	0	0	0	0	0	0	0	0	0	0	0	0	0	0	0	0	0	0	0	0	0	0	0	0	0	0	0	0	0	0	0	0	0	0	0	0	0	0	0	0	0	0	0	0	0	0	0	0	0	0	0	0	0	0	0	0	0	0	0	1454	1440	1420	1407	1390	1388	1386	1393	1396	1404	1411	1407	1402	1407	1412	1419	1420	1417	1416	1413	1408	1414	1419	1421	1426	1426	1430	1438	1440	1435	1431	1432	1442	1444	1437	1429	1423	1422	1433	1433	1433	1421	1420	1425	1424	1424	1423	1420	1419	1420	1431	1432	1431	1431	1432	1443	1448	1441	1428	1410	1399	1399	1407	1416	1427	1436	1438	1438	1429	1425	1423	1432	1439	1439	1448	1450	1451	1454	1453	1454	1452	1451	1453	1443	1443	1445	1445	1441	1429	1429	1424	1421	1423	1424	1426	1427	1433	1428	1421	1418	1425	1438	1449	1454	1454	1451	1446	1437	1435	1445	1449	1441	1432	1429	1433	1442	1446	1440	1443	1445	1449	1449	1451	1447	1442	1439	1440	1448	1451	1449	1445	1436	1436	1441	1446	1444	1443	1446	1454	1450	1440	1431	1429	1431	1433	1429	1430	1427	1424	1429	1433	1421	1410	1417	1425	1423	1429	1443	1446	1452	1447	1437	1428	1418	1416	1424	1443	1462	1462	1448	1443	1441	1441	1438	1433	1431	1423	1433	1440	1437	1434	1429	1433	1448	1467	1474	1464	1456	1451	1447	1442	1445	1442	1446	1442	1437	1433	1432	1428	1422	1421	1424	1419	1413	1408	1412	1422	1433	1443	1444	1434	1441	1440	1440	1450	1459	1469	1465	1461	1452	1455	1461	1463	1453	1438	1442	1451	1452	1453	1459	1459	1454	1452	1451	1453	1461	1459	1471	1464	1455	1438	1430	1427	1428	1431	1438	1444	1447	1451	1454	1453	1456	1468	1470	1469	1462	1460	1458	1459	1463	1448	1434	1437	1442	1445	1460	1451	1438	1428	1425	1433	1446	1458	1460	1462	1461	1464	1461	1463	1473	1481	1483	1481	1472	1462	1457	1464	1463	1475	1458	1455	1450	1465	1475	1490	1498	1463	1462	0	0	0	0	0	0	0	0	0	0	0	0	0	0	0	0	0	0	0	0	0	0	0	0	1566	1555	1553	1543	1533	1542	1542	1540	1546	1561	1549	1555	1552	1550	1544	1546	1551	1546	1539	1536	1546	1548	1546	1539	1523	1517	1518	1522	1513	1511	0	0	0	0	0	0	0	0	0	0	0	0	0	0	0	0	0	0	0	0	0	1510	1487	1505	1518	1514	1510	1501	1494	1496	1500	1507	1528	1530	1519	1497	1481	1480	1484	1478	1467	1457	1474	1487	1486	1480	1476	1471	1462	1470	1484	1486	1488	1478	1473	1480	1491	1497	1487	1479	1465	1465	1465	1483	1494	1510	1508	1494	1477	1456	1455	1469	1486	1494	1504	1497	1483	1475	1460	1447	1445	1445	1447	1450	1464	1477	1490	1491	1496	1502	1499	1497	1497	1497	1479	1466	1470	1467	1463	0	0	0	0	0	0
0	0	0	0	0	0	0	0	0	0	0	0	0	0	0	0	0	0	0	0	0	0	0	0	0	0	0	0	0	0	0	0	0	0	0	0	0	0	0	0	0	0	0	0	0	0	0	0	0	0	0	0	0	0	0	0	0	0	0	0	0	0	0	0	0	0	0	0	0	0	0	0	0	0	0	0	0	0	0	0	0	0	0	0	0	0	0	0	0	0	0	0	0	0	0	0	0	0	0	0	0	0	0	0	0	0	0	0	0	0	0	0	0	0	0	0	0	0	0	0	0	0	0	0	0	0	0	0	0	0	0	0	0	0	0	0	0	0	0	0	0	0	0	0	0	0	0	0	0	0	0	0	0	0	0	0	0	0	0	0	0	0	0	0	0	0	0	0	0	0	0	0	0	0	0	0	0	0	0	0	0	0	0	1456	1442	1409	1386	1378	1374	1378	1380	1387	1395	1403	1405	1413	1413	1415	1426	1431	1426	1419	1424	1421	1427	1429	1432	1421	1428	1427	1430	1437	1433	1429	1423	1423	1420	1424	1413	1416	1414	1420	1425	1431	1428	1426	1418	1420	1420	1418	1418	1416	1425	1435	1433	1426	1424	1433	1446	1454	1450	1438	1423	1415	1415	1419	1427	1433	1440	1441	1438	1428	1430	1423	1415	1416	1434	1438	1444	1451	1450	1446	1441	1442	1447	1444	1443	1442	1445	1449	1447	1442	1435	1434	1438	1435	1429	1419	1413	1415	1418	1413	1416	1422	1434	1442	1453	1460	1459	1447	1436	1438	1453	1460	1438	1428	1423	1433	1445	1451	1454	1450	1450	1446	1448	1450	1442	1436	1429	1433	1437	1444	1445	1445	1435	1435	1437	1439	1442	1440	1441	1446	1440	1433	1421	1416	1426	1433	1432	1435	1436	1436	1442	1448	1420	1411	1420	1430	1440	1441	1450	1453	1457	1451	1442	1427	1420	1422	1434	1446	1453	1446	1438	1441	1444	1444	1440	1435	1428	1427	1426	1430	1429	1431	1432	1437	1449	1457	1460	1461	1456	1451	1452	1451	1451	1445	1447	1445	1444	1449	1447	1438	1428	1429	1435	1428	1416	1411	1413	1427	1439	1454	1452	1450	1450	1446	1445	1444	1451	1455	1456	1453	1452	1458	1464	1458	1453	1444	1442	1453	1456	1455	1461	1462	1454	1450	1449	1447	1453	1464	1470	1470	1453	1442	1442	1427	1426	1429	1432	1438	1446	1438	1443	1437	1444	1448	1455	1459	1457	1453	1456	1454	1457	1448	1447	1454	1464	1460	1473	1466	1458	1439	1433	1442	1453	1453	1450	1448	1450	1456	1459	1459	1465	1475	1479	1477	1466	1457	1455	1459	1459	1466	1461	1458	1458	1463	1469	1477	1478	1446	1446	0	0	0	0	0	0	0	0	0	0	0	0	0	0	0	0	0	0	0	0	0	0	0	0	1578	1573	1568	1556	1541	1546	1535	1527	1525	1538	1535	1534	1531	1547	1543	1547	1555	1546	1537	1536	1541	1556	1552	1545	1525	1512	1506	1500	1499	1504	0	0	0	0	0	0	0	0	0	0	0	0	0	0	0	0	0	0	0	0	0	1525	1492	1501	1498	1502	1506	1509	1507	1498	1494	1501	1507	1508	1499	1477	1468	1478	1482	1483	1481	1483	1492	1494	1492	1479	1467	1460	1453	1451	1481	1495	1496	1486	1477	1476	1484	1492	1495	1492	1479	1474	1474	1485	1510	1520	1508	1487	1469	1456	1458	1473	1496	1508	1506	1503	1499	1488	1474	1455	1446	1446	1450	1452	1465	1478	1491	1492	1496	1502	1509	1504	1494	1489	1489	1487	1482	1470	1461	0	0	0	0	0	0
0	0	0	0	0	0	0	0	0	0	0	0	0	0	0	0	0	0	0	0	0	0	0	0	0	0	0	0	0	0	0	0	0	0	0	0	0	0	0	0	0	0	0	0	0	0	0	0	0	0	0	0	0	0	0	0	0	0	0	0	0	0	0	0	0	0	0	0	0	0	0	0	0	0	0	0	0	0	0	0	0	0	0	0	0	0	0	0	0	0	0	0	0	0	0	0	0	0	0	0	0	0	0	0	0	0	0	0	0	0	0	0	0	0	0	0	0	0	0	0	0	0	0	0	0	0	0	0	0	0	0	0	0	0	0	0	0	0	0	0	0	0	0	0	0	0	0	0	0	0	0	0	0	0	0	0	0	0	0	0	0	0	0	0	0	0	0	0	0	0	0	0	0	0	0	0	0	0	0	0	0	0	0	1444	1445	1430	1407	1384	1378	1375	1378	1385	1394	1407	1417	1428	1430	1430	1431	1430	1427	1428	1431	1429	1428	1434	1422	1420	1422	1421	1424	1429	1418	1420	1411	1402	1409	1412	1420	1416	1414	1415	1423	1432	1427	1417	1409	1416	1419	1424	1421	1409	1417	1427	1432	1424	1422	1439	1447	1453	1449	1441	1427	1423	1422	1424	1428	1436	1437	1446	1442	1436	1429	1422	1414	1406	1422	1428	1437	1448	1453	1444	1435	1434	1435	1440	1438	1434	1440	1451	1444	1442	1439	1441	1448	1449	1440	1420	1405	1408	1412	1414	1427	1437	1438	1437	1440	1449	1454	1443	1441	1446	1460	1448	1436	1422	1420	1430	1444	1454	1454	1452	1445	1438	1444	1439	1440	1436	1430	1432	1434	1438	1448	1443	1432	1427	1431	1436	1433	1431	1437	1440	1437	1422	1416	1419	1426	1423	1427	1436	1436	1445	1452	1447	1416	1412	1420	1436	1451	1455	1459	1456	1451	1446	1437	1431	1419	1419	1428	1443	1446	1441	1435	1438	1443	1445	1449	1450	1438	1437	1432	1427	1424	1432	1443	1452	1460	1457	1454	1450	1448	1448	1453	1451	1449	1442	1443	1446	1448	1460	1455	1449	1440	1447	1441	1435	1428	1419	1420	1439	1455	1469	1478	1474	1460	1450	1452	1452	1458	1457	1451	1441	1451	1453	1455	1449	1444	1444	1448	1455	1455	1461	1465	1462	1449	1446	1442	1452	1455	1460	1469	1470	1469	1460	1453	1441	1426	1424	1426	1437	1438	1439	1437	1434	1440	1451	1449	1449	1447	1451	1452	1453	1456	1461	1461	1462	1472	1468	1481	1479	1470	1460	1452	1448	1450	1449	1443	1441	1447	1453	1458	1464	1473	1478	1466	1461	1459	1461	1463	1453	1449	1455	1453	1460	1462	1467	1468	1466	1460	1441	1448	0	0	0	0	0	0	0	0	0	0	0	0	0	0	0	0	0	0	0	0	0	0	0	0	1579	1571	1568	1565	1553	1537	1523	1521	1523	1525	1524	1521	1528	1531	1539	1541	1549	1545	1533	1535	1539	1549	1555	1545	1519	1511	1500	1489	1487	1515	0	0	0	0	0	0	0	0	0	0	0	0	0	0	0	0	0	0	0	0	0	1528	1490	1490	1492	1494	1499	1515	1517	1517	1504	1490	1491	1485	1479	1475	1480	1477	1476	1482	1481	1482	1494	1501	1496	1486	1468	1454	1449	1461	1482	1501	1506	1497	1478	1466	1473	1488	1495	1495	1486	1479	1494	1494	1512	1518	1499	1481	1463	1451	1456	1474	1489	1496	1498	1500	1505	1505	1493	1476	1463	1455	1455	1457	1468	1481	1495	1501	1506	1510	1511	1487	1480	1487	1487	1486	1487	1477	1457	0	0	0	0	0	0
0	0	0	0	0	0	0	0	0	0	0	0	0	0	0	0	0	0	0	0	0	0	0	0	0	0	0	0	0	0	0	0	0	0	0	0	0	0	0	0	0	0	0	0	0	0	0	0	0	0	0	0	0	0	0	0	0	0	0	0	0	0	0	0	0	0	0	0	0	0	0	0	0	0	0	0	0	0	0	0	0	0	0	0	0	0	0	0	0	0	0	0	0	0	0	0	0	0	0	0	0	0	0	0	0	0	0	0	0	0	0	0	0	0	0	0	0	0	0	0	0	0	0	0	0	0	0	0	0	0	0	0	0	0	0	0	0	0	0	0	0	0	0	0	0	0	0	0	0	0	0	0	0	0	0	0	0	0	0	0	0	0	0	0	0	0	0	0	0	0	0	0	0	0	0	0	0	0	0	0	0	0	0	1431	1443	1439	1422	1414	1400	1388	1380	1391	1394	1398	1416	1437	1438	1436	1432	1430	1430	1432	1427	1425	1422	1425	1428	1420	1421	1421	1419	1415	1415	1408	1404	1406	1411	1414	1428	1428	1430	1427	1429	1430	1423	1414	1407	1407	1420	1428	1427	1416	1412	1416	1421	1433	1442	1443	1445	1440	1441	1436	1428	1420	1413	1414	1419	1427	1440	1441	1436	1427	1425	1426	1418	1422	1419	1424	1431	1445	1442	1434	1436	1434	1431	1432	1434	1429	1434	1445	1443	1438	1433	1448	1456	1454	1450	1437	1414	1406	1412	1422	1440	1454	1449	1434	1433	1434	1439	1443	1433	1452	1462	1452	1436	1431	1430	1425	1435	1448	1453	1452	1446	1434	1434	1434	1440	1440	1441	1442	1439	1442	1443	1443	1437	1434	1425	1434	1440	1437	1439	1441	1429	1415	1415	1419	1428	1426	1425	1429	1439	1450	1450	1441	1412	1409	1422	1440	1455	1465	1466	1458	1451	1442	1436	1426	1417	1415	1426	1437	1439	1433	1430	1434	1435	1438	1447	1457	1457	1451	1438	1430	1426	1435	1452	1463	1464	1459	1450	1444	1448	1454	1456	1445	1441	1438	1435	1446	1450	1462	1455	1457	1452	1445	1442	1437	1436	1430	1438	1445	1461	1475	1486	1480	1469	1460	1459	1459	1461	1462	1452	1438	1448	1450	1450	1444	1439	1445	1454	1458	1458	1463	1468	1461	1449	1439	1439	1445	1448	1458	1462	1470	1466	1469	1457	1446	1429	1428	1424	1435	1438	1428	1428	1436	1445	1453	1445	1442	1445	1442	1445	1448	1461	1462	1455	1459	1464	1470	1479	1482	1477	1466	1455	1454	1454	1454	1454	1451	1459	1463	1463	1468	1473	1469	1460	1455	1463	1464	1470	1460	1448	1450	1447	1464	1470	1464	1462	1467	1456	1440	1462	0	0	0	0	0	0	0	0	0	0	0	0	0	0	0	0	0	0	0	0	0	0	0	0	1561	1555	1551	1554	1546	1529	1528	1526	1525	1529	1529	1528	1527	1528	1535	1537	1551	1534	1529	1532	1536	1545	1547	1538	1525	1514	1508	1501	1497	1521	0	0	0	0	0	0	0	0	0	0	0	0	0	0	0	0	0	0	0	0	1510	1528	1490	1482	1484	1491	1504	1515	1523	1520	1511	1511	1502	1494	1492	1493	1485	1482	1473	1472	1478	1487	1492	1499	1497	1488	1474	1464	1456	1463	1486	1511	1522	1507	1475	1461	1466	1482	1492	1491	1490	1481	1489	1489	1499	1497	1479	1473	1461	1458	1460	1466	1479	1487	1492	1492	1494	1499	1488	1477	1465	1458	1458	1461	1467	1480	1493	1499	1504	1503	1488	1478	1472	1475	1475	1482	1483	1476	1464	0	0	0	0	0	0
0	0	0	0	0	0	0	0	0	0	0	0	0	0	0	0	0	0	0	0	0	0	0	0	0	0	0	0	0	0	0	0	0	0	0	0	0	0	0	0	0	0	0	0	0	0	0	0	0	0	0	0	0	0	0	0	0	0	0	0	0	0	0	0	0	0	0	0	0	0	0	0	0	0	0	0	0	0	0	0	0	0	0	0	0	0	0	0	0	0	0	0	0	0	0	0	0	0	0	0	0	0	0	0	0	0	0	0	0	0	0	0	0	0	0	0	0	0	0	0	0	0	0	0	0	0	0	0	0	0	0	0	0	0	0	0	0	0	0	0	0	0	0	0	0	0	0	0	0	0	0	0	0	0	0	0	0	0	0	0	0	0	0	0	0	0	0	0	0	0	0	0	0	0	0	0	0	0	0	0	0	0	0	1409	1435	1440	1433	1429	1418	1404	1389	1397	1391	1403	1416	1432	1434	1424	1427	1433	1430	1426	1421	1419	1419	1429	1438	1431	1433	1427	1416	1417	1415	1410	1398	1406	1421	1438	1450	1452	1445	1432	1430	1430	1426	1413	1407	1412	1421	1427	1421	1411	1404	1415	1428	1437	1439	1440	1433	1426	1429	1427	1417	1409	1404	1400	1400	1413	1426	1435	1433	1430	1431	1434	1433	1426	1423	1426	1428	1437	1434	1431	1436	1434	1436	1428	1420	1428	1433	1438	1439	1433	1435	1449	1451	1451	1443	1429	1414	1405	1413	1425	1446	1454	1451	1433	1426	1425	1427	1438	1441	1447	1454	1455	1446	1442	1438	1428	1428	1438	1454	1458	1448	1438	1428	1416	1425	1442	1442	1444	1440	1438	1433	1435	1436	1436	1436	1439	1441	1444	1446	1440	1425	1415	1415	1425	1444	1445	1442	1446	1463	1473	1459	1438	1413	1400	1408	1428	1452	1463	1466	1465	1473	1456	1436	1417	1397	1408	1417	1432	1437	1431	1428	1426	1427	1434	1447	1457	1464	1460	1450	1437	1441	1450	1458	1470	1468	1464	1456	1453	1460	1464	1459	1447	1441	1437	1438	1441	1450	1457	1456	1455	1457	1448	1434	1436	1446	1451	1451	1449	1463	1474	1481	1474	1464	1457	1457	1461	1455	1451	1442	1434	1445	1448	1447	1442	1439	1443	1454	1457	1456	1457	1457	1450	1441	1438	1433	1436	1439	1447	1456	1464	1467	1462	1455	1443	1440	1428	1428	1438	1435	1434	1426	1438	1447	1448	1445	1443	1452	1452	1445	1445	1445	1455	1454	1456	1461	1460	1463	1473	1464	1455	1451	1446	1450	1459	1461	1464	1465	1467	1470	1473	1473	1462	1457	1451	1460	1465	1475	1476	1460	1444	1452	1467	1473	1467	1463	1462	1451	1462	1504	0	0	0	0	0	0	0	0	0	0	0	0	0	0	0	0	0	0	0	0	0	0	0	0	1560	1546	1532	1536	1538	1540	1529	1526	1527	1537	1535	1531	1531	1528	1533	1540	1535	1520	1516	1519	1540	1550	1543	1531	1526	1526	1520	1521	1506	1519	0	0	0	0	0	0	0	0	0	0	0	0	0	0	0	0	0	0	0	0	1491	1513	1488	1482	1483	1487	1507	1530	1552	1543	1535	1516	1504	1502	1505	1499	1496	1484	1473	1472	1477	1484	1492	1502	1499	1487	1471	1463	1459	1473	1486	1519	1527	1514	1484	1470	1470	1477	1489	1494	1493	1481	1489	1487	1487	1476	1468	1464	1464	1462	1459	1465	1466	1484	1491	1494	1496	1492	1484	1476	1463	1460	1460	1465	1474	1476	1484	1489	1493	1494	1482	1478	1474	1468	1468	1472	1478	1476	1470	0	0	0	0	0	0
0	0	0	0	0	0	0	0	0	0	0	0	0	0	0	0	0	0	0	0	0	0	0	0	0	0	0	0	0	0	0	0	0	0	0	0	0	0	0	0	0	0	0	0	0	0	0	0	0	0	0	0	0	0	0	0	0	0	0	0	0	0	0	0	0	0	0	0	0	0	0	0	0	0	0	0	0	0	0	0	0	0	0	0	0	0	0	0	0	0	0	0	0	0	0	0	0	0	0	0	0	0	0	0	0	0	0	0	0	0	0	0	0	0	0	0	0	0	0	0	0	0	0	0	0	0	0	0	0	0	0	0	0	0	0	0	0	0	0	0	0	0	0	0	0	0	0	0	0	0	0	0	0	0	0	0	0	0	0	0	0	0	0	0	0	0	0	0	0	0	0	0	0	0	0	0	0	0	0	0	0	0	0	1388	1411	1428	1438	1435	1426	1419	1407	1408	1404	1406	1416	1423	1412	1411	1416	1416	1423	1413	1415	1414	1417	1429	1443	1450	1446	1437	1433	1433	1422	1399	1401	1406	1431	1448	1453	1451	1443	1431	1410	1412	1419	1409	1411	1415	1421	1418	1409	1396	1410	1419	1430	1435	1437	1431	1426	1418	1421	1422	1418	1411	1400	1391	1389	1397	1407	1427	1429	1429	1433	1436	1439	1420	1417	1420	1418	1423	1419	1424	1432	1439	1441	1434	1424	1428	1427	1437	1438	1437	1433	1439	1443	1436	1426	1424	1413	1412	1421	1431	1437	1448	1443	1435	1424	1417	1423	1434	1443	1445	1441	1444	1445	1445	1429	1424	1434	1440	1455	1458	1455	1439	1417	1416	1421	1427	1442	1440	1440	1433	1428	1430	1435	1440	1442	1439	1440	1429	1426	1424	1421	1424	1429	1437	1455	1454	1449	1447	1466	1462	1458	1425	1404	1401	1411	1420	1447	1458	1442	1429	1445	1447	1443	1440	1438	1431	1414	1425	1443	1452	1448	1430	1427	1432	1449	1459	1462	1455	1448	1447	1451	1464	1467	1468	1471	1469	1472	1469	1469	1470	1472	1461	1453	1441	1432	1437	1441	1446	1456	1453	1446	1436	1435	1443	1453	1457	1454	1449	1457	1470	1478	1462	1450	1440	1441	1444	1445	1441	1434	1433	1439	1434	1429	1430	1431	1440	1445	1445	1446	1445	1443	1440	1434	1432	1436	1437	1445	1450	1454	1457	1454	1453	1447	1447	1442	1436	1435	1438	1437	1434	1441	1453	1440	1433	1433	1442	1449	1456	1457	1448	1443	1446	1447	1436	1447	1460	1453	1451	1449	1431	1430	1430	1437	1453	1465	1470	1465	1465	1469	1475	1475	1475	1473	1463	1457	1463	1476	1482	1468	1452	1450	1458	1464	1465	1457	1449	1443	1452	0	0	0	0	0	0	0	0	0	0	0	0	0	0	0	0	0	0	0	0	0	0	0	0	0	1578	1555	1544	1531	1532	1544	1536	1526	1532	1536	1541	1537	1532	1531	1537	1540	1539	1520	1507	1515	1533	1539	1537	1530	1543	1550	1549	1530	1519	1501	0	0	0	0	0	0	0	0	0	0	0	0	0	0	0	0	0	0	0	1477	1469	1479	1487	1490	1486	1488	1500	1528	1547	1546	1520	1502	1494	1498	1501	1506	1504	1487	1475	1473	1478	1491	1501	1500	1494	1481	1468	1462	1465	1470	1493	1515	1530	1516	1494	1481	1473	1482	1489	1498	1492	1488	1483	1474	1474	1456	1454	1458	1460	1464	1462	1459	1463	1482	1485	1485	1495	1495	1493	1478	1472	1470	1470	1470	1475	1478	1478	1478	1479	1471	1475	1476	1473	1468	1474	1474	1480	1482	1480	0	0	0	0	0	0
0	0	0	0	0	0	0	0	0	0	0	0	0	0	0	0	0	0	0	0	0	0	0	0	0	0	0	0	0	0	0	0	0	0	0	0	0	0	0	0	0	0	0	0	0	0	0	0	0	0	0	0	0	0	0	0	0	0	0	0	0	0	0	0	0	0	0	0	0	0	0	0	0	0	0	0	0	0	0	0	0	0	0	0	0	0	0	0	0	0	0	0	0	0	0	0	0	0	0	0	0	0	0	0	0	0	0	0	0	0	0	0	0	0	0	0	0	0	0	0	0	0	0	0	0	0	0	0	0	0	0	0	0	0	0	0	0	0	0	0	0	0	0	0	0	0	0	0	0	0	0	0	0	0	0	0	0	0	0	0	0	0	0	0	0	0	0	0	0	0	0	0	0	0	0	0	0	0	0	0	0	0	0	1379	1393	1411	1426	1428	1434	1423	1421	1423	1416	1417	1406	1410	1399	1391	1401	1410	1399	1404	1408	1420	1420	1428	1443	1450	1454	1449	1442	1431	1426	1404	1401	1406	1422	1437	1445	1440	1428	1420	1411	1401	1409	1406	1397	1396	1405	1397	1389	1403	1413	1421	1423	1427	1427	1427	1420	1411	1414	1417	1417	1415	1402	1394	1390	1392	1408	1429	1433	1434	1431	1427	1424	1412	1414	1411	1418	1414	1420	1425	1440	1440	1446	1444	1429	1430	1436	1441	1435	1434	1435	1432	1429	1427	1418	1418	1415	1421	1429	1431	1431	1435	1441	1432	1418	1412	1419	1432	1440	1446	1438	1435	1437	1437	1435	1438	1442	1449	1459	1455	1449	1438	1429	1421	1420	1423	1436	1441	1444	1436	1427	1421	1445	1440	1447	1448	1445	1434	1422	1417	1419	1427	1440	1448	1458	1456	1456	1451	1469	1457	1447	1408	1397	1400	1417	1427	1439	1427	1438	1430	1435	1419	1442	1441	1430	1438	1438	1423	1434	1450	1454	1445	1449	1452	1456	1463	1456	1447	1440	1444	1451	1460	1462	1461	1470	1477	1477	1474	1466	1459	1457	1446	1442	1445	1435	1435	1437	1441	1442	1438	1423	1422	1426	1438	1451	1455	1451	1438	1437	1453	1461	1447	1427	1421	1422	1423	1425	1431	1436	1432	1425	1427	1420	1413	1408	1417	1432	1435	1438	1434	1433	1427	1425	1423	1427	1442	1453	1460	1466	1461	1449	1442	1437	1439	1440	1440	1436	1436	1438	1438	1440	1449	1437	1425	1424	1435	1454	1462	1463	1459	1451	1445	1438	1426	1428	1432	1428	1432	1429	1424	1419	1423	1435	1442	1459	1460	1451	1435	1442	1449	1450	1463	1464	1441	1447	1454	1470	1476	1463	1454	1456	1457	1459	1458	1453	1436	1433	1449	0	0	0	0	0	0	0	0	0	0	0	0	0	0	0	0	0	0	0	0	0	0	0	0	0	1602	1580	1566	1555	1538	1544	1538	1523	1545	1560	1553	1546	1544	1540	1535	1538	1527	1513	1505	1513	1530	1533	1525	1526	1546	1545	1545	1541	1523	1530	0	0	0	0	0	0	0	0	0	0	0	0	0	0	0	0	0	0	0	0	1480	1478	1487	1485	1484	1475	1479	1507	1541	1530	1515	1490	1488	1492	1500	1507	1498	1488	1480	1470	1484	1501	1505	1499	1486	1469	1461	1462	1470	1476	1490	1507	1518	1510	1504	1497	1488	1489	1493	1497	1493	1487	1470	1461	1456	1456	1454	1460	1471	1478	1478	1462	1462	1475	1485	1493	1504	1505	1492	1481	1477	1477	1477	1477	1477	1473	1475	1475	1466	1456	1460	1464	1474	1474	1470	1470	1475	1479	1488	0	0	0	0	0	0
0	0	0	0	0	0	0	0	0	0	0	0	0	0	0	0	0	0	0	0	0	0	0	0	0	0	0	0	0	0	0	0	0	0	0	0	0	0	0	0	0	0	0	0	0	0	0	0	0	0	0	0	0	0	0	0	0	0	0	0	0	0	0	0	0	0	0	0	0	0	0	0	0	0	0	0	0	0	0	0	0	0	0	0	0	0	0	0	0	0	0	0	0	0	0	0	0	0	0	0	0	0	0	0	0	0	0	0	0	0	0	0	0	0	0	0	0	0	0	0	0	0	0	0	0	0	0	0	0	0	0	0	0	0	0	0	0	0	0	0	0	0	0	0	0	0	0	0	0	0	0	0	0	0	0	0	0	0	0	0	0	0	0	0	0	0	0	0	0	0	0	0	0	0	0	0	0	0	0	0	0	0	0	1390	1399	1408	1417	1418	1421	1421	1424	1428	1435	1428	1415	1399	1387	1385	1384	1390	1386	1396	1412	1432	1426	1438	1439	1451	1448	1445	1436	1429	1426	1412	1409	1402	1426	1438	1443	1441	1432	1419	1413	1404	1397	1393	1395	1394	1399	1395	1400	1416	1423	1422	1423	1427	1425	1424	1418	1414	1404	1411	1413	1413	1410	1410	1403	1407	1418	1435	1436	1438	1431	1424	1418	1411	1411	1409	1407	1413	1415	1421	1429	1438	1441	1438	1434	1436	1437	1436	1436	1435	1428	1431	1429	1420	1423	1422	1422	1429	1437	1435	1433	1433	1437	1434	1421	1416	1420	1428	1438	1440	1437	1430	1424	1427	1431	1441	1444	1450	1455	1446	1437	1418	1411	1417	1418	1416	1425	1447	1466	1469	1454	1441	1452	1445	1450	1452	1455	1443	1437	1429	1432	1440	1443	1447	1447	1446	1453	1465	1476	1446	1442	1400	1394	1411	1424	1430	1426	1415	1417	1432	1442	1430	1430	1430	1445	1452	1441	1453	1435	1448	1447	1439	1439	1438	1444	1451	1449	1445	1441	1432	1427	1430	1434	1450	1464	1475	1474	1466	1458	1444	1429	1419	1427	1436	1432	1432	1436	1437	1437	1431	1423	1417	1417	1434	1447	1451	1441	1431	1433	1445	1453	1436	1414	1401	1405	1415	1422	1427	1445	1444	1436	1425	1415	1409	1401	1412	1423	1432	1436	1425	1420	1425	1427	1415	1410	1417	1435	1467	1477	1474	1452	1438	1430	1433	1433	1436	1436	1441	1444	1435	1430	1431	1424	1419	1423	1447	1464	1471	1472	1467	1461	1457	1449	1449	1458	1475	1477	1463	1430	1424	1418	1422	1426	1442	1443	1445	1439	1428	1429	1435	1441	1451	1452	1441	1441	1443	1462	1472	1465	1465	1463	1460	1455	1454	1444	1433	1425	1435	0	0	0	0	0	0	0	0	0	0	0	0	0	0	0	0	0	0	0	0	0	0	0	0	0	1605	1599	1602	1573	1531	1536	1536	1545	1557	1590	1582	1557	1547	1544	1538	1532	1515	1501	1505	1510	1518	1524	1529	1541	1544	1545	1546	1542	1534	1557	0	0	0	0	0	0	0	0	0	0	0	0	0	0	0	0	0	0	0	0	0	1489	1484	1482	1476	1475	1473	1493	1524	1530	1509	1495	1490	1492	1497	1497	1499	1494	1488	1487	1497	1497	1497	1489	1476	1463	1459	1466	1474	1480	1483	1495	1503	1515	1512	1513	1502	1494	1490	1491	1487	1474	1465	1456	1456	1456	1466	1469	1485	1492	1493	1478	1466	1476	1480	1491	1504	1506	1484	1464	1470	1463	1464	1464	1467	1473	1475	1475	1467	1462	1462	1473	1474	1477	1477	1477	1483	1491	1498	0	0	0	0	0	0
0	0	0	0	0	0	0	0	0	0	0	0	0	0	0	0	0	0	0	0	0	0	0	0	0	0	0	0	0	0	0	0	0	0	0	0	0	0	0	0	0	0	0	0	0	0	0	0	0	0	0	0	0	0	0	0	0	0	0	0	0	0	0	0	0	0	0	0	0	0	0	0	0	0	0	0	0	0	0	0	0	0	0	0	0	0	0	0	0	0	0	0	0	0	0	0	0	0	0	0	0	0	0	0	0	0	0	0	0	0	0	0	0	0	0	0	0	0	0	0	0	0	0	0	0	0	0	0	0	0	0	0	0	0	0	0	0	0	0	0	0	0	0	0	0	0	0	0	0	0	0	0	0	0	0	0	0	0	0	0	0	0	0	0	0	0	0	0	0	0	0	0	0	0	0	0	0	0	0	0	0	0	0	1388	1406	1417	1414	1417	1421	1410	1409	1437	1448	1455	1425	1404	1375	1368	1364	1371	1380	1401	1416	1428	1433	1440	1435	1434	1416	1396	1388	1399	1405	1406	1408	1419	1425	1431	1447	1442	1433	1424	1416	1409	1387	1379	1385	1403	1406	1410	1411	1432	1448	1444	1440	1431	1431	1424	1421	1403	1394	1395	1404	1406	1404	1412	1419	1429	1442	1452	1455	1440	1425	1424	1428	1418	1412	1405	1408	1414	1415	1412	1414	1424	1426	1429	1427	1428	1426	1429	1432	1434	1437	1444	1442	1437	1439	1440	1439	1438	1439	1444	1443	1443	1448	1448	1439	1422	1419	1425	1434	1442	1441	1431	1419	1417	1424	1433	1440	1445	1433	1432	1421	1406	1404	1414	1417	1435	1449	1462	1468	1476	1474	1465	1453	1454	1458	1462	1462	1455	1449	1444	1445	1446	1446	1443	1436	1437	1441	1463	1480	1462	1443	1406	1404	1420	1430	1432	1430	1416	1420	1438	1432	1438	1434	1427	1430	1438	1437	1467	1441	1448	1447	1436	1432	1438	1450	1453	1455	1444	1441	1432	1430	1432	1435	1436	1425	1419	1421	1431	1437	1437	1434	1434	1434	1434	1433	1436	1436	1436	1436	1432	1436	1437	1433	1428	1431	1426	1425	1424	1429	1437	1432	1422	1408	1410	1407	1416	1415	1415	1412	1421	1420	1419	1421	1436	1449	1460	1459	1449	1433	1417	1415	1414	1418	1418	1402	1400	1408	1430	1431	1430	1434	1441	1435	1434	1431	1430	1436	1439	1451	1442	1437	1431	1421	1410	1417	1437	1449	1450	1459	1470	1469	1472	1463	1459	1484	1492	1482	1468	1455	1446	1441	1438	1440	1446	1448	1460	1451	1444	1438	1444	1453	1461	1460	1460	1451	1448	1454	1468	1475	1480	1478	1473	1465	1452	1443	1436	1435	1439	0	0	0	0	0	0	0	0	0	0	0	0	0	0	0	0	0	0	0	0	0	0	0	0	0	1593	1599	1611	1608	1572	1543	1544	1553	1561	1601	1597	1558	1542	1545	1531	1526	1508	1502	1509	1512	1518	1525	1547	1548	1551	1545	1539	1538	1534	1559	0	0	0	0	0	0	0	0	0	0	0	0	0	0	0	0	0	0	0	0	0	1503	1477	1464	1466	1477	1479	1500	1529	1523	1509	1496	1496	1489	1490	1490	1495	1499	1495	1494	1502	1499	1493	1481	1472	1457	1460	1473	1486	1482	1482	1489	1498	1510	1521	1517	1504	1497	1491	1484	1472	1461	1449	1445	1453	1467	1467	1467	1481	1494	1499	1496	1479	1474	1474	1483	1505	1511	1494	1474	1444	1443	1447	1453	1453	1465	1476	1477	1477	1472	1478	1477	1478	1479	1480	1480	1484	1497	1503	0	0	0	0	0	0
0	0	0	0	0	0	0	0	0	0	0	0	0	0	0	0	0	0	0	0	0	0	0	0	0	0	0	0	0	0	0	0	0	0	0	0	0	0	0	0	0	0	0	0	0	0	0	0	0	0	0	0	0	0	0	0	0	0	0	0	0	0	0	0	0	0	0	0	0	0	0	0	0	0	0	0	0	0	0	0	0	0	0	0	0	0	0	0	0	0	0	0	0	0	0	0	0	0	0	0	0	0	0	0	0	0	0	0	0	0	0	0	0	0	0	0	0	0	0	0	0	0	0	0	0	0	0	0	0	0	0	0	0	0	0	0	0	0	0	0	0	0	0	0	0	0	0	0	0	0	0	0	0	0	0	0	0	0	0	0	0	0	0	0	0	0	0	0	0	0	0	0	0	0	0	0	0	0	0	0	0	0	1373	1405	1420	1425	1422	1425	1418	1408	1410	1432	1449	1455	1434	1407	1372	1364	1368	1379	1383	1404	1416	1427	1427	1429	1426	1421	1403	1383	1377	1387	1428	1438	1426	1426	1425	1428	1430	1438	1430	1423	1415	1396	1390	1385	1402	1416	1420	1422	1428	1442	1455	1458	1452	1439	1436	1432	1424	1417	1404	1400	1400	1401	1402	1409	1416	1430	1441	1455	1459	1450	1427	1426	1431	1426	1418	1411	1409	1412	1413	1412	1411	1417	1419	1431	1424	1420	1422	1417	1424	1435	1442	1448	1450	1441	1446	1445	1445	1441	1442	1439	1441	1449	1454	1457	1448	1430	1421	1422	1431	1446	1442	1427	1401	1400	1413	1427	1434	1436	1421	1423	1414	1411	1419	1421	1429	1435	1442	1448	1455	1458	1464	1461	1458	1453	1454	1449	1455	1448	1448	1452	1454	1452	1445	1436	1430	1433	1433	1442	1456	1461	1443	1425	1411	1428	1435	1433	1431	1429	1432	1437	1451	1430	1438	1429	1429	1434	1437	1440	1438	1454	1442	1436	1431	1439	1453	1460	1457	1446	1435	1431	1430	1436	1440	1439	1437	1428	1431	1442	1448	1452	1441	1441	1442	1443	1434	1441	1442	1441	1437	1435	1438	1443	1439	1432	1435	1434	1429	1427	1431	1433	1433	1426	1419	1418	1421	1421	1420	1413	1416	1425	1425	1423	1432	1440	1456	1464	1466	1455	1441	1431	1425	1423	1424	1422	1416	1416	1419	1428	1424	1417	1414	1439	1442	1434	1422	1421	1422	1425	1436	1436	1447	1439	1428	1418	1416	1431	1442	1448	1448	1461	1464	1473	1469	1466	1486	1490	1481	1466	1459	1446	1443	1451	1452	1453	1454	1461	1469	1470	1458	1453	1453	1462	1464	1457	1458	1462	1473	1476	1486	1487	1484	1480	1469	1463	1457	1451	1452	1453	1461	0	0	0	0	0	0	0	0	0	0	0	0	0	0	0	0	0	0	0	0	0	0	0	0	1582	1592	1605	1616	1600	1573	1552	1560	1565	1563	1544	1540	1536	1532	1532	1508	1515	1516	1517	1524	1526	1541	1559	1564	1561	1555	1548	1534	1530	1546	0	0	0	0	0	0	0	0	0	0	0	0	0	0	0	0	0	0	0	0	1533	1504	1467	1458	1463	1476	1483	1498	1521	1512	1510	1500	1494	1486	1482	1483	1492	1499	1500	1504	1506	1502	1493	1490	1480	1470	1467	1479	1490	1492	1487	1493	1490	1500	1513	1515	1511	1507	1497	1485	1465	1443	1432	1436	1451	1462	1462	1464	1477	1485	1492	1491	1479	1473	1473	1476	1485	1486	1497	1461	1437	1431	1437	1444	1444	1450	1468	1478	1480	1481	1477	1481	1477	1486	1486	1489	1489	1497	1501	0	0	0	0	0	0
0	0	0	0	0	0	0	0	0	0	0	0	0	0	0	0	0	0	0	0	0	0	0	0	0	0	0	0	0	0	0	0	0	0	0	0	0	0	0	0	0	0	0	0	0	0	0	0	0	0	0	0	0	0	0	0	0	0	0	0	0	0	0	0	0	0	0	0	0	0	0	0	0	0	0	0	0	0	0	0	0	0	0	0	0	0	0	0	0	0	0	0	0	0	0	0	0	0	0	0	0	0	0	0	0	0	0	0	0	0	0	0	0	0	0	0	0	0	0	0	0	0	0	0	0	0	0	0	0	0	0	0	0	0	0	0	0	0	0	0	0	0	0	0	0	0	0	0	0	0	0	0	0	0	0	0	0	0	0	0	0	0	0	0	0	0	0	0	0	0	0	0	0	0	0	0	0	0	0	0	0	0	1365	1413	1439	1444	1449	1432	1422	1414	1398	1403	1422	1442	1437	1419	1388	1377	1382	1391	1398	1397	1406	1402	1406	1410	1417	1413	1404	1405	1395	1395	1432	1436	1430	1427	1441	1434	1438	1426	1417	1418	1415	1410	1407	1409	1407	1414	1417	1410	1402	1407	1429	1446	1459	1465	1465	1458	1446	1442	1440	1437	1434	1429	1427	1422	1413	1412	1423	1449	1460	1450	1442	1437	1435	1429	1423	1423	1425	1431	1425	1423	1423	1425	1426	1431	1428	1420	1413	1415	1427	1443	1448	1451	1448	1443	1434	1434	1439	1433	1426	1414	1420	1428	1443	1452	1446	1439	1434	1419	1425	1433	1436	1421	1403	1403	1415	1427	1422	1429	1427	1422	1421	1421	1418	1426	1432	1435	1440	1443	1437	1439	1445	1446	1447	1445	1452	1448	1443	1442	1440	1443	1441	1431	1423	1422	1424	1436	1435	1437	1444	1455	1433	1424	1422	1437	1441	1440	1434	1437	1441	1446	1452	1469	1486	1462	1443	1426	1416	1420	1446	1448	1442	1431	1428	1436	1450	1461	1459	1440	1428	1422	1430	1440	1448	1445	1450	1449	1445	1446	1461	1466	1471	1469	1459	1448	1447	1449	1449	1449	1437	1439	1447	1448	1447	1438	1438	1442	1436	1431	1430	1432	1429	1433	1432	1430	1432	1430	1426	1421	1429	1434	1428	1432	1439	1444	1449	1459	1464	1461	1456	1447	1444	1438	1437	1432	1426	1425	1429	1428	1420	1404	1408	1437	1451	1440	1429	1420	1409	1413	1418	1435	1444	1445	1437	1431	1423	1430	1441	1451	1455	1454	1458	1463	1462	1463	1477	1471	1462	1458	1446	1435	1435	1438	1435	1431	1443	1450	1467	1469	1462	1454	1454	1464	1463	1462	1471	1474	1481	1489	1481	1480	1479	1478	1472	1468	1470	1469	1464	1463	1464	0	0	0	0	0	0	0	0	0	0	0	0	0	0	0	0	0	0	0	0	0	0	0	0	1571	1556	1557	1576	1605	1593	1568	1564	1562	1537	1516	1529	1527	1527	1525	1521	1527	1529	1526	1531	1541	1558	1562	1564	1555	1546	1540	1532	1526	1543	0	0	0	0	0	0	0	0	0	0	0	0	0	0	0	0	0	0	0	0	1523	1493	1470	1463	1466	1471	1486	1490	1501	1506	1504	1496	1492	1482	1480	1474	1478	1490	1502	1505	1506	1501	1499	1501	1501	1491	1485	1485	1494	1504	1510	1510	1504	1500	1509	1508	1515	1515	1509	1490	1467	1442	1431	1430	1437	1450	1450	1458	1469	1477	1481	1481	1478	1477	1477	1475	1475	1485	1482	1467	1454	1444	1441	1442	1453	1463	1461	1473	1480	1487	1475	1480	1480	1479	1481	1486	1486	1486	1484	0	0	0	0	0	0
0	0	0	0	0	0	0	0	0	0	0	0	0	0	0	0	0	0	0	0	0	0	0	0	0	0	0	0	0	0	0	0	0	0	0	0	0	0	0	0	0	0	0	0	0	0	0	0	0	0	0	0	0	0	0	0	0	0	0	0	0	0	0	0	0	0	0	0	0	0	0	0	0	0	0	0	0	0	0	0	0	0	0	0	0	0	0	0	0	0	0	0	0	0	0	0	0	0	0	0	1417	1434	1443	1439	1418	1403	1403	1419	1432	1453	1466	1471	1459	1448	1432	1433	1436	1440	1434	1435	1440	1444	1451	1452	1443	1425	1406	1402	1394	1386	1390	0	0	0	0	0	0	0	0	0	0	0	0	0	0	0	0	0	0	0	0	0	0	0	0	0	0	0	0	0	0	0	0	0	0	0	0	0	0	0	0	0	0	0	0	0	0	0	0	0	0	0	1377	1417	1451	1449	1441	1432	1424	1400	1394	1400	1409	1427	1433	1434	1416	1407	1398	1411	1406	1404	1411	1419	1425	1424	1416	1414	1412	1411	1402	1396	1411	1420	1425	1442	1448	1446	1435	1429	1422	1421	1413	1402	1402	1405	1408	1411	1410	1411	1415	1419	1434	1440	1456	1466	1471	1467	1458	1455	1451	1450	1441	1433	1431	1426	1416	1414	1416	1426	1433	1435	1434	1434	1432	1421	1415	1412	1431	1434	1437	1435	1429	1431	1433	1432	1428	1419	1418	1419	1437	1447	1442	1441	1439	1432	1435	1440	1441	1442	1434	1426	1425	1426	1425	1422	1439	1438	1437	1436	1436	1435	1423	1417	1414	1413	1417	1422	1429	1430	1428	1426	1422	1416	1426	1436	1442	1440	1444	1442	1438	1435	1435	1444	1450	1457	1458	1457	1445	1439	1440	1440	1437	1438	1431	1432	1433	1443	1439	1439	1435	1423	1420	1417	1425	1439	1443	1441	1438	1441	1445	1443	1440	1436	1448	1442	1429	1422	1424	1430	1441	1439	1431	1421	1424	1434	1444	1448	1446	1432	1419	1423	1432	1442	1455	1462	1464	1463	1461	1462	1466	1468	1473	1469	1454	1441	1441	1447	1454	1456	1449	1447	1450	1454	1449	1443	1444	1446	1442	1436	1434	1430	1432	1436	1441	1439	1439	1429	1438	1442	1440	1441	1440	1444	1442	1440	1443	1449	1452	1453	1459	1458	1458	1454	1446	1440	1436	1435	1432	1429	1420	1411	1409	1418	1459	1462	1448	1421	1407	1405	1415	1434	1445	1446	1440	1431	1425	1432	1445	1455	1461	1458	1458	1456	1461	1460	1458	1447	1443	1446	1440	1433	1423	1423	1423	1426	1430	1444	1468	1470	1465	1459	1458	1462	1459	1464	1474	1480	1481	1480	1479	1472	1474	1480	1478	1479	1481	1475	1471	1462	1465	0	0	0	0	0	0	0	0	0	0	0	0	0	0	0	0	0	0	0	0	0	0	0	0	1545	1514	1508	1530	1589	1595	1554	1558	1554	1537	1529	1523	1535	1539	1534	1536	1542	1541	1544	1548	1550	1563	1556	1552	1545	1541	1537	1534	1541	1556	0	0	0	0	0	0	0	0	0	0	0	0	0	0	0	0	0	0	0	0	1511	1489	1478	1480	1480	1482	1489	1490	1500	1493	1493	1488	1485	1477	1468	1465	1470	1484	1502	1509	1507	1507	1504	1506	1506	1505	1500	1498	1507	1515	1532	1533	1516	1509	1507	1508	1505	1509	1513	1496	1471	1447	1428	1429	1435	1440	1447	1447	1458	1473	1484	1484	1482	1485	1483	1481	1488	1489	1485	1488	1481	1465	1455	1438	1438	1438	1437	1469	1477	1482	1477	1479	1474	1473	1472	1472	1472	1474	1470	0	0	0	0	0	0
0	0	0	0	0	0	0	0	0	0	0	0	0	0	0	0	0	0	0	0	0	0	0	0	0	0	0	0	0	0	0	0	0	0	0	0	0	0	0	0	0	0	0	0	0	0	0	0	0	0	0	0	0	0	0	0	0	0	0	0	0	0	0	0	0	0	0	0	0	0	0	0	0	0	0	0	0	0	0	0	0	0	0	0	0	0	0	0	0	1402	1408	1425	1438	1431	1422	1412	1416	1416	1415	1412	1414	1409	1423	1435	1447	1449	1451	1448	1442	1440	1435	1435	1432	1428	1431	1441	1444	1436	1426	1425	1446	1452	1456	1457	1462	1455	1448	1442	1427	1408	1402	1393	0	0	0	0	0	0	0	0	0	0	0	0	0	0	0	0	0	0	0	0	0	0	0	0	0	0	0	0	0	0	0	0	0	0	0	0	0	0	0	0	0	0	0	0	0	0	0	0	0	0	1394	1415	1436	1439	1437	1425	1405	1396	1393	1399	1415	1432	1443	1448	1437	1433	1427	1429	1423	1417	1419	1426	1435	1428	1427	1420	1421	1415	1405	1396	1416	1421	1420	1422	1430	1425	1430	1430	1422	1418	1411	1399	1396	1403	1408	1406	1416	1424	1436	1444	1443	1442	1454	1457	1459	1456	1449	1450	1452	1451	1442	1429	1425	1421	1414	1413	1413	1418	1425	1425	1419	1420	1419	1412	1398	1405	1423	1435	1438	1429	1422	1433	1440	1429	1418	1417	1421	1435	1438	1437	1433	1432	1435	1440	1442	1446	1453	1447	1449	1438	1434	1423	1422	1421	1427	1436	1446	1448	1445	1438	1423	1414	1413	1413	1424	1427	1430	1428	1430	1424	1411	1414	1424	1441	1441	1443	1444	1445	1440	1433	1435	1440	1448	1462	1469	1463	1450	1441	1437	1434	1441	1444	1443	1439	1442	1442	1444	1437	1421	1407	1429	1438	1449	1435	1440	1440	1437	1441	1434	1429	1425	1426	1424	1419	1418	1423	1426	1431	1435	1430	1421	1413	1416	1435	1445	1438	1427	1420	1417	1423	1434	1443	1455	1463	1467	1467	1465	1465	1464	1461	1456	1457	1441	1435	1433	1434	1444	1445	1450	1448	1450	1451	1453	1456	1457	1459	1450	1444	1440	1439	1439	1444	1448	1435	1434	1437	1447	1452	1448	1443	1446	1447	1445	1437	1434	1436	1438	1444	1447	1451	1450	1456	1452	1444	1438	1435	1434	1423	1425	1417	1412	1418	1465	1473	1462	1440	1429	1421	1424	1435	1445	1451	1438	1430	1427	1433	1449	1462	1463	1457	1456	1461	1465	1470	1470	1439	1436	1440	1448	1435	1421	1419	1419	1425	1438	1463	1480	1481	1470	1456	1458	1455	1452	1467	1468	1470	1475	1463	1461	1459	1462	1483	1490	1486	1483	1477	1470	1453	1465	0	0	0	0	0	0	0	0	0	0	0	0	0	0	0	0	0	0	0	0	0	0	0	0	1527	1493	1482	1496	1566	1567	1535	1540	1540	1536	1526	1523	1539	1534	1541	1542	1549	1559	1557	1561	1562	1557	1552	1542	1532	1530	1531	1538	1558	1562	0	0	0	0	0	0	0	0	0	0	0	0	0	0	0	0	0	0	0	1514	1502	1492	1483	1490	1485	1484	1484	1493	1498	1492	1482	1483	1479	1470	1465	1462	1468	1478	1502	1510	1512	1508	1505	1504	1509	1511	1508	1508	1512	1526	1533	1539	1526	1520	1514	1505	1504	1501	1499	1498	1476	1460	1445	1438	1437	1434	1439	1439	1450	1491	1519	1501	1495	1483	1490	1506	1498	1490	1488	1500	1506	1497	1453	1432	1426	1426	1435	1450	1468	1484	1480	1479	1472	1467	1464	1466	1464	1464	1463	0	0	0	0	0	0
0	0	0	0	0	0	0	0	0	0	0	0	0	0	0	0	0	0	0	0	0	0	0	0	0	0	0	0	0	0	0	0	0	0	0	0	0	0	0	0	0	0	0	0	0	0	0	0	0	0	0	0	0	0	0	0	0	0	0	0	0	0	0	0	0	0	0	0	0	0	0	0	0	0	0	0	0	0	0	0	0	0	0	0	0	0	0	1474	1422	1409	1404	1410	1410	1416	1424	1426	1434	1439	1437	1429	1418	1412	1415	1423	1425	1431	1434	1450	1445	1437	1427	1413	1412	1417	1431	1441	1447	1434	1428	1427	1430	1448	1448	1438	1431	1439	1436	1431	1421	1401	1390	1379	1439	0	0	0	0	0	0	0	0	0	0	0	0	0	0	0	0	0	0	0	0	0	0	0	0	0	0	0	0	0	0	0	0	0	0	0	0	0	0	0	0	0	0	0	0	0	0	0	0	0	1419	1405	1421	1433	1426	1415	1397	1393	1402	1409	1421	1431	1446	1454	1455	1442	1442	1437	1438	1433	1433	1429	1429	1433	1430	1426	1426	1422	1414	1406	1414	1425	1435	1432	1434	1437	1433	1424	1417	1415	1408	1402	1402	1407	1408	1415	1424	1452	1460	1458	1449	1451	1443	1440	1440	1433	1427	1429	1433	1436	1429	1425	1421	1418	1413	1406	1407	1417	1422	1416	1404	1404	1407	1410	1410	1415	1426	1433	1427	1418	1419	1430	1438	1434	1414	1414	1423	1433	1431	1423	1420	1421	1430	1443	1449	1449	1450	1456	1457	1454	1443	1436	1436	1437	1435	1436	1449	1455	1449	1436	1422	1424	1423	1422	1427	1432	1431	1423	1419	1416	1414	1420	1435	1442	1440	1438	1440	1444	1431	1425	1429	1435	1447	1463	1468	1464	1453	1442	1439	1434	1441	1451	1445	1444	1442	1441	1436	1421	1413	1412	1459	1471	1458	1438	1441	1442	1441	1445	1435	1427	1415	1413	1410	1407	1415	1422	1427	1426	1430	1431	1423	1421	1429	1441	1443	1433	1418	1412	1418	1421	1429	1439	1448	1460	1460	1459	1457	1454	1450	1441	1442	1442	1438	1430	1426	1428	1435	1446	1454	1456	1447	1446	1447	1453	1455	1458	1451	1446	1444	1447	1447	1453	1439	1432	1440	1448	1449	1452	1451	1445	1446	1449	1450	1441	1436	1434	1430	1432	1435	1433	1440	1445	1445	1440	1435	1433	1430	1422	1416	1419	1414	1411	1444	1466	1464	1452	1443	1435	1436	1446	1454	1453	1449	1436	1430	1437	1454	1465	1465	1458	1455	1468	1473	1478	1475	1453	1453	1445	1445	1429	1420	1417	1420	1429	1454	1481	1486	1487	1480	1469	1461	1452	1449	1468	1465	1469	1475	1467	1454	1453	1460	1473	1491	1492	1486	1477	1462	1447	1460	0	0	0	0	0	0	0	0	0	0	0	0	0	0	0	0	0	0	0	0	0	0	0	0	1526	1487	1479	1481	1537	1545	1519	1518	1528	1520	1511	1508	1523	1537	1543	1545	1557	1567	1570	1566	1568	1555	1550	1535	1528	1531	1534	1543	1552	1551	1533	0	0	0	0	0	0	0	0	0	0	0	0	0	0	0	0	0	0	1499	1491	1491	1494	1493	1487	1483	1477	1485	1497	1491	1490	1477	1472	1474	1472	1471	1480	1489	1506	1511	1514	1509	1509	1515	1511	1508	1508	1506	1511	1518	1529	1529	1522	1513	1508	1501	1497	1490	1489	1485	1476	1469	1458	1445	1450	1442	1453	1512	1512	1522	1518	1517	1512	1504	1500	1498	1491	1476	1477	1483	1490	1474	1463	1447	1436	1436	1428	1436	1443	1463	1475	1475	1465	1468	1475	1473	1463	1463	1458	0	0	0	0	0	0
0	0	0	0	0	0	0	0	0	0	0	0	0	1355	0	0	0	0	0	0	0	0	0	0	0	0	0	0	0	0	0	0	0	0	0	0	0	0	0	0	0	0	0	0	0	0	0	0	0	0	0	1384	1423	1462	1480	0	0	0	0	0	0	0	0	0	0	0	0	0	0	0	0	0	0	0	0	0	0	0	0	0	0	0	0	0	0	0	1455	1447	1423	1410	1409	1407	1407	1410	1425	1438	1442	1445	1444	1436	1425	1412	1406	1400	1404	1415	1431	1429	1431	1418	1409	1409	1408	1412	1434	1446	1449	1440	1430	1422	1419	1424	1429	1421	1416	1405	1405	1402	1399	1395	1394	1391	1385	0	0	0	0	0	0	0	0	0	0	0	0	0	0	0	0	0	0	0	0	0	0	0	0	0	0	0	0	0	0	0	0	0	0	0	0	0	0	0	0	0	0	0	0	0	0	0	0	0	1418	1405	1419	1431	1422	1408	1407	1407	1412	1414	1419	1431	1437	1440	1440	1441	1440	1443	1439	1440	1434	1423	1419	1423	1428	1435	1442	1441	1435	1438	1441	1441	1438	1442	1439	1435	1422	1414	1416	1420	1412	1414	1413	1415	1416	1425	1434	1454	1462	1462	1453	1447	1436	1424	1420	1414	1409	1408	1415	1421	1430	1432	1430	1419	1406	1402	1406	1418	1428	1409	1407	1407	1413	1416	1416	1422	1429	1432	1416	1415	1417	1423	1433	1432	1420	1426	1439	1439	1429	1418	1411	1415	1429	1444	1446	1444	1443	1451	1457	1451	1451	1452	1457	1454	1439	1441	1446	1453	1449	1440	1435	1434	1435	1435	1434	1437	1431	1420	1420	1416	1420	1433	1440	1435	1432	1428	1432	1442	1435	1432	1426	1432	1439	1451	1456	1455	1451	1451	1443	1441	1449	1454	1448	1439	1434	1431	1423	1419	1426	1421	1457	1469	1467	1442	1438	1443	1454	1459	1454	1437	1426	1420	1413	1414	1421	1425	1428	1430	1439	1447	1450	1442	1440	1443	1441	1429	1422	1416	1418	1419	1426	1437	1449	1455	1453	1450	1449	1443	1440	1438	1436	1438	1434	1427	1425	1426	1433	1447	1457	1456	1438	1437	1427	1437	1448	1452	1454	1443	1443	1441	1447	1445	1440	1439	1449	1456	1459	1453	1447	1449	1451	1454	1453	1447	1444	1442	1440	1435	1429	1432	1437	1439	1442	1436	1430	1430	1436	1436	1434	1432	1429	1420	1421	1452	1456	1458	1454	1459	1456	1458	1458	1463	1458	1446	1445	1449	1460	1472	1463	1452	1448	1463	1477	1486	1484	1465	1463	1451	1441	1429	1421	1422	1422	1435	1453	1475	1485	1484	1477	1463	1468	1466	1468	1468	1475	1479	1477	1471	1463	1459	1462	1469	1485	1485	1482	1473	1462	1442	1461	1464	0	0	0	0	0	0	0	0	0	0	0	0	0	0	0	0	0	0	0	0	0	0	0	1545	1521	1490	1481	1515	1535	1522	1528	1519	1514	1502	1510	1521	1537	1552	1547	1549	1553	1567	1572	1569	1560	1527	1515	1506	1514	1520	1528	1516	1531	1534	0	0	0	0	0	0	0	0	0	0	0	0	0	0	0	0	0	1489	1482	1474	1492	1492	1499	1491	1480	1473	1476	1494	1505	1493	1484	1481	1482	1479	1483	1490	1501	1506	1505	1508	1512	1518	1510	1511	1501	1502	1501	1503	1508	1514	1519	1518	1502	1496	1487	1485	1475	1458	1456	1453	1462	1455	1464	1473	1496	1508	1524	1524	1519	1524	1522	1530	1515	1507	1490	1467	1462	1460	1462	1452	1448	1454	1455	1446	1446	1429	1426	1429	1445	1448	1455	1453	1463	1474	1473	1475	1475	1470	0	0	0	0	0	0
0	0	1393	1409	1415	1411	1411	1399	1380	1358	1351	1358	1358	1366	1356	1372	1377	1391	1391	0	1424	1410	1395	1401	1406	1415	1415	1427	1430	1416	1400	1397	1395	1388	1388	1389	1393	1405	0	0	0	0	0	0	0	0	0	0	0	1400	1409	1437	1460	1487	1505	1498	0	0	0	0	1496	1477	1456	1438	1439	1431	1431	1431	1433	1437	1447	1450	1456	1445	1438	1447	1453	1464	1465	1450	1434	1431	1454	1461	1444	1426	1430	1434	1432	1432	1414	1412	1415	1417	1423	1430	1432	1433	1432	1425	1414	1402	1384	1383	1386	1397	1415	1417	1406	1399	1394	1396	1401	1406	1421	1431	1439	1436	1427	1417	1414	1414	1416	1413	1404	1398	1396	1394	1398	1398	1402	1401	1389	0	0	0	0	0	0	0	0	0	0	0	0	0	0	0	0	0	0	0	0	0	0	0	0	0	0	0	0	0	0	0	0	0	0	0	0	0	0	0	0	0	0	0	0	0	0	0	0	0	1394	1409	1423	1427	1422	1417	1420	1425	1426	1426	1423	1427	1428	1423	1425	1430	1431	1438	1437	1430	1424	1413	1410	1415	1428	1442	1448	1458	1456	1448	1453	1448	1436	1435	1436	1429	1414	1409	1419	1423	1425	1427	1428	1426	1428	1440	1446	1454	1457	1458	1451	1433	1420	1415	1400	1407	1405	1403	1412	1421	1439	1452	1443	1425	1407	1402	1409	1421	1431	1415	1418	1425	1431	1422	1420	1426	1435	1437	1421	1423	1418	1419	1427	1440	1447	1453	1452	1446	1433	1420	1410	1416	1423	1437	1440	1435	1431	1443	1453	1455	1454	1455	1463	1462	1433	1441	1452	1445	1440	1436	1437	1440	1444	1436	1441	1440	1437	1426	1419	1418	1426	1439	1442	1437	1430	1426	1430	1439	1437	1438	1424	1427	1430	1429	1434	1439	1443	1453	1450	1452	1457	1456	1450	1441	1432	1427	1431	1432	1435	1422	1454	1464	1468	1445	1438	1455	1465	1470	1463	1449	1441	1436	1435	1432	1435	1439	1440	1438	1447	1461	1463	1458	1450	1445	1438	1437	1435	1434	1432	1431	1429	1438	1451	1459	1460	1452	1444	1439	1440	1436	1440	1447	1448	1435	1434	1434	1442	1448	1452	1450	1445	1432	1429	1440	1449	1451	1457	1439	1436	1438	1444	1443	1440	1445	1452	1465	1469	1456	1453	1451	1456	1457	1448	1448	1447	1453	1456	1447	1443	1441	1446	1448	1450	1442	1434	1436	1438	1445	1444	1445	1442	1438	1434	1444	1455	1456	1460	1465	1468	1461	1466	1469	1462	1445	1435	1447	1456	1463	1460	1442	1440	1460	1480	1488	1488	1484	1467	1463	1445	1434	1431	1430	1433	1435	1448	1461	1474	1474	1472	1462	1468	1468	1472	1470	1468	1474	1482	1481	1472	1462	1462	1460	1462	1465	1474	1470	1457	1449	1460	1469	0	0	0	0	0	0	0	0	0	0	0	0	0	0	0	0	0	0	0	0	0	0	0	1560	1542	1517	1490	1500	1531	1545	1560	1545	1529	1526	1523	1529	1543	1549	1546	1530	1530	1545	1560	1551	1543	1525	1521	1519	1517	1516	1522	1512	1521	1538	0	0	0	0	0	0	0	0	0	0	0	0	0	0	0	0	0	1477	1471	1481	1490	1497	1502	1494	1482	1475	1472	1490	1501	1502	1498	1495	1493	1488	1490	1504	1509	1504	1498	1494	1495	1502	1512	1507	1494	1494	1496	1498	1503	1503	1501	1499	1491	1481	1467	1465	1464	1449	1449	1454	1454	1453	1457	1467	1498	1516	1508	1508	1510	1513	1527	1528	1515	1494	1471	1457	1450	1450	1447	1451	1462	1463	1465	1462	1463	1463	1456	1441	1446	1450	1460	1452	1469	1476	1476	1479	1479	1473	0	0	0	0	0	0
0	0	1416	1423	1437	1437	1431	1412	1396	1370	1366	1374	1374	1375	1377	1397	1398	1390	1390	1383	1374	1375	1391	1399	1407	1412	1412	1433	1438	1412	1388	1376	1373	1379	1379	1388	1400	1399	1409	1431	0	0	0	0	0	0	0	0	1422	1411	1424	1432	1449	1467	1485	1480	1464	1470	1470	1465	1468	1460	1443	1441	1436	1436	1438	1438	1433	1431	1427	1440	1453	1463	1472	1484	1481	1466	1461	1446	1438	1440	1440	1430	1417	1412	1419	1435	1435	1435	1415	1415	1422	1425	1431	1432	1429	1412	1380	1374	1378	1387	1387	1381	1385	1404	1411	1409	1404	1397	1392	1394	1398	1402	1416	1430	1436	1436	1431	1423	1412	1412	1415	1409	1400	1398	1399	1404	1403	1404	1407	1404	1415	1423	0	0	0	0	0	0	0	0	0	0	0	0	0	0	0	0	0	0	0	0	0	0	0	0	0	0	0	0	0	0	0	0	0	0	0	0	0	0	0	0	0	0	0	0	0	0	0	1365	1382	1400	1415	1424	1422	1417	1428	1433	1435	1440	1430	1426	1428	1419	1424	1424	1429	1430	1421	1417	1410	1407	1406	1415	1414	1424	1437	1441	1444	1443	1446	1442	1430	1430	1425	1415	1408	1408	1408	1425	1432	1440	1442	1440	1442	1450	1466	1458	1453	1454	1454	1428	1414	1408	1405	1411	1407	1406	1413	1427	1447	1463	1449	1426	1408	1406	1410	1422	1431	1422	1430	1437	1440	1431	1426	1432	1441	1442	1437	1434	1427	1426	1432	1447	1457	1465	1456	1440	1434	1421	1416	1413	1423	1432	1431	1429	1429	1437	1451	1455	1455	1449	1449	1446	1434	1427	1438	1441	1436	1434	1432	1431	1441	1446	1448	1443	1441	1434	1429	1423	1436	1445	1447	1443	1434	1425	1432	1433	1440	1444	1440	1427	1422	1414	1415	1425	1435	1450	1455	1456	1460	1457	1457	1446	1438	1432	1437	1442	1437	1419	1454	1464	1473	1451	1451	1456	1469	1471	1467	1455	1451	1451	1452	1450	1454	1457	1453	1448	1450	1454	1461	1460	1457	1450	1452	1447	1448	1450	1450	1444	1443	1447	1459	1467	1461	1448	1440	1440	1440	1443	1444	1449	1447	1445	1440	1449	1456	1455	1445	1443	1433	1428	1430	1448	1459	1474	1477	1461	1440	1438	1441	1442	1449	1455	1467	1477	1473	1466	1457	1450	1453	1454	1448	1445	1445	1462	1463	1460	1454	1453	1453	1456	1461	1451	1441	1434	1437	1438	1444	1453	1458	1460	1458	1451	1465	1466	1469	1469	1467	1467	1470	1465	1449	1429	1425	1432	1446	1454	1457	1449	1447	1460	1470	1479	1485	1488	1476	1472	1463	1452	1447	1449	1443	1443	1453	1465	1468	1466	1467	1469	1473	1479	1475	1472	1466	1457	1456	1456	1452	1461	1454	1450	1448	1456	1466	1471	1468	1463	1467	1478	0	0	0	0	0	0	0	0	0	0	0	0	0	0	0	0	0	0	0	0	0	0	0	1561	1551	1530	1503	1500	1535	1560	1561	1546	1536	1537	1537	1534	1537	1537	1532	1525	1524	1536	1545	1546	1539	1535	1530	1528	1522	1520	1514	1514	1539	1580	0	0	0	0	0	0	0	0	0	0	0	0	0	0	0	0	0	1480	1478	1484	1487	1498	1504	1494	1491	1486	1480	1489	1496	1505	1500	1495	1495	1489	1489	1502	1504	1499	1491	1482	1484	1483	1486	1493	1489	1492	1500	1504	1502	1501	1499	1490	1483	1476	1466	1465	1458	1445	1447	1448	1452	1448	1454	1474	1497	1507	1489	1477	1477	1467	1480	1491	1488	1470	1460	1455	1457	1449	1457	1452	1459	1464	1465	1468	1479	1479	1482	1484	1491	1483	1472	1461	1467	1480	1473	1469	1469	1472	0	0	0	0	0	0
0	0	1421	1433	1445	1445	1440	1429	1398	1376	1378	1378	1385	1393	1391	1401	1406	1394	1394	1386	1386	1388	1396	1405	1406	1406	1410	1415	1419	1402	1390	1387	1387	1393	1393	1404	1412	1405	1389	1409	1426	0	0	0	0	0	0	1441	1432	1411	1418	1426	1436	1444	1447	1450	1447	1439	1439	1437	1425	1424	1430	1431	1430	1433	1442	1450	1449	1444	1440	1447	1466	1484	1496	1493	1465	1453	1451	1449	1450	1454	1446	1442	1428	1419	1419	1423	1428	1431	1414	1417	1419	1424	1434	1436	1428	1414	1379	1369	1372	1382	1399	1404	1406	1412	1417	1416	1411	1403	1399	1399	1408	1411	1418	1429	1435	1437	1438	1434	1432	1430	1419	1409	1400	1404	1403	1401	1407	1413	1405	1418	1419	1406	0	0	0	0	0	0	0	0	0	0	0	0	0	0	0	0	0	0	0	0	0	0	0	0	0	0	0	0	0	0	0	0	0	0	0	0	0	0	0	0	0	0	0	0	0	0	0	1377	1376	1391	1404	1417	1419	1419	1419	1431	1435	1432	1433	1434	1427	1424	1427	1432	1430	1424	1416	1410	1413	1421	1434	1423	1415	1417	1423	1432	1433	1447	1451	1444	1428	1420	1418	1417	1411	1400	1409	1416	1432	1442	1450	1449	1452	1463	1468	1457	1456	1452	1450	1439	1421	1429	1429	1428	1425	1428	1432	1440	1445	1458	1445	1422	1414	1409	1408	1417	1429	1433	1435	1441	1438	1431	1432	1437	1445	1449	1450	1446	1445	1443	1445	1453	1461	1449	1444	1437	1432	1420	1415	1418	1426	1429	1429	1427	1429	1438	1450	1449	1447	1440	1437	1424	1418	1420	1435	1440	1437	1430	1429	1433	1438	1447	1454	1449	1444	1447	1440	1440	1444	1452	1451	1448	1443	1436	1433	1436	1444	1444	1444	1441	1422	1413	1408	1421	1433	1449	1450	1452	1451	1454	1454	1448	1442	1443	1449	1461	1444	1430	1469	1468	1473	1461	1461	1460	1469	1467	1461	1451	1446	1458	1464	1470	1467	1454	1445	1441	1451	1453	1459	1460	1463	1465	1464	1463	1456	1462	1460	1450	1448	1452	1460	1461	1454	1444	1434	1438	1442	1445	1446	1448	1449	1449	1455	1474	1475	1468	1444	1439	1440	1431	1434	1442	1458	1478	1474	1472	1462	1447	1450	1458	1467	1471	1477	1482	1480	1475	1463	1452	1448	1444	1437	1434	1439	1458	1461	1462	1458	1457	1461	1466	1478	1472	1456	1445	1441	1443	1446	1455	1470	1472	1465	1459	1472	1479	1483	1482	1477	1476	1471	1468	1448	1435	1425	1432	1449	1455	1462	1459	1463	1467	1471	1477	1484	1490	1478	1474	1469	1464	1464	1462	1456	1453	1464	1465	1466	1458	1460	1469	1478	1478	1480	1476	1464	1457	1452	1451	1451	1442	1436	1438	1441	1447	1463	1485	1481	1480	1478	1481	0	0	0	0	0	0	0	0	0	0	0	0	0	0	0	0	0	0	0	0	0	0	0	1555	1543	1528	1514	1512	1530	1540	1551	1543	1543	1538	1533	1532	1529	1526	1520	1521	1523	1530	1537	1540	1542	1536	1540	1548	1534	1526	1518	1521	1560	1606	0	0	0	0	0	0	0	0	0	0	0	0	0	0	0	0	0	0	1500	1500	1498	1491	1504	1496	1497	1492	1492	1489	1487	1490	1496	1497	1497	1497	1495	1492	1490	1494	1486	1479	1477	1474	1484	1483	1482	1485	1493	1497	1496	1495	1488	1487	1478	1471	1468	1466	1460	1462	1457	1457	1460	1464	1474	1494	1499	1508	1495	1477	1477	1472	1472	1490	1487	1479	1482	1471	1452	1459	1456	1460	1465	1475	1478	1488	1493	1493	1501	1507	1502	1485	1475	1476	1472	1476	1472	1465	1469	1469	0	0	0	0	0	0
0	0	1431	1440	1450	1450	1450	1437	1405	1384	1379	1379	1392	1398	1402	1405	1407	1397	1397	1383	1393	1400	1408	1410	1408	1408	1410	1412	1412	1404	1403	1404	1406	1409	1409	1414	1419	1416	1395	1390	1411	1402	0	0	0	0	0	1443	1442	1428	1426	1423	1429	1428	1433	1439	1448	1448	1452	1450	1434	1430	1426	1423	1428	1436	1448	1454	1457	1458	1453	1452	1457	1464	1460	1457	1455	1451	1448	1451	1453	1457	1464	1459	1448	1448	1436	1430	1425	1419	1407	1410	1419	1422	1428	1429	1420	1413	1398	1379	1381	1394	1412	1422	1426	1424	1425	1424	1420	1415	1411	1413	1421	1425	1427	1432	1436	1442	1440	1444	1441	1434	1428	1418	1419	1413	1411	1405	1405	1403	1382	1402	1398	1401	0	0	0	0	0	0	0	0	0	0	0	0	0	0	0	0	0	0	0	0	0	0	0	0	0	0	0	0	0	0	0	0	0	0	0	0	0	0	0	0	0	0	0	0	0	0	0	1390	1377	1393	1409	1422	1423	1416	1414	1414	1413	1416	1427	1433	1432	1430	1432	1442	1438	1431	1417	1417	1420	1435	1432	1428	1416	1414	1420	1425	1441	1445	1444	1438	1429	1424	1421	1422	1418	1414	1418	1433	1436	1439	1454	1462	1466	1469	1467	1458	1461	1450	1452	1447	1441	1444	1450	1450	1443	1440	1434	1444	1445	1448	1440	1431	1425	1416	1407	1396	1423	1426	1432	1432	1435	1432	1435	1442	1449	1455	1455	1453	1446	1447	1449	1455	1448	1438	1430	1422	1426	1419	1418	1426	1435	1430	1426	1419	1426	1431	1435	1437	1440	1434	1433	1424	1422	1426	1442	1442	1437	1430	1427	1428	1431	1449	1457	1461	1460	1455	1449	1445	1439	1449	1452	1448	1444	1437	1432	1437	1442	1448	1449	1443	1428	1418	1414	1422	1432	1452	1450	1449	1446	1448	1452	1451	1450	1446	1453	1467	1443	1429	1477	1476	1467	1488	1460	1456	1456	1454	1445	1439	1444	1455	1457	1449	1444	1434	1440	1436	1450	1462	1462	1462	1462	1462	1464	1468	1460	1458	1454	1450	1458	1461	1460	1450	1439	1438	1440	1444	1445	1449	1450	1453	1458	1472	1490	1495	1494	1479	1465	1444	1445	1448	1447	1452	1467	1474	1471	1467	1462	1460	1470	1471	1477	1479	1475	1476	1473	1469	1466	1454	1438	1433	1430	1431	1438	1447	1458	1459	1455	1457	1465	1478	1483	1481	1466	1451	1445	1451	1454	1459	1471	1472	1465	1464	1478	1486	1491	1485	1477	1471	1462	1458	1454	1444	1432	1447	1462	1469	1468	1468	1474	1473	1475	1477	1481	1490	1479	1473	1476	1477	1474	1475	1471	1466	1470	1472	1460	1461	1462	1472	1480	1483	1479	1477	1466	1454	1454	1449	1442	1442	1444	1439	1439	1453	1466	1481	1485	1486	1485	1484	0	0	0	0	0	0	0	0	0	0	0	0	0	0	0	0	0	0	0	0	0	0	0	1543	1535	1529	1528	1526	1526	1526	1539	1547	1548	1535	1529	1525	1522	1516	1516	1521	1525	1530	1536	1538	1535	1543	1554	1566	1544	1531	1525	1531	1569	1617	0	0	0	0	0	0	0	0	0	0	0	0	0	0	0	0	0	0	1517	1520	1499	1496	1499	1496	1492	1496	1491	1490	1489	1488	1491	1494	1498	1500	1496	1489	1482	1479	1475	1475	1478	1483	1486	1484	1482	1480	1488	1484	1479	1476	1473	1473	1471	1464	1467	1463	1465	1472	1474	1467	1473	1475	1487	1499	1510	1513	1502	1486	1486	1479	1484	1486	1493	1493	1484	1465	1459	1460	1465	1470	1481	1486	1494	1499	1512	1512	1512	1507	1498	1486	1475	1476	1479	1476	1471	1461	1464	1464	0	0	0	0	0	0
0	0	1442	1436	1443	1443	1445	1433	1404	1379	1381	1381	1388	1400	1398	1402	1399	1393	1393	1390	1403	1414	1417	1413	1415	1415	1412	1410	1408	1411	1419	1428	1427	1416	1416	1418	1421	1418	1401	1387	1390	1391	1391	1401	1401	1421	1442	1456	1456	1438	1435	1426	1417	1416	1424	1435	1445	1445	1452	1448	1433	1423	1417	1427	1421	1440	1452	1461	1456	1444	1434	1439	1439	1443	1448	1450	1451	1454	1465	1465	1463	1460	1461	1479	1479	1469	1456	1436	1422	1402	1396	1400	1409	1420	1417	1412	1414	1415	1409	1399	1397	1403	1413	1428	1428	1430	1431	1428	1431	1426	1423	1426	1427	1434	1434	1440	1443	1446	1441	1441	1433	1430	1429	1435	1432	1422	1413	1407	1399	1388	1376	1369	1381	1391	0	0	0	0	0	0	0	0	0	0	0	0	0	0	0	0	0	0	0	0	0	0	0	0	0	0	0	0	0	0	0	0	0	0	0	0	0	0	0	0	0	0	0	0	0	0	0	1404	1391	1407	1425	1428	1425	1416	1405	1392	1393	1410	1426	1430	1430	1433	1444	1451	1448	1436	1424	1415	1425	1431	1424	1419	1416	1413	1411	1418	1443	1447	1448	1441	1432	1431	1437	1434	1438	1438	1442	1442	1439	1447	1458	1471	1475	1465	1459	1462	1461	1456	1448	1443	1447	1455	1464	1467	1459	1449	1442	1440	1438	1442	1443	1442	1439	1428	1419	1405	1414	1418	1422	1425	1431	1438	1440	1445	1449	1454	1457	1455	1444	1446	1449	1452	1443	1435	1423	1421	1418	1423	1427	1437	1441	1434	1415	1418	1420	1425	1430	1434	1437	1435	1436	1440	1439	1443	1443	1442	1440	1435	1426	1427	1432	1445	1455	1465	1469	1461	1450	1437	1434	1435	1446	1441	1436	1429	1425	1426	1436	1445	1444	1440	1433	1427	1429	1440	1455	1462	1460	1452	1450	1453	1453	1455	1452	1461	1464	1466	1444	1441	1486	1494	1480	1479	1475	1457	1441	1425	1421	1421	1432	1445	1450	1437	1429	1403	1407	1411	1419	1429	1434	1428	1422	1422	1422	1435	1450	1454	1454	1449	1441	1444	1452	1446	1438	1436	1437	1443	1439	1437	1440	1439	1442	1450	1449	1462	1460	1456	1445	1430	1418	1412	1418	1426	1433	1445	1457	1469	1462	1438	1447	1454	1458	1476	1470	1473	1472	1473	1472	1458	1443	1432	1426	1432	1438	1445	1451	1455	1457	1465	1472	1487	1497	1492	1478	1458	1448	1451	1450	1460	1471	1470	1464	1461	1477	1487	1487	1489	1480	1465	1450	1454	1447	1449	1466	1475	1481	1481	1474	1478	1486	1480	1478	1477	1482	1487	1481	1472	1481	1489	1491	1486	1477	1479	1479	1472	1462	1468	1478	1479	1485	1485	1472	1475	1459	1458	1460	1450	1456	1450	1453	1470	1473	1475	1471	1464	1461	1471	1470	1470	0	0	0	0	0	0	0	0	0	0	0	0	0	0	0	0	0	0	0	0	0	0	0	1537	1536	1550	1554	1540	1524	1516	1528	1542	1533	1530	1522	1522	1520	1514	1514	1532	1542	1538	1539	1540	1544	1552	1569	1568	1548	1539	1529	1547	1561	1594	0	0	0	0	0	0	0	0	0	0	0	0	0	0	0	0	0	0	1527	1512	1497	1504	1507	1500	1493	1492	1490	1490	1488	1497	1498	1501	1501	1498	1493	1484	1469	1467	1470	1479	1486	1492	1485	1480	1473	1479	1478	1473	1470	1466	1456	1466	1470	1465	1465	1465	1470	1481	1481	1476	1476	1478	1492	1502	1508	1513	1502	1491	1480	1480	1480	1468	1468	1482	1480	1458	1455	1467	1469	1476	1488	1497	1506	1505	1506	1514	1514	1515	1497	1481	1471	1471	1474	1475	1467	1463	1466	1466	0	0	0	0	0	0
0	0	1432	1421	1419	1419	1426	1419	1398	1378	1376	1376	1381	1393	1393	1387	1392	1394	1394	1404	1418	1430	1427	1417	1416	1416	1420	1417	1416	1424	1433	1439	1435	1435	1418	1421	1421	1417	1408	1396	1390	1389	1395	1395	1413	1434	1458	1471	1456	1441	1432	1423	1410	1412	1416	1428	1444	1444	1449	1442	1432	1434	1430	1427	1421	1435	1448	1456	1455	1442	1441	1440	1439	1441	1448	1450	1451	1457	1463	1466	1463	1458	1467	1490	1490	1488	1467	1444	1425	1409	1392	1399	1404	1409	1402	1402	1408	1414	1419	1416	1409	1407	1410	1421	1428	1428	1426	1421	1428	1429	1431	1432	1433	1435	1437	1438	1438	1444	1441	1438	1428	1425	1423	1426	1426	1417	1415	1415	1409	1404	1383	1394	1390	1393	1399	0	0	0	0	0	0	0	0	0	0	0	0	0	0	0	0	0	0	0	0	0	0	0	0	0	0	0	0	0	0	0	0	0	0	0	0	0	0	0	0	0	0	0	0	0	0	1389	1417	1428	1434	1437	1432	1422	1409	1395	1394	1415	1433	1441	1432	1424	1428	1441	1441	1429	1424	1422	1430	1429	1417	1405	1405	1409	1411	1423	1440	1445	1444	1439	1439	1439	1444	1449	1446	1446	1449	1449	1449	1450	1460	1471	1474	1447	1446	1455	1460	1458	1449	1441	1447	1458	1467	1474	1468	1452	1437	1430	1430	1433	1441	1445	1451	1450	1431	1414	1410	1413	1416	1424	1435	1438	1441	1440	1448	1455	1459	1453	1440	1439	1446	1445	1434	1421	1418	1419	1421	1428	1435	1441	1448	1435	1427	1415	1417	1419	1425	1433	1437	1438	1452	1454	1456	1451	1446	1441	1434	1427	1426	1435	1442	1454	1459	1467	1461	1459	1441	1426	1422	1434	1438	1436	1429	1423	1418	1422	1430	1435	1440	1438	1435	1436	1442	1452	1464	1468	1463	1457	1456	1458	1461	1461	1463	1464	1463	1452	1466	1458	1510	1531	1538	1487	1474	1455	1435	1427	1424	1426	1432	1441	1445	1438	1427	1415	1414	1421	1427	1431	1431	1429	1425	1419	1422	1432	1447	1450	1449	1449	1444	1445	1447	1445	1436	1434	1430	1442	1448	1446	1446	1443	1442	1440	1438	1450	1457	1459	1454	1439	1424	1415	1413	1418	1413	1410	1413	1422	1447	1447	1442	1467	1476	1480	1482	1479	1484	1487	1482	1464	1443	1431	1430	1429	1435	1436	1438	1442	1459	1482	1499	1501	1498	1492	1475	1463	1449	1441	1435	1447	1453	1447	1439	1431	1428	1438	1446	1452	1442	1432	1430	1443	1464	1498	1496	1489	1478	1462	1456	1455	1461	1472	1452	1441	1437	1448	1469	1493	1493	1497	1493	1485	1457	1448	1442	1443	1442	1453	1468	1480	1486	1486	1479	1485	1473	1463	1466	1467	1459	1455	1463	1471	1486	1486	1477	1461	1457	1457	1446	1441	1500	0	0	0	0	0	0	0	0	0	0	0	0	0	0	0	0	0	0	0	0	0	0	1555	1564	1580	1597	1571	1517	1517	1514	1523	1520	1506	1507	1508	1512	1516	1524	1544	1549	1533	1518	1514	1528	1547	1553	1563	1556	1541	1538	1538	1574	1578	0	0	0	0	0	0	0	0	0	0	0	0	0	0	0	0	0	0	1520	1506	1502	1511	1509	1502	1492	1487	1488	1493	1492	1498	1500	1500	1497	1497	1492	1480	1467	1465	1468	1482	1486	1491	1478	1474	1469	1476	1472	1470	1465	1460	1465	1474	1475	1475	1465	1462	1472	1485	1487	1477	1476	1480	1491	1503	1508	1509	1494	1485	1479	1473	1468	1461	1455	1470	1472	1467	1466	1476	1482	1490	1491	1503	1504	1501	1507	1515	1515	1510	1499	1473	1460	1459	1470	1475	1471	1468	1469	1469	0	0	0	0	0	0
0	0	1409	1394	1394	1394	1398	1405	1388	1377	1379	1379	1390	1391	1389	1390	1394	1394	1406	1422	1438	1445	1432	1421	1420	1420	1420	1424	1423	1430	1433	1437	1426	1426	1414	1411	1416	1418	1413	1398	1393	1404	1411	1411	1419	1430	1444	1454	1445	1428	1426	1411	1411	1412	1417	1429	1429	1435	1431	1430	1436	1439	1439	1436	1436	1442	1449	1452	1451	1444	1447	1439	1436	1438	1442	1445	1449	1455	1456	1455	1458	1456	1460	1460	1479	1492	1474	1462	1431	1416	1407	1406	1408	1410	1402	1401	1409	1420	1433	1430	1427	1416	1415	1422	1424	1426	1419	1412	1415	1421	1427	1429	1433	1430	1433	1430	1433	1438	1440	1440	1430	1420	1418	1415	1415	1412	1419	1426	1430	1420	1418	1411	1410	1406	1402	0	0	0	0	0	0	0	0	0	0	0	0	0	0	0	0	0	0	0	0	0	0	0	0	0	0	0	0	0	0	0	0	0	0	0	0	0	0	0	0	0	0	0	0	0	0	1400	1432	1437	1438	1438	1432	1427	1419	1409	1399	1418	1443	1441	1427	1431	1436	1439	1432	1420	1413	1421	1435	1437	1420	1391	1389	1392	1395	1397	1398	1418	1433	1440	1441	1449	1449	1452	1447	1453	1457	1458	1453	1445	1442	1459	1461	1435	1433	1442	1462	1461	1453	1439	1438	1443	1458	1467	1469	1448	1430	1425	1424	1433	1436	1449	1468	1481	1478	1418	1405	1410	1416	1434	1446	1450	1452	1448	1447	1449	1455	1446	1435	1433	1441	1439	1436	1428	1422	1418	1424	1432	1437	1444	1440	1431	1428	1449	1443	1437	1439	1443	1453	1456	1464	1467	1468	1474	1471	1461	1444	1443	1446	1454	1466	1473	1470	1457	1438	1430	1418	1420	1437	1454	1463	1445	1439	1439	1456	1454	1433	1427	1428	1426	1432	1441	1456	1471	1477	1479	1473	1470	1475	1474	1474	1468	1463	1465	1459	1458	1467	1479	1521	1543	1543	1483	1452	1437	1431	1427	1427	1433	1433	1428	1425	1423	1424	1433	1450	1463	1469	1464	1457	1447	1442	1438	1442	1448	1453	1443	1445	1449	1463	1469	1470	1461	1444	1442	1441	1449	1458	1465	1455	1455	1442	1423	1423	1437	1451	1461	1461	1447	1431	1422	1416	1419	1409	1406	1400	1421	1447	1445	1442	1463	1468	1480	1477	1488	1479	1465	1457	1456	1451	1436	1418	1411	1412	1442	1462	1481	1490	1501	1513	1493	1450	1437	1419	1444	1459	1465	1462	1442	1432	1433	1443	1462	1473	1454	1449	1447	1441	1436	1440	1454	1467	1496	1494	1484	1470	1453	1439	1445	1454	1462	1445	1440	1445	1457	1478	1495	1489	1489	1482	1476	1461	1447	1438	1436	1444	1459	1470	1486	1485	1481	1481	1484	1485	1472	1467	1461	1461	1464	1468	1474	1484	1478	1478	1475	1470	1468	1455	1444	1446	0	0	0	0	0	0	0	0	0	0	0	0	0	0	0	0	0	0	0	0	0	0	1576	1589	1605	1616	1596	1529	1521	1511	1539	1559	1552	1543	1516	1520	1515	1516	1502	1494	1500	1517	1530	1525	1532	1532	1534	1548	1562	1569	1575	1575	1581	0	0	0	0	0	0	0	0	0	0	0	0	0	0	0	0	0	0	0	1517	1510	1511	1508	1505	1499	1493	1499	1506	1501	1501	1508	1505	1500	1496	1490	1484	1468	1466	1468	1471	1475	1483	1481	1475	1470	1471	1478	1484	1485	1480	1478	1486	1494	1488	1478	1475	1478	1491	1484	1474	1472	1484	1490	1498	1504	1498	1490	1484	1492	1492	1488	1469	1470	1469	1472	1475	1487	1499	1512	1512	1508	1506	1501	1496	1500	1512	1512	1511	1504	1484	1466	1471	1481	1490	1485	1472	1470	0	0	0	0	0	0	0
0	0	1395	1394	1394	1388	1395	1396	1394	1394	1397	1397	1399	1397	1394	1405	1400	1400	1425	1438	1453	1450	1437	1420	1414	1414	1415	1421	1429	1432	1430	1422	1412	1412	1411	1406	1411	1413	1408	1392	1399	1421	1414	1414	1428	1425	1431	1435	1418	1417	1418	1413	1418	1427	1433	1433	1433	1431	1428	1425	1436	1438	1438	1437	1443	1450	1449	1440	1439	1434	1433	1437	1438	1435	1435	1440	1447	1451	1446	1448	1444	1448	1448	1453	1471	1480	1473	1462	1442	1420	1414	1415	1415	1418	1412	1405	1410	1423	1427	1434	1435	1431	1430	1427	1427	1425	1417	1412	1409	1413	1418	1424	1424	1425	1424	1420	1424	1433	1436	1440	1430	1419	1415	1409	1413	1413	1425	1436	1437	1432	1424	1419	1431	1420	1416	0	0	0	0	0	0	0	0	0	0	0	0	0	0	0	0	0	0	0	0	0	0	0	0	0	0	0	0	0	0	0	0	0	0	0	0	0	0	0	0	0	0	0	0	0	0	1384	1422	1443	1439	1432	1425	1428	1435	1448	1452	1447	1437	1427	1424	1424	1428	1431	1422	1409	1398	1411	1431	1439	1432	1406	1383	1372	1378	1392	1403	1412	1423	1432	1438	1440	1443	1435	1438	1442	1444	1444	1439	1439	1455	1463	1464	1445	1433	1430	1437	1449	1456	1462	1472	1468	1460	1459	1456	1444	1421	1418	1420	1420	1433	1456	1481	1486	1482	1438	1431	1437	1442	1448	1442	1437	1427	1421	1418	1429	1438	1452	1453	1441	1445	1456	1457	1459	1449	1437	1433	1430	1422	1428	1437	1445	1454	1454	1448	1436	1435	1436	1447	1451	1454	1462	1465	1470	1475	1464	1453	1448	1451	1461	1471	1474	1474	1464	1445	1432	1422	1424	1434	1450	1455	1441	1437	1448	1459	1460	1447	1439	1446	1450	1451	1444	1450	1460	1468	1466	1466	1465	1472	1475	1473	1469	1462	1459	1461	1460	1455	1479	1544	1550	1560	1446	1431	1434	1424	1432	1431	1432	1426	1423	1416	1417	1423	1439	1450	1460	1470	1466	1455	1445	1439	1441	1447	1453	1452	1444	1436	1447	1464	1467	1471	1471	1466	1462	1465	1462	1469	1478	1479	1467	1446	1424	1420	1431	1442	1458	1464	1463	1463	1476	1491	1495	1488	1464	1446	1428	1416	1420	1424	1447	1454	1455	1456	1469	1499	1503	1470	1451	1446	1433	1419	1416	1417	1438	1464	1488	1502	1509	1510	1490	1452	1431	1429	1439	1456	1470	1460	1441	1426	1430	1449	1473	1487	1457	1447	1450	1444	1447	1455	1458	1458	1477	1480	1469	1440	1425	1412	1420	1430	1440	1441	1443	1445	1458	1475	1454	1463	1464	1463	1463	1458	1436	1426	1420	1432	1469	1482	1473	1471	1471	1469	1483	1493	1479	1472	1468	1474	1471	1475	1479	1478	1475	1478	1478	1475	1465	1459	1453	1457	0	0	0	0	0	0	0	0	0	0	0	0	0	0	0	0	0	0	0	0	0	1618	1588	1590	1600	1607	1582	1526	1521	1510	1500	1544	1554	1542	1530	1531	1532	1522	1502	1486	1502	1520	1520	1510	1508	0	1532	1545	1550	1557	1564	1571	1563	0	0	0	0	0	0	0	0	0	0	0	0	0	0	0	0	0	0	0	1526	1512	1507	1504	1510	1505	1507	1516	1513	1508	1510	1511	1511	1498	1491	1488	1487	1476	1472	1468	1470	1468	1478	1480	1480	1474	1471	1483	1495	1501	1502	1501	1505	1502	1506	1498	1491	1490	1497	1502	1505	1513	1511	1501	1487	1480	1490	1505	1502	1488	1478	1478	1479	1491	1496	1496	1491	1491	1490	1489	1473	1480	1484	1487	1490	1495	1501	1501	1499	1498	1490	1492	1492	1490	1487	1479	1472	1470	0	0	0	0	0	0	0
0	0	1410	1405	1405	1398	1397	1393	1400	1411	1411	1429	1422	1413	1405	1402	1415	1405	1432	1443	1452	1443	1431	1417	1417	1413	1414	1415	1423	1432	1425	1417	1410	1410	1404	1405	1405	1395	1395	1389	1416	1436	1438	1438	1428	1416	1409	1412	1421	1420	1419	1425	1439	1439	1438	1447	1447	1444	1438	1434	1431	1430	1430	1435	1441	1448	1450	1444	1435	1438	1449	1447	1440	1434	1433	1439	1448	1449	1447	1444	1446	1446	1446	1450	1456	1463	1459	1433	1415	1425	1425	1425	1422	1422	1416	1412	1410	1414	1421	1426	1430	1434	1439	1436	1432	1430	1422	1411	1415	1412	1417	1419	1419	1416	1410	1409	1413	1419	1429	1433	1433	1428	1420	1416	1413	1419	1424	1431	1434	1430	1422	1413	1437	1436	1445	0	0	0	0	0	0	0	0	0	0	0	0	0	0	0	0	0	0	0	0	0	0	0	0	0	0	0	0	0	0	0	0	0	0	0	0	0	0	0	0	0	0	0	0	0	0	0	1410	1442	1433	1431	1425	1427	1440	1446	1446	1446	1432	1428	1425	1428	1432	1432	1420	1413	1406	1420	1433	1442	1439	1419	1397	1387	1394	1406	1418	1423	1431	1431	1433	1428	1434	1435	1435	1445	1454	1444	1439	1443	1449	1457	1458	1444	1433	1433	1444	1450	1457	1464	1476	1483	1478	1459	1446	1430	1419	1419	1421	1418	1425	1448	1463	1468	1453	1444	1434	1436	1437	1444	1448	1441	1428	1421	1419	1430	1443	1455	1462	1458	1445	1441	1438	1441	1446	1442	1441	1433	1426	1429	1435	1446	1456	1457	1448	1440	1438	1432	1432	1431	1433	1454	1462	1471	1472	1466	1452	1446	1438	1439	1458	1472	1469	1460	1445	1440	1434	1427	1429	1440	1438	1430	1434	1448	1459	1456	1449	1445	1450	1460	1455	1446	1442	1451	1456	1463	1456	1457	1462	1473	1472	1458	1451	1455	1459	1456	1458	1475	1557	1578	1578	1449	1433	1439	1437	1444	1442	1434	1418	1415	1416	1418	1426	1441	1454	1464	1468	1468	1454	1442	1439	1445	1456	1457	1458	1441	1440	1451	1458	1461	1459	1466	1465	1467	1463	1460	1467	1469	1465	1456	1447	1445	1438	1437	1440	1448	1459	1464	1470	1483	1493	1496	1492	1477	1453	1434	1422	1416	1424	1443	1456	1461	1456	1450	1456	1462	1457	1447	1444	1449	1458	1460	1464	1460	1464	1479	1476	1464	1458	1463	1462	1456	1451	1441	1447	1459	1461	1451	1439	1428	1427	1439	1454	1461	1460	1448	1440	1440	1463	1473	1466	1462	1461	1455	1435	1433	1430	1449	1464	1466	1456	1452	1440	1429	1414	1413	1441	1454	1463	1464	1457	1445	1428	1428	1446	1463	1478	1457	1460	1453	1455	1476	1492	1484	1470	1471	1476	1483	1480	1472	1466	1475	1478	1479	1472	1463	1459	1464	1478	0	0	0	0	0	0	0	0	0	0	0	0	0	0	0	0	0	0	0	0	0	1607	1575	1570	1574	1578	1554	1522	1515	1506	1494	1526	1540	1544	1533	1538	1542	1520	1492	1507	1524	1534	1519	1496	0	0	0	1551	1550	1552	1548	1546	1553	0	0	0	0	0	0	0	0	0	0	0	0	0	0	0	0	0	0	1550	1539	1523	1500	1492	1512	1508	1510	1524	1516	1509	1501	1502	1501	1483	1467	1471	1479	1482	1483	1484	1473	1480	1485	1491	1488	1484	1485	1497	1499	1508	1505	1502	1506	1510	1516	1512	1500	1490	1497	1500	1511	1518	1513	1499	1486	1486	1502	1515	1502	1479	1468	1468	1467	1482	1494	1494	1486	1476	1473	1470	1461	1458	1480	1487	1495	1491	1490	1489	1489	1488	1480	1474	1488	1488	1485	1475	1470	1476	0	0	0	0	0	0	0
0	0	1411	1419	1419	1422	1413	1408	1415	1437	1437	1434	1440	1425	1412	1410	1408	1415	1416	1431	1428	1423	1404	1396	1396	1400	1401	1416	1424	1425	1424	1417	1410	1410	1403	1404	1401	1390	1384	1394	1422	1442	1437	1437	1417	1400	1381	1391	1414	1427	1438	1442	1451	1442	1440	1449	1449	1445	1434	1429	1426	1421	1427	1430	1438	1446	1449	1448	1442	1443	1448	1445	1441	1434	1437	1445	1454	1456	1456	1459	1456	1456	1459	1459	1457	1451	1438	1422	1421	1422	1428	1427	1425	1423	1421	1417	1421	1419	1415	1415	1418	1422	1439	1443	1434	1433	1430	1422	1423	1423	1428	1427	1421	1415	1406	1405	1411	1412	1420	1427	1434	1435	1432	1424	1420	1419	1422	1429	1429	1431	1425	1415	1417	1449	1456	0	0	0	0	0	0	0	0	0	0	0	0	0	0	0	0	0	0	0	0	0	0	0	0	0	0	0	0	0	1645	1632	1643	1649	1658	1681	0	0	0	0	0	0	0	0	0	0	0	0	1444	1412	1398	1403	1412	1424	1435	1441	1440	1442	1439	1437	1429	1426	1432	1429	1423	1413	1412	1417	1432	1450	1458	1453	1442	1434	1429	1439	1439	1440	1440	1435	1429	1416	1409	1422	1442	1457	1465	1452	1428	1408	1417	1442	1434	1438	1444	1452	1460	1466	1466	1472	1483	1484	1480	1476	1460	1435	1424	1417	1413	1416	1418	1434	1441	1448	1452	1449	1444	1433	1428	1438	1437	1434	1426	1424	1418	1430	1447	1460	1470	1460	1448	1435	1422	1434	1441	1450	1441	1444	1439	1437	1440	1451	1460	1457	1457	1446	1428	1420	1413	1417	1431	1450	1461	1466	1461	1452	1445	1442	1442	1447	1448	1457	1458	1462	1459	1454	1445	1431	1428	1428	1425	1428	1429	1443	1452	1460	1457	1448	1448	1458	1451	1442	1442	1443	1447	1447	1446	1444	1447	1455	1459	1454	1452	1456	1463	1462	1466	1483	1548	1581	1583	1461	1439	1448	1454	1458	1451	1439	1416	1416	1406	1420	1432	1445	1460	1462	1466	1460	1447	1436	1436	1449	1462	1462	1452	1449	1456	1462	1463	1458	1455	1461	1459	1459	1458	1462	1464	1456	1449	1439	1444	1456	1459	1448	1439	1434	1438	1456	1469	1486	1491	1497	1494	1482	1464	1442	1424	1420	1430	1448	1456	1456	1455	1446	1441	1439	1445	1448	1440	1439	1443	1449	1453	1462	1470	1472	1466	1460	1451	1453	1451	1447	1442	1445	1453	1459	1458	1452	1442	1435	1437	1445	1461	1471	1453	1454	1445	1460	1469	1477	1471	1460	1454	1457	1455	1447	1453	1473	1480	1483	1484	1471	1451	1427	1418	1414	1438	1459	1465	1461	1458	1443	1437	1432	1440	1445	1445	1446	1439	1437	1445	1473	1493	1490	1484	1484	1483	1484	1474	1468	1459	1470	1474	1470	1462	1463	1470	1494	1510	0	0	0	0	0	0	0	0	0	0	0	0	0	0	0	0	0	0	0	0	0	0	1572	1561	1554	1554	1537	1519	1513	1505	1491	1513	1527	1533	1541	1543	1546	1526	1505	1523	1551	1550	1530	1498	1494	0	0	1558	1549	1544	1534	1541	1543	0	0	0	0	0	0	0	0	0	0	0	0	0	0	0	0	0	0	0	1560	1551	1504	1483	1497	1501	1503	1520	1509	1502	1497	1492	1482	1468	1463	1466	1479	1491	1498	1500	1500	1499	1499	1501	1500	1498	1493	1497	1501	1501	1493	1492	1497	1502	1514	1509	1504	1491	1483	1492	1514	1527	1524	1512	1501	1512	1517	1513	1492	1454	1459	1459	1459	1473	1486	1485	1476	1466	1459	1460	1459	1454	1466	1473	1478	1476	1481	1485	1485	1484	1475	1465	1468	1469	1464	1470	1474	1482	0	0	0	0	0	0	0
0	0	1417	1428	1428	1429	1429	1419	1421	1430	1430	1429	1419	1416	1415	1412	1422	1408	1415	1421	1415	1408	1397	1393	1393	1392	1406	1413	1423	1428	1420	1418	1418	1411	1403	1398	1396	1393	1395	1412	1422	1435	1435	1430	1408	1390	1380	1389	1407	1434	1444	1455	1457	1442	1448	1448	1446	1446	1434	1436	1424	1421	1423	1429	1436	1441	1446	1448	1446	1446	1448	1445	1442	1439	1457	1454	1459	1462	1469	1471	1471	1474	1472	1473	1468	1458	1439	1424	1424	1418	1421	1422	1423	1423	1425	1430	1428	1424	1415	1410	1411	1410	1425	1428	1428	1433	1434	1438	1442	1439	1435	1430	1414	1415	1411	1407	1406	1407	1409	1421	1432	1439	1439	1433	1427	1417	1412	1424	1425	1436	1428	1421	1420	1448	1453	0	0	0	0	0	0	0	0	0	0	0	0	0	0	0	0	0	0	0	0	0	0	0	0	0	0	0	0	0	1659	1653	1674	1681	1685	1670	1661	0	0	0	0	0	0	0	0	0	0	0	1449	1410	1391	1398	1411	1425	1436	1439	1439	1441	1438	1441	1435	1430	1429	1429	1428	1415	1403	1414	1426	1441	1452	1458	1457	1451	1446	1446	1447	1449	1449	1443	1436	1424	1417	1420	1438	1453	1457	1442	1423	1410	1419	1438	1439	1434	1441	1458	1469	1474	1473	1470	1472	1472	1460	1455	1454	1433	1420	1408	1402	1407	1415	1431	1440	1444	1459	1456	1445	1422	1417	1410	1412	1412	1419	1420	1430	1432	1442	1458	1467	1455	1444	1426	1416	1428	1446	1460	1461	1451	1445	1443	1448	1443	1450	1449	1446	1434	1418	1417	1414	1421	1433	1451	1458	1459	1451	1438	1428	1431	1440	1447	1454	1454	1454	1459	1469	1466	1456	1441	1429	1429	1428	1427	1425	1439	1453	1465	1458	1448	1442	1448	1453	1453	1458	1463	1460	1452	1445	1446	1449	1453	1455	1455	1459	1467	1471	1476	1483	1484	1541	1571	1580	1483	1445	1452	1459	1463	1461	1447	1431	1421	1415	1433	1441	1450	1459	1466	1462	1454	1442	1430	1442	1450	1460	1456	1458	1464	1475	1482	1462	1459	1455	1457	1456	1456	1450	1454	1453	1451	1441	1429	1431	1454	1459	1450	1432	1421	1420	1439	1461	1480	1488	1487	1492	1483	1463	1448	1432	1433	1437	1445	1455	1454	1449	1442	1441	1437	1442	1444	1438	1434	1449	1463	1482	1469	1476	1469	1459	1454	1453	1449	1441	1432	1432	1443	1457	1460	1455	1450	1438	1439	1439	1453	1473	1480	1456	1447	1448	1458	1466	1467	1466	1465	1459	1459	1464	1466	1474	1480	1486	1491	1490	1480	1458	1441	1427	1428	1443	1454	1454	1456	1458	1448	1450	1443	1439	1437	1432	1428	1424	1431	1446	1468	1489	1500	1496	1490	1485	1478	1465	1465	1466	1472	1475	1467	1460	1465	1485	1511	1566	0	0	0	0	0	0	0	0	0	0	0	0	0	0	0	0	0	0	0	0	0	0	1578	1571	1555	1555	1543	1519	1510	1500	1493	1506	1518	1533	1551	1550	1537	1533	1517	1524	1565	1574	1543	1506	1482	1503	0	1560	1555	1547	1531	1526	1534	0	0	0	0	0	0	0	0	0	0	0	0	0	0	0	0	0	0	0	1574	1569	1516	1481	1485	1495	1497	1513	1503	1498	1487	1478	1471	1458	1462	1464	1474	1490	1504	1509	1505	1508	1510	1509	1507	1498	1491	1492	1490	1491	1484	1480	1484	1496	1500	1501	1494	1496	1502	1506	1522	1535	1541	1525	1516	1519	1512	1500	1478	1446	1442	1453	1453	1481	1489	1486	1477	1460	1459	1461	1468	1465	1463	1456	1453	1464	1478	1484	1484	1488	1480	1470	1465	1467	1463	1467	1472	1477	0	0	0	0	0	0	0
0	0	1425	1435	1435	1435	1430	1425	1412	1411	1411	1401	1400	1411	1412	1417	1434	1434	1434	1431	1423	1414	1405	1396	1396	1399	1411	1423	1426	1426	1424	1419	1419	1416	1408	1402	1400	1400	1421	1435	1436	1436	1436	1430	1418	1386	1385	1402	1428	1438	1445	1454	1444	1442	1449	1449	1449	1438	1435	1432	1428	1425	1427	1431	1441	1447	1445	1445	1448	1453	1451	1444	1440	1442	1442	1450	1452	1459	1462	1469	1476	1477	1484	1482	1476	1467	1452	1439	1424	1411	1411	1414	1415	1422	1428	1429	1427	1424	1414	1408	1409	1412	1413	1419	1426	1432	1434	1436	1443	1441	1439	1432	1420	1421	1417	1409	1404	1401	1400	1413	1424	1433	1435	1432	1424	1412	1409	1414	1428	1439	1439	1428	1418	1438	1448	0	0	0	0	0	0	0	0	0	0	0	0	0	0	0	0	0	0	0	0	0	0	0	0	0	0	0	0	0	1665	1665	1669	1682	1675	1673	1657	1641	0	0	0	0	0	0	0	0	0	0	1458	1425	1408	1405	1421	1431	1437	1440	1441	1436	1436	1440	1442	1439	1439	1436	1426	1416	1411	1412	1415	1427	1442	1451	1459	1462	1450	1431	1433	1438	1437	1446	1442	1444	1432	1427	1422	1434	1445	1438	1420	1416	1426	1441	1439	1435	1440	1458	1466	1472	1464	1463	1463	1462	1456	1451	1451	1435	1418	1413	1402	1402	1416	1433	1444	1442	1442	1431	1416	1414	1416	1409	1407	1412	1425	1435	1437	1440	1442	1448	1453	1446	1439	1423	1417	1425	1445	1452	1454	1445	1447	1447	1449	1447	1432	1431	1431	1421	1417	1416	1427	1432	1443	1454	1457	1455	1448	1432	1425	1431	1440	1450	1453	1454	1453	1461	1474	1474	1463	1453	1442	1437	1439	1433	1426	1436	1455	1464	1458	1444	1434	1439	1454	1468	1473	1478	1478	1464	1454	1450	1456	1458	1462	1466	1472	1479	1486	1490	1493	1495	1538	1565	1572	1486	1441	1450	1458	1463	1462	1451	1441	1435	1438	1439	1443	1449	1452	1456	1462	1445	1441	1425	1427	1444	1446	1445	1449	1463	1477	1472	1464	1456	1447	1452	1455	1460	1455	1454	1447	1441	1430	1423	1422	1439	1448	1444	1425	1413	1414	1432	1470	1473	1478	1476	1476	1475	1457	1446	1445	1447	1455	1459	1458	1454	1447	1445	1445	1447	1447	1449	1448	1441	1450	1468	1478	1478	1478	1470	1460	1449	1449	1439	1429	1424	1436	1455	1466	1468	1456	1448	1441	1441	1446	1460	1480	1484	1476	1449	1452	1447	1452	1458	1460	1460	1460	1460	1468	1471	1469	1479	1480	1482	1482	1475	1457	1455	1440	1437	1436	1442	1444	1443	1442	1451	1458	1454	1441	1432	1420	1421	1423	1432	1447	1468	1479	1482	1489	1496	1489	1475	1467	1466	1472	1477	1478	1460	1458	1461	1484	1496	1546	0	0	0	0	0	0	0	0	0	0	0	0	0	0	0	0	0	0	0	0	0	0	1587	1578	1571	1560	1553	1523	1512	1505	1492	1510	1515	1535	1556	1547	1530	1519	1520	1529	1552	1563	1561	1539	1505	1489	1502	1523	1529	1520	1504	1504	1524	0	0	0	0	0	0	0	0	0	0	0	0	0	0	0	0	0	0	1555	1567	1568	1514	1477	1478	1485	1494	1497	1491	1488	1483	1475	1463	1447	1448	1444	1458	1473	1482	1488	1491	1494	1501	1505	1499	1489	1478	1474	1474	1480	1476	1470	1477	1483	1490	1504	1507	1498	1510	1515	1523	1537	1545	1533	1523	1519	1506	1494	1466	1444	1443	1460	1460	1481	1491	1489	1474	1463	1463	1470	1467	1469	1459	1451	1439	1446	1466	1484	1484	1488	1479	1477	1478	1471	1463	1468	1470	1474	0	0	0	0	0	0	0
