0	0	0	0	0	0	0	0	0	0	0	0	0	0	0	0	0	0	0	0	1469	1465	1471	1473	1487	1487	1488	1489	1480	1471	1485	1490	1475	1475	1469	1465	1459	1460	1476	1493	1494	1492	1479	1479	1473	1482	1498	1518	1516	1513	1481	1471	1475	1483	1497	1506	1506	1507	1493	1481	1489	1507	1523	1518	1509	1484	1463	1457	1459	1480	1497	1498	1499	1503	1506	1514	1521	1531	1532	1527	1523	1524	1524	1525	1538	1547	1550	1543	1534	1525	1533	1536	1532	1518	1494	1477	1460	1460	1467	1480	1488	1498	1503	1518	1534	1535	1537	1527	1523	1523	1519	1516	1515	1509	1526	1535	1534	1529	1529	1525	1534	1525	1507	1511	1500	1505	1500	1474	1476	1476	1491	1505	1479	1480	1487	1498	1489	1483	1481	1496	1506	1515	1518	1514	1508	1504	1512	1513	1512	1494	1476	1469	1477	1486	1485	1484	1470	1477	1500	1518	1532	1517	1502	1493	1486	1494	1497	1504	1488	1473	1478	1484	1498	1498	1491	1490	1475	1465	1465	1452	1448	1434	1435	1439	1443	1454	1458	1463	1465	1463	1455	1443	1437	1426	1444	1467	1460	1446	1429	1402	1391	1404	1428	1448	1458	1450	1437	1463	1481	1493	1490	1437	1412	1400	1390	1382	1376	1385	1389	1395	1419	1437	1456	1460	1461	1446	1442	1423	1384	1332	1263	1226	1210	1190	1181	1171	1165	1169	1173	1165	1143	1137	1129	1128	1128	1146	1152	1144	1133	1128	1129	1133	1121	1124	1129	1140	1156	1167	1165	1142	1134	1137	1147	1141	1145	1146	1147	1155	1175	1178	1196	1213	1234	1291	1394	1423	1434	1444	1451	1456	1458	1457	1458	1457	1448	1438	1428	1422	1430	1433	1426	1425	1424	1426	1419	1408	1403	1400	1404	1413	1408	1403	1426	1431	1427	1410	1407	1406	1404	1403	1398	1402	1404	1416	1415	1411	1400	1394	1405	1403	1402	1397	1402	1410	1414	1422	1435	1442	1445	1434	1415	1401	1395	1398	1400	1406	1421	1425	1443	1443	1429	1424	1411	1407	1400	1399	1394	1395	1410	1409	1398	1397	1417	1434	1440	1431	1426	1419	1416	1421	1433	1433	1434	1440	1440	1440	1441	1434	1425	1422	1419	1426	1432	1427	1419	1408	1397	1389	1375	1375	1377	1386	1398	1407	1417	1422	1425	1440	1435	1369	1392	1403	1398	1390	1397	1402	1408	1412	1417	1419	1422	1409	1396	1411	1407	0	0	0	1187	1155	1141	1135	1135	1142	1147	1146	1134	1115	1105	1101	1110	1127	1146	1164	1174	1158	1153	1159	1170	1181	1204	1220	1241	1233	1236	1248	1260	1256	1252	1243	1235	1230	1232	1212	1206	1201	1195	1187	1164	1166	1182	1190	1209	1242	1289	1295	1303	1309	1308	1307	1304	1309	1314	1314	1305	1292	1310	1331	1352	1368	1358	1382	1401	1421	1422	1429	1454	1472	1466	1443	1426	1436	1486	1514	1521	1542	1540	1531	1503	1472	1456	1446	1444	1449	1465	1506	1513	1444	1444	1448	1457	1477	1487	1496	0	0	0	0	0	0	0	0	0	0	0	0	0	0	0	0	0	0	0	0	0	0	0	0	0	0	0	0	0	0	0	0	0	0	0	0	0	0	0	0	0	0	0	0	0	0	0	0	0	0	0	0	0	0	0	0	0	0	0	0	0	0	0	0	0	0	0	0	0	0	1307	1301	1295	1298	1299	1307	1298	1285	1270	1250	1238	1240	1244	1257	1266	1264	1262	1251	1244	1244	1253	1270	1273	1267	1257	1249	1251	1261	1270	1269	1266	1256	1256	1250	1244	1251	1260	1260	1259	1257	1256	1256	1253	1253	1254	1253	1251	1242	1242	1247	1254	1260	1251	1246	1242	1248	1259	1267	1269	1269	0	0	0	0	0	0
0	0	0	0	0	0	0	0	0	0	0	0	0	0	0	0	0	0	0	0	1461	1465	1474	1483	1495	1495	1499	1492	1490	1489	1493	1491	1475	1470	1470	1465	1470	1485	1503	1511	1510	1492	1472	1466	1466	1477	1493	1496	1511	1505	1496	1485	1488	1506	1516	1507	1495	1495	1491	1491	1499	1513	1520	1526	1514	1500	1490	1470	1471	1481	1505	1515	1517	1515	1510	1505	1505	1516	1521	1533	1531	1528	1528	1528	1534	1539	1542	1543	1533	1533	1535	1537	1534	1509	1481	1465	1458	1464	1475	1482	1497	1507	1509	1508	1528	1549	1548	1536	1526	1512	1521	1530	1524	1537	1533	1541	1535	1529	1528	1526	1523	1514	1508	1505	1507	1509	1501	1489	1483	1490	1513	1515	1482	1481	1498	1504	1497	1484	1487	1494	1503	1502	1498	1492	1491	1494	1504	1516	1517	1497	1475	1466	1467	1479	1486	1477	1473	1486	1500	1517	1525	1514	1510	1501	1509	1508	1496	1488	1475	1467	1479	1502	1517	1518	1513	1508	1489	1470	1461	1459	1463	1451	1455	1453	1458	1469	1469	1477	1476	1476	1470	1462	1453	1448	1452	1474	1478	1466	1438	1418	1416	1427	1435	1453	1461	1467	1461	1458	1459	1469	1456	1420	1407	1412	1411	1410	1405	1402	1404	1410	1427	1436	1438	1429	1412	1401	1393	1362	1283	1205	1181	1174	1175	1177	1174	1165	1157	1138	1133	1122	1118	1107	1106	1109	1108	1111	1123	1129	1132	1131	1133	1137	1121	1112	1122	1134	1154	1157	1158	1143	1127	1128	1138	1149	1154	1165	1181	1188	1192	1191	0	0	0	1285	1381	1415	1430	1448	1461	1463	1470	1471	1472	1472	1462	1447	1434	1445	1455	1441	1431	1426	1432	1434	1434	1430	1418	1414	1414	1422	1427	1429	1435	1438	1427	1420	1417	1412	1416	1417	1419	1414	1410	1407	1392	1394	1405	1408	1412	1415	1413	1402	1405	1411	1415	1425	1434	1447	1444	1438	1426	1406	1404	1408	1411	1412	1414	1424	1435	1439	1431	1423	1412	1405	1406	1399	1391	1384	1385	1382	1386	1387	1407	1423	1428	1421	1422	1421	1419	1421	1427	1424	1431	1434	1435	1427	1418	1415	1421	1421	1422	1421	1423	1424	1417	1407	1399	1388	1393	1385	1375	1365	1365	1376	1384	1392	1394	1400	1396	1385	1398	1407	1398	1391	1388	1395	1401	1409	1412	1420	1410	1397	1380	1369	1380	0	0	0	0	1145	1138	1137	1138	1148	1149	1144	1133	1119	1105	1103	1110	1125	1149	1176	1181	1161	1155	1161	1160	1173	1193	1203	1214	1233	1244	1249	1244	1240	1232	1221	1219	1221	1222	1217	1194	1193	1187	1168	1165	1171	1177	1184	1176	1168	1180	1250	1270	1287	1304	1306	1311	1310	1310	1301	1289	1291	1312	1343	1347	1350	1348	1355	1364	1362	1359	1354	1358	1381	1377	1354	1346	1339	1358	1378	1395	1402	1395	1372	1363	1365	1371	1363	1356	1355	1358	1387	1401	1377	1378	1404	1429	1430	1429	1425	1410	1401	1383	1361	1346	1343	1335	1343	1359	1386	1408	1419	1399	1381	1367	1366	1375	1395	0	0	1373	1335	1334	1337	1339	1358	1368	1371	1396	1391	1379	1394	1401	1411	0	0	0	0	0	0	0	0	0	0	1399	1410	1416	0	0	0	0	0	0	1413	1378	1360	1343	1327	0	0	0	0	0	0	0	0	0	0	0	0	1312	1311	1296	1284	1280	1303	1301	1287	1266	1247	1229	1228	1241	1261	1277	1280	1272	1255	1244	1242	1245	1267	1277	1276	1261	1250	1245	1254	1258	1266	1267	1267	1261	1250	1249	1254	1264	1264	1260	1263	1263	1263	1261	1260	1262	1267	1272	1287	1250	1253	1265	1260	1253	1242	1242	1252	1257	1263	1259	1259	0	0	0	0	0	0
0	0	0	0	0	0	0	0	0	0	0	0	0	0	0	0	0	0	0	0	1465	1469	1471	1481	1491	1491	1501	1493	1498	1497	1489	1474	1467	1462	1462	1460	1463	1497	1521	1529	1513	1478	1461	1455	1455	1470	1474	1480	1488	1488	1488	1491	1504	1515	1524	1513	1493	1493	1497	1503	1509	1515	1527	1527	1522	1511	1496	1481	1480	1494	1516	1531	1533	1532	1528	1508	1505	1511	1519	1530	1537	1535	1534	1534	1527	1535	1536	1526	1522	1524	1517	1534	1525	1502	1479	1477	1475	1472	1485	1494	1514	1534	1519	1527	1549	1562	1562	1544	1529	1524	1516	1521	1537	1553	1566	1553	1543	1528	1521	1521	1520	1521	1511	1504	1507	1510	1512	1503	1495	1506	1527	1525	1516	1502	1507	1507	1499	1481	1490	1497	1498	1485	1479	1483	1485	1483	1497	1509	1512	1501	1485	1462	1466	1479	1484	1482	1488	1488	1498	1508	1516	1515	1508	1512	1514	1517	1502	1491	1480	1484	1505	1521	1535	1528	1529	1508	1495	1480	1472	1470	1470	1460	1464	1466	1476	1488	1487	1484	1480	1478	1482	1484	1473	1464	1459	1466	1474	1468	1453	1441	1440	1442	1453	1463	1470	1486	1487	1484	1487	1487	1492	1462	1425	1422	1420	1419	1420	1423	1428	1428	1422	1413	1400	1378	1348	1324	1300	1233	1197	1168	1156	1152	1166	1165	1164	1151	1131	1107	1104	1105	1093	1091	1088	1086	1084	1085	1094	1112	1139	1144	1148	1146	1131	1120	1118	1123	1130	1138	1135	1126	1125	1131	1135	1150	1164	1177	0	0	0	0	0	0	0	1291	1384	1414	1432	1454	1461	1469	1474	1481	1482	1471	1451	1435	1429	1441	1454	1464	1453	1434	1434	1447	1449	1443	1436	1424	1427	1429	1439	1446	1449	1451	1448	1440	1429	1423	1425	1423	1428	1418	1416	1400	1395	1396	1412	1419	1417	1422	1416	1413	1419	1428	1425	1428	1438	1443	1442	1441	1428	1417	1414	1421	1421	1417	1420	1422	1427	1429	1424	1420	1412	1406	1405	1407	1399	1385	1371	1371	1376	1388	1402	1410	1421	1423	1419	1421	1420	1427	1426	1427	1427	1424	1414	1403	1390	1402	1413	1423	1423	1421	1414	1414	1414	1408	1397	1388	1395	1395	1381	1375	1373	1375	1382	1391	1396	1410	1413	1398	1408	1407	1402	1392	1378	1383	1395	1397	1406	1415	1404	1388	1370	1359	1366	0	0	0	0	0	0	1123	1136	1144	1144	1140	1132	1118	1113	1115	1123	1143	1166	1187	1193	1168	1164	1162	1157	1165	1193	1202	1208	1231	1255	1251	1248	1243	1233	1239	1244	1248	1249	1225	1206	1194	1185	1185	1175	1179	1184	1187	1178	1162	1146	1141	1165	1198	1230	1255	1275	1298	1303	1298	1288	1321	1342	1346	1344	1340	1343	1352	1360	1365	1368	1364	1347	1330	1320	1332	1333	1345	1342	1348	1351	1349	1338	1334	1324	1320	1321	1322	1333	1343	1353	1361	1364	1356	1348	1356	1355	1350	1355	1368	1377	1370	1359	1348	1325	1312	1305	1299	1305	1313	1317	1326	1325	1321	1324	1331	1342	1342	1328	1307	1292	1282	1281	1290	1299	1338	1344	1332	1310	1297	1300	1313	1318	1310	1314	1318	1313	1297	1297	1315	1340	1339	1324	1324	1333	1341	1354	1360	1365	1369	1360	1322	1303	1278	1265	1267	1282	1294	1317	1338	1350	1330	1317	1314	1318	1311	1294	1288	0	0	1309	1304	1291	1282	1277	1299	1306	1292	1275	1253	1228	1237	1244	1265	1283	1287	1283	1266	1251	1246	1263	1275	1278	1273	1261	1252	1248	1247	1249	1252	1259	1259	1261	1259	1258	1260	1265	1264	1264	1262	1270	1276	1274	1269	1270	1277	1282	1282	1282	1283	1273	1262	1250	1241	1240	1247	1255	1256	1255	1255	0	0	0	0	0	0
0	0	0	0	0	0	0	0	0	0	0	0	0	0	0	0	0	0	0	0	0	0	1476	1478	1489	1489	1486	1498	1505	1496	1480	1465	1450	1454	1454	1450	1477	1498	1524	1523	1502	1474	1455	1455	1455	1472	1472	1472	1472	1464	1470	1486	1498	1511	1507	1503	1494	1494	1492	1499	1507	1512	1517	1523	1524	1520	1510	1504	1493	1504	1520	1532	1542	1546	1537	1524	1516	1523	1533	1551	1554	1549	1541	1528	1528	1532	1520	1512	1512	1515	1518	1525	1513	1497	1488	1484	1491	1494	1506	1517	1534	1551	1546	1550	1567	1580	1573	1544	1527	1525	1511	1518	1535	1550	1560	1551	1539	1524	1524	1522	1524	1520	1506	1496	1496	1505	1513	1510	1502	1514	1526	1538	1527	1516	1518	1504	1485	1465	1480	1491	1497	1485	1483	1487	1490	1491	1493	1506	1508	1500	1500	1485	1483	1489	1499	1495	1495	1489	1481	1494	1501	1506	1505	1503	1509	1517	1513	1503	1498	1507	1525	1536	1538	1540	1525	1509	1500	1488	1481	1479	1476	1464	1474	1489	1491	1496	1486	1475	1477	1479	1488	1490	1483	1469	1458	1461	1469	1466	1448	1445	1454	1459	1469	1477	1490	1493	1499	1497	1497	1491	1492	1493	1463	1449	1434	1428	1436	1442	1442	1428	1404	1375	1354	1299	1264	1213	1193	1170	1157	1148	1150	1157	1165	1163	1160	1146	1117	1093	1086	1081	1077	1075	1073	1070	1066	1058	1067	1095	1126	1143	1155	1157	1138	1119	1118	1117	1118	1122	1124	1121	1122	1122	1135	1152	1167	0	0	0	0	0	0	0	0	1325	1402	1414	1433	1449	1465	1475	1481	1479	1476	1463	1446	1435	1429	1427	1442	1455	1446	1436	1429	1439	1450	1445	1438	1429	1425	1429	1445	1462	1471	1465	1448	1433	1423	1426	1431	1427	1431	1421	1429	1424	1426	1436	1434	1425	1416	1419	1423	1431	1439	1446	1450	1440	1437	1430	1416	1408	1409	1416	1421	1426	1429	1419	1415	1418	1423	1425	1424	1420	1410	1401	1407	1410	1401	1386	1373	1373	1380	1389	1395	1405	1409	1411	1416	1417	1426	1431	1435	1430	1421	1408	1395	1378	1368	1381	1403	1423	1424	1414	1408	1409	1406	1406	1402	1392	1393	1400	1395	1387	1385	1374	1380	1391	1404	1417	1407	1397	1403	1413	1408	1396	1372	1374	1385	1393	1398	1405	1404	1388	1365	1358	1350	0	0	0	0	0	0	0	1125	1133	1121	1122	1117	1119	1125	1134	1143	1157	1177	1194	1184	1174	1166	1160	1155	1153	1183	1202	1228	1248	1253	1250	1234	1243	1238	1250	1250	1258	1253	1254	1233	1200	1195	1194	1197	1196	1194	1188	1173	1155	1136	1129	1133	1150	1181	1209	1225	1247	1232	1262	1280	1326	1342	1346	1340	1330	1336	1344	1360	1369	1372	1365	1348	1320	1315	1317	1328	1341	1339	1340	1334	1328	1325	1329	1324	1317	1311	1322	1331	1348	1354	1364	1359	1356	1347	1341	1333	1338	1349	1360	1360	1354	1345	1340	1327	1312	1307	1302	1312	1314	1306	1310	1315	1325	1326	1339	1339	1331	1312	1292	1282	1282	1291	1299	1297	1308	1299	1283	1267	1281	1299	1328	1345	1348	1334	1321	1311	1298	1287	1280	1284	1295	1313	1328	1341	1348	1354	1349	1334	1320	1305	1304	1297	1293	1291	1296	1314	1324	1318	1314	1306	1313	1335	1343	1327	1309	1298	1304	1319	1316	1307	1294	1289	1285	1276	1281	1292	1285	1273	1263	1248	1236	1246	1266	1283	1291	1292	1287	1274	1271	1272	1277	1275	1268	1259	1256	1254	1250	1236	1232	1238	1238	1250	1260	1259	1263	1261	1252	1259	1263	1278	1285	1288	1282	1286	1283	1279	1279	1279	1275	1264	1257	1242	1236	1234	1243	1246	1246	1249	1249	0	0	0	0	0	0
0	0	0	0	0	0	0	0	0	0	0	0	0	0	0	0	0	0	0	0	0	0	0	0	0	0	0	1498	1508	1504	1479	1464	1448	1448	1448	1462	1479	1509	1520	1512	1495	1481	1459	1463	1467	1479	1476	1475	1470	1465	1461	1475	1482	1493	1496	1497	1483	1478	1478	1487	1493	1495	1503	1517	1518	1511	1511	1511	1508	1509	1514	1520	1518	1523	1530	1526	1506	1506	1518	1542	1546	1549	1539	1517	1493	1493	1494	1503	1512	1512	1514	1519	1514	1503	1500	1500	1505	1527	1533	1540	1554	1565	1566	1568	1568	1575	1552	1536	1522	1511	1497	1515	1531	1544	1544	1541	1531	1522	1526	1531	1530	1525	1509	1491	1492	1502	1514	1513	1498	1498	1517	1527	1525	1524	1519	1501	1475	1450	1463	1486	1502	1510	1511	1515	1505	1496	1507	1519	1544	1554	1540	1512	1499	1505	1506	1504	1492	1485	1478	1486	1501	1505	1498	1497	1503	1510	1519	1520	1521	1524	1528	1530	1540	1531	1526	1516	1511	1504	1498	1486	1467	1459	1476	1486	1503	1492	1477	1472	1477	1482	1491	1489	1476	1464	1457	1457	1467	1461	1449	1451	1462	1473	1482	1496	1495	1494	1486	1496	1494	1489	1484	1482	1459	1442	1421	1397	1389	1428	1428	1400	1363	1313	1265	1215	1174	1167	1162	1149	1135	1126	1136	1146	1155	1157	1159	1141	1117	1091	1074	1067	1060	1061	1058	1050	1036	1031	1044	1073	1104	1137	1154	1153	1134	1121	1123	1120	1119	1121	1123	1124	1125	1123	1133	1152	0	0	0	0	0	0	0	0	0	1415	1417	1420	1431	1460	1477	1478	1472	1464	1455	1447	1446	1441	1433	1431	1432	1437	1437	1429	1422	1419	1417	1416	1422	1420	1423	1433	1444	1456	1467	1463	1447	1435	1422	1419	1426	1428	1432	1434	1437	1445	1445	1439	1432	1425	1414	1407	1417	1426	1445	1456	1462	1447	1441	1420	1405	1391	1402	1413	1426	1431	1428	1420	1414	1420	1423	1423	1419	1415	1406	1397	1405	1411	1405	1382	1377	1373	1385	1397	1405	1405	1406	1401	1406	1410	1419	1425	1426	1416	1409	1391	1378	1368	1364	1377	1402	1418	1423	1412	1403	1403	1409	1410	1402	1401	1397	1400	1405	1389	1383	1377	1383	1393	1405	1407	1391	1383	1399	1413	1416	1416	1407	1404	1395	1378	1376	1379	1384	1382	1383	1373	1369	1371	0	0	0	0	0	0	0	1114	1098	1095	1105	1125	1135	1152	1161	1170	1181	1187	1181	1172	1166	1164	1157	1158	1178	1204	1234	1246	1237	1235	1222	1241	1244	1261	1262	1259	1259	1259	1221	1206	1205	1201	1203	1196	1188	1177	1163	1147	1133	1121	1121	1131	1150	1180	1169	1173	1181	1216	1263	1327	1344	1354	1344	1328	1325	1339	1356	1371	1378	1370	1343	1318	1310	1317	1330	1336	1332	1335	1332	1322	1322	1329	1322	1317	1312	1324	1340	1353	1359	1361	1356	1352	1344	1333	1322	1326	1344	1350	1348	1341	1339	1332	1326	1316	1312	1315	1320	1311	1302	1301	1312	1330	1325	1334	1335	1331	1314	1294	1289	1288	1297	1304	1300	1300	1294	1285	1278	1288	1305	1330	1343	1347	1332	1322	1311	1306	1292	1288	1287	1291	1301	1316	1329	1336	1328	1326	1323	1314	1312	1305	1298	1292	1291	1295	1310	1317	1313	1305	1306	1317	1330	1333	1324	1300	1289	1287	1295	1295	1288	1278	1276	1276	1271	1268	1280	1287	1282	1271	1258	1252	1250	1260	1277	1285	1290	1287	1286	1289	1287	1275	1272	1266	1259	1255	1256	1261	1243	1222	1222	1222	1234	1247	1253	1255	1257	1249	1262	1272	1290	1300	1299	1282	1274	1266	1266	1266	1263	1262	1251	1249	1235	1231	1237	1244	1240	1239	1248	1248	0	0	0	0	0	0
0	0	0	0	0	0	0	0	0	0	0	0	0	0	0	0	0	0	0	0	0	0	0	0	0	0	0	0	1507	1502	1488	1470	1464	1472	1472	1503	1535	1542	1528	1510	1501	1493	1480	1468	1475	1475	1482	1489	1482	1479	1475	1476	1474	1479	1478	1489	1477	1461	1461	1465	1466	1482	1487	1498	1503	1504	1504	1513	1514	1510	1510	1511	1516	1518	1526	1511	1503	1504	1504	1517	1515	1515	1522	1507	1508	1508	1504	1508	1517	1515	1517	1508	1511	1514	1515	1518	1530	1537	1545	1552	1556	1556	1563	1564	1563	1553	1543	1529	1510	1499	1506	1514	1528	1533	1534	1534	1524	1523	1530	1533	1534	1528	1517	1497	1492	1494	1507	1497	1489	1493	1502	1492	1516	1518	1513	1498	1481	1460	1480	1504	1524	1538	1545	1537	1528	1512	1521	1544	1569	1577	1566	1521	1514	1506	1503	1496	1500	1494	1494	1506	1516	1518	1510	1500	1502	1512	1525	1525	1525	1531	1528	1529	1530	1535	1529	1524	1521	1517	1503	1486	1480	1469	1477	1486	1490	1491	1480	1480	1487	1493	1488	1487	1479	1466	1463	1462	1468	1469	1463	1462	1463	1473	1486	1493	1491	1489	1484	1485	1493	1485	1476	1458	1420	1399	1373	1339	1310	1285	1224	1305	1231	1179	1163	1165	1154	1157	1156	1142	1120	1106	1121	1127	1136	1145	1141	1127	1103	1085	1070	1056	1054	1051	1049	1040	1026	1023	1034	1057	1090	1119	1130	1126	1124	1126	1134	1134	1131	1133	1127	1133	1137	1137	0	0	0	0	0	0	0	0	0	0	1413	1432	1430	1427	1446	1467	1478	1473	1461	1450	1435	1439	1443	1446	1443	1440	1422	1416	1423	1425	1423	1419	1421	1413	1413	1415	1419	1433	1440	1460	1465	1459	1448	1440	1433	1430	1431	1434	1435	1437	1445	1453	1451	1443	1433	1427	1416	1405	1406	1418	1430	1450	1457	1451	1434	1419	1411	1406	1411	1418	1424	1426	1429	1423	1416	1420	1421	1419	1414	1408	1403	1398	1404	1405	1389	1379	1383	1386	1389	1398	1406	1410	1408	1403	1395	1407	1400	1401	1405	1408	1397	1395	1381	1377	1374	1386	1402	1413	1410	1397	1405	1406	1410	1412	1412	1417	1422	1416	1400	1385	1377	1370	1375	1386	1386	1381	1376	1373	1381	1394	1402	1408	1406	1404	1389	1376	1376	1379	1382	1385	1388	1386	1383	1381	1363	0	0	0	0	0	0	0	1082	1083	1103	1127	1141	1159	1170	1177	1180	1181	1168	1166	1170	1168	1173	1184	1185	1213	1242	1241	1242	1233	1217	1233	1234	1251	1264	1265	1263	1237	1215	1205	1203	1206	1195	1187	1175	1156	1140	1133	1129	1121	1111	1117	1119	1139	1151	1161	1167	1173	1211	1318	1332	1345	1339	1328	1320	1332	1352	1369	1378	1370	1345	1324	1312	1322	1331	1327	1329	1337	1338	1334	1333	1335	1326	1312	1313	1323	1335	1350	1354	1361	1353	1347	1344	1333	1329	1327	1330	1343	1341	1331	1328	1323	1321	1311	1318	1326	1326	1309	1300	1300	1313	1323	1326	1330	1331	1334	1318	1303	1292	1294	1306	1307	1302	1290	1301	1300	1300	1305	1323	1331	1336	1341	1330	1319	1314	1308	1305	1297	1295	1295	1303	1313	1324	1329	1316	1310	1311	1310	1307	1305	1297	1294	1287	1293	1301	1308	1308	1308	1308	1320	1328	1325	1311	1295	1297	1294	1297	1295	1280	1269	1259	1259	1261	1269	1279	1293	1295	1290	1285	1277	1270	1251	1239	1248	1264	1287	1295	1291	1279	1268	1277	1284	1287	1289	1281	1266	1266	1255	1255	1252	1254	1268	1280	1282	1270	1263	1266	1279	1300	1303	1281	1262	1257	1257	1257	1257	1255	1247	1246	1247	1257	1260	1258	1249	1240	1238	1238	1256	0	0	0	0	0	0
0	0	0	0	0	0	0	0	0	0	0	0	0	0	0	0	0	0	0	0	0	0	0	0	1486	0	0	0	1496	1492	1477	1478	1489	1518	0	0	0	0	1717	1523	1507	1498	1447	1450	1467	1467	1489	1496	1500	1491	1486	1480	1478	1483	1487	1498	1483	0	0	0	0	1475	1486	1495	1484	1487	1493	1506	1499	1506	1505	1507	1514	1520	1516	1499	1491	1491	1497	1516	1514	1521	1525	1522	1519	1518	1518	1519	1521	1511	1511	1505	1513	1525	1522	1520	1530	1532	1540	1543	1550	1544	1545	1561	1553	1549	1533	1517	1497	1491	1503	1512	1524	1528	1536	1537	1525	1521	1522	1529	1530	1530	1527	1504	1491	1493	1495	1486	1493	1488	1498	1497	1500	1517	1517	1505	1491	1491	1511	1531	1554	1566	1567	1549	1536	1522	1529	1555	1579	1581	1568	1539	1528	1519	1506	1501	1506	1518	1529	1530	1531	1524	1517	1509	1514	1508	1505	1527	1530	1526	1520	1521	1527	1533	1532	1532	1526	1517	1507	1492	1482	1476	1476	1478	1480	1478	1484	1487	1496	1499	1495	1494	1478	1469	1474	1473	1489	1489	1489	1469	1464	1465	1482	1487	1489	1488	1482	1480	1482	1476	1446	1411	1358	1325	1226	1205	1187	1169	1151	1131	1127	1150	1144	1140	1142	1155	1152	1134	1107	1094	1093	1102	1117	1117	1109	1093	1081	1071	1070	1063	1060	1051	1049	1042	1036	1034	1046	1059	1076	1090	1098	1100	1106	1126	1138	1142	1138	1130	1122	0	0	0	0	0	0	0	0	0	0	0	0	1403	1437	1444	1445	1444	1452	1469	1475	1464	1445	1439	1438	1441	1447	1455	1456	1459	1430	1411	1418	1427	1435	1432	1426	1427	1424	1429	1426	1431	1433	1453	1457	1451	1446	1450	1449	1449	1445	1445	1442	1445	1448	1458	1456	1452	1441	1440	1422	1409	1406	1415	1426	1439	1449	1454	1448	1437	1425	1423	1422	1431	1432	1433	1430	1428	1422	1418	1414	1405	1393	1390	1392	1395	1398	1398	1395	1383	1391	1396	1398	1396	1407	1411	1411	1404	1398	1395	1388	1384	1390	1397	1400	1397	1392	1394	1392	1394	1399	1403	1389	1389	1407	1408	1413	1412	1410	1411	1423	1418	1409	1385	1370	1363	1369	1378	1382	1378	1377	1372	1371	1374	1390	1400	1400	1397	1386	1375	1374	1376	1381	1379	1384	1383	1380	1377	1372	1332	0	0	0	0	0	0	0	0	1108	1131	1148	1155	1170	1176	1185	1167	1155	1159	1174	1176	1185	1204	1223	1244	1246	1245	1249	1243	1218	1225	1223	1244	1264	1264	1260	1236	1211	1212	1198	1184	1174	1169	1153	1138	1125	1130	1127	1122	1112	1103	1117	1129	1145	1152	1154	1151	1159	1171	1266	1306	1331	1324	1327	1333	1345	1348	1344	1347	1350	1342	1334	1331	1329	1332	1337	1348	1345	1332	1334	1338	1333	1326	1310	1311	1320	1337	1348	1360	1357	1345	1347	1338	1335	1334	1339	1338	1342	1334	1329	1324	1316	1309	1310	1324	1327	1313	1301	1297	1311	1327	1331	1329	1334	1339	1335	1321	1308	1305	1312	1314	1305	1292	1292	1306	1312	1323	1329	1327	1327	1330	1329	1319	1318	1314	1311	1307	1302	1299	1303	1315	1325	1327	1312	1304	1301	1302	1304	1298	1301	1295	1295	1299	1305	1309	1309	1309	1315	1325	1328	1317	1302	1299	1303	1306	1306	1292	1274	1261	1255	1256	1266	1275	1286	1297	1299	1291	1286	1280	1272	1259	1239	1250	1270	1291	1305	1294	1280	1271	1278	1283	1294	1297	1289	1278	1269	1262	1262	1255	1257	1266	1288	1279	1266	1261	1263	1279	1298	1298	1280	1263	1261	1267	1268	1268	1265	1258	1255	1255	1260	1262	1263	1249	1245	1251	1251	1256	0	0	0	0	0	0
0	0	0	0	0	0	0	0	0	0	0	0	0	0	0	0	0	0	0	0	0	0	0	1475	1477	1472	1472	1471	1463	1463	1466	1477	1498	1528	0	0	0	0	1707	1521	1488	1444	1438	1448	1465	1465	1489	1491	1496	1486	1483	1484	1494	1503	1511	1511	0	0	0	0	0	0	0	1506	1502	1507	1498	1501	1488	1499	1505	1507	1517	0	0	0	1511	1500	1506	1534	1545	1542	1527	1529	1523	1528	1526	1524	1524	1512	1498	1487	1491	1509	1515	1517	1512	1512	1488	1512	1512	1524	1535	1552	1554	1551	1535	1514	1498	1498	1511	1516	1519	1522	1524	1527	1526	1527	1522	1527	1532	1531	1526	1512	1497	1489	1489	1499	1499	1499	1507	1499	1512	1529	1526	1516	1508	1515	1532	1545	1554	1567	1564	1544	1529	1515	1525	1554	1575	1577	1552	1541	1539	1531	1508	1505	1506	1526	1538	1547	1541	1534	1534	1528	1518	1502	1498	1513	1518	1523	1517	1505	1513	1524	1525	1522	1520	1509	1501	1495	1492	1491	1488	1476	1471	1477	1485	1495	1510	1510	1505	1489	1476	1473	1480	1494	1499	1502	1490	1461	1446	1459	1468	1481	1483	1476	1465	1456	1444	1412	1376	1334	1278	1211	1171	1148	1136	1125	1109	1101	1098	1100	1097	1117	1126	1133	1126	1105	1081	1061	1062	1071	1078	1085	1076	1067	1060	1059	1063	1071	1080	1077	1065	1055	1052	1055	1062	1072	1080	1077	1078	1080	1095	1122	1129	1136	1135	1122	0	0	0	0	0	0	0	0	0	0	0	0	1389	1426	1437	1446	1456	1459	1459	1467	1462	1454	1441	1440	1437	1445	1451	1459	1472	1475	1457	1429	1424	1432	1434	1442	1434	1438	1436	1437	1443	1436	1433	1428	1431	1434	1446	1457	1461	1463	1457	1454	1448	1445	1451	1460	1462	1460	1457	1446	1430	1413	1416	1423	1431	1436	1452	1462	1457	1448	1440	1429	1430	1432	1435	1434	1434	1432	1429	1421	1407	1395	1381	1384	1382	1389	1391	1395	1397	1399	1403	1401	1397	1396	1400	1408	1405	1400	1398	1388	1380	1378	1383	1396	1405	1404	1405	1405	1410	1407	1403	1399	1387	1387	1398	1414	1414	1411	1407	1416	1420	1421	1408	1392	1375	1365	1368	1380	1384	1384	1388	1381	1375	1372	1401	1401	1398	1389	1385	1376	1375	1373	1366	1369	1369	1376	1375	1370	1373	1350	0	0	0	0	0	0	0	0	0	1126	1138	1151	1161	1172	1181	1163	1153	1154	1167	1174	1183	1218	1235	1228	1237	1237	1243	1249	1232	1225	1227	1245	1267	1265	1252	1238	1223	1219	1179	1173	1165	1162	1156	1137	1140	1141	1129	1121	1113	1103	1109	1123	1136	1142	1147	1138	1127	1132	1142	1166	1231	1313	1327	1335	1344	1346	1340	1337	1346	1347	1343	1339	1342	1339	1342	1356	1351	1348	1343	1350	1349	1345	1340	1333	1329	1324	1329	1336	1344	1341	1345	1346	1349	1350	1349	1345	1355	1348	1336	1327	1313	1304	1300	1319	1321	1321	1315	1314	1323	1321	1326	1331	1333	1342	1342	1331	1317	1308	1310	1315	1307	1296	1308	1316	1325	1334	1336	1334	1327	1325	1324	1320	1321	1316	1312	1305	1305	1307	1313	1321	1330	1330	1316	1309	1304	1303	1309	1305	1312	1308	1316	1317	1319	1312	1301	1291	1299	1319	1324	1311	1300	1305	1314	1314	1307	1293	1265	1254	1266	1284	1293	1293	1295	1297	1301	1294	1286	1284	1281	1277	1272	1274	1279	1289	1291	1283	1273	1282	1293	1283	1259	1255	1267	1276	1274	1274	1270	1265	1262	1272	1273	1271	1272	1267	1264	1279	1294	1299	1283	1280	1280	1286	1286	1283	1278	1266	1269	1268	1259	1256	1257	1252	1248	1252	1252	1264	0	0	0	0	0	0
0	0	0	0	0	0	0	0	0	0	0	0	0	0	0	0	0	0	0	0	0	0	0	0	1475	1461	1461	1457	1441	1433	1456	1479	0	0	0	0	1528	1531	1516	1492	1462	1431	1435	1445	1462	1462	1475	1488	1476	1482	1491	1501	1513	1519	1527	1538	0	0	0	0	0	0	0	0	0	0	0	0	0	0	0	0	0	0	0	0	1504	1496	1518	1545	1563	1550	1528	1519	1519	1530	1532	1529	1528	1528	1496	0	0	0	0	1479	1485	1467	1462	0	1478	1479	1498	1555	1572	1561	1546	1523	1513	1514	1535	1538	1524	1502	1506	0	0	0	0	0	1519	1540	1537	1519	1517	1508	1505	1499	1502	1513	1511	1513	1510	1543	1548	1536	1540	1537	1519	1518	1543	1539	1538	1524	1515	1513	1521	1547	1564	1558	1543	1539	1548	1539	1521	1514	1521	1530	1539	1549	1558	1547	1536	1522	1509	1494	1493	1504	1507	1497	1489	1493	1499	1497	1506	1502	1503	1498	1500	1501	1504	1509	1507	1494	1479	1478	1481	1489	1502	1506	1507	1487	1470	1475	1482	1488	1496	1498	1481	1455	1457	1458	1471	1470	1471	1460	1441	1406	1381	1341	1300	1229	1173	1154	1139	1119	1104	1097	1090	1083	1084	1084	1081	1072	1069	1099	1090	1073	1046	1028	1025	1035	1041	1043	1044	1033	1034	1039	1054	1073	1089	1102	1101	1084	1071	1060	1073	1085	1094	1086	0	0	0	1119	1124	0	0	0	0	0	0	0	0	0	0	0	0	0	0	1363	1424	1437	1435	1441	1447	1461	1461	1457	1453	1445	1437	1433	1435	1445	1456	1475	1478	1484	1467	1441	1427	1434	1439	1445	1450	1452	1452	1451	1451	1442	1430	1425	1429	1437	1445	1448	1450	1461	1459	1455	1451	1447	1450	1454	1459	1467	1457	1444	1436	1421	1423	1427	1430	1427	1444	1450	1457	1448	1435	1425	1423	1431	1435	1442	1443	1440	1437	1423	1404	1392	1386	1386	1386	1390	1392	1392	1402	1409	1414	1407	1395	1391	1400	1403	1405	1397	1392	1388	1382	1380	1390	1405	1408	1404	1408	1409	1412	1411	1411	1420	1408	1404	1404	1409	1414	1410	1411	1416	1418	1415	1408	1400	1388	1383	1383	1385	1383	1387	1405	1415	1415	1410	1405	1409	1396	1374	1373	1367	1371	1372	1360	1358	1357	1367	1371	1372	1371	1356	0	0	0	0	0	0	0	0	0	0	1110	1123	1149	1162	1164	1153	1152	1153	1156	1164	1172	1214	1237	1240	1235	1237	1237	1253	1241	1234	1250	1250	1258	1259	1259	1245	1227	1219	1174	1159	1161	1152	1149	1139	1142	1145	1138	1123	1113	1101	1100	1109	1124	1136	1137	1126	1108	1116	1120	1119	1100	1145	1246	1292	1336	1339	1333	1337	1338	1343	1343	1338	1338	1337	1339	1347	1346	1349	1343	1351	1348	1346	1344	1341	1332	1330	1331	1337	1342	1344	1351	1350	1351	1354	1344	1341	1339	1344	1335	1322	1312	1306	1305	1322	1332	1324	1321	1316	1316	1323	1318	1311	1313	1324	1334	1327	1314	1298	1290	1293	1293	1298	1314	1326	1335	1338	1334	1334	1328	1325	1324	1317	1319	1317	1312	1313	1302	1305	1317	1325	1327	1326	1321	1310	1304	1302	1305	1311	1312	1321	1326	1334	1335	1325	1308	1291	1290	1295	1299	1299	1296	1297	1306	1307	1300	1289	1268	1270	1289	1296	1302	1304	1306	1308	1300	1288	1279	1281	1284	1290	1287	1281	1279	1279	1275	1266	1261	1265	1268	1262	1256	1255	1269	1274	1277	1277	1275	1272	1275	1274	1275	1272	1278	1281	1280	1288	1291	1300	1297	1299	1307	1303	1303	1296	1282	1269	1257	1247	1245	1247	1255	1257	1257	1261	1261	1272	0	0	0	0	0	0
0	0	0	0	0	0	0	0	0	0	0	0	0	0	0	0	0	0	0	0	0	0	0	0	0	0	1449	1449	1445	1444	1453	1479	0	0	0	0	1509	1506	1491	1467	1463	1449	1449	1458	1461	1471	1471	1478	1474	1485	1501	1517	1527	1526	1525	0	0	0	0	0	0	0	0	0	0	0	0	0	0	0	0	0	0	0	0	1526	1499	1496	1522	1548	1564	1545	1510	1508	1516	1529	1537	1549	1541	1507	1507	1477	0	0	0	0	0	0	0	0	0	0	1491	1528	1566	1559	1544	1536	1525	1530	1533	1533	1516	1493	1503	1513	1530	0	0	0	1517	1534	1541	1536	1532	1523	1517	1504	1503	1502	1507	1502	1491	1516	1531	1540	1551	1536	1521	1506	1495	1493	1487	1484	1490	1494	1510	1528	1539	1544	1533	1529	1546	1540	1537	1542	1551	1543	1536	1549	1555	1550	1543	1526	1516	1502	1498	1506	1505	1487	1471	1465	1468	1468	1470	1487	1487	1488	1497	1505	1516	1526	1535	1510	1487	1471	1471	1483	1498	1506	1513	1500	1473	1466	1467	1470	1474	1474	1474	1467	1466	1457	1452	1443	1426	1401	1370	1344	1297	1234	1175	1155	1141	1124	1105	1093	1085	1070	1063	1062	1069	1071	1063	1053	1051	1037	1027	1018	1022	1007	1012	1028	1029	1029	1022	1020	1018	1024	1037	1068	1091	1101	0	0	0	1076	1082	0	0	0	0	0	0	0	0	0	0	0	0	0	0	0	0	0	0	0	0	0	1365	1421	1445	1438	1430	1424	1430	1439	1450	1449	1440	1439	1431	1424	1426	1436	1455	1468	1480	1477	1469	1442	1427	1433	1437	1444	1460	1464	1464	1459	1453	1444	1437	1432	1435	1439	1442	1451	1450	1453	1454	1461	1457	1447	1443	1445	1448	1447	1442	1434	1423	1418	1423	1423	1422	1416	1426	1429	1431	1422	1416	1421	1424	1432	1438	1441	1439	1438	1434	1419	1405	1399	1396	1402	1400	1406	1402	1401	1404	1414	1413	1402	1387	1385	1395	1407	1406	1394	1391	1391	1393	1396	1404	1403	1401	1398	1401	1391	1401	1416	1420	1418	1405	1394	1395	1399	1401	1399	1406	1409	1409	1408	1404	1404	1397	1392	1392	1399	1394	1384	1398	1409	1400	1402	1402	1400	1385	1371	1361	1358	1364	1372	1374	1370	1369	1373	1379	1373	1374	1370	1350	0	0	0	0	0	0	0	0	0	0	1094	1118	1144	1147	1141	1134	1136	1140	1151	1165	1201	1231	1244	1230	1239	1242	1254	1251	1256	1253	1251	1254	1254	1253	1258	1234	1223	1177	1156	1145	1139	1143	1143	1139	1141	1131	1123	1112	1098	1091	1097	1107	1120	1125	1107	1094	1101	1100	1096	1087	1088	1101	1126	1173	1302	1322	1322	1331	1335	1337	1333	1330	1329	1332	1344	1346	1349	1341	1344	1340	1337	1341	1343	1340	1334	1331	1342	1349	1354	1359	1365	1359	1353	1344	1327	1334	1336	1326	1313	1305	1304	1311	1320	1327	1331	1327	1331	1330	1322	1313	1309	1312	1321	1332	1317	1313	1294	1292	1288	1293	1303	1312	1327	1334	1332	1327	1323	1325	1319	1322	1326	1323	1319	1313	1305	1306	1305	1318	1327	1325	1318	1317	1312	1307	1309	1312	1314	1318	1327	1336	1346	1351	1339	1315	1297	1282	1287	1289	1292	1295	1292	1288	1289	1285	1286	1282	1288	1292	1299	1303	1307	1308	1307	1289	1284	1271	1273	1285	1290	1288	1284	1279	1283	1278	1257	1258	1262	1267	1265	1265	1272	1276	1282	1282	1280	1278	1276	1280	1285	1288	1290	1286	1288	1292	1283	1282	1288	1298	1310	1317	1317	1317	1300	1281	1260	1252	1244	1241	1245	1265	1282	1272	1272	1274	1283	0	0	0	0	0	0
0	0	0	0	0	0	0	0	0	0	0	0	0	0	0	0	0	0	0	0	0	0	0	0	0	0	1456	1456	1442	1443	1453	1475	0	0	0	0	0	1515	1500	1504	1492	1475	1474	1476	1479	1477	1477	1474	1478	1490	1515	1527	1534	1527	1526	0	0	0	0	0	0	0	0	0	0	1509	1525	1530	0	0	0	0	0	0	0	1525	1499	1499	1517	1537	1540	1521	1509	1508	1515	1532	1544	1550	1542	1519	1494	1480	1466	0	0	0	0	0	0	1472	1472	0	0	1527	1552	1534	1532	1531	1531	1528	1520	1519	1512	1500	1512	1547	1569	1567	0	0	1511	1534	1534	1537	1531	1533	1521	1511	1501	1506	1493	1482	1466	1467	1489	1525	1547	1534	1515	1500	1492	1497	1497	1496	1492	1491	1499	1518	1526	1528	1512	1503	1521	1533	1531	1545	1551	1551	1544	1547	1549	1549	1541	1532	1526	1522	1522	1522	1506	1485	1462	1452	1457	1458	1460	1468	1478	1483	1493	1503	1513	1524	1556	1522	1485	1465	1469	1478	1488	1501	1504	1496	1477	1464	1462	1453	1444	1447	1451	1451	1439	1419	1387	1363	1321	1295	1267	1229	1190	1157	1143	1131	1123	1094	1077	1064	1051	1043	1040	1043	1048	1045	1044	1039	1037	1033	1022	1020	1029	1032	1022	1036	1043	1034	1019	1010	1007	1015	1032	1053	1071	1082	0	0	0	0	0	0	0	0	0	0	0	0	0	0	0	0	0	0	0	0	0	0	0	0	0	1380	1424	1438	1447	1436	1417	1405	1409	1421	1434	1441	1444	1441	1428	1419	1416	1421	1434	1450	1460	1462	1448	1431	1417	1422	1431	1442	1464	1476	1477	1468	1453	1447	1438	1434	1439	1441	1454	1451	1452	1450	1457	1460	1463	1450	1442	1434	1429	1433	1426	1420	1410	1411	1418	1420	1419	1415	1415	1415	1406	1409	1415	1424	1426	1428	1431	1436	1434	1436	1433	1427	1417	1414	1418	1422	1423	1420	1412	1402	1406	1406	1403	1395	1388	1389	1397	1404	1404	1399	1394	1395	1397	1406	1405	1396	1381	1375	1373	1373	1382	1395	1413	1413	1402	1389	1384	1380	1383	1384	1390	1396	1402	1395	1393	1393	1395	1396	1396	1396	1382	1379	1385	1375	1388	1385	1385	1379	1381	1370	1361	1358	1369	1377	1377	1380	1385	1391	1388	1386	1375	1365	1368	1371	0	0	0	0	0	0	0	0	0	0	1063	1092	1133	1124	1122	1123	1128	1149	1170	1185	1208	1211	1246	1240	1248	1251	1250	1255	1255	1248	1250	1254	1265	1251	1251	1220	1178	1128	1129	1127	1129	1133	1135	1130	1123	1119	1115	1100	1091	1090	1098	1110	1114	1098	1092	1097	1094	1095	1086	1084	1095	1111	1123	1163	1270	1309	1318	1319	1318	1322	1331	1333	1329	1330	1330	1340	1339	1337	1327	1327	1331	1337	1341	1331	1328	1338	1349	1355	1367	1368	1356	1339	1324	1317	1321	1325	1319	1308	1299	1300	1300	1311	1328	1334	1339	1338	1336	1326	1314	1306	1309	1319	1319	1309	1298	1294	1292	1290	1300	1304	1307	1313	1311	1303	1290	1286	1287	1296	1305	1312	1315	1320	1317	1305	1303	1316	1331	1335	1336	1328	1320	1317	1314	1313	1307	1314	1321	1329	1341	1355	1368	1367	1328	1298	1283	1283	1287	1290	1290	1284	1285	1280	1280	1286	1292	1288	1297	1299	1305	1308	1305	1293	1286	1280	1273	1277	1285	1292	1287	1282	1285	1291	1282	1275	1268	1268	1271	1274	1278	1285	1296	1293	1293	1284	1274	1270	1281	1287	1302	1305	1303	1302	1297	1289	1276	1272	1279	1296	1315	1315	1316	1302	1276	1265	1257	1259	1266	1267	1279	1291	1299	1287	1290	1292	0	0	0	0	0	0
0	0	0	0	0	0	0	0	0	0	0	0	0	0	0	0	0	0	0	0	0	0	0	0	0	0	1466	1466	1450	1441	1456	1476	0	0	0	0	0	0	0	1525	1508	1491	1483	1491	1495	1492	1492	1486	1483	1502	1526	1532	1534	1538	1533	1542	0	0	0	0	0	0	0	0	1501	1515	1529	1538	1520	0	0	0	0	0	0	0	1517	1504	1506	1517	1515	1509	1507	1508	1529	1542	1548	1541	1520	1512	1499	1489	1477	1461	0	0	0	0	0	1484	0	0	0	1539	1527	1517	1519	1529	1531	1523	1514	1516	1504	1509	1531	1560	1577	1583	0	0	1525	1526	1523	1516	1516	1517	1521	1511	1506	1499	1479	1465	1443	1446	1464	1505	1524	1528	1508	1501	1500	1513	1528	1520	1503	1495	1495	1495	1505	1517	1510	1503	1511	1521	1518	1514	1512	1518	1520	1513	1533	1528	1527	1524	1531	1533	1547	1528	1511	1496	1475	1452	1459	1455	1461	1464	1477	1480	1488	1493	1500	1508	1541	1513	1481	1472	1467	1481	1487	1496	1488	1472	1467	1458	1463	1452	1434	1415	1415	1400	1373	1339	1259	1215	1198	1174	1168	1154	1141	1128	1107	1101	1097	1094	1061	1044	1032	1032	1028	1028	1026	1021	1020	1033	1035	1038	1032	1028	1039	1053	1057	1066	1061	1047	1024	1007	1001	1008	1023	1033	1043	1048	1057	0	0	0	0	0	0	0	0	0	0	0	0	0	0	0	0	0	0	0	0	0	0	0	1395	1438	1450	1449	1444	1430	1415	1405	1405	1417	1420	1435	1451	1457	1448	1431	1428	1427	1432	1435	1441	1447	1440	1426	1415	1408	1420	1440	1452	1455	1462	1467	1456	1437	1431	1431	1440	1449	1449	1452	1451	1449	1447	1459	1458	1452	1448	1447	1439	1430	1419	1415	1411	1412	1419	1423	1421	1418	1417	1411	1401	1407	1429	1431	1434	1428	1429	1425	1427	1430	1440	1436	1431	1430	1429	1431	1433	1425	1413	1406	1405	1405	1402	1397	1393	1399	1409	1410	1400	1397	1398	1402	1402	1410	1407	1400	1388	1382	1375	1374	1376	1391	1407	1416	1406	1397	1380	1372	1368	1368	1380	1399	1397	1386	1382	1380	1381	1388	1398	1394	1380	1370	1370	1372	1369	1372	1372	1374	1378	1376	1372	1372	1375	1381	1384	1392	1398	1400	1400	1385	1373	1362	1362	1377	1396	0	0	0	0	0	0	0	0	0	0	1065	1109	1113	1110	1114	1125	1149	1182	1213	1208	1211	1212	1218	1220	1223	1243	1252	1250	1238	1240	1244	1234	1195	1222	1161	1126	1116	1113	1111	1115	1121	1123	1115	1109	1106	1109	1100	1097	1099	1102	1109	1107	1097	1090	1092	1096	1093	1085	1080	1082	1090	1090	1081	1117	1152	1201	1294	1309	1325	1330	1334	1334	1336	1332	1337	1345	1349	1335	1327	1323	1331	1335	1328	1324	1339	1349	1357	1360	1358	1353	1343	1325	1314	1311	1318	1322	1323	1314	1309	1309	1317	1326	1318	1316	1318	1321	1323	1316	1316	1318	1318	1319	1325	1309	1301	1301	1311	1320	1312	1306	1307	1303	1296	1285	1280	1282	1289	1296	1296	1302	1305	1310	1301	1299	1313	1330	1340	1345	1341	1329	1312	1310	1313	1311	1312	1313	1323	1333	1353	1356	1361	1334	1310	1298	1292	1293	1289	1295	1281	1278	1278	1279	1285	1291	1296	1300	1310	1317	1308	1294	1281	1277	1288	1301	1298	1290	1290	1288	1289	1295	1296	1298	1289	1284	1286	1287	1290	1292	1297	1299	1292	1292	1280	1271	1267	1272	1295	1305	1312	1313	1307	1308	1298	1278	1269	1269	1286	1307	1307	1310	1298	1276	1267	1280	1290	1307	1302	1292	1299	1304	1304	1305	1303	0	0	0	0	0	0
0	0	0	0	0	0	0	0	0	0	0	0	0	0	0	0	0	0	0	0	0	0	0	0	0	0	1471	1471	1450	1448	1451	1483	0	0	0	0	0	0	0	1524	1496	1477	1471	1482	1496	1500	1500	1495	1498	1502	1525	1529	1535	1546	1540	1545	0	0	0	0	0	0	0	1490	1509	1518	1534	1536	1518	0	0	0	0	0	0	0	0	0	1501	1497	1500	1499	1501	1513	1531	1545	1552	1544	1520	1513	1525	1536	1498	1481	1491	1506	0	0	0	0	0	0	0	1538	1519	1506	1503	1519	1527	1531	1519	1511	1500	1510	1526	1554	1580	1551	0	1546	1528	1525	1506	1500	1499	1514	1513	1514	1515	1502	1483	1468	1449	1437	1455	1487	1514	1517	1508	1516	1534	1532	1541	1533	1511	1496	1497	1495	1486	1506	1502	1492	1511	1513	1509	1498	1495	1492	1498	1495	1494	1491	1497	1511	1523	1540	1544	1532	1512	1497	1483	1467	1463	1458	1458	1466	1481	1484	1482	1487	1489	1498	1498	1482	1467	1461	1463	1471	1475	1480	1479	1466	1452	1451	1454	1442	1411	1382	1346	1315	1273	1197	1149	1125	1106	1094	1090	1087	1082	1079	1067	1064	1066	1069	1051	1033	1031	1027	1020	1011	1007	1002	1007	1022	1039	1043	1037	1022	1032	1044	1052	1050	1032	1024	1026	1009	995	998	1005	1007	1012	1021	1030	1034	0	0	0	0	0	0	0	0	0	0	0	0	0	0	0	0	0	0	0	0	0	1393	1433	1449	1461	1452	1447	1438	1424	1410	1421	1426	1433	1445	1459	1467	1480	1477	1451	1439	1431	1435	1439	1445	1438	1429	1416	1408	1422	1434	1443	1453	1464	1463	1447	1433	1422	1427	1434	1442	1447	1447	1451	1443	1439	1446	1448	1457	1448	1449	1442	1430	1421	1414	1417	1424	1429	1429	1432	1430	1429	1427	1421	1422	1430	1436	1437	1430	1424	1420	1422	1433	1438	1438	1436	1433	1427	1425	1422	1412	1407	1407	1405	1408	1402	1398	1399	1399	1407	1411	1411	1407	1408	1416	1417	1413	1409	1404	1395	1390	1380	1377	1381	1392	1402	1412	1409	1394	1383	1372	1361	1372	1392	1401	1397	1388	1379	1379	1385	1388	1403	1398	1386	1374	1367	1368	1367	1366	1363	1375	1380	1383	1390	1388	1392	1385	1388	1391	1399	1399	1395	1381	1368	1358	1360	1361	1368	1375	0	0	0	0	0	0	0	0	0	1031	1045	1090	1098	1106	1119	1152	1182	1208	1213	1211	1208	1205	1200	1196	1203	1225	1227	1227	1225	1215	1215	1189	1203	1153	1120	1104	1095	1089	1098	1106	1108	1102	1097	1092	1095	1097	1107	1109	1111	1106	1101	1092	1090	1099	1101	1097	1081	1072	1065	1060	1056	1047	1040	1033	1038	1097	1183	1299	1328	1335	1342	1338	1337	1338	1346	1356	1343	1332	1324	1330	1330	1322	1325	1337	1347	1357	1359	1357	1356	1346	1334	1316	1315	1317	1321	1322	1323	1315	1312	1326	1328	1321	1315	1320	1323	1325	1321	1326	1330	1332	1335	1336	1329	1310	1309	1312	1311	1316	1309	1305	1305	1304	1296	1291	1284	1292	1293	1298	1304	1302	1298	1293	1289	1296	1318	1346	1353	1347	1331	1315	1312	1313	1314	1314	1317	1320	1330	1335	1337	1337	1329	1315	1308	1300	1293	1291	1293	1288	1275	1278	1292	1300	1308	1308	1313	1324	1321	1315	1294	1277	1276	1289	1294	1291	1282	1286	1293	1297	1302	1304	1304	1299	1296	1300	1304	1299	1295	1296	1296	1296	1292	1279	1270	1266	1273	1295	1305	1309	1311	1318	1314	1306	1287	1276	1279	1289	1298	1298	1300	1288	1281	1284	1299	1314	1315	1302	1293	1296	1301	1301	1309	1301	0	0	0	0	0	0
0	0	0	0	0	0	0	0	0	0	0	0	0	0	0	0	0	0	0	0	0	0	0	0	0	0	0	1452	1452	1441	1458	0	0	0	0	0	0	0	0	1513	1494	1477	1469	1481	1505	1510	1506	1506	1496	1506	1518	1521	1527	1536	1538	1543	1509	0	0	0	0	0	1479	1484	1509	1519	1532	1528	1509	1494	1492	1479	1468	1473	0	0	0	0	0	1494	1476	1485	1497	1520	1541	1550	1551	1532	1517	1521	1534	1517	1503	1487	1497	1513	1528	0	0	0	0	0	0	0	1536	1499	1503	1521	1536	1526	1500	1487	1488	1499	1519	1542	1542	0	1528	1531	1521	1518	1510	1510	1512	1512	1507	1522	1514	1502	1492	1474	1464	1450	1460	1483	1505	1516	1523	1530	1541	1546	1543	1534	1519	1497	1488	1491	1495	1498	1502	1496	1500	1504	1496	1481	1467	1481	1488	1488	1493	1488	1490	1503	1507	1507	1504	1484	1484	1500	1498	1486	1472	1462	1459	1474	1480	1473	1470	1475	1495	1500	1496	1481	1468	1460	1455	1457	1465	1469	1463	1453	1431	1431	1426	1401	1362	1315	1242	1182	1136	1092	1074	1061	1050	1041	1032	1028	1027	1027	1021	1019	1009	1010	1031	1023	1019	1014	1009	996	991	984	992	1012	1025	1034	1024	1010	998	1014	1030	1025	1009	999	986	970	986	982	987	988	991	998	1016	1018	0	0	0	0	0	0	0	0	0	0	0	0	0	0	0	0	0	0	0	0	1365	1404	1432	1446	1454	1454	1456	1452	1447	1442	1438	1443	1439	1440	1455	1470	1490	1492	1475	1448	1442	1436	1444	1440	1427	1426	1416	1414	1418	1430	1442	1451	1460	1457	1442	1425	1425	1426	1433	1443	1453	1452	1445	1435	1428	1433	1444	1444	1439	1435	1431	1421	1416	1414	1415	1422	1433	1434	1429	1428	1427	1431	1436	1434	1422	1415	1418	1424	1426	1432	1421	1419	1418	1422	1423	1414	1400	1388	1388	1387	1390	1396	1401	1401	1404	1400	1402	1403	1405	1406	1407	1409	1415	1423	1416	1408	1403	1407	1404	1398	1395	1392	1387	1390	1398	1403	1405	1392	1387	1380	1381	1389	1399	1406	1399	1389	1383	1389	1392	1396	1411	1410	1397	1384	1370	1367	1369	1366	1368	1373	1380	1387	1391	1393	1393	1391	1388	1390	1398	1398	1387	1372	1365	1358	1362	1358	1351	1355	0	0	0	0	0	0	0	0	0	0	1018	1021	1072	1082	1097	1132	1179	1204	1214	1211	1207	1198	1193	1190	1191	1195	1206	1211	1212	1206	1206	1194	1193	1156	1117	1090	1080	1075	1087	1098	1098	1097	1091	1084	1086	1094	1106	1109	1107	1099	1084	1087	1090	1093	1097	1078	1070	1058	1048	1037	1031	1016	1010	1004	1008	1012	1031	1138	1255	1304	1338	1340	1337	1341	1352	1361	1366	1357	1330	1322	1312	1314	1319	1338	1352	1360	1361	1358	1357	1352	1343	1327	1320	1323	1322	1325	1328	1327	1336	1350	1387	1366	1349	1337	1319	1320	1322	1325	1326	1327	1331	1338	1340	1325	1317	1313	1306	1308	1314	1311	1313	1312	1305	1306	1305	1304	1302	1302	1306	1306	1294	1283	1285	1287	1307	1332	1343	1338	1321	1313	1315	1314	1315	1320	1321	1323	1318	1316	1316	1311	1307	1311	1308	1303	1293	1291	1288	1291	1295	1302	1304	1304	1307	1314	1312	1319	1310	1312	1305	1292	1291	1287	1293	1284	1284	1288	1300	1302	1305	1301	1298	1295	1298	1303	1305	1304	1298	1296	1294	1294	1298	1291	1281	1276	1279	1295	1300	1301	1305	1310	1318	1313	1311	1308	1297	1297	1292	1292	1288	1292	1302	1301	1314	1313	1302	1290	1290	1297	1297	1304	1306	1297	0	0	0	0	0	0
0	0	0	0	0	0	0	0	0	0	0	0	0	0	0	0	0	0	0	0	0	0	0	0	0	0	0	0	0	1461	0	0	0	0	0	0	0	0	1527	1509	1499	1481	1492	1507	1511	1517	1523	1523	1514	1517	1509	1515	1521	1522	1530	1529	1498	1465	1458	1462	1465	1465	1472	1476	1487	1508	1512	1513	1500	1496	1506	1493	1481	1475	1499	1532	1549	0	0	0	0	1487	1489	1500	1529	0	0	1540	1508	1514	1507	0	1497	1491	1509	1513	1521	0	0	0	0	0	0	0	0	0	1514	1513	0	1533	1508	1489	1486	1490	1505	1523	0	0	0	1518	1516	1508	1508	1517	1516	1509	1503	1502	1510	1505	1501	1500	1493	1481	1475	1483	1492	1509	1520	1527	1532	1528	1531	1527	1511	1498	1492	1485	1498	1501	1508	1507	1511	1498	1489	1471	1465	1473	1496	1501	1497	1489	1489	1490	1498	1500	1489	1484	1499	1521	1528	1514	1481	1466	1460	1470	1476	1471	1476	1485	1504	1508	1508	1493	1481	1459	1446	1450	1465	1462	1442	1418	1393	1380	1366	1328	1273	1218	1131	1095	1065	1029	1018	1013	1011	999	989	983	990	990	983	979	978	976	991	1000	1007	1001	992	981	980	981	979	985	1002	1013	1003	993	989	1000	1006	1003	987	978	970	953	945	953	982	981	982	993	1008	0	0	0	0	0	0	0	0	0	0	0	0	0	0	0	0	0	0	0	0	1365	1395	1414	1421	1430	1438	1445	1455	1460	1462	1454	1454	1448	1445	1427	1444	1459	1477	1482	1475	1451	1448	1438	1442	1435	1435	1428	1419	1416	1415	1432	1447	1460	1463	1458	1445	1434	1432	1432	1433	1441	1446	1454	1450	1442	1432	1432	1438	1438	1435	1426	1422	1415	1412	1407	1410	1422	1427	1437	1435	1422	1423	1430	1435	1425	1409	1396	1399	1410	1424	1423	1422	1415	1417	1426	1433	1428	1406	1394	1395	1393	1389	1386	1388	1396	1402	1414	1412	1411	1407	1407	1397	1408	1412	1412	1405	1406	1401	1402	1399	1402	1405	1407	1402	1391	1388	1378	1384	1387	1394	1393	1394	1395	1401	1406	1413	1396	1389	1396	1404	1410	1420	1418	1405	1386	1378	1370	1371	1371	1370	1371	1369	1373	1377	1386	1395	1395	1386	1380	1384	1378	1371	1365	1366	1374	1366	1359	1355	1350	1344	0	0	0	0	0	0	0	0	0	0	978	992	1041	1059	1063	1089	1146	1187	1210	1207	1197	1194	1191	1191	1193	1194	1202	1210	1210	1210	1189	1186	1155	1110	1092	1073	1069	1090	1096	1095	1092	1086	1083	1084	1086	1086	1088	1094	1086	1067	1067	1081	1073	1071	1069	1054	1046	1038	1024	1014	999	985	981	987	989	988	1002	1065	1128	1199	1306	1325	1338	1351	1351	1339	1325	1321	1305	1297	1306	1320	1345	1357	1364	1362	1354	1349	1347	1349	1341	1338	1330	1327	1327	1333	1346	1345	1352	1368	1363	1359	1364	1374	1376	1330	1322	1316	1317	1329	1345	1349	1343	1322	1313	1299	1309	1308	1313	1314	1316	1314	1316	1317	1315	1312	1313	1309	1295	1290	1287	1289	1287	1300	1321	1326	1318	1309	1308	1315	1313	1316	1317	1322	1314	1314	1307	1295	1291	1290	1295	1298	1299	1291	1289	1289	1295	1302	1312	1309	1305	1306	1308	1307	1298	1293	1295	1293	1304	1308	1302	1293	1285	1292	1292	1297	1297	1302	1296	1288	1282	1290	1297	1306	1307	1305	1307	1307	1301	1300	1301	1296	1287	1287	1294	1298	1301	1299	1309	1321	1319	1316	1316	1304	1296	1296	1285	1281	1286	1297	1307	1308	1302	1290	1282	1291	1303	1303	1309	1310	1298	0	0	0	0	0	0
0	0	0	0	0	0	0	0	0	0	0	0	0	0	0	0	0	0	0	0	0	0	0	0	0	0	0	0	0	0	0	0	0	0	0	0	1525	1525	1528	1517	1516	1508	1517	1535	1538	1540	1545	1545	1537	1512	1509	1500	1506	1514	1521	1515	1483	1462	1453	1453	1454	1454	1463	1462	1468	1492	1495	1486	1491	1503	1515	1519	1499	1494	1507	1527	1548	1564	0	0	0	0	1507	1523	0	0	0	1549	1513	0	0	0	1510	1519	1515	1515	1528	0	0	1552	1534	0	0	0	0	0	1510	1514	0	0	1517	1512	1512	1512	1517	0	0	0	1510	1518	1506	1505	1510	1517	1509	1497	1485	1482	1487	1491	1508	1516	1525	1513	1500	1498	1492	1504	1508	1516	1519	1516	1511	1512	1505	1500	1494	1488	1493	1496	1501	1501	1508	1502	1490	1487	1481	1486	1503	1501	1495	1492	1485	1485	1487	1487	1485	1491	1510	1523	1524	1510	1496	1472	1458	1457	1467	1481	1498	1513	1517	1519	1517	1509	1494	1464	1440	1436	1435	1422	1395	1353	1322	1306	1268	1197	1156	1117	1084	1029	995	986	991	990	982	974	968	967	966	967	964	961	961	967	973	988	1000	994	989	987	980	981	977	978	981	994	989	988	988	993	996	982	969	971	972	964	951	960	975	0	0	0	0	0	0	0	0	0	0	0	0	0	0	0	0	0	0	0	0	0	0	0	1381	1424	1431	1425	1423	1427	1431	1441	1452	1462	1464	1462	1459	1451	1444	1445	1445	1452	1466	1471	1468	1450	1443	1443	1442	1441	1439	1423	1414	1414	1411	1415	1443	1461	1466	1462	1451	1440	1438	1435	1428	1432	1437	1443	1450	1451	1442	1440	1444	1445	1435	1424	1422	1411	1408	1401	1405	1415	1427	1437	1439	1431	1426	1429	1427	1417	1400	1384	1386	1392	1414	1418	1414	1413	1426	1449	1450	1438	1422	1407	1408	1408	1398	1384	1386	1397	1418	1429	1422	1425	1420	1414	1408	1404	1404	1400	1398	1398	1402	1399	1398	1401	1407	1411	1396	1396	1383	1372	1378	1388	1401	1402	1398	1398	1404	1410	1424	1436	1420	1412	1404	1410	1416	1412	1398	1386	1383	1379	1380	1379	1383	1378	1373	1366	1369	1381	1383	1386	1384	1377	1374	1368	1361	1365	1369	1373	1370	1356	1357	1356	1357	0	0	0	0	0	0	0	0	0	0	0	948	953	987	1013	1022	1060	1096	1145	1206	1204	1197	1192	1197	1206	1206	1216	1216	1213	1215	1191	1183	1178	1136	1097	1078	1078	1079	1088	1085	1082	1077	1070	1074	1070	1064	1070	1077	1076	1051	1047	1050	1056	1057	1046	1044	1042	1032	1022	1008	990	977	971	974	975	975	982	1006	1021	1035	1090	1219	1240	1267	1247	1269	1307	1326	1318	1310	1306	1354	1341	1362	1363	1360	1346	1342	1344	1345	1345	1333	1328	1324	1332	1341	1345	1349	1361	1360	1354	1351	1363	1384	1402	1365	1329	1320	1320	1324	1338	1348	1345	1324	1314	1296	1300	1309	1309	1308	1302	1303	1314	1320	1319	1322	1317	1308	1299	1288	1293	1304	1305	1308	1314	1316	1309	1303	1311	1314	1314	1313	1313	1316	1311	1303	1302	1299	1287	1283	1277	1290	1296	1294	1291	1289	1296	1308	1310	1307	1306	1306	1301	1290	1282	1268	1280	1288	1296	1307	1302	1300	1296	1300	1301	1302	1304	1298	1280	1272	1268	1269	1297	1306	1307	1313	1312	1312	1309	1305	1305	1307	1297	1284	1294	1294	1297	1301	1310	1325	1321	1308	1309	1298	1287	1287	1278	1276	1277	1288	1295	1292	1295	1287	1282	1294	1307	1307	1319	1309	1295	0	0	0	0	0	0
0	0	0	0	0	0	0	0	0	0	0	0	0	0	0	0	0	0	0	0	0	0	0	0	0	0	0	0	0	0	0	0	0	0	0	1517	1525	1525	1526	1526	1526	1526	1539	1729	1731	1736	1550	1543	1543	1503	1473	1475	1493	1507	1508	1500	1474	1451	1449	1445	1459	0	0	1461	1470	1491	1488	1484	1482	1503	1523	1528	1524	1510	1511	1522	1540	1548	0	0	1510	1528	1541	1554	1559	1556	1561	1537	0	0	0	0	1519	1528	1523	1516	0	0	1549	1547	1538	1528	0	0	0	1530	1519	1522	1524	0	1509	1511	1518	1513	0	0	0	1476	1497	1505	1504	1506	1508	1512	1505	1496	1484	1473	1492	1504	1519	1535	1545	1551	1540	1518	1505	1503	1499	1507	1502	1504	1501	1497	1500	1494	1488	1482	1477	1479	1486	1497	1495	1496	1492	1504	1508	1514	1510	1503	1492	1482	1480	1481	1481	1479	1482	1493	1508	1519	1516	1505	1489	1475	1465	1464	1479	1500	1510	1514	1509	1505	1509	1505	1480	1439	1415	1396	1369	1344	1308	1267	1220	1171	1117	1091	1062	1043	1030	973	959	963	970	963	961	958	958	961	964	961	958	956	960	969	973	989	997	992	997	993	994	989	988	991	984	979	983	983	982	990	985	977	969	962	981	982	975	973	981	0	0	0	0	0	0	0	0	0	0	0	0	0	0	0	0	0	0	0	0	0	0	1394	1437	1444	1458	1447	1433	1439	1442	1444	1454	1462	1461	1454	1460	1463	1462	1456	1453	1454	1461	1466	1464	1457	1442	1443	1448	1451	1445	1437	1425	1417	1412	1412	1445	1454	1462	1455	1451	1442	1439	1441	1430	1421	1424	1432	1449	1457	1456	1454	1455	1454	1450	1437	1432	1419	1419	1409	1412	1421	1434	1447	1446	1439	1436	1429	1425	1416	1400	1391	1391	1397	1409	1407	1415	1418	1432	1450	1463	1442	1425	1414	1417	1417	1398	1387	1388	1401	1423	1436	1440	1430	1435	1431	1426	1411	1400	1396	1389	1402	1402	1404	1405	1400	1408	1406	1407	1394	1394	1391	1395	1403	1408	1404	1402	1398	1409	1425	1438	1444	1437	1401	1393	1400	1403	1395	1387	1390	1398	1396	1396	1397	1389	1389	1380	1373	1369	1374	1384	1383	1381	1382	1373	1367	1363	1369	1372	1374	1365	1360	1360	1360	1359	1347	0	0	0	0	0	0	0	0	0	0	0	931	935	972	1001	1028	1062	1094	1142	1203	1195	1195	1199	1199	1210	1217	1218	1217	1215	1209	1200	1180	1141	1104	1083	1077	1073	1071	1072	1067	1065	1056	1058	1055	1044	1048	1063	1063	1035	1029	1026	1038	1040	1042	1037	1036	1032	1024	1010	995	980	972	967	969	973	978	993	1006	1013	1017	1048	1075	1092	1150	1213	1266	1307	1320	1309	1301	1325	1378	1348	1358	1348	1345	1333	1336	1339	1339	1332	1328	1326	1329	1343	1335	1339	1357	1342	1311	1302	1295	1382	1395	1387	1328	1323	1323	1328	1336	1334	1326	1312	1306	1293	1294	1298	1299	1298	1300	1299	1309	1323	1333	1324	1315	1299	1290	1288	1298	1309	1309	1310	1321	1322	1315	1307	1308	1311	1313	1310	1309	1312	1313	1308	1305	1302	1293	1283	1279	1286	1306	1304	1306	1301	1308	1304	1301	1301	1296	1302	1301	1293	1277	1270	1275	1284	1293	1303	1300	1302	1310	1320	1314	1309	1311	1303	1287	1275	1268	1299	1305	1307	1304	1303	1303	1309	1309	1299	1302	1307	1297	1285	1291	1290	1291	1296	1308	1314	1313	1305	1294	1287	1282	1282	1282	1279	1273	1270	1277	1276	1281	1283	1288	1294	1307	1307	1315	1308	1291	0	0	0	0	0	0
0	0	0	0	0	0	0	0	0	0	0	0	0	0	0	0	0	0	0	0	0	0	0	0	0	0	0	0	0	0	0	0	0	0	1510	1523	1525	1525	1522	1525	1536	1544	1546	1548	1742	1548	1531	1508	1508	1481	1469	1468	1485	1500	1500	1484	1466	1446	0	0	0	0	0	1478	1483	1493	1491	1492	1487	1501	1517	1532	1526	1512	1510	1513	1525	1559	1542	1502	1516	1532	1553	1564	1566	1571	1559	1550	0	0	0	0	1508	1530	1530	1532	0	0	0	1547	1538	0	0	0	1520	1523	1532	1531	1540	1526	1524	1504	1503	0	0	0	0	1473	1490	1500	1508	1506	1507	1506	1506	1500	1493	1487	1507	1524	1535	1537	1543	1549	1535	1516	1504	1490	1488	1491	1485	1492	1495	1489	1494	1488	1483	1470	1466	1473	1485	1494	1486	1486	1492	1504	1516	1523	1507	1492	1482	1478	1478	1483	1483	1488	1494	1500	1504	1501	1505	1498	1491	1476	1469	1473	1485	1494	1492	1476	1453	1450	1487	1486	1434	1387	1334	1300	1261	1224	1195	1160	1121	1086	1054	1031	1018	1010	1001	945	937	938	945	946	948	954	960	967	969	964	960	965	968	979	986	995	1001	992	999	998	995	990	992	989	987	981	979	969	973	973	969	977	972	968	988	990	993	984	0	0	0	0	0	0	0	0	0	0	0	0	0	0	0	0	0	0	0	0	0	0	1398	1434	1446	1453	1457	1460	1457	1451	1454	1470	1471	1456	1458	1456	1459	1472	1471	1461	1459	1456	1456	1461	1453	1449	1443	1445	1452	1461	1457	1447	1441	1429	1419	1417	1426	1444	1445	1440	1441	1439	1441	1441	1434	1420	1416	1425	1441	1461	1463	1465	1464	1461	1461	1448	1441	1431	1424	1430	1429	1438	1444	1439	1442	1440	1435	1429	1424	1417	1405	1403	1407	1416	1416	1417	1417	1425	1430	1436	1439	1419	1406	1409	1414	1411	1397	1389	1394	1406	1423	1432	1431	1435	1438	1439	1433	1416	1396	1393	1397	1407	1402	1395	1391	1395	1401	1406	1401	1404	1411	1412	1411	1409	1409	1409	1405	1405	1411	1423	1430	1433	1426	1398	1388	1388	1381	1377	1374	1384	1400	1396	1402	1409	1413	1403	1386	1378	1377	1379	1377	1388	1391	1391	1385	1372	1372	1368	1371	1370	1367	1365	1364	1363	1360	1352	1319	0	0	0	0	0	0	0	0	0	0	0	0	930	977	1019	1040	1071	1074	1148	1183	1192	1195	1198	1209	1213	1216	1211	1198	1192	1186	1159	1134	1098	1074	1068	1059	1054	1053	1053	1051	1050	1046	1044	1040	1042	1048	1033	1011	1003	1011	1021	1025	1031	1029	1027	1026	1022	1008	1000	988	978	976	972	978	977	983	990	991	989	995	1010	1028	1063	1113	1186	1224	1293	1288	1294	1311	1347	1349	1338	1336	1334	1335	1337	1342	1339	1339	1336	1329	1328	1329	1329	1335	1337	1321	1319	1313	1289	1301	1354	1354	1308	1317	1335	1334	1335	1329	1318	1305	1302	1296	1292	1288	1290	1293	1294	1300	1308	1323	1331	1320	1301	1284	1282	1289	1294	1298	1306	1318	1322	1329	1326	1312	1304	1306	1304	1298	1300	1306	1311	1316	1310	1309	1301	1296	1302	1307	1314	1317	1316	1311	1307	1301	1294	1291	1293	1295	1296	1288	1266	1265	1274	1290	1305	1308	1306	1302	1311	1315	1314	1307	1314	1306	1292	1290	1292	1303	1311	1314	1308	1302	1302	1302	1298	1295	1296	1302	1305	1302	1290	1278	1282	1296	1302	1313	1302	1288	1276	1275	1275	1282	1288	1286	1273	1266	1267	1276	1273	1278	1282	1285	1285	1296	1301	1295	1284	0	0	0	0	0	0
0	0	0	0	0	0	0	0	0	0	0	0	0	0	0	0	0	0	0	0	0	0	0	0	0	0	0	0	0	0	0	0	0	1485	1510	1533	1535	1523	1523	1528	1524	1519	1529	1530	1530	1532	1512	1495	1495	1487	1480	1480	1485	1493	1485	1477	1465	1447	1452	0	0	1488	1488	1492	1487	1492	1499	1504	1508	1509	1513	1515	1521	1513	1510	1514	1529	1542	1529	1507	1509	1518	1534	1551	1554	1559	1562	1551	1531	0	0	0	0	0	0	0	0	0	0	1545	1545	0	1529	1519	1528	1535	1539	1534	1515	1501	1516	1510	1483	0	0	0	0	0	1485	1490	1497	1500	1508	1511	1511	1510	1496	1506	1526	1541	1540	1540	1532	1510	1504	1497	1482	1491	1492	1488	1483	1491	1497	1499	1498	1494	1493	1484	1477	1481	1489	1491	1474	1475	1482	1502	1504	1505	1497	1491	1489	1486	1487	1484	1483	1486	1485	1490	1491	1492	1500	1496	1492	1482	1474	1483	1485	1476	1467	1443	1424	1406	1388	1373	1258	1301	1241	1190	1152	1118	1091	1066	1048	1031	1017	1011	1002	995	982	923	916	926	928	937	949	960	972	977	978	975	973	975	980	991	1000	1001	1000	1001	1005	998	991	980	980	983	981	975	969	961	960	954	959	969	974	979	987	991	985	980	0	0	0	0	0	0	0	0	0	0	0	0	0	0	0	0	0	0	0	0	0	1406	1455	1443	1442	1442	1453	1451	1449	1458	1474	1475	1469	1462	1454	1451	1454	1471	1472	1461	1457	1454	1448	1444	1435	1445	1449	1454	1459	1466	1467	1466	1449	1441	1427	1427	1434	1437	1434	1435	1431	1433	1441	1444	1438	1429	1424	1435	1452	1461	1467	1468	1455	1458	1451	1443	1435	1435	1436	1447	1447	1449	1441	1434	1426	1415	1428	1423	1415	1408	1414	1416	1424	1431	1428	1427	1420	1417	1419	1417	1410	1393	1387	1394	1401	1404	1401	1399	1402	1409	1421	1422	1421	1429	1436	1436	1431	1423	1406	1403	1405	1410	1405	1391	1385	1386	1394	1402	1409	1406	1413	1410	1398	1407	1405	1406	1408	1409	1409	1408	1408	1408	1401	1402	1397	1383	1373	1370	1375	1383	1389	1381	1386	1402	1412	1413	1409	1397	1390	1378	1375	1380	1394	1400	1398	1378	1377	1384	1375	1371	1371	1368	1367	1361	1354	1349	1335	0	0	0	0	0	0	0	0	0	0	0	0	0	904	969	946	1005	1035	1126	1183	1190	1190	1201	1208	1214	1214	1205	1194	1186	1174	1149	1118	1078	1058	1043	1039	1031	1035	1039	1037	1036	1031	1032	1031	1028	1031	1019	1001	988	995	1005	1017	1019	1021	1014	1008	1007	1004	999	991	986	979	980	977	975	980	978	968	961	959	964	976	996	1026	1091	1162	1276	1264	1132	1219	1249	1324	1334	1338	1333	1335	1335	1336	1341	1343	1341	1335	1329	1314	1301	1289	1303	1319	1326	1321	1299	1299	1329	1332	1298	1312	1326	1328	1319	1322	1323	1314	1302	1297	1297	1293	1294	1293	1295	1294	1301	1310	1321	1310	1291	1280	1283	1295	1298	1306	1314	1325	1333	1335	1332	1323	1307	1295	1284	1283	1284	1294	1309	1314	1313	1314	1308	1308	1317	1323	1326	1318	1317	1313	1309	1302	1293	1284	1274	1278	1288	1276	1262	1266	1275	1303	1325	1329	1315	1309	1304	1302	1303	1296	1293	1292	1301	1297	1296	1299	1313	1320	1316	1316	1307	1297	1295	1289	1292	1299	1301	1298	1291	1289	1294	1303	1318	1313	1303	1280	1269	1278	1278	1294	1315	1316	1301	1281	1273	1276	1273	1274	1277	1278	1278	1280	1283	1284	1279	0	0	0	0	0	0
0	0	0	0	0	0	0	0	0	0	0	0	0	0	0	0	0	0	0	0	0	0	0	0	0	0	0	0	0	0	0	0	1479	1499	1512	1525	1522	1516	1516	1521	1516	1508	1501	1505	1505	1505	1504	1494	1494	1499	1498	1490	1488	1482	1482	1476	1468	1459	1455	1470	1488	1494	1490	1490	1494	1489	1497	1509	1515	1514	1511	1519	1516	1524	1521	1544	1543	1553	1541	1503	1500	1508	1516	1532	1542	1547	1552	1552	1548	1518	1507	1500	1515	0	0	0	1543	1546	1547	1546	1543	1540	1530	1536	1535	1544	1548	1542	1526	1514	1519	1524	1498	1477	0	0	0	0	1500	1504	1505	1504	1508	1516	1522	1518	1507	1519	1546	1555	1545	1528	1514	1505	1489	1476	1476	1484	1499	1501	1491	1492	1498	1505	1504	1517	1510	1504	1498	1494	1502	1505	1489	1482	1490	1492	1496	1491	1489	1490	1494	1494	1507	1500	1486	1477	1474	1474	1478	1480	1485	1488	1487	1480	1474	1470	1472	1467	1439	1402	1371	1331	1285	1217	1126	1076	1045	1030	1074	1050	1025	1016	1014	1016	1008	1001	1000	993	969	941	909	921	926	937	955	971	984	986	985	983	980	984	993	1000	1008	1012	1008	1012	1008	998	977	967	965	973	982	977	969	959	950	946	946	956	976	990	991	976	967	0	0	0	0	0	0	0	0	0	0	0	0	0	0	0	0	0	0	0	0	0	1350	1476	1474	1463	1449	1443	1435	1425	1434	1445	1460	1464	1463	1461	1461	1463	1466	1470	1470	1464	1452	1446	1440	1431	1432	1444	1454	1454	1460	1464	1468	1465	1459	1443	1441	1438	1444	1445	1438	1434	1430	1432	1447	1454	1444	1433	1430	1436	1453	1467	1460	1450	1444	1438	1431	1422	1419	1421	1442	1448	1455	1445	1438	1425	1420	1412	1420	1425	1416	1412	1411	1419	1431	1432	1429	1427	1417	1410	1408	1403	1396	1386	1386	1394	1400	1402	1403	1403	1403	1410	1414	1417	1421	1422	1426	1431	1432	1429	1419	1424	1425	1424	1424	1407	1384	1384	1394	1403	1405	1404	1399	1392	1385	1389	1392	1401	1409	1405	1402	1391	1387	1380	1393	1398	1397	1388	1380	1376	1378	1385	1382	1372	1373	1389	1401	1407	1404	1401	1390	1376	1370	1376	1390	1402	1401	1394	1394	1398	1391	1383	1374	1368	1363	1360	1357	1353	1338	1308	0	0	0	0	0	0	0	0	0	0	0	0	0	897	893	941	1019	1099	1157	1185	1191	1204	1210	1207	1201	1196	1174	1176	1161	1130	1096	1069	1042	1027	1019	1021	1026	1025	1024	1022	1015	1015	1015	1017	1017	1013	1001	989	995	1000	1006	1011	1003	994	986	980	986	987	982	981	974	975	974	970	967	961	948	932	929	934	944	954	965	979	960	993	1014	1071	1108	1160	1278	1316	1333	1334	1332	1329	1335	1345	1348	1345	1339	1332	1323	1320	1311	1316	1325	1331	1319	1298	1319	1335	1328	1305	1316	1317	1310	1305	1311	1322	1313	1308	1307	1305	1303	1305	1299	1298	1292	1293	1300	1303	1297	1289	1285	1299	1315	1319	1325	1332	1339	1335	1326	1321	1318	1295	1284	1274	1270	1272	1284	1300	1299	1312	1314	1312	1317	1322	1326	1321	1317	1314	1313	1306	1303	1294	1282	1270	1266	1274	1274	1262	1259	1276	1309	1342	1347	1323	1304	1294	1293	1302	1299	1290	1284	1283	1281	1290	1298	1315	1326	1324	1324	1312	1298	1288	1289	1288	1290	1293	1292	1295	1295	1303	1315	1328	1327	1312	1295	1297	1318	1318	1329	1324	1312	1298	1289	1281	1283	1279	1276	1277	1274	1274	1276	1272	1276	1281	0	0	0	0	0	0
0	0	0	0	0	0	0	0	0	0	0	0	0	0	0	0	0	0	0	0	0	0	0	0	0	0	0	1503	1496	1496	1480	1473	1473	1493	1477	1496	1504	1506	1506	1502	1496	1490	1480	1480	1484	1485	1487	1482	1502	1502	1501	1490	1486	1487	1488	1480	1478	1475	1485	1485	1482	1492	1501	1501	1497	1495	1498	1509	1521	1520	1517	1516	1521	1512	1532	1553	1553	1555	1538	1502	1494	1502	1511	1518	1528	1534	1542	1544	1540	1524	1513	1507	1529	1545	1545	1532	1532	1533	1533	1531	1539	1544	1542	1531	1529	1544	1554	1553	1540	1535	1532	1537	1520	1498	1489	1485	1506	1506	1513	1516	1508	1506	1506	1516	1521	1523	1520	1530	1545	1553	1542	1519	1503	1500	1476	1460	1468	1478	1495	1497	1495	1497	1505	1519	1521	1524	1521	1511	1510	1504	1514	1518	1520	1510	1510	1507	1501	1487	1478	1480	1496	1505	1513	1507	1489	1469	1466	1467	1473	1479	1486	1491	1480	1475	1456	1456	1449	1423	1382	1333	1297	1227	1149	1051	991	990	996	1007	1017	1014	1005	1000	1006	1013	1009	1004	996	983	959	941	924	931	936	942	953	972	982	985	981	977	980	985	1000	1009	1021	1024	1023	1024	1011	992	964	951	947	957	974	977	971	964	955	949	949	952	973	989	992	963	947	0	0	0	0	0	0	0	0	0	0	0	0	0	0	0	0	0	0	0	0	0	1456	1472	1475	1470	1464	1453	1434	1421	1419	1434	1452	1449	1454	1452	1455	1468	1477	1482	1478	1473	1461	1448	1435	1435	1436	1449	1458	1452	1457	1456	1460	1453	1447	1438	1439	1437	1449	1453	1454	1447	1437	1438	1454	1459	1455	1445	1434	1441	1448	1457	1449	1442	1435	1426	1413	1412	1412	1424	1448	1455	1459	1452	1437	1426	1418	1422	1436	1437	1429	1416	1420	1428	1436	1429	1420	1413	1406	1400	1393	1395	1397	1395	1402	1405	1407	1404	1407	1409	1411	1412	1414	1416	1421	1424	1426	1429	1433	1430	1432	1428	1436	1438	1438	1428	1412	1399	1404	1412	1408	1400	1391	1380	1382	1382	1392	1407	1413	1407	1398	1381	1373	1373	1382	1390	1393	1389	1385	1379	1385	1382	1374	1366	1367	1377	1394	1399	1401	1400	1391	1373	1369	1374	1390	1401	1401	1405	1402	1406	1402	1389	1376	1369	1367	1368	1364	1351	1339	1325	0	0	0	0	0	0	0	0	0	0	0	0	0	0	0	923	980	1057	1138	1174	1185	1192	1201	1203	1194	1171	1161	1161	1147	1129	1096	1070	1037	1025	1020	1021	1030	1025	1019	1008	996	997	999	1007	1016	1012	1005	996	994	996	1002	997	988	975	966	966	963	955	963	968	963	964	967	964	961	950	934	922	917	915	916	912	925	936	950	957	971	1000	1030	1070	1223	1280	1305	1328	1328	1323	1320	1336	1344	1348	1345	1339	1334	1324	1320	1323	1331	1336	1322	1329	1344	1340	1338	1345	1319	1297	1296	1303	1308	1315	1303	1309	1314	1311	1313	1308	1305	1297	1299	1295	1294	1292	1289	1297	1298	1309	1326	1336	1341	1343	1337	1325	1315	1310	1309	1293	1285	1281	1279	1286	1299	1309	1301	1299	1297	1308	1320	1332	1336	1330	1318	1305	1303	1303	1301	1296	1283	1276	1271	1277	1267	1256	1256	1273	1310	1343	1345	1319	1300	1288	1289	1301	1305	1296	1275	1269	1273	1289	1309	1320	1326	1326	1320	1314	1308	1300	1284	1283	1281	1286	1290	1294	1302	1315	1329	1336	1333	1314	1310	1324	1324	1342	1332	1314	1303	1299	1293	1292	1289	1286	1283	1283	1283	1278	1273	1268	1271	1281	0	0	0	0	0	0
0	0	0	0	0	0	0	0	0	0	0	0	0	0	0	0	0	0	0	0	0	0	0	0	0	0	0	0	1469	1454	1454	1448	1450	1440	1456	0	0	0	0	1490	1494	1487	1477	1469	1470	1462	1464	1463	1494	1494	1499	1497	1491	1499	1500	1490	1495	1498	1499	1485	1480	1485	1506	1506	1508	1496	1496	1510	1518	1520	1518	1510	1490	1509	1530	1550	1551	1542	1531	1511	1499	1499	1507	1518	1527	1536	1543	1535	1521	1510	1506	1518	1529	1547	1536	1532	1531	1531	1531	1527	1533	1538	1536	1530	1530	1544	1553	1562	1551	1546	1541	1533	1525	1513	1511	1511	1514	1515	1512	1515	1517	1522	1515	1518	1513	1517	1520	1520	1521	1525	1521	1514	1496	1498	1488	1479	1468	1476	1485	1489	1490	1492	1507	1517	1519	1515	1509	1501	1500	1502	1520	1525	1535	1532	1530	1529	1515	1486	1476	1486	1503	1520	1520	1511	1496	1482	1471	1475	1483	1483	1486	1477	1463	1449	1438	1415	1388	1316	1252	1217	1165	1048	996	963	942	957	973	1001	1012	1016	1008	1005	1005	1008	1007	1002	996	984	974	959	950	947	945	945	955	970	971	974	969	966	968	974	995	1017	1029	1032	1027	1018	1007	973	949	934	932	942	961	966	963	962	967	962	955	955	963	981	978	0	0	0	0	0	0	0	0	0	0	0	0	0	0	0	0	0	0	0	0	0	0	1328	1403	1474	1476	1469	1471	1467	1443	1430	1427	1430	1445	1448	1437	1436	1445	1470	1479	1492	1493	1488	1471	1440	1428	1437	1444	1456	1458	1457	1452	1448	1439	1436	1423	1430	1437	1447	1456	1458	1460	1454	1453	1454	1459	1470	1468	1455	1442	1437	1443	1441	1439	1436	1426	1416	1409	1411	1421	1432	1450	1462	1464	1455	1441	1428	1423	1429	1444	1449	1440	1433	1437	1441	1436	1413	1403	1403	1400	1392	1383	1392	1403	1417	1422	1422	1417	1407	1408	1415	1413	1415	1415	1415	1420	1427	1435	1435	1433	1423	1426	1434	1440	1444	1449	1446	1440	1427	1426	1423	1409	1396	1386	1379	1383	1392	1397	1402	1414	1413	1395	1380	1373	1376	1384	1397	1404	1391	1391	1389	1378	1373	1365	1356	1364	1376	1384	1397	1404	1404	1395	1382	1376	1381	1387	1389	1397	1400	1406	1415	1415	1395	1376	1370	1371	1370	1367	1354	1341	1327	1328	0	0	0	0	0	0	0	0	0	0	0	0	0	0	0	940	1001	1085	1157	1177	1180	1185	1181	1174	1158	1152	1152	1141	1137	1108	1065	1046	1035	1030	1032	1035	1034	1017	1000	985	983	993	1002	1010	1009	1006	1002	996	995	988	980	974	964	955	949	943	940	944	953	957	957	961	956	954	947	936	921	932	926	917	914	922	932	950	957	958	962	974	1010	1040	1153	1253	1300	1318	1326	1327	1322	1331	1336	1338	1337	1339	1337	1339	1336	1344	1343	1334	1343	1350	1353	1346	1333	1312	1301	1296	1295	1301	1306	1291	1307	1319	1317	1315	1306	1300	1305	1308	1294	1292	1299	1297	1296	1298	1309	1328	1343	1346	1334	1316	1304	1302	1309	1309	1302	1295	1293	1300	1305	1310	1314	1313	1307	1306	1312	1324	1338	1347	1338	1320	1306	1300	1303	1301	1296	1290	1283	1284	1282	1272	1263	1261	1277	1313	1334	1321	1304	1288	1280	1287	1307	1316	1295	1272	1261	1268	1291	1309	1330	1329	1332	1319	1307	1309	1312	1303	1289	1286	1292	1295	1301	1312	1326	1331	1329	1320	1300	1298	1322	1322	1333	1322	1299	1294	1291	1296	1294	1290	1292	1292	1291	1291	1287	1273	1264	1267	1278	0	0	0	0	0	0
0	0	0	0	0	0	0	0	0	0	0	0	0	0	0	0	0	0	0	0	0	0	0	0	0	0	0	0	0	1433	1433	1419	1429	0	0	0	0	0	0	0	0	0	1480	1471	1462	0	0	0	1470	1470	1485	1496	1499	1502	1505	1510	1509	1512	1502	1496	1483	1506	1504	1506	1506	1496	1501	1508	1517	1514	1495	1486	1486	1509	1528	1523	1531	1520	1508	1516	1519	1508	1508	1528	1540	1534	1541	1527	1522	1506	1510	1518	1539	1543	1541	1535	1534	1538	1524	1518	1523	1530	1528	1524	1529	1541	1560	1560	1555	1547	1540	1533	1524	1513	1512	1524	1524	1519	1516	1521	1523	1531	1529	1523	1512	1502	1501	1505	1495	1496	1494	1501	1498	1481	1489	1490	1493	1484	1477	1481	1480	1487	1502	1513	1517	1511	1503	1488	1495	1491	1510	1525	1537	1541	1541	1546	1530	1507	1496	1500	1510	1526	1524	1513	1498	1487	1485	1482	1489	1483	1480	1460	1434	1414	1356	1332	1219	1171	1110	1064	1001	969	955	938	933	949	967	987	998	1006	1004	1000	996	994	1006	1013	1012	996	986	988	978	966	956	954	959	964	964	963	962	959	958	969	988	1014	1022	1021	1013	999	986	960	929	922	920	935	944	948	952	964	972	974	968	966	973	978	973	0	0	0	0	0	0	0	0	0	0	0	899	894	0	0	0	0	0	0	0	0	1315	1414	1455	1473	1471	1471	1477	1476	1458	1440	1439	1447	1446	1451	1445	1442	1447	1465	1472	1487	1498	1497	1478	1443	1432	1433	1440	1453	1456	1452	1441	1435	1426	1421	1422	1429	1441	1457	1464	1464	1460	1457	1452	1452	1457	1463	1477	1466	1448	1439	1434	1427	1426	1429	1427	1418	1415	1420	1427	1433	1442	1459	1466	1464	1446	1437	1430	1436	1442	1444	1440	1444	1447	1449	1433	1412	1394	1400	1396	1392	1391	1404	1419	1441	1448	1432	1417	1406	1403	1410	1419	1417	1412	1405	1413	1426	1435	1434	1427	1413	1415	1414	1422	1435	1448	1452	1444	1439	1431	1429	1413	1398	1392	1389	1395	1405	1407	1407	1422	1420	1401	1393	1385	1389	1395	1406	1409	1399	1389	1381	1376	1367	1360	1361	1366	1376	1381	1393	1401	1406	1402	1392	1390	1385	1383	1383	1385	1395	1406	1413	1408	1400	1388	1385	1381	1375	1366	1355	1341	1336	1336	0	0	0	0	0	0	0	0	0	0	0	0	0	0	0	0	947	991	1074	1145	1170	1177	1180	1177	1172	1153	1139	1128	1129	1104	1076	1064	1054	1044	1045	1044	1036	1014	994	982	977	985	1002	1012	1009	1009	1005	993	986	979	975	970	963	955	947	936	931	941	947	952	956	959	961	955	966	966	962	946	948	940	926	923	931	945	953	951	936	936	945	965	995	1067	1139	1188	1238	1274	1294	1298	1301	1301	1300	1326	1349	1347	1348	1341	1330	1327	1335	1344	1340	1338	1324	1318	1314	1311	1309	1300	1284	1283	1308	1327	1326	1314	1303	1302	1309	1308	1300	1307	1312	1308	1302	1298	1302	1314	1330	1333	1323	1305	1299	1293	1300	1303	1305	1308	1317	1326	1321	1311	1313	1314	1313	1307	1306	1308	1317	1326	1332	1311	1299	1293	1297	1294	1287	1291	1290	1287	1281	1273	1273	1283	1300	1317	1323	1314	1298	1294	1290	1301	1312	1318	1300	1275	1267	1276	1288	1306	1313	1313	1319	1314	1306	1308	1311	1302	1295	1289	1292	1294	1303	1311	1319	1324	1314	1294	1281	1285	1302	1302	1316	1305	1284	1282	1282	1289	1296	1294	1294	1297	1295	1295	1292	1282	1278	1269	1270	0	0	0	0	0	0
0	0	0	0	0	0	0	0	0	0	0	0	0	0	0	0	0	0	0	0	0	0	0	0	0	0	0	0	0	0	0	0	0	0	0	0	0	0	0	0	0	0	0	0	0	0	0	0	0	0	0	0	1502	1504	1506	1507	1516	1518	1505	1506	1515	1518	1517	1492	1492	1489	1490	1513	1540	0	1509	1504	1505	1513	1519	1507	1508	1498	1500	1502	1516	1519	1524	1532	1549	1540	1536	1529	1527	1521	1532	1539	1554	1539	1523	1525	1536	1534	1527	1509	1499	1499	1506	1517	1526	1535	1545	1545	1544	1531	1519	1534	1552	1555	1530	1530	1531	1527	1519	1523	1549	1546	1542	1526	1511	1495	1496	1501	1491	1486	1494	1494	1497	1461	1458	1475	1499	1501	1492	1485	1486	1496	1509	1520	1522	1515	1498	1482	1485	1492	1497	1501	1522	1540	1542	1544	1531	1519	1509	1512	1522	1526	1514	1497	1488	1483	1480	1477	1467	1458	1446	1397	1357	1274	1142	1091	1050	1014	996	977	961	943	932	925	927	941	957	974	984	995	989	987	984	985	995	1007	1010	1001	988	995	994	980	965	952	951	955	953	954	953	952	955	959	973	991	995	986	985	970	953	930	911	911	913	929	937	941	949	962	969	975	976	984	0	0	0	0	0	0	0	0	0	0	0	0	0	0	0	900	0	0	0	0	0	0	1318	1384	1425	1451	1476	1488	1479	1475	1476	1473	1458	1445	1447	1451	1456	1463	1452	1463	1459	1458	1460	1466	1476	1482	1466	1450	1430	1430	1438	1446	1444	1441	1435	1425	1417	1413	1419	1428	1445	1457	1463	1464	1458	1453	1452	1454	1462	1469	1478	1470	1457	1442	1435	1426	1432	1436	1433	1428	1425	1427	1429	1434	1434	1446	1459	1456	1449	1444	1437	1437	1434	1432	1434	1440	1447	1444	1436	1408	1405	1405	1410	1409	1411	1426	1445	1455	1450	1433	1418	1407	1406	1408	1420	1422	1417	1400	1401	1408	1415	1423	1422	1411	1406	1405	1413	1417	1413	1408	1407	1415	1423	1421	1408	1398	1400	1405	1412	1411	1410	1403	1405	1407	1405	1407	1410	1402	1409	1412	1408	1404	1393	1389	1381	1379	1371	1368	1370	1378	1378	1389	1397	1409	1414	1412	1400	1389	1379	1373	1371	1381	1382	1387	1389	1403	1403	1415	1421	1411	1395	1385	1382	1375	1354	1368	0	0	0	0	0	0	0	0	0	0	0	0	0	0	0	0	941	951	1042	1118	1154	1177	1189	1185	1161	1140	1125	1104	1086	1074	1063	1054	1049	1037	1035	1028	1006	988	976	978	984	1011	1009	1009	1010	1005	992	977	969	966	964	958	955	945	933	935	936	938	949	956	960	955	963	964	964	965	963	963	951	937	926	921	933	935	934	915	917	918	919	918	920	925	934	952	995	1054	1109	1167	1206	1276	1307	1343	1341	1334	1330	1330	1323	1326	1325	1323	1323	1326	1322	1319	1309	1309	1299	1288	1283	1300	1327	1323	1316	1308	1306	1305	1308	1301	1310	1318	1314	1310	1305	1301	1309	1317	1317	1311	1304	1293	1288	1294	1299	1303	1314	1331	1336	1331	1310	1303	1313	1319	1316	1298	1287	1289	1288	1298	1292	1288	1283	1290	1291	1287	1293	1292	1286	1279	1284	1291	1301	1307	1310	1311	1303	1301	1300	1303	1311	1314	1315	1302	1288	1282	1289	1297	1302	1301	1301	1301	1303	1303	1309	1307	1307	1305	1301	1298	1296	1295	1284	1272	1279	1280	1277	1276	1278	1278	1287	1295	1290	1283	1272	1273	1279	1291	1294	1303	1303	1303	1301	1300	1296	1288	1279	1271	0	0	0	0	0	0
0	0	0	0	0	0	0	0	0	0	0	0	0	0	0	0	0	0	0	0	0	0	0	0	0	0	0	0	0	0	0	0	0	0	0	0	0	0	0	0	0	0	0	0	0	0	0	0	0	0	0	0	0	0	0	0	1517	1516	1506	1507	1529	0	0	0	0	0	0	0	0	0	0	0	0	1526	1521	1517	1505	1496	1494	1498	1507	1510	1516	1530	1536	1545	1552	0	1530	1515	1520	1530	1528	1518	1487	1479	1496	1519	1520	1501	1488	1479	1489	1501	1513	1524	1526	1535	1533	1527	1522	1532	1546	1559	1561	1555	1548	1535	1523	1526	1535	1523	1516	1511	1507	1513	1510	1501	1492	1487	1485	1487	1485	1450	1451	1476	1508	1520	1513	1514	1535	1525	1530	1532	1533	1525	1510	1493	1486	1490	1493	1505	1511	1530	1525	1524	1524	1518	1513	1509	1526	1520	1496	1473	1458	1460	1461	1441	1414	1389	1312	1213	1109	1040	987	968	945	933	924	927	923	917	911	913	917	930	940	960	976	982	980	977	967	976	988	1000	994	983	971	972	988	981	961	950	942	944	945	944	943	941	939	941	947	956	957	957	955	942	925	914	907	903	907	912	926	937	945	954	966	970	985	0	0	0	0	0	0	0	0	0	0	0	0	0	0	0	0	0	0	0	0	0	0	1292	1373	1407	1427	1452	1477	1489	1482	1476	1472	1462	1447	1435	1441	1452	1460	1464	1471	1462	1460	1453	1447	1453	1455	1467	1455	1443	1436	1430	1435	1441	1435	1421	1428	1421	1413	1414	1414	1432	1449	1456	1455	1452	1450	1450	1446	1456	1462	1469	1470	1467	1456	1445	1438	1441	1442	1443	1439	1436	1432	1434	1435	1431	1426	1434	1444	1449	1445	1444	1440	1434	1429	1425	1428	1430	1436	1440	1432	1418	1420	1418	1419	1412	1416	1432	1449	1453	1444	1434	1422	1411	1411	1417	1425	1429	1420	1403	1396	1394	1403	1411	1416	1411	1401	1409	1409	1408	1410	1400	1398	1403	1410	1407	1401	1393	1402	1410	1422	1425	1415	1398	1389	1387	1397	1418	1415	1418	1410	1406	1405	1399	1393	1389	1390	1389	1381	1374	1369	1369	1373	1382	1396	1422	1436	1428	1412	1394	1383	1376	1373	1382	1381	1384	1386	1399	1409	1419	1424	1417	1398	1396	1401	1404	1380	1367	1354	0	0	0	0	0	0	0	0	0	0	0	0	0	0	0	0	916	916	1025	1101	1149	1189	1188	1170	1139	1119	1094	1075	1065	1053	1042	1035	1031	1027	1012	995	979	974	978	989	1000	1000	996	995	995	985	967	956	955	954	947	943	936	930	922	920	920	905	910	907	921	936	944	943	947	952	954	955	936	921	911	909	915	896	897	899	901	906	903	903	903	904	912	940	986	1040	1096	1154	1204	1253	1328	1330	1327	1340	1342	1337	1324	1311	1304	1316	1323	1324	1324	1319	1312	1309	1302	1297	1301	1318	1320	1320	1308	1305	1298	1294	1301	1309	1320	1323	1321	1313	1313	1310	1304	1303	1308	1303	1297	1298	1302	1302	1308	1326	1338	1339	1335	1315	1306	1312	1324	1311	1294	1271	1258	1264	1281	1283	1278	1274	1284	1292	1300	1300	1294	1289	1278	1283	1299	1303	1307	1302	1295	1292	1298	1302	1304	1311	1312	1312	1309	1298	1295	1311	1313	1313	1313	1299	1295	1289	1289	1294	1312	1314	1310	1314	1302	1289	1275	1259	1250	1254	1263	1265	1271	1272	1272	1283	1291	1286	1282	1274	1270	1276	1288	1301	1310	1310	1310	1301	1307	1304	1290	1273	1264	0	0	0	0	0	0
0	0	0	0	0	0	0	0	0	0	0	0	0	0	0	0	0	0	0	0	0	0	0	0	0	0	0	0	0	0	0	0	0	0	0	0	0	0	0	0	0	0	0	0	0	0	0	0	0	0	0	0	0	1521	1514	1514	1516	1509	1508	1517	1517	0	0	0	0	0	0	0	0	0	0	0	0	1529	1527	1520	1523	1510	1500	1497	1506	1509	1523	1528	1541	1541	0	0	0	1501	1505	1502	1508	1496	1474	0	0	0	0	1495	1480	1471	1471	1485	1507	1506	1503	1508	0	0	1520	1524	1527	1539	1551	1551	1539	1520	1506	1497	1510	1498	1492	1500	1509	1521	1516	1501	1488	1485	1493	1503	1483	1455	1469	1493	1511	1523	1519	0	0	1540	1538	1537	1538	1529	1513	1505	1519	1517	1503	1509	1519	1511	1502	1495	1503	1506	1507	1515	1523	1516	1483	1452	1439	1423	1410	1378	1316	1271	1130	1049	981	933	908	899	885	880	892	899	901	898	890	889	896	918	927	948	962	969	964	956	942	951	964	975	976	966	952	960	970	968	950	930	931	926	923	922	922	920	919	921	926	930	931	933	934	935	918	913	911	911	905	908	912	920	930	941	951	965	0	0	0	0	0	0	0	0	0	0	0	0	0	0	0	0	901	0	0	0	0	0	1276	1371	1418	1422	1435	1448	1470	1466	1456	1464	1460	1448	1427	1419	1427	1437	1455	1460	1466	1463	1457	1451	1450	1447	1452	1452	1455	1452	1445	1441	1442	1441	1428	1422	1429	1425	1419	1415	1420	1432	1446	1445	1438	1435	1434	1435	1439	1455	1468	1466	1459	1446	1445	1443	1446	1449	1454	1451	1446	1442	1439	1441	1435	1432	1422	1429	1436	1435	1440	1439	1445	1434	1435	1429	1423	1425	1432	1432	1433	1430	1430	1428	1421	1411	1413	1422	1435	1440	1443	1435	1423	1419	1421	1424	1428	1428	1425	1411	1398	1386	1391	1399	1404	1410	1404	1400	1398	1403	1412	1407	1398	1399	1397	1391	1387	1393	1401	1416	1434	1433	1418	1401	1388	1384	1396	1416	1423	1418	1412	1406	1402	1391	1383	1382	1385	1389	1383	1375	1367	1363	1370	1375	1402	1432	1439	1432	1414	1394	1388	1383	1385	1388	1394	1398	1398	1402	1411	1418	1427	1418	1397	1389	1392	1383	1389	1382	1392	0	0	0	0	0	0	0	0	0	0	0	0	0	0	0	0	0	0	894	1006	1090	1162	1165	1148	1132	1105	1084	1060	1044	1034	1026	1015	1010	1007	992	976	968	970	975	988	986	978	965	959	962	955	949	944	945	942	937	935	928	916	893	876	873	884	889	888	891	912	915	915	910	924	938	945	924	913	901	894	888	886	886	885	882	886	888	886	880	878	872	874	891	930	986	1034	1117	1189	1273	1263	1318	1348	1371	1340	1318	1303	1309	1317	1320	1320	1321	1322	1319	1321	1311	1303	1309	1318	1319	1321	1310	1306	1297	1294	1298	1307	1317	1325	1329	1328	1325	1311	1304	1296	1309	1318	1316	1308	1309	1311	1318	1337	1339	1344	1335	1319	1310	1317	1314	1316	1300	1276	1266	1271	1277	1279	1275	1272	1272	1285	1301	1301	1295	1293	1290	1293	1297	1292	1289	1294	1287	1277	1282	1286	1293	1305	1307	1310	1315	1305	1309	1318	1322	1318	1318	1309	1300	1291	1287	1290	1300	1309	1307	1307	1298	1281	1256	1242	1237	1241	1256	1269	1278	1278	1286	1287	1288	1293	1287	1280	1272	1277	1293	1310	1314	1310	1310	1300	1298	1295	1283	1262	1250	0	0	0	0	0	0
0	0	0	0	0	0	0	0	0	0	0	0	0	0	0	0	0	0	0	0	0	0	0	0	0	0	0	0	0	0	0	0	0	0	0	0	0	0	0	0	0	0	0	0	0	0	1450	1452	1462	0	0	0	1530	1523	1507	1508	1501	1499	1500	1503	1518	1528	1538	1549	1540	0	1535	0	0	0	0	1538	1538	1521	1523	1523	1524	1513	1502	1501	1507	1524	1536	1541	1542	1533	0	0	1501	1499	1490	1487	1484	1477	1477	0	0	0	0	1477	1485	1471	0	0	0	0	0	0	0	0	0	1517	1518	0	0	0	0	0	0	0	0	0	0	1506	1522	1534	1522	1500	1500	0	0	0	0	0	0	0	0	0	0	0	0	0	0	0	1506	1512	1513	1517	0	0	0	0	0	1483	1470	1463	1467	1476	1484	1490	1487	1473	1444	1389	1335	1309	1284	1266	1193	1103	992	955	905	877	863	856	854	858	869	887	888	883	874	872	882	895	922	935	947	944	938	923	922	926	946	947	947	945	940	943	945	940	933	910	898	893	885	901	904	903	909	911	916	920	919	920	928	931	919	922	928	922	914	898	895	896	902	918	937	953	0	0	0	0	0	0	0	0	0	0	0	0	0	0	0	890	896	924	963	0	0	1261	1358	1438	1445	1444	1445	1446	1464	1456	1440	1435	1438	1433	1418	1414	1418	1429	1436	1454	1455	1456	1454	1452	1452	1454	1450	1453	1453	1451	1449	1447	1447	1456	1442	1435	1437	1431	1424	1424	1427	1434	1442	1432	1420	1416	1419	1424	1431	1439	1456	1455	1447	1443	1449	1455	1459	1468	1473	1469	1459	1455	1453	1445	1441	1430	1426	1425	1422	1419	1421	1428	1441	1445	1441	1434	1426	1426	1427	1436	1436	1432	1428	1421	1415	1406	1408	1416	1430	1442	1444	1441	1436	1432	1428	1423	1421	1422	1419	1417	1406	1383	1377	1383	1392	1401	1405	1401	1408	1411	1406	1412	1407	1404	1399	1395	1389	1394	1404	1413	1417	1423	1414	1399	1401	1410	1408	1408	1407	1404	1408	1404	1396	1382	1374	1374	1378	1380	1380	1380	1369	1365	1368	1379	1398	1419	1431	1421	1410	1399	1394	1393	1395	1397	1406	1402	1393	1379	1379	1388	1399	1405	1388	1370	1373	1364	1365	1376	1399	1392	0	0	0	0	0	0	0	0	0	0	0	0	0	0	0	0	0	0	863	1100	1127	1122	1116	1081	1079	1065	1035	1021	1013	1004	991	985	974	963	953	953	958	969	979	961	943	928	919	919	925	925	926	927	929	926	924	893	890	885	879	873	871	881	881	892	894	892	885	885	902	917	922	915	902	894	888	881	878	876	872	871	864	857	857	857	848	834	829	836	858	883	938	1027	1119	1101	1175	1235	1314	1382	1366	1319	1311	1300	1319	1324	1321	1320	1322	1324	1320	1311	1304	1309	1308	1313	1323	1327	1320	1303	1298	1301	1307	1317	1327	1335	1333	1332	1319	1307	1301	1308	1317	1317	1309	1309	1305	1310	1326	1327	1333	1329	1319	1313	1315	1318	1320	1308	1292	1286	1286	1287	1286	1280	1274	1269	1273	1295	1305	1312	1305	1304	1301	1286	1284	1286	1288	1288	1283	1277	1279	1284	1295	1311	1306	1313	1308	1305	1312	1315	1315	1321	1319	1307	1296	1288	1296	1305	1311	1310	1301	1290	1270	1250	1236	1233	1242	1257	1269	1280	1280	1290	1291	1291	1290	1289	1276	1265	1276	1290	1303	1312	1312	1300	1297	1287	1285	1272	1255	1245	0	0	0	0	0	0
0	0	0	0	0	0	0	0	0	0	0	0	0	0	0	0	0	0	0	0	0	0	0	0	0	0	0	0	0	0	0	0	0	0	0	0	0	0	0	0	0	0	0	0	0	0	1451	1443	1455	1482	1506	1506	1521	1515	1499	1490	1490	1498	1498	1499	1503	1505	1519	1518	1528	0	0	0	0	1540	1542	1533	1527	1524	1517	1525	1527	1517	1507	1514	1525	1544	1556	1542	1546	1528	1511	1498	1493	1494	1504	1495	1493	1480	1479	1485	1481	1480	1475	1474	1475	1483	0	0	0	0	1495	0	0	0	0	1524	1524	0	0	0	0	0	0	0	0	0	0	1514	1529	1541	1532	1512	1501	0	0	0	0	0	0	0	0	0	0	0	0	0	0	0	0	0	0	0	0	0	0	0	0	0	1461	1450	1447	1453	1455	1438	1417	0	0	1265	1192	1140	1084	1034	978	943	906	884	862	845	843	838	843	845	856	864	873	869	865	872	879	894	922	929	928	921	907	900	904	908	914	929	928	924	930	929	923	918	880	867	862	866	867	872	886	902	908	915	914	912	912	914	920	921	914	922	934	934	921	899	883	883	885	899	910	923	0	0	0	0	0	0	0	0	0	0	0	0	0	0	0	893	907	937	990	1063	1250	1334	1393	1438	1464	1472	1464	1459	1455	1456	1442	1433	1437	1435	1422	1414	1421	1424	1432	1444	1457	1457	1456	1449	1448	1447	1446	1448	1445	1445	1441	1439	1455	1468	1486	1470	1451	1442	1435	1435	1435	1437	1439	1426	1410	1401	1402	1409	1424	1432	1452	1451	1448	1445	1448	1466	1473	1475	1480	1480	1481	1467	1458	1452	1443	1437	1430	1421	1415	1406	1410	1418	1442	1450	1447	1439	1426	1425	1434	1442	1443	1431	1422	1412	1409	1403	1408	1416	1424	1436	1439	1447	1441	1434	1433	1425	1417	1414	1412	1413	1403	1382	1370	1373	1379	1390	1403	1401	1408	1413	1416	1411	1415	1410	1407	1404	1401	1401	1403	1405	1402	1403	1404	1409	1428	1440	1422	1407	1399	1388	1385	1396	1390	1382	1373	1369	1369	1378	1382	1384	1382	1373	1376	1379	1396	1407	1418	1414	1407	1397	1395	1400	1405	1404	1400	1391	1374	1369	1368	1366	1376	1370	1375	1374	1371	1362	1362	1372	1385	1391	1364	0	0	0	0	0	0	0	0	0	0	0	0	0	0	0	0	0	0	997	1089	1076	1068	1052	1041	1025	1006	998	990	980	971	956	943	934	930	933	944	956	953	932	916	901	894	890	899	906	912	914	894	890	880	878	871	874	879	865	869	873	881	882	876	871	870	869	875	896	896	892	885	881	879	875	866	862	858	853	842	834	828	829	823	819	810	810	820	840	873	912	956	998	1064	1121	1187	1286	1348	1353	1317	1308	1310	1318	1317	1322	1326	1329	1319	1300	1297	1307	1300	1309	1322	1336	1329	1321	1313	1304	1311	1317	1320	1321	1324	1327	1314	1300	1301	1306	1317	1315	1303	1299	1303	1311	1303	1305	1321	1333	1324	1307	1302	1311	1323	1316	1305	1297	1297	1297	1292	1291	1286	1280	1284	1288	1309	1322	1319	1324	1304	1291	1285	1294	1297	1295	1291	1284	1274	1272	1292	1305	1307	1304	1300	1298	1309	1314	1314	1316	1312	1309	1302	1296	1303	1313	1314	1306	1300	1284	1268	1252	1245	1243	1257	1258	1268	1282	1282	1292	1292	1293	1291	1282	1278	1267	1265	1278	1288	1295	1295	1289	1289	1279	1276	1267	1254	1249	0	0	0	0	0	0
0	0	0	0	0	0	0	0	0	0	0	0	0	0	0	0	0	0	0	0	0	0	0	0	0	0	0	0	0	0	0	0	0	0	0	0	0	0	0	0	0	0	0	0	0	0	0	0	0	0	0	0	0	0	0	0	0	0	0	1486	1489	1507	1519	1520	0	0	0	0	0	0	0	0	1516	1509	1511	1512	1516	1517	1516	1517	1535	1555	1565	1551	1534	1517	1501	1494	1499	1510	1511	1514	1505	1495	1491	1494	1491	1480	1477	1477	1478	1488	1498	1515	1537	1523	1501	1492	1496	1513	1531	1537	1542	1536	1531	1534	1547	1528	1513	1517	1517	1511	1521	1525	1547	1559	1548	1525	1496	1489	1511	0	0	1527	1494	1471	1462	1456	0	0	0	1490	1487	1488	1504	1503	1505	1493	1488	1500	1499	1507	0	0	1478	1460	1446	1443	1415	1377	1330	1270	0	1126	1066	1020	977	942	912	884	859	850	842	838	838	838	830	830	838	848	856	855	860	871	889	908	923	915	904	894	887	878	879	881	886	896	903	906	910	906	899	893	869	855	847	846	852	869	873	884	886	904	901	898	897	899	902	898	900	924	944	952	934	909	893	883	882	881	886	890	0	0	0	0	0	0	0	0	0	0	0	0	0	0	0	906	929	973	1044	1187	1290	1352	1400	1437	1457	1459	1463	1460	1461	1473	1473	1447	1436	1437	1446	1444	1449	1443	1434	1449	1465	1458	1452	1451	1443	1443	1436	1434	1429	1431	1432	1438	1454	1471	1493	1482	1462	1443	1443	1442	1441	1453	1456	1432	1412	1399	1390	1403	1414	1425	1437	1449	1450	1450	1455	1466	1478	1477	1477	1478	1481	1469	1457	1448	1440	1435	1425	1416	1410	1400	1399	1410	1440	1452	1451	1432	1421	1425	1437	1441	1436	1427	1419	1413	1411	1408	1412	1414	1419	1428	1434	1438	1442	1436	1429	1421	1414	1403	1401	1401	1401	1382	1373	1371	1376	1393	1401	1416	1412	1421	1423	1429	1417	1415	1418	1416	1412	1409	1406	1399	1392	1388	1398	1414	1427	1437	1426	1413	1396	1379	1371	1382	1388	1385	1379	1372	1373	1376	1389	1391	1388	1382	1381	1382	1388	1399	1406	1404	1397	1393	1394	1395	1403	1402	1396	1384	1375	1366	1371	1370	1369	1366	1372	1372	1365	1364	1359	1367	1371	1374	1378	0	0	0	0	0	0	0	0	0	0	0	0	0	0	0	0	0	0	861	940	1009	1010	1018	1007	996	983	968	969	966	956	940	925	916	912	913	921	931	932	917	903	891	878	874	879	884	868	870	873	874	868	858	854	858	867	861	854	858	863	853	849	853	862	869	867	868	866	865	863	870	870	863	856	849	842	834	825	820	817	819	821	814	812	808	809	815	833	856	880	890	950	990	1049	1125	1194	1242	1260	1275	1294	1300	1307	1327	1328	1325	1313	1294	1301	1303	1297	1306	1320	1335	1335	1329	1326	1324	1313	1314	1310	1307	1307	1312	1305	1294	1293	1299	1305	1310	1302	1301	1300	1301	1292	1298	1318	1328	1318	1306	1300	1302	1313	1318	1315	1309	1305	1302	1302	1307	1303	1297	1295	1296	1310	1323	1321	1324	1304	1303	1303	1309	1313	1317	1306	1291	1277	1265	1273	1286	1289	1292	1300	1296	1303	1303	1308	1306	1306	1305	1304	1312	1311	1316	1312	1304	1300	1291	1281	1281	1275	1270	1265	1265	1268	1268	1282	1287	1291	1296	1297	1288	1282	1265	1261	1266	1276	1278	1278	1274	1270	1267	1269	1263	1259	1256	0	0	0	0	0	0
0	0	0	0	0	0	0	0	0	0	0	0	0	0	0	0	0	0	0	0	0	0	0	0	0	0	0	0	0	0	0	0	0	0	0	0	0	0	0	0	0	0	0	0	0	0	0	0	0	0	0	0	0	0	0	0	0	0	0	0	0	0	0	0	0	0	0	0	0	0	0	0	0	0	0	0	0	0	0	0	0	0	0	0	0	0	0	1502	1515	1535	1546	1526	1507	1501	1498	1510	1507	1481	1473	1476	1488	1492	1500	1518	1537	1525	1514	1495	1496	1516	1533	1549	1548	1544	1547	1558	1573	1567	1543	1530	1525	1523	1527	1539	1560	1569	1551	1513	1487	1476	1493	1520	1538	1522	1500	1481	1468	1462	1468	1464	1458	1460	1477	1493	1506	1503	1495	1486	1483	1481	1478	1475	1481	1479	1486	1452	1406	1332	1249	1202	1141	1088	1040	989	950	929	908	889	869	846	837	839	833	830	835	835	832	831	833	841	851	855	865	874	895	913	916	900	878	863	856	858	859	867	867	881	891	894	894	892	890	887	865	852	840	843	851	867	869	873	879	885	893	895	886	891	890	891	896	947	971	965	949	920	897	875	867	858	0	0	0	0	0	0	0	0	0	0	0	0	0	0	0	0	0	0	963	1024	1137	1254	1323	1380	1414	1406	1408	1431	1446	1464	1496	1502	1498	1490	1458	1457	1458	1463	1462	1463	1466	1476	1463	1459	1457	1444	1429	1437	1437	1427	1421	1417	1425	1438	1450	1471	1475	1466	1450	1442	1439	1436	1444	1447	1456	1445	1411	1399	1393	1396	1405	1418	1432	1461	1473	1464	1461	1469	1470	1459	1467	1467	1464	1454	1442	1429	1428	1427	1426	1422	1425	1405	1400	1418	1437	1449	1444	1430	1419	1416	1432	1435	1435	1429	1425	1425	1432	1423	1415	1414	1410	1412	1414	1416	1429	1429	1427	1418	1409	1396	1392	1388	1394	1393	1384	1381	1383	1395	1412	1424	1433	1436	1435	1434	1426	1418	1415	1417	1424	1415	1408	1401	1392	1393	1400	1412	1424	1422	1422	1415	1396	1376	1372	1373	1387	1391	1387	1382	1379	1384	1395	1394	1389	1385	1384	1384	1389	1390	1393	1393	1388	1387	1392	1391	1404	1401	1395	1381	1385	1381	1377	1373	1366	1358	1363	1364	1367	1366	1356	1366	1368	1373	1375	1393	0	0	0	0	0	0	0	0	0	0	0	0	0	0	0	0	0	0	0	905	965	988	994	982	967	962	959	962	952	939	921	911	903	902	900	900	906	904	895	884	869	860	840	841	847	849	859	865	860	850	839	838	844	840	834	825	819	817	820	833	845	857	861	859	855	849	850	854	864	859	849	840	829	827	822	819	819	823	825	824	822	815	814	811	821	837	847	846	854	871	948	1042	1123	1185	1206	1242	1260	1285	1304	1314	1322	1318	1302	1286	1307	1302	1297	1306	1316	1323	1323	1327	1331	1333	1329	1320	1312	1299	1294	1288	1277	1281	1288	1298	1306	1313	1310	1307	1303	1296	1292	1304	1322	1334	1324	1308	1301	1301	1307	1313	1313	1317	1310	1312	1319	1323	1326	1320	1309	1300	1302	1312	1315	1312	1307	1308	1317	1332	1334	1328	1319	1299	1275	1262	1265	1277	1284	1291	1293	1294	1294	1303	1311	1310	1308	1313	1318	1318	1314	1307	1305	1303	1295	1292	1288	1288	1284	1279	1277	1274	1280	1280	1286	1290	1291	1294	1299	1290	1285	1267	1260	1261	1272	1272	1271	1264	1255	1258	1263	1262	1269	1270	0	0	0	0	0	0
0	0	0	0	0	0	0	0	0	0	0	0	0	0	0	0	0	0	0	0	0	0	0	0	0	0	0	0	0	0	0	0	0	0	0	0	0	0	0	0	0	0	0	0	0	0	0	0	0	0	0	0	0	0	0	0	0	0	0	0	0	0	0	0	0	0	0	0	0	0	0	0	0	0	0	0	0	0	0	0	0	0	0	0	0	0	0	0	0	0	0	0	0	0	0	0	0	0	0	0	0	0	0	0	0	0	0	0	0	0	1530	1540	1538	1543	1556	1574	1600	1592	1562	1538	1522	1523	1534	1548	1565	1566	1549	1502	1476	1466	1481	1501	1523	1520	1502	1486	1486	1482	1479	1463	1458	1464	1479	1486	1496	1498	1493	1492	1487	1484	1477	1466	1457	1443	1342	1283	1214	1157	1111	1046	993	943	916	893	880	873	864	852	837	819	816	827	826	826	827	837	836	842	850	861	865	869	876	881	894	906	908	877	858	834	843	848	858	864	867	879	884	885	885	884	886	889	867	849	845	847	860	871	874	879	891	908	916	912	908	917	902	909	926	984	993	975	942	907	882	858	843	0	0	0	0	0	0	0	0	0	0	0	0	0	0	0	0	0	0	0	1006	1103	1227	1299	1356	1398	1420	1411	1402	1410	1435	1469	1503	1511	1509	1492	1476	1458	1463	1475	1471	1462	1464	1477	1484	1488	1465	1419	1407	1423	1447	1445	1422	1405	1401	1417	1423	1436	1431	1424	1418	1427	1428	1420	1422	1429	1431	1426	1423	1423	1422	1420	1419	1420	1442	1460	1467	1462	1455	1448	1438	1435	1433	1447	1443	1422	1411	1410	1418	1418	1415	1428	1427	1416	1405	1415	1436	1440	1431	1422	1419	1419	1421	1429	1430	1446	1442	1447	1439	1434	1421	1408	1398	1391	1396	1400	1415	1423	1423	1416	1401	1389	1383	1390	1395	1396	1393	1387	1393	1404	1427	1434	1439	1429	1435	1437	1433	1425	1414	1414	1423	1417	1411	1410	1404	1395	1399	1405	1412	1404	1404	1399	1392	1374	1370	1369	1383	1389	1390	1385	1381	1386	1391	1392	1382	1378	1378	1382	1381	1379	1381	1386	1390	1391	1395	1401	1403	1406	1399	1391	1384	1376	1380	1372	1368	1361	1362	1371	1368	1369	1373	1375	1375	1374	1376	1378	1421	0	0	0	0	0	0	0	0	0	0	0	0	0	0	0	0	0	0	0	905	932	942	967	962	954	955	961	956	947	930	914	908	892	888	874	878	882	883	866	858	845	832	826	828	834	846	858	858	850	834	827	821	822	818	808	793	795	798	810	818	832	845	854	852	850	843	846	852	847	840	832	825	826	825	827	825	827	834	841	839	834	823	820	820	827	828	827	831	840	853	889	936	982	1032	1125	1219	1265	1293	1299	1298	1301	1292	1305	1313	1306	1299	1306	1313	1311	1306	1312	1324	1341	1340	1331	1320	1304	1292	1277	1271	1266	1279	1298	1311	1312	1313	1305	1301	1298	1302	1322	1335	1343	1337	1320	1309	1307	1310	1316	1318	1319	1326	1329	1339	1347	1343	1330	1314	1300	1291	1294	1293	1291	1297	1315	1330	1346	1349	1343	1329	1305	1271	1256	1257	1270	1283	1288	1292	1296	1296	1301	1305	1304	1309	1318	1333	1328	1316	1300	1294	1300	1307	1303	1291	1284	1284	1285	1287	1285	1288	1288	1288	1291	1293	1289	1285	1289	1280	1272	1261	1268	1269	1269	1268	1264	1253	1253	1254	1265	1269	1279	0	0	0	0	0	0
0	0	0	0	0	0	0	0	0	0	0	0	0	0	0	0	0	0	0	0	0	0	0	0	0	0	0	0	0	0	0	0	0	0	0	0	0	0	0	0	0	0	0	0	0	0	0	0	0	0	0	0	0	0	0	0	0	0	0	0	0	0	0	0	0	0	0	0	0	0	0	0	0	0	0	0	0	0	0	0	0	0	0	0	0	0	0	0	0	0	0	0	0	0	0	0	0	0	0	0	0	0	0	0	0	0	0	0	0	0	0	0	0	0	0	0	0	0	0	0	0	0	0	0	0	0	0	1509	1479	1466	1475	1486	1509	0	0	0	1507	1506	1497	1481	1464	1473	1484	1491	1491	1498	1494	1497	1498	1488	1467	1450	1407	1347	1201	1124	1065	1026	959	926	898	874	860	846	844	844	838	835	823	812	811	824	830	828	829	834	849	863	877	888	891	881	878	874	879	886	890	863	847	832	847	860	870	878	886	890	894	897	889	884	884	886	881	849	842	846	869	893	894	899	915	930	945	940	934	936	952	969	967	986	985	953	912	859	847	828	0	0	0	0	0	0	0	0	0	0	0	0	0	0	0	0	0	0	0	1001	1109	1236	1384	1407	1434	1431	1426	1425	1440	1457	1471	1479	1481	1493	1492	1482	1469	1478	1495	1496	1496	1485	1479	1490	1501	1497	1473	1441	1432	1432	1451	1453	1430	1415	1419	1426	1436	1437	1430	1425	1426	1426	1429	1423	1430	1431	1431	1427	1435	1436	1450	1447	1440	1434	1437	1428	1427	1419	1423	1427	1433	1441	1437	1437	1420	1412	1409	1414	1426	1425	1416	1422	1435	1435	1432	1432	1445	1447	1443	1431	1420	1409	1399	1408	1420	1424	1417	1399	1398	1393	1384	1363	1363	1371	1383	1403	1415	1421	1416	1400	1378	1364	1362	1367	1377	1386	1377	1377	1396	1410	1414	1420	1432	1435	1439	1451	1453	1443	1423	1413	1409	1410	1409	1410	1406	1399	1402	1403	1398	1393	1390	1383	1373	1371	1369	1373	1386	1390	1395	1384	1379	1381	1382	1384	1376	1370	1370	1376	1377	1374	1376	1387	1391	1386	1385	1396	1399	1405	1402	1390	1374	1369	1369	1370	1367	1368	1368	1366	1368	1369	1374	1378	1381	1375	1375	1370	1380	0	0	0	0	0	0	0	0	0	0	0	0	0	0	0	0	0	0	0	0	879	852	893	950	943	943	948	943	940	927	916	899	879	873	864	869	873	870	858	851	841	829	823	817	825	836	845	850	844	834	822	812	815	808	791	778	776	779	788	797	804	823	836	843	843	840	837	841	835	829	819	815	821	825	830	828	824	832	839	845	839	831	819	817	821	816	815	818	825	839	863	888	916	942	1045	1185	1233	1269	1272	1265	1270	1287	1312	1320	1315	1307	1309	1312	1304	1294	1299	1318	1335	1348	1340	1321	1304	1284	1279	1271	1283	1283	1307	1317	1317	1310	1297	1294	1297	1326	1336	1342	1340	1338	1331	1318	1314	1318	1318	1318	1317	1328	1335	1342	1350	1341	1328	1311	1295	1284	1272	1270	1278	1290	1311	1337	1353	1359	1348	1334	1308	1270	1255	1254	1269	1286	1298	1297	1297	1294	1294	1298	1298	1302	1314	1330	1328	1306	1288	1292	1307	1319	1310	1296	1289	1288	1290	1290	1292	1292	1293	1298	1299	1298	1283	1276	1282	1272	1271	1271	1275	1276	1276	1273	1268	1265	1262	1263	1265	1271	1275	0	0	0	0	0	0
0	0	0	0	0	0	0	0	0	0	0	0	0	0	0	0	0	0	0	0	0	0	0	0	0	0	0	0	0	0	0	0	0	0	0	0	0	0	0	0	0	0	0	0	0	0	0	0	0	0	0	0	0	0	0	0	0	0	0	0	0	0	0	0	0	0	0	0	0	0	0	0	0	0	0	0	0	0	0	0	0	0	0	0	0	0	0	0	0	0	0	0	0	0	0	0	0	0	0	0	0	0	0	0	0	0	0	0	0	0	0	0	0	0	0	0	0	0	0	0	0	0	0	0	0	0	0	0	0	0	0	0	0	0	0	0	0	0	0	0	0	0	0	0	0	0	0	0	0	0	0	0	1112	1150	1059	1016	974	912	863	849	843	845	833	827	823	829	832	827	820	815	813	829	838	839	840	842	853	875	896	905	893	878	866	855	852	861	869	859	853	861	874	878	885	889	899	905	909	900	887	876	881	881	880	849	841	846	878	912	925	919	927	939	953	953	949	944	951	957	958	942	881	898	854	825	818	806	0	0	0	0	0	0	0	0	0	0	0	0	0	0	0	0	0	0	1029	1136	1308	1425	1448	1459	1462	1449	1433	1429	1445	1462	1475	1478	1475	1476	1481	1474	1468	1453	1481	1500	1493	1483	1472	1483	1492	1486	1455	1445	1448	1451	1452	1448	1451	1456	1460	1459	1458	1444	1436	1432	1434	1438	1438	1436	1435	1435	1434	1436	1445	1453	1469	1465	1463	1453	1438	1426	1416	1408	1409	1428	1436	1449	1451	1451	1431	1423	1421	1431	1435	1426	1428	1427	1441	1441	1442	1438	1441	1448	1443	1424	1409	1402	1403	1410	1427	1424	1407	1384	1386	1382	1372	1364	1368	1378	1399	1417	1442	1447	1424	1387	1358	1338	1345	1362	1374	1386	1398	1404	1404	1417	1405	1407	1412	1421	1442	1458	1470	1459	1432	1401	1382	1373	1379	1387	1384	1383	1370	1377	1374	1369	1365	1367	1379	1384	1384	1389	1403	1408	1399	1381	1376	1380	1377	1376	1369	1366	1370	1377	1379	1376	1374	1381	1386	1387	1398	1398	1401	1406	1402	1383	1362	1358	1354	1358	1356	1361	1367	1364	1364	1360	1367	1377	1378	1374	1369	1373	1366	1349	0	0	0	0	0	0	0	0	0	0	0	0	0	0	0	0	0	0	0	0	0	797	859	916	919	911	911	917	913	894	881	870	871	881	882	873	867	858	850	843	833	821	808	805	811	827	833	834	826	816	810	808	799	784	775	774	774	775	786	794	803	818	825	828	827	826	823	819	810	803	797	805	815	819	815	808	806	815	827	826	825	815	810	803	800	799	807	819	827	842	853	856	864	869	906	960	1154	1239	1239	1249	1271	1306	1313	1315	1312	1309	1303	1295	1288	1292	1306	1324	1338	1326	1310	1292	1276	1264	1274	1283	1297	1309	1325	1316	1309	1291	1285	1294	1309	1335	1336	1339	1334	1330	1321	1318	1321	1321	1312	1311	1313	1321	1328	1325	1320	1316	1303	1290	1276	1263	1264	1275	1289	1305	1321	1339	1351	1346	1336	1315	1283	1265	1264	1285	1300	1308	1308	1299	1294	1293	1293	1290	1298	1306	1302	1293	1288	1284	1286	1305	1316	1308	1291	1287	1290	1294	1300	1301	1301	1300	1304	1305	1300	1281	1271	1276	1274	1277	1283	1286	1286	1288	1286	1280	1279	1275	1278	1280	1273	1274	1274	0	0	0	0	0
