0	0	1380	1368	1368	1363	1365	1387	1393	1400	1400	1395	1392	1387	1382	1383	1388	1388	1404	1410	1409	1411	1415	1413	1413	1417	1418	1408	1389	1387	1398	1415	1415	1432	1438	1434	1425	1419	1430	1428	1413	1401	1401	1406	1428	1441	1449	1450	1452	1435	1440	1456	1462	1463	1460	1460	1455	1440	1439	1441	1445	1447	1454	1444	1442	1441	1442	1447	1448	1456	1457	1453	1451	1455	1456	1462	1461	1463	1470	1472	1470	1474	1475	1467	1455	1451	1439	1429	1425	1420	1415	1411	1406	1410	1419	1430	1434	1422	1413	1418	1425	1432	1435	1424	1415	1412	1409	1405	1411	1417	1417	1417	1411	1423	1424	1421	1426	1433	1431	1426	1416	1413	1416	1420	1419	1415	1412	1418	1428	1433	1422	1418	1427	1433	1416	0	0	0	0	0	0	0	0	0	0	0	0	0	0	0	0	0	0	0	0	0	0	0	0	0	0	0	0	0	1662	1672	1670	1667	1654	1647	1653	1640	0	0	0	0	0	0	0	0	0	0	1405	1417	1414	1421	1430	1437	1443	1448	1443	1434	1424	1418	1422	1436	1444	1443	1440	1435	1434	1437	1438	1445	1446	1436	1419	1410	1411	1425	1432	1436	1436	1447	1448	1447	1451	1447	1443	1445	1436	1436	1439	1448	1456	1463	1445	1435	1431	1435	1443	1445	1444	1449	1455	1460	1465	1462	1459	1444	1435	1442	1441	1447	1461	1471	1473	1457	1448	1437	1429	1422	1422	1424	1424	1414	1417	1416	1421	1420	1412	1409	1419	1428	1436	1439	1433	1440	1437	1428	1426	1424	1435	1440	1448	1442	1430	1429	1438	1444	1451	1458	1461	1463	1462	1455	1441	1433	1434	1433	1431	1435	1436	1431	1428	1427	1433	1434	1448	1453	1451	1447	1448	1440	1433	1434	1433	1450	1462	1459	1446	1441	1452	1464	1465	1461	1445	1429	1422	1427	1439	1445	1455	1454	1451	1446	1438	1437	1434	1438	1451	1489	1572	1570	1559	1481	1454	1441	1442	1445	1449	1449	1454	1444	1452	1458	1462	1460	1455	1441	1438	1434	1435	1422	1418	1424	1414	1421	1429	1445	1455	1441	1424	1426	1433	1441	1439	1434	1428	1430	1437	1453	1469	1475	1457	1446	1441	1448	1456	1451	1444	1437	1435	1436	1438	1443	1447	1456	1456	1465	1469	1478	1488	1499	1493	1474	1455	1453	1460	1468	1467	1463	1456	1444	1442	1458	1465	1460	1447	1465	1467	1456	1454	1451	1454	1447	1441	1450	1456	1455	1447	1435	1427	1432	1445	1449	1443	1447	1462	1477	1485	1474	1460	1439	1425	1423	1433	1443	1449	1457	1464	1473	1469	1462	1450	1438	1425	1432	1439	1443	1451	1463	1464	1460	1450	1449	1454	1460	1453	1456	1462	1467	1468	1465	1462	1459	1458	1462	1469	1464	1458	1454	1457	1465	1467	1468	1466	1460	1461	1462	1505	1556	1589	0	0	0	0	0	0	0	0	0	0	0	0	0	0	0	0	0	0	0	0	0	0	1571	1575	1564	1554	1537	1534	1528	1523	1513	1522	1540	1541	1535	1529	1521	1516	1510	1517	1522	1522	1518	1522	1541	1538	1520	1504	1490	1506	1511	1524	1531	0	0	0	0	0	0	0	0	0	0	0	0	0	0	0	0	0	0	1521	1498	1479	1480	1480	1472	1471	1473	1488	1490	1480	1479	1480	1485	1473	1476	1471	1474	1467	1456	1449	1452	1459	1465	1469	1481	1485	1481	1474	1473	1482	1490	1503	1493	1463	1445	1442	1452	1453	1470	1465	1456	1446	1441	1449	1457	1475	1498	1514	1501	1493	1485	1478	1478	1467	1454	1447	1453	1461	1473	1472	1455	1444	1442	1454	1470	1490	1506	1511	1511	1512	1513	1515	1510	1501	1499	1504	1504	1490	0	0	0	0	0	0	0
0	0	1389	1390	1390	1375	1377	1388	1393	1391	1391	1389	1390	1386	1386	1386	1386	1394	1400	1408	1406	1412	1414	1409	1409	1411	1412	1411	1407	1406	1414	1427	1427	1444	1443	1438	1425	1410	1430	1428	1426	1436	1436	1445	1447	1438	1446	1442	1439	1441	1444	1451	1465	1471	1464	1464	1454	1440	1436	1438	1455	1462	1457	1452	1444	1442	1449	1451	1457	1460	1456	1446	1443	1441	1449	1460	1463	1463	1466	1466	1469	1463	1453	1459	1459	1464	1466	1453	1430	1415	1414	1414	1410	1411	1415	1418	1417	1407	1401	1408	1423	1435	1431	1421	1418	1416	1410	1411	1414	1415	1418	1415	1416	1418	1416	1418	1421	1426	1427	1428	1428	1433	1440	1442	1440	1433	1427	1427	1439	1444	1433	1432	1435	1447	1415	0	0	0	0	0	0	0	0	0	0	0	0	0	0	0	0	0	0	0	0	0	0	0	0	0	0	0	0	0	1642	1653	1655	1648	1642	1669	1693	1689	0	0	0	0	0	0	0	0	0	0	1404	1426	1419	1425	1430	1442	1450	1453	1448	1434	1424	1416	1418	1430	1439	1438	1437	1434	1435	1440	1442	1445	1443	1431	1427	1419	1415	1401	1407	1421	1431	1436	1437	1440	1442	1440	1439	1438	1436	1438	1446	1449	1458	1457	1448	1429	1422	1432	1434	1438	1440	1441	1447	1458	1461	1457	1452	1439	1436	1433	1437	1446	1464	1465	1459	1445	1436	1424	1417	1416	1421	1433	1429	1426	1419	1419	1417	1416	1407	1401	1409	1429	1443	1444	1445	1446	1449	1437	1431	1434	1437	1451	1457	1446	1431	1435	1451	1458	1459	1456	1463	1461	1462	1457	1445	1437	1434	1437	1441	1447	1450	1448	1441	1435	1432	1449	1463	1460	1447	1442	1441	1439	1433	1436	1443	1458	1467	1451	1438	1432	1438	1450	1454	1449	1440	1429	1424	1429	1436	1444	1453	1456	1461	1461	1461	1458	1453	1448	1460	1495	1554	1552	1533	1483	1444	1441	1446	1446	1450	1453	1456	1455	1457	1455	1453	1448	1442	1434	1429	1426	1433	1428	1436	1433	1422	1418	1429	1445	1452	1436	1414	1426	1431	1435	1436	1432	1432	1430	1436	1456	1474	1473	1452	1431	1435	1441	1446	1445	1440	1436	1428	1427	1434	1437	1446	1448	1444	1450	1462	1473	1496	1513	1506	1475	1468	1467	1470	1467	1460	1453	1450	1450	1450	1456	1456	1453	1446	1439	1449	1451	1454	1456	1454	1455	1452	1455	1461	1461	1449	1434	1418	1416	1419	1422	1426	1437	1457	1488	1489	1475	1455	1433	1420	1416	1423	1428	1437	1452	1477	1479	1472	1458	1444	1428	1425	1436	1445	1456	1463	1465	1469	1459	1452	1459	1458	1457	1458	1461	1468	1474	1474	1470	1470	1467	1463	1467	1472	1464	1448	1439	1449	1450	1462	1466	1467	1462	1456	1457	1492	1542	1610	0	0	0	0	0	0	0	0	0	0	0	0	0	0	0	0	0	0	0	0	0	0	1560	1569	1568	1567	1548	1546	1541	1547	1545	1561	1567	1568	1566	1567	1554	1538	1524	1523	1525	1534	1545	1561	1567	1566	1548	1533	1532	1534	1535	1532	1557	0	0	0	0	0	0	0	0	0	0	0	0	0	0	0	0	0	0	1501	1489	1472	1487	1488	1476	1475	1474	1486	1486	1479	1475	1477	1477	1478	1476	1475	1467	1460	1460	1454	1453	1456	1465	1469	1479	1485	1484	1485	1498	1496	1491	1484	1471	1458	1453	1451	1452	1472	1488	1482	1471	1461	1456	1454	1466	1482	1492	1505	1496	1482	1475	1467	1467	1455	1458	1459	1465	1471	1470	1464	1460	1457	1472	1480	1489	1488	1488	1488	1488	1494	1502	1510	1506	1499	1486	1489	1496	1482	0	0	0	0	0	0	0
0	0	1406	1408	1408	1403	1398	1395	1398	1392	1392	1388	1388	1390	1392	1402	1402	1402	1409	1408	1417	1422	1415	1408	1408	1409	1410	1415	1413	1418	1425	1438	1438	1443	1443	1433	1428	1414	1427	1437	1438	1452	1452	1469	1464	1446	1445	1442	1440	1448	1448	1448	1467	1477	1467	1467	1455	1440	1436	1446	1461	1462	1460	1452	1441	1440	1439	1446	1449	1454	1449	1438	1419	1427	1434	1450	1456	1466	1471	1471	1467	1461	1452	1450	1461	1472	1476	1453	1442	1430	1424	1422	1421	1422	1415	1415	1410	1400	1396	1402	1415	1427	1424	1412	1411	1416	1417	1424	1423	1427	1420	1417	1415	1416	1414	1415	1423	1430	1426	1429	1433	1447	1459	1461	1458	1447	1443	1439	1445	1447	1432	1426	1437	1445	1421	0	0	0	0	0	0	0	0	0	0	0	0	0	0	0	0	0	0	0	0	0	0	0	0	0	0	0	0	0	1612	1624	1634	1645	1667	1689	1729	1709	0	0	0	0	0	0	0	0	0	0	1419	1415	1422	1425	1430	1444	1450	1451	1442	1428	1417	1416	1419	1425	1431	1432	1435	1435	1441	1439	1444	1446	1452	1446	1444	1442	1403	1393	1403	1419	1427	1424	1425	1427	1432	1432	1433	1432	1437	1449	1453	1457	1466	1470	1454	1431	1426	1430	1433	1437	1437	1437	1443	1453	1456	1451	1444	1434	1426	1420	1423	1436	1453	1456	1450	1436	1424	1415	1408	1411	1412	1427	1435	1434	1438	1432	1421	1410	1401	1394	1401	1425	1443	1447	1437	1445	1447	1444	1432	1431	1444	1460	1461	1446	1436	1444	1453	1458	1457	1453	1453	1452	1448	1458	1447	1440	1426	1437	1455	1461	1458	1458	1453	1451	1452	1466	1472	1467	1434	1428	1430	1432	1434	1448	1457	1465	1467	1452	1435	1428	1432	1440	1450	1450	1439	1429	1427	1426	1435	1442	1449	1456	1462	1472	1476	1468	1460	1452	1460	1508	1518	1529	1508	1470	1441	1439	1439	1436	1439	1445	1453	1448	1452	1450	1446	1436	1434	1432	1432	1422	1427	1435	1448	1444	1436	1430	1440	1454	1460	1434	1446	1438	1432	1437	1447	1442	1436	1444	1451	1472	1482	1471	1454	1436	1435	1439	1446	1448	1441	1434	1428	1424	1421	1434	1434	1433	1434	1441	1449	1471	1484	1502	1501	1466	1468	1478	1480	1464	1451	1449	1456	1457	1453	1451	1452	1460	1463	1460	1455	1459	1457	1464	1468	1463	1456	1455	1459	1461	1453	1443	1429	1414	1417	1418	1423	1436	1456	1481	1484	1477	1453	1434	1425	1417	1418	1421	1430	1446	1476	1481	1473	1466	1447	1433	1435	1440	1451	1468	1468	1466	1462	1458	1456	1454	1456	1460	1463	1463	1470	1475	1478	1477	1477	1468	1466	1467	1467	1459	1447	1439	1444	1454	1465	1474	1463	1454	1450	1452	1489	1540	1611	0	0	0	0	0	0	0	0	0	0	0	0	0	0	0	0	0	0	0	0	0	0	1582	1582	1579	1558	1541	1540	1558	1568	1572	1566	1548	1542	1561	1562	1552	1538	1525	1521	1526	1525	1528	1537	1538	1521	1527	1538	1542	1536	1541	1548	1567	0	0	0	0	0	0	0	0	0	0	0	0	0	0	0	0	0	0	1486	1490	1487	1499	1508	1496	1481	1475	1484	1484	1477	1473	1477	1480	1481	1481	1482	1472	1471	1469	1469	1465	1468	1471	1481	1484	1493	1508	1517	1508	1499	1494	1485	1465	1464	1463	1468	1470	1481	1491	1493	1482	1466	1455	1456	1463	1476	1490	1495	1494	1489	1474	1457	1457	1451	1465	1477	1479	1476	1474	1470	1463	1471	1481	1490	1487	1479	1476	1467	1467	1467	1480	1493	1498	1487	1475	1457	1462	1471	0	0	0	0	0	0	0
0	0	1422	1431	1431	1409	1403	1404	1401	1394	1394	1390	1393	1400	1411	1407	1407	1409	1416	1424	1420	1423	1422	1422	1411	1404	1401	1404	1408	1416	1427	1435	1435	1437	1441	1439	1430	1422	1422	1430	1435	1452	1452	1470	1467	1461	1458	1450	1456	1464	1454	1452	1455	1459	1464	1464	1454	1445	1445	1451	1465	1467	1460	1452	1440	1435	1432	1429	1435	1431	1433	1419	1416	1423	1425	1435	1451	1461	1461	1468	1465	1460	1457	1455	1463	1460	1474	1459	1443	1436	1438	1447	1437	1426	1420	1408	1403	1395	1388	1396	1406	1413	1412	1411	1406	1414	1425	1430	1438	1438	1430	1417	1410	1408	1415	1419	1428	1432	1432	1425	1429	1443	1455	1460	1460	1456	1449	1443	1449	1448	1424	1417	1428	1434	1430	0	0	0	0	0	0	0	0	0	0	0	0	0	0	0	0	0	0	0	0	0	0	0	0	0	0	0	0	0	1620	1620	1623	1654	1678	1693	1699	1706	0	0	0	0	0	0	0	0	0	0	1431	1413	1426	1433	1442	1450	1451	1439	1420	1414	1411	1417	1427	1425	1423	1422	1426	1430	1428	1432	1440	1457	1462	1464	1460	1453	1424	1405	1407	1413	1417	1417	1415	1419	1426	1427	1437	1433	1436	1443	1452	1449	1454	1452	1443	1432	1426	1429	1439	1441	1440	1437	1438	1440	1446	1446	1441	1431	1418	1412	1415	1424	1435	1446	1439	1430	1419	1413	1406	1407	1406	1417	1426	1437	1442	1438	1426	1407	1399	1399	1423	1440	1445	1446	1439	1442	1443	1436	1429	1428	1445	1458	1458	1440	1437	1441	1448	1450	1439	1434	1437	1433	1439	1441	1445	1439	1430	1443	1460	1464	1458	1455	1461	1462	1464	1473	1473	1458	1432	1422	1418	1418	1427	1446	1464	1472	1468	1453	1439	1431	1436	1444	1447	1458	1451	1441	1436	1434	1435	1444	1447	1457	1463	1472	1473	1471	1468	1461	1460	1483	1501	1503	1475	1447	1441	1434	1426	1423	1423	1426	1433	1467	1455	1445	1443	1458	1453	1438	1431	1427	1431	1437	1451	1452	1447	1441	1454	1461	1466	1458	1451	1440	1431	1459	1464	1467	1458	1452	1456	1473	1477	1469	1454	1445	1442	1446	1445	1446	1445	1440	1434	1426	1422	1423	1418	1424	1426	1430	1437	1451	1465	1470	1469	1451	1466	1473	1477	1450	1440	1448	1457	1459	1455	1449	1460	1474	1479	1475	1475	1475	1482	1478	1471	1466	1457	1456	1456	1459	1454	1448	1438	1432	1427	1426	1425	1433	1451	1461	1464	1467	1458	1446	1431	1429	1424	1423	1431	1445	1460	1475	1473	1471	1464	1456	1456	1453	1457	1464	1470	1460	1453	1453	1457	1466	1466	1463	1468	1471	1471	1471	1474	1478	1472	1469	1465	1462	1462	1459	1452	1452	1456	1463	1471	1472	1461	1448	1450	1459	1488	1540	0	0	0	0	0	0	0	0	0	0	0	0	0	0	0	0	0	0	0	0	0	0	0	1606	1594	1581	1555	1543	1540	1551	1558	1559	1555	1534	1526	1529	1541	1533	1525	1521	1521	1526	1529	1522	1525	1532	1531	1543	1547	1534	1534	1529	1547	1557	0	0	0	0	0	0	0	0	0	0	0	0	0	0	0	0	0	0	1486	1489	1501	1513	1517	1507	1492	1484	1482	1478	1476	1473	1483	1483	1480	1484	1482	1481	1490	1489	1487	1489	1493	1494	1489	1488	1502	1516	1515	1510	1495	1488	1486	1479	1475	1476	1476	1479	1487	1493	1494	1486	1470	1463	1468	1476	1487	1493	1495	1498	1487	1471	1461	1449	1449	1459	1470	1472	1473	1472	1476	1479	1491	1491	1491	1492	1489	1484	1482	1470	1470	1474	1483	1487	1487	1476	1461	1460	1464	0	0	0	0	0	0	0
0	0	1436	1436	1430	1412	1402	1403	1404	1404	1395	1387	1404	1412	1415	1411	1411	1414	1424	1431	1421	1423	1413	1413	1413	1410	1403	1405	1410	1428	1429	1430	1430	1435	1445	1450	1442	1427	1413	1414	1418	1418	1425	1435	1464	1469	1452	1452	1462	1462	1450	1449	1450	1455	1455	1457	1452	1451	1455	1467	1469	1467	1458	1447	1437	1434	1426	1424	1427	1428	1434	1425	1429	1431	1428	1435	1448	1462	1462	1470	1466	1463	1465	1469	1470	1475	1481	1469	1454	1446	1445	1444	1429	1415	1412	1405	1398	1398	1391	1396	1407	1414	1417	1417	1408	1409	1421	1428	1433	1437	1426	1414	1406	1411	1418	1430	1439	1442	1425	1417	1420	1428	1441	1445	1451	1452	1444	1442	1443	1443	1435	1429	1421	1420	1452	0	0	0	0	0	0	0	0	0	0	0	0	0	0	0	0	0	0	0	0	0	0	0	0	0	0	0	0	0	1634	1638	1641	1670	1688	1691	1688	1672	0	0	0	0	0	0	0	0	0	0	1444	1429	1449	1455	1462	1459	1453	1432	1411	1402	1407	1429	1432	1428	1417	1421	1421	1408	1408	1413	1438	1454	1467	1466	1467	1454	1424	1415	1411	1411	1413	1407	1405	1412	1421	1429	1432	1429	1430	1434	1437	1432	1433	1422	1427	1427	1426	1437	1445	1450	1445	1435	1430	1428	1431	1432	1434	1426	1414	1409	1412	1414	1424	1432	1424	1423	1424	1413	1408	1403	1405	1410	1422	1440	1448	1444	1427	1408	1410	1419	1432	1441	1447	1439	1445	1443	1443	1432	1419	1427	1441	1449	1447	1441	1438	1442	1443	1446	1434	1435	1436	1438	1435	1444	1444	1446	1447	1440	1454	1456	1448	1449	1454	1454	1463	1467	1466	1452	1437	1426	1413	1417	1418	1439	1459	1465	1464	1459	1449	1445	1446	1448	1449	1464	1463	1455	1448	1448	1442	1451	1456	1458	1475	1471	1479	1469	1473	1467	1447	1460	1473	1481	1465	1451	1446	1436	1413	1402	1409	1431	1453	1451	1463	1452	1452	1443	1451	1451	1433	1426	1432	1438	1453	1454	1459	1445	1436	1447	1444	1441	1442	1454	1473	1483	1486	1477	1457	1456	1446	1459	1459	1458	1454	1451	1453	1463	1463	1457	1452	1449	1450	1440	1434	1425	1423	1418	1419	1425	1436	1443	1451	1451	1446	1443	1447	1449	1445	1431	1431	1442	1456	1461	1458	1461	1469	1476	1480	1481	1480	1476	1484	1483	1473	1469	1460	1451	1447	1453	1459	1457	1451	1446	1440	1434	1433	1435	1446	1456	1459	1459	1456	1452	1448	1446	1446	1435	1437	1448	1452	1457	1459	1471	1473	1474	1465	1455	1452	1453	1458	1450	1436	1449	1459	1467	1470	1469	1478	1479	1477	1469	1474	1468	1461	1455	1454	1450	1457	1461	1463	1469	1473	1463	1468	1449	1441	1447	1453	1468	1488	1530	0	0	0	0	0	0	0	0	0	0	0	0	0	0	0	0	0	0	0	0	0	0	0	1622	1609	1604	1560	1547	1553	1548	1552	1554	1543	1529	1523	1526	1528	1534	1525	1521	1520	1522	1528	1531	1533	1534	1542	1547	1551	1539	1535	1536	1548	1534	0	0	0	0	0	0	0	0	0	0	0	0	0	0	0	0	0	1492	1489	1501	1507	1518	1521	1510	1508	1507	1497	1472	1468	1469	1479	1479	1477	1468	1466	1475	1485	1489	1490	1496	1498	1502	1500	1504	1503	1518	1523	1515	1498	1493	1495	1489	1493	1481	1471	1475	1486	1490	1495	1486	1480	1473	1472	1485	1486	1501	1499	1494	1491	1478	1461	1447	1447	1450	1455	1460	1467	1474	1491	1505	1505	1498	1493	1495	1501	1502	1495	1482	1482	1474	1473	1476	1480	1475	1464	1457	1454	0	0	0	0	0	0	0
0	0	1431	1431	1420	1404	1399	1406	1405	1405	1409	1406	1412	1424	1419	1411	1411	1419	1428	1436	1433	1421	1415	1415	1418	1415	1412	1420	1426	1431	1434	1434	1426	1435	1449	1455	1449	1431	1416	1412	1412	1412	1414	1410	1427	1432	1440	1447	1454	1445	1440	1444	1446	1449	1449	1452	1450	1452	1458	1463	1466	1453	1445	1441	1435	1434	1434	1432	1439	1441	1448	1452	1447	1447	1433	1444	1449	1449	1462	1464	1458	1457	1470	1479	1480	1486	1495	1474	1454	1445	1442	1437	1422	1420	1413	1411	1406	1403	1407	1407	1418	1426	1426	1433	1432	1432	1428	1427	1426	1422	1412	1406	1402	1409	1415	1423	1434	1438	1423	1406	1406	1405	1420	1426	1430	1431	1431	1431	1426	1430	1429	1434	1423	1403	1467	0	0	0	0	0	0	0	0	0	0	0	0	0	0	0	0	0	0	0	0	0	0	0	0	0	0	0	0	0	1658	1658	1675	1690	1695	1693	1686	1654	0	0	0	0	0	0	0	0	0	0	1446	1452	1455	1468	1468	1461	1443	1423	1403	1398	1415	1441	1438	1427	1425	1421	1413	1403	1405	1422	1442	1455	1460	1460	1458	1448	1423	1418	1417	1417	1411	1404	1399	1401	1414	1431	1436	1427	1423	1423	1419	1414	1407	1405	1417	1422	1430	1441	1450	1448	1439	1426	1423	1422	1423	1428	1429	1426	1419	1416	1419	1421	1424	1423	1414	1418	1430	1423	1411	1406	1406	1411	1425	1442	1448	1448	1434	1430	1428	1438	1439	1439	1443	1438	1444	1444	1439	1430	1423	1428	1433	1438	1437	1434	1436	1438	1440	1444	1440	1436	1437	1434	1438	1442	1447	1448	1444	1441	1445	1448	1445	1447	1452	1458	1457	1457	1462	1451	1440	1429	1418	1415	1420	1437	1455	1465	1467	1465	1458	1449	1450	1453	1446	1449	1454	1463	1462	1461	1452	1458	1471	1479	1482	1479	1469	1472	1467	1454	1422	1417	1444	1450	1461	1469	1451	1449	1420	1403	1416	1427	1437	1462	1465	1452	1452	1466	1454	1436	1429	1430	1436	1446	1454	1455	1446	1437	1424	1425	1429	1428	1436	1450	1466	1479	1490	1486	1473	1445	1441	1444	1449	1457	1461	1460	1468	1474	1474	1466	1463	1458	1456	1453	1447	1436	1422	1419	1424	1432	1443	1443	1442	1440	1435	1437	1434	1435	1434	1427	1431	1447	1454	1458	1450	1455	1462	1470	1474	1474	1459	1457	1465	1469	1471	1470	1473	1469	1453	1458	1465	1460	1462	1455	1451	1449	1438	1440	1451	1460	1457	1459	1450	1456	1460	1460	1462	1454	1450	1451	1442	1443	1448	1458	1472	1484	1484	1470	1452	1448	1453	1439	1437	1448	1458	1467	1466	1472	1484	1491	1480	1467	1466	1461	1451	1445	1446	1444	1447	1461	1471	1472	1477	1463	1462	1442	1439	1444	1447	1470	1478	1518	0	0	0	0	0	0	0	0	0	0	0	0	0	0	0	0	0	0	0	0	0	0	0	1633	1629	1623	1573	1558	1554	1547	1548	1547	1539	1528	1521	1524	1532	1534	1533	1528	1526	1520	1522	1527	1530	1528	1537	1552	1558	1536	1534	1535	1549	1529	0	0	0	0	0	0	0	0	0	0	0	0	0	0	0	0	0	1494	1495	1499	1501	1508	1510	1508	1507	1509	1490	1466	1459	1462	1469	1475	1468	1461	1462	1465	1477	1492	1497	1499	1503	1503	1495	1497	1503	1518	1524	1522	1507	1502	1499	1499	1498	1481	1467	1458	1474	1489	1494	1488	1482	1480	1482	1480	1487	1492	1491	1499	1488	1477	1463	1442	1442	1449	1454	1456	1460	1475	1490	1501	1502	1493	1486	1494	1508	1510	1497	1484	1484	1476	1470	1470	1476	1478	1469	1455	1444	0	0	0	0	0	0	0
0	0	1423	1423	1414	1405	1402	1402	1398	1398	1406	1396	1400	1418	1401	1403	1403	1420	1432	1435	1433	1406	1410	1410	1419	1422	1423	1437	1438	1426	1415	1415	1404	1426	1453	1454	1450	1440	1423	1417	1413	1413	1407	1402	1411	1428	1441	1447	1447	1426	1427	1438	1444	1442	1442	1444	1436	1440	1454	1457	1455	1445	1439	1430	1431	1438	1443	1451	1458	1458	1459	1457	1458	1464	1459	1454	1454	1454	1461	1456	1453	1456	1466	1480	1485	1493	1498	1470	1451	1435	1429	1434	1426	1423	1418	1413	1413	1411	1411	1416	1424	1431	1432	1433	1437	1428	1434	1437	1440	1434	1426	1419	1410	1403	1396	1403	1405	1408	1406	1399	1397	1405	1408	1417	1414	1408	1408	1405	1413	1428	1433	1444	1431	1402	1431	0	0	0	0	0	0	0	0	0	0	0	0	0	0	0	0	0	0	0	0	0	0	0	0	0	0	0	0	0	1663	1676	1690	1702	1703	1691	1693	1669	1628	0	0	0	0	0	0	0	0	0	1436	1443	1458	1458	1450	1438	1422	1407	1395	1396	1433	1443	1437	1430	1430	1434	1421	1403	1406	1423	1441	1448	1446	1443	1442	1442	1426	1427	1428	1430	1425	1402	1390	1391	1402	1419	1430	1425	1418	1420	1414	1404	1403	1400	1405	1419	1432	1447	1454	1448	1436	1418	1414	1406	1417	1420	1425	1428	1430	1432	1430	1429	1421	1409	1413	1421	1428	1427	1422	1424	1424	1426	1434	1444	1446	1442	1441	1444	1445	1445	1447	1436	1428	1428	1435	1437	1438	1433	1425	1428	1433	1438	1432	1427	1430	1437	1441	1444	1441	1440	1436	1434	1434	1443	1449	1446	1439	1438	1439	1443	1442	1441	1454	1457	1458	1452	1451	1446	1436	1426	1422	1424	1426	1440	1446	1457	1458	1458	1453	1449	1447	1445	1436	1435	1441	1455	1459	1459	1461	1470	1475	1475	1475	1472	1468	1462	1452	1436	1401	1404	1421	1428	1465	1478	1465	1462	1438	1425	1428	1440	1442	1450	1454	1452	1454	1449	1436	1426	1427	1436	1444	1455	1461	1459	1444	1427	1425	1425	1422	1427	1435	1443	1458	1467	1481	1487	1477	1460	1446	1445	1455	1466	1468	1480	1478	1475	1473	1469	1459	1449	1460	1455	1446	1438	1433	1430	1436	1447	1451	1445	1442	1439	1440	1439	1434	1425	1418	1421	1429	1444	1454	1449	1445	1444	1455	1466	1474	1467	1440	1437	1443	1451	1469	1469	1467	1467	1468	1459	1458	1464	1476	1466	1463	1454	1448	1449	1453	1462	1456	1457	1452	1462	1464	1470	1470	1470	1462	1449	1437	1431	1437	1444	1464	1477	1476	1469	1457	1457	1454	1442	1438	1450	1460	1466	1467	1475	1484	1490	1478	1467	1463	1459	1454	1456	1453	1446	1446	1469	1472	1469	1472	1462	1457	1438	1436	1454	1456	1456	1465	1500	0	0	0	0	0	0	0	0	0	0	0	0	0	0	0	0	0	0	0	0	0	0	0	1657	1654	1624	1582	1534	1530	1528	1538	1541	1539	1531	1528	1536	1539	1540	1540	1533	1533	1524	1522	1527	1514	1516	1533	1553	1568	1544	1535	1538	1544	1541	0	0	0	0	0	0	0	0	0	0	0	0	0	0	0	0	0	1505	1501	1506	1498	1491	1492	1487	1490	1495	1489	1464	1452	1458	1461	1466	1477	1479	1474	1472	1484	1494	1492	1500	1507	1504	1498	1488	1493	1509	1515	1521	1507	1507	1501	1502	1496	1475	1461	1453	1472	1484	1492	1499	1493	1492	1490	1487	1497	1502	1506	1499	1486	1477	1462	1459	1459	1454	1455	1456	1461	1469	1477	1482	1465	1460	1469	1482	1494	1506	1494	1480	1480	1474	1467	1468	1477	1482	1475	1457	1441	0	0	0	0	0	0	0
0	0	1414	1414	1400	1385	1396	1396	1392	1392	1395	1393	1385	1382	1392	1404	1404	1430	1435	1437	1412	1395	1400	1400	1415	1424	1435	1442	1434	1413	1394	1394	1402	1419	1447	1452	1441	1436	1437	1432	1423	1423	1398	1401	1418	1433	1448	1455	1434	1412	1422	1434	1438	1436	1436	1431	1426	1432	1446	1451	1449	1445	1432	1427	1436	1444	1456	1464	1466	1466	1461	1461	1463	1472	1471	1462	1459	1459	1455	1450	1448	1457	1465	1477	1480	1485	1492	1472	1446	1429	1423	1431	1434	1430	1421	1411	1406	1405	1402	1409	1423	1432	1433	1429	1432	1434	1435	1439	1449	1446	1437	1417	1413	1405	1398	1394	1398	1398	1405	1402	1402	1407	1414	1421	1419	1410	1409	1413	1422	1436	1437	1439	1437	1416	1412	1455	0	0	0	0	0	0	0	0	0	0	0	0	0	0	0	0	0	0	0	0	0	0	0	0	0	0	0	0	1674	1676	1684	1691	1694	1691	1693	1680	1646	0	0	0	0	0	0	0	0	0	1435	1426	1432	1430	1425	1420	1414	1401	1392	1397	1428	1435	1430	1430	1431	1442	1427	1408	1408	1422	1435	1432	1436	1430	1426	1429	1429	1435	1440	1450	1427	1408	1388	1384	1398	1415	1421	1421	1418	1416	1412	1406	1406	1407	1408	1422	1433	1444	1449	1444	1429	1412	1405	1404	1404	1411	1416	1430	1437	1443	1440	1428	1418	1411	1410	1420	1429	1435	1436	1442	1445	1441	1443	1443	1436	1438	1441	1446	1445	1442	1439	1431	1424	1420	1425	1427	1428	1429	1427	1432	1436	1436	1428	1416	1417	1429	1436	1449	1444	1443	1437	1431	1437	1444	1446	1437	1431	1434	1436	1436	1441	1451	1456	1454	1462	1451	1442	1438	1437	1428	1428	1435	1438	1437	1439	1441	1441	1444	1445	1439	1440	1437	1431	1431	1432	1441	1448	1447	1446	1455	1458	1457	1460	1457	1453	1443	1427	1410	1390	1402	1416	1439	1464	1475	1469	1458	1452	1449	1445	1449	1443	1431	1434	1439	1448	1445	1442	1428	1428	1434	1447	1451	1456	1455	1453	1438	1432	1429	1432	1444	1444	1443	1442	1448	1459	1476	1480	1459	1450	1451	1459	1474	1483	1481	1474	1473	1470	1462	1450	1449	1452	1441	1437	1440	1439	1440	1443	1450	1450	1443	1439	1444	1448	1444	1437	1433	1425	1431	1435	1452	1449	1442	1432	1437	1445	1458	1462	1450	1440	1431	1434	1442	1452	1453	1451	1446	1454	1467	1482	1487	1485	1478	1470	1464	1460	1451	1449	1455	1459	1456	1461	1468	1470	1468	1467	1468	1460	1451	1440	1436	1441	1440	1440	1434	1439	1454	1460	1472	1475	1468	1435	1438	1445	1456	1464	1473	1485	1479	1470	1457	1454	1452	1463	1473	1468	1460	1452	1456	1453	1460	1462	1458	1446	1438	1433	1432	1444	1447	1455	1478	0	0	0	0	0	0	0	0	0	0	0	0	0	0	0	0	0	0	0	0	0	0	0	1659	1656	1625	1560	1505	1510	1513	1510	1521	1529	1529	1539	1545	1550	1543	1549	1547	1544	1545	1537	1530	1513	1509	1528	1546	1556	1548	1539	1537	1542	1553	0	0	0	0	0	0	0	0	0	0	0	0	0	0	0	0	0	1502	1511	1517	1501	1470	1484	1481	1484	1487	1486	1462	1459	1459	1456	1465	1485	1487	1490	1485	1490	1497	1504	1499	1504	1501	1498	1491	1494	1501	1509	1509	1510	1508	1504	1502	1497	1483	1467	1460	1474	1486	1496	1504	1515	1514	1504	1504	1509	1506	1510	1502	1491	1475	1464	1465	1467	1467	1460	1456	1454	1457	1458	1465	1450	1443	1445	1460	1474	1486	1482	1475	1468	1468	1466	1468	1479	1481	1473	1452	1449	0	0	0	0	0	0	0
0	0	1407	1407	1390	1391	1387	1390	1385	1385	1378	1369	1367	1371	1390	1390	1408	1440	1444	1437	1423	1399	1395	1388	1396	1426	1438	1433	1417	1395	1386	1386	1396	1413	1433	1438	1435	1438	1436	1438	1425	1425	1406	1406	1425	1439	1453	1454	1429	1413	1424	1434	1430	1430	1420	1418	1420	1433	1447	1450	1452	1446	1439	1426	1435	1457	1469	1471	1466	1465	1459	1462	1463	1474	1483	1467	1467	1462	1447	1448	1447	1454	1456	1463	1472	1479	1488	1466	1447	1432	1422	1425	1427	1422	1417	1409	1403	1403	1392	1401	1415	1433	1434	1425	1415	1418	1426	1431	1440	1437	1432	1419	1416	1411	1400	1401	1399	1403	1406	1406	1404	1413	1418	1418	1419	1417	1414	1418	1426	1425	1432	1420	1429	1433	1416	1419	0	0	0	0	0	0	0	0	0	0	0	0	0	0	0	0	0	0	0	0	0	0	0	0	0	0	0	0	1677	1661	1674	1685	1689	1690	1693	1680	1659	0	0	0	0	0	0	0	0	0	0	1414	1413	1420	1422	1417	1415	1404	1404	1403	1417	1422	1422	1421	1430	1426	1425	1413	1404	1405	1408	1424	1413	1409	1406	1406	1404	1409	1418	1439	1439	1416	1401	1390	1392	1402	1409	1405	1408	1416	1413	1410	1408	1407	1413	1420	1425	1427	1437	1432	1431	1419	1406	1405	1402	1404	1405	1423	1443	1446	1445	1426	1410	1401	1404	1417	1428	1437	1445	1459	1440	1441	1448	1446	1440	1444	1452	1451	1441	1430	1426	1426	1421	1418	1418	1418	1416	1418	1422	1432	1436	1433	1421	1415	1408	1413	1430	1447	1448	1449	1437	1436	1432	1438	1438	1429	1422	1420	1427	1431	1436	1446	1449	1445	1444	1440	1432	1431	1433	1435	1437	1438	1436	1435	1428	1425	1427	1427	1435	1434	1434	1429	1424	1428	1432	1435	1436	1432	1434	1441	1441	1445	1449	1450	1461	1441	1419	1414	1421	1424	1432	1434	1456	1470	1471	1464	1461	1461	1460	1454	1439	1433	1427	1435	1446	1446	1442	1441	1431	1438	1448	1446	1445	1441	1442	1436	1424	1423	1432	1440	1451	1443	1438	1434	1443	1453	1457	1454	1447	1448	1455	1464	1464	1471	1469	1461	1443	1439	1429	1438	1418	1432	1428	1436	1441	1440	1440	1433	1434	1434	1444	1448	1453	1454	1451	1446	1452	1443	1446	1456	1452	1436	1432	1432	1437	1443	1454	1447	1439	1435	1435	1440	1447	1440	1434	1436	1453	1473	1481	1486	1481	1479	1471	1476	1479	1474	1462	1454	1448	1461	1466	1467	1463	1461	1467	1472	1467	1450	1441	1443	1445	1448	1444	1431	1423	1447	1456	1468	1472	1463	1430	1430	1438	1451	1461	1469	1477	1469	1454	1452	1450	1454	1465	1472	1467	1460	1454	1437	1431	1439	1446	1452	1444	1438	1438	1440	1445	1450	1453	1468	0	0	0	0	0	0	0	0	0	0	0	0	0	0	0	0	0	0	0	0	0	0	0	1644	1620	1583	1536	1490	1496	1500	1503	1510	1523	1533	1550	1556	1554	1542	1544	1548	1553	1552	1545	1537	1515	1509	1522	1536	1556	1545	1546	1542	1544	1562	0	0	0	0	0	0	0	0	0	0	0	0	0	0	0	0	0	1511	1520	1520	1494	1465	1477	1493	1493	1500	1490	1474	1465	1463	1468	1462	1478	1488	1493	1492	1496	1502	1510	1500	1499	1491	1494	1486	1492	1501	1503	1506	1511	1515	1521	1513	1504	1495	1478	1479	1486	1480	1497	1506	1521	1526	1520	1512	1505	1500	1498	1491	1479	1472	1465	1469	1473	1473	1469	1459	1452	1451	1456	1455	1447	1436	1434	1442	1454	1467	1479	1488	1480	1480	1476	1474	1471	1468	1468	1462	1450	0	0	0	0	0	0	0
0	0	1406	1406	1396	1386	1386	1387	1387	1387	1376	1369	1377	1381	1398	1398	1425	1446	1455	1450	1442	1408	1400	1400	1397	1432	1436	1428	1407	1395	1385	1385	1401	1419	1432	1437	1439	1440	1444	1437	1437	1437	1422	1414	1424	1444	1451	1455	1438	1414	1427	1435	1430	1430	1416	1402	1409	1423	1440	1452	1453	1452	1439	1427	1427	1449	1468	1470	1460	1450	1453	1452	1464	1477	1486	1475	1475	1455	1450	1442	1441	1441	1443	1453	1462	1469	1480	1464	1443	1427	1422	1416	1417	1413	1411	1409	1410	1414	1407	1410	1422	1429	1423	1410	1398	1406	1411	1415	1423	1424	1424	1425	1425	1425	1417	1413	1411	1406	1399	1401	1408	1420	1425	1420	1422	1416	1412	1411	1415	1423	1406	1395	1403	1430	1432	1423	0	0	0	0	0	0	0	0	0	0	0	0	0	0	0	0	0	0	0	0	0	0	0	0	0	0	0	0	1687	1664	1674	1681	1681	1682	1676	1666	0	0	0	0	0	0	0	0	0	0	0	1403	1404	1415	1416	1417	1416	1413	1417	1416	1411	1405	1412	1415	1416	1420	1416	1407	1402	1394	1398	1408	1407	1408	1403	1404	1406	1405	1409	1432	1434	1421	1404	1391	1395	1403	1407	1409	1412	1419	1415	1408	1407	1412	1421	1422	1419	1414	1420	1426	1430	1433	1431	1422	1416	1410	1415	1426	1439	1449	1442	1431	1419	1406	1407	1412	1425	1431	1437	1436	1436	1444	1448	1455	1450	1448	1454	1456	1432	1422	1419	1419	1419	1424	1421	1414	1410	1411	1424	1432	1437	1433	1431	1418	1419	1419	1429	1437	1446	1445	1446	1441	1432	1431	1429	1426	1410	1418	1427	1429	1429	1431	1434	1436	1442	1441	1441	1440	1443	1446	1439	1440	1434	1428	1418	1414	1422	1427	1437	1436	1433	1430	1428	1432	1438	1435	1440	1436	1437	1436	1436	1438	1448	1456	1453	1433	1421	1420	1449	1453	1448	1421	1455	1473	1469	1457	1460	1458	1463	1450	1438	1432	1432	1433	1436	1445	1446	1449	1449	1444	1444	1441	1438	1436	1433	1428	1421	1419	1430	1441	1443	1439	1433	1433	1436	1436	1444	1448	1450	1449	1454	1457	1458	1458	1452	1465	1458	1444	1444	1449	1414	1437	1434	1437	1435	1432	1429	1426	1428	1427	1437	1447	1455	1455	1456	1462	1456	1444	1450	1467	1463	1447	1436	1431	1435	1441	1444	1448	1441	1441	1450	1452	1446	1438	1431	1437	1449	1465	1477	1482	1481	1481	1471	1471	1489	1482	1476	1464	1458	1464	1459	1464	1468	1468	1471	1470	1453	1443	1435	1440	1450	1457	1461	1452	1444	1443	1448	1443	1437	1421	1430	1445	1447	1452	1449	1446	1448	1442	1430	1435	1447	1457	1465	1467	1464	1459	1453	1434	1430	1429	1440	1454	1462	1462	1463	1460	1453	1461	1467	1471	0	0	0	0	0	0	0	0	0	0	0	0	0	0	0	0	0	0	0	0	0	0	1637	1621	1586	1557	1520	1489	1510	1503	1498	1501	1503	1537	1552	1559	1554	1540	1535	1542	1544	1546	1543	1535	1524	1520	1527	1544	1561	1553	1558	1556	1549	1557	0	0	0	0	0	0	0	0	0	0	0	0	0	0	0	0	0	1522	1523	1504	1483	1472	1493	1508	1512	1510	1491	1479	1475	1473	1478	1473	1475	1472	1480	1488	1491	1502	1507	1507	1501	1491	1488	1482	1498	1492	1496	1501	1512	1521	1525	1521	1510	1502	1490	1492	1495	1482	1478	1497	1504	1508	1511	1504	1505	1500	1498	1489	1479	1469	1472	1474	1477	1477	1477	1467	1452	1450	1450	1448	1439	1431	1428	1434	1451	1463	1473	1486	1490	1490	1486	1478	1461	1455	1457	1454	1449	0	0	0	0	0	0	0
0	0	1387	1387	1383	1379	1377	1382	1385	1385	1392	1391	1396	1413	1423	1423	1436	1451	1468	1459	1435	1400	1400	1395	1401	1428	1429	1429	1422	1418	1410	1410	1418	1435	1442	1445	1448	1445	1442	1438	1438	1448	1441	1426	1426	1433	1436	1442	1429	1426	1429	1440	1429	1429	1411	1400	1406	1420	1430	1446	1454	1454	1446	1430	1420	1440	1452	1459	1447	1436	1437	1445	1461	1475	1481	1481	1473	1454	1442	1441	1438	1435	1443	1449	1459	1465	1471	1453	1430	1425	1413	1409	1407	1398	1407	1417	1427	1432	1421	1419	1423	1423	1417	1400	1391	1393	1404	1404	1410	1415	1422	1424	1429	1425	1420	1415	1411	1403	1398	1402	1413	1423	1429	1424	1427	1414	1410	1415	1411	1417	1393	1400	1408	1429	1448	1453	0	0	0	0	0	0	0	0	0	0	0	0	0	0	0	0	0	0	0	0	0	0	0	0	0	0	0	0	1955	1704	1675	1683	1677	1677	1674	1665	0	0	0	0	0	0	0	0	0	0	0	1434	1410	1420	1422	1421	1428	1429	1431	1435	1406	1391	1396	1404	1406	1408	1410	1417	1418	1410	1402	1406	1407	1413	1421	1431	1422	1419	1428	1433	1427	1427	1421	1406	1413	1424	1437	1439	1432	1419	1415	1405	1406	1420	1429	1432	1423	1423	1428	1435	1439	1442	1446	1443	1437	1430	1432	1436	1447	1450	1444	1438	1431	1416	1412	1423	1457	1452	1450	1431	1430	1439	1439	1430	1424	1425	1432	1445	1447	1442	1427	1426	1428	1432	1430	1424	1406	1408	1419	1433	1444	1444	1447	1441	1436	1433	1427	1437	1433	1440	1450	1448	1445	1439	1438	1439	1449	1452	1447	1433	1423	1422	1425	1433	1445	1444	1447	1447	1453	1457	1456	1450	1442	1432	1421	1421	1425	1434	1442	1444	1434	1430	1437	1445	1453	1456	1451	1451	1450	1450	1450	1453	1447	1448	1448	1437	1424	1430	1467	1462	1456	1422	1456	1475	1461	1447	1451	1460	1462	1455	1441	1438	1438	1441	1440	1446	1448	1450	1457	1451	1443	1438	1432	1430	1430	1420	1421	1425	1437	1443	1441	1436	1431	1429	1430	1432	1439	1453	1457	1454	1455	1450	1445	1447	1460	1465	1460	1453	1453	1454	1441	1441	1444	1443	1437	1432	1423	1424	1429	1426	1434	1441	1451	1456	1459	1464	1462	1446	1447	1465	1465	1451	1446	1441	1442	1446	1448	1446	1439	1441	1447	1454	1454	1445	1437	1442	1456	1469	1481	1482	1475	1466	1458	1457	1464	1469	1480	1474	1458	1467	1463	1469	1470	1467	1455	1448	1445	1431	1426	1434	1443	1459	1452	1450	1442	1441	1447	1442	1433	1424	1441	1452	1454	1455	1456	1453	1454	1454	1449	1455	1450	1459	1464	1462	1453	1450	1449	1453	1445	1445	1450	1459	1467	1473	1479	1477	1482	1480	1479	0	0	0	0	0	0	0	0	0	0	0	0	0	0	0	0	0	0	0	0	0	0	0	1622	1611	1576	1543	1526	1511	1530	1537	1508	1500	1509	1543	1552	1551	1546	1535	1534	1531	1534	1538	1534	1531	1527	1520	1524	1541	1556	1563	1572	1563	1559	1549	0	0	0	0	0	0	0	0	0	0	0	0	0	0	0	0	0	0	1537	1501	1480	1485	1502	1518	1522	1521	1490	1478	1474	1482	1487	1481	1471	1460	1461	1474	1482	1490	1498	1506	1501	1491	1487	1493	1496	1491	1494	1500	1508	1516	1521	1514	1508	1499	1494	1493	1497	1492	1473	1476	1493	1495	1493	1490	1493	1494	1502	1500	1490	1479	1473	1479	1478	1478	1471	1461	1454	1450	1446	1442	1432	1430	1435	1443	1451	1462	1468	1478	1488	1488	1485	1480	1459	1449	1450	1445	1445	0	0	0	0	0	0	0
0	0	1365	1365	1371	1368	1365	1378	1386	1386	1400	1407	1421	1427	1438	1438	1444	1446	1446	1447	1413	1395	1395	1390	1392	1398	1418	1423	1424	1431	1439	1439	1446	1457	1460	1452	1448	1444	1432	1440	1440	1462	1461	1434	1423	1423	1421	1425	1432	1435	1444	1448	1443	1443	1420	1408	1410	1408	1418	1429	1446	1455	1445	1429	1421	1430	1442	1442	1428	1420	1432	1439	1457	1470	1478	1478	1473	1447	1435	1428	1430	1437	1447	1455	1464	1465	1460	1437	1424	1420	1412	1404	1405	1401	1413	1418	1432	1432	1419	1416	1421	1426	1420	1401	1390	1397	1402	1404	1407	1410	1415	1416	1420	1410	1411	1410	1409	1404	1400	1409	1421	1425	1426	1423	1420	1417	1412	1412	1417	1410	1394	1420	1418	1431	1468	1474	0	0	0	0	0	0	0	0	0	0	0	0	0	0	0	0	0	0	0	0	0	0	0	0	0	0	0	0	1937	1752	1684	1675	1677	1680	1694	1686	0	0	0	0	0	0	0	0	0	0	0	1467	1438	1429	1432	1427	1428	1431	1436	1436	1392	1381	1386	1401	1415	1419	1420	1421	1424	1419	1415	1411	1413	1424	1435	1445	1451	1447	1446	1449	1448	1449	1440	1436	1440	1454	1462	1461	1452	1431	1417	1402	1415	1436	1449	1458	1453	1453	1455	1452	1450	1452	1459	1464	1462	1456	1458	1445	1433	1436	1432	1438	1452	1466	1457	1451	1444	1451	1440	1433	1425	1431	1431	1422	1413	1416	1428	1444	1451	1443	1436	1430	1429	1439	1443	1435	1424	1419	1426	1437	1444	1447	1449	1445	1447	1443	1436	1434	1435	1442	1450	1454	1452	1448	1451	1458	1459	1458	1457	1447	1444	1435	1433	1435	1446	1445	1445	1446	1457	1463	1467	1458	1443	1437	1430	1429	1431	1439	1449	1451	1426	1420	1433	1458	1468	1467	1462	1453	1446	1448	1447	1452	1455	1449	1449	1445	1431	1434	1474	1450	1443	1443	1468	1463	1444	1433	1443	1459	1455	1449	1443	1441	1446	1448	1442	1448	1451	1455	1455	1452	1440	1440	1436	1430	1433	1424	1421	1430	1435	1439	1434	1428	1433	1429	1434	1436	1440	1456	1465	1468	1458	1445	1443	1447	1451	1454	1461	1470	1478	1460	1456	1450	1455	1455	1445	1436	1433	1432	1433	1434	1435	1443	1454	1461	1461	1468	1473	1464	1447	1445	1451	1450	1456	1453	1457	1459	1454	1447	1440	1438	1446	1455	1462	1463	1459	1453	1459	1471	1480	1477	1458	1431	1434	1438	1453	1463	1459	1444	1447	1455	1458	1470	1472	1462	1445	1441	1442	1437	1431	1434	1445	1455	1454	1452	1447	1448	1449	1447	1431	1434	1449	1461	1464	1462	1460	1460	1465	1467	1460	1456	1462	1463	1463	1460	1460	1459	1466	1474	1467	1465	1465	1456	1471	1481	1484	1485	1491	1484	1478	0	0	0	0	0	0	0	0	0	0	0	0	0	0	0	0	0	0	0	0	0	0	0	1609	1606	1587	1568	1540	1536	1552	1554	1554	1553	1546	1532	1542	1554	1561	1558	1567	1573	1566	1556	1548	1541	1530	1530	1519	1525	1538	1554	1563	1556	1540	1531	0	0	0	0	0	0	0	0	0	0	0	0	0	0	0	0	0	0	1555	1521	1492	1497	1507	1519	1521	1518	1488	1475	1476	1488	1488	1481	1469	1458	1458	1457	1471	1477	1487	1498	1504	1499	1491	1490	1488	1485	1483	1491	1500	1509	1511	1507	1504	1498	1496	1498	1494	1492	1480	1480	1494	1495	1480	1475	1481	1487	1493	1497	1496	1489	1486	1482	1476	1470	1470	1461	1445	1443	1442	1438	1439	1436	1441	1447	1459	1471	1466	1467	1474	1474	1478	1469	1459	1449	1445	1448	1447	0	0	0	0	0	0	0
0	0	0	1367	1368	1373	1365	1372	1372	1392	1411	1425	1433	1443	1442	1442	1444	1441	1431	1412	1393	1387	1387	1393	1398	1398	1397	1401	1418	1426	1426	1440	1445	1454	1464	1459	1440	1433	1426	1429	1429	1451	1461	1436	1423	1414	1405	1423	1434	1442	1449	1455	1450	1450	1431	1423	1420	1414	1408	1417	1439	1443	1435	1426	1418	1422	1434	1440	1430	1430	1432	1442	1456	1471	1473	1473	1469	1445	1428	1425	1432	1443	1455	1459	1463	1460	1453	1429	1422	1419	1411	1404	1398	1397	1408	1414	1426	1424	1412	1412	1417	1426	1421	1405	1395	1403	1407	1410	1405	1404	1401	1401	1402	1405	1409	1412	1412	1408	1410	1420	1429	1432	1427	1417	1410	1412	1415	1416	1428	1426	1408	1418	1424	1429	1459	1474	1445	0	0	0	0	0	0	0	0	0	0	0	0	0	0	0	0	0	0	0	0	0	0	0	0	0	0	0	1697	1701	1692	1689	1689	1685	1706	1702	0	0	0	0	0	0	0	0	0	0	0	1485	1456	1438	1436	1434	1429	1422	1433	1430	1396	1381	1395	1420	1435	1435	1431	1423	1424	1423	1418	1412	1421	1431	1438	1446	1447	1441	1441	1444	1458	1467	1467	1445	1443	1448	1461	1464	1454	1433	1416	1406	1425	1446	1463	1464	1464	1460	1459	1449	1452	1452	1461	1466	1473	1468	1457	1443	1428	1426	1428	1435	1444	1462	1452	1440	1433	1434	1428	1418	1425	1427	1426	1413	1409	1407	1426	1440	1438	1436	1429	1435	1437	1440	1449	1448	1443	1432	1433	1434	1442	1443	1445	1447	1450	1453	1447	1439	1434	1434	1446	1452	1453	1447	1450	1464	1469	1469	1464	1461	1455	1450	1443	1447	1444	1442	1443	1444	1449	1462	1464	1458	1445	1434	1425	1428	1436	1444	1451	1437	1438	1435	1435	1455	1474	1470	1460	1453	1444	1439	1438	1443	1451	1456	1460	1452	1445	1455	1454	1425	1428	1433	1466	1460	1440	1434	1440	1449	1453	1451	1448	1448	1451	1454	1452	1447	1448	1445	1447	1442	1443	1440	1442	1443	1438	1435	1432	1429	1427	1430	1429	1436	1440	1444	1444	1443	1446	1457	1458	1459	1453	1443	1449	1451	1451	1450	1450	1449	1458	1462	1463	1461	1470	1469	1458	1451	1449	1445	1442	1441	1440	1445	1456	1464	1467	1473	1482	1475	1456	1458	1451	1453	1459	1462	1463	1465	1463	1441	1445	1444	1450	1462	1471	1475	1473	1465	1462	1470	1474	1467	1445	1427	1409	1429	1451	1458	1451	1434	1424	1441	1450	1467	1463	1451	1441	1443	1445	1440	1443	1436	1444	1457	1463	1465	1465	1471	1463	1461	1447	1445	1453	1462	1463	1457	1459	1466	1471	1483	1480	1470	1464	1463	1460	1464	1461	1469	1473	1477	1473	1465	1459	1466	1471	1474	1477	1474	1481	1486	1479	0	0	0	0	0	0	0	0	0	0	0	0	0	0	0	0	0	0	0	0	0	0	0	1598	1611	1604	1578	1559	1546	1548	1550	1551	1551	1548	1529	1538	1549	1554	1552	1555	1566	1573	1563	1552	1531	1500	1505	1514	1511	1505	1508	1512	1520	1516	1507	0	0	0	0	0	0	0	0	0	0	0	0	0	0	0	0	0	0	1563	1528	1495	1503	1507	1507	1511	1507	1487	1481	1488	1493	1495	1483	1471	1466	1469	1467	1466	1465	1473	1485	1499	1497	1495	1496	1493	1487	1487	1484	1493	1498	1501	1504	1499	1499	1498	1501	1497	1493	1492	1496	1502	1497	1489	1486	1479	1481	1484	1485	1489	1495	1492	1482	1475	1465	1465	1454	1448	1445	1449	1459	1463	1461	1460	1471	1480	1480	1475	1464	1467	1467	1466	1464	1456	1445	1437	1436	1447	0	0	0	0	0	0	0
0	0	0	1386	1385	1385	1381	1383	1383	1399	1413	1423	1432	1440	1439	1439	1435	1417	1397	1388	1387	1397	1397	1405	1407	1393	1391	1393	1391	1406	1406	1411	1421	1437	1453	1455	1438	1431	1424	1408	1408	1429	1440	1418	1415	1407	1406	1417	1437	1451	1451	1451	1443	1443	1439	1432	1432	1420	1412	1425	1433	1439	1433	1423	1417	1425	1432	1436	1431	1425	1436	1447	1458	1465	1465	1468	1464	1447	1429	1432	1443	1452	1455	1464	1465	1465	1452	1432	1424	1422	1410	1404	1401	1401	1404	1409	1413	1404	1408	1413	1420	1420	1416	1403	1399	1399	1404	1407	1404	1400	1395	1392	1399	1411	1419	1415	1412	1410	1415	1428	1440	1441	1430	1417	1416	1414	1422	1429	1431	1430	1423	1409	1419	1423	1447	1463	1437	0	0	0	0	0	0	0	0	0	0	0	0	0	0	0	0	0	0	0	0	0	0	0	0	0	0	0	1669	1689	1693	1695	1696	1705	2024	0	0	0	0	0	0	0	0	0	0	0	0	1474	1450	1435	1438	1439	1428	1427	1430	1432	1403	1398	1411	1440	1449	1447	1434	1428	1427	1420	1412	1415	1419	1430	1435	1434	1435	1429	1433	1440	1456	1477	1480	1479	1455	1448	1452	1458	1452	1439	1429	1417	1422	1443	1468	1471	1470	1462	1456	1448	1450	1450	1454	1461	1470	1467	1452	1428	1420	1411	1423	1426	1440	1441	1438	1433	1430	1428	1420	1415	1420	1423	1424	1415	1411	1408	1421	1432	1428	1422	1427	1433	1434	1443	1452	1461	1457	1441	1431	1433	1437	1447	1443	1451	1462	1469	1458	1444	1433	1430	1430	1431	1434	1437	1447	1463	1470	1474	1475	1471	1463	1462	1455	1454	1450	1451	1448	1452	1453	1461	1463	1455	1436	1425	1424	1425	1433	1444	1449	1441	1444	1439	1445	1460	1470	1468	1461	1452	1441	1433	1423	1431	1446	1461	1471	1471	1466	1459	1431	1411	1407	1415	1460	1458	1442	1431	1437	1444	1452	1454	1451	1440	1456	1455	1455	1449	1443	1442	1438	1439	1438	1437	1445	1448	1448	1441	1432	1425	1418	1416	1419	1437	1447	1453	1457	1456	1452	1449	1445	1445	1442	1446	1446	1457	1455	1454	1447	1451	1455	1465	1466	1471	1472	1477	1473	1469	1462	1460	1452	1448	1446	1452	1464	1469	1469	1468	1475	1484	1463	1466	1458	1458	1459	1461	1454	1458	1456	1444	1448	1450	1458	1470	1476	1478	1477	1474	1471	1466	1465	1460	1445	1427	1427	1438	1450	1450	1445	1433	1425	1436	1451	1449	1447	1449	1448	1453	1453	1451	1455	1451	1455	1453	1459	1469	1481	1478	1471	1467	1457	1457	1454	1444	1446	1453	1466	1473	1486	1490	1492	1478	1466	1462	1455	1464	1466	1465	1463	1459	1458	1460	1461	1468	1476	1478	1473	1471	1466	1483	1501	0	0	0	0	0	0	0	0	0	0	0	0	0	0	0	0	0	0	0	0	0	0	0	1598	1605	1609	1594	1567	1545	1532	1533	1544	1556	1549	1526	1530	1542	1551	1556	1551	1556	1557	1557	1536	1511	1509	1517	1522	1521	1508	1501	1509	1513	1515	1506	0	0	0	0	0	0	0	0	0	0	0	0	0	0	0	0	0	0	1557	1520	1500	1492	1503	1502	1503	1501	1489	1485	1496	1498	1500	1490	1477	1475	1479	1481	1475	1463	1459	1471	1485	1494	1495	1492	1493	1485	1476	1470	1480	1497	1505	1503	1501	1499	1495	1495	1496	1488	1491	1504	1503	1502	1495	1487	1480	1475	1464	1468	1479	1489	1489	1484	1473	1469	1469	1460	1454	1451	1467	1473	1479	1476	1479	1477	1482	1492	1487	1478	1469	1462	1462	1460	1452	1444	1439	1440	1450	0	0	0	0	0	0	0
0	0	0	1397	1401	1397	1396	1395	1395	1395	1403	1414	1424	1432	1433	1433	1420	1404	1385	1379	1389	1406	1406	1422	1405	1396	1396	1392	1390	1384	1384	1388	1396	1424	1433	1445	1444	1432	1424	1410	1410	1409	1413	1411	1407	1410	1423	1430	1447	1459	1456	1446	1446	1441	1442	1447	1440	1436	1433	1433	1436	1436	1435	1427	1422	1426	1434	1430	1433	1430	1435	1446	1446	1455	1455	1456	1459	1451	1448	1454	1455	1458	1461	1466	1471	1464	1455	1432	1423	1418	1404	1397	1398	1402	1404	1403	1392	1394	1400	1412	1420	1417	1411	1408	1399	1386	1393	1407	1411	1410	1401	1399	1410	1423	1433	1425	1422	1413	1426	1434	1445	1450	1448	1433	1423	1429	1428	1430	1429	1428	1423	1417	1419	1446	1438	1429	0	0	0	0	0	0	0	0	0	0	0	0	0	0	0	0	0	0	0	0	0	0	0	0	0	0	0	0	1652	1678	1695	1695	1709	1825	0	0	0	0	0	0	0	0	0	0	0	0	0	1451	1440	1433	1431	1441	1441	1439	1437	1427	1415	1417	1425	1446	1449	1445	1436	1429	1421	1412	1411	1415	1422	1430	1433	1430	1423	1415	1419	1428	1445	1469	1477	1472	1454	1444	1448	1451	1448	1445	1442	1426	1427	1445	1463	1473	1472	1466	1455	1448	1447	1451	1451	1452	1459	1461	1451	1431	1416	1415	1419	1422	1425	1429	1425	1426	1433	1429	1425	1421	1423	1429	1429	1424	1422	1422	1427	1430	1427	1425	1428	1438	1444	1449	1451	1456	1455	1431	1430	1430	1437	1444	1451	1464	1472	1481	1467	1450	1434	1427	1420	1420	1417	1430	1443	1459	1466	1466	1473	1473	1465	1464	1465	1469	1469	1464	1452	1452	1451	1460	1455	1448	1432	1428	1419	1424	1433	1440	1442	1439	1438	1445	1456	1463	1465	1458	1456	1449	1442	1437	1423	1420	1444	1463	1478	1475	1472	1451	1403	1396	1389	1409	1458	1458	1442	1433	1433	1445	1453	1454	1456	1455	1446	1456	1454	1449	1444	1439	1439	1433	1436	1438	1449	1460	1459	1445	1436	1430	1421	1412	1422	1435	1454	1457	1465	1463	1455	1447	1436	1433	1446	1452	1450	1460	1457	1453	1448	1447	1453	1460	1462	1460	1470	1464	1471	1471	1469	1462	1458	1451	1454	1458	1470	1474	1468	1467	1470	1486	1480	1471	1461	1459	1458	1456	1456	1449	1442	1432	1438	1446	1458	1466	1474	1468	1471	1477	1475	1476	1466	1462	1450	1447	1444	1448	1454	1456	1452	1442	1437	1441	1457	1445	1446	1448	1456	1474	1471	1470	1464	1454	1454	1450	1464	1477	1486	1479	1474	1469	1465	1467	1461	1446	1445	1456	1467	1474	1487	1498	1501	1491	1474	1463	1459	1462	1462	1460	1458	1448	1452	1454	1467	1477	1483	1478	1476	1474	1468	1488	1513	0	0	0	0	0	0	0	0	0	0	0	0	0	0	0	0	0	0	0	0	0	0	0	1584	1601	1596	1578	1554	1529	1522	1526	1533	1563	1550	1526	1514	1529	1546	1551	1545	1540	1537	1542	1536	1523	1525	1534	1532	1520	1503	1492	1506	1511	1511	1512	0	0	0	0	0	0	0	0	0	0	0	0	0	0	0	0	0	0	1529	1498	1499	1493	1500	1505	1501	1498	1482	1494	1499	1503	1501	1490	1484	1478	1488	1493	1487	1474	1467	1472	1488	1495	1495	1490	1489	1482	1471	1470	1489	1508	1507	1506	1505	1499	1489	1486	1485	1482	1492	1502	1505	1494	1481	1480	1466	1460	1457	1456	1467	1478	1485	1478	1474	1469	1469	1466	1460	1458	1468	1481	1481	1485	1479	1476	1469	1480	1493	1490	1479	1470	1470	1465	1459	1453	1443	1444	1440	0	0	0	0	0	0	0
0	0	0	1396	1393	1393	1398	1401	1401	1395	1400	1402	1420	1428	1427	1427	1416	1401	1386	1385	1396	1419	1419	1423	1414	1410	1400	1397	1402	1401	1401	1403	1394	1409	1419	1429	1433	1433	1427	1415	1415	1408	1400	1399	1419	1428	1438	1448	1457	1460	1448	1441	1441	1443	1452	1451	1445	1451	1447	1446	1449	1444	1442	1435	1428	1426	1430	1431	1436	1435	1438	1437	1440	1440	1440	1446	1456	1464	1461	1463	1462	1468	1462	1472	1470	1468	1454	1432	1425	1418	1410	1401	1399	1403	1411	1407	1400	1395	1400	1417	1424	1416	1402	1405	1398	1384	1390	1406	1417	1420	1408	1409	1417	1430	1437	1434	1434	1425	1430	1441	1450	1454	1445	1430	1428	1430	1433	1436	1430	1425	1426	1432	1443	1443	1395	1415	0	0	0	0	0	0	0	0	0	0	0	0	0	0	0	0	0	0	0	0	0	0	0	0	0	0	0	0	1642	1674	1690	1698	1712	2029	0	0	0	0	0	0	0	0	0	0	0	0	0	1446	1438	1434	1430	1438	1447	1443	1440	1432	1426	1425	1430	1436	1440	1441	1436	1425	1412	1414	1405	1407	1424	1430	1434	1434	1423	1413	1410	1419	1430	1443	1446	1446	1435	1431	1438	1445	1439	1438	1446	1437	1435	1444	1456	1470	1472	1461	1453	1450	1451	1448	1439	1440	1436	1443	1448	1435	1418	1411	1415	1416	1422	1426	1431	1431	1435	1434	1432	1433	1432	1432	1440	1444	1433	1437	1436	1433	1431	1432	1437	1447	1452	1450	1455	1453	1447	1434	1429	1433	1441	1453	1459	1468	1484	1484	1471	1449	1439	1427	1422	1422	1416	1424	1443	1452	1459	1463	1464	1465	1463	1464	1471	1473	1474	1475	1456	1456	1451	1455	1449	1442	1432	1428	1431	1423	1430	1434	1429	1434	1449	1455	1468	1470	1464	1458	1451	1446	1449	1447	1435	1429	1439	1451	1469	1473	1470	1455	1399	1385	1392	1437	1457	1456	1442	1435	1439	1446	1455	1456	1458	1456	1461	1461	1461	1455	1450	1445	1444	1433	1433	1446	1457	1467	1463	1449	1439	1441	1428	1421	1424	1436	1453	1467	1462	1458	1456	1461	1457	1460	1462	1465	1463	1462	1454	1452	1450	1449	1451	1458	1458	1454	1453	1443	1453	1467	1468	1464	1458	1454	1461	1469	1477	1474	1470	1468	1470	1485	1482	1473	1467	1460	1458	1452	1451	1444	1435	1418	1425	1437	1453	1461	1461	1461	1464	1474	1477	1486	1478	1469	1463	1460	1460	1465	1468	1465	1455	1452	1452	1460	1460	1449	1445	1448	1459	1470	1486	1485	1474	1455	1440	1447	1464	1475	1480	1479	1472	1467	1469	1464	1461	1449	1453	1457	1462	1471	1490	1503	1508	1497	1479	1465	1460	1462	1459	1457	1449	1448	1450	1452	1466	1478	1484	1485	1480	1475	1467	1485	1509	0	0	0	0	0	0	0	0	0	0	0	0	0	0	0	0	0	0	0	0	0	0	0	0	1585	1579	1553	1539	1520	1521	1522	1530	1561	1568	1534	1519	1530	1541	1551	1546	1530	1532	1531	1530	1529	1538	1544	1538	1517	1494	1479	1491	1507	1517	1534	0	0	0	0	0	0	0	0	0	0	0	0	0	0	0	0	0	0	1505	1492	1504	1500	1503	1507	1504	1496	1482	1493	1500	1504	1501	1497	1493	1488	1494	1494	1496	1494	1485	1487	1496	1504	1501	1496	1488	1483	1482	1489	1496	1510	1506	1502	1506	1509	1481	1470	1473	1484	1500	1499	1507	1482	1467	1461	1446	1441	1438	1454	1462	1470	1476	1477	1479	1478	1478	1476	1472	1469	1467	1473	1477	1475	1470	1458	1461	1475	1501	1504	1496	1482	1482	1474	1466	1456	1453	1444	1438	0	0	0	0	0	0	0
0	0	0	1386	1383	1383	1390	1399	1399	1397	1396	1399	1414	1424	1430	1430	1411	1407	1409	1416	1416	1431	1431	1429	1429	1423	1412	1411	1419	1419	1419	1432	1431	1415	1424	1425	1424	1428	1431	1424	1424	1405	1401	1412	1438	1453	1456	1462	1455	1452	1443	1433	1433	1446	1449	1444	1443	1451	1453	1449	1453	1450	1449	1445	1438	1437	1436	1437	1440	1439	1435	1437	1430	1431	1431	1436	1453	1464	1462	1454	1467	1466	1459	1467	1475	1471	1463	1440	1428	1420	1414	1408	1404	1410	1411	1412	1411	1413	1413	1432	1436	1426	1410	1401	1398	1386	1400	1418	1428	1424	1415	1414	1424	1434	1436	1433	1431	1425	1427	1442	1457	1460	1447	1435	1426	1430	1439	1441	1439	1431	1430	1431	1438	1398	1400	1418	0	0	0	0	0	0	0	0	0	0	0	0	0	0	0	0	0	0	0	0	0	0	0	0	0	0	0	0	1624	1653	1670	1680	1699	1709	1832	0	1716	0	0	0	0	0	0	0	0	0	0	1457	1439	1435	1436	1443	1450	1447	1441	1429	1429	1426	1423	1426	1425	1435	1427	1426	1420	1416	1417	1418	1420	1429	1432	1432	1429	1423	1419	1420	1426	1422	1414	1406	1402	1406	1420	1428	1426	1429	1433	1435	1441	1444	1455	1466	1468	1462	1458	1453	1451	1430	1424	1412	1427	1437	1447	1441	1428	1420	1424	1423	1424	1433	1439	1446	1447	1443	1440	1437	1440	1453	1459	1462	1459	1447	1440	1442	1443	1440	1446	1450	1452	1454	1453	1460	1449	1436	1440	1445	1453	1463	1462	1469	1485	1480	1474	1462	1445	1442	1434	1429	1434	1434	1438	1446	1445	1449	1450	1453	1454	1456	1464	1471	1474	1471	1464	1453	1457	1450	1448	1446	1439	1436	1436	1433	1428	1427	1434	1435	1453	1458	1472	1473	1462	1454	1446	1452	1460	1459	1451	1444	1450	1450	1453	1461	1465	1459	1453	1422	1454	1450	1464	1459	1451	1446	1450	1456	1459	1462	1458	1462	1466	1469	1466	1461	1461	1453	1443	1440	1437	1447	1457	1464	1461	1452	1446	1443	1437	1431	1435	1442	1451	1457	1454	1454	1454	1460	1466	1468	1479	1477	1471	1465	1459	1460	1458	1453	1453	1456	1452	1459	1432	1439	1448	1457	1456	1459	1459	1457	1468	1471	1473	1473	1469	1469	1468	1473	1489	1480	1470	1460	1452	1449	1448	1445	1435	1425	1423	1437	1446	1445	1450	1449	1447	1457	1468	1474	1478	1473	1466	1458	1463	1465	1469	1475	1469	1467	1468	1467	1466	1460	1452	1451	1460	1470	1472	1465	1458	1446	1436	1433	1450	1468	1480	1484	1475	1464	1468	1460	1455	1452	1452	1456	1458	1468	1484	1501	1509	1495	1475	1464	1466	1469	1462	1458	1458	1459	1460	1455	1462	1477	1484	1484	1478	1467	1465	1462	1480	0	0	0	0	0	0	0	0	0	0	0	0	0	0	0	0	0	0	0	0	0	0	0	0	1590	1567	1546	1524	1514	1520	1526	1534	1557	1575	1536	1536	1534	1538	1545	1550	1545	1530	1529	1532	1541	1546	1550	1544	1514	1483	1480	1493	1509	1527	1540	0	0	0	0	0	0	0	0	0	0	0	0	0	0	0	0	0	0	1483	1477	1515	1523	1519	1513	1511	1499	1487	1496	1508	1504	1501	1497	1499	1496	1494	1496	1500	1507	1507	1502	1503	1502	1497	1490	1486	1491	1493	1491	1493	1508	1501	1500	1499	1509	1484	1472	1472	1480	1501	1511	1512	1500	1483	1470	1457	1450	1450	1460	1471	1472	1477	1476	1482	1492	1492	1492	1485	1476	1463	1480	1482	1473	1461	1454	1466	1478	1509	1518	1512	1494	1494	1482	1470	1462	1458	1454	1443	0	0	0	0	0	0	0
0	0	0	1381	1384	1378	1391	1391	1391	1396	1398	1403	1413	1417	1417	1418	1413	1414	1421	1432	1440	1436	1436	1442	1434	1427	1425	1430	1431	1440	1440	1439	1447	1430	1428	1421	1423	1429	1426	1415	1415	1402	1410	1437	1449	1461	1463	1455	1446	1446	1441	1440	1440	1433	1447	1441	1438	1443	1445	1443	1445	1445	1448	1445	1445	1445	1449	1453	1442	1428	1435	1438	1434	1434	1428	1434	1446	1455	1459	1461	1457	1460	1448	1456	1468	1478	1475	1450	1432	1423	1410	1405	1403	1413	1420	1428	1427	1428	1439	1445	1444	1438	1427	1415	1405	1405	1416	1428	1424	1419	1411	1410	1415	1430	1436	1429	1426	1416	1422	1438	1460	1468	1453	1434	1420	1428	1446	1452	1447	1436	1428	1432	1431	1411	1420	1429	1423	0	0	0	0	0	0	0	0	0	0	0	0	0	0	0	0	0	0	0	0	0	0	0	0	0	0	0	1613	1639	1653	1665	1672	1681	1694	1705	1696	0	0	0	0	0	0	0	0	0	0	1479	1447	1435	1440	1448	1453	1454	1444	1431	1431	1426	1424	1414	1422	1428	1431	1433	1431	1427	1423	1423	1420	1418	1417	1424	1435	1433	1426	1425	1424	1412	1405	1399	1396	1400	1407	1415	1414	1418	1418	1435	1439	1443	1450	1458	1468	1465	1463	1448	1431	1418	1414	1415	1418	1432	1446	1449	1441	1434	1433	1434	1435	1439	1450	1458	1455	1449	1441	1441	1465	1473	1476	1474	1465	1444	1429	1429	1432	1438	1447	1436	1444	1448	1452	1463	1455	1449	1448	1456	1462	1467	1467	1466	1483	1482	1473	1468	1463	1457	1449	1447	1441	1439	1445	1445	1439	1436	1438	1439	1440	1441	1447	1457	1461	1463	1454	1456	1458	1455	1455	1452	1454	1453	1444	1440	1431	1431	1436	1445	1456	1461	1467	1467	1459	1449	1451	1456	1464	1468	1465	1464	1462	1456	1450	1441	1439	1454	1466	1485	1476	1461	1467	1463	1457	1452	1456	1463	1467	1472	1469	1474	1479	1480	1471	1469	1463	1456	1445	1439	1450	1455	1456	1458	1460	1453	1444	1439	1437	1442	1437	1434	1452	1453	1455	1450	1452	1459	1464	1469	1475	1483	1475	1473	1469	1468	1464	1459	1465	1466	1468	1459	1436	1438	1452	1459	1455	1452	1453	1458	1463	1468	1469	1470	1468	1471	1467	1472	1485	1488	1471	1458	1450	1452	1455	1460	1447	1437	1441	1447	1447	1444	1441	1437	1442	1452	1454	1465	1469	1468	1466	1463	1466	1467	1468	1468	1466	1470	1467	1473	1471	1471	1463	1460	1464	1464	1459	1450	1440	1443	1439	1440	1442	1450	1473	1491	1487	1473	1469	1462	1454	1451	1457	1456	1453	1460	1477	1491	1491	1481	1471	1467	1475	1482	1479	1466	1462	1470	1466	1465	1469	1481	1486	1485	1475	1458	1442	1442	1463	0	0	0	0	0	0	0	0	0	0	0	0	0	0	0	0	0	0	0	0	0	0	0	0	1602	1570	1547	1524	1512	1521	1524	1529	1550	1553	1539	1540	1537	1534	1537	1549	1551	1543	1521	1511	1522	1562	1566	1546	1525	1525	1531	1535	1536	1538	1558	0	0	0	0	0	0	0	0	0	0	0	0	0	0	0	0	0	1501	1473	1478	1502	1542	1544	1536	1527	1513	1507	1513	1517	1505	1498	1493	1493	1493	1487	1486	1492	1505	1514	1511	1501	1490	1489	1482	1485	1487	1491	1486	1478	1475	1476	1481	1488	1487	1479	1471	1456	1460	1482	1508	1518	1515	1509	1493	1478	1462	1470	1478	1479	1477	1478	1482	1490	1504	1501	1501	1493	1469	1472	1486	1487	1475	1464	1465	1468	1486	1503	1518	1512	1492	1492	1482	1478	1474	1474	1457	1456	0	0	0	0	0	0	0
0	0	0	1389	1390	1392	1398	1394	1394	1404	1406	1416	1418	1416	1416	1408	1404	1406	1423	1442	1443	1446	1446	1438	1429	1424	1425	1428	1431	1439	1439	1442	1434	1424	1416	1413	1407	1420	1418	1418	1421	1412	1425	1437	1449	1449	1444	1445	1438	1435	1438	1440	1440	1441	1440	1429	1431	1432	1434	1431	1434	1435	1443	1439	1437	1447	1458	1460	1441	1422	1426	1430	1433	1433	1432	1432	1438	1444	1456	1462	1459	1453	1440	1446	1461	1474	1468	1447	1427	1415	1405	1399	1405	1412	1421	1435	1439	1434	1445	1449	1450	1440	1428	1423	1419	1412	1419	1427	1420	1407	1393	1394	1404	1420	1431	1433	1430	1419	1417	1430	1454	1469	1459	1437	1420	1422	1440	1443	1440	1430	1426	1421	1435	1438	1450	1464	1441	0	0	0	0	0	0	0	0	0	0	0	0	0	0	0	0	0	0	0	0	0	0	0	0	0	0	0	1610	1639	1652	1652	1656	1660	1669	1685	1673	0	0	0	0	0	0	0	0	0	0	1477	1451	1442	1447	1452	1457	1461	1457	1438	1429	1430	1430	1419	1421	1430	1436	1443	1445	1441	1441	1433	1424	1416	1415	1424	1437	1439	1436	1427	1423	1419	1422	1417	1415	1411	1410	1416	1422	1425	1421	1431	1436	1434	1443	1445	1456	1466	1467	1454	1440	1430	1424	1423	1428	1440	1455	1455	1448	1440	1440	1439	1438	1444	1448	1457	1459	1446	1439	1448	1473	1489	1480	1476	1458	1438	1421	1418	1428	1437	1441	1428	1421	1424	1446	1449	1454	1451	1458	1461	1468	1466	1462	1466	1484	1483	1480	1473	1469	1469	1463	1453	1445	1443	1446	1443	1437	1435	1434	1431	1431	1433	1437	1444	1447	1450	1449	1457	1458	1456	1454	1454	1458	1459	1448	1438	1431	1432	1446	1460	1464	1466	1465	1453	1447	1455	1459	1468	1470	1467	1472	1474	1474	1473	1455	1440	1427	1437	1458	1479	1485	1466	1461	1463	1458	1452	1460	1467	1476	1476	1480	1481	1482	1484	1479	1470	1463	1457	1447	1444	1448	1460	1458	1456	1461	1458	1448	1438	1434	1445	1441	1437	1439	1447	1453	1447	1449	1451	1457	1464	1479	1484	1488	1492	1486	1472	1466	1466	1468	1472	1466	1465	1465	1465	1458	1445	1438	1439	1444	1447	1452	1468	1474	1475	1471	1470	1468	1470	1480	1477	1472	1462	1457	1458	1467	1475	1466	1457	1453	1453	1453	1444	1435	1433	1432	1445	1450	1460	1466	1466	1461	1463	1466	1465	1465	1465	1463	1464	1467	1470	1479	1478	1471	1462	1464	1463	1460	1442	1441	1454	1457	1458	1464	1462	1467	1471	1469	1479	1466	1461	1451	1449	1450	1455	1456	1457	1471	1475	1472	1468	1468	1475	1479	1480	1472	1469	1468	1472	1471	1467	1477	1492	1490	1483	1470	1445	1434	1442	1468	0	0	0	0	0	0	0	0	0	0	0	0	0	0	0	0	0	0	0	0	0	0	0	0	1601	1581	1562	1538	1528	1518	1533	1546	1556	1560	1557	1562	1547	1542	1543	1540	1534	1521	1516	1513	1518	1535	1554	1557	1560	1564	1553	1554	1557	1548	1562	0	0	0	0	0	0	0	0	0	0	0	0	0	0	0	0	0	1493	1493	1490	1504	1540	1548	1536	1525	1515	1514	1519	1520	1509	1498	1490	1482	1483	1481	1480	1482	1493	1507	1506	1491	1484	1482	1481	1489	1494	1493	1485	1477	1469	1464	1478	1483	1472	1475	1468	1464	1462	1476	1503	1514	1522	1519	1500	1485	1478	1490	1488	1489	1494	1496	1507	1521	1526	1516	1516	1507	1482	1483	1495	1500	1495	1487	1486	1481	1482	1491	1497	1500	1486	1486	1496	1495	1489	1482	1461	1459	0	0	0	0	0	0	0
0	0	0	1411	1408	1399	1400	1401	1401	1399	1405	1417	1419	1414	1414	1409	1407	1417	1427	1442	1455	1455	1448	1432	1422	1423	1419	1420	1423	1428	1428	1427	1423	1413	1400	1402	1403	1410	1415	1411	1414	1410	1423	1436	1431	1431	1434	1432	1424	1432	1434	1439	1439	1437	1433	1433	1433	1430	1421	1423	1421	1424	1427	1428	1420	1438	1470	1469	1453	1433	1431	1438	1437	1437	1436	1437	1437	1444	1454	1464	1462	1455	1447	1453	1458	1461	1456	1443	1429	1422	1408	1404	1407	1406	1419	1427	1433	1440	1447	1451	1451	1438	1428	1422	1414	1413	1410	1412	1411	1403	1395	1389	1395	1403	1419	1435	1437	1430	1410	1414	1435	1458	1459	1437	1425	1421	1427	1426	1421	1423	1431	1430	1426	1463	1484	1502	1460	0	0	0	0	0	0	0	0	0	0	0	0	0	0	0	0	0	0	0	0	0	0	0	0	0	0	0	1636	1645	1653	1651	1649	1654	1655	1665	1666	0	0	0	0	0	0	0	0	0	1495	1479	1449	1442	1446	1449	1455	1466	1465	1443	1434	1430	1430	1427	1426	1436	1446	1453	1457	1460	1454	1447	1438	1423	1429	1428	1428	1439	1434	1427	1430	1430	1443	1445	1442	1435	1432	1435	1441	1441	1423	1424	1432	1440	1443	1443	1450	1459	1462	1458	1456	1452	1448	1438	1438	1451	1464	1466	1456	1444	1439	1429	1433	1436	1440	1440	1446	1449	1450	1451	1473	1486	1481	1474	1459	1439	1423	1425	1437	1443	1432	1425	1416	1426	1424	1436	1443	1449	1456	1458	1463	1464	1467	1478	1484	1481	1482	1474	1463	1470	1463	1449	1439	1434	1439	1445	1456	1438	1432	1430	1430	1430	1432	1435	1438	1445	1456	1455	1455	1451	1447	1457	1467	1467	1454	1438	1436	1445	1461	1469	1473	1473	1464	1449	1446	1458	1465	1472	1466	1473	1479	1484	1487	1480	1462	1439	1424	1429	1449	1481	1469	1469	1445	1451	1451	1453	1457	1471	1478	1471	1468	1460	1469	1488	1487	1471	1451	1436	1437	1438	1446	1447	1441	1449	1460	1467	1465	1465	1455	1449	1449	1435	1436	1443	1446	1454	1455	1454	1457	1465	1466	1462	1461	1451	1449	1450	1455	1458	1455	1452	1449	1449	1455	1455	1459	1450	1451	1453	1464	1466	1464	1471	1487	1498	1489	1473	1466	1463	1459	1451	1456	1452	1455	1463	1477	1485	1485	1473	1465	1460	1460	1451	1455	1468	1455	1445	1449	1451	1448	1456	1463	1464	1467	1468	1467	1470	1477	1475	1475	1473	1476	1473	1461	1455	1458	1456	1463	1470	1479	1476	1473	1467	1461	1459	1458	1460	1459	1446	1438	1424	1452	1442	1446	1451	1456	1458	1466	1465	1466	1462	1469	1478	1483	1480	1475	1463	1464	1460	1471	1481	1504	1514	1500	1477	1465	1450	1456	1479	0	0	0	0	0	0	0	0	0	0	0	0	0	0	0	0	0	0	0	0	0	0	0	0	1619	1590	1586	1566	1560	1547	1540	1543	1552	1557	1557	1559	1561	1552	1554	1548	1546	1538	1529	1517	1512	1511	1506	1519	1541	1559	1559	1538	1538	1545	1539	1544	0	0	0	0	0	0	0	0	0	0	0	0	0	0	0	0	1497	1503	1501	1505	1506	1529	1533	1519	1507	1494	1507	1517	1516	1506	1503	1490	1481	1476	1473	1473	1477	1484	1491	1492	1480	1478	1476	1482	1491	1501	1497	1495	1486	1477	1472	1465	1464	1463	1471	1483	1485	1484	1491	1510	1514	1513	1512	1499	1483	1484	1496	1503	1502	1504	1512	1528	1528	1528	1519	1519	1500	1506	1508	1503	1507	1513	1511	1506	1494	1485	1493	1491	1494	1494	1494	1496	1507	1494	1470	1448	1444	0	0	0	0	0	0	0
0	0	0	1443	1423	1420	1407	1400	1400	1401	1402	1407	1411	1405	1405	1410	1418	1432	1451	1460	1463	1463	1455	1429	1426	1415	1409	1404	1414	1418	1418	1422	1419	1406	1394	1391	1395	1409	1417	1417	1428	1437	1423	1421	1428	1428	1424	1422	1424	1430	1428	1424	1424	1427	1424	1421	1427	1430	1413	1420	1426	1427	1424	1421	1421	1446	1471	1464	1452	1440	1438	1442	1446	1446	1452	1448	1447	1457	1464	1474	1474	1466	1463	1460	1458	1453	1442	1436	1430	1431	1426	1414	1416	1414	1416	1425	1431	1442	1453	1460	1458	1443	1429	1422	1415	1408	1399	1401	1403	1405	1408	1404	1400	1399	1412	1424	1436	1431	1409	1411	1428	1444	1444	1433	1428	1424	1418	1411	1412	1416	1424	1441	1441	1482	1500	1501	1454	0	0	0	0	0	0	0	0	0	0	0	0	0	0	0	0	0	0	0	0	0	0	0	0	0	0	0	1677	1660	1660	1652	1662	1657	1652	1651	0	0	0	0	0	0	1451	1441	1454	1478	1470	1436	1434	1437	1440	1442	1453	1459	1457	1438	1432	1434	1436	1429	1429	1441	1453	1466	1466	1465	1464	1456	1450	1445	1441	1446	1439	1429	1428	1428	1432	1451	1456	1458	1445	1441	1449	1456	1465	1465	1448	1428	1435	1442	1444	1438	1438	1445	1448	1448	1460	1472	1469	1470	1469	1470	1469	1475	1457	1440	1429	1412	1416	1419	1420	1422	1417	1425	1434	1442	1454	1467	1471	1468	1469	1459	1445	1444	1453	1463	1447	1436	1431	1435	1420	1434	1439	1445	1450	1455	1458	1459	1462	1475	1479	1477	1470	1455	1462	1453	1437	1429	1424	1424	1438	1461	1466	1450	1435	1428	1425	1425	1421	1420	1437	1457	1461	1464	1457	1445	1441	1454	1473	1484	1478	1449	1441	1458	1471	1474	1478	1465	1449	1445	1451	1458	1472	1477	1469	1476	1490	1500	1506	1486	1462	1437	1419	1427	1481	1499	1501	1467	1456	1433	1440	1449	1461	1471	1472	1466	1451	1458	1473	1487	1489	1479	1456	1440	1431	1434	1436	1439	1437	1447	1454	1462	1457	1457	1452	1455	1449	1441	1439	1444	1446	1454	1460	1465	1462	1463	1460	1457	1457	1445	1441	1446	1455	1458	1457	1455	1456	1455	1457	1458	1459	1454	1457	1465	1476	1485	1487	1497	1497	1497	1482	1469	1461	1459	1453	1450	1459	1466	1469	1476	1479	1477	1467	1468	1478	1484	1468	1470	1473	1469	1461	1457	1458	1467	1468	1458	1449	1442	1448	1459	1476	1487	1492	1492	1482	1468	1463	1455	1448	1448	1452	1450	1456	1455	1457	1457	1457	1453	1449	1454	1458	1460	1456	1447	1439	1434	1449	1466	1476	1470	1464	1464	1463	1467	1468	1474	1480	1487	1490	1485	1474	1476	1470	1464	1461	1499	1521	1509	1491	1467	1465	1461	1457	1482	1493	0	0	0	0	0	0	0	0	0	0	0	0	0	0	0	0	0	0	0	0	0	0	0	1610	1598	1594	1581	1568	1541	1554	1562	1558	1558	1554	1557	1553	1546	1540	1544	1543	1537	1534	1530	1528	1532	1533	1540	1550	1554	1551	1540	1522	1520	1528	1507	0	0	0	0	0	0	0	0	0	0	0	0	0	0	0	0	1505	1501	1504	1515	1502	1509	1503	1489	1479	1470	1486	1508	1504	1496	1494	1488	1478	1475	1473	1477	1481	1480	1480	1481	1478	1477	1477	1486	1493	1500	1499	1496	1494	1493	1481	1473	1471	1470	1478	1491	1500	1496	1504	1507	1503	1496	1481	1478	1476	1490	1502	1511	1504	1496	1506	1520	1518	1508	1486	1486	1488	1498	1502	1507	1504	1514	1519	1512	1506	1500	1495	1493	1495	1491	1491	1497	1494	1478	1455	1438	1436	0	0	0	0	0	0	0
0	0	0	1449	1438	1425	1413	1412	1412	1407	1400	1396	1395	1394	1394	1408	1428	1446	1455	1464	1466	1466	1454	1436	1418	1404	1393	1391	1397	1397	1414	1427	1429	1417	1397	1382	1389	1410	1424	1424	1434	1435	1438	1436	1427	1431	1431	1431	1431	1428	1423	1423	1419	1415	1419	1422	1424	1423	1422	1427	1445	1442	1433	1430	1437	1456	1461	1452	1449	1450	1449	1450	1450	1457	1467	1468	1466	1476	1480	1478	1474	1473	1469	1464	1454	1451	1444	1436	1441	1439	1437	1431	1423	1421	1419	1426	1437	1446	1457	1461	1458	1448	1432	1423	1415	1409	1399	1404	1414	1423	1426	1426	1414	1403	1401	1410	1420	1427	1416	1417	1423	1435	1440	1436	1432	1426	1417	1408	1404	1409	1426	1449	1450	1480	1490	1484	1440	0	0	0	0	0	0	0	0	0	0	0	0	0	0	0	0	0	0	0	0	0	0	0	0	0	0	0	1706	1678	1668	1658	1669	1666	1664	1667	0	0	0	0	0	1447	1443	1440	1441	1429	1427	1417	1427	1433	1437	1435	1439	1445	1447	1445	1433	1436	1435	1430	1429	1443	1460	1475	1471	1463	1461	1456	1451	1448	1458	1459	1444	1436	1431	1427	1439	1451	1456	1445	1432	1423	1430	1438	1454	1459	1456	1435	1441	1434	1436	1431	1430	1429	1429	1430	1442	1468	1476	1479	1476	1476	1470	1473	1450	1439	1427	1420	1418	1417	1413	1415	1419	1418	1423	1437	1446	1452	1456	1465	1460	1456	1447	1437	1442	1447	1456	1457	1448	1451	1431	1433	1438	1453	1458	1455	1448	1445	1451	1470	1477	1476	1464	1440	1424	1421	1416	1424	1431	1445	1447	1457	1462	1454	1439	1432	1431	1422	1422	1443	1456	1466	1472	1462	1455	1441	1436	1444	1454	1464	1467	1463	1448	1449	1450	1446	1443	1446	1446	1442	1446	1455	1466	1469	1464	1466	1467	1479	1492	1489	1487	1462	1461	1486	1524	1556	1539	1518	1460	1426	1437	1451	1459	1462	1455	1450	1438	1455	1469	1486	1489	1485	1467	1450	1438	1434	1432	1433	1432	1440	1448	1456	1449	1447	1442	1442	1439	1439	1437	1438	1442	1454	1463	1476	1475	1474	1467	1466	1467	1464	1465	1459	1457	1462	1461	1455	1457	1455	1453	1451	1455	1461	1462	1473	1481	1494	1497	1508	1509	1501	1487	1474	1459	1458	1462	1460	1468	1474	1478	1479	1474	1473	1464	1466	1477	1486	1464	1477	1477	1471	1462	1456	1457	1457	1454	1452	1444	1446	1451	1462	1477	1498	1502	1493	1473	1466	1462	1434	1438	1444	1452	1457	1454	1455	1457	1457	1454	1452	1446	1449	1457	1459	1460	1459	1457	1458	1467	1474	1483	1472	1465	1462	1468	1478	1479	1473	1477	1479	1479	1482	1488	1484	1468	1457	1459	1486	1508	1497	1479	1466	1457	1452	1456	1467	1480	1514	0	0	0	0	0	0	0	0	0	0	0	0	0	0	0	0	0	0	0	0	0	0	1602	1606	1587	1574	1543	1529	1565	1571	1570	1564	1559	1556	1553	1542	1536	1538	1534	1533	1524	1527	1532	1528	1538	1545	1552	1560	1556	1549	1523	1523	1521	1500	0	0	0	0	0	0	0	0	0	0	0	0	0	0	0	0	0	1500	1494	1501	1492	1487	1482	1469	1461	1453	1465	1485	1488	1488	1488	1485	1484	1486	1490	1486	1491	1485	1482	1483	1486	1485	1486	1488	1494	1495	1494	1499	1501	1503	1500	1499	1500	1493	1503	1509	1506	1508	1501	1500	1490	1479	1464	1461	1475	1492	1499	1500	1493	1487	1495	1509	1506	1494	1472	1472	1466	1471	1485	1496	1496	1501	1512	1509	1505	1509	1513	1509	1497	1494	1487	1487	1482	1473	1454	1439	1434	0	0	0	0	0	0	0
0	0	0	1406	1423	1432	1437	1435	1435	1427	1410	1395	1386	1389	1389	1398	1416	1435	1445	1451	1447	1447	1441	1428	1415	1400	1388	1386	1396	1396	1409	1424	1432	1426	1414	1385	1392	1410	1421	1421	1432	1437	1452	1443	1430	1420	1417	1429	1438	1434	1426	1426	1418	1411	1414	1419	1423	1423	1429	1440	1460	1459	1455	1443	1448	1450	1442	1444	1445	1457	1463	1461	1461	1464	1476	1482	1483	1480	1483	1474	1465	1469	1469	1464	1454	1451	1451	1449	1449	1447	1448	1424	1419	1415	1421	1430	1439	1447	1458	1449	1441	1432	1426	1429	1426	1412	1406	1421	1438	1450	1447	1438	1426	1413	1401	1404	1413	1424	1426	1425	1425	1427	1430	1428	1439	1435	1419	1412	1406	1408	1426	1457	1451	1455	1462	1455	1429	0	0	0	0	0	0	0	0	0	0	0	0	0	0	0	0	0	0	0	0	0	0	0	0	0	0	0	1936	1673	1667	1667	1665	1659	1659	1671	0	0	0	0	0	1441	1436	1428	1397	1388	1387	1407	1422	1436	1441	1429	1424	1426	1433	1445	1447	1443	1432	1426	1428	1444	1453	1468	1467	1470	1461	1449	1446	1450	1449	1449	1443	1433	1426	1430	1440	1423	1414	1412	1421	1415	1413	1428	1437	1450	1449	1444	1438	1425	1427	1433	1435	1425	1420	1418	1424	1452	1471	1478	1469	1473	1470	1462	1451	1432	1431	1419	1419	1420	1420	1417	1416	1416	1423	1428	1437	1446	1457	1461	1459	1452	1432	1430	1427	1438	1446	1449	1449	1440	1438	1438	1442	1454	1459	1452	1442	1440	1446	1460	1461	1458	1445	1435	1427	1423	1418	1431	1440	1449	1456	1449	1448	1440	1429	1427	1420	1425	1435	1448	1458	1460	1459	1455	1445	1439	1438	1444	1449	1455	1460	1454	1448	1451	1444	1448	1448	1453	1453	1449	1451	1452	1452	1450	1452	1451	1461	1470	1476	1475	1455	1449	1460	0	0	0	0	1519	1448	1427	1437	1443	1449	1450	1445	1442	1436	1452	1466	1476	1484	1477	1461	1452	1443	1444	1443	1438	1433	1438	1441	1441	1444	1441	1434	1435	1432	1429	1442	1441	1436	1451	1463	1482	1487	1487	1488	1484	1478	1470	1458	1456	1453	1454	1458	1456	1453	1445	1435	1432	1450	1462	1468	1474	1471	1471	1479	1497	1509	1504	1486	1476	1465	1460	1451	1446	1455	1467	1473	1473	1465	1455	1452	1455	1465	1463	1476	1478	1470	1462	1444	1427	1436	1442	1445	1443	1445	1453	1463	1472	1483	1502	1504	1487	1473	1465	1460	1437	1442	1452	1464	1465	1458	1455	1459	1465	1463	1459	1455	1459	1458	1461	1464	1469	1474	1473	1467	1475	1479	1463	1452	1460	1468	1479	1479	1477	1469	1471	1474	1479	1486	1487	1473	1457	1456	1473	1473	1465	1449	1448	1444	1445	1450	1458	1470	1480	1496	0	0	0	0	0	0	0	0	0	0	0	0	0	0	0	0	0	0	0	0	0	1598	1598	1574	1556	1526	1523	1563	1579	1573	1564	1564	1563	1552	1538	1533	1535	1530	1529	1522	1525	1521	1524	1529	1544	1556	1561	1562	1553	1526	1517	1526	1512	0	0	0	0	0	0	0	0	0	0	0	0	0	0	0	0	0	1488	1493	1482	1484	1476	1478	1469	1462	1454	1458	1474	1479	1481	1479	1478	1487	1493	1502	1505	1504	1492	1489	1481	1478	1492	1490	1490	1494	1490	1490	1498	1526	1514	1510	1503	1504	1505	1508	1522	1520	1505	1501	1498	1499	1486	1453	1457	1474	1491	1493	1488	1476	1469	1487	1509	1517	1497	1471	1471	1459	1463	1472	1489	1493	1498	1502	1492	1494	1504	1499	1495	1491	1483	1479	1479	1482	1480	1467	1446	1440	0	0	0	0	0	0	0
0	0	0	1394	1406	1424	1438	1438	1450	1442	1419	1398	1382	1389	1389	1392	1403	1421	1431	1430	1425	1425	1426	1419	1412	1399	1393	1392	1401	1401	1406	1422	1424	1422	1413	1401	1398	1406	1422	1422	1448	1478	1471	1460	1441	1423	1426	1434	1455	1449	1426	1426	1415	1415	1419	1423	1425	1429	1431	1444	1465	1463	1466	1459	1457	1450	1444	1444	1454	1463	1467	1470	1470	1477	1483	1479	1479	1477	1465	1457	1452	1453	1454	1456	1451	1455	1459	1455	1450	1449	1442	1423	1414	1413	1422	1425	1429	1442	1447	1439	1424	1417	1415	1424	1427	1419	1419	1432	1446	1460	1451	1443	1430	1423	1411	1408	1415	1419	1425	1428	1429	1426	1424	1426	1439	1434	1429	1422	1414	1417	1428	1458	1450	1436	1444	1437	1417	0	0	0	0	0	0	0	0	0	0	0	0	0	0	0	0	0	0	0	0	0	0	0	0	0	0	0	1699	1669	1663	1660	1656	1660	1658	1683	1703	0	0	0	1414	1435	1428	1409	1391	1391	1387	1395	1414	1435	1441	1430	1405	1405	1417	1437	1443	1437	1428	1412	1411	1423	1449	1458	1461	1470	1455	1444	1436	1433	1435	1435	1425	1414	1406	1408	1415	1410	1407	1405	1413	1416	1413	1424	1426	1435	1432	1428	1428	1428	1435	1438	1431	1432	1417	1415	1417	1437	1459	1456	1460	1465	1458	1451	1443	1433	1425	1419	1425	1430	1427	1422	1415	1411	1412	1419	1432	1447	1457	1454	1447	1437	1425	1419	1424	1432	1438	1442	1444	1438	1437	1436	1439	1440	1438	1440	1437	1437	1439	1437	1438	1440	1444	1442	1438	1428	1424	1433	1444	1446	1439	1433	1424	1419	1417	1423	1422	1427	1442	1445	1449	1451	1453	1444	1441	1437	1436	1441	1451	1459	1456	1450	1448	1445	1450	1447	1456	1459	1455	1454	1451	1447	1443	1447	1446	1452	1458	1457	1455	1450	1441	1440	0	0	0	0	0	1465	1441	1428	1432	1436	1442	1443	1442	1439	1443	1450	1463	1462	1467	1459	1451	1448	1448	1452	1452	1449	1443	1443	1449	1450	1441	1439	1433	1433	1437	1440	1447	1448	1439	1447	1461	1478	1490	1494	1491	1485	1474	1460	1445	1445	1445	1449	1452	1448	1440	1435	1430	1435	1444	1460	1467	1469	1463	1457	1465	1485	1496	1495	1492	1480	1469	1456	1443	1432	1433	1434	1443	1451	1440	1442	1440	1439	1445	1459	1471	1470	1464	1448	1433	1427	1425	1436	1437	1438	1442	1448	1457	1463	1476	1490	1496	1485	1477	1474	1479	1464	1453	1458	1477	1474	1463	1463	1469	1479	1480	1476	1468	1464	1464	1469	1475	1485	1479	1467	1454	1463	1480	1464	1461	1464	1468	1476	1478	1479	1480	1475	1466	1468	1476	1490	1486	1468	1461	1466	1464	1459	1451	1445	1450	1452	1459	1465	1469	1471	1486	0	0	0	0	0	0	0	0	0	0	0	0	0	0	0	0	0	0	0	0	1588	1611	1587	1566	1553	1535	1524	1565	1578	1570	1563	1561	1559	1546	1539	1539	1537	1542	1535	1533	1534	1524	1522	1530	1541	1555	1563	1563	1551	1529	1520	1532	1543	0	0	0	0	0	0	0	0	0	0	0	0	0	0	0	0	0	1489	1487	1481	1473	1476	1489	1487	1479	1467	1453	1465	1471	1477	1481	1478	1485	1499	1502	1511	1509	1491	1479	1474	1473	1480	1479	1487	1489	1487	1493	1512	1526	1513	1509	1504	1488	1491	1512	1521	1517	1508	1501	1505	1499	1485	1476	1489	1497	1498	1493	1482	1470	1469	1479	1513	1524	1522	1489	1468	1468	1471	1473	1481	1488	1494	1483	1476	1475	1473	1486	1482	1478	1471	1468	1468	1471	1478	1471	1454	1447	0	0	0	0	0	0	0
0	0	0	1397	1398	1414	1435	1435	1447	1443	1418	1399	1385	1382	1382	1381	1399	1411	1419	1421	1420	1420	1422	1417	1418	1411	1401	1398	1402	1402	1417	1421	1424	1420	1415	1408	1410	1416	1442	1442	1471	1485	1481	1469	1448	1433	1429	1442	1462	1454	1424	1424	1428	1435	1448	1437	1439	1431	1433	1451	1460	1463	1462	1459	1458	1456	1454	1453	1459	1466	1474	1476	1476	1481	1479	1476	1472	1462	1451	1440	1434	1436	1445	1451	1452	1451	1460	1448	1434	1424	1419	1412	1413	1411	1417	1420	1424	1433	1437	1431	1417	1404	1400	1409	1415	1413	1415	1418	1444	1452	1449	1433	1424	1426	1422	1414	1416	1414	1421	1433	1432	1431	1426	1430	1430	1434	1433	1431	1426	1427	1438	1455	1430	1423	1429	1430	1424	0	0	0	0	0	0	0	0	0	0	0	0	0	0	0	0	0	0	0	0	0	0	0	0	0	0	0	1677	1663	1661	1657	1654	1657	1668	1686	1691	0	0	0	1387	1425	1424	1418	1408	1397	1396	1395	1405	1420	1431	1422	1398	1392	1399	1425	1430	1427	1415	1405	1410	1418	1437	1445	1453	1456	1454	1424	1415	1419	1439	1445	1442	1426	1406	1397	1398	1400	1403	1408	1410	1416	1419	1419	1422	1423	1418	1418	1424	1428	1435	1439	1441	1427	1418	1412	1419	1433	1442	1449	1456	1456	1449	1442	1437	1432	1421	1424	1432	1434	1433	1422	1414	1409	1406	1415	1426	1438	1444	1439	1431	1426	1421	1424	1429	1433	1437	1446	1438	1435	1434	1439	1436	1429	1421	1428	1433	1437	1429	1418	1418	1427	1450	1467	1464	1448	1431	1425	1440	1440	1429	1417	1414	1411	1409	1417	1430	1435	1442	1445	1443	1441	1443	1439	1436	1433	1441	1448	1458	1463	1461	1455	1441	1443	1444	1443	1459	1462	1464	1454	1450	1447	1447	1446	1449	1452	1453	1445	1434	1426	1423	1441	0	0	0	0	0	1433	1439	1428	1432	1439	1439	1439	1438	1440	1442	1444	1453	1458	1461	1453	1452	1454	1454	1455	1449	1445	1447	1451	1454	1453	1445	1436	1431	1430	1435	1443	1447	1453	1447	1451	1462	1471	1479	1484	1480	1478	1464	1448	1437	1439	1445	1447	1445	1437	1433	1433	1443	1448	1453	1458	1465	1463	1455	1450	1454	1474	1481	1485	1477	1477	1468	1461	1443	1424	1426	1421	1429	1437	1430	1431	1432	1437	1446	1455	1457	1455	1454	1439	1427	1424	1436	1438	1440	1437	1440	1447	1456	1455	1465	1482	1490	1492	1486	1490	1489	1469	1468	1472	1476	1472	1459	1463	1473	1485	1488	1486	1476	1472	1474	1479	1491	1492	1480	1451	1445	1459	1476	1469	1469	1478	1477	1472	1475	1479	1480	1478	1467	1466	1480	1485	1485	1470	1461	1454	1454	1455	1450	1450	1455	1460	1468	1472	1467	1489	0	0	0	0	0	0	0	0	0	0	0	0	0	0	0	0	0	0	0	0	0	1622	1624	1597	1567	1551	1542	1531	1561	1571	1558	1551	1561	1558	1540	1538	1542	1544	1545	1544	1543	1541	1529	1526	1525	1537	1546	1560	1561	1551	1524	1530	1553	1561	0	0	0	0	0	0	0	0	0	0	0	0	0	0	0	0	0	1501	1496	1498	1490	1501	1507	1505	1500	1480	1454	1450	1460	1465	1468	1475	1482	1489	1501	1504	1499	1490	1473	1472	1472	1470	1464	1477	1482	1482	1488	1493	1499	1496	1492	1487	1476	1473	1503	1511	1510	1504	1504	1503	1500	1486	1476	1480	1496	1502	1500	1493	1484	1480	1488	1512	1523	1514	1492	1482	1482	1477	1485	1479	1477	1473	1470	1469	1471	1472	1478	1475	1468	1460	1447	1447	1453	1460	1459	1451	1449	0	0	0	0	0	0	0
0	0	0	1410	1414	1416	1426	1426	1436	1436	1422	1405	1389	1381	1381	1384	1396	1409	1414	1413	1418	1418	1430	1432	1430	1416	1402	1398	1408	1408	1422	1425	1425	1425	1425	1428	1424	1423	1441	1441	1471	1474	1465	1455	1441	1434	1434	1441	1457	1448	1434	1434	1434	1449	1465	1477	1476	1461	1452	1457	1456	1456	1452	1446	1451	1453	1449	1453	1455	1456	1453	1460	1460	1470	1468	1444	1450	1446	1436	1427	1424	1428	1437	1444	1452	1460	1453	1435	1426	1411	1407	1409	1406	1408	1413	1417	1418	1428	1433	1426	1411	1394	1394	1397	1400	1405	1408	1417	1428	1438	1439	1425	1419	1418	1419	1409	1408	1416	1431	1434	1436	1435	1437	1438	1437	1431	1430	1430	1433	1440	1444	1444	1432	1422	1428	1429	1416	0	0	0	0	0	0	0	0	0	0	0	0	0	0	0	0	0	0	0	0	0	0	0	0	0	0	0	1658	1654	1659	1652	1659	1666	1675	1686	1686	0	0	0	1399	1428	1426	1424	1417	1416	1405	1394	1391	1394	1409	1408	1396	1389	1388	1417	1421	1416	1407	1417	1415	1434	1435	1439	1443	1442	1434	1419	1415	1437	1458	1473	1455	1438	1414	1400	1387	1394	1407	1417	1422	1423	1421	1425	1417	1417	1409	1407	1421	1424	1430	1440	1435	1422	1416	1417	1422	1429	1430	1441	1442	1440	1441	1444	1436	1425	1424	1431	1436	1432	1430	1421	1420	1417	1407	1415	1428	1432	1434	1429	1425	1420	1425	1427	1432	1435	1438	1434	1432	1428	1431	1434	1430	1425	1416	1422	1435	1440	1419	1411	1418	1431	1458	1479	1484	1463	1444	1429	1420	1430	1418	1414	1407	1406	1409	1414	1427	1433	1440	1439	1436	1434	1433	1431	1430	1431	1440	1452	1454	1454	1456	1445	1436	1433	1428	1443	1450	1469	1470	1459	1445	1440	1445	1451	1452	1450	1442	1434	1424	1419	1422	1447	0	0	0	0	1414	1420	1435	1437	1438	1436	1439	1442	1440	1437	1438	1444	1441	1445	1452	1457	1460	1464	1462	1453	1450	1445	1438	1450	1458	1461	1449	1438	1428	1427	1430	1435	1438	1444	1449	1454	1460	1464	1462	1464	1460	1456	1449	1441	1439	1439	1449	1450	1443	1432	1432	1437	1441	1446	1447	1447	1451	1455	1451	1447	1448	1463	1476	1476	1473	1467	1464	1459	1448	1446	1423	1426	1425	1425	1422	1426	1432	1436	1441	1448	1450	1451	1446	1436	1435	1440	1446	1446	1443	1444	1456	1461	1462	1456	1460	1473	1487	1490	1486	1490	1486	1472	1467	1470	1473	1464	1454	1463	1471	1478	1485	1486	1485	1478	1483	1489	1494	1490	1467	1449	1448	1477	1465	1464	1475	1484	1480	1477	1472	1485	1488	1485	1466	1461	1469	1477	1474	1459	1447	1450	1460	1467	1471	1469	1465	1469	1478	1499	1506	1518	0	0	0	0	0	0	0	0	0	0	0	0	0	0	0	0	0	0	0	0	1629	1635	1622	1587	1568	1551	1537	1522	1549	1564	1545	1540	1556	1558	1541	1543	1549	1554	1555	1553	1545	1538	1534	1531	1530	1536	1545	1559	1557	1552	1529	1518	1561	1570	0	0	0	0	0	0	0	0	0	0	0	0	0	0	0	0	0	1523	1524	1513	1492	1511	1520	1516	1509	1490	1464	1446	1446	1451	1460	1475	1478	1487	1494	1492	1487	1473	1473	1474	1474	1468	1471	1475	1486	1493	1489	1495	1493	1486	1475	1468	1473	1483	1497	1501	1502	1499	1498	1491	1482	1473	1470	1476	1487	1491	1492	1489	1491	1489	1489	1488	1500	1490	1498	1502	1502	1507	1515	1508	1479	1469	1468	1471	1475	1478	1477	1469	1464	1454	1443	1443	1451	1449	1450	1435	1436	0	0	0	0	0	0	0
0	0	0	1414	1421	1416	1419	1419	1428	1430	1425	1411	1398	1382	1382	1386	1395	1406	1411	1404	1418	1418	1428	1438	1436	1422	1402	1404	1414	1414	1426	1427	1424	1427	1429	1433	1433	1431	1438	1438	1449	1450	1452	1446	1428	1418	1412	1415	1432	1436	1444	1444	1449	1460	1467	1480	1478	1471	1457	1455	1450	1441	1426	1421	1431	1448	1456	1454	1452	1448	1445	1445	1453	1450	1446	1446	1446	1433	1421	1419	1428	1423	1428	1443	1455	1465	1455	1435	1419	1404	1402	1404	1405	1411	1412	1417	1415	1422	1428	1428	1415	1401	1397	1397	1396	1401	1403	1414	1425	1435	1433	1430	1422	1407	1405	1407	1409	1421	1435	1437	1434	1441	1446	1445	1434	1424	1419	1419	1430	1442	1455	1447	1422	1423	1413	1409	1414	0	0	0	0	0	0	0	0	0	0	0	0	0	0	0	0	0	0	0	0	0	0	0	0	0	0	0	1627	1645	1660	1661	1664	1674	1672	1679	1667	0	0	0	1419	1444	1449	1442	1432	1425	1407	1392	1388	1388	1405	1400	1392	1387	1398	1408	1414	1412	1409	1420	1425	1431	1433	1429	1432	1433	1424	1418	1424	1450	1463	1468	1463	1451	1428	1411	1396	1396	1408	1428	1429	1429	1427	1419	1413	1407	1403	1403	1412	1420	1425	1431	1428	1422	1411	1412	1417	1424	1422	1421	1422	1426	1434	1437	1436	1431	1427	1431	1427	1423	1415	1414	1421	1428	1419	1420	1425	1424	1423	1419	1420	1425	1435	1433	1431	1433	1436	1428	1422	1418	1428	1428	1426	1424	1415	1416	1434	1439	1437	1430	1428	1443	1473	1482	1484	1465	1448	1433	1425	1430	1424	1420	1409	1408	1413	1415	1424	1428	1431	1432	1431	1432	1435	1432	1435	1435	1432	1438	1440	1435	1436	1421	1418	1419	1417	1435	1452	1464	1464	1454	1436	1433	1435	1444	1451	1447	1441	1433	1427	1425	1446	1467	1505	0	0	0	1403	1419	1442	1440	1442	1443	1444	1440	1437	1429	1435	1435	1435	1439	1443	1451	1459	1460	1459	1455	1448	1445	1440	1450	1455	1454	1450	1442	1431	1426	1424	1425	1425	1425	1438	1448	1456	1455	1454	1458	1450	1442	1429	1429	1430	1436	1449	1454	1447	1434	1432	1436	1437	1441	1438	1444	1435	1440	1450	1448	1446	1458	1471	1469	1454	1450	1448	1456	1451	1440	1432	1433	1430	1422	1424	1425	1438	1441	1444	1441	1443	1442	1444	1445	1448	1450	1455	1453	1451	1456	1463	1473	1471	1466	1466	1468	1475	1482	1477	1477	1470	1464	1463	1471	1471	1462	1458	1457	1470	1478	1478	1485	1477	1476	1481	1489	1489	1481	1462	1452	1450	1463	1455	1459	1469	1479	1477	1469	1477	1492	1498	1485	1470	1462	1464	1472	1467	1454	1440	1458	1476	1484	1481	1473	1472	1472	1506	1524	1503	0	0	0	0	0	0	0	0	0	0	0	0	0	0	0	0	0	0	0	0	1618	1616	1613	1592	1552	1538	1523	1515	1508	1542	1555	1548	1551	1551	1555	1553	1562	1565	1562	1555	1551	1540	1534	1534	1534	1533	1534	1543	1558	1564	1554	1525	1523	1555	1563	0	0	0	0	0	0	0	0	0	0	0	0	0	0	0	0	0	0	1534	1520	1496	1514	1525	1524	1518	1495	1470	1457	1453	1457	1463	1481	1486	1490	1481	1474	1468	1468	1471	1478	1483	1485	1485	1488	1495	1496	1497	1493	1487	1481	1481	1470	1471	1488	1501	1511	1501	1497	1492	1484	1474	1471	1477	1485	1501	1496	1497	1491	1487	1484	1481	1479	1485	1493	1490	1497	1497	1509	1515	1512	1496	1481	1481	1485	1489	1482	1470	1471	1464	1459	1446	1446	1451	1453	1446	1430	1425	0	0	0	0	0	0	0
0	0	0	1411	1419	1415	1417	1417	1420	1435	1423	1409	1395	1388	1388	1386	1398	1403	1403	1407	1424	1424	1445	1454	1446	1412	1398	1402	1421	1421	1426	1425	1418	1422	1430	1434	1432	1427	1424	1424	1426	1425	1429	1422	1411	1406	1396	1407	1424	1438	1452	1452	1462	1469	1473	1475	1472	1466	1460	1454	1446	1441	1430	1426	1435	1456	1467	1465	1464	1456	1455	1455	1451	1445	1448	1439	1439	1434	1424	1422	1422	1428	1438	1451	1461	1471	1457	1441	1412	1401	1393	1398	1402	1407	1412	1413	1416	1421	1421	1421	1418	1413	1408	1408	1405	1392	1396	1410	1421	1431	1439	1430	1424	1410	1410	1418	1421	1432	1437	1439	1442	1447	1451	1447	1431	1414	1408	1409	1421	1439	1454	1447	1416	1412	1406	1400	1415	0	0	0	0	0	0	0	0	0	0	0	0	0	0	0	0	0	0	0	0	0	0	0	0	0	0	0	1607	1651	1661	1668	1680	1678	1660	1662	1666	0	0	0	1436	1452	1456	1449	1435	1425	1423	1420	1414	1417	1418	1419	1417	1410	1408	1410	1422	1422	1421	1423	1426	1424	1419	1413	1416	1423	1424	1423	1435	1460	1459	1458	1454	1449	1438	1423	1415	1410	1419	1432	1434	1423	1417	1413	1404	1395	1402	1405	1410	1412	1416	1423	1422	1408	1397	1400	1402	1405	1410	1405	1412	1414	1420	1429	1432	1433	1415	1416	1414	1408	1403	1408	1424	1437	1427	1420	1419	1420	1415	1411	1412	1423	1434	1437	1435	1433	1433	1428	1418	1413	1415	1418	1421	1424	1416	1423	1429	1440	1446	1447	1444	1451	1463	1470	1475	1460	1446	1433	1429	1433	1433	1427	1418	1419	1423	1429	1422	1421	1425	1427	1428	1433	1435	1432	1438	1437	1422	1424	1424	1421	1420	1414	1415	1423	1433	1442	1457	1463	1462	1438	1425	1421	1428	1429	1436	1443	1441	1441	1448	1455	1468	1485	1481	1487	0	1442	1427	1426	1441	1441	1438	1441	1445	1447	1440	1434	1435	1437	1433	1432	1434	1440	1454	1457	1454	1450	1450	1446	1440	1439	1440	1450	1455	1448	1437	1429	1424	1419	1412	1413	1420	1437	1444	1451	1451	1454	1447	1433	1427	1432	1424	1430	1438	1445	1444	1439	1437	1433	1429	1427	1429	1437	1445	1461	1462	1449	1444	1455	1467	1460	1444	1433	1442	1451	1454	1448	1446	1445	1440	1432	1435	1436	1431	1432	1429	1440	1438	1445	1447	1450	1456	1461	1463	1454	1453	1460	1468	1473	1466	1464	1462	1462	1463	1465	1465	1461	1458	1452	1462	1463	1461	1464	1457	1461	1460	1466	1467	1473	1466	1469	1475	1484	1483	1469	1458	1453	1451	1460	1446	1444	1456	1462	1456	1456	1473	1492	1500	1494	1480	1470	1474	1475	1466	1451	1430	1464	1488	1497	1486	1474	1473	1502	1526	1504	1484	0	0	0	0	0	0	0	0	0	0	0	0	0	0	0	0	0	0	0	0	1608	1606	1601	1572	1551	1530	1506	1499	1499	1541	1551	1551	1548	1549	1552	1556	1564	1563	1561	1552	1547	1540	1537	1536	1532	1530	1531	1540	1556	1567	1557	1535	1526	1553	1563	0	0	0	0	0	0	0	0	0	0	0	0	0	0	0	0	0	1530	1532	1517	1499	1513	1518	1514	1512	1499	1478	1467	1471	1464	1470	1474	1488	1484	1475	1467	1469	1473	1482	1484	1491	1493	1498	1495	1498	1500	1501	1499	1495	1490	1484	1484	1487	1498	1508	1504	1496	1493	1483	1470	1478	1484	1492	1503	1507	1503	1491	1485	1487	1488	1487	1487	1487	1484	1478	1477	1477	1480	1494	1497	1485	1488	1493	1503	1507	1490	1474	1471	1469	1467	1469	1469	1469	1465	1452	1432	1419	0	0	0	0	0	0	0
0	0	0	1413	1422	1413	1410	1410	1419	1426	1420	1409	1397	1389	1389	1387	1390	1390	1397	1414	1433	1433	1453	1460	1447	1412	1399	1405	1425	1425	1425	1425	1421	1415	1425	1433	1431	1425	1425	1418	1408	1406	1418	1418	1411	1406	1408	1413	1424	1440	1460	1460	1469	1478	1474	1468	1460	1460	1456	1455	1447	1442	1437	1439	1448	1461	1475	1478	1470	1470	1468	1468	1467	1459	1455	1446	1444	1449	1442	1435	1441	1458	1452	1462	1463	1470	1454	1435	1418	1403	1393	1391	1396	1404	1408	1416	1415	1419	1420	1418	1422	1418	1418	1414	1407	1388	1389	1406	1417	1428	1424	1424	1409	1419	1428	1432	1434	1424	1432	1438	1439	1444	1448	1441	1425	1412	1403	1402	1416	1430	1450	1453	1408	1400	1400	1407	1409	0	0	0	0	0	0	0	0	0	0	0	0	0	0	0	0	0	0	0	0	0	0	0	0	0	0	0	1616	1661	1672	1674	1683	1676	1661	1656	1648	0	0	0	0	0	1455	1461	1452	1444	1439	1430	1419	1414	1420	1426	1432	1430	1413	1422	1430	1434	1435	1429	1420	1413	1406	1404	1405	1421	1429	1436	1434	1438	1451	1447	1447	1438	1433	1434	1431	1431	1426	1423	1417	1409	1405	1402	1398	1394	1413	1417	1412	1415	1419	1428	1424	1407	1395	1385	1388	1395	1411	1410	1413	1420	1418	1422	1434	1433	1416	1414	1410	1398	1393	1404	1421	1434	1431	1422	1421	1422	1414	1404	1409	1417	1424	1427	1431	1435	1436	1434	1417	1411	1413	1414	1415	1423	1422	1429	1440	1443	1451	1453	1446	1452	1453	1456	1455	1456	1446	1437	1432	1430	1438	1435	1431	1432	1436	1428	1426	1421	1423	1425	1421	1428	1430	1436	1436	1436	1418	1412	1423	1425	1418	1420	1423	1435	1447	1453	1460	1462	1454	1431	1413	1411	1420	1424	1441	1448	1452	1462	1470	1478	1486	1491	1477	1474	1478	1466	1455	1434	1434	1432	1428	1436	1433	1440	1436	1437	1443	1444	1442	1433	1425	1425	1430	1433	1429	1424	1426	1441	1432	1426	1431	1446	1454	1449	1443	1436	1430	1423	1417	1412	1418	1426	1432	1430	1440	1440	1432	1431	1430	1428	1429	1428	1437	1438	1441	1440	1433	1431	1421	1423	1425	1441	1453	1467	1460	1447	1439	1442	1449	1446	1439	1433	1438	1451	1455	1455	1459	1451	1442	1433	1438	1444	1445	1440	1437	1440	1438	1443	1443	1453	1458	1472	1481	1468	1466	1453	1453	1445	1450	1450	1455	1457	1457	1456	1456	1447	1445	1451	1460	1459	1462	1462	1459	1458	1462	1462	1457	1459	1453	1460	1463	1467	1472	1469	1464	1460	1463	1453	1429	1426	1434	1425	1416	1428	1464	1491	1502	1498	1489	1483	1483	1480	1471	1452	1429	1458	1487	1490	1479	1468	1468	1501	1523	1513	0	0	0	0	0	0	0	0	0	0	0	0	0	0	0	0	0	0	0	0	0	1638	1630	1628	1630	1611	1584	1551	1502	1503	1529	1532	1550	1547	1544	1545	1555	1558	1556	1552	1547	1540	1542	1542	1537	1529	1510	1516	1536	1551	1561	1557	1516	1523	1533	1555	0	0	0	0	0	0	0	0	0	0	0	0	0	0	0	0	0	0	1537	1526	1514	1516	1514	1512	1507	1494	1477	1478	1488	1489	1482	1480	1479	1481	1476	1477	1477	1479	1489	1490	1493	1490	1496	1495	1496	1499	1504	1499	1495	1471	1474	1477	1502	1506	1502	1489	1464	1464	1463	1470	1477	1492	1497	1502	1505	1499	1489	1486	1493	1499	1501	1495	1490	1479	1467	1466	1466	1468	1471	1473	1476	1486	1507	1518	1514	1494	1478	1478	1475	1479	1478	1478	1475	1473	1460	1440	1422	0	0	0	0	0	0	0
0	0	0	1428	1423	1415	1409	1409	1404	1400	1401	1395	1397	1387	1387	1387	1384	1382	1394	1415	1431	1431	1447	1456	1446	1429	1406	1414	1432	1432	1444	1441	1432	1425	1424	1428	1432	1432	1432	1429	1413	1412	1419	1422	1419	1422	1424	1432	1431	1442	1460	1460	1473	1478	1475	1465	1454	1452	1454	1457	1448	1440	1436	1446	1462	1466	1477	1475	1476	1482	1479	1479	1476	1471	1465	1458	1462	1457	1446	1438	1448	1463	1481	1481	1470	1464	1443	1432	1436	1440	1440	1434	1420	1411	1417	1422	1425	1419	1417	1421	1428	1429	1427	1417	1400	1383	1379	1397	1410	1422	1423	1416	1415	1431	1428	1442	1438	1423	1429	1433	1440	1451	1439	1426	1416	1405	1400	1398	1412	1432	1450	1447	1404	1403	1409	1423	0	0	0	0	0	0	0	0	0	0	0	0	0	0	0	0	0	0	0	0	0	0	0	0	0	0	0	0	1649	1688	1696	1689	1688	1689	1686	1682	1654	0	0	0	0	0	1492	1486	1470	1454	1446	1436	1431	1420	1420	1430	1435	1436	1421	1422	1431	1438	1443	1435	1423	1404	1398	1401	1417	1433	1450	1457	1450	1443	1444	1441	1432	1425	1425	1426	1427	1427	1418	1410	1400	1400	1391	1395	1397	1403	1420	1427	1427	1428	1433	1437	1424	1404	1392	1385	1393	1409	1417	1424	1442	1432	1425	1421	1429	1429	1423	1419	1419	1409	1404	1403	1416	1424	1430	1431	1432	1424	1426	1418	1413	1417	1422	1421	1431	1434	1437	1432	1418	1409	1408	1411	1414	1419	1428	1434	1431	1447	1451	1452	1449	1453	1452	1450	1450	1448	1439	1438	1440	1438	1437	1433	1436	1439	1438	1432	1425	1424	1429	1430	1430	1436	1431	1433	1433	1429	1425	1426	1430	1432	1431	1428	1434	1444	1454	1462	1463	1460	1444	1424	1414	1411	1421	1436	1449	1455	1461	1473	1481	1487	1485	1472	1468	1471	1475	1473	1455	1434	1431	1424	1418	1423	1430	1426	1433	1435	1440	1444	1445	1437	1428	1425	1428	1433	1432	1433	1431	1414	1433	1418	1426	1437	1445	1445	1445	1437	1431	1438	1430	1425	1423	1423	1429	1431	1437	1436	1430	1433	1440	1444	1445	1442	1439	1438	1440	1441	1436	1433	1426	1429	1433	1448	1468	1468	1463	1449	1433	1434	1443	1450	1446	1445	1446	1452	1451	1449	1451	1438	1432	1436	1445	1457	1460	1450	1442	1436	1433	1435	1431	1441	1465	1483	1503	1502	1483	1466	1445	1432	1438	1432	1443	1454	1461	1460	1456	1442	1442	1443	1456	1452	1460	1455	1455	1460	1461	1459	1448	1437	1437	1440	1448	1459	1462	1463	1464	1463	1455	1439	1419	1415	1415	1409	1402	1415	1458	1481	1490	1482	1481	1480	1488	1484	1474	1461	1439	1447	1468	1472	1457	1449	1458	1488	1526	1529	0	0	0	0	0	0	0	0	0	0	0	0	0	0	0	0	0	0	0	0	0	0	1655	1647	1641	1617	1592	1572	1544	1528	1524	1542	1543	1541	1543	1546	1519	1511	1506	1503	1501	1498	1479	1468	1465	1468	1457	1515	1524	1538	1542	1540	1520	1521	1519	1535	0	0	0	0	0	0	0	0	0	0	0	0	0	0	0	0	0	0	1535	1530	1528	1520	1513	1520	1505	1501	1486	1501	1509	1498	1493	1489	1494	1504	1505	1502	1496	1489	1482	1477	1489	1491	1503	1506	1510	1498	1490	1481	1470	1476	1471	1485	1502	1508	1500	1482	1466	1460	1467	1478	1495	1499	1497	1495	1495	1490	1491	1488	1494	1502	1502	1496	1490	1479	1474	1479	1479	1478	1469	1464	1472	1489	1511	1520	1524	1506	1492	1486	1479	1470	1475	1475	1478	1475	1461	1438	1424	0	0	0	0	0	0	0
0	0	0	1430	1424	1407	1402	1402	1394	1391	1393	1392	1388	1387	1387	1384	1381	1385	1394	1405	1424	1424	1437	1449	1442	1423	1423	1432	1438	1438	1448	1450	1437	1428	1419	1427	1433	1438	1438	1442	1437	1427	1415	1419	1428	1436	1449	1451	1440	1445	1459	1459	1473	1478	1474	1461	1453	1449	1446	1445	1445	1436	1435	1441	1461	1474	1472	1468	1463	1475	1483	1483	1480	1475	1475	1464	1467	1463	1463	1453	1454	1465	1474	1476	1470	1463	1451	1443	1444	1451	1453	1453	1437	1416	1415	1422	1427	1426	1419	1422	1430	1430	1426	1410	1396	1366	1386	1404	1419	1425	1430	1428	1431	1428	1423	1422	1421	1421	1432	1436	1436	1433	1423	1407	1398	1398	1403	1411	1433	1452	1457	1431	1409	1418	1426	1441	0	0	0	0	0	0	0	0	0	0	0	0	0	0	0	0	0	0	0	0	0	0	0	0	0	0	0	0	1645	1678	1693	1692	1693	1678	1684	1684	1653	0	0	0	0	0	1502	1504	1474	1450	1442	1434	1435	1427	1418	1420	1425	1429	1427	1430	1437	1440	1443	1437	1418	1404	1394	1401	1421	1442	1458	1462	1455	1427	1433	1433	1423	1423	1414	1421	1423	1422	1414	1404	1395	1390	1383	1389	1402	1412	1432	1441	1446	1451	1451	1448	1434	1418	1406	1392	1406	1420	1426	1446	1454	1443	1433	1428	1432	1430	1427	1426	1429	1422	1421	1414	1405	1409	1420	1439	1440	1449	1432	1432	1425	1432	1437	1436	1450	1439	1431	1424	1419	1411	1412	1411	1409	1422	1426	1431	1430	1441	1444	1445	1445	1453	1458	1453	1448	1450	1450	1449	1440	1434	1430	1434	1434	1430	1430	1432	1432	1430	1433	1440	1441	1437	1435	1432	1428	1426	1430	1436	1442	1445	1437	1435	1436	1447	1455	1460	1459	1456	1444	1432	1430	1420	1431	1446	1455	1456	1460	1469	1482	1491	1485	1450	1451	1457	1468	1473	1458	1438	1436	1424	1418	1415	1420	1427	1419	1418	1430	1442	1442	1430	1431	1435	1442	1442	1441	1442	1431	1416	1427	1418	1417	1426	1433	1438	1436	1432	1439	1441	1438	1439	1435	1434	1434	1440	1450	1450	1444	1447	1456	1463	1465	1456	1448	1445	1447	1451	1440	1440	1434	1432	1445	1454	1460	1466	1465	1451	1439	1438	1448	1459	1461	1460	1461	1459	1454	1448	1453	1432	1427	1434	1450	1457	1451	1441	1438	1433	1428	1432	1430	1444	1460	1489	1510	1513	1499	1476	1449	1429	1423	1429	1441	1449	1455	1456	1456	1449	1447	1449	1452	1453	1448	1449	1451	1456	1463	1459	1444	1430	1420	1429	1439	1443	1444	1447	1458	1456	1447	1428	1405	1404	1408	1416	1413	1431	1450	1466	1475	1471	1463	1470	1477	1480	1478	1467	1447	1435	1441	1430	1422	1423	1439	1472	1540	0	0	0	0	0	0	0	0	0	0	0	0	0	0	0	0	0	0	0	0	0	0	0	1660	1648	1610	1600	1588	1575	1567	1553	1556	1555	1548	1546	1549	1550	1528	1510	1502	1496	1508	1510	1514	1500	1480	1477	1459	1457	1472	1492	1496	1512	1529	1529	1524	1518	0	0	0	0	0	0	0	0	0	0	0	0	0	0	0	0	0	0	0	1498	1514	1501	1506	1507	1503	1503	1512	1502	1495	1489	1487	1496	1504	1515	1518	1513	1494	1478	1477	1486	1486	1493	1503	1517	1521	1513	1494	1468	1463	1473	1471	1478	1491	1504	1490	1478	1475	1475	1484	1496	1504	1499	1490	1489	1489	1485	1492	1494	1497	1496	1498	1494	1488	1483	1489	1496	1496	1495	1488	1476	1471	1487	1508	1525	1526	1512	1496	1480	1473	1465	1470	1470	1472	1470	1460	1445	1434	0	0	0	0	0	0	0
0	0	0	1418	1409	1401	1394	1394	1396	1402	1407	1397	1386	1386	1380	1381	1386	1390	1399	1408	1404	1404	1426	1433	1427	1416	1411	1423	1422	1422	1430	1433	1431	1424	1417	1420	1427	1439	1439	1443	1451	1440	1427	1434	1441	1452	1457	1451	1435	1437	1460	1460	1479	1481	1475	1460	1449	1440	1434	1432	1427	1433	1432	1437	1451	1461	1456	1450	1460	1463	1469	1469	1467	1470	1465	1472	1470	1464	1463	1458	1460	1468	1469	1471	1470	1467	1452	1438	1443	1447	1448	1451	1449	1427	1413	1412	1417	1421	1423	1424	1433	1434	1430	1416	1401	1381	1383	1409	1431	1439	1431	1428	1424	1420	1414	1414	1408	1418	1424	1428	1432	1424	1414	1406	1399	1403	1418	1434	1458	1462	1454	1428	1418	1424	1432	1452	0	0	0	0	0	0	0	0	0	0	0	0	0	0	0	0	0	0	0	0	0	0	0	0	0	0	0	0	1646	1683	1695	1699	1688	1677	1669	1664	1630	0	0	0	0	0	1482	1492	1486	1451	1437	1434	1428	1420	1409	1409	1412	1420	1422	1428	1427	1434	1437	1434	1416	1400	1390	1398	1410	1435	1454	1460	1442	1412	1415	1423	1425	1423	1419	1419	1424	1419	1418	1416	1407	1399	1395	1396	1407	1412	1436	1446	1450	1465	1464	1448	1439	1435	1430	1419	1417	1421	1430	1449	1453	1447	1436	1435	1440	1436	1423	1434	1430	1431	1425	1412	1406	1402	1424	1438	1452	1450	1452	1433	1432	1436	1454	1457	1454	1442	1428	1415	1412	1410	1415	1413	1416	1419	1425	1432	1424	1440	1448	1448	1451	1453	1459	1457	1451	1444	1438	1433	1427	1423	1423	1426	1428	1426	1422	1428	1428	1430	1432	1435	1436	1436	1431	1433	1427	1426	1434	1447	1452	1450	1439	1434	1436	1449	1459	1459	1458	1455	1449	1447	1441	1439	1442	1452	1448	1446	1449	1459	1475	1487	1469	1436	1422	1436	1466	1462	1464	1443	1436	1429	1414	1409	1411	1414	1409	1410	1415	1424	1421	1421	1427	1437	1443	1443	1440	1443	1447	1439	1429	1417	1413	1416	1426	1428	1429	1432	1434	1433	1438	1440	1445	1448	1447	1455	1456	1450	1444	1439	1458	1468	1469	1462	1449	1452	1454	1448	1452	1454	1452	1453	1452	1458	1459	1476	1475	1474	1465	1454	1451	1461	1463	1468	1463	1458	1456	1453	1450	1438	1437	1442	1456	1456	1447	1430	1427	1428	1440	1445	1439	1446	1464	1481	1485	1504	1501	1481	1457	1435	1419	1428	1437	1446	1445	1434	1437	1453	1452	1450	1446	1440	1441	1445	1439	1447	1445	1446	1442	1431	1423	1431	1435	1436	1437	1443	1455	1452	1433	1412	1399	1404	1412	1431	1441	1444	1443	1439	1443	1438	1437	1446	1450	1457	1466	1460	1448	1430	1423	1413	1399	1410	1439	1473	1543	0	0	0	0	0	0	0	0	0	0	0	0	0	0	0	0	0	0	0	0	0	0	0	1650	1620	1591	1580	1565	1567	1573	1566	1567	1560	1553	1538	1545	1543	1514	1502	1490	1487	1511	1526	1522	1510	1495	1484	1461	1462	1482	1500	1506	1507	1529	1534	1533	1528	0	0	0	0	0	0	0	0	0	0	0	0	0	0	0	0	0	0	1499	1488	1485	1485	1497	1511	1511	1504	1507	1486	1485	1479	1479	1485	1507	1515	1518	1509	1495	1484	1476	1481	1481	1490	1501	1513	1522	1513	1481	1462	1458	1462	1477	1481	1483	1488	1487	1477	1481	1490	1496	1501	1509	1494	1485	1478	1480	1484	1491	1497	1498	1497	1497	1492	1485	1486	1499	1503	1503	1504	1498	1484	1473	1483	1499	1520	1518	1505	1488	1470	1463	1465	1467	1467	1472	1463	1462	1456	1447	0	0	0	0	0	0	0
