0	0	0	1225	1237	1244	1257	1257	1271	1275	1271	1262	1259	1259	1255	1253	1262	1274	1281	1266	1266	0	0	0	0	0	0	0	0	0	0	0	0	0	0	0	0	0	0	0	0	0	0	0	0	0	0	0	0	0	0	0	0	0	0	0	0	1510	1507	1493	1505	1509	1518	1518	1513	1501	1479	1477	0	0	0	0	0	1272	1279	1288	1279	1272	1274	1275	1274	1273	1275	1272	1268	1268	1267	1262	1262	1268	1276	1277	1279	1283	1292	1307	1305	1291	1278	1266	1265	1266	1275	1287	1289	1290	1280	1272	1274	1282	1286	1283	1286	1291	1288	1287	1281	1267	1257	1255	1263	1268	1261	1258	1271	1273	1264	1260	1254	1259	1263	1282	1292	1292	1274	1262	1265	1279	1275	1266	1261	1269	1285	1310	1312	1313	1308	1290	1283	1287	1303	1311	1305	1290	1276	1272	1282	1280	1279	1291	1306	1317	1305	1279	1271	1271	1287	1301	1314	1316	1312	1313	1312	1313	1312	1301	1299	1302	1305	1310	1313	1316	1326	1337	1326	1308	1295	1295	1300	1303	1317	1313	1312	1308	1307	1308	1315	1323	1326	1324	1322	1321	1318	1314	1310	1316	1313	1316	1311	1312	1318	1323	1313	1315	1323	1328	1324	1321	1312	1304	1306	1309	1329	1352	1362	1349	1328	1323	1314	1314	1330	1344	1338	1348	1342	1340	1339	1331	1324	1318	1322	1345	1375	1380	1382	1397	0	1417	1400	1394	1390	1377	1359	1354	1359	1354	1355	1356	1352	1351	1352	1355	1356	1360	1359	1362	1366	1379	1379	1375	1373	1377	1378	1363	1354	1356	1362	1368	1371	1368	1362	1361	1357	1356	1363	1368	1371	1366	1364	1371	1375	1374	1364	1360	1357	1361	1370	1379	1391	1398	1403	1403	1395	1384	1384	1370	1364	1373	1375	1387	1395	1401	1398	1381	1368	1360	1359	1365	1368	1383	1395	1402	1399	1384	1382	1384	1389	1394	1394	1395	1393	1385	1371	1368	1376	1386	1402	1420	1420	1431	1432	1424	1409	1400	1393	1390	1388	1392	1396	1403	1402	1395	1393	1393	1388	1385	1380	1374	1365	1364	1362	1378	1382	1388	1388	1384	1386	1396	1411	1413	1412	1406	1404	1400	1419	1437	1439	1438	1427	1419	1407	1407	1418	1425	1429	1434	1433	1435	1431	1439	1441	1448	1453	1469	1488	1500	1506	1513	1547	1542	1524	0	0	0	0	0	0	0	0	0	0	0	0	0	0	0	0	0	0	0	0	0	0	1618	1625	1603	1593	1573	1566	1568	1569	1573	1568	1582	1542	1526	1536	1543	1551	1546	1549	1546	1537	1534	1529	1530	1566	1589	1585	1578	1577	1577	1577	1575	1588	0	0	0	0	0	0	0	0	1629	1619	1600	1602	1596	1587	1591	1585	1583	1543	1529	1537	1536	1536	1538	1540	1559	1558	1559	1549	1547	1545	1543	1536	1515	1517	1530	1536	1541	1550	1551	1546	1539	1534	1538	1534	1535	1531	1520	1516	1511	1509	1517	1523	1541	1555	1566	1570	1562	1554	1541	1541	1547	1565	1569	1575	1565	1546	1551	1545	1533	1520	1515	1516	1529	1545	1561	1562	1556	1527	1537	1553	1547	1546	1541	1547	1567	1583	1586	1584	1569	1554	1544	1549	1560	1571	1570	1566	1557	1555	1557	1556	1545	1537	1531	1543	1550	1548	1541	1536	1529	1532	1545	1535	1524	1505	1510	1521	1538	1546	1537	1528	1520	1527	1536	1538	1555	1550	1557	1562	1559	1560	1553	1545	1538	1529	1525	1531	1531	1516	1508	1512	1516	1502	1486	1471	1488	1511	1543	1558	1571	1560	1557	1555	1551	1542	1525	1526	1533	1548	1548	1544	1545	1546	1534	1523	1522	1511	1509	1507	1505	1507	1513	1519	1523	1523	1529	1538	1542	1533	0	0	0	0	0	0	0
0	0	0	1215	1225	1235	1252	1252	1270	1279	1268	1258	1256	1256	1261	1264	1276	1297	1291	1266	1266	0	0	0	0	0	0	0	0	0	0	0	0	0	0	0	0	0	0	0	0	0	0	0	0	0	0	0	0	0	0	0	0	0	0	0	0	1506	1507	1499	1498	1505	1514	1515	1508	1504	1498	1487	0	0	0	0	0	1271	1265	1273	1273	1270	1273	1277	1274	1278	1275	1276	1274	1268	1266	1264	1269	1275	1277	1275	1265	1264	1274	1288	1292	1291	1283	1279	1278	1278	1280	1288	1301	1307	1298	1285	1279	1277	1274	1272	1274	1271	1269	1265	1273	1281	1284	1284	1284	1281	1277	1269	1256	1249	1250	1254	1251	1256	1261	1280	1284	1279	1264	1262	1266	1270	1285	1299	1305	1310	1311	1315	1317	1320	1311	1294	1289	1295	1299	1303	1299	1290	1281	1281	1280	1281	1284	1284	1287	1298	1292	1274	1266	1267	1284	1297	1303	1312	1311	1304	1304	1303	1300	1296	1297	1299	1303	1305	1313	1314	1314	1306	1296	1295	1301	1304	1299	1288	1281	1289	1300	1302	1296	1294	1301	1312	1319	1316	1308	1312	1316	1320	1323	1322	1321	1319	1312	1307	1313	1316	1320	1323	1327	1328	1317	1309	1301	1297	1299	1311	1317	1328	1342	1350	1341	1335	1332	1342	1344	1346	1345	1351	1348	1347	1350	1351	1343	1330	1327	1337	1366	1370	1359	1390	0	0	1366	1378	1373	1364	1348	1350	1351	1354	1359	1357	1355	1351	1353	1362	1365	1368	1362	1363	1376	1387	1384	1378	1376	1380	1384	1368	1358	1356	1362	1365	1369	1368	1361	1360	1361	1363	1370	1371	1372	1372	1374	1378	1384	1377	1369	1361	1359	1359	1369	1380	1387	1390	1394	1387	1389	1386	1380	1371	1368	1374	1384	1390	1396	1409	1406	1387	1379	1367	1362	1366	1378	1390	1398	1406	1404	1397	1388	1388	1395	1399	1395	1394	1395	1389	1376	1368	1371	1385	1401	1409	1413	1424	1428	1425	1410	1397	1397	1393	1392	1389	1393	1394	1399	1393	1392	1395	1397	1397	1394	1389	1380	1369	1368	1373	1386	1386	1389	1392	1392	1405	1411	1412	1410	1399	1396	1401	1413	1428	1437	1435	1427	1420	1417	1414	1421	1423	1423	1426	1432	1439	1446	1456	1458	1456	1457	1471	1481	1483	1483	1479	1494	1506	1496	0	0	0	0	0	0	0	0	0	0	0	0	0	0	0	0	0	0	0	0	0	0	1634	1623	1601	1596	1581	1587	1585	1579	1564	1550	1548	1541	1545	1545	1557	1558	1560	1571	1580	1578	1581	1583	1566	1553	1562	1574	1575	1583	1589	1596	1619	1606	0	0	0	0	0	0	0	0	1615	1608	1602	1594	1594	1596	1603	1606	1583	1520	1519	1529	1537	1533	1533	1527	1553	1580	1566	1557	1555	1554	1549	1533	1516	1515	1515	1524	1532	1542	1547	1542	1532	1532	1532	1527	1527	1520	1506	1502	1504	1509	1519	1531	1539	1541	1545	1548	1532	1529	1526	1531	1547	1572	1568	1559	1548	1538	1529	1535	1530	1520	1516	1521	1536	1552	1565	1567	1558	1519	1525	1540	1543	1540	1544	1553	1562	1581	1581	1574	1558	1550	1546	1551	1560	1567	1568	1558	1543	1542	1549	1558	1561	1545	1538	1541	1544	1543	1534	1520	1515	1529	1543	1540	1528	1523	1513	1524	1534	1540	1540	1536	1534	1530	1534	1537	1555	1556	1561	1547	1549	1544	1536	1530	1523	1525	1533	1539	1530	1527	1528	1524	1518	1516	1500	1500	1517	1531	1540	1547	1547	1547	1550	1554	1556	1541	1539	1538	1556	1561	1561	1568	1567	1565	1556	1549	1541	1533	1519	1498	1494	1500	1501	1511	1520	1520	1525	1530	1533	1526	0	0	0	0	0	0	0
0	0	0	1219	1226	1236	1248	1248	1270	1284	1285	1265	1266	1266	1272	1281	1292	1307	1287	1270	1270	0	0	0	0	0	0	0	0	0	0	0	0	0	0	0	0	0	0	0	0	0	0	0	0	0	0	0	0	0	0	0	0	0	0	0	0	1498	1512	1508	1504	1507	1509	1510	1509	1504	1519	1517	0	0	0	0	0	1277	1268	1269	1276	1263	1267	1272	1270	1274	1273	1272	1267	1263	1260	1259	1264	1267	1271	1263	1258	1257	1265	1278	1287	1289	1290	1293	1293	1293	1294	1294	1294	1294	1292	1282	1274	1272	1269	1269	1272	1270	1271	1270	1276	1283	1284	1282	1277	1282	1284	1279	1273	1270	1264	1265	1260	1263	1269	1275	1275	1267	1258	1261	1269	1275	1286	1297	1306	1316	1314	1312	1312	1310	1301	1288	1292	1294	1298	1295	1292	1287	1279	1280	1279	1279	1287	1286	1287	1287	1274	1263	1263	1268	1278	1294	1298	1303	1300	1296	1295	1292	1291	1287	1292	1300	1304	1307	1311	1315	1317	1307	1297	1293	1298	1303	1305	1294	1294	1298	1310	1312	1307	1299	1302	1313	1318	1312	1304	1305	1312	1321	1325	1324	1327	1330	1319	1312	1312	1316	1324	1331	1334	1327	1313	1301	1292	1296	1305	1323	1325	1331	1338	1348	1347	1348	1346	1347	1346	1346	1346	1348	1354	1356	1359	1353	1351	1347	1340	1338	1359	1361	1345	1373	0	0	1344	1344	1351	1342	1340	1345	1346	1347	1348	1353	1352	1353	1354	1363	1365	1365	1358	1362	1379	1386	1386	1383	1381	1382	1387	1375	1364	1359	1358	1361	1358	1362	1357	1356	1357	1366	1378	1374	1374	1368	1380	1385	1387	1382	1371	1368	1365	1367	1376	1384	1387	1384	1384	1383	1392	1389	1381	1375	1372	1386	1390	1395	1399	1407	1402	1395	1391	1384	1374	1379	1386	1396	1400	1404	1409	1407	1404	1405	1404	1403	1398	1391	1400	1400	1385	1376	1381	1387	1392	1394	1400	1409	1410	1403	1391	1387	1397	1397	1398	1390	1391	1394	1399	1396	1395	1396	1397	1408	1405	1404	1398	1390	1390	1390	1389	1392	1397	1406	1406	1409	1410	1412	1412	1403	1404	1399	1411	1421	1429	1432	1429	1424	1424	1421	1424	1419	1424	1423	1430	1438	1451	1462	1462	1456	1451	1461	1465	1457	1454	1460	1459	1454	1448	0	0	0	0	0	0	0	0	0	0	0	0	0	0	0	0	0	0	0	0	0	0	1640	1628	1596	1607	1591	1592	1599	1566	1548	1543	1543	1538	1550	1552	1558	1562	1567	1575	1574	1573	1577	1595	1596	1589	1571	1559	1544	1546	1546	1558	1597	1636	0	0	0	0	0	0	0	1601	1593	1576	1576	1568	1577	1589	1593	1579	1550	1508	1522	1531	1539	1527	1553	1543	1560	1567	1567	1564	1562	1554	1546	1528	1521	1518	1519	1525	1535	1549	1553	1550	1546	1532	1530	1530	1519	1519	1503	1504	1509	1521	1541	1553	1545	1537	1534	1532	1529	1519	1521	1524	1531	1560	1556	1552	1549	1537	1533	1522	1531	1527	1526	1530	1536	1559	1574	1577	1562	1523	1524	1527	1536	1539	1555	1566	1568	1573	1559	1551	1545	1547	1543	1547	1552	1558	1552	1548	1534	1536	1544	1561	1568	1561	1551	1544	1540	1543	1534	1515	1502	1512	1531	1542	1542	1535	1524	1522	1536	1536	1535	1537	1532	1536	1539	1545	1555	1558	1555	1544	1536	1525	1518	1515	1509	1513	1527	1540	1541	1530	1527	1523	1525	1521	1522	1531	1539	1545	1544	1546	1547	1546	1545	1545	1555	1551	1549	1545	1551	1558	1558	1566	1562	1574	1579	1587	1571	1546	1532	1505	1492	1490	1496	1496	1502	1502	1500	1514	1519	1519	0	0	0	0	0	0	0
0	0	0	1226	1231	1238	1254	1254	1270	1280	1284	1280	1274	1274	1279	1290	1302	1301	1282	1275	1275	0	0	0	0	0	0	0	0	0	0	0	0	0	0	0	0	0	0	0	0	0	0	0	0	0	0	0	0	0	0	0	0	0	0	0	0	1504	1523	1522	1515	1506	1509	1512	1512	1512	1537	1532	0	0	0	0	0	1316	1269	1273	1275	1268	1261	1264	1267	1272	1270	1268	1261	1258	1256	1261	1264	1262	1258	1260	1256	1262	1262	1274	1283	1292	1298	1300	1305	1304	1301	1300	1291	1289	1289	1280	1269	1262	1262	1268	1273	1278	1283	1287	1285	1288	1284	1278	1275	1275	1282	1285	1279	1279	1278	1276	1270	1270	1280	1285	1274	1263	1260	1263	1272	1280	1285	1294	1310	1317	1313	1308	1301	1293	1285	1281	1288	1295	1291	1286	1287	1286	1278	1283	1284	1284	1294	1290	1290	1283	1269	1265	1265	1274	1281	1291	1292	1296	1301	1304	1301	1295	1288	1288	1294	1302	1303	1307	1314	1313	1312	1305	1296	1293	1292	1300	1304	1301	1298	1310	1321	1327	1318	1311	1309	1308	1309	1302	1303	1309	1319	1326	1327	1329	1335	1336	1332	1319	1313	1315	1324	1328	1327	1323	1313	1297	1292	1299	1318	1337	1336	1335	1338	1344	1353	1357	1352	1353	1352	1350	1350	1351	1355	1348	1344	1347	1345	1344	1345	1342	1348	1350	1334	1351	0	0	1330	1332	1332	1342	1355	1352	1350	1346	1338	1344	1350	1354	1356	1356	1354	1354	1352	1354	1362	1385	1389	1384	1382	1381	1381	1376	1367	1365	1364	1358	1356	1358	1357	1358	1356	1357	1370	1370	1365	1368	1379	1388	1391	1384	1372	1370	1378	1378	1385	1391	1390	1389	1386	1390	1390	1387	1381	1377	1381	1394	1402	1399	1395	1389	1398	1410	1407	1397	1388	1386	1389	1394	1393	1403	1408	1415	1415	1415	1404	1402	1395	1393	1409	1415	1406	1393	1392	1401	1384	1385	1387	1396	1400	1396	1387	1383	1392	1399	1400	1394	1395	1402	1409	1406	1405	1400	1401	1407	1409	1411	1416	1415	1409	1404	1397	1398	1407	1417	1418	1417	1414	1410	1420	1415	1405	1406	1406	1418	1425	1430	1427	1425	1425	1422	1439	1434	1426	1428	1431	1438	1451	1457	1457	1454	1450	1457	1456	1448	1442	1443	1451	1439	1439	0	0	0	0	0	0	0	0	0	0	0	0	0	0	0	0	0	0	0	0	0	0	1660	1633	1616	1622	1607	1594	1587	1547	1545	1547	1541	1538	1545	1554	1560	1560	1563	1574	1581	1577	1577	1581	1592	1601	1596	1583	1567	1554	1549	1548	1563	1617	0	0	0	1629	1610	1610	1610	1599	1588	1563	1550	1539	1561	1576	1580	1568	1537	1508	1524	1534	1535	1527	1554	1542	1547	1547	1555	1560	1561	1555	1543	1527	1520	1526	1527	1533	1544	1559	1564	1559	1560	1557	1544	1541	1529	1518	1514	1521	1542	1557	1563	1561	1544	1529	1526	1533	1535	1533	1527	1523	1534	1553	1553	1560	1556	1547	1537	1536	1532	1539	1544	1542	1545	1558	1577	1578	1567	1530	1528	1531	1540	1551	1571	1579	1580	1567	1552	1529	1521	1528	1528	1538	1538	1542	1540	1524	1536	1547	1558	1571	1572	1573	1561	1555	1553	1548	1544	1528	1514	1503	1515	1524	1537	1536	1533	1526	1528	1527	1534	1538	1533	1529	1537	1544	1557	1552	1558	1542	1527	1508	1502	1502	1497	1503	1515	1531	1532	1529	1518	1516	1519	1527	1532	1551	1562	1570	1566	1566	1561	1557	1543	1550	1547	1553	1542	1535	1530	1538	1538	1543	1553	1559	1572	1579	1563	1538	1521	1504	1500	1501	1499	1498	1489	1489	1497	1508	1518	1529	0	0	0	0	0	0	0
0	0	0	1232	1233	1246	1255	1255	1267	1274	1278	1278	1267	1267	1276	1290	1296	1284	1273	1285	1285	0	0	0	0	0	0	0	0	0	0	0	0	0	0	0	0	0	0	0	0	0	0	0	0	0	0	0	0	0	0	0	0	0	0	0	1460	1501	1523	1528	1524	1519	1521	1524	1523	1529	1542	1540	0	0	0	0	0	0	1274	1268	1262	1257	1257	1264	1270	1276	1275	1268	1263	1260	1261	1262	1264	1264	1262	1259	1266	1264	1261	1272	1278	1294	1299	1302	1302	1302	1302	1302	1295	1286	1286	1277	1269	1263	1265	1269	1281	1289	1300	1304	1304	1295	1288	1278	1272	1276	1281	1282	1283	1281	1279	1281	1280	1279	1292	1294	1281	1272	1274	1278	1282	1285	1290	1298	1310	1314	1309	1295	1289	1283	1285	1288	1293	1292	1290	1283	1282	1284	1290	1296	1298	1303	1301	1291	1293	1286	1278	1275	1278	1284	1291	1296	1297	1298	1304	1310	1311	1308	1297	1292	1296	1301	1308	1311	1312	1310	1305	1301	1300	1293	1292	1296	1300	1302	1305	1316	1331	1338	1333	1321	1313	1310	1307	1301	1302	1306	1318	1326	1333	1342	1343	1337	1326	1323	1316	1317	1324	1322	1325	1320	1310	1304	1298	1308	1325	1351	1349	1343	1336	1344	1353	1355	1358	1358	1357	1359	1354	1351	1345	1336	1333	1338	1340	1342	1342	1345	1351	1349	1328	1338	1351	1354	1343	1330	1349	1361	1368	1360	1351	1338	1336	1337	1340	1343	1346	1341	1338	1342	1343	1349	1358	1375	1380	1381	1378	1374	1378	1377	1372	1368	1365	1359	1359	1361	1364	1367	1358	1351	1360	1363	1362	1366	1374	1383	1389	1384	1380	1384	1393	1395	1396	1396	1395	1393	1392	1386	1380	1379	1370	1370	1377	1387	1398	1397	1389	1389	1400	1408	1410	1402	1396	1387	1380	1379	1372	1388	1403	1413	1417	1412	1404	1395	1386	1388	1410	1426	1423	1415	1410	1411	1396	1383	1385	1388	1392	1396	1388	1389	1394	1403	1407	1404	1403	1406	1417	1420	1409	1402	1397	1400	1407	1417	1424	1432	1429	1416	1407	1402	1407	1419	1422	1423	1420	1418	1431	1429	1418	1415	1421	1415	1420	1424	1421	1418	1421	1424	1430	1449	1444	1442	1440	1443	1441	1446	1448	1447	1454	1454	1452	1446	1438	1451	1455	1447	1464	0	0	0	0	0	0	0	0	0	0	0	0	0	0	0	0	0	0	0	0	0	0	0	1647	1620	1623	1607	1595	1591	1548	1545	1547	1544	1540	1547	1548	1557	1558	1566	1576	1591	1585	1581	1583	1589	1596	1600	1590	1574	1561	1552	1554	1572	1613	0	0	1652	1632	1616	1612	1614	1601	1590	1568	1547	1544	1558	1571	1576	1569	1549	1518	1535	1529	1520	1535	1534	1539	1527	1530	1539	1550	1557	1559	1542	1526	1516	1519	1523	1523	1540	1549	1556	1561	1568	1564	1556	1539	1529	1525	1528	1535	1548	1563	1564	1555	1541	1527	1526	1539	1543	1539	1534	1538	1540	1548	1556	1562	1565	1553	1542	1533	1532	1537	1543	1549	1549	1559	1574	1576	1563	1537	1535	1533	1537	1559	1577	1586	1583	1565	1537	1518	1515	1521	1523	1530	1532	1531	1513	1514	1545	1563	1573	1572	1570	1571	1565	1562	1555	1558	1553	1544	1526	1507	1504	1515	1527	1538	1544	1532	1525	1518	1531	1535	1523	1529	1535	1541	1546	1549	1551	1541	1530	1514	1506	1499	1504	1504	1518	1519	1527	1521	1514	1490	1502	1515	1533	1558	1571	1590	1589	1578	1576	1561	1555	1546	1553	1561	1541	1522	1516	1523	1523	1527	1537	1537	1538	1537	1528	1517	1513	1501	1491	1498	1501	1492	1499	1499	1497	1515	1533	1533	0	0	0	0	0	0	0
0	0	0	1232	1233	1246	1260	1260	1267	1268	1270	1260	1262	1262	1264	1277	1273	1263	1266	0	0	0	0	0	0	0	0	0	0	0	0	0	0	0	0	0	0	0	0	0	0	0	0	0	0	0	0	0	0	0	0	0	0	0	0	0	1467	1493	1520	1530	1526	1528	1536	1535	1534	1541	1541	1539	0	0	0	0	0	0	1271	1243	1249	1249	1261	1270	1279	1283	1283	1277	1272	1268	1268	1265	1263	1267	1270	1276	1281	1280	1268	1269	1283	1293	1295	1298	1290	1289	1295	1296	1289	1286	1288	1283	1269	1264	1268	1271	1282	1297	1307	1312	1310	1300	1289	1282	1279	1279	1282	1282	1278	1278	1276	1275	1283	1287	1295	1294	1290	1281	1284	1288	1294	1295	1298	1308	1310	1304	1298	1289	1291	1292	1292	1295	1293	1295	1287	1278	1279	1287	1294	1305	1311	1314	1311	1301	1295	1295	1282	1280	1289	1293	1305	1309	1303	1304	1313	1321	1322	1315	1304	1292	1294	1300	1305	1313	1313	1311	1309	1307	1309	1305	1300	1297	1298	1301	1309	1322	1341	1346	1341	1325	1314	1311	1307	1311	1306	1305	1308	1313	1328	1345	1340	1326	1323	1323	1326	1319	1317	1318	1321	1325	1320	1314	1313	1318	1335	1353	1351	1343	1337	1342	1344	1344	1352	1359	1362	1364	1358	1346	1338	1330	1333	1339	1337	1339	1341	1343	1357	1357	1325	1337	1349	1352	1350	1340	1360	1367	1373	1369	1351	1338	1335	1335	1335	1335	1331	1330	1336	1337	1343	1348	1362	1375	1377	1376	1374	1371	1368	1370	1373	1372	1371	1369	1364	1362	1365	1369	1363	1355	1355	1358	1362	1368	1372	1375	1382	1380	1383	1400	1400	1397	1392	1393	1391	1392	1387	1380	1375	1367	1367	1365	1372	1380	1389	1391	1390	1392	1394	1402	1404	1402	1394	1386	1378	1372	1363	1372	1384	1400	1410	1405	1400	1397	1380	1400	1420	1430	1431	1423	1420	1415	1399	1393	1384	1386	1391	1402	1402	1403	1407	1415	1415	1413	1407	1409	1418	1418	1413	1406	1400	1400	1407	1420	1422	1432	1435	1425	1416	1405	1409	1414	1424	1426	1425	1426	1438	1437	1426	1431	1423	1417	1417	1421	1414	1416	1420	1425	1434	1454	1459	1453	1448	1447	1443	1442	1444	1444	1450	1455	1452	1445	1447	1458	1464	1457	1495	0	0	0	0	0	0	0	0	0	0	0	0	0	0	0	0	0	0	0	0	0	0	0	1647	1625	1620	1605	1601	1593	1547	1535	1540	1550	1552	1545	1546	1551	1562	1569	1580	1592	1585	1572	1574	1583	1591	1595	1590	1580	1567	1569	1567	1572	1596	0	0	1661	1640	1616	1611	1605	1598	1582	1563	1553	1554	1562	1585	1584	1580	1574	1551	1536	1534	1540	1561	1561	1552	1530	1521	1531	1542	1556	1552	1536	1524	1511	1514	1521	1516	1523	1532	1545	1553	1560	1559	1569	1556	1540	1536	1535	1536	1537	1548	1553	1551	1545	1542	1559	1563	1555	1548	1544	1543	1545	1546	1558	1567	1569	1559	1537	1527	1522	1530	1537	1546	1552	1557	1562	1559	1551	1541	1543	1538	1531	1547	1565	1571	1567	1559	1539	1521	1518	1525	1535	1538	1542	1525	1506	1511	1551	1559	1563	1565	1560	1561	1561	1557	1557	1576	1588	1585	1540	1512	1509	1519	1536	1549	1545	1542	1515	1511	1517	1520	1523	1529	1538	1541	1543	1539	1540	1540	1530	1523	1522	1523	1526	1525	1522	1527	1533	1529	1516	1504	1507	1517	1532	1549	1571	1591	1588	1579	1563	1555	1562	1567	1569	1552	1537	1521	1511	1518	1518	1525	1522	1515	1508	1506	1512	1511	1499	1488	1495	1500	1506	1507	1507	1507	1506	1525	1545	1545	0	0	0	0	0	0	0
0	0	0	1227	1225	1242	1255	1255	1264	1271	1270	1265	1260	1260	1262	1256	1260	1254	1258	0	0	0	0	0	0	0	0	0	0	0	0	0	0	0	0	0	0	0	0	0	0	0	0	0	0	0	0	0	0	0	0	0	0	0	0	0	1456	1481	1505	1518	1525	1533	1541	1540	1539	1535	1533	1532	1529	0	0	0	0	1327	1261	1233	1238	1252	1273	1283	1284	1285	1284	1278	1278	1275	1275	1270	1267	1271	1282	1295	1293	1285	1276	1279	1286	1293	1296	1294	1285	1282	1286	1286	1284	1284	1290	1284	1273	1269	1275	1276	1285	1296	1303	1306	1305	1298	1291	1288	1293	1297	1294	1290	1278	1275	1270	1272	1281	1287	1295	1297	1288	1285	1289	1299	1309	1309	1313	1321	1318	1305	1295	1291	1295	1297	1298	1298	1297	1290	1285	1276	1284	1292	1304	1310	1315	1317	1311	1298	1292	1289	1285	1287	1289	1298	1310	1315	1314	1313	1316	1323	1321	1317	1304	1294	1294	1297	1303	1313	1316	1317	1317	1316	1316	1311	1306	1300	1298	1298	1318	1332	1346	1346	1340	1325	1312	1314	1319	1318	1317	1307	1303	1308	1318	1341	1323	1309	1317	1323	1331	1329	1318	1315	1326	1334	1329	1315	1323	1331	1341	1348	1345	1329	1324	1332	1335	1339	1345	1352	1359	1359	1352	1338	1333	1330	1340	1343	1345	1342	1340	1342	1361	1357	1332	1345	1343	1352	1356	1349	1364	1371	1375	1366	1349	1336	1338	1341	1341	1335	1330	1337	1342	1346	1349	1357	1362	1372	1371	1370	1364	1363	1361	1370	1378	1379	1376	1372	1363	1371	1370	1373	1366	1359	1355	1355	1358	1361	1360	1370	1377	1386	1400	1412	1407	1392	1385	1386	1386	1390	1381	1377	1361	1370	1374	1376	1378	1385	1390	1395	1392	1395	1396	1394	1394	1396	1391	1388	1381	1374	1370	1370	1383	1392	1402	1398	1393	1393	1394	1404	1422	1433	1433	1423	1412	1416	1410	1398	1388	1390	1402	1410	1416	1419	1419	1426	1427	1424	1408	1408	1410	1415	1420	1415	1410	1409	1413	1417	1418	1430	1437	1427	1422	1407	1407	1411	1414	1416	1419	1419	1423	1423	1424	1417	1412	1412	1414	1413	1408	1414	1420	1428	1438	1457	1463	1461	1455	1450	1445	1445	1441	1439	1451	1455	1453	1447	1448	1455	1460	1454	1506	0	0	0	0	0	0	0	0	0	0	0	0	0	0	0	0	0	0	0	0	0	0	0	1636	1622	1609	1605	1589	1581	1542	1534	1549	1556	1562	1549	1546	1550	1558	1565	1573	1579	1579	1553	1560	1569	1580	1582	1587	1584	1577	1572	1571	1573	1576	1666	0	1659	1638	1617	1601	1594	1594	1581	1555	1558	1555	1565	1577	1588	1581	1584	1593	1547	1531	1540	1549	1549	1539	1515	1517	1523	1542	1543	1533	1516	1512	1503	1507	1517	1527	1524	1530	1531	1533	1545	1557	1557	1557	1547	1542	1534	1532	1530	1531	1548	1556	1561	1574	1585	1592	1571	1558	1549	1549	1540	1552	1554	1564	1556	1548	1533	1518	1508	1523	1534	1543	1554	1548	1550	1544	1543	1532	1541	1533	1536	1537	1549	1553	1552	1549	1533	1524	1528	1536	1548	1552	1555	1551	1540	1544	1548	1553	1547	1543	1543	1546	1549	1551	1549	1583	1606	1597	1574	1523	1522	1534	1554	1552	1545	1541	1529	1511	1520	1516	1523	1523	1535	1531	1529	1534	1535	1535	1536	1535	1543	1544	1546	1538	1535	1540	1540	1537	1529	1524	1519	1522	1522	1536	1549	1570	1559	1551	1552	1542	1552	1563	1566	1557	1542	1528	1515	1524	1524	1522	1505	1500	1490	1498	1507	1509	1492	1485	1483	1494	1508	1522	1513	1513	1506	1516	1534	1530	0	0	0	0	0	0	0
0	0	0	1218	1226	1235	1248	1248	1263	1275	1280	1278	1269	1269	1265	1263	1254	1251	1264	0	0	0	0	0	0	0	0	0	0	0	0	0	0	0	0	0	0	0	0	0	0	0	0	0	0	0	0	0	0	0	0	0	0	0	0	0	1445	1465	1486	1508	1516	1530	1533	1536	1546	1544	1541	1533	1504	0	0	0	0	1341	1269	1234	1245	1265	1282	1286	1286	1284	1280	1278	1279	1285	1289	1283	1278	1288	1299	1309	1310	1300	1292	1289	1293	1298	1299	1296	1289	1285	1282	1287	1287	1291	1289	1284	1282	1282	1284	1291	1292	1293	1294	1297	1300	1295	1292	1297	1307	1309	1302	1293	1279	1272	1268	1267	1271	1283	1294	1293	1288	1288	1296	1308	1321	1325	1329	1333	1331	1314	1302	1298	1298	1298	1295	1288	1301	1303	1293	1297	1293	1299	1308	1312	1313	1310	1303	1294	1290	1285	1280	1282	1296	1300	1308	1311	1310	1313	1320	1320	1324	1320	1313	1305	1296	1295	1303	1312	1319	1322	1324	1321	1314	1310	1306	1303	1306	1302	1324	1334	1347	1340	1332	1317	1312	1323	1331	1335	1326	1315	1307	1314	1324	1331	1323	1307	1311	1323	1334	1333	1322	1321	1324	1337	1332	1320	1332	1340	1340	1332	1334	1329	1329	1334	1333	1338	1345	1346	1350	1348	1345	1334	1330	1339	1345	1352	1352	1350	1346	1345	1356	1357	1345	1343	1347	1343	1347	1354	1368	1375	1374	1364	1347	1338	1347	1348	1345	1342	1345	1348	1355	1355	1358	1363	1365	1370	1367	1367	1358	1360	1360	1375	1385	1386	1379	1377	1368	1368	1371	1372	1368	1358	1356	1352	1352	1352	1353	1358	1369	1377	1401	1408	1398	1378	1370	1378	1389	1390	1382	1378	1372	1372	1376	1382	1386	1385	1391	1394	1402	1402	1397	1393	1390	1389	1390	1395	1395	1390	1382	1386	1394	1399	1405	1394	1389	1390	1399	1402	1412	1430	1439	1426	1420	1409	1415	1404	1398	1403	1413	1422	1425	1432	1432	1435	1436	1426	1415	1405	1405	1403	1413	1415	1414	1414	1412	1409	1418	1426	1424	1417	1414	1411	1409	1403	1407	1410	1415	1420	1421	1420	1418	1418	1412	1417	1420	1420	1403	1402	1412	1426	1434	1451	1460	1464	1462	1457	1449	1441	1438	1439	1445	1446	1452	1445	1439	1441	1450	1445	1521	0	0	0	0	0	0	0	0	0	0	0	0	0	0	0	0	0	0	0	0	0	0	1608	1625	1627	1624	1599	1576	1559	1543	1537	1542	1556	1567	1555	1550	1549	1556	1559	1565	1569	1563	1550	1554	1561	1568	1574	1576	1580	1576	1569	1566	1574	1573	1647	0	0	0	1612	1593	1580	1583	1580	1562	1555	1555	1563	1574	1585	1589	1596	1603	1564	1535	1542	1540	1540	1514	1499	1510	1525	1529	1527	1521	1505	1498	1511	1518	1528	1536	1539	1534	1527	1527	1533	1537	1527	1532	1534	1534	1523	1524	1526	1542	1552	1557	1566	1585	1606	1606	1591	1571	1556	1547	1541	1554	1559	1549	1548	1535	1521	1513	1514	1529	1545	1555	1556	1552	1547	1536	1536	1528	1530	1531	1531	1530	1539	1543	1541	1543	1532	1535	1535	1549	1546	1548	1561	1568	1560	1552	1545	1547	1541	1535	1537	1541	1547	1545	1540	1546	1598	1605	1547	1525	1528	1544	1545	1546	1544	1542	1538	1539	1532	1531	1534	1527	1521	1520	1518	1520	1525	1531	1540	1551	1553	1555	1553	1547	1539	1538	1533	1531	1530	1528	1523	1519	1514	1517	1527	1540	1538	1531	1532	1528	1543	1553	1565	1555	1549	1533	1530	1530	1530	1520	1513	1491	1497	1501	1523	1516	1499	1495	1489	1484	1501	1513	1511	1511	1501	1499	1518	1525	0	0	0	0	0	0	0
0	0	0	1227	1231	1241	1247	1247	1260	1268	1270	1266	1260	1260	1255	1268	1268	1263	1281	0	0	0	0	0	0	0	0	0	0	0	0	0	0	0	0	0	0	0	0	0	0	0	0	0	0	0	0	0	0	0	0	0	0	0	0	0	0	1452	1478	1498	1507	1513	1521	1539	1555	1548	1537	1541	1515	1511	1511	0	0	0	1287	1255	1252	1267	1281	1286	1284	1276	1275	1276	1281	1291	1294	1294	1294	1297	1309	1319	1322	1307	1297	1299	1301	1306	1305	1300	1293	1288	1291	1286	1291	1298	1297	1289	1291	1295	1303	1302	1298	1290	1288	1292	1290	1287	1287	1296	1308	1309	1302	1288	1272	1262	1263	1264	1266	1280	1286	1289	1284	1286	1295	1312	1325	1332	1336	1338	1332	1321	1310	1295	1295	1292	1291	1288	1302	1300	1303	1299	1299	1295	1300	1304	1304	1301	1295	1288	1287	1283	1281	1293	1296	1299	1298	1300	1302	1309	1314	1319	1323	1324	1319	1317	1304	1300	1308	1311	1317	1320	1323	1317	1311	1305	1301	1307	1313	1318	1320	1337	1338	1337	1327	1325	1323	1335	1341	1346	1334	1324	1318	1320	1326	1329	1318	1304	1312	1326	1337	1335	1332	1327	1329	1330	1319	1323	1333	1336	1342	1340	1335	1336	1338	1335	1333	1337	1343	1342	1342	1338	1335	1328	1329	1337	1348	1358	1360	1355	1347	1347	1356	1360	1353	1337	1341	1349	1350	1358	1361	1368	1368	1360	1345	1342	1350	1357	1359	1356	1353	1357	1363	1363	1360	1363	1364	1364	1361	1362	1358	1356	1359	1375	1386	1387	1387	1378	1375	1375	1375	1375	1372	1367	1363	1356	1354	1352	1354	1358	1359	1364	1374	1387	1379	1365	1361	1373	1388	1397	1391	1385	1377	1375	1383	1394	1394	1389	1389	1395	1402	1406	1401	1393	1379	1381	1386	1394	1400	1394	1390	1397	1402	1407	1411	1401	1397	1398	1406	1413	1421	1419	1430	1426	1420	1421	1415	1409	1404	1409	1420	1426	1429	1431	1431	1435	1437	1429	1418	1401	1396	1399	1405	1417	1418	1417	1402	1397	1407	1412	1422	1417	1412	1407	1404	1402	1404	1411	1419	1425	1425	1416	1414	1418	1421	1421	1422	1415	1417	1414	1427	1434	1436	1446	1448	1444	1451	1450	1439	1435	1429	1429	1439	1446	1455	1448	1441	1438	1436	1451	1537	0	0	0	0	0	0	0	0	0	0	0	0	0	0	0	0	0	0	0	0	0	0	1588	1625	1627	1621	1595	1572	1567	1545	1546	1551	1559	1569	1565	1557	1554	1557	1560	1562	1564	1560	1562	1559	1564	1567	1572	1575	1579	1577	1570	1563	1582	1613	0	0	0	0	0	0	1576	1569	1576	1562	1544	1550	1558	1581	1585	1584	1589	1600	1572	1533	1525	1538	1525	1513	1506	1521	1527	1526	1528	1512	1501	1507	1529	1537	1546	1550	1544	1536	1530	1527	1523	1529	1520	1528	1533	1531	1516	1527	1528	1550	1550	1551	1557	1575	1595	1601	1592	1571	1558	1545	1543	1548	1553	1542	1526	1519	1508	1514	1524	1540	1557	1564	1565	1559	1549	1542	1534	1526	1538	1552	1542	1534	1532	1540	1542	1534	1531	1533	1535	1540	1543	1546	1559	1570	1577	1562	1548	1549	1529	1518	1521	1534	1542	1537	1533	1527	1529	1536	1533	1518	1528	1547	1548	1544	1540	1545	1545	1540	1537	1539	1540	1525	1515	1505	1505	1514	1519	1527	1534	1547	1551	1553	1551	1540	1519	1513	1505	1513	1522	1522	1515	1508	1507	1515	1519	1525	1525	1524	1516	1519	1540	1550	1557	1559	1546	1540	1530	1529	1529	1518	1511	1497	1501	1513	1524	1514	1514	1498	1492	1488	1491	1495	1506	1506	1504	1500	1520	1523	0	0	0	0	0	0	0
0	0	0	1238	1244	1251	1258	1258	1260	1259	1254	1242	1241	1241	1236	1250	1267	1272	1292	0	0	0	0	0	0	0	0	0	0	0	0	0	0	0	0	0	0	0	0	0	0	0	0	0	0	0	0	0	0	0	0	0	0	0	0	0	0	1481	1485	1496	1503	1501	1509	1526	1550	1553	1553	1550	1513	1490	1490	0	0	0	1286	1265	1261	1266	1279	1280	1273	1270	1270	1276	1286	1291	1295	1292	1290	1296	1304	1309	1315	1311	1303	1301	1305	1307	1305	1303	1296	1292	1291	1286	1294	1299	1297	1294	1295	1302	1310	1309	1297	1286	1281	1281	1280	1275	1276	1284	1296	1302	1295	1281	1265	1262	1265	1268	1272	1274	1275	1287	1281	1278	1288	1303	1318	1322	1328	1331	1330	1318	1305	1295	1291	1289	1293	1303	1301	1298	1296	1294	1292	1292	1289	1291	1295	1296	1296	1293	1297	1289	1290	1293	1294	1295	1288	1289	1295	1305	1315	1328	1336	1343	1350	1348	1319	1314	1312	1308	1311	1313	1315	1316	1314	1309	1307	1309	1318	1325	1326	1333	1334	1334	1328	1325	1327	1338	1343	1348	1341	1332	1325	1327	1326	1331	1324	1311	1310	1326	1337	1343	1346	1352	1353	1341	1332	1331	1336	1340	1336	1345	1353	1353	1344	1337	1328	1331	1343	1340	1338	1336	1328	1323	1327	1332	1346	1355	1359	1357	1358	1355	1363	1363	1355	1341	1348	1358	1360	1361	1362	1361	1359	1350	1340	1337	1350	1364	1367	1365	1357	1361	1359	1366	1364	1363	1361	1359	1358	1360	1360	1360	1364	1375	1382	1382	1379	1377	1373	1371	1375	1382	1385	1380	1375	1369	1359	1360	1360	1365	1361	1361	1372	1379	1375	1361	1357	1370	1384	1394	1391	1385	1384	1388	1399	1404	1400	1391	1383	1393	1404	1411	1405	1395	1376	1371	1377	1389	1403	1401	1393	1400	1408	1417	1413	1407	1399	1402	1405	1410	1412	1417	1423	1427	1428	1421	1413	1408	1404	1408	1421	1427	1428	1423	1424	1426	1430	1429	1413	1397	1394	1398	1429	1434	1433	1419	1407	1397	1410	1413	1423	1424	1414	1408	1405	1401	1404	1431	1433	1429	1429	1420	1417	1420	1437	1444	1437	1425	1424	1426	1435	1439	1439	1447	1446	1442	1445	1445	1434	1425	1422	1430	1441	1448	1460	1458	1443	1437	1436	1463	1550	0	0	0	0	0	0	0	0	0	0	0	0	0	0	0	0	0	0	0	0	0	0	0	1644	1622	1622	1590	1573	1570	1555	1545	1549	1557	1567	1564	1558	1559	1560	1562	1563	1564	1569	1564	1568	1571	1576	1573	1577	1582	1581	1578	1565	1589	1624	1590	0	0	0	0	0	1574	1563	1559	1547	1546	1547	1568	1589	1585	1584	1578	1594	1569	1524	1531	1520	1508	1504	1522	1534	1538	1536	1537	1523	1514	1524	1566	1569	1564	1563	1563	1551	1548	1537	1530	1527	1525	1529	1527	1521	1516	1536	1550	1545	1543	1536	1537	1545	1551	1568	1565	1552	1541	1540	1532	1530	1541	1532	1526	1510	1500	1506	1523	1541	1553	1566	1558	1554	1548	1545	1541	1539	1555	1550	1546	1540	1537	1536	1528	1528	1528	1530	1527	1532	1536	1542	1563	1580	1579	1565	1561	1554	1537	1527	1526	1543	1543	1532	1523	1515	1513	1511	1502	1504	1522	1548	1561	1558	1544	1540	1539	1539	1540	1541	1542	1532	1521	1511	1509	1517	1518	1525	1533	1537	1539	1542	1547	1529	1506	1503	1497	1508	1514	1512	1505	1512	1519	1518	1525	1525	1521	1511	1509	1527	1544	1547	1551	1552	1550	1540	1529	1514	1514	1514	1498	1494	1492	1508	1506	1519	1511	1508	1502	1496	1494	1499	1506	1506	1505	1507	1518	1532	0	0	0	0	0	0	0
0	0	0	1241	1247	1254	1261	1261	1265	1254	1238	1227	1225	1225	1233	1248	1260	1288	1294	0	0	0	0	0	0	0	0	0	0	0	0	0	0	0	0	0	0	0	0	0	0	0	0	0	0	0	0	0	0	0	0	0	0	0	0	0	0	1496	1489	1492	1500	1505	1506	1513	1533	1559	1561	1527	1515	1458	1458	0	0	1366	1280	1276	1268	1268	1277	1274	1266	1260	1259	1267	1277	1280	1283	1289	1289	1288	1291	1292	1294	1301	1304	1301	1301	1302	1301	1305	1298	1292	1290	1290	1289	1295	1300	1298	1299	1304	1309	1304	1289	1278	1270	1276	1273	1267	1270	1276	1291	1297	1296	1283	1270	1267	1270	1276	1277	1277	1273	1277	1275	1274	1283	1292	1300	1308	1315	1317	1324	1313	1301	1292	1289	1292	1297	1303	1300	1297	1289	1287	1286	1284	1288	1288	1296	1299	1301	1304	1302	1305	1301	1299	1301	1295	1288	1287	1298	1306	1316	1324	1334	1339	1345	1349	1348	1329	1314	1307	1304	1309	1312	1316	1318	1316	1311	1321	1325	1333	1331	1325	1331	1332	1329	1327	1333	1341	1347	1349	1342	1333	1331	1329	1328	1329	1323	1316	1318	1327	1336	1348	1357	1365	1364	1353	1347	1348	1346	1345	1339	1349	1358	1358	1350	1346	1338	1333	1341	1341	1341	1335	1327	1324	1318	1330	1342	1351	1357	1358	1359	1362	1369	1367	1362	1371	1354	1356	1377	1377	1371	1363	1354	1344	1335	1335	1349	1363	1365	1366	1360	1357	1360	1362	1360	1359	1358	1363	1364	1372	1377	1366	1374	1382	1385	1380	1377	1376	1369	1364	1369	1378	1396	1400	1395	1387	1392	1391	1391	1384	1374	1378	1384	1388	1377	1367	1364	1375	1389	1394	1399	1390	1396	1405	1410	1414	1401	1386	1381	1388	1405	1416	1417	1407	1395	1382	1379	1399	1410	1423	1413	1417	1425	1421	1413	1406	1400	1404	1410	1416	1414	1415	1417	1422	1426	1427	1428	1416	1400	1407	1435	1435	1426	1423	1418	1418	1422	1425	1425	1420	1426	1434	1441	1440	1431	1427	1426	1424	1430	1444	1446	1442	1428	1421	1416	1421	1435	1440	1435	1433	1426	1431	1438	1442	1453	1455	1455	1444	1447	1444	1448	1453	1447	1454	1447	1445	1447	1442	1433	1425	1421	1431	1441	1452	1464	1464	1450	1446	1448	1479	1548	1556	0	0	0	0	0	0	0	0	0	0	0	0	0	0	0	0	0	0	0	0	0	0	1622	1621	1617	1588	1584	1583	1562	1540	1548	1553	1567	1565	1567	1566	1564	1567	1568	1571	1569	1570	1572	1574	1577	1572	1581	1585	1583	1577	1570	1589	1605	1559	1567	1585	0	0	0	1579	1554	1539	1532	1539	1550	1567	1587	1589	1584	1580	1579	1572	1563	1521	1509	1515	1532	1538	1541	1550	1562	1566	1551	1543	1562	1593	1602	1596	1596	1579	1569	1574	1575	1561	1546	1535	1529	1528	1526	1534	1559	1560	1551	1531	1524	1521	1514	1526	1531	1525	1518	1532	1549	1547	1535	1549	1543	1533	1519	1514	1523	1536	1557	1568	1563	1543	1534	1536	1540	1565	1594	1590	1570	1556	1547	1554	1545	1535	1522	1522	1522	1523	1533	1557	1576	1584	1601	1603	1605	1584	1591	1600	1585	1565	1552	1546	1542	1535	1533	1523	1511	1506	1499	1518	1536	1552	1544	1541	1535	1528	1521	1529	1535	1551	1567	1569	1558	1545	1533	1519	1517	1526	1528	1533	1527	1541	1542	1542	1534	1532	1529	1520	1515	1514	1528	1548	1547	1545	1537	1527	1521	1524	1539	1554	1552	1544	1538	1534	1520	1503	1507	1507	1506	1498	1489	1482	1498	1501	1507	1512	1524	1533	1521	1515	1507	1509	1509	1512	1525	1531	1530	0	0	0	0	0	0	0
0	0	0	1238	1238	1247	1251	1251	1257	1254	1234	1227	1229	1229	1239	1256	1266	1292	1304	0	0	0	0	0	0	0	0	0	0	0	0	0	0	0	0	0	0	0	0	0	0	0	0	0	0	0	0	0	0	0	0	0	0	0	0	0	0	1513	1499	1490	1494	1502	1509	1512	1530	1546	1552	1533	1490	0	0	0	0	1275	1265	1281	1275	1281	1281	1273	1268	1258	1254	1255	1260	1260	1272	1280	1281	1282	1286	1282	1284	1291	1300	1298	1295	1298	1303	1305	1303	1300	1291	1287	1290	1294	1301	1302	1298	1302	1293	1292	1281	1274	1270	1267	1271	1267	1270	1277	1294	1308	1306	1290	1280	1276	1282	1286	1285	1283	1276	1274	1275	1279	1279	1287	1290	1290	1294	1304	1314	1311	1292	1288	1288	1297	1303	1300	1298	1294	1302	1309	1308	1293	1287	1291	1292	1297	1305	1311	1312	1314	1301	1298	1302	1297	1286	1292	1304	1313	1315	1324	1331	1335	1338	1350	1365	1358	1338	1323	1307	1308	1314	1324	1323	1320	1322	1323	1337	1346	1329	1322	1325	1332	1332	1336	1341	1350	1350	1346	1342	1337	1335	1333	1329	1333	1328	1320	1317	1324	1338	1352	1364	1371	1372	1372	1371	1365	1360	1352	1348	1353	1359	1361	1361	1356	1350	1346	1346	1352	1347	1346	1339	1332	1330	1332	1343	1351	1356	1361	1362	1363	1367	1366	1362	1363	1375	1360	1390	1387	1390	1388	1393	1390	1378	1355	1348	1343	1344	1367	1366	1366	1363	1362	1360	1365	1373	1391	1400	1398	1385	1371	1381	1397	1395	1399	1392	1401	1397	1386	1381	1392	1403	1419	1425	1419	1417	1412	1404	1403	1405	1414	1436	1437	1423	1401	1392	1396	1404	1401	1402	1399	1400	1416	1424	1426	1414	1394	1389	1397	1417	1431	1437	1429	1413	1404	1401	1405	1416	1429	1439	1443	1447	1430	1411	1399	1392	1405	1419	1427	1432	1426	1417	1421	1427	1436	1437	1429	1425	1429	1436	1435	1431	1426	1420	1424	1436	1443	1439	1435	1438	1446	1450	1440	1434	1426	1432	1437	1445	1455	1456	1448	1434	1429	1427	1429	1440	1442	1436	1434	1435	1445	1452	1456	1465	1465	1469	1472	1470	1468	1466	1467	1461	1463	1464	1457	1457	1452	1439	1422	1421	1437	1447	1457	1464	1463	1459	1465	1476	1490	1511	1550	1554	1579	0	0	0	0	0	0	0	0	0	0	0	0	0	0	0	0	0	0	0	0	1604	1618	1619	1591	1599	1598	1571	1556	1538	1552	1568	1574	1578	1573	1568	1569	1571	1564	1574	1577	1577	1571	1570	1579	1583	1589	1579	1572	1582	1590	1601	1560	1558	1584	1603	1624	1624	1597	1560	1546	1544	1549	1561	1570	1575	1585	1585	1578	1575	1574	1567	1566	1552	1544	1552	1551	1553	1563	1569	1571	1561	1561	1577	1604	1608	1612	1597	1570	1569	1587	1593	1584	1577	1563	1541	1533	1532	1551	1563	1562	1556	1539	1534	1526	1523	1525	1522	1505	1517	1534	1557	1560	1558	1566	1572	1555	1540	1541	1545	1556	1561	1575	1572	1552	1531	1537	1556	1580	1602	1584	1584	1586	1592	1579	1564	1539	1542	1540	1535	1536	1532	1558	1576	1579	1579	1589	1593	1591	1591	1599	1572	1552	1534	1531	1539	1542	1544	1553	1538	1526	1511	1517	1532	1539	1545	1544	1554	1544	1523	1521	1531	1557	1576	1598	1598	1588	1590	1588	1593	1558	1535	1523	1532	1543	1550	1564	1572	1560	1548	1538	1526	1539	1566	1573	1569	1569	1566	1560	1558	1547	1536	1543	1554	1541	1540	1529	1510	1501	1493	1493	1500	1498	1490	1484	1483	1507	1531	1538	1546	1550	1550	1532	1513	1509	1509	1516	1531	1527	1517	0	0	0	0	0	0	0
0	0	0	1243	1235	1233	1239	1239	1261	1271	1262	1237	1241	1241	1250	1257	1273	1279	1303	0	0	0	0	0	0	0	0	0	0	0	0	0	0	0	0	0	0	0	0	0	0	0	0	0	0	0	0	0	0	0	0	0	0	0	0	0	0	1525	1515	1508	1510	1515	1518	1507	1489	1492	1508	1515	0	0	0	0	0	1283	1267	1274	1276	1279	1278	1277	1274	1266	1260	1255	1255	1255	1266	1279	1286	1288	1286	1282	1280	1284	1293	1296	1298	1299	1305	1310	1309	1305	1296	1289	1292	1302	1322	1331	1312	1296	1287	1282	1281	1274	1271	1274	1280	1284	1287	1305	1318	1329	1328	1323	1313	1302	1294	1293	1298	1290	1287	1284	1298	1305	1306	1302	1300	1286	1281	1291	1298	1305	1319	1318	1314	1310	1314	1301	1303	1312	1326	1329	1324	1313	1298	1288	1287	1293	1305	1322	1328	1330	1305	1298	1303	1310	1304	1304	1304	1312	1324	1328	1334	1336	1343	1354	1360	1352	1341	1327	1324	1331	1333	1335	1333	1330	1332	1337	1344	1353	1345	1329	1323	1326	1330	1342	1352	1360	1362	1357	1350	1342	1340	1339	1338	1339	1334	1320	1319	1327	1338	1352	1363	1370	1378	1389	1385	1376	1367	1358	1356	1355	1356	1364	1369	1364	1359	1357	1361	1363	1363	1357	1349	1347	1338	1342	1347	1351	1356	1357	1359	1357	1371	1371	1370	1371	1371	1391	1393	1394	1396	1396	1395	1401	1385	1365	1350	1341	1346	1367	1366	1371	1364	1362	1363	1369	1380	1395	1413	1405	1394	1383	1389	1409	1411	1408	1407	1416	1408	1400	1392	1387	1411	1425	1436	1432	1419	1412	1406	1406	1411	1422	1436	1441	1418	1400	1388	1397	1397	1401	1405	1411	1410	1414	1418	1423	1416	1405	1395	1405	1419	1434	1440	1434	1419	1410	1405	1408	1415	1429	1448	1448	1446	1437	1412	1395	1397	1407	1437	1437	1442	1441	1429	1424	1429	1434	1445	1436	1436	1434	1428	1434	1432	1438	1445	1445	1457	1459	1451	1451	1457	1465	1459	1447	1444	1440	1447	1453	1464	1463	1467	1458	1444	1442	1439	1443	1449	1450	1444	1440	1447	1461	1472	1476	1474	1479	1483	1489	1494	1502	1498	1493	1478	1475	1484	1479	1469	1464	1451	1439	1442	1460	1470	1473	1476	1469	1470	1483	1503	1513	1511	1513	1521	1561	1595	0	0	0	0	0	0	0	0	0	0	0	0	0	0	0	0	0	0	1597	1592	1599	1605	1607	1615	1613	1594	1583	1556	1574	1592	1594	1583	1576	1577	1578	1583	1600	1610	1611	1601	1581	1575	1573	1566	1562	1564	1570	1577	1597	1604	1571	1569	1580	1582	1565	1548	1556	1564	1576	1586	1588	1587	1585	1578	1564	1553	1542	1540	1551	1569	1568	1562	1552	1548	1565	1566	1571	1565	1567	1569	1573	1572	1568	1579	1584	1579	1570	1576	1591	1598	1595	1587	1580	1564	1549	1546	1570	1573	1573	1566	1562	1547	1540	1538	1533	1533	1526	1524	1545	1572	1576	1579	1572	1573	1572	1575	1576	1588	1591	1586	1588	1579	1552	1535	1544	1564	1581	1586	1573	1578	1590	1598	1590	1577	1567	1561	1574	1570	1548	1531	1547	1559	1554	1554	1553	1569	1595	1597	1585	1576	1545	1527	1530	1539	1552	1554	1558	1555	1552	1547	1540	1546	1544	1558	1571	1582	1563	1543	1531	1539	1555	1584	1610	1610	1602	1603	1619	1614	1566	1533	1524	1541	1551	1567	1580	1581	1578	1566	1546	1540	1545	1563	1573	1571	1569	1585	1587	1586	1567	1545	1545	1553	1551	1539	1529	1520	1511	1513	1513	1521	1517	1497	1491	1493	1512	1540	1548	1559	1550	1542	1531	1529	1517	1517	1525	1521	1519	1507	0	0	0	0	0	0	0
0	0	0	1260	1255	1254	1284	1284	1286	1278	1279	1273	1260	1260	1265	1261	1267	1289	1272	0	0	0	0	0	0	0	0	0	0	0	0	0	0	0	0	0	0	0	0	0	0	0	0	0	0	0	0	0	0	0	0	0	0	0	0	0	0	1527	1524	1517	1520	1522	1510	1492	1485	1486	0	0	0	0	0	0	1356	1300	1279	1272	1273	1273	1273	1275	1282	1288	1283	1277	1267	1270	1280	1288	1294	1294	1292	1286	1283	1286	1293	1300	1300	1301	1302	1306	1307	1309	1304	1297	1301	1315	1343	1334	1322	1309	1299	1296	1292	1284	1281	1288	1309	1321	1315	1324	1329	1333	1334	1325	1317	1309	1309	1301	1310	1313	1315	1320	1326	1329	1334	1338	1324	1297	1279	1293	1295	1306	1328	1340	1353	1345	1327	1313	1321	1329	1335	1336	1332	1321	1311	1298	1296	1300	1313	1328	1340	1334	1314	1308	1325	1337	1326	1307	1310	1309	1321	1331	1331	1337	1340	1353	1363	1349	1337	1318	1320	1337	1348	1347	1342	1338	1336	1347	1354	1361	1351	1338	1328	1328	1332	1345	1357	1367	1371	1365	1354	1347	1347	1343	1344	1345	1337	1325	1323	1329	1341	1351	1359	1373	1386	1397	1394	1379	1372	1363	1358	1351	1360	1382	1391	1391	1375	1374	1380	1371	1373	1377	1382	1379	1367	1358	1350	1352	1359	1362	1365	1362	1373	1387	1399	1389	1407	1425	1423	1400	1387	1396	1405	1417	1409	1392	1376	1375	1388	1389	1389	1390	1389	1386	1379	1378	1391	1403	1410	1409	1402	1397	1403	1414	1421	1430	1423	1413	1409	1414	1417	1412	1405	1404	1407	1411	1410	1402	1393	1398	1414	1427	1438	1433	1426	1416	1412	1407	1410	1407	1413	1417	1420	1427	1430	1424	1420	1416	1417	1419	1427	1439	1439	1431	1424	1416	1411	1407	1405	1416	1420	1420	1419	1416	1423	1424	1435	1444	1452	1451	1439	1435	1428	1429	1425	1424	1430	1437	1446	1447	1436	1435	1455	1467	1472	1481	1478	1463	1458	1459	1468	1474	1467	1446	1434	1438	1446	1456	1465	1477	1487	1477	1459	1444	1445	1455	1460	1455	1452	1451	1455	1470	1478	1478	1473	1479	1481	1491	1511	1522	1514	1487	1469	1460	1463	1477	1477	1482	1478	1481	1480	1486	1505	1501	1483	1470	1462	1469	1508	1529	1535	1533	1528	1528	1564	0	0	0	0	0	0	0	0	0	0	0	0	0	0	0	0	0	0	1601	1591	1589	1607	1624	1634	1626	1595	1588	1588	1555	1539	1545	1565	1556	1542	1537	1521	1559	1583	1594	1584	1558	1544	1526	1521	1535	1553	1574	1585	1600	1610	1587	1585	1575	1557	1544	1545	1556	1562	1565	1563	1569	1573	1572	1565	1552	1542	1537	1523	1529	1556	1572	1568	1545	1547	1546	1562	1560	1554	1562	1563	1562	1560	1558	1569	1577	1574	1571	1563	1585	1593	1591	1592	1596	1588	1581	1567	1568	1574	1585	1591	1585	1577	1566	1551	1545	1548	1551	1551	1568	1581	1591	1583	1574	1578	1593	1603	1610	1607	1602	1597	1590	1576	1560	1545	1557	1568	1564	1551	1542	1552	1575	1588	1596	1586	1587	1603	1605	1599	1575	1545	1531	1519	1524	1530	1543	1553	1568	1581	1582	1569	1546	1524	1526	1546	1558	1563	1572	1576	1578	1586	1585	1591	1599	1605	1614	1605	1587	1557	1545	1546	1559	1570	1589	1587	1580	1589	1593	1581	1558	1555	1558	1565	1579	1587	1585	1581	1577	1574	1563	1552	1544	1538	1547	1562	1566	1579	1594	1596	1578	1567	1552	1556	1572	1560	1551	1551	1550	1560	1560	1560	1547	1517	1515	1514	1521	1537	1551	1552	1538	1536	1531	1538	1537	1537	1535	1524	1513	1509	0	0	0	0	0	0	0
0	0	0	1266	1262	1271	1285	1285	1284	1270	1271	1286	1310	1310	1338	1333	1314	1277	1292	0	0	0	0	0	0	0	0	0	0	0	0	0	0	0	0	0	0	0	0	0	0	0	0	0	0	0	0	0	0	0	0	0	0	0	0	0	1525	1529	1519	1523	1527	1522	1504	1495	1495	1507	0	0	0	0	0	0	1346	1326	1292	1275	1276	1277	1272	1275	1288	1296	1305	1302	1304	1301	1297	1299	1295	1295	1289	1292	1290	1295	1298	1294	1298	1294	1295	1298	1302	1311	1317	1317	1322	1329	1342	1340	1333	1331	1324	1318	1306	1299	1296	1300	1312	1320	1314	1319	1325	1330	1331	1329	1323	1314	1301	1302	1307	1313	1321	1333	1333	1336	1347	1343	1334	1313	1295	1299	1304	1319	1336	1354	1361	1349	1335	1330	1345	1350	1345	1341	1335	1328	1324	1317	1315	1317	1320	1334	1343	1334	1319	1325	1338	1351	1339	1319	1316	1314	1317	1325	1329	1334	1342	1352	1361	1351	1337	1330	1338	1346	1363	1371	1364	1357	1358	1354	1358	1355	1361	1364	1364	1356	1345	1344	1347	1353	1362	1364	1362	1362	1367	1362	1361	1365	1361	1349	1363	1370	1371	1370	1364	1369	1379	1388	1393	1391	1382	1378	1375	1362	1370	1377	1378	1367	1369	1368	1365	1367	1384	1393	1397	1389	1378	1374	1372	1371	1370	1368	1366	1365	1369	1380	1385	1389	1394	1401	1402	1400	1386	1388	1385	1383	1385	1381	1380	1379	1397	1404	1410	1406	1398	1389	1376	1377	1376	1383	1406	1414	1411	1408	1411	1393	1399	1409	1406	1401	1400	1399	1400	1397	1401	1419	1423	1420	1422	1419	1407	1398	1391	1396	1401	1413	1427	1430	1428	1421	1411	1412	1420	1427	1428	1439	1441	1443	1442	1438	1430	1426	1425	1424	1421	1416	1405	1406	1404	1402	1407	1416	1424	1426	1423	1425	1431	1434	1438	1440	1445	1445	1442	1438	1434	1441	1439	1431	1435	1445	1451	1451	1440	1444	1444	1462	1471	1480	1471	1461	1458	1464	1470	1474	1458	1444	1435	1433	1444	1448	1455	1467	1481	1473	1462	1451	1454	1462	1463	1458	1452	1441	1452	1458	1456	1456	1458	1455	1461	1470	1494	1509	1501	1481	1460	1452	1455	1468	1481	1487	1489	1491	1500	1508	1504	1503	1488	1473	1465	1468	1480	1504	1530	1526	1525	1517	1561	0	0	0	0	0	0	0	0	0	0	0	0	0	0	0	0	0	0	0	1599	1599	1598	1616	1628	1611	1581	1576	1569	1550	1540	1543	1574	1572	1565	1548	1542	1558	1565	1570	1572	1575	1560	1536	1511	1524	1544	1562	1577	1591	1610	1595	1581	1570	1554	1548	1554	1564	1562	1553	1555	1562	1566	1560	1559	1550	1534	1532	1534	1545	1551	1554	1542	1540	1545	1551	1560	1562	1565	1566	1570	1564	1562	1560	1567	1576	1573	1568	1575	1586	1589	1589	1586	1590	1590	1578	1569	1564	1571	1595	1603	1599	1588	1576	1565	1565	1563	1564	1565	1577	1599	1600	1581	1574	1587	1602	1614	1624	1618	1609	1597	1592	1585	1570	1569	1575	1579	1573	1540	1539	1554	1572	1585	1593	1590	1599	1609	1618	1615	1595	1572	1539	1528	1516	1533	1545	1555	1553	1569	1570	1563	1544	1533	1528	1543	1563	1566	1573	1578	1589	1608	1613	1612	1612	1618	1622	1613	1578	1560	1552	1543	1551	1556	1558	1548	1545	1544	1554	1567	1568	1564	1568	1575	1581	1584	1572	1558	1553	1565	1560	1552	1532	1523	1529	1536	1548	1552	1576	1583	1573	1567	1566	1579	1587	1588	1580	1577	1586	1585	1585	1568	1552	1534	1517	1512	1510	1529	1537	1532	1531	1530	1528	1528	1543	1543	1539	1536	1526	1512	0	0	0	0	0	0	0
0	0	0	1274	1275	1281	1284	1284	1276	1277	1285	0	0	0	0	0	0	0	0	0	0	0	0	0	0	0	1327	1322	1322	1339	1359	1377	1375	1387	1391	1393	1400	1441	1441	0	1446	1434	0	0	0	1458	1463	1476	1489	1471	1471	1461	1455	1467	1473	1480	1490	1503	1512	1524	1527	1515	1495	1492	1504	1520	1528	1516	1477	1432	1432	1374	1348	1326	1294	1285	1283	1287	1282	1291	1292	1312	1321	1326	1327	1322	1310	1305	1304	1304	1302	1300	1298	1303	1304	1293	1291	1291	1290	1302	1309	1317	1326	1332	1332	1330	1328	1334	1342	1354	1355	1346	1330	1321	1315	1317	1322	1318	1310	1305	1297	1308	1316	1320	1327	1316	1306	1301	1303	1313	1320	1325	1325	1321	1325	1337	1333	1328	1326	1332	1337	1350	1360	1365	1360	1321	1325	1345	1346	1347	1341	1335	1336	1338	1340	1332	1330	1338	1341	1349	1357	1351	1323	1323	1328	1337	1344	1349	1349	1350	1349	1344	1334	1330	1332	1336	1345	1337	1337	1338	1354	1367	1379	1373	1362	1350	1350	1358	1358	1360	1349	1349	1339	1330	1329	1335	1342	1347	1357	1368	1379	1375	1368	1362	1355	1363	1368	1366	1375	1378	1380	1379	1377	1374	1372	1365	1363	1363	1364	1371	1370	1376	1370	1374	1375	1374	1364	1367	1372	1376	1378	1371	1375	1377	1379	1385	1391	1388	1383	1370	1364	1362	1360	1369	1376	1378	1380	1382	1386	1379	1368	1361	1366	1366	1373	1375	1383	1396	1403	1408	1404	1393	1385	1376	1376	1378	1384	1387	1391	1414	1414	1416	1407	1395	1401	1399	1393	1391	1392	1395	1396	1400	1407	1416	1419	1414	1420	1419	1403	1397	1397	1401	1404	1406	1420	1432	1432	1425	1423	1425	1428	1433	1441	1445	1451	1446	1446	1445	1442	1436	1432	1428	1420	1409	1403	1402	1401	1402	1407	1417	1430	1438	1435	1435	1437	1441	1436	1434	1437	1439	1436	1432	1431	1436	1441	1441	1442	1457	1460	1456	1446	1438	1436	1448	1459	1465	1467	1462	1457	1464	1483	1466	1454	1445	1441	1443	1442	1442	1450	1459	1467	1469	1463	1462	1469	1471	1468	1461	1454	1457	1460	1458	1456	1455	1453	1457	1461	1477	1476	1484	1485	1479	1459	1448	1454	1472	1475	1483	1491	1494	1494	1500	1494	1493	1487	1479	1465	1465	1476	1498	1519	1527	1521	1510	1582	0	0	0	0	0	0	0	0	0	0	0	0	0	0	0	0	0	0	0	0	1613	1602	1600	1571	1565	1558	1562	1562	1550	1551	1559	1591	1594	1580	1565	1554	1557	1559	1556	1562	1577	1567	1535	1518	1528	1545	1556	1569	1577	1599	1587	1567	1553	1551	1558	1561	1568	1566	1557	1556	1560	1562	1561	1557	1549	1545	1540	1553	1562	1557	1540	1533	1546	1557	1572	1581	1581	1576	1574	1577	1569	1571	1564	1575	1582	1580	1577	1580	1597	1595	1591	1582	1583	1582	1577	1568	1568	1578	1592	1602	1595	1586	1577	1581	1581	1572	1572	1574	1580	1594	1599	1584	1582	1592	1604	1616	1619	1611	1602	1591	1585	1585	1584	1591	1590	1590	1583	1557	1557	1570	1583	1584	1590	1601	1599	1600	1603	1609	1600	1575	1551	1542	1529	1549	1561	1557	1549	1557	1565	1566	1552	1540	1533	1542	1554	1563	1569	1572	1585	1598	1610	1615	1608	1599	1591	1571	1554	1559	1553	1546	1545	1544	1546	1540	1534	1537	1551	1567	1583	1586	1584	1583	1577	1569	1553	1537	1540	1547	1544	1536	1520	1521	1522	1536	1533	1546	1562	1571	1572	1561	1566	1579	1593	1600	1592	1583	1588	1586	1586	1559	1537	1513	1512	1519	1513	1531	1537	1542	1538	1535	1540	1542	1552	1552	1557	1546	1534	1522	0	0	0	0	0	0	0
0	0	0	0	1309	1299	1295	1295	1284	0	0	0	0	0	0	0	0	0	0	0	0	0	0	0	1369	1374	1365	1353	1353	1366	1391	1397	1400	1400	1395	1393	1405	1421	1421	1424	1418	1417	1441	1463	1466	1464	1473	1487	1487	1484	1484	1483	1485	1487	1482	1476	1479	1491	1506	1520	1524	1503	1491	1487	1501	1524	1539	1535	1500	1431	1431	1364	1336	1319	1298	1314	1322	1332	1317	1305	1313	1321	1333	1342	1343	1337	1328	1325	1335	1331	1320	1308	1308	1307	1308	1301	1288	1280	1290	1308	1318	1325	1330	1337	1334	1329	1317	1309	1326	1352	1365	1358	1349	1338	1328	1323	1320	1315	1307	1308	1309	1313	1315	1323	1325	1322	1312	1307	1310	1321	1327	1327	1323	1318	1312	1312	1318	1325	1336	1338	1345	1351	1353	1323	1302	1303	1318	1341	1343	1340	1337	1327	1331	1337	1340	1332	1332	1339	1345	1354	1363	1357	1340	1331	1337	1344	1347	1346	1348	1347	1346	1339	1336	1329	1331	1334	1342	1337	1338	1339	1349	1361	1364	1363	1356	1344	1341	1349	1350	1358	1348	1341	1334	1331	1333	1340	1347	1354	1351	1354	1358	1364	1370	1371	1365	1366	1371	1377	1375	1375	1370	1361	1361	1369	1372	1365	1357	1356	1357	1367	1368	1379	1359	1369	1370	1370	1376	1377	1381	1380	1377	1371	1380	1381	1384	1383	1380	1394	1391	1383	1375	1368	1361	1371	1386	1396	1398	1395	1402	1393	1377	1366	1368	1368	1367	1369	1384	1395	1393	1389	1375	1371	1374	1378	1389	1399	1389	1395	1397	1409	1412	1416	1414	1416	1401	1395	1391	1390	1393	1395	1398	1400	1405	1412	1410	1408	1418	1414	1404	1403	1403	1408	1411	1411	1419	1431	1430	1422	1418	1422	1428	1440	1449	1454	1453	1447	1447	1448	1441	1440	1436	1428	1424	1415	1406	1406	1406	1410	1410	1420	1430	1445	1447	1447	1442	1442	1432	1424	1427	1429	1433	1426	1423	1427	1433	1440	1458	1467	1471	1459	1443	1433	1432	1438	1447	1461	1466	1466	1463	1462	1468	1466	1467	1457	1449	1452	1455	1449	1451	1455	1462	1465	1466	1469	1473	1480	1465	1454	1461	1465	1468	1464	1459	1454	1456	1461	1477	1481	1475	1470	1490	1492	1475	1460	1462	1479	1492	1491	1494	1496	1498	1501	1498	1493	1489	1482	1484	1476	1487	1509	1530	1526	1514	1496	1574	0	0	0	0	0	0	0	0	0	0	0	2052	1810	1796	1784	1758	1739	0	0	1696	1634	1582	1545	1526	1524	1546	1551	1567	1554	1562	1566	1584	1588	1584	1577	1564	1556	1551	1551	1551	1551	1546	1527	1530	1535	1541	1548	1559	1570	1586	1581	1563	1543	1564	1573	1575	1572	1571	1573	1564	1564	1560	1565	1563	1554	1550	1548	1573	1574	1563	1547	1545	1549	1567	1582	1589	1584	1586	1575	1577	1580	1571	1570	1578	1580	1573	1569	1592	1601	1601	1592	1579	1575	1571	1572	1565	1562	1572	1580	1581	1580	1579	1579	1581	1580	1577	1576	1572	1579	1580	1582	1568	1581	1588	1593	1596	1589	1585	1581	1575	1566	1574	1584	1596	1602	1602	1597	1573	1580	1586	1585	1582	1592	1598	1592	1576	1580	1584	1583	1575	1573	1564	1558	1580	1575	1555	1540	1548	1558	1573	1564	1555	1541	1535	1535	1542	1544	1548	1563	1575	1587	1595	1576	1568	1542	1540	1547	1556	1557	1552	1543	1544	1540	1533	1537	1552	1565	1591	1600	1601	1595	1585	1569	1563	1539	1531	1536	1540	1540	1533	1524	1521	1526	1543	1539	1542	1556	1564	1566	1560	1554	1564	1578	1586	1579	1567	1565	1567	1567	1549	1536	1514	1513	1512	1526	1533	1545	1549	1554	1547	1555	1557	1563	1563	1566	1553	1542	1530	0	0	0	0	0	0	0
0	0	0	0	0	0	0	0	0	0	0	0	0	0	0	0	0	0	0	0	0	0	1347	1378	1396	1392	1370	1366	1366	1371	1388	1416	1421	1406	1396	1388	1396	1402	1402	1400	1404	1417	1439	1462	1464	1460	1468	1480	1487	1492	1492	1485	1492	1491	1484	1478	1482	1484	1503	1513	1516	1503	1501	1496	1495	1508	1529	1544	1507	1424	1424	1338	1317	1302	1304	1324	1330	1318	1312	1305	1304	1318	1329	1329	1323	1317	1325	1332	1336	1332	1322	1314	1309	1312	1310	1304	1297	1289	1298	1311	1324	1331	1332	1331	1334	1330	1319	1301	1310	1330	1340	1339	1334	1324	1323	1319	1324	1320	1321	1316	1318	1324	1326	1331	1328	1325	1325	1322	1326	1329	1324	1324	1327	1320	1310	1299	1300	1311	1326	1339	1340	1342	1331	1299	1293	1296	1316	1340	1343	1341	1331	1325	1328	1336	1336	1333	1333	1339	1346	1353	1358	1351	1334	1335	1338	1339	1339	1340	1344	1347	1346	1343	1341	1332	1332	1332	1337	1338	1347	1353	1354	1356	1354	1356	1346	1339	1333	1341	1357	1355	1345	1338	1337	1341	1342	1346	1358	1360	1359	1353	1350	1359	1370	1373	1374	1371	1374	1373	1370	1365	1356	1347	1354	1363	1368	1369	1360	1360	1359	1358	1368	1373	1359	1363	1373	1369	1383	1388	1390	1383	1376	1369	1384	1384	1382	1378	1373	1369	1377	1384	1384	1388	1378	1373	1373	1386	1371	1367	1377	1376	1375	1379	1380	1378	1376	1369	1399	1405	1379	1376	1368	1369	1370	1373	1398	1403	1401	1401	1381	1409	1411	1411	1414	1413	1405	1399	1395	1395	1398	1399	1401	1404	1411	1412	1413	1411	1417	1415	1409	1407	1405	1410	1419	1424	1428	1438	1429	1413	1413	1412	1428	1441	1447	1449	1450	1446	1440	1438	1434	1433	1434	1429	1422	1418	1417	1422	1420	1421	1417	1418	1425	1438	1448	1445	1436	1430	1428	1421	1418	1421	1423	1423	1416	1416	1421	1438	1458	1471	1475	1459	1443	1431	1428	1430	1440	1453	1464	1469	1467	1465	1465	1465	1467	1472	1463	1461	1462	1463	1461	1461	1464	1466	1468	1469	1474	1480	1461	1451	1452	1464	1475	1473	1463	1458	1464	1473	1473	1483	1468	1479	1499	1510	1495	1474	1475	1490	1502	1503	1501	1500	1499	1499	1495	1491	1494	1494	1495	1495	1507	1520	1536	1530	1517	1487	1526	0	0	0	0	0	0	0	0	0	0	1815	1808	1803	1799	1803	1792	1785	1762	1750	1732	1617	1579	1524	1505	1500	1553	1557	1566	1563	1565	1558	1572	1576	1571	1561	1571	1563	1554	1551	1544	1536	1531	1535	1543	1541	1549	1546	1562	1566	1583	1571	1552	1557	1564	1586	1576	1577	1586	1587	1576	1575	1572	1571	1568	1558	1548	1551	1570	1570	1563	1548	1549	1564	1571	1580	1581	1579	1579	1579	1580	1587	1587	1572	1569	1572	1557	1558	1568	1587	1595	1587	1577	1568	1571	1575	1573	1556	1553	1556	1562	1561	1564	1566	1571	1573	1575	1574	1574	1573	1569	1563	1567	1572	1573	1567	1571	1568	1569	1556	1551	1551	1554	1572	1589	1602	1601	1598	1579	1581	1579	1582	1580	1588	1592	1584	1581	1575	1572	1575	1575	1568	1575	1580	1588	1577	1543	1525	1546	1557	1577	1576	1560	1545	1523	1514	1520	1525	1523	1531	1544	1566	1572	1554	1535	1527	1533	1546	1561	1562	1551	1549	1544	1547	1545	1558	1575	1584	1604	1606	1618	1600	1586	1568	1560	1546	1538	1538	1542	1548	1542	1532	1529	1533	1548	1545	1544	1542	1557	1564	1552	1543	1548	1559	1561	1564	1553	1548	1559	1559	1548	1541	1537	1529	1521	1526	1540	1547	1551	1552	1556	1557	1554	1553	1553	1552	1548	1540	1531	0	0	0	0	0	0	0
0	0	0	0	0	0	0	0	0	0	0	0	0	0	1322	1333	0	0	0	0	0	0	1363	1388	1403	1393	1368	1353	1353	1364	1386	1410	1419	1412	1398	1392	1394	1397	1397	1396	1404	1419	1440	1452	1465	1457	1462	1477	1486	1485	1485	1491	1496	1500	1493	1487	1484	1478	1493	1511	1519	1507	1509	1510	1505	1501	1508	1509	1477	1394	1394	1318	1311	1304	1314	1319	1319	1318	1314	1311	1311	1312	1317	1314	1310	1303	1306	1321	1327	1325	1314	1309	1308	1313	1318	1312	1306	1305	1311	1322	1327	1333	1334	1333	1336	1335	1325	1298	1301	1316	1327	1328	1322	1322	1320	1321	1328	1328	1328	1326	1326	1332	1336	1334	1328	1322	1326	1328	1327	1325	1324	1329	1329	1324	1313	1303	1301	1306	1326	1336	1340	1338	1331	1311	1305	1306	1315	1337	1342	1338	1329	1324	1326	1332	1334	1334	1336	1346	1350	1345	1346	1343	1326	1326	1328	1327	1331	1333	1348	1346	1348	1348	1346	1346	1343	1336	1339	1346	1354	1360	1361	1357	1353	1349	1341	1337	1338	1344	1351	1353	1340	1341	1343	1345	1349	1352	1362	1364	1363	1359	1354	1356	1362	1371	1376	1371	1365	1364	1361	1353	1349	1342	1350	1355	1365	1366	1366	1366	1357	1360	1359	1358	1356	1371	1377	1379	1382	1388	1386	1383	1373	1380	1380	1381	1372	1368	1373	1365	1365	1365	1379	1385	1388	1390	1388	1393	1372	1365	1367	1386	1376	1365	1374	1376	1373	1384	1388	1381	1384	1375	1373	1365	1369	1376	1388	1396	1398	1392	1378	1398	1405	1404	1409	1414	1401	1405	1401	1409	1411	1412	1412	1412	1415	1422	1419	1421	1422	1415	1414	1407	1397	1410	1419	1429	1439	1437	1429	1412	1404	1406	1418	1438	1452	1449	1449	1440	1430	1421	1422	1433	1442	1434	1430	1425	1423	1420	1422	1422	1417	1410	1416	1427	1433	1432	1428	1423	1420	1415	1416	1418	1416	1419	1416	1418	1427	1440	1456	1472	1474	1465	1445	1432	1431	1429	1431	1434	1446	1450	1459	1469	1479	1485	1486	1484	1478	1465	1464	1463	1470	1471	1467	1467	1464	1464	1466	1475	1465	1456	1460	1470	1478	1478	1464	1465	1464	1478	1482	1482	1481	1489	1505	1511	1503	1496	1493	1499	1503	1501	1497	1504	1501	1500	1497	1494	1494	1501	1502	1506	1511	1529	1540	1540	1526	1499	1526	0	0	0	0	0	0	0	0	0	0	1791	1799	1805	1802	1802	1810	1807	1788	1771	1746	1608	1588	1532	1501	1490	1562	1569	1574	1566	1538	1540	1560	1535	1526	1526	1525	1522	1527	1536	1528	1505	1506	1519	1540	1543	1545	1547	1549	1575	1581	1570	1569	1568	1578	1592	1583	1587	1596	1601	1588	1580	1578	1568	1560	1548	1550	1561	1565	1568	1562	1554	1565	1571	1568	1562	1557	1564	1576	1579	1584	1587	1592	1573	1565	1562	1552	1556	1567	1571	1572	1577	1569	1577	1579	1588	1589	1563	1546	1542	1545	1547	1548	1553	1556	1558	1569	1575	1581	1579	1565	1547	1557	1554	1554	1561	1566	1568	1565	1550	1529	1529	1543	1564	1576	1593	1602	1602	1579	1582	1581	1578	1582	1587	1589	1581	1582	1574	1571	1575	1569	1564	1576	1586	1592	1581	1552	1531	1554	1559	1564	1565	1548	1527	1516	1506	1503	1502	1501	1517	1532	1557	1559	1557	1542	1525	1540	1555	1570	1563	1556	1557	1552	1560	1578	1584	1589	1583	1596	1619	1610	1600	1583	1575	1567	1559	1554	1553	1553	1557	1556	1544	1538	1556	1574	1559	1542	1541	1554	1567	1561	1557	1540	1544	1549	1549	1551	1553	1557	1557	1565	1570	1566	1546	1537	1528	1534	1538	1543	1544	1547	1538	1534	1538	1538	1533	1541	1539	1532	0	0	0	0	0	0	0
0	0	0	0	0	0	0	0	0	0	0	0	1308	1308	1306	1326	1354	1371	0	0	0	0	1366	1382	1395	1392	1361	1346	1346	1359	1391	1404	1414	1406	1404	1406	1406	1406	1406	1402	1412	1431	1446	1456	1463	1471	1473	1475	1480	1477	1477	1480	1497	1512	1505	1499	1497	1489	1505	1522	1535	1521	1534	1530	1524	1514	1501	1485	1443	1371	1371	1321	1316	1315	1319	1320	1321	1322	1322	1318	1315	1317	1323	1319	1314	1309	1309	1317	1319	1316	1300	1301	1307	1318	1324	1322	1317	1312	1321	1324	1326	1330	1332	1334	1336	1338	1328	1301	1308	1319	1329	1330	1329	1326	1326	1330	1338	1335	1333	1334	1337	1338	1336	1326	1324	1320	1323	1326	1326	1324	1327	1336	1331	1326	1324	1307	1310	1318	1327	1337	1340	1344	1343	1337	1319	1319	1322	1330	1340	1334	1323	1322	1323	1324	1328	1333	1340	1345	1341	1338	1335	1335	1325	1324	1319	1319	1326	1335	1350	1350	1348	1350	1353	1353	1348	1341	1334	1347	1359	1362	1356	1350	1347	1346	1344	1340	1337	1341	1347	1354	1351	1353	1353	1351	1352	1350	1357	1365	1366	1364	1359	1358	1356	1369	1378	1368	1359	1351	1351	1351	1352	1346	1345	1351	1359	1370	1376	1369	1355	1366	1357	1354	1356	1373	1384	1385	1377	1377	1378	1377	1369	1384	1386	1383	1378	1365	1374	1361	1355	1361	1362	1368	1385	1391	1380	1381	1372	1369	1379	1387	1387	1372	1376	1389	1383	1363	1382	1385	1381	1383	1368	1362	1372	1375	1386	1393	1396	1403	1398	1391	1401	1397	1400	1408	1409	1406	1404	1416	1416	1419	1425	1423	1429	1429	1427	1426	1424	1419	1414	1403	1389	1395	1409	1423	1433	1429	1424	1418	1412	1405	1417	1438	1451	1448	1438	1432	1427	1422	1428	1437	1431	1435	1424	1413	1425	1423	1425	1419	1413	1406	1397	1409	1422	1422	1423	1430	1431	1422	1413	1412	1417	1425	1430	1428	1432	1447	1462	1471	1471	1463	1447	1440	1433	1436	1430	1433	1433	1440	1454	1475	1496	1500	1508	1511	1504	1485	1469	1467	1469	1474	1473	1463	1461	1458	1459	1467	1476	1473	1477	1489	1486	1483	1473	1481	1477	1481	1487	1489	1474	1480	1494	1503	1506	1503	1500	1504	1508	1496	1492	1486	1507	1502	1499	1493	1492	1500	1504	1509	1505	1518	1533	1543	1537	1511	1533	0	0	0	0	0	0	0	0	0	0	1783	1797	1801	1801	1801	1803	1808	1791	1758	1727	1606	1587	1545	1515	1505	1568	1581	1565	1558	1546	1552	1558	1555	1548	1549	1548	1554	1559	1550	1536	1529	1533	1546	1555	1566	1564	1554	1555	1548	1573	1576	1577	1592	1592	1591	1591	1588	1599	1607	1596	1580	1563	1559	1555	1550	1550	1554	1563	1570	1574	1577	1577	1580	1567	1557	1552	1560	1572	1577	1587	1597	1596	1581	1573	1562	1558	1562	1574	1572	1567	1565	1565	1572	1587	1594	1593	1571	1557	1543	1542	1542	1542	1539	1539	1549	1560	1573	1582	1571	1558	1545	1543	1542	1542	1554	1566	1570	1562	1547	1534	1527	1532	1554	1577	1594	1603	1600	1575	1573	1582	1577	1588	1586	1578	1576	1581	1580	1583	1579	1573	1574	1580	1590	1585	1576	1571	1557	1558	1550	1550	1534	1524	1511	1503	1501	1495	1482	1487	1522	1554	1558	1567	1565	1555	1555	1560	1582	1579	1573	1567	1563	1571	1584	1598	1605	1588	1572	1575	1604	1610	1599	1590	1580	1573	1571	1565	1561	1567	1565	1556	1556	1560	1584	1591	1572	1555	1559	1567	1573	1573	1563	1555	1547	1542	1546	1556	1577	1598	1598	1600	1604	1598	1581	1554	1544	1533	1519	1523	1519	1529	1520	1520	1525	1525	1526	1530	1523	1520	0	0	0	0	0	0	0
0	0	0	0	0	0	0	0	0	0	0	0	1316	1316	1319	1340	1362	1366	1362	1342	1342	1333	1337	1354	1374	1379	1372	1362	1380	1380	1401	1409	1410	1411	1411	1409	1410	1406	1406	1416	1434	1453	1460	1458	1458	1467	1471	1476	1478	1481	1481	1484	1502	1522	1518	1513	1506	1516	1527	1544	1543	1533	1528	1530	1534	1541	1518	1491	1454	1401	1401	1344	1330	1324	1321	1315	1321	1325	1324	1321	1319	1323	1332	1330	1325	1322	1327	1326	1323	1308	1300	1296	1306	1317	1324	1326	1325	1330	1322	1311	1298	1304	1310	1325	1334	1331	1321	1326	1332	1342	1343	1339	1334	1337	1337	1340	1343	1341	1341	1340	1336	1328	1322	1320	1317	1319	1325	1327	1330	1330	1336	1340	1332	1332	1325	1321	1319	1331	1335	1336	1341	1343	1339	1333	1323	1321	1330	1339	1345	1330	1326	1322	1321	1318	1321	1330	1337	1340	1340	1330	1328	1334	1343	1324	1316	1318	1325	1338	1353	1358	1355	1354	1359	1356	1350	1344	1341	1346	1358	1352	1346	1340	1342	1347	1347	1343	1341	1342	1348	1358	1362	1355	1358	1353	1349	1349	1351	1360	1363	1363	1364	1358	1358	1362	1370	1366	1362	1361	1364	1360	1355	1355	1347	1345	1353	1376	1382	1378	1363	1366	1361	1348	1353	1373	1385	1389	1378	1373	1376	1367	1365	1384	1386	1386	1384	1377	1381	1363	1356	1355	1356	1374	1380	1386	1389	1372	1371	1372	1381	1379	1378	1375	1381	1368	1399	1385	1363	1369	1381	1386	1374	1384	1377	1383	1389	1391	1396	1408	1402	1393	1387	1392	1398	1409	1410	1411	1422	1428	1422	1422	1431	1436	1434	1433	1430	1434	1424	1415	1408	1397	1389	1389	1403	1413	1416	1418	1420	1420	1422	1422	1417	1415	1423	1427	1436	1439	1433	1425	1426	1436	1437	1436	1418	1412	1393	1397	1410	1412	1414	1423	1437	1442	1445	1455	1463	1487	1484	1465	1424	1419	1434	1433	1418	1418	1427	1435	1458	1464	1467	1460	1458	1460	1474	1469	1453	1434	1431	1439	1450	1466	1491	1509	1521	1530	1521	1501	1481	1468	1468	1479	1480	1477	1469	1454	1452	1458	1465	1479	1489	1497	1493	1489	1488	1493	1489	1490	1495	1491	1480	1480	1484	1492	1496	1497	1500	1495	1497	1492	1490	1498	1506	1504	1501	1496	1489	1495	1505	1506	1506	1504	1517	1527	1521	1516	1537	0	0	0	0	0	0	0	0	0	0	1797	1797	1782	1779	1787	1792	1790	1783	1761	1742	1644	1589	1568	1542	1517	1562	1555	1543	1535	1533	1532	1537	1548	1552	1554	1553	1562	1571	1563	1546	1548	1566	1571	1575	1583	1584	1574	1568	1559	1561	1582	1592	1593	1579	1577	1582	1584	1594	1597	1593	1570	1561	1549	1548	1550	1554	1560	1572	1581	1589	1595	1594	1589	1576	1560	1558	1563	1580	1594	1599	1606	1612	1588	1575	1569	1564	1569	1579	1583	1574	1557	1552	1569	1584	1602	1605	1589	1575	1583	1609	1623	1606	1586	1576	1596	1594	1597	1585	1570	1549	1538	1561	1572	1574	1577	1595	1610	1604	1593	1591	1577	1545	1554	1576	1611	1635	1625	1580	0	0	0	0	1645	1603	1561	1549	1542	1551	1565	1584	1590	1590	1579	1580	0	0	0	0	1570	1552	1531	1515	1512	1525	1517	1517	1514	1518	1548	1568	1580	1590	1604	1610	1609	1587	1582	1587	1577	1571	1574	1580	1602	1612	1593	1579	1565	1561	1578	1603	1603	1591	1583	1577	1566	1563	1573	1568	1568	1567	1561	1571	1576	1590	1579	1570	1569	1576	1575	1574	1573	1562	1561	1553	1549	1564	1582	1788	1788	0	0	0	0	0	0	0	0	0	0	0	0	0	0	0	0	0	0	0	0	0	0	0	0	0	0
0	0	0	0	0	0	0	0	0	0	0	0	1335	1335	1337	1350	1372	1373	1366	1341	1341	1324	1319	1335	1358	1376	1388	1391	1410	1410	1421	1437	1430	1416	1417	1413	1406	1413	1413	1432	1453	1470	1470	1468	1457	1467	1472	1477	1488	1496	1496	1505	1523	1534	1524	1521	1522	1533	1552	1562	1546	1532	1532	1533	1534	1546	1536	1501	1477	1437	1437	1375	1346	1329	1314	1306	1299	1305	1305	1310	1320	1330	1341	1347	1351	1351	1344	1339	1334	1325	1318	1313	1319	1320	1321	1319	1325	1323	1318	1304	1291	1297	1306	1328	1334	1330	1323	1334	1340	1343	1336	1326	1319	1327	1334	1333	1336	1333	1333	1332	1331	1324	1316	1323	1338	1352	1349	1333	1330	1330	1337	1328	1332	1326	1327	1321	1323	1337	1341	1343	1334	1325	1311	1301	1301	1315	1349	1359	1347	1341	1335	1326	1317	1321	1323	1327	1330	1327	1329	1324	1324	1335	1350	1341	1319	1320	1330	1349	1368	1375	1374	1369	1361	1355	1347	1353	1342	1346	1353	1352	1341	1337	1338	1349	1354	1350	1345	1344	1357	1370	1370	1364	1360	1352	1346	1347	1350	1351	1354	1353	1362	1355	1358	1360	1365	1367	1372	1373	1374	1367	1358	1351	1348	1346	1360	1388	1390	1373	1364	1371	1368	1363	1351	1363	1374	1375	1374	1372	1374	1369	1370	1388	1387	1386	1391	1386	1384	1367	1356	1358	1357	1367	1365	1369	1371	1373	1367	1367	1377	1381	1374	1375	1373	1373	1386	1368	1382	1371	1381	1388	1392	1394	1383	1386	1393	1401	1403	1414	1404	1381	1382	1387	1406	1420	1419	1417	1419	1424	1423	1427	1436	1441	1436	1428	1428	1432	1428	1423	1424	1420	1413	1402	1388	1383	1390	1404	1408	1425	1446	1449	1436	1410	1395	1399	1412	1427	1427	1420	1412	1413	1431	1433	1433	1423	1416	1426	1437	1438	1445	1454	1442	1418	1416	1428	1458	1491	1489	1451	1422	1412	1422	1432	1422	1417	1417	1441	1473	1506	1528	1536	1544	1549	1563	1585	1598	1607	1578	1558	1543	1530	1527	1523	1526	1527	1522	1510	1499	1487	1472	1470	1477	1493	1498	1468	1453	1456	1461	1473	1486	1498	1494	1491	1501	1502	1492	1490	1489	1486	1476	1478	1481	1489	1492	1492	1487	1487	1488	1494	1498	1501	1512	1503	1502	1496	1496	1496	1498	1496	1494	1495	1500	1516	1520	1528	1535	0	0	0	0	0	0	0	0	0	0	1805	1796	1780	1770	1779	1783	1774	1763	1752	1736	1649	1610	1580	1568	1533	1545	1533	1515	1525	1533	1532	1541	1552	1556	1558	1558	1566	1573	1576	1571	1565	1571	1582	1584	1596	1599	1586	1570	1563	1564	1582	1578	1573	1559	1559	1569	1570	1571	1573	1576	1569	1561	1548	1543	1548	1555	1572	1586	1597	1603	1617	1611	1601	1588	1576	1561	1566	1580	1597	1610	1610	1600	1580	1568	1562	1560	1563	1582	1585	1575	1554	1556	1571	1587	1607	1629	0	0	0	0	0	0	0	0	0	0	0	0	0	0	0	0	0	0	0	0	0	0	0	0	0	0	0	0	0	0	0	0	0	0	0	0	0	0	0	0	0	0	0	0	0	0	0	0	0	0	0	0	0	0	0	0	0	0	0	0	1548	1551	1563	1576	1599	1607	1623	1628	1615	1599	1579	1562	1553	1556	1559	1583	1606	1616	1596	1584	1573	1563	1561	1591	1604	1603	1590	1581	1579	1583	1588	1584	1576	1572	1568	1575	1584	1589	1596	1588	1578	1577	1568	1565	1567	1573	1570	1572	1569	1560	1579	0	0	0	0	0	0	0	0	0	0	0	0	0	0	0	0	0	0	0	0	0	0	0	0	0	0	0	0
0	0	0	0	0	0	0	0	0	0	0	0	1345	1345	1349	1362	1370	1371	1363	1349	0	0	0	0	0	0	1400	1412	1433	1433	1444	1458	1452	1433	1422	1408	1403	1421	1421	1442	1462	1481	1481	1472	1472	1479	1484	1484	1494	1510	1510	1527	1531	1521	1518	1520	1523	1533	1551	1564	1536	1543	1541	1536	1543	1532	1535	1503	1475	1438	1438	1377	1347	1329	1309	1296	1290	1290	1300	1315	1321	1327	1334	1343	1350	1351	1348	1336	1334	1327	1324	1317	1317	1322	1323	1320	1321	1323	1319	1305	1302	1307	1323	1333	1335	1326	1325	1343	1347	1339	1324	1308	1301	1315	1327	1329	1324	1325	1318	1315	1315	1318	1315	1327	1340	1354	1350	1339	1327	1323	1324	1330	1330	1323	1318	1313	1316	1325	1329	1344	1342	1331	1315	1307	1322	1336	1356	1359	1336	1325	1317	1320	1339	1359	1343	1313	1315	1307	1313	1311	1314	1326	1360	1368	1362	1355	1358	1366	1368	1384	1385	1374	1340	1336	1346	1362	1339	1345	1354	1357	1354	1342	1348	1355	1363	1354	1342	1343	1357	1380	1400	1386	1371	1336	1327	1332	1339	1348	1349	1348	1354	1361	1374	1371	1364	1361	1355	1365	1366	1362	1352	1340	1337	1345	1365	1378	1385	1379	1370	1366	1369	1373	1374	1378	1371	1372	1374	1377	1378	1377	1380	1385	1384	1386	1392	1392	1389	1369	1353	1357	1367	1373	1367	1367	1370	1367	1371	1381	1382	1376	1368	1371	1361	1380	1387	1390	1386	1380	1385	1391	1385	1394	1384	1389	1400	1406	1414	1415	1399	1385	1390	1405	1413	1402	1378	1366	1360	1360	1393	1402	1405	1401	1389	1383	1400	1416	1406	1393	1388	1395	1408	1412	1399	1385	1378	1376	1374	1376	1393	1411	1434	1448	1469	1479	1503	1521	1540	1541	1514	1481	1473	1464	1463	0	0	0	0	0	0	0	0	0	0	0	0	0	0	0	0	0	0	0	0	0	0	0	0	0	1680	1679	1658	1636	1638	1640	1646	1648	1649	1665	1650	1627	1601	1597	0	0	0	0	0	0	1522	1488	1485	1501	1507	1511	1472	1460	1460	1467	1478	1485	1489	1490	1497	1502	1488	1492	1488	1484	1482	1486	1486	1490	1494	1492	1489	1491	1494	1499	1504	1509	1503	1500	1496	1494	1501	1494	1484	1482	1481	1485	1494	1509	1531	1541	1558	0	0	0	0	0	0	0	0	0	0	1794	1797	1787	1769	1771	1770	1759	1746	1742	1725	1667	1625	1602	1587	1541	1538	1512	1518	1514	1531	1536	1544	1549	1553	1557	1557	1561	1569	1577	1572	1572	1579	1586	1589	1593	1596	1590	1576	1564	1562	1573	1571	1537	1525	1536	1554	1555	1556	1554	1561	1561	1554	1542	1534	1540	1549	1573	1590	1596	1603	1604	1607	1600	1585	1574	1566	1558	1572	1591	1607	1606	1574	1552	1547	1552	1556	1560	1573	1584	1582	1576	1572	1571	1599	1618	0	0	0	0	0	0	0	0	0	0	0	0	0	0	0	1661	1654	0	0	0	0	0	0	0	0	0	0	0	0	0	0	0	0	0	0	0	0	0	0	0	0	0	0	0	0	0	0	0	0	0	0	0	0	0	0	0	0	0	0	0	0	1541	1543	1546	1567	1600	1618	1631	1622	1605	1606	1585	1560	1541	1542	1556	1577	1589	1594	1593	1588	1578	1564	1552	1566	1595	1596	1589	1587	1583	1586	1594	1603	1590	1588	1584	1578	1587	1587	1599	1580	1574	1562	1564	1543	1539	1533	1545	1571	1567	1567	0	0	0	0	0	0	0	0	0	0	0	0	0	0	0	0	0	0	0	0	0	0	0	0	0	0	0	0	0
0	0	0	0	0	0	0	0	0	0	1329	1330	1340	1340	1355	1368	1374	1370	1370	0	0	0	0	0	0	0	0	0	1445	1445	1468	1479	1480	1464	1444	1421	1417	1423	1423	1452	1472	1482	1482	1482	1492	1500	1494	1495	1504	1521	1521	1515	1516	1519	1521	1526	1527	1526	1524	1527	1535	1553	1544	1539	1537	1531	1520	1483	1460	1429	1429	1377	1344	1328	1307	1294	1286	1292	1308	1319	1322	1316	1328	1329	1337	1343	1332	1329	1325	1323	1321	1314	1321	1322	1321	1322	1323	1331	1330	1327	1321	1328	1332	1328	1327	1330	1332	1345	1344	1329	1310	1298	1295	1304	1321	1328	1324	1316	1310	1303	1309	1319	1320	1324	1332	1339	1343	1347	1358	1356	1348	1355	1366	1370	1355	1349	1349	1346	1346	1349	1363	1382	1401	1417	1422	1418	1402	1373	1336	1324	1318	1327	1339	1347	1324	1306	1307	1311	1324	1333	1331	1335	1376	1400	1397	1374	1362	1364	1369	1356	1336	1340	1365	1401	1433	1443	1348	1334	1339	1350	1356	1364	1367	1375	1375	1361	1346	1335	1338	1353	1375	1377	1368	1337	1322	1319	1322	1325	1334	1360	1390	1411	1417	1404	1391	1350	1326	1319	1324	1335	1345	1339	1334	1335	1345	1364	1355	1337	1336	1349	1371	1377	1389	1392	1377	1378	1379	1380	1379	1382	1378	1379	1379	1382	1386	1390	1391	1377	1364	1359	1358	1366	1376	1378	1366	1366	1367	1384	1389	1366	1371	1375	1380	1373	1404	1395	1392	1387	1387	1385	1398	1398	1380	1389	1401	1408	1415	1415	1387	1376	1397	1403	1396	1394	1402	1388	1384	1399	0	0	0	0	0	0	0	0	0	0	0	0	0	0	0	0	0	0	0	0	0	0	0	0	0	0	0	0	0	0	0	0	0	0	0	0	0	0	0	0	0	0	0	0	0	0	0	0	0	0	0	0	0	0	0	0	0	0	0	0	1695	1720	1715	1698	1692	1684	1681	1690	1690	1698	1702	1691	1663	0	0	0	0	0	0	0	0	1532	1505	1500	1518	1519	1495	1471	1466	1459	1464	1469	1472	1475	1475	1482	1487	1484	1488	1484	1489	1488	1489	1492	1494	1503	1507	1502	1504	1497	1508	1508	1499	1495	1491	1501	1498	1490	1485	1476	1478	1486	1501	1508	1535	1547	1572	0	0	0	0	0	0	0	0	0	0	1793	1806	1794	1770	1754	1743	1730	1721	1715	1709	1669	1632	1612	1603	1534	1524	1524	1521	1516	1528	1531	1536	1543	1545	1548	1554	1558	1561	1570	1566	1568	1577	1581	1582	1586	1589	1588	1577	1559	1567	1585	1577	1541	1517	1521	1562	1555	1547	1541	1546	1552	1546	1538	1526	1534	1545	1577	1574	1579	1582	1576	1588	1593	1590	1576	1563	1554	1563	1584	1592	1599	1553	1538	1547	1554	1563	1558	1568	1575	1576	1579	1581	1578	1595	1620	0	0	0	0	0	0	0	0	1695	1704	1696	1693	1678	1685	1675	1665	1656	1661	0	0	0	0	0	0	0	0	0	0	0	0	0	0	0	0	0	0	0	0	0	0	0	0	0	0	0	0	0	0	0	0	0	0	0	0	0	0	0	0	0	0	1549	1540	1536	1537	1556	1587	1617	1625	1620	1618	1609	1597	1561	1546	1546	1564	1572	1572	1573	1575	1578	1572	1560	1553	1561	1589	1588	1587	1576	1582	1589	1594	1602	1597	1597	1585	1572	1578	0	0	1573	1568	1562	1563	1545	1541	1535	1547	1542	1548	1544	0	0	0	0	0	0	0	0	0	0	0	0	0	0	0	0	0	0	0	0	0	0	0	0	0	0	0	0	0
0	0	0	1273	0	0	0	0	0	0	1306	1312	1333	1333	1356	1367	1357	1358	1366	0	0	0	0	0	0	0	0	0	1460	1460	1484	1501	1505	1497	1484	1457	1446	1442	1442	1454	1473	1476	1493	1502	1516	1527	1521	1522	1517	1517	1517	1522	1528	1531	1532	1527	1524	1520	1522	1529	1537	1553	1550	1545	1541	1527	1507	1471	1441	1426	1401	1401	1347	1325	1306	1291	1295	1293	1311	1312	1314	1319	1323	1324	1328	1328	1322	1321	1320	1316	1313	1310	1302	1300	1305	1319	1328	1334	1350	1352	1343	1335	1335	1330	1321	1327	1332	1343	1338	1321	1307	1298	1300	1310	1333	1346	1339	1323	1314	1302	1316	1336	1330	1325	1323	1331	1333	1328	1330	1335	1337	0	0	0	0	0	1418	1450	1475	1499	1507	1515	1511	1520	1538	1555	1559	1562	1559	1555	1544	1530	1520	1497	0	0	0	0	0	0	0	0	0	0	0	0	0	0	0	0	0	0	0	0	0	0	0	0	0	0	0	0	0	0	0	1348	0	0	0	0	0	0	0	0	0	0	0	0	0	0	0	0	0	0	0	0	0	0	0	0	0	0	0	0	0	0	0	0	0	1329	1365	1402	1414	1384	1387	1388	1393	1389	1389	1381	1374	1372	1373	1379	1383	1382	1376	1372	1366	1363	1363	1372	1379	1371	1352	1359	1343	1351	1370	1378	1387	1384	1369	1376	1376	1403	1385	1387	1380	1391	1399	1388	1373	1378	1403	1409	1412	1408	1385	1377	1397	1399	1396	1404	1445	1442	0	0	0	0	0	0	0	0	0	0	0	0	0	0	0	0	0	0	0	0	0	0	0	0	0	0	0	0	0	0	0	0	0	0	0	0	0	0	0	0	0	0	0	0	0	0	0	0	0	0	0	0	0	0	0	0	0	0	0	0	0	0	1734	1749	1749	1745	1726	1709	1709	1715	1722	1722	1731	1730	1723	0	0	0	0	0	0	0	0	0	1524	1507	1510	1531	1500	1478	1463	1458	1455	1457	1462	1467	1460	1464	1472	1478	1481	1482	1487	1491	1489	1491	1497	1509	1514	1515	1508	1501	1504	1513	1509	1500	1507	1506	1501	1493	1483	1477	1483	1491	1508	1511	1531	1548	1580	0	0	0	0	0	0	0	0	0	0	1793	1804	1797	1771	1745	1729	1703	1704	1706	1690	1654	1641	1633	1615	1539	1513	1526	1522	1524	1531	1532	1538	1542	1543	1545	1547	1555	1561	1565	1567	1571	1571	1573	1578	1575	1573	1573	1571	1558	1581	1589	1587	1558	1532	1533	1566	1568	1555	1531	1534	1544	1546	1541	1536	1547	1555	1569	1565	1562	1553	1560	1570	1580	1584	1576	1562	1549	1539	1555	1576	1584	1544	1531	1543	1558	1566	1564	1553	1555	1564	1584	1584	1576	1570	1575	0	0	0	0	0	0	0	0	1705	1712	1703	1688	1696	1696	1696	1689	1677	1681	1669	0	0	0	0	0	0	0	0	0	0	0	0	0	0	0	0	0	0	0	0	0	0	0	0	0	0	0	0	0	0	0	0	0	0	0	0	0	0	0	0	1576	1564	1558	1548	1557	1568	1596	1627	1626	1625	1611	1597	1587	1559	1558	1568	1574	1566	1558	1556	1563	1569	1569	1565	1559	1561	1591	1594	1592	1590	1596	1597	1594	1586	1588	1589	1589	1575	0	0	0	0	1562	1553	1548	1553	1553	1563	1563	1558	1546	1544	0	0	0	0	0	0	0	0	0	0	0	0	0	0	0	0	0	0	0	0	0	0	0	0	0	0	0	0	0
0	0	0	1256	1277	1312	0	0	0	1308	1295	1308	1337	1358	1358	1367	1362	1369	1379	0	0	0	0	0	0	0	0	0	1484	1484	1507	1521	1529	1531	1524	1504	1466	1456	1456	1459	1479	1489	1495	1511	1525	1514	1512	1516	1512	1513	1527	1527	1540	1542	1532	1530	1528	1531	1529	1533	1538	1554	1551	1548	1548	1538	1504	1460	1438	1413	1388	1388	1344	1325	1310	1302	1301	1302	1309	1315	1314	1316	1322	1323	1321	1314	1313	1313	1319	1315	1310	1304	1301	1306	1314	1322	1333	1346	1357	1354	1349	1340	1333	1327	1321	1324	1329	1340	1331	1322	1312	1305	1303	1316	1342	1356	1357	1341	1327	1315	1330	1351	1338	1323	1317	1324	1337	1340	1343	0	0	0	0	0	0	0	0	1480	1513	1539	1553	1557	1561	1556	1562	1580	1589	1588	1594	1592	1581	1573	1566	1548	0	0	0	0	0	0	0	0	0	0	0	0	0	0	0	0	0	0	0	0	0	0	0	0	0	0	0	0	0	0	0	0	0	0	0	0	0	0	0	0	0	0	0	0	0	0	0	0	0	0	0	0	0	0	0	0	0	0	0	0	0	0	0	0	0	0	0	1376	1398	1389	1383	1382	1392	1403	1400	1383	1380	1373	1372	1377	1378	1374	1368	1370	1373	1367	1375	1371	1367	1365	1362	1358	1349	1372	1373	1383	1389	1380	1362	1372	1382	1401	1388	1385	1385	1394	1402	1390	1370	1376	1385	1397	1393	1396	1409	1388	1400	1403	1406	1416	1458	0	0	0	0	0	0	0	0	0	0	0	0	0	0	0	0	0	0	0	0	0	0	0	0	0	0	0	0	0	0	0	0	0	0	0	0	0	0	0	0	0	0	0	0	0	0	0	0	0	0	0	0	0	0	0	0	0	0	0	0	0	0	0	1742	1753	1759	1766	1752	1732	1719	1727	1731	1741	1736	1743	1743	0	0	0	0	0	0	0	0	0	1526	1498	1510	1534	1499	1468	1461	1456	1451	1464	1461	1469	1453	1458	1466	1474	1483	1489	1489	1486	1482	1476	1487	1509	1517	1515	1509	1499	1515	1521	1520	1518	1517	1514	1503	1493	1483	1479	1481	1495	1508	1505	1517	1537	1581	0	0	0	0	0	0	0	0	0	0	1802	1805	1798	1786	1752	1722	1709	1718	1704	1684	1648	1640	1637	1626	1545	1519	1528	1533	1535	1537	1539	1540	1546	1550	1549	1547	1551	1558	1565	1573	1574	1574	1567	1566	1567	1565	1562	1566	1571	1592	1609	1598	1568	1557	1550	1576	1579	1561	1528	1526	1534	1547	1552	1555	1563	1563	1563	1558	1548	1543	1543	1550	1565	1569	1569	1563	1537	1526	1537	1556	1562	1551	1549	1561	1572	1576	1561	1552	1549	1568	1584	1584	1567	1555	1550	0	0	0	0	0	0	0	1694	1703	1700	1688	1683	1693	1715	1907	1916	1901	1702	1681	0	0	0	0	0	0	0	0	0	0	0	0	0	0	0	0	0	0	0	0	0	0	0	0	0	0	0	0	0	0	0	0	0	0	0	0	0	0	0	1615	1594	1588	1577	1576	1585	1594	1616	1626	1634	1626	1612	1595	1570	1566	1568	1584	1595	1578	1563	1559	1565	1572	1569	1557	1560	1568	1585	1600	1600	1598	1606	1597	1588	1573	1566	1574	1581	1574	0	0	0	0	0	1542	1555	1567	1569	1583	1576	1572	1554	1545	0	0	0	0	0	0	0	0	0	0	0	0	0	0	0	0	0	0	0	0	0	0	0	0	0	0	0	0	0
0	0	0	1268	1286	1306	0	0	0	1316	1305	1320	1345	1366	1366	1380	1382	1392	1398	0	0	0	0	0	0	0	0	0	1509	1509	1528	1528	1524	1754	1541	1530	1507	1489	1489	1474	1484	1492	1513	1523	1525	1507	1496	1493	1500	1511	1529	1529	1543	1542	1534	1535	1543	1541	1531	1529	1528	1535	1544	1547	1549	1540	1509	1466	1436	1419	1388	1388	1340	1325	1321	1319	1314	1310	1310	1312	1317	1320	1321	1325	1318	1313	1309	1316	1316	1313	1307	1298	1300	1308	1319	1328	1336	1340	1353	1354	1347	1338	1331	1327	1323	1321	1324	1326	1328	1320	1315	1312	1306	1324	1342	1350	1357	1348	1330	1328	1330	1351	1359	1337	1324	1323	1336	1350	0	0	0	0	0	0	0	0	0	0	1556	1584	1595	1595	1592	1595	1595	1604	1613	1622	1634	1634	1626	1615	1608	1602	0	0	0	0	0	0	0	0	0	0	0	0	0	0	0	0	0	0	0	0	0	0	0	0	0	0	0	0	0	0	0	0	0	0	0	0	0	0	0	0	0	0	0	0	0	0	0	0	0	0	0	0	0	0	0	0	0	0	0	0	0	0	0	0	0	0	0	0	1378	1371	1368	1375	1388	1404	1407	1390	1388	1378	1378	1375	1378	1376	1380	1375	1377	1382	1378	1368	1358	1379	1379	1363	1358	1379	1386	1391	1387	1375	1369	1363	1369	1383	1395	1386	1397	1409	1408	1397	1371	1370	1379	1383	1384	1385	1407	1395	1405	1404	1407	1426	1447	0	0	0	0	0	0	0	0	0	0	0	0	0	0	0	0	0	0	0	0	0	0	0	0	0	0	0	0	0	0	0	0	0	0	0	0	0	0	0	0	0	0	0	0	0	0	0	0	0	0	0	0	0	0	0	0	0	0	0	0	0	0	0	1750	1747	1753	1757	1759	1747	1739	1740	1748	1755	1760	1769	1750	0	0	0	0	0	0	0	0	0	0	1495	1502	1525	1492	1469	1462	1465	1464	1472	1474	1476	1454	1464	1470	1476	1499	1502	1500	1487	1483	1488	1492	1507	1513	1509	1505	1508	1518	1526	1525	1519	1515	1512	1504	1490	1481	1473	1477	1482	1486	1497	1514	1529	1572	0	0	0	0	0	0	0	0	0	0	1808	1795	1786	1782	1754	1736	1714	1714	1702	1673	1647	1640	1635	1624	1551	1540	1548	1548	1544	1544	1547	1549	1554	1551	1551	1548	1549	1559	1572	1578	1576	1574	1567	1565	1564	1559	1559	1566	1579	1617	1630	1616	1586	1575	1585	1596	1586	1561	1539	1536	1540	1542	1558	1565	1571	1561	1556	1556	1550	1539	1541	1540	1548	1553	1559	1562	1558	1550	1542	1546	1553	1564	1573	1579	1584	1587	1571	1561	1563	1577	1585	1585	1567	1552	1550	0	0	0	0	0	0	1695	1685	1683	1681	1689	1689	1695	1714	0	0	0	0	0	0	0	0	0	0	0	0	0	0	0	0	0	0	0	0	0	0	0	0	0	0	0	0	0	0	0	0	0	0	0	0	0	0	0	0	0	0	0	1639	1635	1614	1605	1605	1602	1603	1607	1617	1633	1633	1633	1617	1586	1567	1571	1576	1588	1596	1589	1576	1575	1583	1584	1575	1553	1556	1567	1580	1603	1608	1602	1609	1602	1585	1560	1553	1554	1558	1562	0	0	0	0	0	1559	1564	1574	1575	1581	1579	1575	1568	1561	0	0	0	0	0	0	0	0	0	0	0	0	0	0	0	0	0	0	0	0	0	0	0	0	0	0	0	0	0
0	0	0	1301	1307	1310	1323	1323	0	1332	1330	1335	1362	1375	1375	1385	1378	1380	1387	0	0	0	0	0	0	0	0	1507	1519	1519	1522	1524	1514	1501	1511	1515	1500	1490	1490	1476	1480	1492	1516	1532	1530	1516	1504	1500	1502	1506	1523	1523	1539	1542	1539	1532	1532	1536	1528	1519	1503	1510	1527	1542	1545	1541	1524	1473	1443	1419	1383	1383	1335	1324	1320	1326	1328	1327	1321	1318	1316	1316	1318	1318	1317	1313	1311	1313	1312	1304	1298	1298	1302	1314	1323	1333	1336	1340	1342	1348	1345	1338	1330	1324	1323	1323	1321	1329	1326	1323	1318	1312	1311	1325	1328	1328	1338	1338	1337	1339	1343	1352	1356	1345	1335	1333	1343	1357	0	0	0	0	0	0	0	0	0	1562	1599	1611	1618	1607	1608	1602	1598	1596	1609	1625	1644	1644	1637	1639	1636	1637	0	0	0	0	0	0	0	0	0	0	0	0	0	0	0	0	0	0	0	0	0	0	0	0	0	0	0	0	0	0	0	0	0	0	0	0	0	0	0	0	0	0	0	0	0	0	0	0	0	0	0	0	0	0	0	0	0	0	0	0	0	0	0	0	0	0	0	0	1376	1361	1361	1364	1380	1392	1401	1392	1392	1383	1378	1388	1384	1380	1381	1383	1385	1395	1393	1382	1360	1386	1386	1369	1367	1372	1387	1387	1382	1377	1371	1374	1373	1382	1380	1392	1406	1407	1402	1392	1372	1373	1373	1376	1384	1399	1405	1398	1406	1404	1409	1421	1438	0	0	0	0	0	0	0	0	0	0	0	0	0	0	0	0	0	0	0	0	0	0	0	0	0	0	0	0	0	0	0	0	0	0	0	0	0	0	0	0	0	0	0	0	0	0	0	0	0	0	0	0	0	0	0	0	0	0	0	0	0	0	0	1750	1751	1752	1758	1767	1753	1743	1744	1758	1782	1796	1789	1765	1705	0	0	0	0	0	0	0	0	0	1512	1494	1510	1493	1479	1476	1481	1483	1485	1487	1470	1461	1471	1480	1493	1508	1517	1511	1502	1498	1491	1492	1500	1504	1502	1503	1508	1521	1525	1523	1515	1515	1514	1506	1487	1473	1463	1469	1474	1475	1508	1521	1536	1574	0	0	0	0	0	0	0	0	0	0	1795	1784	1783	1775	1768	1739	1726	1715	1694	1669	1632	1616	1607	1602	1566	1548	1554	1559	1550	1549	1548	1551	1559	1562	1558	1554	1550	1558	1572	1581	1579	1565	1570	1568	1568	1566	1562	1568	1589	1658	1655	1625	1589	1579	1597	1602	1578	1558	1548	1548	1550	1545	1554	1561	1556	1554	1557	1558	1553	1542	1542	1550	1549	1554	1551	1559	1560	1561	1554	1550	1550	1570	1580	1586	1587	1591	1587	1580	1581	1580	1580	1585	1574	1576	1584	0	0	0	0	0	0	1685	1686	1673	1681	1691	1692	1689	1712	1931	0	0	0	0	0	0	0	0	0	0	0	0	0	0	0	0	0	0	0	0	0	0	0	0	0	0	0	0	0	0	0	0	0	0	0	0	0	0	0	0	0	0	0	1647	1633	1624	1594	1589	1572	1596	1608	1618	1633	1632	1617	1587	1574	1572	1582	1580	1592	1584	1584	1595	1604	1604	1583	1557	1553	1559	1576	1590	1594	1594	1602	1595	1578	1562	1553	1545	1551	1546	0	0	0	0	0	1571	1574	1580	1580	1579	1576	1573	1576	1571	0	0	0	0	0	0	0	0	0	0	0	0	0	0	0	0	0	0	0	0	0	0	0	0	0	0	0	0	0
0	0	0	1335	1320	1309	1311	1311	1323	0	0	1355	1369	1379	1379	1385	1378	1371	1372	1373	0	0	0	0	0	0	0	1504	1508	1508	1502	1482	1479	1490	1500	1503	1497	1493	1488	1488	1494	1502	1518	1532	1542	1534	1518	1508	1506	1508	1515	1515	1529	1538	1536	1529	1522	1522	1525	1513	1498	1504	1521	1535	1543	1543	1541	1479	1442	1418	1384	1384	1327	1318	1323	1330	1339	1337	1333	1327	1316	1313	1310	1314	1317	1315	1316	1312	1309	1300	1296	1299	1311	1321	1335	1341	1337	1333	1334	1341	1343	1336	1329	1330	1331	1329	1323	1320	1311	1318	1318	1314	1311	1315	1311	1313	1329	1329	1341	1352	1361	1357	1346	1359	1348	1352	1366	0	0	0	0	0	0	0	0	0	0	1595	1628	1639	1620	1613	1618	1612	1603	1600	1597	1616	1647	1640	1649	1647	1643	1645	0	0	0	0	0	0	0	0	0	0	0	0	0	0	0	0	0	0	0	0	0	0	0	0	0	0	0	0	0	0	0	0	0	0	0	0	0	0	0	0	0	0	0	0	0	0	0	0	0	0	0	0	0	0	0	0	0	0	0	0	0	0	0	0	0	0	0	0	1404	1384	1365	1356	1370	1380	1392	1389	1382	1379	1380	1387	1389	1385	1385	1395	1390	1388	1388	1375	1372	1388	1383	1369	1369	1374	1382	1383	1381	1374	1376	1378	1376	1378	1388	1398	1399	1399	1391	1377	1381	1386	1384	1389	1396	1414	1410	1397	1403	1411	1417	1429	1414	0	0	0	0	0	0	0	0	0	0	0	0	0	0	0	0	0	0	0	0	0	0	0	0	0	0	0	0	0	0	0	0	0	0	0	0	0	0	0	0	0	0	0	0	0	0	0	0	0	0	0	0	0	0	0	0	0	0	0	0	0	0	0	1777	1777	1776	1773	1771	1762	1747	1754	1763	1788	1806	1806	1790	1718	0	0	0	0	0	0	0	0	0	1508	1494	1494	1501	1494	1485	1478	1473	1473	1473	1468	1463	1474	1487	1498	1514	1519	1520	1511	1499	1488	1484	1492	1497	1500	1509	1517	1525	1526	1521	1512	1510	1512	1504	1482	1469	1464	1458	1465	1469	1498	1535	1549	1577	0	0	0	0	0	0	0	0	0	0	1776	1795	1784	1775	1766	1747	1732	1711	1683	1658	1616	1604	1599	1595	1575	1553	1554	1560	1550	1548	1540	1548	1554	1553	1554	1558	1560	1565	1573	1581	1582	1569	1566	1575	1570	1568	1568	1564	1594	1665	1640	1625	1590	1583	1596	1602	1574	1551	1550	1554	1561	1563	1552	1554	1556	1549	1562	1561	1552	1546	1546	1549	1549	1546	1552	1548	1553	1556	1553	1549	1546	1556	1572	1577	1576	1581	1585	1585	1591	1590	1589	1589	1585	1592	1605	0	0	0	0	0	0	1683	1676	1687	1702	1714	1702	1702	1702	1932	0	0	0	0	0	0	0	0	0	0	0	0	0	0	0	0	0	0	0	0	0	0	0	0	0	0	0	0	0	0	0	0	0	0	0	0	0	0	0	0	0	0	0	1646	1635	1624	1594	1579	1563	1578	1591	1603	1611	1620	1603	1584	1575	1584	1581	1579	1574	1574	1580	1597	1607	1610	1583	1563	1556	1555	1564	1566	1578	1588	1578	1587	1577	1566	1550	1543	1544	0	0	0	0	0	0	1576	1581	1582	1580	1569	1561	1557	1568	1564	0	0	0	0	0	0	0	0	0	0	0	0	0	0	0	0	0	0	0	0	0	0	0	0	0	0	0	0	0
0	0	0	1344	1332	1312	1309	1309	1309	0	0	0	1366	1379	1379	1381	1379	1361	1361	1364	0	0	0	0	0	0	0	1480	1495	1495	1488	1483	1485	1493	1501	1510	1515	1511	1512	1512	1508	1511	1519	1537	1551	1540	1525	1511	1505	1505	1510	1510	1521	1535	1529	1507	1513	1521	1529	1524	1511	1515	1527	1536	1540	1547	1540	1474	1436	1410	1371	1371	1321	1319	1324	1328	1335	1343	1340	1333	1320	1312	1311	1313	1322	1319	1316	1315	1312	1306	1305	1312	1321	1337	1340	1342	1337	1331	1330	1334	1335	1333	1328	1330	1334	1330	1322	1315	1308	1316	1318	1318	1313	1306	1311	1316	1330	1325	1336	1360	1365	1355	1347	1379	1376	1371	1387	0	0	0	0	0	0	0	0	0	0	1612	1645	1648	1634	1617	1621	1635	1625	1614	1606	1617	1639	1644	1654	1672	1663	1652	1623	0	0	0	0	0	0	0	0	0	0	0	0	0	0	0	0	0	0	0	0	0	0	0	0	0	0	0	0	0	0	0	0	0	0	0	0	0	0	0	0	0	0	0	0	0	0	0	0	0	0	0	0	0	0	0	0	0	0	0	0	0	0	0	0	0	0	0	1422	1398	1369	1349	1362	1365	1385	1390	1374	1369	1374	1374	1383	1378	1374	1369	1384	1381	1378	1373	1378	1385	1376	1364	1365	1365	1381	1380	1378	1380	1386	1384	1379	1370	1384	1390	1393	1382	1386	1388	1402	1404	1398	1400	1413	1426	1419	1400	1403	1423	1432	1427	1439	0	0	0	0	0	0	0	0	0	0	0	0	0	0	0	0	0	0	0	0	0	0	0	0	0	0	0	0	0	0	0	0	0	0	0	0	0	0	0	0	0	0	0	0	0	0	0	0	0	0	0	0	0	0	0	0	0	0	0	0	0	0	0	1811	1797	1786	1784	1773	1759	1755	1756	1770	1791	1797	1807	1798	1751	0	0	0	0	0	0	0	0	0	1509	1509	1507	1509	1508	1493	1478	1457	1461	1462	1463	1469	1481	1491	1505	1514	1515	1512	1504	1482	1473	1476	1482	1492	1502	1512	1517	1525	1519	1511	1507	1507	1511	1503	1484	1475	1474	1484	1480	1484	1507	1548	1555	1568	1623	0	0	0	0	0	0	0	0	0	1779	1804	1792	1774	1767	1754	1738	1714	1684	1645	1617	1605	1598	1589	1580	1547	1546	1556	1562	1554	1541	1539	1536	1539	1536	1534	1540	1554	1569	1576	1579	1583	1587	1582	1567	1557	1553	1579	1584	1632	1614	1601	1589	1597	1600	1595	1569	1557	1558	1556	1556	1562	1559	1558	1565	1560	1561	1558	1553	1548	1553	1548	1547	1544	1545	1543	1547	1542	1545	1548	1546	1555	1568	1569	1574	1575	1578	1579	1583	1579	1599	1605	1611	1599	1614	0	0	0	0	0	0	1689	1691	1701	1728	1726	1725	1703	1713	1722	0	0	0	0	0	0	0	0	0	0	0	0	0	0	0	0	0	0	0	0	0	0	0	0	0	0	0	0	0	0	0	0	0	0	0	0	0	0	0	0	1650	1641	1639	1629	1629	1618	1599	1587	1567	1570	1575	1595	1593	1601	1586	1572	1565	1582	1585	1579	1567	1567	1574	1587	1601	1611	1596	1579	1569	1553	1556	1551	1557	1559	1556	1559	1564	1554	1540	1538	1540	0	0	0	0	0	0	1587	1589	1589	1587	1579	1561	1552	1548	1541	0	0	0	0	0	0	0	0	0	0	0	0	0	0	0	0	0	0	0	0	0	0	0	0	0	0	0	0	0
0	0	0	1333	1333	1324	1317	1317	1319	0	0	0	1350	1370	1370	1384	1378	1370	1359	0	0	0	0	0	0	0	1441	1476	1483	1483	1483	1483	1482	1496	1509	1523	1529	1540	1529	1529	1525	1520	1522	1532	1537	1528	1518	1512	1509	1507	1513	1513	1518	1520	1511	1502	1508	1526	1537	1537	1536	1538	1538	1536	1545	1550	1538	1476	1439	1401	1341	1341	1331	1333	1323	1323	1325	1335	1335	1329	1323	1314	1317	1320	1320	1318	1318	1318	1324	1327	1322	1322	1329	1339	1339	1334	1328	1321	1320	1325	1328	1325	1327	1335	1339	1328	1318	1314	1318	1320	1321	1320	1321	1303	1307	1320	1332	1325	1338	1360	1358	1349	1346	1392	1409	1395	0	0	0	0	0	0	0	0	0	0	0	1632	1646	1650	1642	1633	1636	1649	1640	1634	1620	1617	1623	1633	1656	1662	1664	1654	1634	0	0	0	0	0	0	0	0	0	0	0	0	0	0	0	0	0	0	0	0	0	0	0	0	0	0	0	0	0	0	0	0	0	0	0	0	0	0	0	0	0	0	0	0	0	0	0	0	0	0	0	0	0	0	0	0	0	0	0	0	0	0	0	0	0	0	0	0	1405	1372	1367	1368	1369	1382	1387	1369	1360	1369	1371	1371	1369	1368	1367	1381	1380	1379	1375	1375	1380	1365	1359	1361	1379	1385	1382	1392	1393	1384	1389	1390	1389	1388	1387	1379	1378	1383	1397	1403	1398	1396	1402	1408	1421	1416	1413	1414	1436	1442	1438	1456	0	0	0	0	0	0	0	0	0	0	0	0	0	0	0	0	0	0	0	0	0	0	0	0	0	0	0	0	0	0	0	0	0	0	0	0	0	0	0	0	0	0	0	0	0	0	0	0	0	0	0	0	0	0	0	0	0	0	0	0	0	0	0	1812	1794	1775	1774	1763	1755	1749	1751	1773	1786	1792	1797	1796	1762	0	0	0	0	0	0	0	0	0	1508	1528	1526	1513	1516	1496	1477	1457	1459	1461	1466	1474	1487	1499	1507	1508	1511	1508	1499	1486	1479	1480	1489	1492	1500	1508	1515	1517	1510	1505	1497	1499	1498	1496	1484	1480	1484	1493	1502	1500	1513	1551	1553	1556	1616	0	0	0	0	0	0	0	0	0	1790	1815	1799	1765	1757	1752	1749	1719	1684	1641	1623	1614	1608	1605	1584	1544	1542	1537	1565	1568	1559	1549	1545	1549	1550	1554	1550	1555	1568	1575	1581	1583	1577	1554	1529	1510	1529	1555	1583	1586	1589	1581	1581	1595	1591	1582	1582	1578	1568	1560	1549	1552	1551	1569	1576	1572	1568	1564	1560	1554	1553	1554	1546	1542	1543	1540	1537	1536	1544	1541	1542	1545	1558	1564	1571	1571	1570	1575	1574	1577	1601	1617	1620	1627	1633	0	0	0	0	0	0	1704	1706	1713	1721	1934	1935	1724	1713	1934	0	0	0	1710	0	0	0	0	0	0	0	0	0	0	0	0	0	0	0	0	0	0	0	0	0	0	0	0	0	0	0	0	0	0	0	0	0	0	0	1659	1631	1614	1612	1619	1619	1619	1616	1598	1588	1569	1582	1585	1581	1586	1578	1570	1566	1566	1578	1579	1568	1560	1561	1572	1589	1599	1602	1593	1575	1560	1553	1550	1559	1547	1538	1544	1549	1546	1544	1545	1553	0	0	0	0	0	0	1591	1594	1594	1592	1583	1577	1561	1544	1528	0	0	0	0	0	0	0	0	0	0	0	0	0	0	0	0	0	0	0	0	0	0	0	0	0	0	0	0	0
0	0	0	1316	1323	1331	1339	1339	1333	0	0	1332	1340	1362	1362	1384	1376	1369	1352	0	0	0	0	0	0	0	1432	1476	1484	1484	1478	1476	1483	1495	1509	1527	1645	1642	1545	1545	1527	1517	1513	1517	1520	1510	1507	1504	1505	1510	1519	1519	1521	1512	1509	1504	1513	1527	1533	1538	1546	1555	1547	1546	1548	1547	1539	1477	1447	1413	1356	1356	1349	1344	1335	1330	1329	1333	1329	1326	1323	1319	1323	1319	1313	1316	1314	1321	1330	1336	1334	1333	1335	1338	1335	1329	1317	1306	1306	1316	1324	1326	1330	1334	1338	1332	1325	1320	1322	1323	1330	1330	1322	1303	1313	1320	1334	1328	1335	1349	1347	1339	1340	1409	1421	1403	0	0	0	0	0	0	0	0	0	0	0	1627	1646	1641	1642	1645	1647	1649	1649	1638	1626	1615	1625	1632	1638	1649	1658	1660	0	0	0	0	0	0	0	0	0	0	0	0	0	0	0	0	0	0	0	0	0	0	0	0	0	0	0	0	0	0	0	0	0	0	0	0	0	0	0	0	0	0	0	0	0	0	0	0	0	0	0	0	0	0	0	0	0	0	0	0	0	0	0	0	0	0	0	0	0	1415	1381	1379	1382	1386	1384	1378	1377	1369	1373	1365	1364	1364	1364	1371	1386	1388	1386	1384	1390	1377	1362	1365	1369	1383	1391	1382	1387	1393	1383	1381	1369	1375	1384	1378	1371	1373	1405	1404	1402	1394	1395	1399	1408	1418	1417	1411	1414	1433	1429	1419	1445	0	0	0	0	0	0	0	0	0	0	0	0	0	0	0	0	0	0	0	0	0	0	0	0	0	0	0	0	0	0	0	0	0	0	0	0	0	0	0	0	0	0	0	0	0	0	0	0	0	0	0	0	0	0	0	0	0	0	0	0	0	0	0	1797	1766	1751	1746	1740	1741	1744	1756	1776	1787	1790	1786	1764	1736	0	0	0	0	0	0	0	0	0	1525	1538	1536	1508	1524	1508	1491	1465	1467	1467	1471	1479	1486	1493	1498	1506	1499	1504	1501	1494	1488	1489	1488	1486	1489	1495	1504	1509	1502	1496	1488	1485	1488	1484	1482	1488	1491	1502	1504	1504	1517	1556	1547	1530	1564	0	0	0	0	0	0	0	0	0	1808	1812	1787	1757	1749	1750	0	0	0	1645	1625	1619	1614	1605	1583	1557	1555	1548	1524	1522	1535	1554	1557	1563	1567	1570	1579	1588	1589	1586	1584	1545	1519	1525	1534	1550	1568	1577	1557	1561	1565	1567	1581	1589	1583	1577	1589	1596	1581	1566	1555	1556	1557	1567	1573	1569	1576	1570	1561	1557	1554	1555	1547	1541	1540	1540	1538	1545	1544	1547	1544	1549	1558	1570	1567	1562	1571	1570	1574	1582	1583	1615	1627	1632	0	0	0	0	0	0	0	1708	1700	1697	1714	1731	0	0	0	1931	0	0	0	1713	0	0	0	0	0	0	0	0	0	0	0	0	0	0	0	0	0	0	0	0	0	0	0	0	0	0	0	0	0	0	0	0	0	0	0	1647	1629	1616	1612	1609	1608	1608	1617	1605	1584	1579	1591	1583	1579	1582	1583	1571	1560	1562	1570	1582	1572	1556	1552	1556	1573	1592	1598	1598	1585	1567	1554	1559	1562	1570	1561	1560	1556	1552	1544	1544	1552	0	0	0	0	0	0	1588	1604	1600	1598	1587	1578	1564	1550	1535	0	0	0	0	0	0	0	0	0	0	0	0	0	0	0	0	0	0	0	0	0	0	0	0	0	0	0	0	0
0	0	0	1312	1322	1336	1346	1346	1333	1333	1329	1334	1348	1372	1372	1392	1381	1367	1355	0	0	0	0	0	0	0	0	1475	1491	1491	1484	1484	1485	1498	1504	1522	1538	1645	1545	1545	1533	1517	1511	1514	1508	1506	1498	1505	1516	1524	1527	1527	1525	1514	1509	1512	1523	1525	1521	1526	1534	1556	1543	1541	1542	1541	1534	1484	1449	1421	1389	1368	1368	1359	1347	1336	1334	1338	1331	1327	1323	1321	1318	1313	1305	1298	1300	1308	1325	1336	1339	1338	1340	1335	1330	1320	1305	1303	1309	1315	1322	1325	1328	1338	1348	1347	1340	1326	1326	1330	1331	1325	1319	1304	1314	1324	1332	1330	1333	1340	1336	1328	1347	1408	1416	1401	1374	0	0	0	0	0	0	0	0	0	0	1623	1630	1624	1626	1623	1626	1641	1650	1638	1634	1623	1633	1647	1637	1636	1625	1654	0	0	0	0	0	0	0	0	0	0	0	0	0	0	0	0	0	0	0	0	0	0	0	0	0	0	0	0	0	0	0	0	0	0	0	0	0	0	0	0	0	0	0	0	0	0	0	0	0	0	0	0	0	0	0	0	0	0	0	0	0	0	0	0	0	0	0	0	0	1448	1402	1389	1395	1391	1380	1374	1377	1372	1367	1363	1368	1365	1367	1379	1398	1395	1395	1390	1395	1379	1362	1367	1379	1392	1391	1389	1386	1374	1369	1360	1362	1361	1377	1372	1376	1374	1415	1412	1399	1394	1395	1400	1409	1411	1411	1418	1418	1417	1401	1400	1431	0	0	0	0	0	0	0	0	0	0	0	0	0	0	0	0	0	0	0	0	0	0	0	0	0	0	0	0	0	0	0	0	0	0	0	0	0	0	0	0	0	0	0	0	0	0	0	0	0	0	0	0	0	0	0	0	0	0	0	0	0	0	0	1772	1745	1732	1723	1724	1731	1741	1767	1780	1787	1785	1774	1749	1706	0	0	0	0	0	0	0	0	0	1541	1532	1522	1496	1509	1514	1500	1480	1479	1481	1483	1473	1478	1477	1485	1489	1498	1506	1507	1507	1496	1487	1485	1479	1476	1481	1488	1497	1500	1492	1487	1480	1484	1484	1488	1491	1505	1512	1511	1502	1514	1554	1553	1517	1531	0	0	0	0	0	0	0	0	0	1818	1821	1798	1777	1759	1724	0	0	0	1631	1608	1602	1605	1592	1578	1576	1568	1562	1527	1520	1522	1552	1563	1573	1574	1572	1574	1574	1570	1587	1572	1550	1528	1531	1539	1559	1558	1553	1546	1576	1583	1576	1580	1588	1582	1578	1587	1598	1596	1580	1572	1573	1568	1561	1564	1582	1587	1577	1568	1564	1567	1560	1552	1544	1539	1541	1543	1543	1550	1553	1555	1566	1563	1570	1566	1569	1581	1578	1580	1573	1569	1586	1615	1653	0	0	0	0	0	0	0	0	1699	1689	1696	1723	0	0	0	0	0	0	0	1909	0	0	0	0	0	0	0	0	0	0	0	0	0	0	0	0	0	0	0	0	0	0	0	0	0	0	0	0	0	0	0	0	0	0	0	1633	1623	1614	1612	1601	1600	1608	1617	1615	1598	1599	1592	1583	1587	1593	1595	1592	1574	1567	1579	1589	1580	1567	1555	1556	1572	1589	1601	1610	1590	1571	1560	1564	1578	1585	1594	1590	1578	1559	1551	1550	1548	0	0	0	0	0	1567	1588	1606	1603	1590	1572	1558	1549	1545	1532	0	0	0	0	0	0	0	0	0	0	0	0	0	0	0	0	0	0	0	0	0	0	0	0	0	0	0	0	0
