0	0	0	1325	1306	1301	1301	1301	1310	1315	1323	1331	1345	1345	1345	1350	1334	1335	1338	1352	1341	1341	1335	1343	1359	1375	0	0	0	0	0	0	0	0	1459	1448	1444	1440	1440	1457	1479	1496	1506	1501	1483	1499	1499	1507	1504	1503	1503	1510	1517	1528	1523	1525	1520	1520	1526	1538	1540	1540	1548	1541	1528	1523	1527	1539	1538	1542	1555	1555	1555	1510	1473	1440	1372	1325	1315	1311	1310	1321	1324	1325	1330	1330	1330	1333	1334	1327	1320	1316	1298	1291	1298	1331	1334	1324	1323	1321	1320	1320	1333	1344	1344	1349	1339	1329	1334	1331	1322	1312	1308	1307	1316	1327	1338	1341	1332	1311	1306	1312	1315	1318	1323	1331	1349	1350	1344	1339	1339	1337	1344	1352	1359	1363	1369	1360	1333	1306	0	0	0	1491	1516	1523	1514	1518	1518	1526	1533	1529	1516	1516	1546	1573	1571	1548	1539	0	0	0	0	0	0	0	0	0	0	0	0	0	0	0	0	0	0	0	0	0	0	0	0	0	0	1293	1303	1315	1333	1347	1313	1301	1296	1310	1335	1360	1373	1356	1329	1327	1335	0	0	0	0	0	0	0	0	0	0	0	0	0	0	0	0	0	0	0	0	0	1362	1336	1350	1378	1385	1393	1401	1397	1391	1384	1370	1368	1363	1362	1368	1370	1371	1369	1367	1374	1368	1367	1369	1380	1353	1355	1362	1373	1385	1388	1369	1376	1377	1376	1376	1371	1387	1374	1372	1373	1372	1369	1383	1394	1404	1385	1385	1394	1401	1411	1408	1401	1412	1421	1435	1438	1431	1406	1373	1374	0	0	0	0	0	0	0	0	0	0	0	0	0	0	0	0	0	0	0	0	0	0	0	0	0	0	0	0	0	0	0	0	0	0	0	0	0	0	0	0	0	0	0	0	0	0	0	0	0	0	0	0	0	0	0	0	0	0	0	0	0	1727	1754	1763	1745	1736	1736	1749	1752	1751	1743	1748	1748	1745	1692	0	0	0	0	0	0	0	0	1487	1497	1510	1507	1490	1493	1495	1502	1505	1486	1480	1475	1470	1473	1472	1475	1480	1477	1470	1473	1485	1494	1490	1486	1493	1495	1490	1490	1482	1475	1464	1459	1463	1481	1493	1498	1490	1491	1487	1485	1481	1499	1531	1560	1571	1598	0	0	0	0	0	0	0	0	0	0	1773	1785	1787	1789	1793	1797	1785	1746	1718	1661	1597	1583	1571	1555	1559	1547	1540	1533	1528	1526	1532	1543	1543	1547	1556	1563	1567	1569	1565	1556	1548	1544	1539	1547	1552	1566	1571	1553	1564	1603	1622	1623	1613	1595	1583	1575	1577	1574	1568	1556	1556	1558	1561	1570	1574	1574	1575	1574	1573	1569	1560	1532	1521	1516	1525	1560	1563	1554	1534	1532	1537	1530	1530	1543	1556	1559	1563	1564	1565	1566	1566	1563	1559	1564	0	0	0	0	0	0	0	0	0	1694	1678	1687	1700	1711	1914	1714	1703	1694	1683	1670	0	0	0	0	0	0	0	0	0	0	0	0	0	0	0	0	0	0	0	0	0	0	0	0	0	0	0	0	0	0	0	0	0	0	0	0	1582	1570	1579	1598	1617	1630	1618	1607	1599	1593	1604	1610	1612	1598	1585	1570	1564	1575	1591	1604	1604	1579	1579	1573	1569	1547	1534	1535	1547	1555	1556	1553	1542	1539	1543	1546	1551	1549	1557	1555	1564	1554	1562	0	0	0	0	0	1537	1528	1531	1529	1529	1538	1554	1560	1572	1565	0	0	0	0	0	0	0	0	0	0	0	0	0	0	0	0	0	0	0	0	0
0	0	0	1303	1297	1300	1306	1306	1329	1325	1321	1329	1344	1350	1350	1353	1343	1340	1344	1355	1344	1344	1345	1337	1339	1355	0	0	0	0	0	0	0	0	1481	1477	1463	1470	1470	1482	1523	1521	1508	1503	1520	1528	1529	1513	1498	1493	1507	1507	1530	1533	1537	1535	1537	1539	1542	1551	1547	1550	1552	1548	1543	1534	1534	1539	1547	1550	1560	1560	1561	1530	1497	1471	1385	1327	1316	1314	1309	1314	1326	1330	1333	1331	1335	1336	1335	1329	1324	1319	1311	1313	1330	1339	1342	1337	1332	1320	1319	1325	1338	1350	1354	1345	1334	1331	1337	1329	1319	1309	1307	1308	1318	1326	1332	1338	1328	1314	1311	1314	1319	1326	1329	1343	1358	1357	1346	1346	1346	1364	1364	1363	1355	0	0	0	0	0	0	0	0	1544	1562	1561	1546	1547	1562	1568	1566	1552	1542	1553	1584	1614	1611	1592	1576	0	0	0	0	0	0	0	0	0	0	0	0	0	0	0	0	0	0	0	0	0	0	0	0	0	0	0	0	0	0	0	0	0	0	0	0	0	0	0	0	0	0	0	0	0	0	0	0	0	0	0	0	0	0	0	0	0	0	0	0	0	0	0	0	0	0	1378	1367	1381	1396	1398	1391	1383	1374	1372	1373	1378	1372	1376	1379	1377	1374	1377	1372	1365	1369	1378	1383	1385	1375	1374	1387	1375	1361	1374	1382	1385	1396	1389	1375	1390	1377	1375	1371	1369	1376	1381	1364	1380	1383	1388	1396	1408	1407	1403	1403	1406	1425	1428	1409	1375	1384	0	0	0	0	0	0	0	0	0	0	0	0	0	0	0	0	0	0	0	0	0	0	0	0	0	0	0	0	0	0	0	0	0	0	0	0	0	0	0	0	0	0	0	0	0	0	0	0	0	0	0	0	0	0	0	0	0	0	0	0	0	0	1777	1776	1776	1765	1750	1745	1738	1751	1763	1772	1771	1774	1771	1715	0	0	0	0	0	0	0	0	1511	1510	1520	1505	1487	1473	1474	1471	1484	1483	1483	1480	1467	1474	1475	1482	1475	1470	1469	1470	1479	1489	1484	1493	1496	1501	1502	1496	1481	1471	1461	1462	1475	1490	1501	1498	1485	1495	1492	1483	1477	1474	1523	1553	1559	1578	0	0	0	0	0	0	0	0	0	1745	1743	1760	1779	1784	1785	1788	1780	1752	1734	1659	1591	1586	1557	1547	1552	1540	1537	1536	1537	1538	1541	1546	1545	1545	1554	1566	1573	1573	1566	1566	1557	1557	1556	1551	1555	1567	1568	1575	1570	1607	1614	1607	1597	1587	1588	1596	1596	1586	1572	1557	1550	1550	1556	1567	1576	1578	1576	1572	1566	1557	1536	1514	1504	1503	1519	1557	1558	1549	1533	1532	1530	1530	1536	1552	1556	1555	1552	1549	1550	1552	1571	1579	1573	1574	0	0	0	0	0	0	0	0	0	1710	1705	1689	1702	1714	1922	0	1930	1703	1685	1680	0	0	0	0	0	0	0	0	0	0	0	0	0	0	0	0	0	0	0	0	0	0	0	0	0	0	0	0	0	0	0	0	0	0	0	0	0	1590	1580	1588	1619	1639	1628	1619	1612	1608	1601	1611	1610	1605	1594	1578	1580	1578	1586	1590	1592	1567	1574	1579	1580	1562	1550	1547	1556	1572	1567	1561	1556	1547	1539	1532	1534	1535	1544	1562	1563	1560	1562	1548	0	0	0	0	1545	1533	1537	1537	1531	1547	1554	1560	1574	1583	0	0	0	0	0	0	0	0	0	0	0	0	0	0	0	0	0	0	0	0	0
0	0	0	1271	1289	1304	1317	1317	1336	1326	1318	1327	1339	1352	1352	1362	1366	1363	1367	1375	1362	1362	1349	1346	1334	1341	0	0	0	0	0	0	0	0	1493	1494	1540	1576	1576	1577	1539	1523	1501	1500	1522	1534	1528	1509	1502	1500	1515	1515	1536	1552	1556	1551	1553	1551	1550	1551	1546	1543	1549	1550	1549	1540	1533	1540	1547	1553	1561	1561	1562	1544	1508	1477	1385	1330	1312	1311	1316	1319	1324	1330	1332	1335	1337	1341	1337	1331	1322	1317	1316	1325	1335	1343	1338	1330	1325	1320	1319	1326	1352	1363	1364	1352	1340	1336	1346	1341	1326	1310	1314	1316	1325	1326	1326	1320	1309	1303	1305	1317	1331	1336	1335	1338	1347	1354	1339	1336	1357	1379	1373	0	0	0	0	0	0	0	0	0	0	1578	1599	1593	1588	1579	1595	1596	1595	1583	1583	1592	1612	1636	1643	1636	1626	0	0	0	0	0	0	0	0	0	0	0	0	0	0	0	0	0	0	0	0	0	0	0	0	0	0	0	0	0	0	0	0	0	0	0	0	0	0	0	0	0	0	0	0	0	0	0	0	0	0	0	0	0	0	0	0	0	0	0	0	0	0	0	0	0	0	0	1383	1380	1394	1397	1392	1377	1371	1370	1377	1387	1386	1381	1382	1384	1383	1381	1370	1370	1379	1379	1375	1377	1378	1384	1380	1371	1368	1376	1391	1401	1396	1390	1387	1393	1379	1379	1377	1369	1378	1375	1374	1366	1377	1381	1389	1394	1392	1404	1397	1396	1412	1417	1408	1380	0	0	0	0	0	0	0	0	0	0	0	0	0	0	0	0	0	0	0	0	0	0	0	0	0	0	0	0	0	0	0	0	0	0	0	0	0	0	0	0	0	0	0	0	0	0	0	0	0	0	0	0	0	0	0	0	0	0	0	0	0	0	0	1791	1787	1776	1774	1773	1765	1750	1761	1774	1786	1798	1798	1781	1725	0	0	0	0	0	0	0	0	0	1524	1520	1506	1484	1471	1460	1456	1468	1474	1472	1480	1463	1474	1478	1486	1492	1482	1474	1476	1481	1487	1491	1493	1500	1504	1501	1498	1485	1472	1461	1465	1477	1483	1487	1476	1474	1493	1498	1493	1477	1476	1495	1533	1542	1556	0	0	0	0	0	0	0	0	0	1720	1731	1749	1770	1768	1768	1773	1761	1752	1734	1668	1619	1599	1564	1549	1557	1541	1542	1541	1545	1547	1550	1553	1551	1547	1552	1564	1574	1574	1568	1564	1559	1559	1559	1556	1557	1559	1571	1581	1592	1620	1602	1588	1582	1591	1601	1589	1599	1587	1576	1565	1560	1557	1554	1557	1580	1583	1580	1573	1563	1553	1544	1534	1530	1526	1528	1563	1570	1569	1561	1549	1541	1541	1547	1558	1568	1561	1553	1549	1546	1548	1574	1588	1577	1572	0	0	0	0	0	0	0	0	0	1915	1919	1708	1709	1714	0	0	1930	1703	1691	1686	0	0	0	0	0	0	0	0	0	0	0	0	0	0	0	0	0	0	0	0	0	0	0	0	0	0	0	0	0	0	0	0	0	0	0	0	1612	1598	1589	1602	1621	1638	1638	1628	1610	1601	1598	1604	1603	1594	1592	1585	1583	1579	1581	1584	1577	1559	1566	1573	1576	1564	1553	1545	1564	1575	1577	1570	1570	1563	1546	1537	1537	1542	1556	1564	1571	1569	1557	1527	0	0	0	1561	1562	1540	1536	1536	1539	1541	1540	1556	1575	1594	0	0	0	0	0	0	0	0	0	0	0	0	0	0	0	0	0	0	0	0	0
0	0	0	1247	1266	1316	1333	1333	1337	1326	1312	1320	1340	1362	1362	1370	1372	1375	1385	1388	1381	1381	1367	1345	1340	1339	0	0	0	0	0	0	0	1489	1499	1524	1539	1799	1799	1591	1540	1518	1501	1499	1512	1521	1521	1512	1503	1501	1511	1511	1536	1558	1573	1572	1555	1552	1542	1541	1533	1535	1548	1558	1558	1542	1534	1542	1549	1554	1566	1566	1567	1549	1510	1477	1374	1320	1314	1314	1313	1315	1320	1324	1332	1341	1345	1346	1339	1324	1314	1314	1318	1327	1333	1337	1335	1328	1319	1315	1320	1334	1356	1364	1363	1354	1343	1349	1354	1344	1329	1317	1320	1327	1331	1327	1323	1312	1300	1302	1308	1316	1339	1342	1337	1328	1337	1342	1332	1337	1359	1374	0	0	0	0	0	0	0	0	0	0	1573	1597	1599	1599	1597	1597	1604	1610	1603	1605	1609	1617	1633	1640	1657	1665	1650	1631	0	0	0	0	0	0	0	0	0	0	0	0	0	0	0	0	0	0	0	0	0	0	0	0	0	0	0	0	0	0	0	0	0	0	0	0	0	0	0	0	0	0	0	0	0	0	0	0	0	0	0	0	0	0	0	0	0	0	0	0	0	0	0	0	0	0	0	1384	1395	1392	1389	1380	1368	1375	1380	1395	1389	1391	1386	1386	1385	1381	1366	1367	1378	1379	1379	1374	1375	1378	1385	1376	1371	1379	1391	1399	1390	1383	1384	1394	1387	1370	1375	1379	1374	1374	1373	1374	1377	1376	1382	1385	1391	1397	1405	1395	1402	1405	1419	1486	0	0	0	0	0	0	0	0	0	0	0	0	0	0	0	0	0	0	0	0	0	0	0	0	0	0	0	0	0	0	0	0	0	0	0	0	0	0	0	0	0	0	0	0	0	0	0	0	0	0	0	0	0	0	0	0	0	0	0	0	0	0	0	1784	1771	1767	1780	1781	1777	1774	1774	1778	1803	1802	1799	1786	1722	0	0	0	0	0	0	0	0	0	1529	1515	1507	1492	1481	1463	1458	1462	1460	1459	1464	1462	1476	1485	1488	1489	1482	1479	1479	1477	1479	1479	1485	1491	1494	1496	1498	1485	1471	1461	1458	1458	1468	1467	1461	1475	1492	1506	1500	1492	1487	1498	1524	1536	1540	0	0	0	0	0	0	0	0	0	1751	1734	1743	1753	1760	1760	1755	1734	1726	1716	1654	1623	1604	1571	1561	1565	1537	1543	1545	1545	1554	1556	1558	1558	1554	1557	1556	1570	1573	1570	1564	1560	1557	1558	1557	1559	1558	1566	1579	1590	1617	1593	1583	1573	1584	1606	1590	1584	1580	1573	1569	1568	1564	1558	1557	1574	1579	1574	1570	1555	1551	1544	1548	1545	1545	1546	1570	1582	1585	1576	1564	1551	1551	1556	1565	1558	1565	1559	1557	1550	1558	1590	1593	1572	1569	0	0	0	0	0	0	0	0	1709	1721	1923	0	1906	1919	0	0	1721	1695	1690	1710	0	0	0	0	0	0	0	0	0	0	0	0	0	0	0	0	0	0	0	0	0	0	0	0	0	0	0	0	0	0	0	0	0	0	1591	1591	1592	1596	1585	1600	1620	1640	1638	1618	1602	1595	1596	1589	1598	1596	1593	1593	1593	1588	1579	1579	1567	1555	1561	1570	1571	1563	1544	1546	1571	1577	1570	1559	1564	1554	1556	1546	1543	1552	1565	1571	1564	1564	1544	1517	0	0	0	0	1573	1557	1552	1552	1547	1541	1525	1529	1565	1579	0	0	0	0	0	0	0	0	0	0	0	0	0	0	0	0	0	0	0	0	0
0	0	0	1235	1258	1311	1326	1326	1320	1308	1305	1324	1344	1358	1358	1377	1380	1383	1393	1392	1388	1388	1370	1350	1335	1337	1353	0	0	0	0	0	1477	1490	1511	1523	1530	1540	1540	1540	1535	1515	1499	1495	1508	1522	1529	1525	1517	1512	1513	1513	1538	1560	1575	1575	1556	1540	1536	1536	1537	1546	1555	1565	1559	1540	1534	1541	1551	1556	1570	1570	1572	1546	1507	1468	1374	1310	1304	1316	1316	1310	1313	1322	1336	1345	1346	1343	1333	1319	1305	1309	1321	1327	1329	1331	1329	1325	1317	1317	1327	1339	1347	1359	1358	1350	1341	1349	1340	1338	1326	1320	1324	1332	1335	1330	1325	1322	1308	1311	1316	1325	1349	1349	1341	1337	1341	1339	1335	1345	1359	0	0	0	0	0	0	0	0	0	0	0	1585	1588	1592	1599	1602	1597	1609	1608	1616	1616	1628	1636	1635	1651	1666	1668	1668	1649	0	0	0	0	0	0	0	0	0	0	0	0	0	0	0	0	0	0	0	0	0	0	0	0	0	0	0	0	0	0	0	0	0	0	0	0	0	0	0	0	0	0	0	0	0	0	0	0	0	0	0	0	0	0	0	0	0	0	0	0	0	0	0	0	0	0	0	1376	1393	1385	1384	1384	1385	1386	1386	1402	1397	1395	1389	1384	1379	1377	1368	1368	1372	1377	1377	1377	1371	1373	1386	1384	1380	1380	1385	1386	1387	1385	1388	1395	1394	1380	1380	1372	1367	1360	1375	1383	1381	1380	1385	1390	1389	1408	1412	1399	1394	1395	1429	1514	0	0	0	0	0	0	0	0	0	0	0	0	0	0	0	0	0	0	0	0	0	0	0	0	0	0	0	0	0	0	0	0	0	0	0	0	0	0	0	0	0	0	0	0	0	0	0	0	0	0	0	0	0	0	0	0	0	0	0	0	0	0	1768	1752	1748	1766	1779	1780	1778	1773	1768	1772	1781	1791	1785	1772	1735	0	0	0	0	0	0	0	0	0	1500	1478	1493	1487	1486	1476	1470	1461	1451	1449	1444	1463	1479	1488	1492	1487	1484	1485	1480	1478	1475	1468	1470	1477	1482	1490	1490	1485	1475	1459	1454	1454	1446	1450	1444	1461	1487	1501	1503	1504	1500	1508	1523	1531	1536	0	0	0	0	0	0	0	0	0	0	1771	1743	1755	1758	1758	1752	1713	1693	1687	1655	1616	1598	1570	1559	1562	1563	1539	1540	1542	1551	1561	1569	1570	1566	1569	1562	1564	1579	1569	1561	1555	1553	1551	1551	1550	1557	1565	1577	1595	1605	1590	1576	1568	1582	1599	1601	1579	1571	1573	1560	1555	1553	1552	1555	1565	1571	1566	1560	1549	1540	1543	1552	1557	1561	1565	1576	1583	1579	1573	1559	1552	1546	1557	1556	1556	1558	1555	1556	1558	1576	1599	1579	1557	1544	1599	0	0	0	0	0	0	0	1689	1712	0	0	0	0	1921	1709	1700	1686	1690	0	0	0	0	0	0	0	0	0	0	0	0	0	0	0	0	0	0	0	0	0	0	0	0	0	0	0	0	0	0	0	0	0	0	0	1574	1584	1592	1596	1604	1620	1621	1632	1623	1606	1580	1585	1587	1603	1603	1607	1602	1600	1594	1589	1574	1563	1555	1555	1562	1568	1567	1560	1557	1565	1571	1563	1550	1542	1538	1541	1540	1539	1544	1561	1573	1565	1550	1541	1514	0	0	0	0	0	1573	1559	1555	1555	1552	1542	1532	1519	1529	1558	0	0	0	0	0	0	0	0	0	0	0	0	0	0	0	0	0	0	0	0	0
0	0	0	1250	1272	1302	1308	1308	1297	1282	1288	1304	1326	1349	1349	1368	1376	1368	1386	1394	1387	1387	1374	1369	1343	1331	1351	0	0	0	0	0	1465	1486	1504	1517	1529	1521	1529	1529	1525	1513	1505	1506	1517	1534	1546	1543	1531	1530	1524	1524	1534	1562	1578	1568	1557	1545	1539	1537	1548	1561	1571	1575	1560	1539	1534	1548	1554	1557	1574	1574	1574	1541	1494	1459	1387	1307	1303	1318	1324	1312	1310	1323	1339	1349	1349	1342	1327	1312	1305	1313	1326	1336	1331	1332	1327	1327	1320	1322	1331	1345	1352	1350	1344	1334	1334	1342	1335	1336	1330	1327	1331	1334	1334	1334	1338	1340	1329	1318	1318	1327	1346	1354	1353	1348	1347	1343	1336	1352	1372	0	0	0	0	0	0	0	0	0	0	0	1583	1591	1596	1608	1611	1612	1616	1614	1624	1641	1642	1640	1645	1659	1683	1678	1675	0	0	0	0	0	0	0	0	0	0	0	0	0	0	0	0	0	0	0	0	0	0	0	0	0	0	0	0	0	0	0	0	0	0	0	0	0	0	0	0	0	0	0	0	0	0	0	0	0	0	0	0	0	0	0	0	0	0	0	0	0	0	0	0	0	0	0	0	1375	1389	1383	1384	1388	1392	1393	1388	1398	1401	1393	1388	1384	1378	1374	1379	1372	1375	1371	1377	1374	1376	1373	1378	1380	1375	1375	1384	1386	1391	1400	1404	1402	1405	1383	1377	1369	1365	1366	1380	1395	1398	1390	1391	1390	1392	1402	1413	1400	1390	1392	1427	1514	0	0	0	0	0	0	0	0	0	0	0	0	0	0	0	0	0	0	0	0	0	0	0	0	0	0	0	0	0	0	0	0	0	0	0	0	0	0	0	0	0	0	0	0	0	0	0	0	0	0	0	0	0	0	0	0	0	0	0	0	0	0	0	1744	1751	1769	1780	1781	1775	1773	1768	1766	1765	1770	1779	1765	1730	0	0	0	0	0	0	0	0	0	1486	1463	1483	1485	1496	1497	1487	1475	1447	1451	1453	1465	1479	1490	1489	1486	1486	1483	1481	1479	1475	1465	1463	1469	1475	1481	1486	1485	1477	1469	1464	1460	1464	1456	1459	1481	1487	1489	1496	1506	1511	1520	1525	1533	1540	0	0	0	0	0	0	0	0	0	0	1782	1761	1751	1761	1772	1755	1702	1674	1653	1630	1599	1592	1567	1556	1559	1554	1555	1540	1542	1550	1565	1573	1578	1579	1585	1585	1582	1583	1588	1584	1574	1558	1544	1528	1533	1549	1583	1592	1597	1600	1593	1591	1609	1595	1592	1574	1553	1564	1570	1557	1546	1544	1548	1553	1568	1570	1563	1550	1541	1536	1539	1558	1567	1580	1580	1583	1583	1575	1569	1557	1551	1545	1552	1541	1547	1550	1556	1554	1558	1573	1582	1565	1540	1533	1579	0	0	0	0	0	0	0	1701	1713	0	0	0	0	1708	1680	1670	1681	1698	0	0	0	0	0	0	0	0	0	0	0	0	0	0	0	0	0	0	0	0	0	0	0	0	0	0	0	0	0	0	0	0	0	0	0	1575	1585	1597	1612	1628	1638	1641	1633	1616	1591	1582	1581	1594	1613	1624	1622	1611	1601	1595	1581	1558	1553	1558	1573	1580	1583	1578	1566	1563	1564	1559	1543	1531	1525	1521	1519	1525	1534	1539	1563	1575	1566	1546	1529	1502	0	0	0	0	0	1564	1547	1552	1552	1555	1545	1532	1521	1512	1520	0	0	0	0	0	0	0	0	0	0	0	0	0	0	0	0	0	0	0	0	0
0	0	0	1276	1285	1295	1292	1292	1281	1269	1264	1273	1305	1337	1337	1351	1363	1373	1372	1378	1372	1372	1377	1370	1357	1370	1347	0	0	0	0	0	1450	1471	1493	1506	1509	1521	1523	1523	1524	1526	1512	1517	1520	1538	1551	1554	1550	1542	1537	1537	1543	1557	1560	1562	1553	1549	1542	1547	1557	1574	1581	1570	1559	1542	1550	1558	1563	1562	1568	1568	1566	1524	1468	1432	1377	1314	1306	1321	1329	1314	1310	1321	1335	1345	1344	1337	1329	1321	1316	1319	1331	1339	1334	1336	1336	1332	1324	1320	1332	1343	1343	1347	1338	1325	1321	1335	1340	1338	1337	1338	1340	1341	1335	1338	1343	1348	1335	1315	1316	1322	1343	1351	1354	1349	1344	1347	1351	1360	1389	0	0	0	0	0	0	0	0	0	0	0	0	1616	1610	1615	1618	1617	1619	1629	1639	1640	1644	1650	1646	1657	1671	1679	1670	0	0	0	0	0	0	0	0	0	0	0	0	0	0	0	0	0	0	0	0	0	0	0	0	0	0	0	0	0	0	0	0	0	0	0	0	0	0	0	0	0	0	0	0	0	0	0	0	0	0	0	0	0	0	0	0	0	0	0	0	0	0	0	0	0	0	0	0	1388	1400	1384	1384	1385	1393	1395	1389	1391	1396	1395	1389	1382	1377	1370	1378	1381	1378	1379	1378	1377	1377	1374	1375	1374	1370	1361	1393	1398	1401	1399	1400	1398	1393	1376	1373	1367	1374	1393	1400	1400	1395	1395	1395	1391	1395	1410	1423	1399	1392	1396	1428	1514	0	0	0	0	0	0	0	0	0	0	0	0	0	0	0	0	0	0	0	0	0	0	0	0	0	0	0	0	0	0	0	0	0	0	0	0	0	0	0	0	0	0	0	0	0	0	0	0	0	0	0	0	0	0	0	0	0	0	0	0	0	0	0	1752	1760	1771	1782	1784	1777	1770	1774	1774	1772	1768	1761	1758	0	0	0	0	0	0	0	0	0	0	1499	1479	1484	1486	1501	1510	1504	1478	1458	1460	1461	1472	1487	1487	1483	1484	1483	1483	1485	1486	1483	1472	1471	1469	1477	1478	1482	1481	1485	1485	1481	1473	1472	1483	1491	1503	1492	1491	1489	1495	1518	1527	1526	1527	1538	0	0	0	0	0	0	0	0	0	0	1780	1771	1773	1778	1795	1773	1718	0	1645	1611	1584	1577	1572	1558	1537	1535	1527	1523	1537	1558	1563	1558	1563	1572	1589	1584	1587	1594	1600	1596	1580	1564	1546	1544	1556	1574	1586	1599	1568	1592	1601	1620	1629	1623	1584	1558	1539	1556	1569	1567	1550	1542	1546	1554	1562	1566	1567	1565	1550	1530	1539	1553	1574	1582	1582	1568	1570	1564	1560	1554	1547	1546	1547	1545	1539	1540	1545	1548	1542	1538	1554	1545	1531	1529	1570	0	0	0	0	0	0	0	0	1712	1719	1717	1914	1907	1701	1668	1660	1673	1701	1708	0	0	0	0	0	0	0	0	0	0	0	0	0	0	0	0	0	0	0	0	0	0	0	0	0	0	0	0	0	0	0	0	0	0	0	1594	1612	1623	1641	1648	1648	1634	1611	1598	1588	1584	1601	1620	1633	1631	1611	1596	1589	1578	1568	1556	1568	1583	1593	1591	1579	1573	1568	1564	1543	1535	1529	1517	1513	1517	1526	1533	1544	1556	1576	1570	1556	1533	1505	0	0	0	0	0	1553	1552	1557	1557	1559	1550	1536	1523	1522	1525	0	0	0	0	0	0	0	0	0	0	0	0	0	0	0	0	0	0	0	0	0
0	0	0	1286	1284	1278	1283	1283	1278	1272	1265	1273	1297	1331	1331	1353	1353	1355	1342	1341	1347	1347	1363	1374	1383	1370	0	0	0	0	0	0	1446	1459	1479	1493	1506	1518	1526	1526	1526	1517	1520	1524	1531	1537	1546	1546	1547	1545	1543	1543	1545	1553	1550	1547	1542	1539	1538	1542	1556	1567	1570	1561	1547	1548	1563	1570	1569	1567	1564	1564	1545	1505	1457	1425	1377	1323	1319	1325	1322	1314	1310	1316	1328	1340	1341	1340	1334	1328	1326	1327	1336	1338	1337	1338	1343	1336	1325	1318	1326	1334	1333	1328	1320	1314	1321	1328	1336	1337	1344	1350	1349	1344	1341	1340	1351	1349	1331	1309	1311	1315	1337	1348	1352	1349	1346	1351	1368	1379	1394	0	0	0	0	0	0	0	0	0	0	0	0	1626	1627	1617	1622	1619	1632	1640	1649	1655	1658	1655	1645	1639	1656	1655	1653	1621	0	0	0	0	0	0	0	0	0	0	0	0	0	0	0	0	0	0	0	0	0	0	0	0	0	0	0	0	0	0	0	0	0	0	0	0	0	0	0	0	0	0	0	0	0	0	0	0	0	0	0	0	0	0	0	0	0	0	0	0	0	0	0	0	0	0	0	1398	1408	1391	1384	1383	1394	1387	1389	1385	1390	1392	1388	1383	1375	1371	1372	1390	1384	1376	1377	1379	1379	1373	1367	1363	1361	1354	1384	1393	1401	1395	1390	1379	1381	1375	1375	1375	1386	1392	1402	1402	1397	1393	1392	1395	1395	1405	1423	1397	1393	1401	1429	1509	0	0	0	0	0	0	0	0	0	0	0	0	0	0	0	0	0	0	0	0	0	0	0	0	0	0	0	0	0	0	0	0	0	0	0	0	0	0	0	0	0	0	0	0	0	0	0	0	0	0	0	0	0	0	0	0	0	0	0	0	0	0	0	1755	1770	1777	1785	1777	1775	1775	1769	1777	1779	1767	1758	1759	1703	0	0	0	0	0	0	0	0	0	0	1522	1504	1497	1498	1509	1500	1472	1463	1473	1469	1474	1481	1480	1479	1477	1477	1476	1476	1482	1483	1481	1475	1477	1484	1483	1484	1483	1481	1489	1499	1495	1496	1502	1514	1521	1508	1502	1495	1492	1510	1513	1514	1520	1527	0	0	0	0	0	0	0	0	0	0	1774	1775	1787	1803	1803	1766	0	0	0	1594	1568	1564	1584	1562	1528	1527	1525	1526	1532	1534	1536	1546	1544	1537	1537	1529	1532	1538	1534	1517	1522	1556	1517	1508	1524	1539	1530	1529	1558	1603	1627	1641	1644	1616	1585	1572	1549	1546	1559	1563	1556	1547	1545	1555	1563	1571	1569	1565	1554	1547	1548	1564	1572	1578	1577	1566	1563	1568	1559	1555	1552	1551	1547	1546	1533	1533	1538	1540	1541	1530	1533	1538	1525	1534	1578	0	0	0	0	0	0	0	0	1697	1687	1703	1700	1704	1697	1675	1662	1662	1680	1685	0	0	0	0	0	0	0	0	0	0	0	0	0	0	0	0	0	0	0	0	0	0	0	0	0	0	0	0	0	0	0	0	0	0	0	0	1632	1630	1637	1640	1641	1631	1616	1608	1597	1589	1597	1616	1619	1612	1603	1589	1575	1578	1582	1570	1575	1580	1584	1586	1580	1579	1569	1565	1553	1539	1531	1523	1520	1518	1525	1530	1541	1552	1568	1576	1563	1537	1522	0	0	0	0	0	1565	1562	1567	1567	1563	1559	1544	1536	1527	1547	0	0	0	0	0	0	0	0	0	0	0	0	0	0	0	0	0	0	0	0	0
0	0	0	1291	1286	1285	1300	1300	1301	1292	1287	1287	1306	1334	1334	1351	1356	1349	1334	1324	1334	1350	1362	1378	1381	1365	0	0	0	0	0	0	0	1462	1474	1487	1506	1523	1533	1533	1533	1528	1523	1533	1536	1533	1535	1536	1535	1536	1539	1539	1544	1546	1536	1534	1530	1526	1522	1536	1551	1557	1548	1537	1530	1539	1562	1578	1576	1571	1561	1527	1527	1494	1447	1422	1382	1337	1328	1330	1320	1311	1312	1316	1322	1326	1327	1330	1333	1333	1330	1328	1329	1327	1328	1334	1343	1341	1330	1318	1318	1322	1318	1316	1316	1317	1325	1326	1334	1339	1348	1353	1355	1347	1345	1346	1348	1346	1328	1311	1311	1319	1336	1344	1353	1356	1362	1371	1373	1380	1392	0	0	0	0	0	0	0	0	0	0	0	1577	1605	1621	1617	1622	1620	1638	1655	1654	1661	1645	1642	1625	1625	1632	1631	1621	1585	0	0	0	0	0	0	0	0	0	0	0	0	0	0	0	0	0	0	0	0	0	0	0	0	0	0	0	0	0	0	0	0	0	0	0	0	0	0	0	0	0	0	0	0	0	0	0	0	0	0	0	0	0	0	0	0	0	0	0	0	0	0	0	0	0	0	0	1393	1408	1400	1394	1381	1374	1381	1394	1385	1384	1388	1386	1380	1373	1364	1370	1397	1388	1373	1379	1379	1382	1376	1364	1357	1363	1356	1354	1353	1371	1377	1382	1371	1367	1371	1373	1379	1385	1390	1396	1402	1402	1404	1402	1403	1398	1408	1427	1401	1395	1397	1436	1488	0	0	0	0	0	0	0	0	0	0	0	0	0	0	0	0	0	0	0	0	0	0	0	0	0	0	0	0	0	0	0	0	0	0	0	0	0	0	0	0	0	0	0	0	0	0	0	0	0	0	0	0	0	0	0	0	0	0	0	0	0	0	0	1742	1765	1775	1775	1770	1759	1768	1768	1776	1783	1776	1777	1764	1722	0	0	0	0	0	0	0	0	0	0	1558	1572	1516	1497	1501	1483	1466	1468	1471	1475	1487	1482	1478	1477	1473	1468	1465	1466	1472	1473	1477	1479	1490	1496	1498	1484	1482	1485	1490	1495	1503	1501	1512	1523	1527	1520	1506	1496	1489	1484	1497	1506	1511	1516	0	0	0	0	0	0	0	0	0	1778	1777	1783	1781	1793	1791	1753	0	0	0	1576	1570	1565	1590	1578	1536	1537	1530	1531	1537	1537	1537	1533	1531	1537	1532	1533	1531	1530	1530	1525	1548	1565	1535	1519	1532	1526	1504	1508	1530	1596	1639	1662	1646	1592	1582	1591	1569	1548	1544	1565	1562	1554	1556	1561	1574	1568	1568	1561	1555	1557	1564	1573	1582	1579	1570	1566	1557	1561	1559	1556	1558	1548	1554	1553	1543	1539	1542	1544	1549	1535	1531	1532	1525	1555	0	0	0	0	0	0	0	0	0	1703	1671	1691	1692	1697	1689	1682	1668	1655	1658	1673	0	0	0	0	0	0	0	0	0	0	0	0	0	0	0	0	0	0	0	0	0	0	0	0	0	0	0	0	0	0	0	0	0	0	0	0	0	1631	1623	1641	1642	1629	1631	1618	1610	1597	1595	1605	1609	1602	1587	1581	1575	1578	1587	1581	1574	1579	1578	1575	1575	1573	1570	1567	1558	1549	1539	1532	1520	1517	1529	1533	1531	1543	1552	1568	1555	1544	1552	0	0	0	0	0	1576	1565	1571	1571	1569	1552	1545	1541	1533	1554	0	0	0	0	0	0	0	0	0	0	0	0	0	0	0	0	0	0	0	0	0
0	0	0	1285	1302	1314	1317	1320	1320	1319	1319	1317	1321	1338	1338	1353	1361	1352	1344	1342	1361	1361	1365	1367	1369	0	0	0	0	0	0	0	0	1464	1472	1480	1504	1522	1537	1537	1530	1532	1534	1541	1537	1528	1519	1514	1518	1524	1526	1526	1536	1530	1528	1525	1522	1510	1515	1531	1543	1545	1543	1531	1524	1532	1552	1575	1576	1574	1563	1525	1525	1490	1447	1428	1389	1344	1330	1338	1327	1312	1312	1313	1321	1322	1319	1325	1331	1330	1331	1328	1325	1318	1319	1327	1332	1328	1317	1311	1313	1313	1314	1312	1318	1325	1328	1328	1331	1337	1347	1351	1355	1357	1351	1344	1346	1340	1330	1318	1317	1326	1338	1339	1354	1366	1375	1378	1374	1362	1376	0	0	0	0	0	0	0	0	0	0	0	1566	1597	1604	1618	1613	1613	1643	1660	1659	1661	1638	1616	1606	1609	1610	1610	1603	1585	0	0	0	0	0	0	0	0	0	0	0	0	0	0	0	0	0	0	0	0	0	0	0	0	0	0	0	0	0	0	0	0	0	0	0	0	0	0	0	0	0	0	0	0	0	0	0	0	0	0	0	0	0	0	0	0	0	0	0	0	0	0	0	0	0	0	0	1373	1402	1410	1403	1377	1362	1376	1397	1396	1385	1386	1386	1381	1371	1364	1371	1389	1391	1370	1378	1381	1381	1378	1377	1363	1358	1361	1351	1355	1361	1357	1370	1367	1361	1367	1374	1380	1389	1394	1393	1403	1406	1412	1410	1413	1416	1410	1434	1442	1411	1400	1432	1462	0	0	0	0	0	0	0	0	0	0	0	0	0	0	0	0	0	0	0	0	0	0	0	0	0	0	0	0	0	0	0	0	0	0	0	0	0	0	0	0	0	0	0	0	0	0	0	0	0	0	0	0	0	0	0	0	0	0	0	0	0	0	0	1730	1747	1764	1759	1752	1742	1754	1762	1773	1777	1786	1782	1781	1736	0	0	0	0	0	0	0	0	0	0	1592	1592	1530	1492	1491	1480	1470	1467	1472	1486	1491	1487	1484	1482	1471	1463	1451	1453	1461	1465	1480	1488	1503	1511	1507	1496	1496	1489	1493	1502	1507	1509	1512	1512	1519	1514	1513	1502	1496	1486	1488	1502	1504	1509	0	0	0	0	0	0	0	0	0	0	1778	1785	1782	1772	1770	0	0	0	0	1559	1574	1580	1582	1577	1556	1555	1563	1547	1546	1543	1533	1527	1530	1533	1532	1531	1532	1540	1535	1534	1549	1550	1536	1529	1531	1513	1500	1501	1519	1576	1612	1633	1622	1572	1580	1598	1588	1554	1536	1561	1567	1563	1564	1574	1577	1573	1565	1560	1560	1559	1567	1582	1583	1576	1567	1565	1561	1563	1560	1562	1567	1565	1574	1571	1568	1559	1569	1558	1561	1550	1550	1548	1557	1579	0	0	0	0	0	0	0	0	0	0	1693	1685	1695	1694	1685	1687	1674	1660	1647	1651	0	0	0	0	0	0	0	0	0	0	0	0	0	0	0	0	0	0	0	0	0	0	0	0	0	0	0	0	0	0	0	0	0	0	0	0	0	1621	1622	1633	1643	1640	1635	1624	1617	1605	1595	1595	1603	1594	1569	1563	1566	1579	1588	1582	1584	1578	1578	1567	1568	1567	1564	1562	1557	1550	1552	1543	1536	1530	1534	1531	1536	1529	1537	1537	1546	1543	1548	0	0	0	0	0	1553	1562	1569	1569	1547	1547	1541	1540	1530	1553	0	0	0	0	0	0	0	0	0	0	0	0	0	0	0	0	0	0	0	0	0
0	0	0	1285	1306	1330	1325	1320	1320	1323	1327	1340	1343	1349	1349	1366	1367	1368	1378	1372	1373	1373	1358	1359	1355	1352	0	0	0	0	0	0	0	1488	1471	1483	1500	1520	1534	1534	1532	1533	1539	1540	1539	1519	1503	1492	1496	1507	1521	1521	1527	1524	1525	1524	1514	1506	1504	1525	1536	1538	1539	1535	1531	1535	1547	1575	1574	1576	1567	1539	1539	1490	1458	1444	1405	1351	1338	1336	1328	1314	1316	1316	1321	1323	1321	1324	1332	1334	1335	1328	1320	1315	1314	1317	1319	1315	1309	1312	1316	1311	1313	1320	1323	1327	1327	1327	1331	1339	1344	1352	1356	1354	1349	1339	1330	1334	1331	1328	1329	1337	1337	1338	1351	1362	1377	1384	1370	1361	1379	0	0	0	0	0	0	0	0	0	0	0	1567	1590	1597	1603	1605	1616	1644	1651	1653	1642	1622	1613	1598	1603	1619	1619	1612	1603	0	0	0	0	0	0	0	0	0	0	0	0	0	0	0	0	0	0	0	0	0	0	0	0	0	0	0	0	0	0	0	0	0	0	0	0	0	0	0	0	0	0	0	0	0	0	0	0	0	0	0	0	0	0	0	0	0	0	0	0	0	0	0	0	0	0	0	1369	1382	1397	1395	1371	1362	1377	1398	1397	1386	1390	1386	1382	1374	1365	1371	1381	1387	1384	1375	1374	1376	1381	1371	1362	1358	1371	1362	1345	1341	1347	1359	1354	1364	1372	1376	1381	1389	1400	1397	1406	1408	1413	1418	1423	1426	1420	1439	1452	1419	1409	1437	1446	0	0	0	0	0	0	0	0	0	0	0	0	0	0	0	0	0	0	0	0	0	0	0	0	0	0	0	0	0	0	0	0	0	0	0	0	0	0	0	0	0	0	0	0	0	0	0	0	0	0	0	0	0	0	0	0	0	0	0	0	0	0	0	1728	1747	1751	1747	1734	1732	1735	1755	1767	1763	1785	1785	1779	1746	0	0	0	0	0	0	0	0	0	0	1609	1590	1529	1508	1495	1485	1480	1479	1487	1489	1489	1486	1479	1472	1465	1460	1459	1456	1461	1468	1485	1497	1508	1516	1517	1504	1498	1496	1496	1501	1509	1514	1516	1512	1511	1516	1517	1511	1499	1496	1495	1505	1497	1499	0	0	0	0	0	0	0	0	0	0	1766	1774	1761	1769	0	0	0	0	0	1556	1572	1577	1570	1570	1566	1569	1572	1555	1570	1574	1555	1527	1525	1529	1537	1559	1560	1555	1562	1554	1552	1556	1539	1533	1526	1511	1512	1517	1518	1548	1573	1587	1583	1563	1580	1591	1586	1559	1546	1560	1564	1561	1565	1581	1583	1574	1569	1559	1558	1559	1568	1581	1577	1569	1567	1565	1564	1557	1562	1570	1578	1587	1588	1581	1579	1583	1592	1587	1570	1557	1571	1570	1586	1588	0	0	0	0	0	0	0	0	0	0	1716	1711	1705	1705	1700	1698	1687	1664	1647	0	0	0	0	0	0	0	0	0	0	0	0	0	0	0	0	0	0	0	0	0	0	0	0	0	0	0	0	0	0	0	0	0	0	0	0	0	0	1621	1624	1621	1628	1635	1638	1626	1615	1606	1596	1581	1575	1577	1570	1564	1574	1586	1582	1580	1589	1588	1580	1570	1561	1561	1562	1559	1561	1555	1559	1560	1552	1537	1554	1554	1544	1533	1529	1536	1543	1545	1547	1548	0	0	0	1526	1525	1541	1546	1546	1540	1533	1536	1529	1528	1542	0	0	0	0	0	0	0	0	0	0	0	0	0	0	0	0	0	0	0	0	0
0	0	0	1286	1307	1323	1316	1318	1318	1315	1325	1338	1356	1364	1364	1371	1380	1377	1380	1376	1366	1366	1353	1344	1350	1350	0	0	0	0	0	0	0	1510	1480	1486	1498	1508	1511	1511	1515	1519	1532	1540	1536	1508	1496	1485	1485	1501	1517	1517	1532	1540	1535	1527	1522	1508	1509	1515	1525	1532	1540	1543	1541	1548	1553	1559	1569	1570	1573	1549	1549	1491	1455	1439	1421	1361	1348	1342	1322	1316	1313	1321	1323	1321	1325	1330	1335	1342	1347	1340	1332	1320	1316	1314	1315	1309	1308	1316	1319	1320	1323	1327	1329	1326	1324	1330	1330	1336	1340	1341	1347	1347	1338	1326	1317	1327	1339	1345	1341	1342	1344	1345	1352	1360	1373	1379	1374	1394	1394	0	0	0	0	0	0	0	0	0	0	0	1588	1599	1601	1603	1614	1621	1641	1639	1628	1624	1624	1615	1615	1623	1623	1627	1635	1644	0	0	0	0	0	0	0	0	0	0	0	0	0	0	0	0	0	0	0	0	0	0	0	0	0	0	0	0	0	0	0	0	0	0	0	0	0	0	0	0	0	0	0	0	0	0	0	0	0	0	0	0	0	0	0	0	0	0	0	0	0	0	0	0	0	0	0	1377	1384	1399	1398	1375	1362	1381	1398	1396	1388	1385	1388	1384	1379	1372	1370	1374	1379	1385	1371	1373	1370	1373	1362	1356	1358	1358	1366	1360	1357	1355	1362	1372	1369	1377	1374	1377	1385	1409	1406	1410	1407	1408	1412	1419	1422	1419	1416	1426	1431	1421	1443	1460	0	0	0	0	0	0	0	0	0	0	0	0	0	0	0	0	0	0	0	0	0	0	0	0	0	0	0	0	0	0	0	0	0	0	0	0	0	0	0	0	0	0	0	0	0	0	0	0	0	0	0	0	0	0	0	0	0	0	0	0	0	0	0	1736	1738	1749	1747	1735	1732	1737	1756	1766	1771	1774	1772	1768	1758	0	0	0	0	0	0	0	0	0	0	1607	1574	1521	1501	1494	1490	1493	1482	1487	1489	1476	1473	1466	1455	1451	1454	1459	1463	1467	1473	1485	1496	1505	1511	1511	1503	1494	1490	1497	1504	1509	1513	1511	1508	1511	1514	1516	1505	1504	1491	1500	1503	1497	1500	0	0	0	0	0	0	0	0	0	0	1744	1743	1740	0	0	0	0	0	0	1567	1564	1561	1549	1554	1566	1568	1583	1572	1580	1575	1556	1526	1527	1532	1539	1550	1570	1578	1588	1609	1623	1628	1619	1605	1586	1584	1588	1546	1537	1537	1549	1562	1555	1552	1566	1577	1580	1571	1567	1560	1554	1549	1557	1579	1580	1575	1568	1563	1567	1569	1574	1572	1567	1562	1557	1558	1556	1555	1561	1568	1574	1588	1586	1578	1576	1581	1582	1583	1559	1551	1579	1595	1602	1598	0	0	0	0	0	0	0	0	0	0	0	0	0	0	0	0	0	0	0	0	0	0	0	0	0	0	0	0	0	0	0	0	0	0	0	0	0	0	0	0	0	0	0	0	0	0	0	0	0	0	0	0	0	0	0	0	0	0	0	0	0	0	1626	1615	1614	1608	1591	1581	1567	1559	1552	1563	1574	1584	1586	1587	1591	1593	1586	1575	1562	1560	1557	1565	1559	1560	1568	1578	1561	1557	1571	1569	1560	1543	1535	1544	1552	1557	1549	1543	1530	1528	1533	1531	1527	1530	1530	1537	1542	1544	1541	1532	1517	1514	0	0	0	0	0	0	0	0	0	0	0	0	0	0	0	0	0	0	0	0	0
0	0	0	1288	1293	1305	1303	1305	1305	1312	1323	1336	1348	1362	1362	1379	1377	1382	1382	1375	1364	1364	1352	1345	1343	1358	0	0	0	0	0	0	0	1527	1500	1492	1489	1487	1487	1487	1494	1508	1527	1525	1523	1512	1505	1495	1490	1496	1516	1537	1537	1550	1548	1542	1530	1514	1518	1512	1507	1522	1530	1546	1549	1558	1560	1552	1558	1561	1568	1546	1546	1503	1451	1433	1410	1355	1341	1338	1331	1323	1318	1321	1328	1330	1336	1342	1347	1350	1346	1347	1338	1327	1323	1320	1316	1311	1310	1315	1320	1331	1335	1336	1333	1324	1325	1330	1332	1334	1328	1326	1332	1342	1335	1326	1318	1331	1341	1346	1344	1339	1343	1352	1353	1354	1362	1375	1376	1389	1387	0	0	0	0	0	0	0	0	0	0	0	0	1617	1617	1614	1627	1634	1641	1632	1623	1619	1626	1630	1630	1632	1637	1651	1659	1672	0	0	0	0	0	0	0	0	0	0	0	0	0	0	0	0	0	0	0	0	0	0	0	0	0	0	0	0	0	0	0	0	0	0	0	0	0	0	0	0	0	0	0	0	0	0	0	0	0	0	0	0	0	0	0	0	0	0	0	0	0	0	0	0	0	0	0	1389	1395	1396	1394	1388	1371	1394	1417	1407	1391	1386	1386	1389	1384	1376	1371	1379	1389	1384	1372	1367	1360	1357	1362	1361	1368	1370	1364	1374	1378	1358	1375	1388	1378	1384	1379	1376	1380	1393	1407	1408	1406	1402	1402	1406	1407	1409	1400	1399	1431	1437	1453	1501	0	0	0	0	0	0	0	0	0	0	0	0	0	0	0	0	0	0	0	0	0	0	0	0	0	0	0	0	0	0	0	0	0	0	0	0	0	0	0	0	0	0	0	0	0	0	0	0	0	0	0	0	0	0	0	0	0	0	0	0	0	0	0	1738	1741	1748	1752	1751	1748	1754	1765	1774	1770	1770	1771	1765	1749	0	0	0	0	0	0	0	0	0	1581	1590	1553	1503	1483	1480	1496	1496	1489	1482	1475	1461	1461	1456	1451	1447	1453	1457	1467	1463	1468	1478	1487	1494	1501	1501	1494	1485	1484	1487	1497	1493	1500	1503	1505	1511	1512	1507	1499	1496	1494	1498	1506	1516	1518	0	0	0	0	0	0	0	0	0	0	0	1724	0	0	0	0	0	0	0	1569	1560	1538	1532	1535	1555	1561	1566	1587	1591	1562	1574	1580	1577	1570	1561	1566	1574	1569	1570	1569	1574	1585	1596	1578	1576	1576	1572	1577	1550	1534	1541	1546	1550	1551	1558	1562	1573	1576	1573	1554	1549	1550	1559	1584	1582	1573	1566	1571	1589	1606	1597	1576	1562	1551	1544	1538	1547	1546	1554	1559	1570	1575	1568	1560	1552	1551	1566	1563	1543	1546	1584	1597	1602	1600	0	0	0	0	0	0	0	0	0	1711	0	0	0	0	0	0	0	0	0	0	0	0	0	0	0	0	0	0	0	0	0	0	0	0	0	0	0	0	0	0	0	0	0	0	0	0	0	0	0	0	0	0	0	0	0	0	0	0	0	0	0	0	1613	1604	1604	1607	1591	1574	1558	1551	1560	1570	1580	1590	1586	1584	1586	1590	1583	1571	1563	1558	1555	1559	1558	1557	1578	1590	1574	1572	1586	1586	1575	1558	1550	1560	1559	1559	1550	1530	1534	1538	1538	1540	1532	1529	1529	1535	1545	1556	1553	1540	1518	1510	0	0	0	0	0	0	0	0	0	0	0	0	0	0	0	0	0	0	0	0	0
0	0	0	1285	1282	1282	1286	1300	1300	1331	1335	1342	1348	1355	1355	1369	1385	1391	1384	1374	1362	1351	1351	1336	1332	1348	0	0	0	0	0	0	0	1538	1500	1487	1483	1473	1476	1476	1493	1513	1525	1518	1527	1514	1518	1509	1500	1503	1521	1537	1537	1557	1558	1548	1536	1524	1513	1513	1507	1514	1529	1550	1549	1566	1567	1546	1543	1548	1560	1541	1510	1510	1459	1430	1399	1344	1333	1339	1333	1327	1322	1330	1335	1340	1351	1357	1355	1349	1342	1342	1341	1334	1329	1328	1320	1315	1308	1315	1326	1335	1344	1342	1334	1323	1324	1329	1333	1330	1315	1309	1323	1337	1344	1334	1333	1335	1346	1346	1344	1340	1348	1353	1350	1348	1343	1360	1375	1365	1362	0	0	0	0	0	0	0	0	0	0	0	0	1624	1625	1625	1639	1655	1653	1636	1621	1619	1627	1639	1647	1647	1660	1680	1693	0	0	0	0	0	0	0	0	0	0	0	0	0	0	0	0	0	0	0	0	0	0	0	0	0	0	0	0	0	0	0	0	0	0	0	0	0	0	0	0	0	0	0	0	0	0	0	0	0	0	0	0	0	0	0	0	0	0	0	0	0	0	0	0	0	0	0	0	1398	1403	1384	1384	1386	1392	1410	1421	1410	1395	1396	1394	1391	1389	1381	1374	1386	1395	1388	1375	1375	1358	1364	1367	1371	1373	1374	1379	1376	1367	1363	1364	1383	1379	1387	1384	1381	1382	1392	1396	1402	1399	1393	1393	1391	1392	1392	1400	1398	1407	1442	1463	1549	0	0	0	0	0	0	0	0	0	0	0	0	0	0	0	0	0	0	0	0	0	0	0	0	0	0	0	0	0	0	0	0	0	0	0	0	0	0	0	0	0	0	0	0	0	0	0	0	0	0	0	0	0	0	0	0	0	0	0	0	0	0	0	1767	1738	1746	1754	1749	1754	1778	1777	1781	1774	1769	1766	1768	0	0	0	0	0	0	0	0	0	0	1569	1559	1537	1492	1466	1472	1490	1499	1487	1471	1455	1451	1457	1463	1458	1454	1452	1448	1453	1459	1467	1477	1486	1487	1490	1495	1491	1474	1468	1471	1478	1488	1487	1495	1500	1504	1503	1500	1493	1493	1490	1497	1526	1553	1549	0	0	0	0	0	0	0	0	0	0	0	0	0	0	0	0	0	0	0	1577	1559	1541	1530	1519	1533	1536	1530	1534	1540	1548	1566	1575	1565	1558	1556	1567	1574	1576	1565	1553	1550	1556	1559	1559	1558	1565	1568	1559	1566	1555	1552	1555	1549	1542	1546	1554	1571	1570	1573	1549	1546	1547	1566	1587	1583	1574	1580	1585	1602	1618	1606	1576	1558	1550	1530	1524	1529	1548	1559	1564	1567	1573	1575	1560	1539	1534	1536	1538	1538	1555	1576	1608	1600	1582	0	0	0	0	0	0	0	0	0	0	0	0	0	0	0	0	0	0	0	0	0	0	0	0	0	0	0	0	0	0	0	0	0	0	0	0	0	0	0	0	0	0	0	0	0	0	0	0	0	0	0	0	0	0	0	0	0	0	0	0	0	0	1609	1610	1613	1606	1600	1573	1558	1557	1566	1575	1584	1580	1585	1585	1580	1578	1571	1566	1560	1553	1545	1545	1552	1560	1589	1588	1587	1590	1592	1601	1590	1582	1565	1560	1561	1558	1542	1535	1541	1545	1561	1560	1541	1536	1536	1532	1544	1552	1560	1548	1533	1520	0	0	0	0	0	0	0	0	0	0	0	0	0	0	0	0	0	0	0	0	0
0	0	0	1282	1281	1284	1286	1308	1308	1338	1343	1341	1339	1355	1357	1385	1396	1390	1383	1371	1353	1336	1336	1325	1313	1319	0	0	0	0	0	0	0	1529	1506	1480	1471	1474	1483	1483	1501	1522	1523	1519	1517	1518	1520	1520	1517	1510	1520	1539	1539	1556	1559	1551	1539	1526	1524	1517	1512	1517	1525	1552	1562	1575	1571	1548	1539	1545	1549	1538	1507	1507	1475	1442	1390	1336	1335	1338	1332	1327	1325	1328	1336	1354	1363	1361	1354	1342	1337	1334	1336	1333	1333	1331	1326	1319	1318	1323	1330	1349	1351	1345	1328	1318	1324	1334	1332	1325	1307	1308	1322	1341	1348	1341	1335	1340	1344	1346	1346	1341	1344	1345	1343	1337	1335	1347	1363	1347	1328	1341	0	0	0	0	0	0	0	0	0	0	0	1621	1622	1632	1647	1661	1661	1656	1637	1619	1626	1634	1639	1654	1661	1681	1693	0	0	0	0	0	0	0	0	0	0	0	0	0	0	0	0	0	0	0	0	0	0	0	0	0	0	0	0	0	0	0	0	0	0	0	0	0	0	0	0	0	0	0	0	0	0	0	0	0	0	0	0	0	0	0	0	0	0	0	0	0	0	0	0	0	0	0	0	1395	1393	1371	1370	1378	1386	1408	1409	1397	1394	1390	1389	1384	1374	1376	1375	1388	1393	1387	1384	1377	1373	1371	1375	1381	1374	1375	1378	1364	1373	1362	1377	1383	1392	1388	1381	1379	1384	1390	1388	1390	1391	1386	1388	1384	1381	1377	1401	1406	1411	1439	1470	1588	0	0	0	0	0	0	0	0	0	0	0	0	0	0	0	0	0	0	0	0	0	0	0	0	0	0	0	0	0	0	0	0	0	0	0	0	0	0	0	0	0	0	0	0	0	0	0	0	0	0	0	0	0	0	0	0	0	0	0	0	0	0	0	1788	1749	1745	1745	1746	1751	1766	1780	1775	1764	1754	1766	1787	0	0	0	0	0	0	0	0	0	0	1552	1542	1517	1472	1458	1470	1482	1495	1469	1452	1444	1449	1468	1477	1478	1465	1458	1448	1450	1453	1466	1475	1481	1488	1492	1497	1493	1479	1463	1462	1468	1475	1483	1487	1494	1495	1489	1485	1485	1491	1493	1504	1546	1566	1563	0	0	0	0	0	0	0	0	0	0	0	0	0	0	0	0	0	0	0	1604	1576	1557	1535	1502	1498	1518	1525	1534	1539	1548	1551	1551	1547	1551	1553	1567	1569	1567	1561	1556	1558	1558	1556	1555	1548	1557	1566	1560	1567	1583	1557	1558	1546	1540	1543	1555	1563	1566	1563	1542	1540	1543	1554	1583	1589	1581	1579	1577	1591	1606	1606	1577	1560	1552	1533	1514	1525	1558	1567	1568	1576	1581	1583	1566	1553	1531	1531	1532	1544	1560	1581	1597	1592	1571	0	0	0	0	0	0	0	0	0	0	0	0	0	0	0	0	0	0	0	0	0	0	0	0	0	0	0	0	0	0	0	0	0	0	0	0	0	0	0	0	0	0	0	0	0	0	0	0	0	0	0	0	0	0	0	0	0	0	0	0	0	0	0	1618	1612	1615	1589	1558	1548	1548	1554	1572	1580	1585	1588	1583	1574	1572	1571	1573	1565	1557	1545	1536	1537	1552	1570	1579	1585	1589	1596	1606	1606	1597	1580	1564	1552	1552	1542	1537	1552	1567	1573	1562	1552	1536	1536	1524	1534	1551	1559	1553	1542	1525	1514	0	0	0	0	0	0	0	0	0	0	0	0	0	0	0	0	0	0	0	0
0	0	0	1278	1286	1297	1301	1310	1310	1331	1335	1334	1341	1384	1410	1410	1402	1379	1367	1355	1346	1337	1337	1318	1306	1308	0	0	0	0	0	0	0	1515	1513	1496	1471	1482	1501	1513	1513	1526	1523	1518	1516	1514	1521	1522	1517	1518	1520	1536	1536	1547	1546	1541	1530	1531	1528	1522	1524	1522	1533	1550	1561	1575	1576	1571	1554	1555	1554	1543	1507	1507	1474	1441	1373	1329	1333	1339	1336	1322	1314	1313	1323	1351	1367	1361	1351	1341	1330	1328	1328	1331	1334	1333	1327	1323	1312	1319	1333	1345	1347	1338	1324	1317	1331	1333	1327	1318	1312	1311	1322	1338	1342	1336	1335	1335	1345	1350	1350	1344	1335	1331	1333	1332	1330	1336	1350	1336	1325	1351	0	0	0	0	0	0	0	0	0	0	0	1610	1616	1623	1641	1656	1664	1650	1638	1626	1622	1629	1634	1644	1653	1661	1655	1655	0	0	0	0	0	0	0	0	0	0	0	0	0	0	0	0	0	0	0	0	0	0	0	0	0	0	0	0	0	0	0	0	0	0	0	0	0	0	0	0	0	0	0	0	0	0	0	0	0	0	0	0	0	0	0	0	0	0	0	0	0	0	0	0	0	0	0	1383	1367	1361	1370	1380	1392	1394	1394	1387	1384	1386	1385	1384	1377	1370	1375	1386	1392	1388	1385	1382	1383	1376	1383	1376	1375	1376	1380	1382	1371	1373	1373	1380	1379	1386	1381	1380	1391	1388	1370	1374	1378	1386	1390	1390	1388	1379	1412	1424	1427	1441	1472	1591	0	0	0	0	0	0	0	0	0	0	0	0	0	0	0	0	0	0	0	0	0	0	0	0	0	0	0	0	0	0	0	0	0	0	0	0	0	0	0	0	0	0	0	0	0	0	0	0	0	0	0	0	0	0	0	0	0	0	0	0	0	0	0	1808	1768	1753	1743	1749	1741	1732	1729	1722	1726	1736	1760	0	0	0	0	0	0	0	0	0	0	0	0	1522	1496	1463	1466	1478	1483	1488	1464	1461	1458	1459	1471	1480	1482	1476	1467	1454	1455	1463	1470	1476	1483	1490	1500	1508	1509	1496	1476	1469	1469	1473	1479	1487	1491	1488	1481	1476	1482	1492	1496	1503	1531	1550	1564	0	0	0	0	0	0	0	0	0	0	0	0	0	0	0	0	0	0	1613	1628	1598	1579	1545	1504	1509	1525	1532	1537	1545	1550	1541	1530	1532	1545	1558	1564	1561	1555	1550	1551	1555	1559	1553	1554	1555	1559	1558	1556	1569	1583	1552	1540	1540	1534	1547	1555	1555	1552	1552	1536	1535	1532	1536	1556	1588	1577	1566	1560	1565	1575	1573	1566	1559	1559	1536	1533	1546	1563	1572	1579	1589	1596	1586	1574	1552	1540	1537	1541	1551	1569	1580	1595	1577	1560	0	0	0	0	0	0	0	0	0	0	0	0	0	0	0	0	0	0	0	0	0	0	0	0	0	0	0	0	0	0	0	0	0	0	0	0	0	0	0	0	0	0	0	0	0	0	0	0	0	0	0	0	0	0	0	0	0	0	0	0	0	0	0	0	1610	1604	1588	1553	1539	1529	1545	1554	1564	1579	1589	1584	1568	1568	1583	1577	1563	1553	1540	1534	1538	1555	1569	1573	1578	1589	1596	1594	1588	1581	1574	1557	1556	1550	1547	1553	1568	1584	1592	1577	1552	1537	1537	1529	1531	1547	1550	1545	1538	1534	1518	0	0	0	0	0	0	0	0	0	0	0	0	0	0	0	0	0	0	0	0
0	0	0	1267	1294	1301	1302	1306	1306	1310	1320	1326	1364	1380	1395	1395	1375	1362	1344	1349	1348	1345	1345	1328	1322	1335	0	0	0	0	0	0	0	1510	1512	1502	1488	1497	1511	1525	1525	1532	1532	1525	1520	1523	1522	1523	1519	1522	1524	1528	1528	1530	1526	1525	1526	1528	1532	1532	1534	1534	1543	1552	1556	1564	1573	1580	1569	1562	1550	1542	1499	1499	1468	1449	1382	1332	1332	1334	1332	1318	1303	1308	1317	1327	1353	1354	1351	1344	1332	1324	1322	1326	1329	1326	1321	1318	1317	1322	1324	1331	1331	1327	1320	1325	1332	1333	1322	1311	1315	1317	1321	1325	1331	1331	1333	1332	1338	1348	1349	1344	1322	1323	1328	1336	1343	1337	1343	1339	1357	0	0	0	0	0	0	0	0	0	0	0	0	1604	1610	1611	1627	1643	1657	1638	1631	1625	1626	1627	1629	1646	1643	1645	1645	1632	0	0	0	0	0	0	0	0	0	0	0	0	0	0	0	0	0	0	0	0	0	0	0	0	0	0	0	0	0	0	0	0	0	0	0	0	0	0	0	0	0	0	0	0	0	0	0	0	0	0	0	0	0	0	0	0	0	0	0	0	0	0	0	0	0	0	0	1381	1358	1362	1379	1398	1391	1383	1381	1381	1382	1378	1378	1370	1377	1379	1374	1377	1384	1389	1384	1380	1383	1379	1373	1377	1376	1377	1380	1389	1397	1381	1370	1372	1377	1380	1380	1385	1403	1396	1370	1366	1375	1384	1391	1400	1399	1398	1415	1435	1440	1446	1479	1586	0	0	0	0	0	0	0	0	0	0	0	0	0	0	0	0	0	0	0	0	0	0	0	0	0	0	0	0	0	0	0	0	0	0	0	0	0	0	0	0	0	0	0	0	0	0	0	0	0	0	0	0	0	0	0	0	0	0	0	0	0	0	0	1801	1779	1769	1774	1778	1752	1716	1690	1685	0	0	0	0	0	0	0	0	0	0	0	0	0	0	0	1506	1474	1463	1478	1488	1489	1487	1469	1462	1468	1464	1462	1472	1474	1480	1471	1461	1461	1468	1477	1485	1496	1499	1503	1508	1514	1508	1494	1475	1482	1476	1484	1489	1493	1485	1484	1479	1485	1490	1494	1495	1503	1505	1533	1597	0	0	0	0	0	0	0	0	0	0	0	0	0	0	0	0	0	1632	1639	1605	1577	1544	1513	1524	1547	1550	1547	1560	1564	1546	1526	1529	1551	1566	1570	1561	1549	1543	1547	1558	1558	1555	1550	1557	1564	1558	1562	1560	1573	1551	1527	1535	1526	1533	1556	1547	1544	1549	1534	1526	1525	1527	1549	1575	1569	1557	1542	1549	1560	1567	1565	1559	1552	1545	1542	1555	1561	1565	1576	1582	1589	1583	1569	1546	1540	1541	1544	1548	1566	1577	1589	1576	1559	0	0	0	0	0	0	0	0	0	0	0	0	0	0	0	0	0	0	0	0	0	0	0	0	0	0	0	0	0	0	0	0	0	0	0	0	0	0	0	0	0	0	0	0	0	0	0	0	0	0	0	0	0	0	0	0	0	0	0	0	0	0	1631	1610	1610	1612	1610	1576	1543	1525	1520	1530	1549	1575	1584	1581	1577	1588	1589	1586	1575	1558	1539	1532	1543	1576	1575	1576	1578	1579	1583	1584	1565	1545	1538	1544	1549	1553	1564	1571	1577	1593	1596	1599	1573	1566	1566	1550	1554	1552	1555	1542	1542	1546	1523	0	0	0	0	0	0	0	0	0	0	0	0	0	0	0	0	0	0	0	0
0	0	0	1249	1266	1290	1291	1291	1291	1300	1320	1344	1344	1360	1354	1354	1337	1327	1320	1328	1347	1349	1349	1355	1351	1351	0	0	0	0	0	0	0	1485	1512	1503	1498	1502	1516	1529	1529	1536	1538	1534	1533	1527	1521	1518	1513	1518	1526	1518	1518	1518	1514	1516	1519	1528	1533	1533	1536	1543	1552	1562	1559	1562	1568	1575	1569	1562	1548	1537	1491	1469	1469	1449	1384	1335	1336	1335	1331	1315	1306	1305	1316	1323	1335	1339	1343	1341	1337	1326	1319	1318	1320	1317	1315	1313	1315	1316	1319	1323	1324	1322	1329	1334	1340	1326	1318	1316	1321	1318	1321	1320	1326	1333	1333	1333	1327	1341	1342	1336	1316	1323	1343	1357	1354	1332	1340	1353	1397	1422	0	0	0	0	0	0	0	0	0	0	0	1614	1598	1601	1610	1622	1636	1633	1625	1625	1621	1621	1630	1638	1646	1640	1644	1635	0	0	0	0	0	0	0	0	0	0	0	0	0	0	0	0	0	0	0	0	0	0	0	0	0	0	0	0	0	0	0	0	0	0	0	0	0	0	0	0	0	0	0	0	0	0	0	0	0	0	0	0	0	0	0	0	0	0	0	0	0	0	0	0	0	0	0	1401	1374	1365	1394	1411	1414	1380	1378	1383	1383	1376	1367	1361	1365	1373	1370	1367	1373	1386	1381	1375	1386	1387	1384	1379	1376	1376	1381	1386	1390	1386	1392	1375	1371	1375	1383	1383	1395	1397	1377	1373	1374	1381	1395	1396	1392	1394	1412	1432	1446	1466	1495	1577	1655	0	0	0	0	0	0	0	0	0	0	0	0	0	0	0	0	0	0	0	0	0	0	0	0	0	0	0	0	0	0	0	0	0	0	0	0	0	0	0	0	0	0	0	0	0	0	0	0	0	0	0	0	0	0	0	0	0	0	0	0	0	0	1785	1760	1762	1769	0	0	0	0	0	0	0	0	0	0	0	0	0	0	0	0	0	0	0	0	1484	1463	1464	1480	1492	1494	1487	1464	1459	1461	1465	1459	1461	1470	1478	1474	1461	1466	1469	1483	1498	1502	1507	1499	1500	1502	1503	1496	1488	1495	1490	1484	1485	1492	1487	1480	1484	1487	1493	1501	1501	1504	1503	1531	1608	0	0	0	0	0	0	0	0	0	0	0	0	0	0	0	0	0	1616	1611	1597	1579	1556	1540	1538	1526	1565	1572	1583	1586	1575	1554	1543	1540	1537	1539	1541	1531	1530	1535	1542	1548	1548	1541	1551	1560	1565	1550	1562	1552	1548	1548	1531	1519	1517	1545	1540	1541	1554	1546	1530	1537	1535	1558	1571	1560	1546	1532	1544	1562	1570	1567	1560	1555	1546	1551	1552	1553	1566	1571	1574	1576	1568	1549	1539	1536	1547	1548	1553	1555	1570	1583	1581	1562	0	0	0	0	0	0	0	0	0	0	0	0	0	0	0	0	0	0	0	0	0	0	0	0	0	0	0	0	0	0	0	0	0	0	0	0	0	0	0	0	0	0	0	0	0	0	0	0	0	0	0	0	0	0	0	0	0	0	0	0	1647	1635	1614	1604	1601	1611	1620	1602	1566	1535	1536	1538	1547	1565	1582	1581	1573	1593	1593	1590	1584	1566	1545	1543	1551	1575	1583	1585	1587	1587	1591	1585	1565	1537	1522	1528	1542	1554	1565	1563	1576	1579	1593	1600	1600	1600	1603	1601	1600	1590	1581	1566	1564	1563	0	0	0	0	0	0	0	0	0	0	0	0	0	0	0	0	0	0	0	0	0
0	0	0	1251	1262	1274	1281	1283	1283	1297	1317	1318	1321	1326	1322	1322	1311	1303	1310	1325	1342	1356	1356	1364	1360	1352	0	0	0	0	0	0	0	1483	1512	1508	1507	1510	1513	1521	1521	1529	1532	1537	1537	1538	1532	1516	1514	1518	1521	1524	1524	1516	1511	1506	1519	1525	1529	1530	1542	1548	1558	1561	1563	1557	1558	1569	1546	1540	1536	1539	1492	1469	1469	1452	1390	1340	1336	1328	1332	1315	1308	1311	1319	1327	1326	1327	1334	1336	1338	1329	1320	1318	1315	1314	1317	1319	1319	1323	1328	1333	1336	1336	1338	1340	1338	1326	1317	1322	1318	1324	1320	1320	1322	1333	1334	1330	1319	1325	1326	1326	1315	1331	1359	1367	1362	1333	1334	1357	1424	1428	0	0	0	0	0	0	0	0	0	0	0	0	1611	1613	1606	1609	1622	1624	1615	1615	1622	1630	1639	1650	1648	1653	1649	1633	0	0	0	0	0	0	0	0	0	0	0	0	0	0	0	0	0	0	0	0	0	0	0	0	0	0	0	0	0	0	0	0	0	0	0	0	0	0	0	0	0	0	0	0	0	0	0	0	0	0	0	0	0	0	0	0	0	0	0	0	0	0	0	0	0	0	0	1426	1394	1376	1397	1413	1409	1381	1377	1382	1381	1377	1364	1360	1359	1369	1374	1367	1368	1384	1380	1370	1370	1376	1385	1378	1372	1376	1377	1380	1394	1381	1386	1370	1377	1379	1381	1384	1392	1389	1374	1369	1373	1379	1388	1385	1379	1386	1407	1429	1439	1458	1508	1581	1651	0	0	0	0	0	0	0	0	0	0	0	0	0	0	0	0	0	0	0	0	0	0	0	0	0	0	0	0	0	0	0	0	0	0	0	0	0	0	0	0	0	0	0	0	0	0	0	0	0	0	0	0	0	0	0	0	0	0	0	0	0	0	0	1725	1725	0	0	0	0	0	0	0	0	0	0	0	0	0	0	0	0	0	0	0	0	0	1481	1463	1455	1479	1490	1492	1484	1469	1450	1443	1464	1471	1468	1464	1472	1474	1469	1471	1473	1488	1502	1509	1505	1494	1487	1481	1487	1490	1499	1501	1498	1490	1484	1485	1481	1481	1484	1492	1502	1512	1512	1515	1523	1538	1612	0	0	0	0	0	0	0	0	0	0	0	0	0	0	0	0	0	0	1575	1582	1572	1563	1556	1543	1526	1517	1523	1531	1534	1526	1532	1534	1532	1519	1520	1525	1535	1533	1529	1530	1561	1571	1572	1567	1556	1552	1548	1558	1553	1548	1548	1542	1517	1513	1547	1548	1543	1555	1550	1565	1551	1549	1575	1577	1563	1543	1534	1545	1568	1576	1574	1569	1564	1551	1551	1545	1551	1559	1563	1569	1567	1551	1540	1532	1537	1545	1552	1546	1551	1558	1582	1581	1572	0	0	0	0	0	0	0	0	0	0	0	0	0	0	0	0	0	0	0	0	0	0	0	0	0	0	0	0	0	0	0	0	0	0	0	0	0	0	0	0	0	0	0	0	0	0	0	0	0	0	0	0	0	0	0	0	0	0	0	1638	1628	1607	1595	1583	1592	1603	1605	1603	1585	1574	1546	1543	1551	1567	1577	1576	1575	1580	1578	1589	1588	1569	1554	1551	1559	1571	1580	1599	1603	1606	1598	1591	1575	1552	1529	1527	1541	1546	1559	1566	1567	1571	1569	1577	1596	1596	1603	0	0	0	0	1594	1585	1566	0	0	0	0	0	0	0	0	0	0	0	0	0	0	0	0	0	0	0	0	0
0	0	0	1262	1271	1278	1284	1285	1285	1295	1310	1306	1306	1311	1312	1312	1303	1296	1312	1329	1344	1351	1351	1358	1352	1342	0	0	0	0	0	0	0	1508	1517	1519	1513	1510	1511	1522	1522	1532	1531	1532	1531	1538	1532	1522	1507	1510	1513	1527	1517	1517	1517	1514	1521	1521	1520	1523	1531	1539	1549	1557	1557	1555	1550	1557	1535	1532	1523	1542	1507	1467	1467	1451	1404	1339	1335	1328	1325	1313	1310	1316	1326	1326	1324	1323	1324	1332	1340	1335	1327	1320	1318	1319	1324	1327	1325	1332	1344	1349	1351	1346	1339	1339	1338	1328	1319	1322	1325	1330	1329	1322	1324	1331	1333	1316	1313	1315	1318	1322	1322	1345	1364	1365	1362	1340	1327	1348	1406	1409	0	0	0	0	0	0	0	0	0	0	0	0	0	1639	1613	1603	1606	1619	1617	1624	1640	1667	1662	1661	1653	1648	1640	1635	0	0	0	0	0	0	0	0	0	0	0	0	0	0	0	0	0	0	0	0	0	0	0	0	0	0	0	0	0	0	0	0	0	0	0	0	0	0	0	0	0	0	0	0	0	0	0	0	0	0	0	0	0	0	0	0	0	0	0	0	0	0	0	0	0	0	0	1430	1410	1380	1392	1401	1398	1381	1382	1380	1381	1377	1365	1359	1360	1369	1374	1372	1375	1378	1378	1372	1374	1382	1383	1377	1343	1356	1366	1381	1398	1400	1374	1372	1375	1385	1382	1388	1384	1382	1374	1384	1388	1387	1386	1383	1376	1382	1400	1422	1432	1444	1458	1602	1659	0	0	0	0	0	0	0	0	0	0	0	0	0	0	0	0	0	0	0	0	0	0	0	0	0	0	0	0	0	0	0	0	0	0	0	0	0	0	0	0	0	0	0	0	0	0	0	0	0	0	0	0	0	0	0	0	0	0	0	0	0	0	0	0	0	0	0	0	0	0	0	0	0	0	0	0	0	0	0	0	0	0	0	0	0	0	1468	1451	1442	1466	1487	1488	1485	1475	1463	1458	1469	1478	1480	1481	1484	1492	1492	1487	1488	1489	1498	1504	1507	1492	1479	1476	1479	1484	1494	1497	1500	1494	1492	1487	1488	1486	1493	1502	1515	1522	1523	1543	1541	1545	0	0	0	0	0	0	0	0	0	0	0	0	0	0	0	0	0	0	1542	1561	1567	1572	1564	1553	1535	1513	1515	1524	1525	1523	1520	1527	1546	1552	1530	1524	1514	1516	1517	1528	1539	1573	1577	1573	1562	1559	1554	1544	1539	1543	1542	1551	1552	1524	1519	1554	1559	1553	1544	1558	1564	1563	1564	1576	1574	1564	1551	1543	1553	1560	1574	1576	1576	1578	1570	1560	1551	1548	1555	1559	1570	1571	1563	1542	1532	1537	1544	1544	1537	1525	1542	1573	1579	1570	0	0	0	0	0	0	0	0	0	0	0	0	0	0	0	0	0	0	0	0	0	0	0	0	0	0	0	0	0	0	0	0	0	0	0	0	0	0	0	0	0	0	0	0	0	0	0	0	0	0	0	0	0	0	0	0	0	0	0	1617	1608	1588	1575	1574	1583	1594	1588	1585	1576	1567	1548	1544	1555	1562	1572	1571	1570	1575	1584	1588	1584	1571	1563	1555	1555	1563	1573	1584	1604	1611	1603	1589	1578	1569	1553	1541	1541	1546	1559	1564	1576	1573	1557	1549	1556	1556	1578	1602	1812	0	0	1809	1591	1576	0	0	0	0	0	0	0	0	0	0	0	0	0	0	0	0	0	0	0	0	0
0	0	1274	1274	1277	1289	1293	1296	1303	1303	1305	1299	1292	1302	1315	1315	1320	1320	1329	1343	1353	1356	1356	1348	1346	1329	0	0	0	0	0	0	0	1538	1755	1527	1516	1511	1511	1530	1530	1535	1527	1521	1525	1529	1525	1511	1507	1512	1517	1532	1539	1539	1539	1534	1533	1522	1517	1516	1511	1523	1533	1545	1553	1550	1534	1546	1543	1534	1544	1550	1517	1472	1472	1445	1390	1327	1327	1332	1324	1315	1304	1318	1323	1328	1323	1324	1328	1337	1341	1339	1328	1322	1318	1316	1320	1322	1326	1332	1339	1349	1354	1348	1340	1341	1341	1327	1318	1324	1333	1340	1342	1335	1331	1331	1332	1319	1312	1318	1320	1327	1327	1340	1354	1361	1360	1348	1325	1342	1378	1399	0	0	0	0	0	0	0	0	0	0	0	0	0	0	0	1597	1594	0	0	0	0	0	1677	1669	1660	1653	1633	0	0	0	0	0	0	0	0	0	0	0	0	0	0	0	0	0	0	0	0	0	0	0	0	0	0	0	0	0	0	0	0	0	0	0	0	0	0	0	0	0	0	0	0	0	0	0	0	0	0	0	0	0	0	0	0	0	0	0	0	0	0	0	0	0	0	0	0	1431	1411	1386	1383	1389	1396	1394	1393	1386	1383	1378	1375	1368	1372	1373	1375	1372	1377	1379	1379	1376	1379	1382	1381	1383	1376	1373	1370	1379	1393	1383	1377	1378	1387	1393	1392	1385	1384	1385	1386	1389	1397	1399	1390	1386	1377	1383	1398	1405	1418	1434	1440	1588	1647	1682	1707	0	0	0	0	0	0	0	0	0	0	0	0	0	0	0	0	0	0	0	0	0	0	0	0	0	1742	1764	1788	0	0	0	0	0	0	0	0	0	0	0	0	0	0	0	0	0	0	0	0	0	0	0	0	0	0	0	0	0	0	0	0	0	0	0	0	0	0	0	0	0	0	0	0	0	0	0	0	0	0	0	0	0	0	0	0	1452	1429	1430	1462	1480	1488	1486	1481	1474	1467	1470	1478	1485	1499	1507	1513	1513	1501	1500	1492	1494	1502	1497	1487	1481	1469	1474	1480	1486	1488	1488	1490	1501	1504	1499	1503	1503	1507	1514	1518	1524	1541	1547	1547	1557	0	0	0	0	0	0	0	0	0	0	0	0	0	0	0	0	0	1514	1537	1543	1555	1553	1536	1518	1511	1512	1524	1525	1524	1523	1530	1546	1547	1541	1529	1522	1521	1537	1546	1556	1574	1574	1567	1560	1548	1542	1540	1532	1522	1526	1539	1543	1543	1553	1569	1566	1556	1547	1540	1542	1553	1558	1572	1570	1568	1563	1558	1551	1546	1564	1570	1579	1586	1583	1569	1552	1544	1549	1565	1576	1579	1566	1545	1530	1533	1539	1539	1515	1513	1515	1552	1574	1558	0	0	0	0	0	0	0	0	0	0	0	0	0	0	0	0	0	0	0	0	0	0	0	0	0	0	0	0	0	0	0	0	0	0	0	0	0	0	0	0	0	0	0	0	0	0	0	0	0	0	0	0	0	0	0	0	0	0	0	1605	1597	1586	1575	1574	1582	1583	1585	1574	1574	1557	1546	1536	1548	1559	1574	1571	1580	1583	1585	1593	1586	1575	1561	1553	1549	1558	1568	1565	1578	1585	1585	1576	1574	1569	1568	1557	1555	1553	1552	1570	1577	1575	1552	1529	1528	1528	1540	1561	1581	1579	1579	1583	1588	0	0	0	0	0	0	0	0	0	0	0	0	0	0	0	0	0	0	0	0	0	0
0	0	1277	1277	1284	1297	1306	1308	1308	1312	1303	1298	1293	1294	1317	1317	1336	1331	1333	1343	1342	1350	1350	1342	1331	1311	0	0	0	0	0	0	0	0	1729	1524	1502	1496	1502	1521	1521	1531	1540	1523	1518	1509	1513	1513	1508	1510	1515	1536	1552	1552	1566	1559	1548	1542	1537	1518	1502	1504	1520	1538	1552	1536	1517	1511	1538	1549	1549	1551	1528	1476	1443	1443	1385	1332	1330	1331	1329	1321	1319	1321	1323	1324	1323	1326	1333	1346	1350	1343	1328	1321	1319	1325	1322	1322	1321	1326	1330	1329	1327	1325	1333	1337	1336	1332	1334	1341	1352	1358	1354	1348	1333	1340	1350	1342	1331	1334	1340	1350	1347	1339	1345	1354	1367	1364	1351	1366	1390	1395	0	0	0	0	0	0	0	0	0	0	0	0	0	0	0	0	0	0	0	0	0	0	0	0	0	0	0	0	0	0	0	0	0	0	0	0	0	0	0	0	0	0	0	0	0	0	0	0	0	0	0	0	0	0	0	0	0	0	0	0	0	0	0	0	0	0	0	0	0	0	0	0	0	0	0	0	0	0	0	0	0	0	0	0	0	0	0	0	0	0	0	0	0	0	0	1446	1425	1385	1384	1387	1394	1404	1402	1395	1384	1383	1381	1379	1379	1376	1376	1368	1372	1375	1373	1377	1382	1383	1384	1388	1388	1382	1383	1388	1384	1384	1379	1373	1385	1388	1385	1381	1383	1391	1378	1391	1403	1404	1398	1390	1378	1385	1398	1401	1409	1430	1440	1584	1648	1674	1691	1709	0	0	0	0	0	1754	1753	1754	1767	1779	1792	1794	1803	0	0	0	0	1746	1759	1760	1761	0	0	0	0	0	0	0	0	0	0	0	0	0	0	0	0	0	0	0	0	0	0	0	0	0	0	0	0	0	0	0	0	0	0	0	0	0	0	0	0	0	0	0	0	0	0	0	0	0	0	0	0	0	0	0	0	0	0	0	0	0	0	1459	1427	1431	1456	1471	1482	1488	1480	1486	1480	1475	1488	1492	1504	1505	1516	1515	1505	1507	1505	1496	1489	1480	1477	1480	1487	1487	1483	1479	1476	1476	1488	1505	1512	1521	1517	1507	1498	1499	1506	1512	1520	1539	1545	1580	0	0	0	0	0	0	0	0	0	0	0	0	0	0	0	0	0	0	1525	1530	1543	1548	1528	1514	1511	1516	1525	1533	1530	1520	1534	1542	1548	1544	1539	1543	1553	1563	1572	1568	1562	1561	1553	1545	1549	1546	1543	1539	1532	1525	1532	1535	1553	1581	1580	1572	1558	1536	1532	1530	1533	1541	1559	1562	1574	1576	1569	1554	1549	1552	1563	1572	1576	1572	1567	1554	1551	1562	1561	1569	1565	1557	1545	1529	1528	1531	1533	1510	1498	1505	1535	1558	1550	0	0	0	0	0	0	0	0	0	0	0	0	0	0	0	0	0	0	0	0	0	0	0	0	0	0	0	0	0	0	0	0	0	0	0	0	0	0	0	0	0	0	0	0	0	0	0	0	0	0	0	0	0	0	0	0	0	0	0	1594	1595	1594	1584	1581	1582	1584	1586	1583	1571	1554	1533	1531	1543	1558	1568	1574	1589	1591	1590	1586	1580	1566	1555	1544	1544	1555	1561	1553	1553	1561	1565	1560	1561	1562	1568	1571	1563	1553	1548	1563	1576	1569	1553	1539	1529	1529	1536	1557	1558	1552	1552	1557	1579	0	0	0	0	0	0	0	0	0	0	0	0	0	0	0	0	0	0	0	0	0	0
0	0	1279	1279	1290	1305	1310	1311	1312	1314	1299	1294	1291	1305	1329	1329	1346	1338	1341	1334	1340	1344	1351	1351	1330	1318	0	0	0	0	0	0	0	0	0	1490	1482	1476	1487	1512	1536	1536	1745	1544	1511	1498	1492	1501	1515	1514	1517	1527	1542	1542	1554	1566	1558	1545	1534	1520	1509	1505	1509	1514	1525	1523	1504	1496	1507	1532	1545	1550	1534	1495	1452	1452	1392	1337	1329	1336	1333	1328	1322	1317	1321	1318	1321	1323	1337	1350	1347	1338	1327	1325	1322	1319	1318	1315	1320	1324	1324	1319	1318	1317	1330	1336	1328	1327	1333	1340	1348	1349	1345	1324	1328	1335	1343	1343	1339	1347	1357	1360	1352	1346	1340	1350	1363	1366	1352	1361	1379	1383	0	0	0	0	0	0	0	0	0	0	0	0	0	0	0	0	0	0	0	0	0	0	0	0	0	0	0	0	0	0	0	0	0	0	0	0	0	0	0	0	0	0	0	0	0	0	0	0	0	0	0	0	0	0	0	0	0	0	0	0	0	0	0	0	0	0	0	0	0	0	0	0	0	0	0	0	0	0	0	0	0	0	0	0	0	0	0	0	0	0	0	0	0	0	0	1472	1450	1404	1394	1391	1394	1396	1398	1399	1388	1376	1385	1382	1382	1378	1373	1360	1367	1369	1369	1374	1378	1381	1385	1388	1392	1389	1385	1396	1398	1395	1384	1373	1383	1384	1380	1379	1383	1393	1394	1397	1400	1404	1402	1395	1391	1388	1391	1392	1412	1440	1449	1457	1638	1673	1689	1705	1742	1763	0	1787	1767	1758	1760	1753	1766	1779	1803	1814	1828	0	0	0	0	1755	1746	1756	0	0	0	0	0	0	0	0	0	0	0	0	0	0	0	0	0	0	0	0	0	0	0	0	0	0	0	0	0	0	0	0	0	0	0	0	0	0	0	0	0	0	0	0	0	0	0	0	0	0	0	0	0	0	0	0	0	0	0	0	0	0	0	1481	1449	1444	1456	1466	1475	1486	1490	1494	1485	1487	1493	1492	1489	1490	1495	1495	1499	1506	1504	1497	1481	1477	1477	1484	1492	1482	1481	1476	1475	1476	1488	1505	1527	1536	1521	1506	1488	1489	1494	1505	1500	1500	1544	1607	0	0	0	0	0	0	0	0	0	0	0	0	0	0	0	0	0	0	0	1531	1540	1550	1532	1520	1511	1514	1521	1533	1530	1532	1538	1549	1560	1561	1554	1559	1570	1580	1579	1569	1559	1551	1551	1543	1547	1558	1555	1556	1553	1549	1547	1552	1570	1607	1622	1573	1548	1536	1517	1509	1513	1524	1541	1554	1577	1581	1571	1555	1546	1550	1556	1562	1558	1561	1555	1555	1563	1569	1549	1536	1542	1539	1539	1537	1534	1525	1537	1526	1507	1509	1525	1547	1550	0	0	0	0	0	0	0	0	0	0	0	0	0	0	0	0	0	0	0	0	0	0	0	0	0	0	0	0	0	0	0	0	0	0	0	0	0	0	0	0	0	0	0	0	0	0	0	0	0	0	0	0	0	0	0	0	0	0	0	1582	1574	1574	1562	1560	1553	1566	1566	1563	1571	1560	1555	1543	1544	1552	1567	1577	1589	1598	1586	1577	1564	1555	1542	1528	1538	1549	1553	1552	1552	1552	1554	1552	1551	1554	1558	1571	1569	1559	1557	1562	1569	1569	1560	1543	1543	1533	1539	1553	1555	1549	1552	1549	1550	1540	0	0	0	0	0	0	0	0	0	0	0	0	0	0	0	0	0	0	0	0	0
0	0	1282	1282	1294	1308	1316	1316	1314	1315	1298	1288	1286	1308	1333	1333	1341	1340	1329	1327	1342	1356	1364	1364	1348	1329	0	0	0	0	0	0	0	0	0	1457	1456	0	0	0	0	0	0	0	1523	1488	1489	1509	1526	1512	1506	1505	1522	1522	1545	1563	1561	1546	1532	1524	1518	1514	1517	1518	1509	1502	1492	1487	1493	1520	1541	1560	1529	1491	1449	1449	1385	1341	1327	1331	1333	1323	1318	1315	1309	1314	1316	1319	1328	1343	1343	1332	1323	1322	1317	1315	1312	1318	1319	1324	1320	1315	1303	1309	1322	1323	1327	1326	1334	1337	1338	1334	1326	1317	1319	1324	1330	1331	1339	1355	1361	1364	1355	1345	1341	1349	1353	1356	1345	1344	1364	1368	0	0	0	0	0	0	0	0	0	0	0	0	0	0	0	0	0	0	0	0	0	0	0	0	0	0	0	0	0	0	0	0	0	0	0	0	0	0	0	0	0	0	0	0	0	0	0	0	0	0	0	0	0	0	0	0	0	0	0	0	0	0	0	0	0	0	0	0	0	0	0	0	0	0	0	0	0	0	0	0	0	1736	0	0	0	0	0	0	0	0	0	0	0	0	0	1467	1454	1417	1397	1396	1395	1390	1394	1396	1385	1376	1379	1381	1378	1377	1374	1365	1360	1363	1364	1369	1371	1375	1384	1390	1395	1391	1387	1386	1394	1399	1393	1393	1385	1391	1387	1374	1394	1402	1401	1396	1403	1402	1404	1393	1399	1395	1394	1400	1417	1452	1467	1473	1632	1668	1693	1732	1764	1779	1789	1792	1781	1769	1764	0	0	0	0	1826	1828	0	0	0	0	0	0	0	0	0	0	0	0	0	0	0	0	0	0	0	0	0	0	0	0	0	0	0	0	0	0	0	0	0	0	0	0	0	0	0	0	0	0	0	0	0	0	0	0	0	0	0	0	0	0	0	0	0	0	0	0	0	0	0	0	0	0	0	0	0	0	1498	1473	1460	1453	1453	1467	1474	1486	1484	1486	1492	1493	1488	1475	1479	1473	1472	1475	1484	1490	1489	1477	1472	1479	1493	1490	1480	1475	1471	1480	1487	1497	1515	1524	1528	1519	1501	1484	1482	1487	1495	1491	1481	1537	1628	0	0	0	0	0	0	0	0	0	0	0	0	0	0	0	0	0	0	0	1537	1543	1541	1536	1528	1512	1500	1514	1524	1533	1534	1544	1555	1566	1571	1566	1562	1571	1570	1579	1559	1548	1540	1545	1548	1562	1570	1577	1578	1573	1565	1550	1559	1577	1601	1597	1559	1546	1526	1506	1508	1501	1513	1536	1547	1555	1572	1568	1556	1548	1543	1553	1555	1542	1545	1548	1561	1568	1565	1541	1521	1520	1535	1538	1544	1538	1531	1546	1536	1523	1510	1513	1532	1552	0	0	0	0	0	0	0	0	0	0	0	0	0	0	0	0	0	0	0	0	0	0	0	0	0	0	0	0	0	0	0	0	0	0	0	0	0	0	0	0	0	0	0	0	0	0	0	0	0	0	0	0	0	0	0	0	0	0	0	0	1579	1569	1558	1550	1535	1537	1549	1555	1564	1562	1563	1563	1576	1584	1588	1588	1583	1596	1572	1568	1554	1541	1524	1517	1537	1549	1548	1559	1556	1555	1553	1550	1538	1535	1539	1553	1568	1567	1565	1568	1574	1565	1559	1548	1548	1535	1546	1553	1556	1564	1555	1541	1533	1526	0	0	0	0	0	0	0	0	0	0	0	0	0	0	0	0	0	0	0	0	0
0	0	1282	1282	1293	1307	1311	1321	1307	1307	1288	1277	1284	1300	1317	1327	1327	1333	1321	1326	1349	1367	1369	1369	1361	1345	0	0	0	0	0	0	0	0	0	0	0	0	0	0	0	0	0	0	0	1506	1513	1520	1530	1510	1496	1483	1496	1515	1515	1531	0	0	0	0	1521	1525	1526	1518	1510	1509	1494	1490	1499	1526	1554	1556	1516	1470	1424	1377	1377	1335	1322	1325	1322	1314	1307	1304	1308	1308	1312	1320	1330	1340	1339	1335	1330	1324	1316	1313	1317	1318	1321	1325	1324	1309	1303	1299	1310	1324	1325	1331	1342	1344	1338	1332	1327	1320	1311	1309	1315	1322	1331	1349	1358	1359	1350	1338	1337	1350	1354	1354	1337	1334	1346	1354	0	0	0	0	0	0	0	0	0	0	0	0	0	0	0	0	0	0	0	0	0	0	0	0	0	0	0	0	0	0	0	0	0	0	0	0	0	0	0	0	0	0	0	0	0	0	0	0	0	0	0	0	0	0	0	0	0	0	0	0	0	0	0	0	0	0	0	0	0	0	0	0	0	0	0	0	0	0	0	0	0	0	0	0	0	0	0	0	0	0	0	0	0	0	0	1457	1447	1431	1405	1400	1396	1389	1395	1396	1385	1371	1374	1378	1377	1377	1373	1362	1358	1361	1360	1365	1363	1374	1386	1392	1398	1398	1392	1394	1405	1398	1396	1395	1393	1386	1385	1374	1391	1402	1409	1411	1411	1403	1400	1396	1395	1398	1402	1413	1430	1455	1464	1473	1639	1682	1714	1757	1786	1787	1790	1790	1790	1787	0	0	0	0	0	0	0	0	0	0	0	0	0	0	0	0	0	0	0	0	0	0	0	0	0	0	0	0	0	0	0	0	0	0	0	0	0	0	0	0	0	0	0	0	0	0	0	0	0	0	0	0	0	0	0	0	0	0	0	0	0	0	0	0	0	0	0	0	0	0	0	0	0	0	0	0	0	1503	1483	1470	1449	1453	1459	1471	1471	1468	1473	1489	1495	1488	1481	1476	1466	1454	1454	1469	1483	1481	1474	1472	1480	1489	1492	1483	1474	1479	1481	1494	1508	1515	1524	1520	1515	1503	1490	1479	1480	1486	1487	1485	1524	1613	0	0	0	0	0	0	0	0	0	0	0	0	0	0	0	0	0	0	0	1527	1527	1522	1540	1530	1520	1497	1505	1526	1534	1536	1539	1549	1551	1556	1559	1558	1563	1567	1565	1549	1536	1531	1534	1552	1568	1577	1584	1584	1581	1570	1556	1555	1555	1573	1556	1546	1557	1552	1524	1511	1513	1519	1534	1550	1564	1567	1567	1560	1549	1553	1555	1559	1540	1536	1544	1554	1562	1563	1544	1528	1529	1533	1541	1549	1543	1544	1546	1541	1523	1510	1510	1531	1559	0	0	0	0	0	0	0	0	0	0	0	0	0	0	0	0	0	0	0	0	0	0	0	0	0	0	0	0	0	0	0	0	0	0	0	0	0	0	0	0	0	0	0	0	0	0	0	0	0	0	0	0	0	0	0	0	0	0	0	0	0	0	1576	1556	1540	1534	1542	1549	1564	1563	1564	1573	1581	1592	1587	1580	1560	1555	1560	1553	1555	1540	1533	1527	1546	1569	1572	1571	1569	1566	1558	1553	1534	1523	1521	1536	1551	1567	1569	1582	1582	1574	1555	1544	1544	1534	1542	1551	1551	1549	1537	1534	1519	1510	0	0	0	0	0	0	0	0	0	0	0	0	0	0	0	0	0	0	0	0	0
0	0	1285	1285	1296	1307	1315	1315	1300	1300	1286	1284	1286	1295	1305	1313	1313	1317	1324	1329	1357	1366	1367	1367	1357	1349	0	0	0	0	0	0	0	0	0	0	0	0	0	0	0	0	0	0	0	0	0	0	0	0	0	0	1476	1476	1476	0	0	0	0	0	0	0	0	0	0	0	1493	1483	1488	1510	1529	1521	1491	1437	1401	1349	1349	1346	1332	1323	1318	1316	1309	1310	1311	1309	1314	1320	1333	1343	1342	1338	1337	1334	1329	1323	1323	1327	1333	1336	1334	1320	1306	1315	1323	1326	1331	1340	1345	1349	1339	1330	1325	1315	1305	1309	1314	1321	1329	1344	1351	1353	1345	1332	1337	1353	1363	1354	1334	1333	1349	1359	0	0	0	0	0	0	0	0	0	0	0	0	0	0	0	0	0	0	0	0	0	0	0	0	0	0	0	0	0	0	0	0	0	0	0	0	0	0	0	0	0	0	0	0	0	0	0	0	0	0	0	0	0	0	0	0	0	0	0	0	0	0	0	0	0	0	0	0	0	0	0	0	0	0	0	0	0	0	0	0	0	0	0	0	0	0	0	0	0	0	0	0	0	0	0	1436	1425	1414	1403	1399	1397	1394	1401	1392	1376	1372	1372	1374	1381	1381	1368	1375	1393	1401	1399	1381	1369	1377	1391	1399	1404	1403	1398	1402	1406	1412	1402	1389	1386	1385	1377	1389	1403	1416	1419	1421	1419	1413	1400	1396	1400	1401	1412	1420	1429	1445	1454	1467	1576	1714	0	0	0	1789	1779	1770	1771	0	0	0	0	0	0	0	0	0	0	0	0	0	0	0	0	0	0	0	0	0	0	0	0	0	0	0	0	0	0	0	0	0	0	0	0	0	0	0	0	0	0	0	0	0	0	0	0	0	0	0	0	0	0	0	0	0	0	0	0	0	0	0	0	0	0	0	0	0	0	0	0	0	0	0	0	0	0	1514	1488	1480	1458	1453	1465	1469	1458	1455	1456	1472	1485	1484	1486	1482	1471	1449	1444	1450	1472	1482	1480	1476	1481	1490	1488	1482	1464	1471	1481	1495	1511	1518	1524	1520	1511	1498	1492	1490	1495	1506	1506	1520	1527	1589	0	0	0	0	0	0	0	0	0	0	0	0	0	0	0	0	0	0	0	0	1506	1508	1537	1529	1519	1507	1504	1525	1539	1542	1539	1530	1534	1530	1529	1535	1543	1548	1549	1538	1528	1514	1515	1537	1558	1568	1572	1579	1579	1587	1568	1549	1542	1544	1538	1545	1570	1568	1553	1524	1519	1522	1540	1565	1580	1576	1572	1564	1561	1558	1562	1557	1543	1536	1545	1558	1562	1564	1562	1556	1554	1548	1544	1547	1562	1566	1560	1539	1530	1511	1515	1532	0	0	0	0	0	0	0	0	0	0	0	0	0	0	0	0	0	0	0	0	0	0	0	0	0	0	0	0	0	0	0	0	0	0	0	0	0	0	0	0	0	0	0	0	0	0	0	0	0	0	0	0	0	0	0	0	0	0	0	0	0	0	0	0	1576	1565	1556	1551	1555	1576	1574	1581	1581	1600	1599	1586	1567	1549	1551	1559	1552	1557	1551	1550	1561	1572	1592	1583	1579	1575	1574	1564	1553	1535	1522	1514	1523	1537	1558	1579	1593	1587	1571	1552	1543	1543	1535	1542	1543	1533	1524	1522	1517	1512	1504	0	0	0	0	0	0	0	0	0	0	0	0	0	0	0	0	0	0	0	0	0
0	0	1284	1284	1294	1301	1309	1307	1297	1297	1292	1298	1298	1301	1301	1308	1308	1321	1323	1330	1348	1365	1370	1370	1360	1349	0	0	0	0	0	0	0	0	0	0	0	0	0	0	0	0	0	0	0	0	0	0	0	0	0	0	0	0	0	0	0	0	0	0	0	0	0	0	0	0	0	0	0	0	0	0	0	0	1366	1331	1331	1342	1331	1312	1313	1313	1316	1319	1316	1316	1318	1325	1333	1342	1341	1341	1343	1345	1345	1344	1339	1341	1343	1343	1341	1335	1329	1335	1338	1335	1333	1338	1342	1338	1331	1325	1319	1310	1308	1309	1314	1317	1323	1335	1348	1355	1347	1343	1343	1362	1368	1361	1343	1357	1373	0	0	0	0	0	0	0	0	0	0	0	0	0	0	0	0	0	0	0	0	0	0	0	0	0	0	0	0	0	0	0	0	0	0	0	0	0	0	0	0	0	0	0	0	0	0	0	0	0	0	0	0	0	0	0	0	0	0	0	0	0	0	0	0	0	0	0	0	0	0	0	0	0	0	0	0	0	0	0	0	0	0	0	0	0	0	0	0	0	0	0	0	0	0	0	0	1436	1409	1404	1396	1392	1396	1399	1400	1394	1374	1371	1370	1383	1386	1377	1372	1370	1379	1390	1388	1383	1380	1379	1398	1408	1408	1405	1397	1399	1401	1414	1409	1392	1379	1366	1373	1385	1395	1406	1418	1420	1423	1417	1410	1404	1396	1397	1418	1422	1431	1438	1445	1467	1613	0	0	0	0	0	1786	1770	1772	1781	0	0	0	0	0	0	0	0	0	0	0	0	0	0	0	0	0	0	0	0	0	0	0	0	0	0	0	0	0	0	0	0	0	0	0	0	0	0	0	0	0	0	0	0	0	0	0	0	0	0	0	0	0	0	0	0	0	0	0	0	0	0	0	0	0	0	0	0	0	0	0	0	0	0	0	0	0	1520	1488	1487	1475	1466	1468	1471	1451	1448	1445	1461	1465	1471	1491	1483	1467	1449	1444	1447	1468	1484	1476	1478	1479	1486	1487	1479	1461	1464	1478	1493	1510	1523	1524	1520	1505	1498	1490	1497	1515	1525	1533	1542	1533	1562	0	0	0	0	0	0	0	0	0	0	0	0	0	0	0	0	0	0	0	0	1500	1510	1537	1539	1526	1519	1522	1528	1542	1550	1535	1526	1518	1514	1510	1518	1526	1540	1534	1525	1515	1506	1511	1528	1542	1547	1549	1562	1577	1597	1572	1558	1546	1545	1550	1562	1584	1577	1560	1534	1519	1522	1542	1575	1582	1580	1576	1567	1561	1552	1555	1555	1544	1540	1555	1562	1561	1571	1568	1574	1571	1563	1550	1554	1564	1563	1560	1539	1531	1533	1529	1541	0	0	0	0	0	0	0	0	0	0	0	0	0	0	0	0	0	0	0	0	0	0	0	0	0	0	0	0	0	0	0	0	0	0	0	0	0	0	0	0	0	0	0	0	0	0	0	0	0	0	0	0	0	0	0	0	0	0	0	0	0	0	0	0	0	0	1585	1576	1580	1589	1592	1597	1598	1601	1592	1579	1561	1545	1552	1554	1556	1559	1561	1567	1566	1575	1574	1567	1553	1543	1542	1547	1547	1537	1530	1518	1521	1540	1561	1575	1579	1572	1563	1552	1542	1542	1546	1544	1527	1524	1515	1513	1511	1507	1504	0	0	0	0	0	0	0	0	0	0	0	0	0	0	0	0	0	0	0	0	0
0	0	1283	1283	1294	1307	1308	1301	1297	1297	1306	1308	1320	1314	1316	1320	1320	1340	1337	1336	1340	1356	1362	1362	1359	1350	1340	0	0	0	0	0	0	0	0	0	0	0	0	0	0	0	0	0	0	0	0	0	0	0	0	0	0	0	0	0	0	0	0	0	0	0	0	0	0	0	0	0	0	0	0	0	0	0	0	1327	1329	1329	1323	1302	1298	1309	1323	1323	1331	1324	1322	1320	1327	1337	1342	1341	1347	1354	1355	1361	1359	1354	1343	1338	1337	1338	1341	1343	1350	1336	1333	1334	1333	1331	1318	1310	1311	1309	1316	1315	1313	1313	1319	1331	1346	1359	1363	1353	1345	1357	1365	1360	1351	1379	1398	0	0	0	0	0	0	0	0	0	0	0	0	0	0	0	0	0	0	0	0	0	0	0	0	0	0	0	0	0	0	0	0	0	0	0	0	0	0	0	0	0	0	0	0	0	0	0	0	0	0	0	0	0	0	0	0	0	0	0	0	0	0	0	0	0	0	0	0	0	0	0	0	0	0	0	0	0	0	0	0	0	0	0	0	0	0	0	0	0	0	0	0	0	0	0	0	1448	1405	1392	1387	1388	1391	1393	1393	1384	1378	1370	1378	1390	1391	1378	1369	1370	1380	1382	1386	1392	1389	1398	1399	1403	1410	1403	1398	1401	1405	1404	1409	1397	1372	1351	1350	1367	1384	1394	1403	1407	1414	1421	1417	1412	1401	1399	1416	1424	1431	1431	1434	1457	1619	1679	0	0	0	0	1789	1780	1786	1777	0	0	0	0	0	0	0	0	0	0	0	0	0	0	0	0	0	0	0	0	0	0	0	0	0	0	0	0	0	0	0	0	0	0	0	0	0	0	0	0	0	0	0	0	0	0	0	0	0	0	0	0	0	0	0	0	0	0	0	0	0	0	0	0	0	0	0	0	0	0	0	0	0	0	0	0	0	1498	1481	1483	1487	1484	1474	1476	1458	1455	1449	1448	1453	1456	1473	1474	1458	1448	1447	1452	1469	1481	1480	1476	1483	1489	1489	1478	1464	1468	1474	1487	1502	1512	1517	1520	1509	1501	1495	1500	1515	1523	1513	1521	1505	1551	0	0	0	0	0	0	0	0	0	0	0	0	0	0	0	0	0	0	0	0	1517	1532	1547	1545	1535	1531	1531	1534	1550	1539	1532	1517	1512	1500	1501	1505	1519	1527	1518	1518	1518	1523	1525	1537	1541	1534	1537	1541	1567	1587	1584	1568	1560	1555	1570	1579	1587	1580	1559	1536	1526	1517	1539	1562	1568	1561	1560	1564	1559	1547	1547	1539	1540	1549	1559	1562	1567	1566	1568	1570	1577	1566	1553	1549	1553	1554	1543	1535	1536	1535	1549	1573	0	0	0	0	0	0	0	0	0	0	0	0	0	0	0	0	0	0	0	0	0	0	0	0	0	0	0	0	0	0	0	0	0	0	0	0	0	0	0	0	0	0	0	0	0	0	0	0	0	0	0	0	0	0	0	0	0	0	0	0	0	0	0	0	0	0	0	1576	1578	1587	1590	1593	1604	1593	1578	1565	1561	1557	1555	1556	1555	1554	1564	1564	1563	1561	1560	1543	1534	1522	1520	1531	1545	1552	1541	1532	1535	1551	1565	1563	1555	1553	1553	1557	1557	1566	1565	1553	1540	1536	1524	1523	1520	1515	1538	0	0	0	0	0	0	0	0	0	0	0	0	0	0	0	0	0	0	0	0	0
0	0	1292	1300	1300	1314	1311	1305	1300	1313	1313	1328	1330	1331	1320	1335	1335	1339	1342	1339	1345	1348	1354	1354	1357	1346	1337	0	0	0	0	0	0	0	0	0	0	0	0	0	0	0	0	0	0	0	0	0	0	0	0	0	0	0	0	0	0	0	0	0	0	0	0	0	0	0	0	0	0	0	0	0	0	0	0	1359	1324	1324	1318	1297	1294	1300	1315	1323	1327	1324	1321	1314	1319	1323	1333	1336	1341	1350	1356	1357	1356	1345	1329	1321	1329	1340	1342	1348	1355	1339	1330	1327	1332	1330	1318	1308	1308	1310	1316	1318	1313	1315	1317	1327	1341	1355	1361	1354	1347	1346	1354	1352	1355	1384	1408	0	0	0	0	0	0	0	0	0	0	0	0	0	0	0	0	0	0	0	0	0	0	0	0	0	0	0	0	0	0	0	0	0	0	0	0	0	0	0	0	0	0	0	0	0	0	0	0	0	0	0	0	0	0	0	0	0	0	0	0	0	0	0	0	0	0	0	0	0	0	0	0	0	0	0	0	0	0	0	0	0	0	0	0	0	0	0	0	0	0	0	0	0	0	0	0	1438	1413	1404	1392	1391	1394	1385	1385	1381	1376	1384	1388	1395	1395	1389	1372	1369	1372	1379	1377	1382	1410	1402	1394	1391	1393	1398	1405	1406	1404	1400	1397	1398	1389	1388	1373	1377	1388	1394	1400	1405	1411	1424	1424	1425	1414	1414	1416	1422	1434	1430	1422	1448	1606	1669	1737	0	0	0	1784	1784	1787	1799	1824	0	0	0	0	0	0	0	0	0	0	0	0	0	0	0	0	0	0	0	0	0	0	0	0	0	0	0	0	0	0	0	0	0	0	0	0	0	0	0	0	0	0	0	0	0	0	0	0	0	0	0	0	0	0	0	0	0	0	0	0	0	0	0	0	0	0	0	0	0	0	0	0	0	0	0	0	1468	1455	1474	1479	1486	1477	1472	1471	1466	1460	1458	1457	1460	1471	1460	1446	1448	1454	1459	1461	1474	1474	1477	1482	1488	1491	1486	1469	1471	1471	1480	1492	1494	1505	1516	1520	1508	1496	1493	1499	1483	1477	1478	1460	1519	0	0	0	0	0	0	0	0	0	0	0	0	0	0	0	0	0	0	0	0	1536	1563	1565	1559	1550	1540	1534	1540	1547	1537	1518	1510	1499	1489	1496	1508	1515	1521	1513	1516	1527	1543	1555	1558	1558	1555	1558	1550	1555	1567	1570	1562	1555	1565	1588	1596	1586	1579	1559	1538	1518	1522	1534	1546	1549	1541	1542	1548	1555	1543	1542	1535	1539	1554	1568	1569	1569	1564	1564	1576	1577	1571	1548	1531	1538	1544	1539	1537	1544	1549	1574	1593	0	0	0	0	0	0	0	0	0	0	0	0	0	0	0	0	0	0	0	0	0	0	0	0	0	0	0	0	0	0	0	0	0	0	0	0	0	0	0	0	0	0	0	0	0	0	0	0	0	0	0	0	0	0	0	0	0	0	0	0	0	0	0	0	0	0	1565	1556	1558	1567	1575	1588	1593	1585	1562	1555	1564	1567	1566	1558	1551	1550	1551	1545	1545	1547	1545	1535	1522	1511	1510	1527	1554	1569	1549	1544	1554	1563	1558	1552	1553	1550	1555	1564	1564	1571	1568	1559	1548	1544	1542	1540	1532	1531	0	0	0	0	0	0	0	0	0	0	0	0	0	0	0	0	0	0	0	0	0	0
0	0	1299	1300	1300	1306	1313	1302	1309	1325	1325	1338	1338	1329	1328	1332	1332	1341	1342	1338	1350	1353	1360	1357	1357	1358	0	0	0	0	0	0	0	0	0	0	0	0	0	0	0	0	0	0	0	0	0	0	0	0	0	0	0	0	0	0	0	0	0	0	0	0	0	0	0	0	0	0	0	0	0	0	0	0	0	1376	1332	1312	1312	1301	1299	1305	1311	1315	1325	1319	1318	1314	1318	1326	1329	1335	1338	1338	1343	1346	1344	1337	1320	1320	1324	1333	1343	1351	1352	1344	1339	1340	1335	1338	1329	1313	1311	1316	1316	1316	1314	1317	1317	1321	1329	1337	1346	1349	1343	1345	1345	1347	1354	1382	1408	0	0	0	0	0	0	0	0	0	0	0	0	0	0	0	0	0	0	0	0	0	0	0	0	0	0	0	0	0	0	0	0	0	0	0	0	0	0	0	0	0	0	0	0	0	0	0	0	0	0	0	0	0	0	0	0	0	0	0	0	0	0	0	0	0	0	0	0	0	0	0	0	0	0	0	0	0	0	0	0	0	0	0	0	0	0	1733	0	0	0	0	0	0	0	0	0	1429	1425	1408	1400	1391	1381	1384	1379	1377	1376	1387	1398	1402	1401	1394	1391	1387	1379	1384	1392	1398	1406	1395	1386	1383	1384	1395	1403	1408	1401	1385	1384	1389	1392	1392	1392	1389	1393	1393	1398	1407	1411	1418	1421	1431	1427	1415	1412	1421	1431	1432	1428	1450	1575	1654	1707	1739	1754	1763	1753	1767	1787	1811	1823	0	0	0	0	0	0	0	0	0	0	0	0	0	0	0	0	0	0	0	0	0	0	0	0	0	0	0	0	0	0	0	0	0	0	0	0	0	0	0	0	0	0	0	0	0	0	0	0	0	0	0	0	0	0	0	0	0	0	0	0	0	0	0	0	0	0	0	0	0	0	0	0	0	0	0	1456	1443	1450	1476	1472	1477	1465	1466	1466	1468	1468	1467	1468	1470	1464	1452	1445	1457	1462	1459	1457	1455	1456	1466	1477	1486	1491	1484	1474	1466	1463	1473	1478	1484	1497	1511	1524	1529	1515	1495	1484	1476	1474	1462	1451	1488	0	0	0	0	0	0	0	0	0	0	0	0	0	0	0	0	0	0	0	1551	1562	1575	1574	1565	1554	1538	1538	1538	1536	1530	1517	1510	1491	1487	1497	1509	1522	1521	1510	1517	1537	1557	1572	1573	1565	1563	1566	1551	1562	1545	1544	1546	1546	1560	1594	1601	1596	1577	1558	1533	1519	1524	1537	1541	1544	1532	1524	1540	1549	1548	1541	1531	1541	1559	1571	1573	1573	1576	1579	1590	1580	1559	1536	1527	1519	1527	1544	1548	1550	1555	1574	1593	1589	0	0	0	0	0	0	0	0	0	0	0	0	0	0	0	0	0	0	0	0	0	0	0	0	0	0	0	0	0	0	0	0	0	0	0	0	0	0	0	0	0	0	0	0	0	0	0	0	0	0	0	0	0	0	0	0	0	0	0	0	0	0	0	0	1550	1522	1534	1540	1547	1545	1566	1579	1584	1568	1559	1561	1569	1572	1563	1556	1549	1541	1541	1535	1538	1535	1523	1509	1509	1518	1538	1561	1575	1572	1553	1557	1572	1566	1556	1546	1545	1558	1565	1565	1569	1564	1550	1544	1545	1556	1552	1543	1549	0	0	0	0	0	0	0	0	0	0	0	0	0	0	0	0	0	0	0	0	0	0
0	0	1294	1295	1295	1297	1277	1288	1308	1335	1335	1347	1341	1335	1340	1339	1339	1339	1324	1336	1349	1360	1367	1354	1354	1355	0	0	0	0	0	0	0	0	0	0	0	0	0	0	0	0	0	0	0	0	0	0	0	0	0	0	0	0	0	0	0	0	0	0	0	0	0	0	0	0	0	0	0	0	0	0	0	0	0	1381	1338	1319	1319	1312	1310	1312	1317	1324	1324	1324	1317	1318	1324	1329	1335	1332	1326	1333	1330	1328	1327	1326	1321	1319	1324	1330	1334	1342	1339	1353	1353	1351	1342	1336	1331	1324	1321	1318	1318	1318	1317	1321	1321	1319	1317	1325	1334	1340	1340	1338	1339	1335	1339	1367	1403	0	0	0	0	0	0	0	0	0	0	0	0	0	0	0	0	0	0	0	0	0	0	0	0	0	0	0	0	0	0	0	0	0	0	0	0	0	0	0	0	0	0	0	0	0	0	0	0	0	0	0	0	0	0	0	0	0	0	0	0	0	0	0	0	0	0	0	0	0	0	0	0	0	0	0	0	0	0	0	0	0	0	0	0	0	0	0	0	0	0	0	0	0	0	0	0	1415	1429	1417	1399	1385	1382	1387	1385	1376	1377	1387	1403	1410	1407	1410	1411	1415	1426	1425	1404	1392	1392	1391	1384	1380	1385	1392	1401	1401	1393	1384	1376	1381	1393	1392	1397	1390	1395	1400	1408	1411	1409	1405	1409	1410	1410	1412	1411	1427	1434	1438	1440	1483	1579	1638	1670	1715	1720	1729	1731	1757	1779	1802	1812	1798	1794	1786	1789	1777	0	0	0	0	0	0	0	0	0	0	0	0	0	0	0	0	0	0	0	0	0	0	0	0	0	0	0	0	0	0	0	0	0	0	0	0	0	0	0	0	0	0	0	0	0	0	0	0	0	0	0	0	0	0	0	0	0	0	0	0	0	0	0	0	0	0	0	0	0	0	1456	1453	1462	1500	1480	1470	1464	1462	1471	1473	1474	1474	1471	1469	1456	1447	1455	1468	1475	1471	1463	1455	1451	1456	1469	1482	1486	1488	1482	1473	1476	1477	1479	1478	1490	1506	1524	1516	1507	1493	1483	1488	1491	1479	1462	1462	0	0	0	0	0	0	0	0	0	0	0	0	0	0	0	0	1577	1572	1565	1556	1554	1561	1561	1556	1553	1551	1542	1547	1547	1539	1528	1516	1501	1500	1507	1522	1532	1521	1520	1530	1545	1564	1576	1570	1562	1557	1558	1554	1557	1545	1548	1539	1539	1547	1583	1589	1585	1572	1544	1526	1523	1531	1534	1549	1548	1545	1542	1543	1554	1556	1548	1534	1545	1552	1565	1571	1575	1584	1580	1573	1557	1546	1535	1545	1558	1560	1558	1556	1560	1567	1588	1580	1564	0	0	0	0	0	0	0	0	0	0	0	0	0	0	0	0	0	0	0	0	0	0	0	0	0	0	0	1569	0	0	0	0	1595	1561	1540	0	0	1565	1567	1568	1578	0	0	0	0	0	0	0	1545	1538	1561	1575	0	0	1579	1575	1577	1577	1571	1589	1606	1626	1626	1571	1530	1521	1515	1527	1533	1539	1567	1587	1598	1576	1558	1564	1568	1574	1581	1587	1596	1603	1585	1564	1531	1511	1511	1519	1530	1523	1532	1552	0	1582	1585	1588	1605	1613	1604	1578	1549	1547	1550	1553	1554	1554	1540	1545	1554	1565	1553	1545	1544	0	0	0	0	0	0	0	0	0	0	0	0	0	0	0	0	0	0	0	0	0	0
0	0	1288	1286	1286	1281	1264	1282	1314	1333	1333	1341	1335	1338	1347	1345	1337	1337	1332	1334	1347	1360	1352	1352	1352	1358	0	0	0	0	0	0	0	0	0	0	0	0	0	0	0	0	0	0	0	0	0	0	0	0	0	0	0	0	0	0	0	0	0	0	0	0	0	0	0	0	0	0	0	0	0	0	0	0	0	1372	1370	1360	1338	1338	1312	1319	1329	1337	1338	1331	1325	1323	1330	1332	1336	1334	1326	1321	1323	1313	1320	1321	1323	1328	1328	1328	1330	1330	1339	1349	1358	1355	1344	1331	1322	1319	1324	1329	1326	1319	1317	1319	1319	1324	1323	1327	1333	1334	1332	1334	1331	1321	1330	1362	1396	0	0	0	0	0	0	0	0	0	0	0	0	0	0	0	0	0	0	0	0	0	0	0	0	0	0	0	0	0	0	0	0	0	0	0	0	0	0	0	0	0	0	0	0	0	0	0	0	0	0	0	0	0	0	0	0	0	0	0	0	0	0	0	0	0	0	0	0	0	0	0	0	0	0	0	0	0	0	0	0	0	0	0	0	0	0	0	0	0	0	0	0	0	0	0	0	0	1418	1410	1388	1379	1383	1390	1391	1382	1382	1392	1404	1412	1416	1422	1428	1449	1458	1443	1403	1389	1393	1401	1386	1383	1379	1385	1393	1397	1392	1377	1362	1362	1370	1377	1384	1387	1386	1395	1404	1402	1400	1394	1391	1400	1404	1406	1412	1425	1438	1448	1459	1499	1576	1639	1663	1707	1715	1726	1721	1735	1755	1763	1774	1765	1764	1764	1778	0	0	0	0	0	0	0	0	0	0	0	0	0	0	0	0	0	0	0	0	0	0	0	0	0	0	0	0	0	0	0	0	0	0	0	0	0	0	0	0	0	0	0	0	0	0	0	0	0	0	0	0	0	0	0	0	0	0	0	0	0	0	0	0	0	0	0	0	0	0	0	1483	1469	1483	1518	1477	1465	1461	1466	1475	1478	1479	1473	1474	1468	1457	1458	1464	1484	1493	1483	1475	1459	1464	1470	1468	1478	1485	1488	1489	1483	1495	1491	1485	1487	1496	1504	1507	1502	1495	1484	1490	1507	1510	1506	1482	1469	1476	1499	0	1533	1534	0	0	1536	1534	1530	0	0	1478	1435	1445	1549	1572	1576	1551	1523	1508	1522	1535	1539	1542	1550	1557	1559	1559	1555	1542	1531	1525	1523	1525	1534	1542	1539	1530	1537	1553	1566	1566	1559	1556	1551	1560	1558	1560	1555	1553	1542	1543	1570	1575	1581	1572	1558	1539	1534	1532	1542	1552	1550	1555	1563	1573	1579	1588	1576	1563	1548	1547	1548	1553	1554	1559	1564	1561	1554	1544	1531	1538	1549	1581	1592	1584	1584	1583	1587	1593	1580	1559	1553	1557	1584	1597	1590	1587	1591	1588	1595	1592	1591	1592	1598	1594	1590	1597	1605	1623	1621	1605	1589	1577	1574	1592	1614	1597	1591	1590	1583	1578	1560	1563	1559	1549	1539	1539	1546	1555	1565	1565	1571	1584	1580	1563	1558	1563	1564	1554	1547	1559	1580	1597	1595	1593	1584	1576	1578	1577	1582	1593	1619	1628	1617	1589	1547	1531	1528	1531	1547	1563	1591	1611	1609	1583	1557	1555	1567	1579	1573	1582	1600	1598	1593	1556	1529	1509	1508	1527	1536	1536	1532	1540	1561	1575	1587	1596	1614	1821	1822	1591	1562	1546	1546	1543	1547	1547	1540	1543	1554	1553	1544	1530	1533	1545	0	0	1570	1542	1542	1527	1533	0	0	0	0	0	0	0	0	0	0	0	0	0	0
0	0	1278	1271	1271	1270	1266	1285	1301	1313	1313	1333	1336	1347	1354	1345	1336	1336	1331	1334	1338	1347	1346	1338	1338	1342	0	0	0	0	0	0	0	0	0	0	0	0	0	0	0	0	0	0	0	0	0	0	0	0	0	0	0	0	0	0	0	0	0	0	0	0	0	0	0	0	0	0	0	0	0	0	0	0	0	1358	1377	1377	1352	1352	1320	1325	1337	1348	1346	1337	1329	1327	1335	1341	1339	1333	1323	1313	1312	1306	1312	1317	1323	1325	1330	1327	1322	1321	1330	1347	1359	1353	1341	1326	1318	1320	1327	1334	1332	1325	1312	1311	1318	1325	1331	1333	1338	1333	1332	1331	1331	1312	1321	1371	1396	0	0	0	0	0	0	0	0	0	0	0	0	0	0	0	0	0	0	0	0	0	0	0	0	0	0	0	0	0	0	0	0	0	0	0	0	0	0	0	0	0	0	0	0	0	0	0	0	0	0	0	0	0	0	0	0	0	0	0	0	0	0	0	0	0	0	0	0	0	0	0	0	0	0	0	0	0	0	0	0	0	0	0	0	0	0	0	0	0	0	0	0	0	0	0	0	0	1415	1398	1389	1381	1383	1390	1394	1387	1384	1389	1397	1396	1402	1407	1429	1433	1406	1373	1367	1375	1391	1410	1387	1369	1366	1371	1379	1375	1363	1352	1342	1331	1329	1322	1324	1346	1373	1366	1369	1365	1371	1373	1387	1396	1395	1394	1405	1421	1441	1473	1480	1503	1578	1632	1660	1688	1724	1715	1713	1713	1722	1734	1722	1725	1729	1742	1752	0	0	0	0	0	0	0	0	0	0	0	0	0	0	0	0	1702	0	0	0	0	0	0	0	0	0	0	0	0	0	0	0	0	0	0	0	0	0	0	0	0	0	0	0	0	0	0	0	0	0	0	0	0	0	0	0	0	0	0	0	0	0	0	0	0	0	0	0	0	0	1513	1479	1472	1494	1517	1489	1463	1463	1466	1470	1475	1476	1473	1461	1460	1461	1462	1474	1479	1493	1489	1493	1484	1477	1476	1478	1481	1489	1489	1492	1496	1506	1514	1506	1527	1520	1512	1506	1495	1472	1468	1478	1494	1505	1494	1454	1447	1446	1453	1452	1443	1433	1431	1433	1425	1410	1397	1381	1363	1356	1352	1361	1411	1422	1442	1442	1432	1427	1449	1499	1512	1524	1528	1551	1561	1555	1552	1540	1534	1535	1532	1535	1530	1538	1545	1544	1545	1560	1561	1557	1556	1556	1562	1553	1557	1556	1561	1567	1565	1562	1571	1580	1576	1564	1562	1561	1559	1559	1548	1543	1542	1543	1560	1582	1599	1604	1587	1566	1552	1570	1572	1555	1555	1559	1560	1564	1560	1530	1517	1532	1555	1582	1598	1618	1630	1628	1617	1604	1585	1568	1560	1575	1588	1599	1614	1609	1590	1576	1568	1577	1587	1589	1593	1588	1589	1593	1601	1611	1610	1609	1597	1593	1588	1597	1615	1612	1612	1602	1593	1584	1576	1564	1562	1551	1541	1540	1547	1541	1557	1571	1573	1575	1582	1573	1560	1572	1567	1565	1567	1583	1606	1613	1597	1586	1570	1568	1571	1579	1596	1610	1617	1626	1617	1599	1567	1548	1546	1545	1560	1584	1610	1621	1612	1587	1543	1551	1573	1578	1573	1582	1598	1599	1592	1552	1518	1511	1516	1535	1556	1560	1551	1541	1547	1556	1571	1588	1602	1610	1830	1610	1589	1564	1564	1548	1537	1531	1527	1533	1536	1544	1544	1533	1533	1543	1562	1569	1556	1546	1546	1527	1522	1553	0	1742	1553	1543	1560	1740	0	0	0	0	0	0	0
0	0	1259	1255	1255	1263	1276	1294	1308	1322	1322	1331	1343	1350	1355	1342	1330	1330	1323	1326	1329	1339	1337	1328	1328	1324	0	0	0	0	0	0	0	0	0	0	0	0	0	0	0	0	0	0	0	0	0	0	0	0	0	0	0	0	0	0	0	0	0	0	0	0	0	0	0	0	0	0	0	0	0	0	0	0	0	1339	1377	1376	1345	1320	1320	1319	1334	1344	1338	1338	1333	1336	1340	1341	1334	1335	1326	1317	1318	1316	1313	1316	1316	1322	1325	1323	1321	1315	1332	1345	1353	1348	1337	1330	1322	1322	1321	1326	1328	1329	1315	1318	1317	1324	1332	1338	1337	1331	1332	1336	1332	1314	1321	1377	1395	1387	0	0	0	0	0	0	0	0	0	0	0	0	0	0	0	0	0	0	0	0	0	0	0	0	0	0	0	0	0	0	0	0	0	0	0	0	0	0	0	0	0	0	0	0	0	0	0	0	0	0	0	0	0	0	0	0	0	0	0	0	0	0	0	0	0	0	0	0	0	0	0	0	0	0	0	0	0	0	0	0	0	0	0	0	0	0	0	0	0	0	0	0	0	0	0	0	1417	1400	1394	1386	1382	1386	1386	1381	1376	1376	1372	1362	1356	1355	1373	1386	1360	1317	1320	1322	1329	1306	1286	1289	1299	1318	1324	1338	1338	1326	1320	1293	1285	1277	1267	1248	1250	1254	1268	1284	1294	1312	1321	1339	1364	1377	1396	1413	1428	1428	1431	1497	1587	1618	1643	1674	1714	1702	1691	1683	1685	1681	1672	1681	1704	1719	0	0	0	0	1700	1701	1712	0	0	0	0	1689	1669	1675	0	1671	1662	1657	1653	1670	0	0	0	0	0	0	0	0	0	0	0	0	0	0	0	0	0	0	0	0	0	0	1649	1625	0	0	0	0	0	0	0	0	0	0	0	1669	1689	1656	1635	1648	1693	1667	1611	1578	1542	1536	1536	1545	1558	1545	1521	1495	1472	1477	1483	1498	1489	1471	1457	1460	1459	1463	1463	1464	1463	1467	1459	1464	1474	1482	1492	1510	1513	1498	1481	1475	1469	1475	1489	1489	1497	1501	1508	1508	1523	1529	1533	1533	1523	1502	1462	1437	1422	1397	1388	1376	1389	1383	1378	1374	1363	1353	1339	1347	1350	1338	1337	1328	1315	1303	1304	1301	1309	1321	1326	1330	1339	1339	1337	1344	1359	1421	1415	1391	1408	1471	1491	1514	1526	1528	1529	1527	1523	1518	1524	1558	1558	1561	1556	1554	1556	1558	1563	1559	1555	1556	1547	1556	1570	1578	1570	1566	1568	1567	1561	1562	1563	1568	1566	1551	1542	1539	1542	1550	1573	1593	1598	1585	1562	1554	1566	1575	1559	1573	1580	1577	1575	1569	1542	1528	1529	1548	1566	1582	1615	1637	1637	1621	1605	1588	1577	1568	1574	1587	1604	1627	1609	1587	1563	1557	1566	1578	1583	1593	1593	1589	1588	1588	1598	1604	1601	1607	1606	1605	1612	1622	1624	1623	1623	1610	1593	1584	1573	1562	1551	1549	1550	1541	1555	1564	1579	1589	1582	1572	1573	1567	1581	1579	1586	1587	1593	1607	1598	1582	1569	1563	1562	1565	1574	1601	1621	1623	1620	1613	1598	1585	1570	1568	1575	1590	1606	1614	1611	1583	1549	1544	1553	1568	1575	1565	1574	1598	1604	1578	1542	1525	1524	1537	1560	1579	1593	1578	1562	1547	1544	1550	1564	1579	1592	1610	1843	1607	1590	1590	1565	1545	1534	1533	1530	1537	1545	1540	1547	1554	1562	1571	1558	1549	1531	1531	1531	1544	1558	1567	1560	1541	1533	1543	1553	0	0	0	0	0	0	0
0	0	1247	1251	1251	1263	1297	1305	1313	1317	1317	1333	1336	1345	1345	1339	1321	1321	1316	1320	1331	1332	1333	1329	1329	0	0	0	0	0	0	0	0	0	0	0	0	0	0	0	0	0	0	0	0	0	0	0	0	0	0	0	0	0	0	0	0	0	0	0	0	0	0	0	0	0	0	0	0	0	0	0	0	0	0	1335	1362	1352	1329	1312	1312	1319	1327	1331	1330	1331	1333	1334	1336	1335	1326	1332	1325	1330	1330	1328	1320	1311	1306	1311	1321	1323	1324	1323	1334	1342	1348	1341	1328	1320	1314	1310	1311	1318	1323	1323	1313	1312	1314	1320	1331	1338	1338	1338	1334	1340	1339	1324	1332	1373	1388	1378	0	0	0	0	0	0	0	0	0	0	0	0	0	0	0	0	0	0	0	0	0	0	0	0	0	0	0	0	0	0	0	0	0	0	0	0	0	0	0	0	0	0	0	0	0	0	0	0	0	0	0	0	0	0	0	0	0	0	0	0	0	0	0	0	0	0	0	0	0	0	0	0	0	0	0	0	0	0	0	0	0	0	0	0	0	0	0	0	0	0	0	0	0	0	0	0	1406	1397	1389	1388	1385	1376	1371	1358	1345	1335	1336	1311	1278	1264	1268	1278	1293	1290	1290	1301	1301	1283	1232	1233	1261	1285	1293	1302	1313	1299	1291	1267	1263	1252	1241	1237	1230	1207	1201	1203	1203	1215	1225	1239	1273	1313	1345	1386	1393	1391	1398	1437	1502	1597	1622	1639	1660	1670	1651	1644	1639	1637	1640	1653	1668	1697	1704	0	0	1668	1651	1634	1639	1650	1665	1704	1662	1617	1620	1621	1631	1618	1602	1605	1613	1636	1638	1622	1592	1573	1552	1563	1594	1601	1588	1587	1630	1639	1630	1603	1559	1482	1457	1477	1510	1565	1627	1648	1630	1585	1570	1557	1543	1496	1452	1431	1432	1455	1488	1517	1535	1538	1532	1534	1533	1538	1539	1549	1552	1544	1531	1528	1534	1536	1532	1532	1520	1510	1485	1475	1483	1482	1484	1468	1450	1446	1445	1449	1454	1459	1461	1456	1446	1467	1489	1490	1494	1494	1506	1507	1488	1460	1456	1478	1489	1495	1495	1492	1493	1508	1519	1537	1549	1540	1525	1503	1468	1405	1306	1269	1263	1277	1290	1293	1283	1281	1264	1242	1234	1231	1232	1233	1247	1252	1255	1254	1254	1241	1220	1220	1235	1233	1248	1255	1254	1243	1245	1257	1260	1252	1256	1265	1265	1262	1355	1427	1437	1453	1462	1484	1537	1556	1565	1562	1557	1548	1566	1567	1560	1560	1552	1551	1559	1560	1567	1579	1569	1565	1561	1553	1547	1547	1564	1567	1563	1556	1546	1542	1544	1544	1547	1543	1546	1559	1569	1560	1560	1570	1592	1595	1598	1591	1589	1568	1548	1550	1548	1549	1560	1573	1589	1597	1605	1598	1591	1577	1572	1571	1580	1599	1616	1629	1604	1569	1546	1543	1554	1571	1581	1593	1592	1594	1594	1583	1591	1590	1594	1609	1614	1616	1615	1608	1615	1630	1632	1621	1610	1590	1571	1560	1556	1558	1559	1548	1554	1579	1596	1598	1588	1581	1588	1584	1580	1593	1596	1597	1598	1595	1585	1578	1569	1556	1555	1556	1565	1601	1624	1628	1616	1605	1594	1585	1578	1584	1596	1609	1609	1601	1589	1565	1560	1559	1566	1571	1562	1553	1553	1570	1592	1584	1558	1539	1547	1554	1576	1600	1598	1583	1569	1551	1547	1546	1550	1556	1571	1595	1854	0	0	1607	1579	1552	1533	1532	1532	1547	1546	1540	1552	1568	1578	1567	1549	1534	1527	1527	1533	1546	1566	1570	1556	1543	1532	1525	1517	0	0	0	0	0	0	0
0	0	1234	1249	1273	1273	1299	1301	1312	1319	1324	1324	1328	1325	1331	1323	1317	1317	1316	1318	1324	1331	1333	1339	0	0	0	0	0	0	0	0	0	0	0	0	0	0	0	0	0	0	0	0	0	0	0	0	0	0	0	0	0	0	0	0	0	0	0	0	0	0	0	0	0	0	0	0	0	0	0	0	0	0	0	1359	1355	1346	1321	1310	1312	1312	1318	1317	1315	1317	1319	1322	1325	1324	1325	1329	1329	1336	1342	1339	1320	1297	1296	1301	1321	1335	1338	1339	1343	1344	1343	1341	1332	1320	1311	1306	1308	1310	1314	1314	1309	1308	1313	1320	1329	1335	1341	1342	1338	1340	1335	1331	1349	1384	1384	1368	0	0	0	0	0	0	0	0	0	0	0	0	0	0	0	0	0	0	0	0	0	0	0	0	0	0	0	0	0	0	0	0	0	0	0	0	0	0	0	0	0	0	0	0	0	0	0	0	0	0	0	0	0	0	0	0	0	0	0	0	0	0	0	0	0	0	0	0	0	0	0	0	0	0	0	0	0	0	0	0	0	0	0	0	1658	1647	1642	0	0	0	0	0	0	0	0	0	1379	1374	1366	1353	1335	1319	1303	1291	1271	1250	1240	1236	1230	1230	1241	1254	1258	1261	1271	1281	1283	1273	1221	1220	1229	1250	1268	1287	1289	1272	1268	1250	1241	1241	1236	1236	1222	1210	1199	1196	1189	1198	1213	1226	1244	1255	1294	1338	1362	1371	1400	1434	1467	1485	1506	1579	1595	1619	1610	1592	1597	1595	1601	1615	1633	1646	1632	1617	1630	1624	1595	1562	1557	1557	1540	1540	1558	1544	1536	1537	1535	1541	1524	1489	1463	1459	1468	1474	1481	1480	1473	1478	1483	1474	1480	1496	1502	1489	1483	1488	1490	1481	1478	1487	1490	1504	1511	1512	1530	1549	1556	1549	1528	1498	1471	1458	1457	1466	1476	1487	1493	1493	1488	1489	1493	1496	1492	1494	1509	1519	1524	1525	1536	1531	1529	1525	1516	1508	1492	1481	1487	1486	1493	1491	1484	1463	1461	1465	1483	1505	1516	1520	1504	1504	1497	1491	1487	1482	1498	1517	1538	1539	1524	1491	1485	1495	1508	1506	1500	1510	1522	1541	1544	1541	1524	1501	1469	1342	1266	1219	1205	1213	1223	1221	1217	1199	1181	1175	1171	1162	1151	1147	1155	1174	1197	1208	1203	1188	1167	1157	1156	1169	1186	1193	1189	1181	1186	1196	1198	1204	1212	1215	1211	1194	1182	1194	1204	1205	1235	1266	1439	1510	1538	1545	1524	1514	1536	1543	1554	1552	1550	1563	1566	1563	1567	1572	1569	1562	1554	1556	1552	1554	1564	1564	1557	1557	1557	1574	1576	1572	1557	1540	1539	1553	1580	1572	1572	1584	1593	1594	1589	1570	1577	1574	1569	1568	1564	1562	1557	1574	1580	1585	1585	1576	1569	1569	1572	1580	1582	1600	1616	1615	1598	1573	1555	1547	1558	1578	1593	1596	1586	1575	1577	1589	1593	1590	1596	1603	1604	1603	1598	1598	1604	1624	1635	1622	1602	1583	1562	1561	1568	1574	1573	1560	1569	1584	1602	1602	1575	1577	1580	1586	1596	1602	1598	1585	1593	1588	1587	1572	1565	1553	1549	1554	1570	1611	1625	1617	1599	1586	1573	1563	1568	1590	1611	1614	1606	1598	1582	1567	1567	1568	1576	1567	1550	1539	1545	1562	1580	1574	1563	1550	1558	1569	1580	1592	1596	1582	1574	1563	1558	1547	1543	1542	1559	1586	1858	0	0	1847	1594	1566	1548	1533	1539	1546	1544	1540	1532	1549	1573	1565	1549	1526	1523	1523	1531	1548	1566	1570	1555	1543	1534	1515	1498	0	0	0	0	0	0	0
0	0	1247	1257	1273	1281	1309	1304	1306	1313	1318	1318	1316	1312	1318	1315	1314	1314	1320	1323	1326	1320	1332	1339	0	0	0	0	0	0	0	0	0	0	0	0	0	0	0	0	0	0	0	0	0	0	0	0	0	0	0	0	0	0	0	0	0	0	0	0	0	0	0	0	0	0	0	0	0	0	0	0	0	0	0	1387	1363	1352	1325	1311	1308	1308	1312	1315	1316	1312	1314	1315	1317	1315	1318	1322	1330	1339	1339	1332	1312	1291	1288	1310	1331	1341	1352	1350	1347	1346	1343	1337	1335	1330	1322	1311	1310	1309	1316	1312	1315	1312	1316	1325	1329	1334	1342	1344	1344	1340	1337	1339	1360	1391	1378	0	0	0	0	0	0	0	0	0	0	0	0	0	0	0	0	0	0	0	0	0	0	0	0	0	0	0	0	0	0	0	0	0	0	0	0	0	0	0	0	0	0	0	0	0	0	0	0	0	1567	0	0	0	0	0	0	0	0	0	0	0	0	1574	0	0	0	1522	1524	0	0	0	0	0	0	0	0	0	0	1628	1628	1643	0	0	0	1634	1627	1619	1605	0	0	0	1584	1579	1554	0	0	0	1336	1325	1295	1271	1256	1230	1211	1201	1217	1224	1228	1220	1220	1229	1235	1243	1247	1250	1261	1269	1272	1263	1217	1200	1206	1226	1255	1277	1278	1265	1264	1259	1255	1243	1252	1248	1237	1218	1211	1198	1191	1188	1196	1213	1224	1238	1261	1332	1366	1389	1418	1434	1453	1454	1429	1422	1426	1468	1465	1482	1492	1492	1510	1537	1551	1519	1480	1468	1481	1502	1517	1516	1503	1488	1471	1472	1486	1496	1484	1480	1475	1465	1455	1467	1473	1464	1454	1440	1434	1442	1449	1442	1441	1444	1448	1467	1477	1484	1482	1490	1506	1509	1507	1498	1499	1506	1504	1513	1512	1511	1519	1523	1525	1511	1483	1470	1464	1470	1476	1483	1486	1483	1481	1482	1488	1491	1491	1495	1501	1516	1518	1518	1521	1516	1517	1520	1517	1508	1495	1491	1496	1498	1511	1512	1511	1492	1482	1481	1503	1523	1542	1546	1537	1510	1501	1492	1489	1493	1506	1528	1549	1549	1508	1495	1504	1516	1522	1521	1516	1514	1524	1535	1539	1534	1514	1490	1427	0	0	1200	1177	1181	1193	1185	1172	1167	1166	1156	1148	1135	1121	1113	1124	1149	1168	1174	1161	1153	1141	1128	1130	1142	1156	1158	1156	1149	1151	1158	1170	1174	1170	1164	1156	1146	1140	1134	1146	1160	1193	1207	1200	1270	1373	1475	1434	1460	1486	1514	1531	1541	1550	1564	1572	1565	1558	1559	1559	1563	1561	1560	1559	1565	1572	1570	1567	1564	1572	1591	1589	1580	1552	1523	1532	1543	1584	1587	1588	1592	1594	1586	1574	1558	1558	1567	1582	1580	1583	1575	1559	1568	1573	1576	1576	1569	1557	1561	1571	1583	1584	1592	1606	1612	1601	1587	1579	1566	1572	1588	1594	1584	1567	1557	1557	1588	1603	1608	1618	1605	1585	1575	1557	1574	1580	1605	1611	1605	1586	1568	1556	1563	1589	1603	1588	1570	1575	1592	1611	1592	1566	1568	1570	1577	1591	1591	1586	1580	1579	1584	1579	1571	1568	1557	1551	1562	1586	1623	1625	1612	1594	1571	1549	1541	1557	1579	1605	1611	1600	1590	1576	1573	1573	1574	1578	1569	1554	1544	1555	1569	1573	1565	1553	1552	1564	1575	1580	1587	1578	1571	1563	1557	1548	1550	1547	1554	1559	1580	1865	0	0	0	1593	1576	1562	1548	1547	1554	1560	1551	1550	1555	1563	1563	1544	1522	1522	1516	1522	1546	1570	1570	1567	1554	1535	1515	1498	0	0	0	0	0	0	0
0	0	1254	1262	1281	1311	1319	1315	1310	1306	1304	1304	1302	1308	1309	1307	1312	1319	1319	1315	1303	1297	1309	0	0	0	0	0	0	0	0	0	0	0	0	0	0	0	0	0	0	0	0	0	0	0	0	0	0	0	0	0	0	0	0	0	0	0	0	0	0	0	0	0	0	0	0	0	0	0	0	0	0	0	0	1394	1378	1358	1343	1316	1309	1316	1316	1321	1325	1319	1321	1316	1314	1311	1313	1325	1331	1335	1331	1320	1305	1290	1300	1339	1343	1351	1362	1356	1349	1346	1342	1337	1335	1337	1330	1320	1318	1313	1323	1317	1319	1324	1328	1329	1331	1331	1328	1338	1340	1346	1345	1338	1356	1382	1368	0	0	0	0	0	0	0	0	0	0	0	0	0	0	0	0	0	0	0	0	0	0	0	0	0	0	0	0	0	0	0	0	0	0	0	0	1526	1518	1520	0	0	0	0	0	0	0	0	1539	1504	1493	1518	1556	0	0	0	1589	0	0	0	0	1495	1502	1517	1541	1547	1501	1475	1479	1472	1478	1487	1476	1481	1494	1479	1480	1560	1572	1575	1576	1568	1566	1586	1595	1600	1601	1586	1562	1531	1527	1518	1529	1523	1525	1495	0	1391	1312	1276	1243	1219	1210	1194	1188	1188	1199	1204	1206	1210	1216	1222	1230	1235	1237	1238	1243	1252	1255	1247	1228	1196	1204	1223	1253	1276	1288	1294	1297	1282	1277	1278	1281	1263	1260	1244	1220	1207	1200	1195	1189	1196	1196	1214	1257	1319	1388	1413	1426	1441	1449	1439	1436	1427	1423	1435	1471	1475	1473	1466	1466	1464	1459	1451	1451	1462	1465	1472	1482	1492	1495	1487	1480	1473	1470	1455	1448	1442	1437	1444	1454	1468	1479	1479	1460	1451	1448	1451	1458	1448	1439	1435	1441	1456	1476	1481	1489	1495	1505	1518	1516	1508	1501	1497	1499	1505	1515	1507	1523	1529	1530	1523	1498	1473	1464	1470	1470	1481	1479	1483	1468	1469	1494	1508	1502	1493	1498	1507	1505	1508	1515	1515	1513	1511	1508	1503	1497	1503	1513	1526	1523	1528	1523	1509	1498	1506	1518	1541	1563	1575	1571	1558	1533	1512	1507	1512	1519	1526	1534	1505	1498	1501	1506	1516	1531	1528	1518	1514	1520	1528	1524	1513	1504	1477	0	0	0	0	1182	1175	1175	1161	1150	1147	1150	1156	1148	1123	1108	1101	1113	1129	1148	1143	1126	1114	1114	1113	1122	1133	1141	1135	1132	1130	1126	1135	1145	1151	1152	1143	1131	1123	1120	1114	1123	1138	1167	1180	1189	1186	1196	1255	1359	1402	1438	1482	1513	1525	1538	1558	1560	1557	1550	1552	1561	1564	1564	1570	1571	1573	1564	1564	1566	1576	1585	1594	1591	1578	1556	1532	1522	1540	1578	1588	1595	1605	1598	1585	1563	1553	1554	1569	1587	1599	1596	1587	1580	1561	1566	1573	1579	1577	1561	1558	1565	1572	1579	1585	1590	1608	1613	1614	1596	1583	1588	1594	1579	1568	1536	1533	1543	1573	1606	1616	1621	1604	1573	1547	1544	1547	1547	1549	1577	1575	1562	1541	1550	1573	1599	1614	1601	1578	1576	1592	1602	1577	1559	1559	1562	1568	1579	1578	1564	1558	1553	1569	1577	1581	1582	1569	1568	1571	1612	1640	1642	1620	1592	1578	1561	1548	1553	1569	1592	1600	1598	1585	1573	1570	1572	1584	1586	1578	1561	1553	1564	1574	1575	1563	1551	1551	1558	1558	1572	1577	1574	1568	1559	1558	1554	1558	1559	1564	1575	1585	1599	1871	1871	1663	1587	1573	1558	1548	1545	1550	1555	1558	1554	1562	1570	1571	1556	1533	1533	1524	1528	1557	1576	1573	1559	1536	1526	1510	1500	1500	0	0	0	0	0	0
