0	0	0	0	0	1459	1455	0	0	0	0	0	1478	1470	1480	1480	1488	1489	1483	1467	1449	1451	1451	1457	1465	1463	1432	1423	1411	1418	1409	1416	1427	1432	1439	1435	1427	1419	1411	1408	1408	1420	1441	1457	1475	1476	1456	1430	1431	1432	1434	1435	1435	1430	1427	1432	1425	1436	1458	1473	1486	1482	1471	1457	1450	1458	1464	1458	1465	1474	1481	1472	1454	1439	1439	1425	1429	1441	1458	1463	1457	1458	1462	1467	1458	1447	1431	1423	1426	1444	1457	1469	1460	1451	1441	1438	1435	1447	1458	1476	1481	1477	1456	1441	1440	1465	1468	1459	1462	1474	1480	1473	1464	1476	1493	1488	1474	1484	1489	1488	1477	1466	1457	1454	1453	1458	1454	1455	1463	1466	1465	1459	1466	1460	1458	1458	1464	1462	1465	1465	1458	1446	1448	1463	1479	1478	1470	1467	1477	1491	1481	1437	1439	1435	1420	1417	1413	1421	1430	1411	1404	1401	1396	1400	1394	1397	1400	1411	1424	1424	1429	1425	1409	1391	1373	1366	1369	1373	1376	1389	1410	1408	1405	1400	1399	1396	1392	1382	1378	1381	1395	1404	1404	1405	1412	1429	1435	1414	0	0	0	0	0	0	0	0	0	0	0	0	0	0	0	0	0	0	0	0	0	0	0	0	0	0	0	0	0	0	1648	1688	1686	1688	1689	1704	1708	1714	1702	0	0	0	0	0	0	0	1377	1391	1383	1382	1397	1403	1401	1402	1399	1390	1384	1378	1382	1391	1399	1399	1389	1375	1359	1357	1362	1381	1388	1383	1381	1375	1378	1375	1368	1360	1355	1357	1360	1374	1371	1371	1367	1363	1362	1361	1353	1351	1346	1347	1355	1364	1375	1376	1370	1369	1366	1363	1362	1361	1357	1362	1358	1355	1340	1340	1346	1358	1363	1366	1362	1355	1346	1348	1358	1361	1356	1349	1343	1340	1339	1336	1336	1342	1340	1336	1341	1344	1358	1361	1366	1364	1348	1345	1353	1361	1363	1359	1349	1341	1340	1337	1334	1335	1340	1340	1335	1347	1354	1367	1373	1369	1361	1352	1355	1359	1365	1363	1354	1344	1338	1339	1336	1335	1343	1343	1348	1343	1342	1334	1333	1343	1349	1354	1357	1349	1341	1344	1341	1342	1338	1335	1329	1327	1318	1319	1328	1333	1338	1337	1340	1348	1355	1360	1358	1345	1336	1334	1336	1336	1329	1319	1314	1325	1315	1309	1309	1312	1320	1326	1333	1335	1353	1359	1357	1344	1326	1308	1300	1299	1298	1306	1312	1318	1313	1319	1326	1337	1347	1341	1333	1314	1303	1300	1306	1296	1304	1313	1320	1328	1333	1332	1329	1321	1317	1306	1308	1310	1313	1311	1313	1314	1311	1312	1313	1318	1306	1302	1299	1301	1312	1321	1327	1322	1322	1324	1317	1313	1304	1301	1298	1296	1313	1312	1314	1312	1305	1298	1300	1308	1322	1332	1331	1321	1312	1302	1303	1300	1299	1299	1311	1328	1333	1320	1302	1298	1303	1319	1312	1309	1307	1312	1324	1311	1305	1306	1308	1305	1307	1310	1312	1302	1289	1283	1282	1289	1288	1297	1295	1295	1296	1298	1302	1301	1305	1306	1306	1311	1311	1311	1312	1314	1311	1295	1295	1293	1287	1280	1278	1278	1280	1287	1295	1302	1300	1304	1304	1305	1306	1305	1300	1297	1289	1295	1299	1297	1289	1280	1273	1278	1286	1293	1295	1294	1287	1285	1278	1278	1289	1285	1275	1268	1271	1287	1305	1336	0	0	0	0	0	0	0	0	0	0	0	0	0	0	0	1581	1569	1541	1504	1472	1463	1457	0	0	0	0	0	0	1400	1398	1392	1362	1345	1309	1319	1339	1339	1345	1346	1345	1343	1344	1345	1354	1361	1359	1339	1341	1354	1353	1344	1338	1338	1345	1355	1362	1357	1347	1333	0	0	0	0	0	0	0
0	0	0	0	0	1455	1451	1435	1435	1424	1435	1456	1463	1474	1481	1481	1489	1490	0	0	0	0	0	1463	1464	1455	1428	1414	1417	1426	1426	1431	1429	1427	1435	1439	1437	1422	1415	1417	1417	1418	1427	1428	1455	1456	1433	1420	1419	1419	1425	1426	1426	1431	1435	1429	1426	1436	1456	1476	1484	1484	1468	1453	1441	1438	1446	1442	1463	1475	1472	1462	1448	1438	1438	1432	1444	1458	1475	1473	1469	1468	1465	1464	1457	1448	1437	1428	1428	1445	1466	1471	1471	1464	1457	1445	1439	1435	1441	1456	1471	1479	1449	1442	1443	1449	1453	1454	1454	1470	1479	1482	1490	1494	1492	1493	1489	1481	1474	1473	1464	1461	1454	1454	1455	1451	1449	1447	1453	1459	1469	1457	1462	1468	1465	1472	1474	1470	1468	1476	1475	1469	1456	1463	1469	1469	1467	1469	1476	1479	1468	1434	1433	1436	1434	1436	1436	1434	1431	1415	1409	1410	1421	1419	1397	1394	1400	1415	1431	1430	1434	1422	1405	1394	1381	1371	1377	1378	1378	1379	1394	1397	1393	1393	1399	1394	1383	1372	1367	1369	1384	1393	1389	1393	1403	1411	1381	1383	0	0	0	0	0	0	0	0	0	0	0	0	0	0	0	0	0	0	0	0	0	0	0	0	0	0	0	0	0	0	1637	1687	1698	1695	1698	1695	1692	1702	1679	0	0	0	0	0	0	0	1378	1395	1397	1391	1398	1403	1403	1405	1399	1387	1378	1380	1376	1388	1400	1397	1390	1374	1360	1362	1370	1378	1391	1385	1377	1374	1376	1373	1365	1354	1352	1356	1374	1380	1379	1367	1370	1363	1366	1372	1362	1358	1360	1354	1358	1366	1366	1366	1368	1372	1373	1367	1366	1368	1358	1355	1345	1347	1339	1337	1344	1354	1368	1364	1364	1361	1350	1350	1361	1361	1359	1356	1351	1347	1341	1336	1340	1346	1336	1332	1332	1333	1352	1358	1363	1364	1353	1352	1357	1360	1359	1362	1357	1356	1353	1347	1340	1334	1338	1337	1342	1346	1351	1356	1365	1366	1364	1353	1355	1365	1368	1364	1355	1347	1340	1343	1343	1344	1348	1352	1356	1353	1345	1337	1339	1349	1350	1357	1357	1356	1349	1344	1340	1341	1340	1338	1331	1332	1325	1321	1331	1330	1335	1338	1339	1344	1352	1358	1354	1344	1340	1340	1343	1342	1337	1317	1310	1322	1326	1314	1311	1315	1323	1332	1336	1334	1350	1355	1350	1339	1324	1315	1313	1306	1305	1312	1321	1329	1332	1335	1344	1351	1355	1350	1330	1316	1304	1308	1319	1314	1311	1313	1315	1313	1321	1325	1326	1317	1306	1309	1322	1328	1324	1326	1325	1320	1322	1316	1318	1310	1294	1291	1289	1295	1309	1324	1332	1331	1329	1328	1325	1317	1306	1299	1293	1297	1315	1320	1321	1317	1302	1293	1289	1302	1324	1335	1332	1331	1321	1309	1309	1308	1293	1300	1316	1336	1339	1327	1306	1303	1315	1325	1319	1315	1315	1323	1329	1323	1309	1298	1302	1308	1315	1317	1313	1306	1294	1287	1283	1287	1292	1313	1312	1305	1297	1295	1295	1292	1297	1297	1299	1305	1307	1303	1307	1309	1311	1297	1295	1294	1292	1287	1275	1268	1270	1277	1285	1292	1295	1295	1300	1304	1300	1293	1300	1301	1300	1289	1289	1288	1286	1279	1273	1279	1290	1301	1301	1296	1283	1270	1268	1272	1272	1269	1273	1273	1280	1286	1291	1325	1339	0	0	0	0	0	0	0	0	0	0	0	0	0	0	0	1542	1503	1489	1475	1471	1457	0	0	0	0	0	0	1400	1414	1409	1401	1384	1342	1336	1350	1350	1354	1352	1345	1334	1326	1326	1336	1344	1341	1332	1335	1347	1350	1345	1341	1341	1348	1366	1374	1367	1355	1344	0	0	0	0	0	0	0
0	0	0	0	0	1453	1440	1424	1424	1417	1431	1444	1465	1476	1483	1483	1484	0	0	0	0	0	0	1463	1459	1440	1429	1418	1426	1424	1424	1440	1440	1438	1445	1453	1449	1439	1427	1426	1426	1414	1420	1423	1423	1429	1424	1413	1415	1416	1421	1427	1427	1435	1435	1425	1430	1440	1456	1469	1483	1476	1464	1444	1435	1439	1435	1437	1448	1453	1452	1440	1433	1432	1432	1436	1450	1462	1468	1464	1472	1468	1456	1454	1446	1440	1441	1440	1445	1446	1460	1473	1473	1477	1459	1439	1436	1428	1421	1430	1452	1466	1452	1440	1449	1447	1448	1448	1467	1480	1500	1504	1514	1512	1501	1491	1480	1480	1466	1457	1455	1460	1462	1458	1453	1447	1441	1435	1445	1462	1469	1451	1458	1465	1466	1469	1475	1470	1473	1483	1491	1479	1463	1462	1463	1462	1464	1462	1477	1478	1465	1447	1439	1433	1447	1449	1450	1441	1431	1422	1415	1409	1416	1419	1404	1394	1394	1410	1426	1424	1417	1404	1402	1390	1389	1388	1376	1386	1383	1377	1370	1370	1365	1383	1392	1395	1388	1376	1368	1370	1379	1377	1374	1380	1389	1394	1379	1401	1390	0	0	0	0	0	0	0	0	0	0	0	0	0	0	0	0	0	0	0	0	0	0	0	0	0	0	0	0	0	1631	1687	1704	1700	1690	1664	1659	1659	1665	0	0	0	0	0	0	0	1393	1413	1404	1400	1398	1394	1389	1387	1385	1383	1380	1381	1385	1393	1403	1408	1394	1375	1364	1363	1370	1382	1386	1391	1380	1377	1382	1378	1371	1360	1354	1360	1381	1388	1387	1381	1367	1366	1368	1375	1377	1369	1362	1365	1363	1365	1359	1357	1359	1366	1368	1368	1364	1367	1366	1355	1351	1342	1340	1341	1346	1355	1366	1367	1364	1362	1367	1359	1367	1363	1364	1359	1359	1353	1352	1345	1344	1341	1338	1330	1327	1331	1346	1354	1361	1363	1367	1360	1358	1362	1365	1364	1367	1370	1366	1360	1348	1340	1333	1337	1348	1355	1352	1355	1359	1362	1358	1357	1356	1368	1370	1363	1354	1345	1337	1333	1340	1345	1352	1357	1358	1351	1345	1342	1344	1352	1357	1354	1357	1357	1350	1347	1346	1350	1350	1343	1338	1334	1334	1337	1329	1334	1336	1336	1334	1343	1352	1356	1355	1348	1347	1353	1355	1347	1341	1319	1304	1312	1334	1325	1318	1317	1323	1331	1333	1331	1329	1320	1313	1313	1328	1330	1324	1315	1304	1300	1306	1310	1313	1324	1338	1350	1349	1345	1328	1315	1315	1313	1309	1304	1304	1309	1314	1319	1328	1335	1325	1315	1310	1318	1330	1331	1328	1321	1315	1312	1313	1313	1317	1311	1306	1303	1294	1289	1301	1314	1326	1323	1322	1326	1338	1344	1335	1320	1312	1312	1316	1312	1304	1305	1299	1297	1305	1325	1334	1320	1316	1319	1318	1303	1296	1294	1304	1311	1323	1321	1321	1318	1322	1320	1320	1316	1307	1306	1307	1309	1311	1312	1306	1307	1312	1317	1312	1304	1300	1298	1295	1290	1273	1274	1283	1297	1300	1290	1285	1286	1283	1276	1275	1286	1306	1303	1286	1274	1269	1268	1275	1286	1287	1298	1309	1306	1293	1280	1274	1265	1269	1280	1288	1276	1271	1261	1255	1259	1277	1291	1296	1288	1275	1265	1258	1266	1280	1295	1301	1297	1285	1281	1280	1273	1266	1265	1267	1263	1274	1277	1275	1284	1299	1300	1291	0	0	0	0	0	0	0	0	0	0	0	0	0	0	0	1508	1485	1471	1470	1475	1459	1444	0	0	0	0	0	1405	1422	1434	1430	1418	1376	1357	1358	1349	1349	1348	1343	1324	1324	1325	1334	1341	1342	1338	1338	1350	1348	1343	1340	1340	1343	1351	1358	1358	1354	1348	0	0	0	0	0	0	0
0	0	0	0	0	0	1439	1422	1422	1426	1431	1444	1465	1476	1476	1484	1483	1474	0	0	0	0	0	0	1460	1446	1432	1440	1439	1447	1447	1447	1457	1449	1452	1456	1453	1441	1440	1424	1424	1418	1422	1420	1412	1412	1413	1414	1414	1420	1421	1427	1427	1426	1435	1423	1425	1434	1452	1466	1474	1468	1453	1437	1443	1443	1441	1436	1436	1425	1426	1422	1421	1421	1425	1439	1450	1457	1463	1459	1460	1459	1452	1444	1438	1433	1442	1446	1456	1455	1461	1465	1473	1474	1465	1446	1436	1419	1416	1420	1431	1445	1451	1442	1431	1445	1465	1467	1464	1480	1500	1518	1523	1513	1496	1474	1478	1479	1463	1451	1449	1452	1453	1454	1453	1450	1450	1449	1453	1460	1461	1448	1453	1466	1472	1475	1476	1476	1481	1485	1483	1481	1459	1453	1455	1458	1457	1460	1472	1474	1469	1449	1447	1439	1438	1448	1452	1445	1432	1427	1423	1414	1415	1414	1398	1389	1391	1410	1420	1412	1402	1392	1391	1390	1398	1397	1384	1390	1384	1376	1364	1357	1353	1374	1393	1406	1401	1388	1380	1382	1388	1379	1382	1384	1391	1390	1403	1412	1428	1425	0	0	0	0	0	0	0	0	0	0	0	0	0	0	0	0	0	0	0	0	0	0	0	0	0	0	0	0	1643	1688	1697	1689	1676	1654	1652	1658	1645	1599	0	0	0	0	0	1481	1437	1409	1396	1405	1403	1391	1369	1359	1376	1383	1388	1390	1393	1396	1400	1403	1390	1375	1372	1363	1378	1384	1390	1396	1392	1390	1386	1383	1376	1369	1365	1366	1385	1392	1388	1379	1371	1365	1372	1380	1380	1371	1370	1370	1367	1361	1357	1353	1353	1357	1364	1363	1362	1370	1371	1369	1357	1349	1345	1345	1353	1362	1367	1367	1360	1364	1370	1370	1372	1367	1360	1359	1360	1359	1356	1350	1345	1342	1337	1329	1331	1335	1351	1362	1366	1366	1367	1372	1368	1366	1362	1364	1365	1373	1382	1379	1369	1355	1342	1340	1353	1364	1360	1355	1355	1354	1356	1358	1366	1366	1365	1359	1351	1341	1331	1327	1330	1343	1350	1355	1365	1362	1349	1348	1351	1362	1361	1356	1352	1357	1352	1350	1351	1359	1358	1350	1348	1353	1353	1349	1331	1333	1336	1344	1343	1343	1351	1357	1356	1353	1353	1361	1359	1355	1332	1315	1299	1326	1321	1346	1325	1327	1334	1338	1337	1341	1339	1333	1326	1326	1328	1330	1326	1317	1306	1305	1305	1308	1312	1318	1330	1344	1350	1337	1329	1319	1318	1318	1306	1303	1305	1313	1321	1323	1334	1335	1327	1316	1310	1311	1319	1319	1318	1318	1317	1317	1316	1309	1311	1314	1318	1318	1308	1296	1292	1295	1302	1304	1300	1302	1307	1309	1311	1306	1311	1320	1310	1297	1297	1304	1309	1316	1311	1314	1316	1313	1311	1315	1302	1302	1299	1300	1316	1330	1328	1319	1307	1312	1311	1315	1313	1307	1304	1302	1304	1309	1309	1310	1310	1314	1318	1323	1314	1312	1307	1312	1316	1307	1301	1291	1289	1297	1293	1283	1282	1287	1291	1292	1294	1294	1299	1295	1287	1274	1264	1265	1276	1293	1294	1300	1308	1312	1308	1299	1291	1283	1281	1287	1291	1277	1272	1254	1249	1252	1262	1283	1293	1287	1282	1280	1270	1278	1289	1296	1299	1297	1284	1276	1278	1277	1276	1264	1257	1257	1268	1280	1286	1291	1288	1287	1300	1291	0	0	0	0	0	0	0	0	0	0	0	0	0	0	1470	1459	1463	1463	1468	1465	1448	1444	0	0	0	0	1401	1432	1442	1436	1427	1399	1373	1354	1348	1348	1349	1336	1326	1328	1327	1331	1338	1343	1345	1346	1342	1347	1346	1341	1341	1343	1345	1348	1350	1341	1349	0	0	0	0	0	0	0
0	0	0	0	0	1450	1438	1432	1432	1436	1435	1454	1463	1475	1475	1481	1473	1456	0	0	0	0	0	1458	1458	1448	1445	1444	1449	1460	1460	1471	1458	1454	1447	1448	1449	1446	1438	1438	1431	1426	1432	1434	1424	1407	1405	1408	1419	1425	1426	1432	1432	1430	1425	1411	1413	1423	1441	1460	1466	1461	1453	1446	1457	1457	1445	1430	1423	1414	1415	1412	1415	1415	1429	1442	1452	1449	1444	1448	1449	1453	1441	1437	1431	1426	1429	1442	1450	1462	1460	1457	1457	1453	1450	1445	1445	1435	1423	1420	1433	1445	1443	1438	1426	1433	1459	1461	1460	1473	1495	1505	1506	1494	1486	1469	1482	1480	1474	1457	1448	1445	1450	1452	1458	1455	1457	1460	1463	1461	1456	1439	1454	1470	1475	1472	1471	1480	1487	1485	1482	1471	1459	1454	1456	1454	1454	1454	1453	1464	1455	1454	1444	1427	1429	1441	1443	1440	1433	1431	1431	1425	1423	1406	1395	1390	1392	1418	1423	1417	1406	1392	1387	1392	1405	1406	1384	1383	1394	1391	1370	1356	1356	1372	1399	1417	1416	1403	1392	1398	1400	1390	1391	1396	1400	1400	1408	1419	1447	1447	0	0	0	0	0	0	0	0	0	0	0	0	0	0	0	0	0	0	0	0	0	0	0	0	0	0	0	0	1667	1693	1703	1698	1681	1672	1663	1656	1617	1581	1570	1546	1536	1549	1542	1523	1449	1398	1395	1402	1399	1377	1359	1356	1375	1392	1393	1393	1393	1394	1392	1392	1384	1380	1376	1369	1375	1380	1393	1392	1390	1388	1382	1379	1375	1372	1371	1373	1384	1388	1388	1379	1371	1367	1374	1384	1381	1377	1367	1365	1362	1358	1351	1346	1346	1349	1357	1363	1371	1375	1378	1377	1375	1363	1360	1356	1363	1373	1370	1368	1366	1367	1383	1385	1372	1367	1360	1348	1344	1358	1360	1361	1355	1353	1355	1355	1369	1376	1380	1377	1378	1374	1375	1374	1369	1364	1360	1361	1370	1383	1387	1383	1376	1356	1345	1344	1363	1371	1365	1353	1351	1350	1352	1354	1358	1364	1362	1363	1360	1353	1347	1343	1341	1358	1371	1371	1364	1356	1359	1361	1370	1375	1376	1372	1368	1359	1357	1355	1356	1350	1354	1353	1359	1360	1359	1356	1347	1332	1327	1332	1334	1337	1341	1340	1343	1355	1358	1356	1360	1356	1343	1288	1324	1320	1344	1353	1336	1335	1338	1340	1337	1342	1342	1338	1334	1324	1329	1330	1323	1325	1317	1312	1313	1312	1308	1310	1312	1309	1302	1302	1309	1321	1330	1329	1317	1314	1314	1321	1325	1323	1318	1319	1317	1320	1323	1332	1330	1319	1302	1302	1311	1321	1312	1306	1306	1313	1319	1324	1315	1301	1289	1290	1292	1294	1293	1298	1304	1306	1306	1309	1315	1319	1300	1290	1292	1302	1309	1316	1310	1308	1308	1310	1306	1306	1300	1291	1303	1311	1336	1339	1332	1318	1305	1303	1304	1304	1302	1300	1302	1303	1299	1305	1305	1303	1307	1314	1320	1323	1318	1310	1306	1316	1324	1321	1313	1303	1295	1293	1294	1282	1277	1287	1293	1296	1302	1302	1303	1299	1288	1276	1266	1270	1282	1299	1300	1302	1305	1307	1314	1312	1310	1304	1296	1298	1296	1286	1271	1253	1247	1246	1256	1272	1288	1292	1292	1289	1291	1294	1293	1293	1291	1288	1289	1288	1290	1289	1288	1277	1269	1268	1275	1280	1284	1284	1287	1287	1297	1311	1348	0	0	0	0	0	0	0	0	0	0	0	0	0	0	1436	1437	1445	1459	1463	1470	1474	0	0	0	0	1400	1423	1430	1415	1410	1392	1380	1360	1349	1349	1353	1340	1341	1337	1331	1331	1339	1346	1346	1345	1341	1341	1343	1339	1339	1350	1347	1345	1338	1331	1344	0	0	0	0	0	0	0
0	0	0	0	0	0	0	0	0	1430	1442	1447	1465	1473	1473	1473	1461	1445	1429	0	0	0	0	1441	1439	1433	1442	1449	1461	1468	1468	1467	1458	1445	1442	1449	1456	1456	1449	1437	1425	1424	1440	1449	1443	1420	1408	1413	1423	1434	1436	1438	1438	1435	1423	1416	1415	1418	1432	1468	1478	1477	1466	1457	1457	1450	1448	1432	1440	1436	1425	1419	1420	1420	1427	1445	1453	1444	1434	1434	1433	1438	1439	1435	1428	1416	1421	1430	1448	1458	1457	1451	1449	1441	1446	1447	1457	1452	1450	1439	1440	1441	1447	1438	1425	1424	1438	1453	1451	1457	1474	1495	1491	1485	1470	1467	1481	1480	1470	1462	1443	1444	1451	1455	1462	1464	1466	1466	1463	1460	1451	1436	1448	1465	1480	1488	1485	1482	1490	1489	1478	1472	1468	1462	1459	1455	1452	1449	1445	1442	1439	1439	1442	1434	1421	1428	1428	1425	1427	1430	1432	1434	1432	1408	1395	1387	1394	1407	1427	1422	1411	1394	1389	1396	1402	1409	1387	1385	1401	1405	1383	1374	1368	1386	1405	1422	1423	1410	1400	1409	1414	1402	1401	1411	1402	1402	1421	1436	1458	1462	0	0	0	0	0	0	0	0	0	0	0	0	0	0	0	0	0	0	0	0	0	0	0	0	0	0	0	0	1685	1698	1701	1696	1693	1681	1671	1656	1598	1574	1560	1487	1424	1428	1443	1458	1401	1386	1391	1386	1383	1366	1355	1355	1371	1380	1380	1380	1378	1375	1376	1382	1386	1385	1379	1379	1375	1387	1380	1382	1379	1374	1366	1364	1367	1376	1376	1381	1380	1384	1385	1383	1368	1372	1371	1374	1380	1374	1367	1355	1364	1354	1344	1339	1341	1348	1357	1367	1375	1381	1385	1376	1372	1366	1362	1369	1368	1372	1375	1374	1373	1379	1383	1382	1372	1363	1355	1347	1347	1360	1365	1359	1348	1357	1359	1369	1388	1392	1391	1385	1379	1378	1379	1378	1377	1372	1361	1367	1376	1389	1387	1380	1372	1353	1341	1330	1338	1354	1363	1369	1368	1370	1366	1366	1370	1371	1369	1365	1361	1353	1347	1344	1341	1351	1364	1363	1361	1354	1352	1355	1353	1356	1359	1368	1368	1368	1364	1364	1359	1353	1347	1347	1346	1346	1349	1346	1339	1329	1333	1339	1337	1328	1330	1334	1338	1343	1354	1360	1366	1333	1341	1327	0	0	1361	1359	1344	1341	1338	1338	1334	1337	1338	1337	1333	1316	1321	1332	1323	1321	1326	1323	1312	1308	1306	1308	1315	1312	1303	1303	1309	1318	1328	1327	1318	1310	1315	1315	1318	1313	1314	1314	1315	1322	1329	1329	1327	1312	1300	1301	1311	1317	1321	1311	1308	1307	1309	1312	1310	1311	1315	1313	1313	1309	1306	1308	1309	1312	1314	1310	1310	1301	1295	1284	1292	1303	1314	1313	1314	1311	1311	1307	1306	1301	1295	1299	1305	1313	1341	1339	1327	1313	1304	1301	1299	1299	1296	1298	1296	1292	1289	1291	1301	1300	1303	1306	1309	1309	1306	1299	1298	1313	1323	1318	1309	1298	1295	1292	1292	1283	1286	1290	1297	1296	1302	1301	1302	1302	1295	1287	1278	1275	1285	1298	1296	1300	1296	1310	1315	1324	1320	1314	1306	1304	1295	1285	1272	1256	1254	1251	1255	1266	1280	1291	1298	1301	1302	1307	1301	1292	1283	1287	1288	1288	1293	1297	1297	1288	1283	1276	1276	1278	1278	1281	1283	1284	1303	1337	1367	0	0	0	0	0	0	0	0	0	0	0	0	0	0	1429	1423	1435	1443	1457	1481	1492	1500	1479	1451	1418	1406	1414	1410	1386	1382	1383	1377	1361	1348	1348	1354	1357	1356	1357	1350	1339	1340	1344	1345	1340	1340	1339	1347	1350	1350	1349	1358	1351	1330	1342	1333	0	0	0	0	0	0	0
0	0	0	0	0	0	0	0	0	0	1452	1467	1477	1476	1476	1463	1457	1440	1425	1416	0	0	0	1429	1428	1426	1441	1454	1461	1456	1456	1451	1442	1435	1442	1454	1454	1455	1448	1448	1441	1445	1445	1458	1451	1429	1412	1416	1430	1444	1453	1456	1456	1450	1441	1433	1429	1436	1440	1458	1470	1476	1483	1467	1465	1464	1457	1453	1455	1445	1429	1420	1430	1430	1436	1447	1451	1444	1427	1427	1424	1433	1440	1439	1429	1414	1414	1426	1436	1451	1459	1452	1458	1458	1461	1461	1465	1471	1468	1460	1449	1443	1443	1446	1435	1427	1430	1438	1443	1447	1457	1469	1471	1469	1465	1466	1481	1478	1467	1454	1449	1446	1451	1455	1466	1463	1460	1455	1453	1444	1436	1433	1445	1465	1477	1480	1479	1492	1488	1487	1480	1472	1475	1476	1473	1462	1454	1452	1441	1434	1430	1435	1437	1437	1419	1412	1409	1416	1420	1423	1427	1437	1435	1412	1401	1393	1394	1400	1416	1409	1401	1389	1386	1392	1402	1407	1398	1387	1404	1406	1384	1386	1389	1395	1405	1417	1417	1407	1404	1411	1418	1395	1404	1413	1410	1385	1431	1455	1472	1463	0	0	0	0	0	0	0	0	0	0	0	0	0	0	0	0	0	0	0	0	0	0	0	0	0	0	0	0	1690	1695	1692	1686	1693	1690	1680	1662	1590	1575	1504	1428	1420	1407	1406	1386	1382	1375	1369	1375	1366	1356	1351	1350	1358	1365	1368	1366	1358	1358	1367	1374	1384	1393	1380	1373	1367	1373	1368	1364	1366	1360	1359	1361	1367	1373	1377	1369	1376	1383	1387	1382	1377	1362	1356	1362	1370	1367	1359	1362	1361	1355	1344	1341	1345	1357	1359	1360	1369	1384	1376	1371	1361	1355	1355	1362	1365	1370	1366	1365	1363	1374	1379	1379	1375	1366	1357	1352	1348	1357	1364	1363	1353	1352	1361	1365	1378	1385	1378	1372	1366	1372	1376	1379	1381	1374	1368	1369	1371	1383	1376	1371	1364	1353	1339	1340	1347	1357	1366	1370	1370	1370	1371	1373	1370	1367	1365	1365	1362	1355	1345	1345	1345	1350	1355	1358	1358	1359	1358	1352	1347	1345	1352	1364	1368	1371	1368	1366	1361	1352	1348	1346	1345	1341	1341	1342	1337	1333	1338	1340	1336	1325	1321	1330	1342	1353	1355	1366	1348	1339	0	0	0	0	1376	1362	1346	1340	1335	1327	1324	1326	1330	1330	1331	1327	1326	1325	1323	1321	1323	1320	1310	1303	1304	1313	1324	1323	1318	1311	1310	1317	1323	1321	1316	1315	1319	1324	1322	1315	1316	1315	1318	1321	1327	1328	1319	1310	1302	1302	1313	1320	1323	1314	1320	1317	1301	1297	1306	1317	1326	1329	1324	1318	1319	1315	1317	1313	1304	1307	1302	1298	1291	1288	1292	1297	1310	1316	1318	1317	1312	1312	1309	1297	1296	1304	1309	1319	1334	1328	1316	1308	1311	1313	1308	1308	1305	1301	1293	1286	1284	1287	1291	1294	1297	1302	1301	1305	1302	1306	1299	1304	1313	1310	1302	1295	1294	1289	1291	1290	1293	1303	1304	1297	1293	1289	1286	1291	1290	1286	1283	1279	1286	1291	1287	1292	1297	1298	1304	1319	1320	1316	1309	1303	1295	1279	1276	1270	1264	1260	1260	1266	1278	1287	1297	1303	1303	1306	1300	1286	1279	1281	1286	1289	1290	1297	1296	1286	1282	1279	1275	1274	1271	1275	1280	1283	1293	1340	0	0	0	0	0	0	0	0	0	0	0	0	0	0	0	0	1420	1428	1429	1448	1473	1498	1495	1469	1448	1418	1411	1404	1393	1376	1375	1379	1370	1349	1338	1338	1352	1359	1361	1367	1363	1351	1339	1341	1341	1341	1342	1342	1350	1350	1350	1353	1367	1369	1362	1351	1339	0	0	0	0	0	0	0
0	0	0	0	0	0	0	0	0	0	0	1482	1485	1465	1465	1458	1450	1430	1421	1419	1425	1425	1432	1437	1424	1418	1434	1445	1444	1444	1432	1426	1427	1435	1452	1455	1445	1448	1452	1452	1450	1456	1456	1466	1467	1447	1432	1427	1437	1455	1466	1466	1469	1461	1458	1447	1441	1442	1447	1458	1468	1481	1487	1467	1465	1471	1470	1465	1458	1441	1432	1427	1427	1431	1439	1446	1442	1440	1427	1417	1417	1423	1438	1438	1427	1422	1415	1417	1432	1449	1460	1472	1485	1484	1478	1472	1467	1471	1464	1454	1439	1433	1435	1443	1443	1440	1442	1446	1443	1441	1450	1448	1448	1449	1451	1465	1481	1473	1461	1452	1450	1455	1459	1463	1460	1457	1450	1447	1439	1434	1429	1436	1445	1462	1475	1482	1476	1470	1470	1465	1466	1468	1477	1481	1478	1470	1462	1455	1443	1436	1438	1440	1441	1443	1415	1400	1400	1403	1412	1416	1422	1437	1440	1427	1410	1402	1401	1394	1392	1391	1391	1395	1395	1405	1408	1412	1408	1401	1406	1407	1391	1393	1398	1399	1404	1411	1412	1406	1402	1403	1410	1388	1376	1397	1388	1380	1439	1455	1468	1449	1417	0	0	0	0	0	0	0	0	0	0	0	0	0	0	0	0	0	0	0	0	0	0	0	0	0	0	0	1685	1686	1681	1676	1681	1697	1698	1700	1591	1564	1502	1420	1392	1396	1390	1376	1367	1361	1355	1352	1354	1356	1354	1357	1359	1362	1363	1361	1357	1356	1362	1375	1382	1378	1369	1363	1353	1354	1345	1345	1347	1353	1358	1365	1370	1376	1369	1364	1369	1381	1388	1378	1368	1363	1351	1357	1359	1363	1349	1357	1362	1361	1349	1349	1354	1355	1344	1343	1342	1348	1352	1348	1346	1347	1348	1355	1356	1358	1363	1363	1358	1369	1371	1374	1371	1367	1361	1344	1341	1350	1363	1368	1366	1360	1355	1351	1355	1345	1350	1349	1356	1367	1371	1382	1381	1374	1377	1364	1364	1361	1360	1363	1358	1354	1345	1348	1353	1363	1371	1372	1369	1368	1371	1371	1367	1357	1354	1359	1360	1355	1349	1346	1341	1345	1350	1358	1361	1361	1355	1347	1338	1340	1350	1365	1373	1375	1373	1367	1357	1350	1350	1350	1346	1341	1340	1343	1341	1341	1342	1341	1334	1323	1321	1335	1343	1352	1358	1370	1352	0	0	0	0	1364	1374	1361	1350	1339	1326	1325	1323	1318	1319	1325	1319	1330	1331	1330	1322	1323	1322	1309	1299	1295	1304	1319	1333	1333	1325	1324	1318	1313	1314	1322	1325	1313	1325	1327	1328	1322	1318	1319	1322	1323	1327	1325	1315	1308	1305	1308	1317	1325	1327	1321	1319	1319	1309	1301	1301	1308	1321	1325	1324	1320	1322	1326	1326	1315	1301	1291	1288	1286	1289	1289	1288	1292	1302	1312	1318	1314	1310	1310	1306	1302	1307	1308	1313	1318	1324	1310	1311	1313	1317	1318	1314	1316	1314	1307	1295	1287	1285	1285	1288	1300	1309	1308	1304	1301	1304	1309	1309	1308	1314	1310	1307	1300	1296	1290	1288	1293	1300	1310	1310	1306	1288	1280	1287	1285	1290	1288	1287	1285	1287	1296	1298	1299	1299	1298	1299	1304	1313	1307	1309	1306	1301	1296	1289	1284	1284	1283	1275	1272	1273	1281	1286	1291	1291	1289	1289	1280	1272	1275	1278	1283	1289	1293	1289	1280	1274	1275	1276	1268	1264	1264	1271	1279	1295	1337	0	0	0	0	0	0	0	0	0	0	0	0	0	0	0	0	0	1419	1424	1438	1452	1467	1461	1444	1430	1421	1415	1400	1394	1377	1377	1375	1364	1341	1337	1337	1343	1350	1358	1369	1362	1355	1346	1340	1347	1355	1360	1357	1349	1338	1336	1336	1350	1373	1371	1361	1351	0	0	0	0	0	0	0
0	0	0	0	0	0	0	0	0	0	0	1492	1470	1464	1464	1451	1443	1432	1423	1418	1434	1434	1446	1450	1434	1427	1428	1429	1418	1418	1413	1413	1420	1445	1465	1457	1450	1444	1452	1452	1461	1462	1470	1467	1464	1461	1448	1439	1442	1450	1461	1461	1464	1464	1457	1443	1435	1440	1449	1464	1481	1490	1491	1469	1448	1451	1451	1453	1444	1440	1439	1438	1438	1440	1443	1451	1450	1441	1427	1414	1410	1414	1427	1431	1427	1418	1414	1418	1426	1445	1461	1471	1484	1487	1485	1476	1465	1457	1453	1442	1432	1427	1432	1445	1455	1452	1448	1456	1451	1449	1449	1441	1437	1434	1447	1468	1495	1484	1469	1462	1462	1467	1468	1462	1458	1457	1453	1447	1441	1430	1429	1442	1448	1459	1478	1475	1471	1459	1442	1440	1449	1456	1469	1480	1472	1468	1465	1455	1451	1451	1449	1452	1451	1439	1404	1397	1400	1399	1404	1411	1421	1437	1447	1438	1424	1413	1408	1398	1377	1373	1377	1396	1413	1423	1429	1423	1408	1399	1400	1401	1392	1399	1403	1407	1409	1417	1418	1404	1402	1398	1396	1378	1375	1384	1387	1387	1433	1443	1445	1430	1397	0	0	0	0	0	0	0	0	0	0	0	0	0	0	0	0	0	0	0	0	0	0	0	0	0	0	0	1680	1679	1677	1673	1671	1685	1685	1704	1592	1555	1504	1411	1394	1386	1391	1369	1363	1355	1349	1344	1341	1353	1356	1360	1364	1370	1376	1375	1368	1367	1367	1379	1379	1372	1359	1346	1342	1334	1336	1337	1345	1355	1362	1371	1378	1380	1367	1355	1364	1373	1370	1369	1364	1361	1350	1356	1362	1363	1358	1353	1358	1362	1355	1354	1347	1347	1346	1338	1338	1343	1341	1337	1335	1339	1347	1350	1351	1351	1353	1353	1356	1365	1364	1374	1375	1368	1353	1336	1332	1343	1357	1368	1369	1360	1353	1344	1340	1341	1339	1342	1348	1361	1375	1382	1378	1375	1367	1357	1352	1348	1348	1352	1350	1352	1346	1350	1353	1358	1368	1369	1368	1369	1368	1365	1361	1351	1348	1352	1354	1346	1344	1338	1337	1338	1342	1340	1360	1360	1346	1342	1335	1337	1348	1362	1371	1373	1365	1360	1351	1349	1353	1356	1349	1346	1344	1346	1351	1351	1349	1346	1336	1329	1328	1332	1337	1347	1352	1360	1338	0	0	0	0	1348	1368	1357	1348	1332	1325	1322	1329	1324	1324	1320	1327	1335	1339	1344	1335	1327	1327	1316	1305	1302	1308	1321	1330	1331	1329	1330	1324	1315	1319	1325	1327	1317	1328	1333	1331	1326	1322	1321	1328	1327	1329	1326	1323	1315	1315	1317	1322	1326	1324	1316	1315	1314	1313	1302	1295	1302	1305	1317	1321	1321	1327	1338	1333	1324	1304	1292	1288	1284	1285	1291	1291	1296	1298	1312	1312	1308	1301	1298	1300	1303	1308	1310	1310	1312	1314	1307	1308	1309	1313	1312	1312	1313	1317	1315	1301	1291	1291	1289	1288	1303	1312	1305	1300	1293	1298	1308	1313	1311	1314	1319	1318	1306	1299	1290	1281	1283	1296	1307	1311	1303	1291	1279	1278	1281	1284	1288	1291	1296	1300	1305	1300	1297	1296	1288	1280	1293	1293	1298	1306	1306	1304	1295	1298	1299	1301	1291	1285	1271	1275	1274	1277	1285	1290	1282	1277	1275	1270	1270	1275	1283	1288	1289	1281	1274	1273	1273	1273	1267	1265	1262	1264	1278	1300	0	0	0	0	0	0	0	0	0	0	0	0	0	0	0	0	0	0	0	1436	1438	1455	1464	1459	1445	1435	1428	1410	1399	1392	1368	1370	1371	1358	1346	1343	1343	1343	1343	1347	1352	1356	1353	1347	1343	1351	1361	1363	1355	1337	1328	1330	1330	1349	1363	1374	1369	1361	0	0	0	0	0	0	0
0	0	0	0	0	0	0	0	0	0	0	1455	1450	1456	1456	1453	1451	1439	1429	1423	1429	1429	1447	1451	1444	1433	1424	1423	1419	1419	1409	1408	1425	1458	1473	1468	1455	1450	1452	1452	1464	1469	1473	1472	1468	1457	1450	1440	1440	1440	1439	1444	1443	1445	1443	1435	1428	1434	1447	1466	1484	1489	1486	1469	1435	1425	1429	1431	1436	1436	1440	1447	1447	1452	1457	1452	1449	1448	1438	1427	1417	1412	1418	1431	1424	1418	1423	1428	1439	1451	1461	1464	1472	1475	1476	1476	1465	1455	1448	1443	1436	1440	1444	1454	1462	1467	1463	1464	1461	1466	1453	1445	1433	1430	1436	1472	1504	1503	1488	1481	1479	1478	1475	1473	1467	1460	1463	1461	1448	1442	1445	1454	1463	1462	1471	1469	1463	1453	1445	1440	1446	1457	1464	1473	1468	1464	1465	1465	1470	1476	1469	1454	1440	1416	1390	1389	1394	1401	1403	1407	1424	1436	1434	1429	1421	1416	1411	1403	1383	1383	1388	1413	1421	1427	1425	1416	1391	1389	1401	1394	1391	1400	1404	1416	1427	1431	1426	1413	1396	1388	1387	1370	1368	1379	1381	1370	1403	1417	1425	1407	1392	0	0	0	0	0	0	0	0	0	0	0	0	0	0	0	0	0	0	0	0	0	0	0	0	0	0	0	1670	1673	1677	1673	1666	1657	1665	1661	1584	1546	1499	1404	1394	1397	1391	1373	1366	1361	1356	1353	1341	1345	1354	1364	1374	1383	1385	1385	1385	1379	1374	1370	1363	1367	1359	1346	1342	1336	1336	1340	1348	1351	1360	1374	1381	1380	1354	1348	1354	1361	1366	1362	1356	1349	1345	1361	1370	1367	1354	1350	1352	1362	1361	1360	1348	1344	1352	1347	1354	1349	1341	1330	1333	1341	1347	1347	1346	1345	1346	1352	1352	1353	1359	1364	1373	1368	1353	1335	1333	1339	1353	1364	1369	1363	1350	1343	1341	1345	1339	1338	1343	1354	1365	1370	1369	1359	1342	1331	1334	1340	1348	1352	1354	1351	1352	1347	1351	1347	1354	1360	1361	1370	1368	1363	1359	1355	1354	1348	1350	1343	1331	1330	1327	1327	1333	1341	1353	1352	1346	1341	1333	1333	1339	1349	1359	1363	1363	1352	1344	1346	1352	1354	1358	1352	1344	1350	1355	1361	1356	1350	1344	1340	1339	1338	1345	1349	1350	1348	1337	0	0	0	0	1334	1354	1348	1348	1344	1328	1331	1330	1329	1320	1322	1329	1337	1355	1356	1348	1340	1330	1321	1316	1311	1315	1320	1324	1324	1322	1320	1314	1313	1316	1323	1329	1325	1321	1320	1328	1323	1323	1332	1335	1336	1330	1327	1324	1320	1318	1319	1319	1322	1315	1311	1313	1317	1308	1304	1307	1300	1302	1314	1320	1325	1331	1333	1331	1325	1312	1316	1310	1295	1291	1299	1301	1305	1312	1310	1310	1302	1295	1294	1296	1302	1305	1307	1303	1302	1305	1298	1296	1293	1294	1304	1308	1313	1319	1315	1308	1296	1289	1288	1296	1312	1309	1304	1296	1286	1288	1300	1305	1309	1315	1320	1320	1318	1308	1293	1272	1275	1291	1304	1315	1309	1299	1286	1277	1275	1280	1285	1294	1301	1305	1302	1304	1293	1286	1283	1283	1282	1288	1296	1301	1306	1306	1298	1292	1291	1287	1292	1289	1278	1279	1273	1275	1280	1285	1279	1279	1271	1271	1272	1277	1278	1283	1279	1275	1272	1271	1274	1276	1272	1265	1262	1270	1298	1313	0	0	0	0	0	0	0	0	0	0	0	0	0	0	0	0	0	0	0	0	1457	1467	1464	1466	1451	1438	1432	1403	1396	1396	1362	1355	1348	1345	1358	1359	1350	1350	1344	1347	1347	1349	1349	1353	1350	1348	1348	1357	1348	1333	1326	1331	1331	1346	1364	1372	1368	1363	0	0	0	0	0	0	0
0	0	0	0	0	0	0	0	0	0	1471	1444	1457	1461	1461	1467	1458	1445	1435	1430	1443	1443	1449	1443	1439	1436	1439	1427	1416	1416	1412	1415	1433	1460	1468	1468	1461	1448	1459	1459	1468	1469	1470	1468	1460	1458	1451	1445	1452	1449	1446	1446	1446	1441	1435	1429	1421	1425	1435	1455	1467	1476	1475	1464	1433	1423	1422	1425	1435	1443	1445	1448	1448	1453	1457	1456	1457	1457	1450	1439	1429	1421	1424	1431	1431	1416	1431	1440	1446	1446	1452	1459	1459	1461	1467	1471	1469	1463	1450	1446	1448	1455	1459	1463	1468	1471	1485	1475	1491	1484	1467	1454	1435	1427	1430	1465	1497	1498	1477	1483	1483	1486	1484	1482	1477	1472	1472	1470	1461	1455	1458	1465	1464	1461	1461	1462	1463	1458	1452	1454	1457	1463	1460	1465	1469	1467	1473	1479	1486	1494	1490	1461	1432	1393	1371	1376	1391	1399	1399	1403	1415	1427	1413	1406	1410	1414	1416	1408	1395	1402	1417	1418	1423	1419	1412	1404	1371	1378	1390	1394	1395	1399	1410	1422	1436	1440	1429	1416	1395	1387	1386	1370	1365	1367	1373	1356	1384	1395	1408	1396	0	0	0	0	0	0	0	0	0	0	0	0	0	0	0	0	0	0	0	0	0	0	0	0	0	0	0	0	1683	1667	1671	1670	1664	1661	1655	1659	1595	1538	1502	1405	1396	1399	1396	1373	1368	1370	1372	1363	1345	1347	1357	1372	1382	1391	1392	1392	1390	1381	1368	1361	1355	1357	1358	1353	1341	1340	1340	1343	1347	1350	1353	1370	1380	1378	1353	1346	1349	1358	1365	1364	1354	1346	1344	1349	1368	1364	1352	1346	1356	1363	1367	1363	1358	1354	1357	1361	1362	1353	1341	1337	1340	1344	1348	1347	1341	1340	1345	1350	1346	1350	1355	1357	1370	1372	1359	1343	1339	1342	1345	1353	1358	1352	1348	1350	1353	1356	1354	1340	1338	1341	1349	1355	1350	1337	1326	1313	1326	1339	1347	1353	1352	1354	1353	1350	1348	1348	1350	1350	1360	1369	1369	1363	1354	1356	1358	1354	1347	1339	1326	1323	1322	1321	1326	1331	1342	1349	1349	1344	1339	1329	1332	1340	1347	1356	1355	1352	1346	1345	1345	1353	1358	1356	1350	1345	1357	1361	1360	1355	1347	1341	1341	1345	1346	1351	1348	1339	1339	0	0	0	0	1298	1333	1341	1345	1345	1333	1331	1333	1329	1326	1325	1329	1348	1367	1369	1359	1345	1334	1328	1321	1315	1314	1318	1321	1323	1321	1318	1314	1311	1314	1322	1327	1316	1314	1314	1313	1314	1318	1328	1335	1332	1326	1325	1319	1319	1315	1312	1311	1311	1307	1304	1311	1319	1310	1298	1306	1311	1307	1307	1313	1318	1321	1325	1319	1315	1311	1314	1312	1307	1300	1296	1302	1311	1319	1317	1309	1302	1293	1293	1294	1306	1310	1309	1301	1293	1302	1310	1308	1293	1292	1296	1309	1311	1306	1304	1305	1296	1293	1296	1306	1308	1306	1302	1296	1288	1285	1291	1299	1305	1309	1316	1317	1315	1314	1295	1276	1279	1290	1306	1319	1316	1303	1293	1275	1273	1269	1277	1280	1285	1286	1292	1291	1295	1287	1280	1275	1275	1279	1288	1297	1299	1302	1293	1278	1269	1268	1272	1282	1282	1279	1276	1278	1279	1282	1285	1286	1283	1276	1275	1277	1280	1278	1273	1272	1268	1266	1277	1284	1276	1264	1256	1284	1326	0	0	0	0	0	0	0	0	0	0	0	0	0	0	0	0	0	0	0	0	0	1477	1478	1474	1464	1450	1439	1428	1408	1406	1405	1362	1348	1333	1323	1355	1373	1364	1364	1358	1357	1355	1362	1363	1357	1353	1353	1350	1347	1345	1338	1329	1343	1343	1355	1360	1363	1362	1363	0	0	0	0	0	0	0
0	0	0	0	0	0	0	0	0	0	0	1483	1495	1490	1490	1484	1465	1454	1454	1452	1457	1457	1453	1448	1441	1436	1450	1436	1421	1421	1415	1417	1436	1452	1459	1455	1449	1443	1451	1451	1462	1469	1467	1460	1452	1455	1455	1457	1457	1457	1452	1452	1441	1438	1442	1446	1445	1436	1442	1451	1459	1465	1462	1454	1438	1439	1430	1435	1438	1445	1430	1432	1432	1441	1447	1456	1469	1471	1464	1455	1449	1435	1436	1436	1430	1434	1439	1448	1449	1437	1444	1456	1456	1452	1454	1460	1467	1469	1467	1457	1459	1461	1467	1473	1467	1474	1488	1492	1497	1491	1476	1463	1444	1426	1438	1463	1477	1472	1476	1470	1479	1481	1486	1484	1480	1472	1473	1469	1465	1465	1467	1465	1462	1458	1461	1462	1460	1467	1464	1463	1460	1467	1467	1468	1472	1477	1482	1490	1494	1492	1480	1458	1422	1394	1367	1367	1386	1395	1387	1394	1408	1420	1405	1397	1403	1407	1414	1409	1406	1420	1428	1433	1417	1410	1398	1387	1369	1385	1390	1393	1391	1397	1409	1421	1431	1428	1423	1410	1403	1398	1396	1381	1378	1368	1382	1368	1379	1416	1435	1440	0	0	0	0	0	0	0	0	0	0	0	0	0	0	0	0	0	0	0	0	0	0	0	0	0	0	0	0	1681	1675	1672	1675	1667	1661	1658	1660	1621	1566	1530	1459	1396	1389	1392	1376	1377	1376	1379	1369	1354	1354	1354	1374	1386	1384	1384	1383	1383	1377	1366	1350	1349	1351	1349	1345	1345	1337	1335	1335	1335	1342	1349	1362	1371	1372	1353	1351	1358	1359	1360	1363	1360	1350	1348	1353	1347	1355	1341	1347	1350	1359	1359	1356	1354	1350	1358	1364	1359	1351	1339	1335	1341	1350	1351	1348	1335	1334	1346	1347	1346	1347	1343	1359	1363	1373	1368	1361	1353	1342	1341	1343	1343	1343	1345	1350	1360	1366	1356	1342	1334	1338	1341	1340	1336	1328	1321	1321	1325	1334	1346	1354	1355	1355	1353	1351	1341	1338	1339	1340	1356	1363	1364	1355	1352	1349	1346	1347	1347	1348	1338	1326	1321	1317	1317	1321	1332	1346	1351	1352	1342	1331	1326	1330	1338	1344	1354	1356	1353	1352	1348	1354	1359	1357	1347	1338	1341	1343	1339	1335	1334	1332	1332	1338	1342	1349	1348	1339	1340	1366	0	0	0	0	1334	1339	1343	1340	1332	1333	1332	1326	1322	1324	1332	1348	1363	1369	1360	1348	1335	1325	1322	1318	1314	1313	1316	1321	1319	1318	1312	1308	1313	1321	1320	1303	1297	1301	1304	1308	1312	1317	1324	1320	1320	1321	1318	1315	1311	1304	1297	1296	1297	1298	1308	1318	1301	1294	1297	1302	1301	1301	1305	1310	1316	1317	1313	1311	1307	1310	1309	1299	1288	1286	1291	1298	1306	1307	1303	1298	1304	1317	1318	1313	1315	1318	1316	1305	1306	1312	1309	1311	1303	1309	1311	1304	1301	1292	1296	1293	1297	1308	1309	1298	1299	1301	1301	1297	1293	1296	1299	1302	1305	1310	1310	1306	1309	1304	1290	1289	1301	1315	1324	1322	1313	1296	1279	1266	1266	1269	1272	1272	1270	1270	1285	1283	1293	1284	1272	1271	1271	1281	1291	1296	1299	1289	1272	1261	1253	1257	1269	1278	1279	1278	1277	1274	1279	1281	1277	1275	1274	1276	1278	1275	1273	1269	1267	1267	1270	1280	1284	1276	1262	1260	1305	1363	0	0	0	0	0	0	0	0	0	0	0	0	0	0	0	0	0	0	0	0	0	1492	1484	1471	1454	1445	1427	1426	1411	1414	1409	1374	1360	1327	1305	1345	1347	1352	1352	1364	1362	1359	1358	1353	1351	1347	1345	1334	1327	1320	1319	1343	1350	1350	1353	1346	1354	1352	1358	0	0	0	0	0	0	0
0	0	0	1455	0	0	0	0	0	0	0	0	0	1685	1685	1480	1474	1466	1467	1465	1467	1467	1456	1445	1437	1444	1457	1455	1433	1433	1424	1424	1440	1446	1438	1434	1422	1425	1440	1440	1457	1465	1467	1457	1447	1448	1455	1456	1459	1458	1455	1455	1448	1441	1447	1454	1457	1461	1455	1462	1462	1457	1450	1440	1452	1464	1457	1450	1449	1441	1430	1430	1423	1427	1443	1466	1484	1472	1463	1457	1456	1443	1441	1438	1433	1437	1444	1445	1440	1435	1443	1449	1456	1452	1454	1455	1459	1464	1463	1459	1461	1460	1468	1459	1456	1464	1483	1493	1498	1494	1484	1480	1461	1440	1452	1460	1458	1452	1452	1461	1466	1472	1479	1478	1474	1468	1468	1470	1471	1470	1466	1456	1450	1453	1445	1452	1469	1472	1464	1458	1459	1455	1464	1460	1471	1475	1482	1489	1490	1478	1469	1445	1422	1411	1374	1381	1392	1388	1388	1397	1407	1414	1400	1395	1398	1406	1414	1414	1416	1423	1428	1422	1409	1408	1397	1390	1384	1390	1402	1393	1390	1391	1397	1404	1415	1411	1408	1401	1401	1402	1413	1417	1412	1409	1404	1412	1416	1424	1443	1442	1447	0	0	0	0	0	0	0	0	0	0	0	0	0	0	0	0	0	0	0	0	0	0	0	0	0	0	0	1688	1692	1671	1672	1666	1665	1665	1667	1652	0	1552	1472	1401	1388	1379	1381	1379	1384	1379	1365	1352	1357	1360	1372	1379	1375	1370	1370	1373	1373	1368	1352	1339	1341	1344	1346	1346	1335	1330	1322	1327	1338	1340	1347	1366	1366	1366	1362	1357	1360	1366	1362	1359	1351	1352	1350	1345	1341	1337	1345	1346	1346	1345	1342	1345	1350	1357	1361	1357	1345	1343	1342	1348	1354	1348	1344	1337	1334	1345	1342	1339	1336	1338	1356	1365	1366	1368	1371	1366	1350	1339	1334	1336	1339	1342	1347	1356	1358	1352	1341	1334	1336	1341	1340	1337	1330	1325	1321	1326	1336	1342	1345	1349	1343	1345	1340	1334	1331	1325	1324	1334	1350	1357	1353	1345	1341	1336	1346	1351	1352	1340	1332	1322	1312	1307	1310	1321	1340	1356	1354	1353	1340	1330	1327	1325	1339	1343	1349	1351	1352	1362	1360	1356	1347	1339	1334	1329	1327	1323	1325	1311	1311	1318	1319	1328	1337	1342	1333	1363	1350	1382	0	0	0	1336	1340	1342	1341	1331	1331	1334	1324	1319	1319	1321	1328	1333	1340	1334	1323	1314	1310	1307	1316	1293	1307	1314	1309	1316	1314	1308	1308	1314	1322	1324	1307	1289	1294	1302	1305	1311	1310	1312	1314	1316	1314	1306	1305	1303	1295	1284	1290	1296	1301	1300	1308	1300	1297	1294	1297	1294	1294	1295	1302	1307	1306	1310	1308	1308	1308	1301	1291	1286	1282	1282	1285	1290	1294	1293	1296	1307	1318	1321	1322	1323	1330	1334	1334	1322	1315	1313	1309	1313	1309	1305	1297	1281	1284	1279	1283	1286	1295	1291	1283	1288	1296	1298	1298	1300	1300	1303	1313	1308	1306	1306	1303	1302	1305	1299	1301	1306	1309	1316	1315	1308	1292	1280	1274	1273	1274	1274	1273	1269	1268	1276	1288	1298	1295	1279	1270	1266	1272	1278	1295	1302	1293	1273	1260	1253	1254	1263	1273	1280	1282	1278	1275	1276	1273	1266	1266	1274	1283	1278	1263	1257	1260	1262	1273	1282	1289	1282	1272	1256	1270	1307	1369	0	0	0	0	0	0	0	0	0	0	0	0	0	0	0	0	0	0	0	0	0	0	1474	1464	1442	1426	1420	1422	1412	1406	1403	1393	1380	1352	1334	1356	1355	1365	1365	1361	1364	1350	1347	1345	1339	1336	1335	1326	1309	1284	1345	1344	1328	1328	1319	1307	1305	1309	1315	0	0	0	0	0	0	0
0	0	0	1444	0	0	0	0	0	0	0	0	0	1500	1500	1479	1475	1469	1462	1461	1455	1455	1458	1454	1444	1451	1471	1469	1457	1457	1441	1439	1444	1451	1437	1420	1402	1407	1424	1424	1445	1454	1455	1444	1435	1437	1441	1447	1459	1457	1460	1460	1458	1452	1448	1465	1467	1476	1474	1474	1471	1466	1454	1446	1451	1458	1453	1440	1438	1440	1440	1440	1436	1431	1457	1472	1479	1475	1463	1451	1441	1443	1439	1439	1436	1443	1446	1447	1438	1431	1438	1447	1454	1458	1457	1455	1450	1454	1450	1459	1463	1464	1458	1455	1453	1447	1467	1479	1487	1490	1496	1489	1484	1471	1462	1452	1442	1439	1437	1449	1459	1466	1474	1473	1470	1469	1466	1467	1468	1471	1467	1453	1448	1450	1453	1455	1464	1474	1453	1444	1449	1454	1452	1453	1470	1469	1474	1477	1479	1473	1457	1433	1417	1414	1388	1392	1398	1396	1392	1395	1400	1407	1396	1389	1395	1405	1418	1426	1426	1431	1427	1421	1415	1416	1406	1394	1388	1396	1398	1381	1373	1378	1384	1386	1387	1392	1399	1398	1400	1405	1424	1432	1430	1418	1416	1425	1418	1424	1434	1424	1431	0	0	0	0	0	0	0	0	0	0	0	0	0	0	0	0	0	0	0	0	0	0	0	0	0	0	0	1684	1692	1676	1670	1664	1666	1677	1704	1685	0	0	1451	1407	1380	1367	1369	1374	1373	1367	1361	1351	1356	1358	1364	1366	1365	1361	1361	1366	1369	1360	1350	1340	1337	1350	1356	1356	1347	1336	1329	1334	1342	1341	1351	1353	1361	1365	1364	1359	1355	1358	1357	1352	1348	1345	1346	1343	1339	1342	1344	1341	1337	1334	1340	1334	1342	1351	1360	1354	1352	1350	1344	1351	1356	1347	1344	1337	1333	1343	1338	1337	1339	1344	1348	1354	1358	1365	1372	1366	1350	1336	1324	1324	1338	1341	1345	1348	1344	1341	1338	1335	1346	1347	1344	1339	1333	1334	1328	1328	1334	1343	1349	1345	1341	1340	1338	1330	1330	1322	1320	1329	1341	1351	1348	1343	1336	1332	1338	1346	1350	1346	1335	1323	1313	1302	1302	1311	1326	1347	1360	1354	1348	1336	1326	1325	1336	1345	1355	1347	1348	1357	1355	1343	1337	1333	1328	1323	1316	1312	1314	1315	1311	1308	1303	1312	1323	1330	1332	1377	1369	1372	1353	0	1337	1339	1341	1340	1338	1333	1333	1325	1313	1300	1308	1310	1320	1329	1340	1335	1322	1312	1304	1304	1311	1294	1310	1310	1305	1299	1301	1300	1301	1310	1319	1321	1314	1288	1287	1297	1308	1306	1305	1304	1311	1311	1311	1302	1296	1294	1288	1287	1293	1303	1311	1307	1307	1296	1295	1297	1298	1297	1294	1299	1298	1300	1302	1308	1310	1312	1307	1293	1287	1283	1285	1280	1278	1281	1284	1288	1292	1304	1306	1311	1311	1319	1331	1336	1335	1327	1318	1311	1311	1316	1312	1300	1292	1282	1273	1272	1264	1270	1278	1273	1270	1276	1287	1292	1294	1290	1293	1301	1312	1314	1306	1297	1293	1294	1301	1306	1306	1298	1298	1297	1297	1294	1288	1280	1278	1279	1283	1283	1281	1278	1272	1285	1297	1304	1298	1286	1272	1267	1266	1272	1289	1304	1299	1284	1270	1265	1262	1267	1279	1287	1290	1278	1272	1269	1263	1259	1264	1272	1276	1282	1271	1257	1256	1265	1276	1290	1295	1281	1268	1265	1283	1306	0	0	0	0	0	0	0	0	0	0	0	0	0	0	0	0	0	0	0	0	0	0	0	0	1427	1430	1424	1419	1421	1408	1407	1401	1390	1387	1367	1347	1359	1350	1354	1354	1346	1360	1354	1345	1345	1348	1329	1328	1318	1293	1326	1332	1336	1326	1326	1317	1298	1294	1290	1299	0	0	0	0	0	0	0
0	0	0	1447	0	0	0	0	0	0	0	0	0	1492	1492	1479	1465	1448	1434	1436	1439	1439	1446	1447	1446	1458	1472	1474	1472	1472	1457	1454	1451	1452	1440	1422	1404	1401	1401	1413	1433	1442	1442	1434	1419	1425	1430	1440	1445	1459	1462	1462	1454	1450	1458	1469	1477	1487	1485	1487	1484	1478	1473	1460	1467	1462	1456	1437	1437	1445	1448	1448	1443	1435	1439	1442	1446	1444	1434	1429	1435	1438	1447	1448	1442	1447	1443	1449	1446	1446	1446	1454	1457	1463	1462	1456	1446	1454	1458	1465	1467	1460	1455	1447	1446	1442	1462	1461	1452	1476	1484	1496	1492	1479	1461	1436	1431	1422	1438	1452	1464	1470	1469	1468	1472	1466	1466	1466	1468	1467	1469	1459	1457	1453	1454	1452	1456	1466	1451	1441	1435	1435	1440	1448	1463	1463	1463	1465	1467	1456	1456	1422	1414	1412	1394	1396	1399	1403	1403	1408	1412	1400	1390	1391	1398	1407	1424	1436	1444	1438	1432	1436	1442	1437	1428	1416	1401	1402	1394	1386	1371	1376	1381	1386	1389	1395	1407	1407	1412	1416	1427	1442	1445	1423	1420	1428	1425	1428	1415	1412	1414	0	0	0	0	0	0	0	0	0	0	0	0	0	0	0	0	0	0	0	0	0	0	0	0	0	0	0	1686	1694	1681	1670	1667	1667	1702	1680	1724	1642	1495	1451	1411	1384	1365	1364	1364	1356	1355	1354	1353	1353	1359	1356	1359	1361	1360	1352	1361	1364	1359	1348	1342	1347	1359	1370	1367	1355	1350	1347	1350	1354	1347	1348	1360	1360	1361	1361	1359	1355	1353	1348	1346	1342	1338	1341	1341	1342	1346	1346	1341	1335	1334	1332	1332	1338	1345	1356	1354	1358	1359	1358	1357	1356	1340	1335	1336	1332	1330	1331	1333	1341	1349	1354	1354	1356	1362	1367	1359	1343	1329	1321	1329	1340	1348	1348	1344	1337	1334	1333	1336	1347	1352	1343	1336	1340	1339	1336	1336	1338	1339	1343	1340	1346	1347	1345	1342	1336	1327	1324	1334	1343	1347	1349	1343	1331	1328	1333	1340	1348	1344	1337	1325	1314	1308	1307	1313	1323	1339	1348	1348	1337	1333	1326	1326	1339	1347	1342	1338	1336	1346	1341	1332	1328	1326	1328	1321	1317	1308	1311	1315	1313	1304	1298	1302	1317	1333	1340	1385	1397	1383	0	0	1315	1344	1343	1339	1333	1324	1321	1320	1312	1301	1297	1300	1312	1314	1322	1324	1322	1314	1303	1310	1309	1317	1313	1313	1305	1300	1299	1303	1303	1301	1311	1324	1322	1295	1286	1295	1305	1307	1302	1305	1309	1310	1309	1298	1296	1288	1287	1294	1309	1319	1327	1329	1314	1294	1293	1296	1295	1282	1283	1300	1301	1296	1300	1304	1310	1309	1301	1291	1288	1289	1295	1289	1282	1281	1280	1284	1285	1292	1297	1288	1302	1315	1324	1331	1336	1339	1326	1321	1322	1319	1310	1301	1283	1288	1282	1279	1271	1271	1270	1267	1267	1272	1276	1278	1273	1275	1281	1295	1304	1296	1288	1291	1287	1285	1286	1298	1297	1287	1282	1278	1286	1287	1288	1283	1280	1278	1278	1280	1278	1280	1279	1284	1293	1296	1299	1291	1283	1277	1268	1274	1295	1312	1306	1294	1283	1272	1274	1278	1288	1296	1296	1282	1270	1261	1258	1265	1273	1277	1281	1283	1268	1259	1262	1276	1291	1301	1299	1286	1284	1279	1290	1300	0	0	0	0	0	0	0	0	0	0	0	0	0	0	0	0	0	0	0	0	0	0	0	0	1444	1427	1423	1421	1422	1413	1406	1404	1398	1391	1372	1359	1354	1341	1330	1330	1340	1346	1346	1349	1347	1350	1336	1332	1329	1320	1317	1323	1327	1327	1327	1320	1285	1274	1280	1292	0	0	0	0	0	0	0
0	0	0	1464	1466	1465	0	0	0	0	0	0	1501	1481	1481	1479	1465	1447	1427	1424	1429	1429	1439	1442	1446	1457	1465	1473	1478	1478	1472	1466	1457	1453	1441	1425	1414	1409	1409	1415	1423	1437	1436	1425	1414	1417	1426	1435	1445	1457	1453	1453	1453	1451	1463	1475	1482	1487	1482	1486	1483	1485	1483	1477	1477	1465	1452	1446	1449	1457	1458	1458	1443	1433	1424	1426	1426	1431	1429	1429	1439	1437	1445	1447	1448	1445	1444	1453	1462	1463	1464	1467	1467	1460	1454	1452	1450	1449	1461	1468	1475	1471	1460	1449	1443	1443	1445	1443	1432	1453	1486	1496	1495	1488	1455	1444	1438	1437	1455	1462	1469	1481	1470	1463	1465	1471	1472	1471	1466	1470	1477	1470	1466	1465	1461	1460	1461	1460	1459	1445	1432	1427	1437	1456	1459	1469	1461	1458	1458	1456	1444	1425	1417	1417	1402	1399	1392	1384	1387	1399	1403	1401	1399	1402	1415	1419	1429	1434	1452	1447	1435	1433	1441	1433	1434	1428	1418	1415	1418	1408	1391	1379	1378	1377	1387	1396	1409	1411	1411	1414	1434	1443	1436	1411	1415	1426	1432	1427	1400	1390	1403	0	0	0	0	0	0	0	0	0	0	0	0	0	0	0	0	0	0	0	0	0	0	0	0	0	0	0	1687	1693	1680	1671	1666	1670	1687	1678	1713	1647	1496	1458	1412	1394	1363	1359	1356	1350	1351	1356	1355	1352	1355	1359	1359	1356	1364	1360	1363	1367	1359	1344	1343	1348	1361	1370	1369	1360	1358	1361	1367	1364	1360	1356	1355	1351	1355	1360	1365	1363	1361	1353	1345	1340	1335	1342	1355	1352	1350	1348	1349	1346	1341	1339	1336	1337	1348	1350	1355	1369	1367	1363	1360	1352	1341	1331	1325	1323	1324	1326	1330	1342	1357	1364	1367	1364	1364	1363	1353	1341	1328	1325	1331	1340	1345	1348	1344	1336	1327	1330	1339	1350	1342	1336	1334	1338	1342	1338	1340	1343	1347	1336	1340	1345	1346	1345	1345	1340	1335	1335	1344	1350	1350	1351	1342	1328	1321	1325	1334	1341	1342	1336	1330	1316	1307	1311	1313	1318	1322	1332	1343	1341	1334	1327	1322	1332	1338	1332	1329	1332	1334	1333	1323	1322	1323	1330	1331	1326	1316	1317	1325	1319	1311	1304	1306	1318	1335	1348	1387	1414	1395	0	1328	1305	1326	1324	1330	1325	1316	1316	1316	1314	1309	1298	1303	1311	1306	1314	1325	1321	1314	1311	1312	1320	1324	1324	1322	1305	1303	1305	1312	1311	1308	1311	1316	1318	1293	1288	1302	1302	1305	1303	1301	1305	1305	1304	1305	1295	1294	1298	1310	1327	1332	1331	1327	1318	1296	1298	1296	1286	1277	1276	1296	1297	1288	1267	1263	1276	1297	1312	1321	1328	1319	1299	1297	1287	1285	1288	1293	1293	1290	1288	1289	1298	1308	1318	1322	1333	1332	1330	1333	1329	1318	1308	1298	1285	1285	1294	1291	1292	1291	1288	1281	1266	1270	1275	1280	1273	1275	1275	1284	1291	1281	1286	1291	1291	1280	1267	1248	1255	1264	1267	1269	1275	1281	1286	1277	1280	1281	1279	1270	1264	1267	1277	1286	1294	1298	1295	1300	1302	1295	1290	1291	1303	1316	1311	1299	1291	1285	1285	1287	1294	1298	1298	1287	1271	1260	1266	1278	1291	1299	1296	1285	1271	1262	1267	1287	1301	1303	1288	1298	1314	1343	1349	0	0	0	0	0	0	0	0	0	0	0	0	0	0	0	0	0	0	0	0	0	0	0	0	0	0	1474	1428	1421	1426	1415	1436	1411	1406	1388	1373	1362	1354	1344	1333	1333	1347	1348	1348	1347	1349	1352	1345	1348	1345	1323	1315	1323	1325	1331	1331	1327	1284	1269	1284	1303	0	0	0	0	0	0	0
0	0	0	1473	1467	1464	1464	1464	0	0	0	1492	1487	1480	1480	1475	1469	1450	1441	1433	1440	1440	1435	1449	1451	1458	1461	1465	1469	1469	1479	1473	1463	1450	1438	1429	1422	1422	1422	1423	1428	1436	1440	1430	1425	1421	1433	1445	1452	1450	1444	1444	1438	1450	1465	1481	1490	1493	1471	1462	1465	1473	1485	1484	1473	1468	1462	1460	1464	1471	1468	1468	1455	1437	1430	1420	1425	1434	1443	1443	1443	1437	1436	1437	1440	1442	1449	1453	1459	1459	1463	1471	1467	1460	1449	1445	1442	1449	1456	1464	1473	1474	1473	1466	1457	1450	1459	1449	1457	1468	1479	1490	1499	1505	1506	1492	1479	1477	1477	1473	1471	1471	1469	1469	1476	1483	1491	1477	1467	1467	1481	1474	1469	1469	1472	1471	1464	1455	1450	1439	1440	1439	1452	1473	1487	1488	1484	1476	1466	1454	1441	1423	1431	1437	1415	1404	1384	1370	1372	1391	1399	1404	1402	1408	1415	1419	1421	1419	1423	1435	1425	1417	1420	1420	1424	1423	1417	1424	1428	1422	1407	1388	1379	1377	1386	1395	1405	1408	1411	1417	1434	1442	1405	1400	1403	1430	1432	1431	1397	1401	0	0	0	0	0	0	0	0	0	0	0	0	0	0	0	0	0	0	0	0	0	0	0	0	0	0	0	0	1705	1709	1696	1666	1665	1668	1662	1708	1710	1593	0	0	1427	1417	1372	1364	1365	1362	1360	1364	1359	1351	1355	1355	1351	1361	1360	1379	1371	1373	1369	1357	1351	1350	1354	1353	1362	1362	1368	1365	1362	1361	1361	1362	1362	1344	1344	1357	1371	1382	1382	1376	1363	1355	1354	1357	1360	1356	1353	1353	1354	1356	1355	1352	1346	1340	1339	1349	1354	1358	1363	1360	1353	1345	1335	1324	1321	1324	1324	1323	1326	1341	1359	1374	1375	1374	1368	1359	1355	1339	1331	1326	1332	1341	1342	1338	1333	1333	1326	1327	1337	1343	1337	1332	1345	1343	1341	1338	1339	1347	1348	1342	1329	1334	1343	1349	1345	1338	1338	1342	1355	1361	1357	1352	1341	1328	1320	1320	1328	1337	1337	1333	1329	1318	1310	1307	1306	1312	1314	1321	1330	1336	1331	1328	1325	1331	1334	1329	1322	1325	1331	1333	1319	1319	1317	1323	1336	1330	1328	1325	1321	1322	1322	1316	1315	1326	1337	1347	1384	1409	1415	1379	1344	1314	1318	1313	1317	1321	1313	1305	1307	1308	1308	1303	1303	1308	1310	1316	1319	1319	1314	1314	1318	1332	1339	1334	1325	1301	1301	1310	1315	1315	1310	1308	1302	1304	1287	1288	1299	1303	1308	1305	1304	1304	1304	1304	1302	1301	1301	1307	1320	1331	1336	1329	1320	1313	1304	1308	1306	1289	1276	1274	1289	1294	1288	1276	1265	1278	1299	1315	1330	1337	1330	1309	1302	1297	1293	1292	1292	1293	1292	1293	1300	1303	1303	1306	1312	1316	1321	1330	1328	1321	1315	1304	1300	1292	1289	1296	1304	1297	1294	1294	1286	1266	1272	1282	1284	1277	1275	1275	1283	1291	1286	1284	1285	1285	1283	1267	1255	1265	1275	1277	1271	1280	1288	1292	1275	1279	1276	1266	1261	1253	1254	1257	1261	1263	1276	1291	1302	1311	1314	1319	1319	1320	1306	1303	1297	1306	1312	1308	1290	1279	1270	1260	1259	1250	1251	1266	1278	1283	1287	1288	1286	1284	1291	1289	1280	1276	1275	1285	1300	1326	1348	1372	0	0	0	0	0	0	0	0	0	0	0	0	0	0	0	0	0	0	0	0	0	0	0	0	0	0	0	1475	1436	1428	1424	1425	1427	1398	1384	1366	1358	1363	1352	1352	1352	1354	1352	1349	1351	1346	1350	1357	1357	1352	1334	1318	1328	1334	1337	1337	1329	1290	1274	1286	1312	0	0	0	0	0	0	0
0	0	0	1474	1465	1456	1456	1456	1455	1458	1477	1488	1485	1485	1478	1476	1465	1460	1450	1445	1426	1426	1431	1430	1442	1456	1448	1455	1463	1463	1470	1472	1466	1449	1437	1432	1428	1433	1433	1430	1434	1438	1440	1432	1424	1433	1439	1448	1451	1440	1433	1433	1431	1453	1467	1473	1479	1477	1456	1442	1450	1461	1466	1462	1454	1463	1464	1467	1476	1476	1475	1475	1460	1454	1440	1437	1438	1441	1451	1459	1450	1435	1428	1430	1437	1439	1444	1454	1453	1456	1461	1471	1467	1457	1450	1450	1448	1452	1457	1462	1473	1480	1483	1476	1466	1460	1458	1464	1472	1469	1469	1477	1495	1514	1519	1510	1480	1475	1467	1467	1466	1464	1469	1477	1486	1489	1489	1479	1468	1467	1478	1469	1461	1462	1466	1466	1463	1452	1444	1445	1441	1442	1456	1469	1481	1482	1484	1481	1471	1463	1454	1437	1449	1452	1431	1407	1381	1367	1371	1387	1396	1403	1407	1410	1417	1423	1425	1418	1408	1398	1395	1397	1398	1411	1419	1417	1410	1416	1424	1426	1415	1404	1396	1391	1388	1393	1398	1403	1409	1412	1430	1440	1400	1398	1396	1404	1434	1435	1412	0	0	0	0	0	0	0	0	0	0	0	0	0	0	0	0	0	0	0	0	0	0	0	0	0	0	0	0	0	1715	1718	1705	1679	1664	1669	1671	1697	1696	1622	0	0	1435	1411	1381	1375	1370	1371	1372	1360	1362	1357	1365	1368	1368	1369	1388	1391	1392	1383	1388	1384	1379	1361	1348	1339	1344	1361	1365	1365	1361	1354	1366	1371	1359	1345	1344	1357	1380	1397	1397	1392	1383	1379	1374	1372	1369	1370	1369	1368	1366	1362	1357	1351	1345	1337	1333	1335	1342	1351	1353	1352	1343	1331	1326	1330	1330	1336	1334	1326	1319	1327	1348	1369	1372	1363	1351	1347	1350	1345	1347	1351	1351	1345	1334	1327	1324	1324	1321	1330	1335	1337	1338	1340	1347	1340	1333	1332	1335	1347	1347	1344	1332	1333	1336	1343	1338	1334	1335	1350	1369	1375	1361	1350	1337	1328	1324	1324	1331	1330	1333	1329	1335	1326	1317	1312	1312	1315	1314	1324	1332	1334	1328	1324	1329	1334	1343	1337	1334	1343	1345	1341	1329	1313	1305	1305	1318	1331	1336	1336	1323	1332	1330	1329	1328	1327	1326	1330	1369	1403	1411	1396	1350	1329	1303	1308	1307	1310	1315	1316	1319	1311	1305	1301	1306	1308	1304	1315	1325	1318	1306	1321	1333	1344	1344	1337	1307	1300	1296	1304	1314	1307	1305	1312	1299	1292	1281	1283	1294	1306	1303	1306	1302	1304	1307	1309	1305	1302	1309	1315	1324	1330	1326	1318	1310	1308	1307	1312	1307	1287	1280	1266	1269	1280	1294	1295	1286	1293	1299	1303	1317	1338	1333	1313	1303	1301	1301	1299	1291	1285	1287	1295	1298	1299	1290	1283	1284	1291	1299	1314	1317	1319	1316	1308	1298	1289	1286	1286	1286	1284	1277	1278	1278	1273	1281	1288	1292	1285	1272	1270	1272	1273	1275	1280	1280	1284	1285	1278	1267	1276	1279	1282	1284	1286	1296	1294	1280	1270	1266	1267	1274	1270	1270	1265	1251	1257	1266	1270	1270	1274	1289	1304	1313	1320	1312	1314	1309	1312	1304	1299	1289	1278	1265	1261	1250	1254	1257	1264	1263	1268	1288	1297	1298	1292	1280	1270	1273	1285	1300	1307	1302	1308	1340	1377	0	0	0	0	0	0	0	0	0	0	0	0	0	0	0	0	0	0	0	0	0	0	0	0	0	0	0	1480	1467	1436	1418	1416	1413	1396	1381	1368	1357	1369	1369	1367	1367	1365	1358	1350	1348	1349	1353	1360	1359	1355	1346	1330	1332	1339	1339	1339	1329	1311	1282	1299	1335	0	0	0	0	0	0	0
0	0	0	1458	1444	1448	1448	1448	1450	1453	1466	1490	1489	1489	1492	1472	1459	1455	1452	1438	1436	1436	1419	1418	1430	1452	1446	1444	1451	1451	1461	1465	1468	1447	1428	1422	1423	1427	1427	1434	1437	1436	1430	1427	1427	1428	1442	1446	1443	1432	1432	1429	1430	1437	1453	1455	1454	1444	1438	1435	1459	1458	1457	1446	1433	1446	1456	1465	1471	1464	1466	1466	1465	1460	1452	1450	1449	1452	1469	1462	1458	1436	1438	1445	1452	1459	1452	1451	1453	1455	1457	1462	1465	1458	1461	1468	1462	1464	1464	1466	1468	1474	1480	1475	1468	1458	1467	1467	1471	1461	1452	1461	1490	1511	1523	1516	1494	1464	1459	1464	1471	1466	1468	1473	1486	1492	1486	1471	1464	1467	1470	1465	1465	1461	1456	1457	1455	1450	1447	1444	1444	1448	1450	1466	1473	1463	1466	1476	1470	1463	1460	1450	1454	1454	1433	1411	1398	1381	1381	1384	1394	1396	1412	1414	1421	1426	1430	1420	1411	1402	1397	1396	1401	1407	1410	1406	1399	1405	1412	1419	1418	1417	1410	1405	1397	1399	1400	1403	1407	1403	1422	1428	1405	1407	1407	1400	1409	1424	1421	0	0	0	0	0	0	0	0	0	0	0	0	0	0	0	0	0	0	0	0	0	0	0	0	0	0	0	0	0	1699	1706	1699	1678	1669	1669	1682	1697	1688	0	0	0	1432	1408	1408	1403	1394	1370	1363	1360	1364	1365	1374	1377	1377	1378	1388	1396	1393	1387	1383	1379	1376	1370	1353	1345	1342	1350	1358	1359	1364	1362	1366	1367	1362	1358	1361	1374	1393	1396	1389	1383	1376	1379	1375	1372	1368	1362	1361	1360	1363	1359	1355	1349	1341	1336	1334	1335	1340	1356	1363	1353	1344	1329	1324	1324	1328	1337	1336	1332	1327	1332	1345	1355	1355	1345	1342	1345	1354	1357	1354	1350	1350	1348	1343	1331	1327	1327	1320	1324	1334	1339	1343	1349	1348	1340	1334	1337	1345	1348	1346	1342	1333	1330	1331	1347	1348	1346	1342	1343	1365	1370	1359	1347	1335	1319	1317	1311	1318	1320	1318	1323	1335	1338	1336	1343	1341	1332	1325	1323	1333	1336	1334	1332	1338	1345	1345	1333	1327	1339	1345	1341	1329	1313	1306	1304	1316	1332	1343	1338	1327	1322	1343	1345	1333	1324	1321	1320	1329	1377	1395	1397	1357	1342	1311	1313	1316	1321	1328	1343	1334	1324	1314	1306	1302	1304	1313	1319	1328	1322	1319	1319	1337	1344	1345	1338	1326	1298	1302	1317	1322	1311	1311	1324	1312	1300	1282	1287	1298	1305	1297	1295	1296	1302	1305	1309	1302	1303	1308	1316	1327	1329	1325	1315	1311	1308	1310	1294	1290	1288	1284	1273	1266	1269	1284	1294	1292	1290	1296	1301	1302	1302	1306	1307	1301	1299	1303	1301	1291	1285	1286	1294	1295	1286	1281	1274	1278	1287	1297	1317	1316	1322	1311	1310	1305	1296	1289	1287	1285	1284	1283	1283	1280	1285	1289	1300	1295	1286	1277	1272	1270	1277	1278	1280	1278	1289	1291	1288	1286	1276	1275	1278	1282	1293	1299	1298	1286	1269	1270	1276	1283	1287	1284	1278	1251	1253	1265	1270	1269	1273	1282	1297	1305	1308	1308	1299	1291	1283	1280	1277	1278	1282	1273	1272	1264	1266	1265	1259	1260	1264	1282	1300	1307	1297	1275	1269	1279	1297	1308	1313	1306	1295	1313	1368	0	0	0	0	0	0	0	0	0	0	0	0	0	0	0	0	0	0	0	0	0	0	0	0	0	0	0	0	1472	1455	1405	1409	1405	1401	1393	1375	1356	1370	1371	1369	1368	1368	1357	1344	1340	1343	1350	1359	1356	1356	1352	1345	1337	1315	1302	1302	1289	1288	1307	1321	1342	0	0	0	0	0	0	0
0	0	0	1459	1450	1435	1428	1428	1439	1441	1461	1471	1485	1485	1478	1462	1446	1442	1453	1450	1437	1437	1421	1413	1426	1445	1435	1434	1435	1435	1445	1453	1458	1442	1425	1418	1414	1417	1417	1423	1426	1426	1422	1420	1426	1435	1436	1438	1428	1426	1426	1429	1436	1440	1442	1437	1427	1429	1426	1438	1440	1460	1445	1432	1432	1440	1452	1457	1459	1457	1461	1461	1463	1464	1457	1454	1446	1445	1446	1453	1449	1442	1442	1449	1456	1461	1456	1452	1442	1444	1455	1464	1468	1467	1470	1474	1472	1474	1470	1469	1466	1468	1469	1472	1467	1461	1460	1462	1458	1455	1449	1467	1483	1507	1512	1511	1502	1466	1469	1475	1480	1473	1471	1473	1487	1486	1485	1472	1465	1459	1466	1470	1467	1459	1459	1448	1446	1445	1446	1448	1446	1451	1456	1459	1462	1456	1455	1469	1471	1472	1457	1451	1452	1446	1423	1414	1408	1402	1386	1381	1387	1397	1415	1418	1426	1433	1439	1432	1421	1412	1402	1397	1399	1402	1404	1402	1392	1395	1403	1409	1417	1423	1419	1420	1413	1411	1407	1409	1406	1401	1416	1419	1417	1415	1415	1412	1411	1416	1428	0	0	0	0	0	0	0	0	0	0	0	0	0	0	0	0	0	0	0	0	0	0	0	0	0	0	0	0	0	1693	1695	1689	1681	1678	1681	1693	1703	1680	0	0	0	1448	1438	1416	1410	1396	1379	1369	1374	1374	1377	1383	1376	1373	1377	1379	1384	1381	1378	1370	1369	1373	1372	1359	1351	1341	1346	1357	1360	1360	1366	1372	1371	1368	1361	1368	1378	1382	1383	1373	1359	1360	1362	1368	1371	1359	1347	1324	1323	1322	1332	1340	1343	1341	1341	1349	1354	1353	1355	1360	1354	1345	1333	1322	1320	1329	1340	1348	1356	1352	1356	1358	1355	1345	1341	1343	1343	1353	1364	1359	1354	1348	1346	1343	1340	1341	1334	1324	1325	1331	1336	1348	1352	1344	1335	1336	1343	1348	1351	1346	1339	1341	1338	1338	1347	1347	1348	1341	1338	1345	1353	1352	1348	1339	1317	1318	1321	1324	1314	1307	1312	1326	1346	1349	1349	1348	1335	1324	1324	1327	1334	1347	1345	1352	1350	1340	1317	1320	1325	1336	1336	1331	1320	1320	1328	1334	1336	1337	1324	1322	1322	1351	1358	1339	1322	1318	1318	1314	1354	1387	1365	1365	1354	1332	1327	1329	1334	1339	1343	1335	1331	1327	1320	1312	1318	1315	1314	1320	1324	1317	1323	1337	1343	1340	1336	1327	1321	1319	1321	1325	1318	1328	1325	1316	1305	1293	1297	1302	1298	1292	1290	1293	1305	1312	1314	1310	1303	1300	1310	1329	1331	1324	1322	1318	1314	1310	1290	1290	1295	1294	1288	1279	1278	1284	1295	1291	1294	1299	1302	1300	1295	1293	1300	1301	1294	1295	1294	1287	1285	1288	1290	1288	1280	1277	1273	1278	1285	1297	1321	1320	1320	1321	1314	1312	1308	1301	1295	1290	1289	1286	1289	1290	1293	1297	1304	1299	1297	1285	1277	1276	1277	1279	1283	1297	1300	1300	1294	1281	1275	1275	1273	1282	1291	1296	1295	1277	1266	1269	1277	1292	1297	1295	1277	1260	1258	1260	1264	1267	1271	1277	1287	1294	1297	1299	1296	1288	1281	1279	1277	1285	1290	1286	1277	1277	1275	1273	1266	1263	1268	1287	1302	1305	1290	1269	1264	1277	1294	1302	1301	1291	1282	1282	1356	0	0	0	0	0	0	0	0	0	0	0	0	0	0	0	0	0	0	0	0	0	0	0	0	0	0	0	1460	1473	1460	1406	1408	1408	1411	1403	1379	1357	1364	1366	1364	1364	1364	1357	1356	1355	1353	1345	1347	1354	1359	1358	1354	1352	1333	1326	1326	1326	1321	1323	1326	1331	0	0	0	0	0	0	0
0	0	0	1459	1451	1432	1431	1431	1441	1445	1451	1465	1470	1470	1465	1460	1453	1452	1455	1451	1451	1439	1437	1430	1439	1439	1428	1419	1421	1421	1431	1441	1445	1435	1431	1423	1416	1416	1416	1418	1424	1419	1421	1421	1427	1440	1444	1437	1433	1425	1425	1437	1451	1447	1433	1435	1423	1424	1432	1436	1442	1443	1432	1426	1436	1444	1450	1459	1460	1456	1456	1452	1458	1459	1457	1451	1446	1443	1437	1435	1432	1438	1441	1453	1457	1463	1454	1441	1431	1433	1445	1456	1467	1469	1470	1470	1477	1477	1479	1476	1472	1467	1465	1468	1467	1463	1457	1452	1454	1453	1455	1472	1485	1499	1500	1498	1484	1474	1479	1489	1498	1496	1485	1483	1491	1493	1489	1483	1471	1465	1464	1460	1461	1458	1454	1444	1441	1441	1448	1453	1457	1455	1458	1462	1459	1448	1449	1465	1469	1469	1462	1450	1440	1435	1417	1417	1415	1404	1392	1386	1390	1398	1415	1411	1425	1433	1444	1438	1428	1418	1409	1402	1396	1398	1399	1393	1389	1396	1400	1405	1413	1421	1428	1432	1434	1431	1428	1422	1414	1399	1414	1423	1431	1423	1422	1412	1415	1420	1441	1453	0	0	0	0	0	0	0	0	0	0	0	0	0	0	0	0	0	0	0	0	0	0	0	0	0	0	0	0	1697	1688	1688	1686	1680	1697	1694	1698	1690	1632	0	0	1474	1457	1425	1415	1400	1393	1390	1390	1387	1380	1375	1357	1353	1360	1365	1373	1384	1384	1376	1367	1371	1379	1382	1371	1351	1343	1352	1363	1370	1373	1373	1368	1365	1384	1394	1396	1383	1367	1351	1338	1335	1347	1365	1369	1368	1353	1339	1323	1317	1324	1333	1344	1345	1352	1356	1354	1351	1347	1347	1346	1344	1334	1323	1323	1330	1331	1337	1344	1342	1345	1352	1355	1347	1337	1333	1339	1343	1352	1349	1352	1354	1366	1373	1368	1362	1350	1338	1328	1327	1326	1336	1341	1346	1350	1350	1348	1342	1343	1334	1342	1350	1358	1358	1356	1346	1330	1317	1313	1321	1334	1347	1348	1340	1337	1328	1328	1323	1318	1307	1312	1328	1347	1350	1351	1347	1335	1321	1311	1313	1325	1335	1337	1338	1332	1332	1322	1318	1324	1335	1339	1332	1327	1327	1334	1340	1339	1327	1317	1312	1330	1356	1365	1351	1334	1336	1327	1324	1324	1347	1343	1350	1367	1349	1344	1343	1335	1335	1332	1328	1329	1333	1329	1327	1328	1321	1316	1317	1327	1329	1324	1335	1335	1334	1332	1327	1326	1328	1328	1329	1331	1326	1323	1319	1313	1303	1302	1296	1292	1292	1295	1304	1312	1323	1326	1322	1311	1307	1308	1314	1327	1325	1327	1325	1317	1300	1278	1282	1291	1304	1302	1297	1287	1300	1305	1300	1300	1303	1307	1300	1295	1295	1301	1303	1291	1285	1284	1280	1284	1287	1291	1287	1280	1278	1278	1280	1291	1303	1319	1313	1311	1310	1310	1313	1309	1302	1297	1293	1287	1285	1290	1297	1298	1300	1306	1302	1295	1287	1281	1279	1279	1279	1286	1304	1313	1307	1295	1286	1284	1283	1280	1271	1285	1290	1279	1269	1263	1264	1283	1297	1305	1299	1287	1265	1261	1265	1263	1266	1271	1275	1280	1285	1295	1302	1303	1297	1288	1286	1285	1291	1290	1292	1280	1287	1285	1284	1275	1277	1284	1298	1302	1301	1285	1264	1259	1269	1289	1295	1287	1271	1264	1272	1337	0	0	0	0	0	0	0	0	0	0	0	0	0	0	0	0	0	0	0	0	0	0	0	0	0	0	0	1458	1469	1459	1405	1409	1408	1405	1393	1380	1360	1354	1358	1353	1357	1357	1366	1368	1366	1360	1354	1352	1352	1351	1350	1346	1342	1343	1354	1358	1358	1358	1344	1332	1328	0	0	0	0	0	0	0
0	0	0	1477	1458	1431	1428	1428	1448	1460	1460	1454	1458	1458	1464	1465	1467	1473	1463	1444	1444	1441	1447	1456	1450	1444	1429	1420	1418	1418	1421	1436	1443	1441	1441	1438	1430	1426	1426	1424	1426	1426	1424	1428	1433	1442	1444	1443	1441	1444	1444	1459	1471	1460	1449	1436	1428	1432	1446	1453	1451	1442	1431	1435	1448	1458	1467	1462	1461	1460	1460	1450	1447	1451	1443	1451	1457	1448	1444	1437	1430	1436	1443	1456	1463	1464	1457	1441	1432	1426	1435	1446	1460	1463	1466	1466	1470	1478	1486	1484	1477	1469	1468	1466	1477	1466	1461	1444	1451	1462	1471	1471	1484	1483	1482	1477	1468	1460	1472	1487	1493	1497	1495	1495	1496	1494	1490	1489	1477	1466	1454	1450	1451	1454	1449	1448	1448	1441	1449	1463	1466	1473	1472	1475	1464	1456	1452	1459	1469	1471	1464	1455	1445	1434	1410	1406	1403	1399	1401	1388	1386	1404	1404	1404	1413	1423	1440	1429	1419	1417	1410	1405	1397	1395	1391	1393	1394	1396	1397	1392	1395	1410	1424	1433	1441	1442	1438	1424	1411	1395	1406	1426	1440	1433	1425	1417	1416	1437	1446	1456	0	0	0	0	0	0	0	0	0	0	0	0	0	0	0	0	0	0	0	0	0	0	0	0	0	0	0	0	1694	1699	1693	1692	1699	1702	1700	1704	1709	1664	0	0	0	1457	1435	1400	1391	1392	1393	1383	1371	1369	1362	1352	1354	1362	1366	1373	1382	1386	1381	1374	1377	1388	1387	1375	1359	1349	1352	1364	1366	1361	1359	1361	1362	1385	1392	1395	1385	1368	1352	1336	1334	1348	1363	1370	1364	1347	1336	1324	1319	1323	1336	1345	1348	1349	1353	1356	1350	1343	1342	1344	1344	1333	1331	1328	1325	1328	1333	1343	1346	1350	1351	1355	1346	1329	1329	1336	1342	1347	1350	1353	1350	1360	1370	1369	1366	1352	1343	1336	1329	1328	1334	1342	1348	1351	1346	1341	1338	1340	1341	1348	1356	1363	1352	1340	1330	1313	1314	1314	1326	1335	1345	1343	1339	1332	1325	1318	1321	1323	1326	1323	1332	1340	1348	1340	1338	1337	1329	1321	1318	1321	1326	1316	1313	1324	1328	1329	1329	1335	1339	1342	1332	1323	1323	1332	1341	1342	1331	1322	1320	1340	1356	1355	1350	1345	1346	1345	1336	1318	1336	1341	1358	1366	1357	1354	1346	1335	1325	1327	1327	1329	1332	1329	1334	1329	1326	1318	1322	1328	1331	1333	1321	1328	1327	1323	1322	1324	1321	1322	1324	1328	1323	1322	1322	1325	1314	1307	1298	1296	1299	1310	1321	1330	1331	1337	1334	1318	1310	1308	1306	1302	1310	1316	1318	1315	1300	1282	1286	1299	1312	1309	1300	1299	1310	1305	1304	1306	1307	1306	1302	1303	1304	1307	1305	1296	1287	1281	1283	1287	1294	1296	1292	1282	1280	1280	1285	1296	1309	1318	1306	1301	1303	1309	1308	1306	1304	1298	1295	1292	1289	1294	1307	1303	1299	1299	1298	1296	1286	1280	1278	1279	1285	1289	1300	1307	1301	1290	1283	1287	1284	1275	1271	1273	1280	1278	1264	1256	1268	1286	1304	1307	1303	1289	1271	1270	1271	1270	1271	1272	1271	1275	1288	1295	1298	1298	1297	1292	1291	1285	1288	1285	1285	1288	1289	1292	1285	1279	1279	1295	1303	1302	1295	1275	1260	1259	1264	1277	1277	1266	1261	1253	1264	1305	0	0	0	0	0	0	0	0	0	0	0	0	0	0	0	0	0	0	0	0	0	0	0	0	0	0	1443	1464	1463	1442	1416	1416	1411	1405	1374	1368	1352	1352	1351	1357	1357	1357	1360	1357	1353	1352	1353	1353	1354	1352	1349	1348	1352	1345	1344	1345	1345	1346	1346	1343	1342	0	0	0	0	0	0	0
0	0	0	1474	1451	1423	1425	1425	1457	1479	1470	1460	1458	1458	1461	1479	1488	1484	1464	1445	1445	1437	1451	1467	1460	1437	1416	1420	1422	1422	1433	1446	1451	1448	1446	1448	1450	1440	1440	1442	1439	1439	1434	1439	1443	1437	1437	1442	1442	1454	1454	1472	1478	1473	1456	1435	1433	1438	1458	1469	1465	1446	1440	1446	1452	1463	1472	1478	1481	1468	1468	1460	1453	1455	1450	1450	1454	1454	1454	1452	1443	1447	1451	1457	1461	1464	1456	1445	1432	1428	1430	1442	1450	1453	1456	1459	1464	1474	1482	1481	1480	1472	1470	1475	1482	1474	1473	1447	1451	1471	1476	1477	1477	1467	1474	1470	1449	1439	1448	1460	1471	1478	1488	1490	1494	1491	1479	1477	1466	1463	1456	1446	1443	1446	1447	1452	1450	1459	1468	1473	1478	1485	1486	1484	1474	1459	1452	1461	1479	1481	1479	1462	1446	1438	1399	1395	1397	1396	1399	1389	1395	1407	1401	1393	1399	1412	1422	1422	1410	1413	1409	1401	1394	1389	1390	1393	1393	1394	1389	1385	1390	1408	1423	1436	1441	1440	1433	1416	1402	1385	1405	1424	1434	1422	1425	1413	1414	1437	1449	1452	0	0	0	0	0	0	0	0	0	0	0	0	0	0	0	0	0	0	0	0	0	0	0	0	0	0	0	1615	1697	1708	1700	1696	1702	1700	1701	1703	1734	0	0	0	0	1447	1431	1388	1380	1389	1388	1377	1364	1354	1352	1353	1357	1359	1368	1370	1374	1383	1385	1384	1384	1390	1388	1379	1361	1351	1356	1356	1355	1355	1355	1361	1366	1380	1382	1380	1378	1364	1349	1341	1338	1345	1357	1365	1361	1344	1332	1319	1327	1330	1336	1347	1349	1353	1356	1355	1354	1346	1344	1343	1341	1335	1340	1340	1334	1330	1333	1348	1354	1356	1358	1354	1339	1326	1328	1339	1347	1356	1354	1350	1345	1352	1361	1367	1362	1355	1344	1334	1329	1325	1339	1350	1360	1354	1348	1340	1338	1342	1352	1354	1361	1356	1346	1334	1324	1314	1318	1323	1334	1341	1342	1339	1333	1328	1321	1317	1315	1319	1329	1338	1345	1348	1343	1335	1333	1334	1331	1327	1322	1321	1321	1314	1315	1320	1335	1341	1343	1347	1349	1345	1330	1319	1321	1330	1345	1346	1337	1330	1331	1339	1346	1337	1331	1331	1337	1336	1332	1313	1342	1340	1358	1351	1351	1351	1344	1336	1327	1318	1319	1322	1320	1332	1332	1322	1320	1320	1322	1326	1328	1326	1315	1315	1329	1326	1321	1318	1318	1315	1316	1319	1319	1323	1331	1335	1320	1313	1304	1307	1313	1321	1329	1331	1334	1335	1333	1326	1318	1312	1312	1301	1296	1301	1307	1309	1301	1295	1301	1308	1313	1318	1317	1311	1310	1307	1300	1308	1301	1307	1305	1305	1307	1315	1306	1297	1294	1296	1299	1301	1302	1300	1298	1296	1292	1293	1297	1307	1315	1308	1303	1297	1301	1308	1309	1305	1297	1295	1299	1299	1297	1304	1319	1312	1300	1296	1300	1301	1293	1285	1279	1283	1299	1299	1298	1299	1294	1288	1285	1289	1288	1282	1275	1277	1277	1276	1269	1263	1271	1286	1301	1304	1299	1291	1284	1285	1281	1277	1274	1275	1274	1278	1289	1289	1286	1285	1284	1279	1280	1281	1276	1275	1280	1285	1291	1293	1278	1271	1278	1295	1303	1303	1291	1275	1255	1252	1259	1265	1265	1264	1260	1255	1257	1280	0	0	0	0	0	0	0	0	0	0	0	0	0	0	0	0	0	0	0	0	0	0	0	0	0	0	0	1465	1464	1438	1412	1412	1408	1400	1359	1356	1351	1354	1354	1358	1355	1355	1358	1355	1350	1350	1353	1356	1353	1353	1351	1352	1353	1349	1343	1343	1343	1343	1346	1334	1334	0	0	0	0	0	0	0
0	0	0	1453	1438	1423	1435	1435	1459	1477	1475	1461	1456	1456	1468	1485	1498	1500	1475	1440	1440	1435	1454	1469	1473	1440	1429	1423	1423	1428	1435	1446	1447	1444	1444	1442	1443	1446	1446	1451	1455	1458	1453	1452	1449	1443	1438	1431	1441	1448	1448	1468	1476	1477	1463	1432	1433	1444	1459	1472	1464	1445	1438	1446	1450	1455	1471	1484	1484	1481	1481	1467	1464	1463	1455	1458	1462	1463	1461	1460	1460	1465	1455	1455	1458	1461	1458	1451	1440	1436	1427	1441	1450	1460	1457	1459	1459	1462	1465	1466	1471	1468	1472	1477	1486	1481	1483	1447	1435	1462	1468	1473	1465	1467	1465	1464	1428	1411	1421	1435	1448	1453	1469	1486	1484	1479	1470	1462	1461	1467	1471	1453	1447	1445	1450	1457	1463	1467	1475	1475	1483	1481	1490	1487	1478	1463	1450	1463	1479	1488	1481	1467	1456	1434	1393	1386	1395	1394	1396	1397	1403	1417	1401	1392	1398	1409	1417	1413	1411	1410	1413	1403	1394	1387	1391	1401	1402	1400	1390	1388	1396	1412	1426	1432	1435	1437	1425	1414	1404	1390	1395	1408	1409	1400	1413	1400	1404	1412	1436	0	0	0	0	0	0	0	0	0	0	0	0	0	0	0	0	0	0	0	0	0	0	0	0	0	0	0	0	1615	1696	1705	1697	1696	1697	1699	1696	1689	1708	0	0	0	0	1437	1420	1371	1370	1379	1386	1381	1362	1360	1354	1354	1356	1364	1370	1372	1365	1374	1384	1390	1388	1388	1384	1372	1362	1353	1345	1347	1348	1351	1359	1364	1372	1373	1366	1370	1372	1363	1357	1351	1351	1356	1361	1364	1355	1344	1332	1330	1332	1336	1342	1345	1347	1349	1357	1355	1353	1348	1344	1345	1346	1348	1350	1349	1344	1340	1343	1352	1359	1358	1358	1349	1341	1339	1336	1341	1350	1356	1350	1342	1338	1344	1347	1355	1352	1354	1339	1337	1331	1326	1341	1355	1361	1351	1338	1342	1336	1352	1355	1362	1360	1353	1342	1334	1329	1324	1327	1333	1340	1347	1345	1335	1329	1326	1327	1323	1317	1315	1325	1336	1345	1347	1337	1335	1333	1335	1331	1327	1318	1314	1320	1315	1317	1327	1336	1343	1350	1353	1351	1345	1330	1320	1327	1329	1338	1347	1342	1337	1338	1337	1337	1332	1325	1321	1321	1325	1325	1308	1335	1335	1360	1347	1344	1344	1344	1337	1329	1318	1314	1314	1322	1330	1325	1316	1314	1319	1322	1328	1328	1322	1322	1328	1334	1334	1325	1323	1316	1313	1308	1310	1314	1321	1335	1334	1323	1316	1314	1314	1317	1320	1324	1326	1325	1326	1323	1328	1322	1314	1303	1293	1289	1295	1305	1309	1302	1302	1303	1306	1306	1308	1311	1306	1307	1311	1301	1302	1299	1308	1306	1309	1314	1317	1307	1304	1305	1307	1308	1309	1309	1308	1310	1314	1312	1308	1308	1317	1319	1304	1296	1298	1304	1308	1308	1304	1294	1296	1307	1308	1308	1305	1315	1311	1303	1301	1307	1308	1299	1284	1280	1298	1306	1307	1301	1300	1295	1298	1288	1286	1285	1284	1287	1284	1287	1282	1281	1280	1283	1292	1296	1299	1295	1298	1296	1293	1286	1278	1274	1274	1277	1281	1287	1285	1274	1261	1263	1268	1274	1275	1273	1272	1272	1283	1290	1293	1272	1266	1276	1284	1297	1299	1286	1275	1260	1257	1261	1263	1270	1271	1270	1267	1253	1250	0	0	0	0	0	0	0	0	0	0	0	0	0	0	0	0	0	0	0	0	0	0	0	0	0	0	0	1461	1464	1424	1399	1404	1406	1357	1343	1326	1333	1345	1356	1353	1352	1352	1352	1349	1346	1345	1351	1354	1353	1352	1353	1355	1357	1349	1344	1345	1345	1350	1345	1333	1336	0	0	0	0	0	0	0
0	0	0	1437	1431	1434	1445	1445	1465	1473	1474	1460	1447	1447	1465	1493	1513	1514	1490	1466	1466	1450	1459	1470	1463	1446	1440	1434	1434	1433	1426	1423	1428	1426	1431	1433	1439	1446	1446	1452	1458	1462	1459	1462	1455	1450	1440	1431	1430	1445	1445	1461	1468	1468	1457	1434	1430	1444	1463	1473	1463	1447	1442	1445	1454	1461	1469	1482	1495	1493	1493	1477	1466	1459	1455	1459	1466	1463	1457	1461	1466	1468	1459	1457	1455	1458	1463	1456	1451	1446	1440	1440	1448	1457	1460	1468	1465	1464	1458	1453	1459	1459	1459	1466	1479	1483	1487	1457	1428	1441	1460	1459	1470	1471	1472	1457	1429	1414	1409	1419	1427	1443	1458	1473	1481	1479	1465	1469	1472	1479	1481	1465	1459	1454	1457	1461	1465	1471	1478	1477	1471	1471	1479	1479	1471	1459	1450	1463	1476	1486	1485	1473	1450	1429	1395	1394	1401	1407	1407	1400	1412	1417	1399	1396	1408	1414	1416	1414	1414	1418	1420	1408	1397	1392	1398	1403	1406	1403	1394	1393	1400	1417	1423	1427	1432	1427	1424	1420	1405	1400	1389	1388	1388	1388	1385	1402	1410	1400	1424	0	0	0	0	0	0	0	0	0	0	0	0	0	0	0	0	0	0	0	0	0	0	0	0	0	0	0	0	0	1682	1688	1681	1680	1676	1679	1686	1678	1679	0	0	0	0	1439	1409	1367	1356	1367	1371	1378	1377	1369	1364	1362	1366	1369	1372	1372	1374	1378	1386	1385	1383	1378	1374	1370	1359	1350	1347	1347	1348	1354	1360	1370	1379	1368	1357	1357	1361	1359	1363	1365	1361	1369	1369	1365	1362	1352	1346	1345	1339	1341	1343	1346	1349	1357	1362	1361	1358	1353	1354	1352	1354	1352	1348	1351	1344	1341	1343	1344	1354	1354	1357	1358	1356	1350	1349	1350	1355	1355	1347	1346	1337	1341	1343	1345	1349	1352	1346	1339	1326	1328	1347	1359	1359	1351	1341	1340	1345	1353	1364	1361	1354	1350	1342	1338	1334	1333	1337	1340	1347	1347	1339	1329	1321	1324	1329	1330	1329	1321	1327	1341	1348	1348	1344	1339	1339	1338	1331	1325	1320	1318	1319	1321	1319	1330	1344	1341	1344	1348	1343	1333	1322	1318	1319	1326	1338	1344	1345	1339	1334	1331	1328	1325	1321	1318	1313	1319	1313	1315	1318	1329	1365	1352	1350	1346	1342	1341	1334	1323	1318	1318	1331	1329	1324	1316	1314	1322	1331	1333	1330	1328	1328	1335	1339	1336	1334	1324	1318	1315	1311	1307	1312	1320	1331	1334	1325	1320	1316	1319	1321	1324	1323	1321	1314	1319	1322	1323	1321	1313	1302	1293	1291	1299	1310	1312	1309	1307	1304	1295	1288	1284	1288	1292	1305	1317	1317	1316	1308	1306	1304	1310	1309	1316	1314	1307	1304	1308	1308	1305	1308	1310	1314	1319	1320	1315	1317	1312	1310	1300	1298	1299	1299	1309	1307	1302	1302	1306	1316	1318	1308	1296	1305	1309	1301	1302	1310	1311	1298	1281	1284	1303	1310	1311	1306	1305	1306	1304	1288	1283	1282	1287	1294	1294	1298	1296	1298	1297	1297	1301	1300	1298	1304	1307	1292	1287	1281	1274	1268	1268	1274	1278	1286	1283	1275	1264	1263	1266	1275	1279	1274	1269	1268	1284	1289	1290	1277	1268	1272	1278	1285	1294	1293	1276	1269	1266	1269	1274	1282	1291	1288	1280	1257	1241	0	0	0	0	0	0	0	0	0	0	0	0	0	0	0	0	0	0	0	0	0	0	0	0	0	0	0	1461	1453	1418	1406	1407	1402	1359	1327	1317	1323	1327	1347	1348	1350	1350	1351	1351	1353	1353	1355	1356	1355	1352	1349	1350	1349	1347	1339	1348	1348	1349	1353	1345	1335	0	0	0	0	0	0	0
0	0	0	1436	1432	1448	1474	1474	1474	1472	1472	1450	1442	1442	1452	1483	1506	1712	1499	1477	1477	1470	1473	1468	1463	1452	1452	1441	1441	1425	1414	1410	1413	1419	1418	1420	1424	1431	1431	1438	1439	1448	1453	1456	1446	1431	1425	1425	1429	1444	1444	1456	1454	1459	1449	1441	1435	1452	1461	1467	1460	1451	1444	1451	1464	1467	1466	1481	1496	1494	1494	1474	1454	1446	1446	1453	1461	1455	1452	1452	1457	1465	1462	1458	1460	1458	1461	1463	1461	1455	1451	1448	1453	1469	1473	1478	1478	1461	1449	1451	1451	1449	1453	1447	1466	1477	1480	1474	1435	1421	1428	1450	1467	1489	1489	1475	1456	1441	1417	1416	1426	1436	1449	1466	1479	1478	1470	1468	1478	1485	1484	1469	1464	1466	1465	1465	1471	1475	1472	1471	1458	1454	1463	1462	1461	1455	1451	1463	1464	1478	1483	1458	1441	1420	1375	1385	1400	1414	1421	1415	1415	1416	1396	1405	1421	1423	1425	1421	1417	1419	1422	1416	1407	1395	1399	1403	1405	1401	1397	1401	1407	1422	1424	1424	1430	1430	1421	1415	1403	1397	1370	1367	1380	1388	1390	1402	1412	1389	1416	0	0	0	0	0	0	0	0	0	0	0	0	0	0	0	0	0	0	0	0	0	0	0	0	0	0	0	0	0	1661	1660	1662	1669	1675	1683	1690	1685	1682	0	0	0	0	1435	1402	1369	1355	1359	1366	1371	1377	1374	1372	1369	1369	1375	1376	1381	1382	1382	1380	1380	1371	1371	1370	1367	1363	1354	1353	1354	1361	1364	1374	1377	1381	1362	1352	1351	1352	1359	1364	1371	1370	1376	1376	1380	1375	1371	1358	1353	1346	1341	1346	1345	1353	1370	1370	1364	1361	1363	1359	1363	1358	1357	1349	1343	1346	1344	1344	1344	1345	1346	1352	1359	1359	1356	1359	1362	1362	1362	1360	1361	1348	1345	1338	1339	1347	1351	1345	1338	1326	1348	1361	1364	1362	1354	1344	1345	1347	1360	1365	1364	1356	1352	1347	1344	1341	1339	1340	1343	1344	1345	1339	1326	1319	1325	1335	1342	1339	1339	1340	1347	1354	1353	1352	1348	1347	1347	1341	1332	1327	1326	1328	1327	1326	1341	1341	1342	1341	1345	1335	1329	1325	1324	1322	1326	1334	1341	1346	1340	1332	1323	1321	1315	1316	1314	1317	1317	1324	1322	1340	1346	1383	1370	1365	1353	1339	1340	1338	1341	1337	1332	1340	1333	1329	1328	1326	1322	1326	1329	1333	1330	1332	1339	1344	1344	1334	1327	1326	1317	1313	1308	1302	1311	1320	1333	1325	1321	1320	1325	1332	1336	1329	1322	1310	1313	1321	1325	1320	1311	1301	1295	1297	1305	1313	1313	1322	1311	1304	1293	1284	1280	1284	1300	1317	1324	1323	1316	1312	1306	1308	1303	1307	1313	1321	1313	1307	1300	1300	1296	1297	1305	1309	1317	1317	1314	1309	1304	1297	1300	1300	1302	1300	1298	1295	1300	1307	1310	1318	1324	1314	1296	1298	1300	1297	1295	1302	1301	1290	1282	1285	1309	1319	1325	1320	1316	1309	1307	1289	1283	1279	1291	1303	1309	1312	1311	1309	1310	1311	1304	1300	1299	1305	1310	1287	1283	1276	1270	1270	1269	1272	1277	1282	1284	1287	1285	1286	1286	1286	1286	1284	1274	1274	1286	1288	1285	1281	1283	1280	1283	1292	1293	1295	1289	1284	1278	1284	1291	1299	1304	1303	1287	1263	1249	0	0	0	0	0	0	0	0	0	0	0	0	0	0	0	0	0	0	0	0	0	0	0	0	0	0	0	1459	1440	1417	1412	1420	1419	1386	1345	1332	1317	1324	1342	1343	1348	1348	1354	1357	1359	1361	1358	1360	1358	1351	1342	1349	1343	1338	1341	1346	1346	1345	1350	1349	1348	0	0	0	0	0	0	0
0	0	0	1434	1446	1465	1480	1480	1482	1476	1468	1451	1440	1440	1448	1468	1499	1507	1499	1485	1485	1478	1481	1478	1464	1462	1466	1456	1456	1434	1414	1407	1411	1419	1418	1422	1424	1424	1424	1420	1428	1443	1442	1443	1429	1417	1412	1415	1425	1444	1444	1459	1462	1450	1441	1441	1445	1448	1458	1466	1462	1465	1458	1465	1465	1461	1459	1460	1480	1479	1479	1460	1445	1438	1430	1437	1451	1457	1453	1452	1446	1452	1456	1464	1460	1457	1453	1457	1459	1455	1446	1439	1441	1465	1478	1492	1480	1460	1446	1448	1450	1453	1452	1451	1467	1482	1486	1493	1448	1428	1429	1447	1472	1493	1502	1502	1492	1461	1449	1427	1436	1444	1457	1469	1478	1483	1475	1474	1475	1476	1476	1469	1469	1471	1475	1477	1480	1475	1468	1465	1454	1443	1444	1450	1459	1457	1458	1465	1467	1471	1472	1450	1437	1412	1374	1380	1401	1421	1429	1424	1411	1397	1395	1407	1418	1427	1428	1422	1416	1418	1418	1421	1414	1406	1407	1403	1404	1403	1401	1407	1415	1427	1426	1416	1413	1409	1402	1394	1388	1375	1362	1357	1366	1382	1393	1404	1409	1399	1417	0	0	0	0	0	0	0	0	0	0	0	0	0	0	0	0	0	0	0	0	0	0	0	0	0	0	0	0	0	1668	1659	1668	1676	1685	1689	1700	1704	1689	1672	0	0	0	1438	1386	1363	1356	1353	1357	1366	1372	1371	1366	1367	1374	1377	1380	1383	1384	1385	1378	1375	1372	1375	1372	1374	1371	1368	1364	1368	1370	1376	1381	1383	1379	1358	1356	1351	1351	1351	1354	1372	1372	1379	1381	1387	1385	1377	1366	1357	1348	1348	1343	1359	1372	1379	1373	1366	1367	1373	1371	1371	1365	1363	1352	1354	1350	1350	1348	1344	1340	1341	1342	1350	1352	1355	1356	1365	1365	1368	1371	1370	1361	1349	1343	1342	1342	1336	1333	1336	1344	1357	1365	1365	1361	1360	1351	1357	1356	1356	1359	1358	1359	1358	1354	1350	1346	1339	1339	1342	1339	1342	1335	1332	1332	1334	1341	1348	1355	1359	1356	1357	1362	1359	1361	1357	1353	1355	1352	1344	1337	1330	1331	1332	1338	1333	1335	1338	1339	1337	1328	1328	1329	1331	1331	1331	1336	1347	1347	1342	1333	1325	1319	1313	1320	1326	1327	1333	1333	1330	1378	1387	1380	1371	1372	1354	1343	1346	1347	1348	1349	1345	1344	1340	1337	1335	1320	1320	1313	1314	1322	1327	1335	1340	1347	1348	1338	1330	1328	1326	1319	1310	1303	1308	1324	1329	1329	1325	1324	1333	1342	1348	1341	1327	1317	1324	1329	1331	1329	1319	1311	1307	1303	1304	1315	1323	1331	1318	1312	1305	1296	1293	1298	1320	1325	1324	1321	1319	1310	1306	1308	1308	1310	1314	1323	1307	1302	1293	1288	1282	1283	1292	1297	1302	1303	1300	1296	1289	1289	1296	1300	1302	1302	1291	1292	1296	1302	1313	1324	1318	1317	1305	1301	1296	1293	1291	1288	1291	1283	1281	1288	1307	1326	1333	1331	1319	1313	1309	1297	1290	1291	1300	1307	1315	1316	1312	1314	1317	1314	1304	1296	1294	1296	1299	1268	1271	1269	1281	1279	1278	1275	1273	1276	1280	1289	1293	1294	1293	1294	1294	1288	1284	1286	1289	1289	1280	1280	1284	1290	1295	1299	1296	1296	1294	1296	1291	1292	1294	1302	1305	1300	1286	1275	1295	0	0	0	0	0	0	0	0	0	0	0	0	0	0	0	0	0	0	0	0	0	0	0	0	0	0	0	0	1442	1416	1410	1421	1421	1394	1360	1348	1327	1342	1348	1346	1352	1352	1357	1355	1359	1362	1360	1356	1351	1350	1344	1340	1340	1336	1335	1332	1332	1334	1343	1343	1340	0	0	0	0	0	0	0
0	0	0	1438	1450	1474	1486	1486	1483	1471	1450	1440	1436	1436	1445	1473	1486	1500	1491	1476	1476	1477	1479	1481	1473	1468	1476	1472	1472	1457	1426	1412	1414	1427	1429	1436	1432	1427	1427	1422	1420	1429	1441	1438	1429	1421	1412	1412	1425	1439	1439	1458	1462	1456	1449	1445	1447	1448	1448	1461	1473	1481	1476	1473	1470	1462	1449	1449	1466	1466	1466	1459	1447	1434	1430	1430	1447	1458	1464	1460	1458	1454	1460	1470	1463	1455	1451	1454	1453	1450	1442	1435	1439	1460	1493	1497	1478	1456	1446	1454	1456	1455	1455	1464	1472	1513	1515	1486	1468	1449	1448	1460	1475	1497	1504	1508	1507	1490	1455	1449	1456	1461	1468	1477	1483	1487	1476	1468	1457	1465	1464	1465	1468	1475	1477	1482	1480	1476	1466	1459	1452	1442	1440	1441	1454	1460	1463	1469	1477	1485	1466	1454	1439	1417	1377	1387	1405	1426	1434	1425	1408	1390	1390	1397	1416	1425	1428	1423	1411	1411	1417	1421	1420	1419	1410	1404	1403	1403	1407	1413	1422	1430	1423	1404	1388	1381	1373	1370	1372	1365	1367	1363	1372	1380	1389	1398	1408	1411	1423	1431	0	0	0	0	0	0	0	0	0	0	0	0	0	0	0	0	0	0	0	0	0	0	0	0	0	0	0	0	1700	1692	1692	1693	1696	1699	1696	1693	1704	1681	0	0	0	1452	1369	1370	1365	1359	1358	1358	1362	1362	1362	1366	1368	1377	1379	1380	1383	1374	1369	1371	1378	1382	1381	1381	1379	1378	1378	1380	1381	1382	1383	1384	1373	1361	1363	1360	1355	1353	1349	1361	1366	1376	1381	1386	1385	1378	1371	1368	1361	1363	1357	1365	1374	1376	1372	1363	1366	1373	1376	1377	1371	1368	1362	1361	1356	1362	1367	1361	1348	1338	1341	1344	1343	1345	1350	1357	1361	1367	1376	1378	1374	1359	1351	1342	1337	1325	1321	1324	1349	1362	1357	1362	1371	1365	1367	1358	1364	1360	1357	1356	1359	1360	1357	1356	1348	1341	1337	1338	1343	1347	1345	1340	1338	1337	1339	1352	1363	1367	1373	1372	1365	1360	1364	1358	1356	1352	1354	1350	1347	1344	1344	1347	1351	1347	1340	1341	1339	1337	1322	1319	1330	1340	1339	1344	1351	1354	1350	1339	1335	1331	1324	1324	1331	1337	1347	1351	1343	1345	1397	1399	1391	1379	1368	1357	1344	1339	1345	1348	1346	1345	1337	1338	1339	1334	1326	1312	1303	1302	1306	1317	1329	1341	1347	1348	1334	1326	1327	1328	1322	1305	1305	1311	1314	1327	1332	1329	1327	1335	1346	1350	1343	1329	1329	1332	1341	1340	1338	1333	1324	1315	1310	1308	1314	1325	1333	1330	1324	1316	1306	1300	1310	1321	1326	1321	1318	1320	1312	1308	1309	1310	1310	1321	1320	1310	1301	1289	1280	1273	1274	1274	1282	1288	1287	1293	1293	1287	1287	1300	1303	1302	1300	1296	1293	1293	1300	1310	1321	1318	1315	1307	1305	1295	1287	1282	1287	1285	1277	1280	1290	1303	1325	1333	1333	1323	1314	1313	1305	1303	1300	1302	1307	1313	1314	1309	1307	1314	1316	1306	1294	1288	1285	1283	1253	1255	1266	1286	1291	1296	1287	1274	1276	1283	1295	1292	1286	1277	1279	1293	1299	1296	1300	1300	1295	1282	1281	1291	1298	1300	1299	1294	1295	1291	1293	1294	1292	1294	1293	1294	1290	1283	1294	1334	0	0	0	0	0	0	0	0	0	0	0	0	0	0	0	0	0	0	0	0	0	0	0	0	0	0	0	0	0	1421	1406	1410	1408	1395	1381	1367	1337	1354	1355	1350	1352	1352	1360	1366	1360	1358	1352	1353	1352	1349	1356	1350	1336	1339	1336	1331	1331	1328	1331	1334	1342	0	0	0	0	0	0	0
0	0	0	1450	1454	1474	1474	1474	1472	1455	1441	1429	1433	1433	1442	1465	1488	1485	1470	1463	1463	1463	1480	1484	1473	1462	1467	1468	1468	1443	1438	1425	1421	1427	1440	1448	1449	1443	1443	1432	1425	1430	1438	1440	1436	1432	1427	1421	1429	1439	1439	1457	1466	1464	1457	1444	1443	1441	1453	1471	1486	1484	1479	1471	1470	1467	1448	1446	1462	1469	1469	1464	1460	1448	1433	1436	1452	1475	1485	1492	1488	1485	1482	1479	1467	1460	1454	1461	1462	1456	1446	1441	1448	1463	1493	1490	1479	1463	1455	1455	1458	1462	1465	1464	1480	1529	1532	1478	1470	1469	1470	1477	1485	1488	1502	1512	1506	1473	1463	1460	1466	1476	1486	1487	1492	1492	1485	1464	1449	1449	1449	1462	1465	1472	1469	1470	1476	1474	1464	1460	1448	1441	1438	1439	1458	1466	1468	1461	1482	1478	1465	1450	1443	1425	1390	1399	1414	1430	1430	1420	1405	1388	1391	1411	1418	1424	1422	1418	1404	1399	1402	1412	1421	1422	1414	1412	1408	1409	1421	1423	1432	1433	1418	1396	1371	1363	1358	1365	1374	1381	1367	1377	1376	1386	1392	1411	1421	1430	1438	1443	0	0	0	0	0	0	0	0	0	0	0	0	0	0	0	0	0	0	0	0	0	0	0	0	0	0	0	0	1731	1731	1732	1716	1714	1707	1706	1692	1697	1670	0	0	0	1432	1368	1376	1374	1366	1361	1362	1362	1362	1364	1364	1371	1371	1371	1375	1373	1366	1362	1366	1376	1391	1393	1386	1374	1372	1384	1389	1384	1383	1380	1373	1364	1361	1364	1365	1363	1362	1363	1367	1369	1374	1380	1381	1378	1375	1376	1377	1379	1378	1373	1371	1370	1364	1358	1356	1366	1375	1371	1375	1375	1369	1369	1365	1368	1377	1388	1389	1378	1362	1353	1349	1343	1342	1339	1349	1352	1358	1368	1378	1379	1369	1353	1344	1335	1319	1316	1329	1356	1371	1366	1355	1362	1366	1366	1376	1375	1366	1358	1356	1359	1359	1355	1349	1344	1341	1339	1343	1352	1357	1353	1347	1340	1343	1349	1363	1369	1375	1377	1369	1374	1368	1363	1349	1347	1350	1354	1353	1352	1352	1353	1355	1358	1356	1347	1339	1332	1329	1330	1334	1348	1356	1359	1362	1360	1349	1343	1341	1340	1337	1327	1330	1342	1349	1361	1370	1360	1337	1387	1388	1396	1374	1367	1352	1348	1344	1344	1342	1337	1336	1332	1334	1321	1321	1313	1307	1303	1299	1306	1312	1323	1332	1340	1337	1326	1321	1322	1323	1322	1317	1308	1315	1322	1330	1328	1323	1321	1332	1345	1350	1340	1327	1324	1333	1337	1341	1340	1336	1330	1325	1315	1314	1317	1322	1328	1337	1337	1326	1313	1311	1318	1324	1322	1324	1319	1317	1316	1309	1311	1311	1316	1321	1322	1311	1298	1288	1279	1270	1272	1276	1284	1285	1285	1291	1293	1292	1292	1299	1303	1299	1293	1294	1291	1293	1301	1310	1318	1312	1310	1306	1312	1301	1287	1279	1289	1286	1279	1287	1298	1305	1317	1325	1324	1320	1316	1311	1313	1313	1303	1296	1298	1302	1308	1307	1309	1313	1309	1299	1293	1291	1286	1277	1247	1254	1276	1294	1307	1310	1300	1288	1283	1285	1290	1285	1277	1270	1276	1289	1305	1315	1321	1310	1303	1291	1291	1293	1297	1303	1299	1294	1289	1284	1284	1287	1285	1286	1283	1285	1284	1288	1306	1354	0	0	0	0	0	0	0	0	0	0	0	0	0	0	0	0	0	0	0	0	0	0	0	0	0	0	0	0	0	1437	1414	1404	1405	1408	1395	1375	1343	1356	1360	1355	1355	1355	1356	1360	1357	1354	1346	1346	1345	1354	1357	1352	1349	1347	1343	1349	1349	1347	1343	1335	1338	0	0	0	0	0	0	0
0	0	0	1453	1462	1466	1469	1469	1464	1450	1430	1424	1435	1435	1444	1456	1473	1471	1460	1451	1451	1456	1464	1481	1468	1447	1442	1438	1438	1432	1435	1438	1430	1429	1440	1449	1459	1461	1461	1447	1440	1441	1445	1446	1446	1447	1436	1431	1432	1442	1442	1455	1468	1468	1459	1439	1434	1442	1466	1476	1483	1479	1472	1464	1465	1465	1465	1452	1470	1478	1478	1479	1464	1438	1428	1437	1458	1480	1502	1504	1499	1496	1488	1484	1474	1471	1473	1476	1473	1468	1463	1453	1459	1484	1486	1481	1469	1460	1455	1461	1466	1470	1465	1462	1473	1524	1529	1474	1465	1472	1495	1490	1482	1484	1489	1496	1496	1478	1466	1469	1472	1475	1484	1493	1493	1496	1482	1469	1450	1445	1441	1453	1461	1465	1467	1466	1471	1473	1463	1453	1448	1439	1444	1454	1463	1469	1463	1469	1478	1478	1466	1453	1445	1429	1405	1410	1421	1428	1429	1414	1402	1391	1404	1413	1422	1424	1418	1409	1395	1382	1386	1400	1411	1409	1413	1414	1418	1421	1421	1423	1433	1435	1422	1396	1372	1362	1360	1370	1385	1393	1387	1386	1387	1392	1402	1401	1414	1424	1433	1438	0	0	0	0	0	0	0	0	0	0	0	0	0	0	0	0	0	0	0	0	0	0	0	0	0	0	0	0	1733	1742	1764	1783	1777	1741	1721	1713	1687	1634	0	0	0	1402	1372	1382	1379	1379	1378	1376	1378	1375	1370	1372	1368	1370	1365	1364	1364	1366	1363	1367	1375	1388	1387	1386	1378	1376	1386	1391	1387	1378	1374	1369	1362	1359	1366	1363	1367	1372	1375	1377	1374	1375	1377	1379	1375	1376	1378	1380	1380	1381	1375	1366	1361	1354	1350	1350	1355	1361	1360	1368	1362	1362	1366	1369	1375	1385	1402	1408	1400	1392	1383	1373	1355	1346	1337	1339	1334	1342	1367	1380	1380	1370	1358	1349	1333	1325	1326	1344	1362	1363	1362	1358	1360	1363	1370	1377	1376	1368	1363	1364	1366	1353	1347	1340	1337	1338	1340	1354	1363	1365	1357	1351	1349	1351	1364	1372	1379	1383	1385	1368	1371	1366	1356	1350	1348	1347	1352	1356	1353	1353	1361	1362	1364	1363	1354	1342	1331	1328	1336	1343	1356	1367	1375	1378	1368	1349	1343	1341	1342	1342	1333	1336	1342	1348	1360	1367	1362	1324	1364	1375	1389	1380	1366	1356	1347	1342	1344	1347	1343	1339	1335	1332	1323	1307	1308	1306	1307	1309	1309	1312	1317	1322	1325	1322	1322	1318	1321	1320	1322	1315	1316	1319	1321	1325	1322	1322	1322	1334	1342	1340	1329	1325	1324	1324	1329	1329	1330	1329	1333	1338	1340	1338	1323	1319	1319	1339	1345	1341	1337	1337	1343	1335	1328	1327	1327	1325	1316	1314	1320	1320	1321	1321	1326	1322	1317	1314	1307	1299	1300	1307	1320	1313	1297	1305	1310	1308	1306	1304	1307	1302	1294	1300	1306	1307	1309	1317	1324	1322	1316	1319	1331	1333	1333	1328	1319	1310	1306	1314	1312	1303	1309	1318	1321	1312	1305	1304	1312	1305	1296	1287	1287	1291	1309	1327	1327	1314	1302	1290	1292	1295	1293	1289	1264	1272	1278	1297	1306	1312	1308	1307	1304	1297	1281	1268	1261	1269	1277	1289	1311	1326	1334	1318	1304	1300	1299	1301	1298	1306	1306	1299	1290	1276	1273	1278	1283	1282	1282	1282	1289	1293	1307	1349	1349	0	0	0	0	0	0	0	0	0	0	0	0	0	0	0	0	0	0	0	0	0	0	0	0	0	0	0	0	1439	1413	1404	1405	1419	1407	1397	1351	1355	1360	1356	1349	1349	1349	1340	1341	1337	1336	1332	1345	1349	1352	1350	1351	1349	1354	1356	1356	1353	1346	1338	1340	0	0	0	0	0	0	0
0	0	0	1461	1464	1467	1470	1470	1459	1434	1428	1430	1445	1445	1463	1475	1468	1473	1461	1445	1445	1449	1453	1453	1457	1434	1421	1416	1416	1416	1423	1431	1435	1436	1439	1448	1464	1464	1464	1462	1449	1443	1444	1446	1457	1454	1445	1443	1442	1449	1449	1455	1465	1466	1452	1438	1435	1441	1460	1473	1476	1477	1470	1456	1464	1462	1456	1450	1469	1474	1474	1478	1454	1427	1425	1438	1461	1485	1501	1497	1494	1485	1481	1479	1476	1476	1480	1483	1473	1468	1462	1466	1471	1481	1483	1477	1462	1454	1455	1465	1471	1469	1455	1448	1449	1482	1524	1473	1466	1488	1506	1506	1482	1472	1465	1480	1493	1480	1466	1460	1459	1468	1479	1482	1491	1489	1479	1466	1454	1453	1444	1451	1464	1470	1471	1468	1468	1479	1478	1470	1452	1442	1451	1470	1483	1473	1465	1467	1478	1479	1468	1456	1449	1441	1427	1410	1420	1428	1423	1415	1401	1389	1408	1419	1426	1428	1422	1404	1387	1373	1382	1390	1401	1402	1406	1415	1424	1424	1417	1425	1433	1434	1421	1394	1372	1364	1365	1387	1399	1403	1413	1417	1420	1411	1401	1399	1413	1430	1438	0	0	0	0	0	0	0	0	0	0	0	0	0	0	0	0	0	0	0	0	0	0	0	0	0	0	0	0	0	1714	1725	1727	1734	1724	1706	1680	1670	1652	0	0	0	0	1410	1393	1389	1389	1389	1394	1389	1387	1382	1379	1374	1375	1371	1365	1362	1365	1366	1367	1374	1377	1385	1388	1386	1379	1382	1389	1394	1388	1383	1372	1364	1369	1370	1371	1369	1373	1382	1390	1388	1376	1363	1372	1371	1375	1377	1378	1372	1371	1371	1364	1359	1353	1356	1353	1354	1352	1355	1357	1358	1366	1364	1371	1372	1376	1391	1404	1409	1412	1414	1416	1405	1386	1371	1363	1350	1345	1364	1383	1397	1390	1381	1372	1365	1354	1350	1353	1361	1360	1361	1360	1364	1369	1369	1373	1374	1375	1370	1365	1375	1390	1373	1356	1348	1343	1345	1355	1373	1381	1374	1365	1357	1351	1351	1358	1373	1386	1392	1383	1372	1361	1357	1353	1351	1354	1356	1359	1357	1353	1356	1363	1369	1375	1369	1352	1338	1337	1336	1341	1342	1356	1373	1380	1383	1364	1348	1341	1343	1350	1349	1344	1341	1342	1345	1355	1358	1342	1320	1329	1369	1375	1370	1362	1343	1348	1350	1351	1353	1359	1367	1348	1339	1327	1319	1318	1324	1330	1351	1363	1369	1359	1342	1333	1320	1318	1322	1325	1326	1333	1329	1335	1343	1343	1339	1331	1331	1333	1339	1342	1346	1342	1342	1344	1344	1346	1337	1332	1319	1323	1327	1336	1330	1323	1314	1316	1342	1347	1348	1350	1348	1347	1343	1332	1334	1328	1326	1323	1323	1327	1329	1329	1331	1342	1340	1342	1344	1333	1320	1314	1317	1330	1334	1337	1338	1342	1339	1325	1315	1313	1307	1306	1308	1309	1313	1320	1324	1336	1340	1338	1341	1342	1342	1340	1337	1330	1323	1319	1322	1311	1305	1312	1320	1317	1311	1302	1302	1308	1299	1288	1285	1290	1301	1318	1330	1329	1313	1296	1292	1290	1297	1297	1298	1283	1285	1286	1297	1303	1314	1318	1318	1317	1305	1279	1268	1265	1273	1282	1293	1309	1328	1329	1312	1304	1301	1302	1302	1299	1305	1312	1312	1297	1288	1287	1292	1298	1298	1288	1284	1279	1287	1306	1310	1330	1340	1365	0	0	0	0	0	0	0	0	0	0	0	0	0	0	0	0	0	0	0	0	0	0	0	0	0	0	1439	1408	1401	1398	1429	1420	1401	1353	1346	1349	1348	1350	1350	1346	1336	1335	1335	1335	1334	1341	1343	1348	1346	1343	1349	1360	1360	1360	1350	1342	1335	1338	0	0	0	0	0	0	0
