0	0	0	1400	1398	1404	1417	1425	1425	1434	1434	1430	1425	1414	1414	1404	1403	1423	1438	1447	1448	1451	1451	1454	1478	1493	1496	1484	1471	1464	1464	1471	1492	1508	1523	1523	1502	0	0	0	0	0	0	0	0	0	0	0	0	0	0	0	0	0	0	0	1547	1557	1559	1561	1535	1529	1547	1560	1561	1563	1555	1549	1545	1549	1558	1573	1579	1579	1575	1576	1596	0	1821	1584	1577	1578	1593	1605	0	0	0	0	1435	1397	1385	1384	1387	1389	1388	1396	1397	1392	1380	1383	1389	1381	1371	1372	1380	1386	1382	1376	1379	1386	1395	1408	1411	1405	1400	1397	1398	1396	1391	1382	1374	1375	1389	1403	1408	1392	1384	1387	1386	1391	1390	1417	1415	1424	1428	1426	1422	1411	1398	1395	1418	1443	1451	1465	1478	1466	1462	1452	1438	1449	1503	1540	0	0	0	0	0	0	1666	1663	1657	1651	1653	1660	1652	1649	1658	1666	1675	1679	1677	1667	1661	1660	1659	1668	1684	1684	1679	1670	1662	1664	1664	1659	1659	1652	1661	1693	1698	1697	1658	1618	1560	1458	1419	1419	1423	1418	1420	1429	1432	1431	1426	1434	1437	1438	1434	1412	1401	1399	1404	1408	1409	1399	1398	1401	1406	1409	1408	1413	1404	1402	1399	1402	1421	1424	1418	1418	1416	1410	1410	1413	1414	1416	1440	1451	1455	1449	1434	1451	1467	1474	1479	0	0	0	0	0	0	0	0	1727	1750	1735	1735	1743	1750	1751	1747	1744	1722	1720	1719	1719	1701	1698	1707	0	0	0	0	0	0	0	0	0	0	0	0	0	0	0	0	0	0	0	0	0	0	0	0	0	0	0	0	0	0	0	0	0	0	0	0	0	0	0	0	0	0	0	0	0	0	0	0	0	0	0	0	0	0	0	0	0	0	0	0	0	0	0	1487	1443	1400	1390	1388	1395	1403	1412	1403	1403	1399	1395	1395	1380	1385	1396	1393	1394	1393	1404	1390	1383	1380	1384	1382	1370	1375	1386	1388	1390	1394	1393	1372	1362	1375	1377	1378	1377	1389	1407	1412	1413	1406	1404	1400	1392	1396	1407	1399	1391	1392	1417	1481	0	0	0	0	0	0	0	0	0	0	0	0	0	0	0	0	0	0	0	0	0	0	0	0	0	0	0	0	0	0	0	0	0	0	0	0	0	0	0	0	0	0	0	0	0	0	0	0	0	0	0	0	0	0	0	0	0	0	0	0	0	0	0	0	1767	1754	1747	1734	1726	1717	1688	1677	1677	1694	1712	1731	1736	1722	1703	0	0	0	0	0	0	0	0	0	0	0	1431	1425	1437	1451	1424	1417	1412	1404	1392	1387	1395	1398	1404	1403	1397	1392	1394	1392	1396	1403	1404	1407	1414	1429	1438	1426	1419	1406	1403	1404	1398	1397	1399	1408	1409	1409	1399	1397	1404	1405	1406	1405	1388	1371	1367	1369	1366	1373	1396	1423	1463	0	0	0	0	0	0	0	0	0	0	0	0	0	0	0	0	0	0	0	0	0	1497	1488	1484	1485	1481	1453	1439	1441	1441	1456	1477	1458	1410	1398	1377	1377	1380	1408	1426	1423	1410	1401	1396	1396	1411	1419	1427	1428	1426	1423	1429	1436	1429	1437	1461	1473	1492	1503	1501	1491	1480	1458	1439	1437	1441	1431	1422	1411	1415	1412	1400	1419	1422	1423	1415	1410	1408	1419	1421	1415	1416	1411	1409	1404	1398	1395	1395	1389	1386	1385	1391	1398	1394	1388	1395	1386	1395	1395	1404	1414	1417	1417	1414	1400	1392	1396	1401	1398	0	0	0	0	0	0	0
0	0	0	1404	1404	1411	1416	1424	1424	1433	1434	1428	1417	1406	1411	1408	1406	1414	1429	1444	1448	1451	1451	1464	1470	1489	1491	1481	1472	1479	1479	1501	1509	1516	1525	1507	1475	0	0	0	0	0	0	0	0	0	0	0	0	0	0	0	0	0	0	0	0	1558	1548	1541	1524	1510	1518	1542	1546	1547	1554	1553	1565	1571	1579	1586	1593	1593	1593	1586	1594	1599	1591	1588	1582	1581	1591	1607	0	0	0	0	1438	1398	1405	1402	1398	1387	1386	1391	1391	1383	1377	1378	1382	1376	1365	1361	1362	1367	1376	1373	1370	1373	1379	1392	1401	1404	1405	1401	1396	1390	1383	1378	1380	1383	1390	1398	1388	1373	1374	1374	1380	1378	1378	1402	1405	1425	1434	1428	1424	1415	1412	1411	1427	1443	1454	1456	1453	1453	1443	1444	1446	1468	1501	1534	0	0	0	0	0	0	1665	1659	1664	1656	1650	1644	1644	1647	1656	1660	1680	1684	1680	1673	1665	1668	1668	1671	1680	1683	1667	1658	1646	1646	1654	1665	1665	1659	1666	1704	1707	1704	1680	1618	1541	1424	1403	1403	1402	1406	1417	1424	1433	1430	1426	1426	1424	1424	1421	1411	1407	1397	1399	1398	1406	1400	1399	1397	1404	1403	1408	1409	1413	1407	1403	1405	1419	1423	1417	1419	1418	1415	1404	1407	1402	1407	1427	1446	1454	1449	1441	1461	1499	1483	1483	0	0	0	0	0	0	0	0	1734	1752	1744	1738	1733	1734	1739	1733	1736	1728	1733	1726	1723	1708	1706	1715	0	0	0	0	0	0	0	0	0	0	0	0	0	0	0	0	0	0	0	0	0	0	0	0	0	0	0	0	0	0	0	0	0	0	0	0	0	0	0	0	0	0	0	0	0	0	0	0	0	0	0	0	0	0	0	0	0	0	0	0	0	0	0	1495	1453	1404	1400	1398	1402	1408	1414	1413	1405	1404	1395	1381	1381	1396	1402	1404	1399	1394	1391	1389	1390	1374	1371	1374	1367	1364	1370	1378	1355	1348	1345	1351	1370	1370	1371	1378	1374	1380	1391	1406	1414	1418	1418	1419	1401	1403	1406	1399	1391	1390	1426	1517	0	0	0	0	0	0	0	0	0	0	0	0	0	0	0	0	0	0	0	0	0	0	0	0	0	0	0	0	0	0	0	0	0	0	0	0	0	0	0	0	0	0	0	0	0	0	0	0	0	0	0	0	0	0	0	0	0	0	0	0	0	0	0	0	1758	1747	1742	1741	1733	1726	1703	1690	1675	1682	1721	1719	1714	1686	0	0	0	0	0	0	0	0	0	0	0	0	1448	1436	1428	1427	1415	1414	1410	1382	1377	1380	1381	1388	1405	1397	1401	1403	1405	1399	1396	1397	1400	1411	1423	1426	1433	1431	1429	1402	1393	1384	1388	1386	1389	1398	1404	1408	1403	1402	1400	1402	1398	1398	1387	1377	1376	1375	1370	1376	1400	1439	1482	0	0	0	0	0	0	0	0	0	0	0	0	0	0	0	0	0	0	0	0	1471	1501	1490	1486	1489	1489	1454	1441	1444	1438	1436	1435	1430	1420	1420	1418	1421	1424	1430	1436	1440	1434	1419	1416	1423	1437	1449	1456	1448	1430	1421	1413	1412	1396	1426	1443	1470	1503	1502	1503	1491	1480	1453	1436	1430	1432	1426	1419	1417	1419	1411	1394	1396	1405	1417	1412	1404	1396	1406	1413	1417	1418	1414	1409	1405	1397	1393	1393	1385	1384	1385	1389	1402	1409	1398	1407	1404	1400	1408	1414	1415	1414	1414	1412	1395	1382	1382	1382	1387	0	0	0	0	0	0	0
0	0	0	1410	1411	1415	1424	1423	1423	1424	1433	1426	1422	1415	1417	1417	1410	1411	1419	1435	1454	1460	1460	1473	1480	1479	1477	1467	1469	1484	1484	1508	1520	1525	1518	1492	1461	0	0	0	0	0	0	0	0	0	0	0	0	0	0	0	0	0	0	0	0	1526	1516	1512	1511	1506	1511	1530	1530	1538	1552	1569	1568	1573	1578	1581	1584	1584	1583	1576	1577	1582	1584	1583	1589	1574	1582	1589	0	0	0	0	1438	1400	1405	1402	1390	1381	1378	1378	1383	1378	1369	1371	1379	1378	1369	1356	1354	1355	1367	1369	1362	1359	1364	1373	1383	1394	1398	1400	1397	1383	1381	1384	1389	1388	1392	1392	1374	1364	1368	1370	1376	1374	1374	1392	1396	1425	1433	1421	1419	1432	1438	1442	1452	1462	1458	1452	1447	1436	1440	1441	1465	1473	1510	1525	0	0	0	0	0	0	1663	1660	1658	1654	1640	1639	1641	1655	1657	1675	1695	1695	1688	1670	1665	1676	1676	1677	1686	1686	1666	1649	1645	1643	1646	1660	1674	1675	1675	1700	1702	1709	1685	1621	1548	1430	1403	1396	1392	1400	1413	1421	1422	1419	1417	1415	1413	1410	1409	1419	1423	1409	1395	1390	1392	1394	1399	1404	1405	1408	1407	1411	1412	1406	1397	1398	1412	1415	1412	1413	1412	1409	1400	1401	1401	1397	1417	1443	1460	1469	1475	1477	1516	1525	1536	0	0	0	0	0	0	0	0	1739	1751	1747	1742	1731	1720	1722	1715	1720	1727	1744	1736	1720	1717	1719	1727	0	0	0	0	0	0	0	0	0	0	0	0	0	0	0	0	0	0	0	0	0	0	0	0	0	0	0	0	0	0	0	0	0	0	0	0	0	0	0	0	0	0	0	0	0	0	0	0	0	0	0	0	0	0	0	0	0	0	0	0	0	0	0	1489	1470	1423	1415	1412	1412	1414	1417	1417	1412	1406	1399	1389	1385	1398	1403	1405	1401	1392	1389	1385	1376	1370	1367	1367	1366	1358	1355	1361	1360	1368	1368	1372	1365	1366	1368	1376	1378	1378	1384	1397	1410	1416	1423	1420	1413	1413	1400	1397	1391	1395	1421	1520	1579	0	0	0	0	0	0	0	0	0	0	0	0	0	0	0	0	0	0	0	0	0	0	0	0	0	0	0	0	0	0	0	0	0	0	0	0	0	0	0	0	0	0	0	0	0	0	0	0	0	0	0	0	0	0	0	0	0	0	0	0	0	0	0	1749	1754	1750	1751	1753	1750	1741	1719	1695	1697	1698	1700	1687	1654	0	0	0	0	0	0	0	0	0	0	0	0	1454	1443	1425	1409	1400	1400	1396	1369	1366	1371	1376	1382	1402	1407	1410	1417	1419	1410	1401	1396	1397	1403	1411	1418	1420	1423	1431	1411	1393	1376	1379	1379	1384	1390	1399	1408	1410	1409	1400	1389	1391	1392	1391	1387	1392	1389	1383	1387	1412	1448	1493	0	0	0	0	0	0	0	0	0	0	0	0	0	0	0	0	0	0	0	0	1488	1493	1489	1488	1485	1484	1453	1448	1440	1428	1422	1417	1415	1417	1419	1422	1428	1428	1435	1436	1437	1436	1424	1425	1433	1442	1450	1445	1434	1415	1408	1419	1422	1401	1391	1430	1460	1483	1487	1488	1480	1459	1440	1424	1426	1432	1432	1433	1431	1425	1414	1402	1392	1394	1410	1413	1407	1405	1405	1413	1418	1418	1418	1417	1407	1395	1387	1387	1384	1382	1383	1393	1403	1413	1412	1405	1402	1400	1401	1410	1411	1411	1411	1406	1399	1388	1381	1381	1391	0	0	0	0	0	0	0
0	0	0	1416	1420	1422	1427	1424	1424	1418	1419	1421	1414	1429	1425	1425	1414	1423	1418	1428	1447	1461	1461	1476	1477	1479	1466	1464	1456	1461	1461	1495	1514	1520	1501	1476	1445	1419	0	0	0	0	0	0	0	0	0	0	0	0	0	0	0	0	0	0	0	1491	1500	1498	1512	1517	1528	1555	1553	1555	1561	1569	1565	1562	1560	1561	1562	1562	1557	1560	1561	1567	1568	1573	1577	1564	1563	1572	0	0	0	0	1433	1394	1390	1379	1370	1368	1368	1372	1375	1377	1373	1375	1373	1375	1371	1368	1357	1360	1375	1380	1372	1347	1354	1360	1374	1382	1389	1391	1395	1391	1393	1390	1394	1393	1392	1389	1370	1360	1364	1370	1373	1372	1375	1386	1400	1431	1423	1422	1425	1442	1449	1463	1469	1468	1463	1458	1450	1439	1440	1450	1467	1484	1503	1505	0	0	0	0	0	0	1663	1656	1653	1653	1643	1628	1646	1655	1666	1687	1697	1700	1685	1671	1667	1670	1678	1676	1677	1675	1669	1652	1645	1640	1641	1654	1669	1677	1675	1678	1693	1679	1674	1635	1559	1470	1421	1402	1397	1403	1410	1408	1404	1397	1400	1399	1394	1406	1414	1434	1435	1422	1400	1387	1385	1390	1399	1406	1414	1416	1420	1410	1403	1406	1401	1395	1402	1406	1402	1403	1406	1401	1397	1394	1391	1394	1416	1456	1471	1485	1492	1469	1516	1540	0	0	0	0	0	0	0	0	0	0	1752	1751	1738	1712	1693	1685	1688	1714	1728	1737	1731	1721	1723	1723	1736	0	0	0	0	0	0	0	0	0	0	0	0	0	0	0	0	0	0	0	0	0	0	0	0	0	0	0	0	0	0	0	0	0	0	0	0	0	0	0	0	0	0	0	0	0	0	0	0	0	0	0	0	0	0	0	0	0	0	0	0	0	0	0	1466	1466	1447	1411	1404	1404	1404	1405	1405	1407	1406	1402	1398	1393	1394	1400	1400	1399	1396	1390	1381	1376	1370	1371	1383	1384	1371	1364	1374	1394	1392	1371	1366	1369	1376	1366	1380	1379	1380	1386	1401	1410	1413	1417	1414	1401	1405	1397	1393	1397	1400	1429	1510	1581	1630	0	0	0	0	0	0	0	0	0	0	0	0	0	0	0	0	0	0	0	0	0	0	0	0	0	0	0	0	0	0	0	0	0	0	0	0	0	0	0	0	0	0	0	0	0	0	0	0	0	0	0	0	0	0	0	0	0	0	0	0	0	0	1718	1746	1760	1767	1771	0	0	0	1679	1671	0	0	0	0	0	0	0	0	0	0	0	0	0	0	0	0	1447	1434	1428	1402	1387	1386	1383	1362	1365	1374	1386	1394	1414	1413	1418	1421	1424	1424	1408	1399	1394	1394	1394	1397	1404	1416	1422	1412	1391	1380	1379	1385	1391	1395	1403	1414	1412	1408	1397	1384	1379	1385	1393	1396	1401	1398	1398	1407	1414	1440	1504	0	0	0	0	0	0	0	0	0	0	0	0	0	0	0	0	0	0	0	0	1483	1481	1482	1475	1475	1479	1471	1446	1432	1425	1423	1419	1415	1420	1423	1429	1431	1434	1434	1436	1438	1434	1432	1428	1430	1445	1451	1440	1421	1412	1409	1415	1417	1413	1399	1423	1446	1458	1470	1466	1463	1461	1449	1429	1428	1433	1440	1446	1443	1425	1410	1399	1395	1398	1407	1409	1408	1408	1414	1418	1422	1418	1417	1408	1403	1391	1392	1392	1386	1389	1386	1394	1404	1414	1407	1392	1393	1393	1398	1406	1408	1410	1410	1408	1400	1397	1396	1404	1404	0	0	0	0	0	0	0
0	0	0	1426	1434	1439	1426	1417	1417	1409	1408	1409	1411	1432	1422	1422	1419	1421	1420	1426	1431	1440	1440	1463	1475	1479	1469	1465	1453	1453	1453	1467	1485	1490	1484	1459	1436	1418	0	0	0	0	0	0	0	0	0	0	0	0	0	0	0	0	0	0	0	0	0	1514	1524	1536	1548	1561	1571	1564	1567	1553	1545	1550	1555	1553	1544	1537	1537	1530	1545	1546	1558	1561	1565	1561	1551	1551	0	0	0	0	1456	1387	1374	1359	1355	1355	1359	1367	1371	1369	1371	1369	1369	1372	1380	1388	1385	1377	1388	1388	1382	1366	1357	1357	1368	1373	1377	1386	1391	1400	1401	1403	1400	1392	1390	1385	1366	1354	1359	1357	1372	1371	1378	1384	1398	1429	1419	1418	1429	1443	1449	1452	1456	1465	1461	1460	1457	1458	1466	1468	1481	1493	1507	1488	0	0	0	0	0	0	1651	1637	1646	1648	1632	1624	1654	1666	1668	1674	1695	1696	1682	1661	1656	1665	1675	1675	1674	1663	1678	1681	1654	1620	1622	1640	1656	1683	1689	1670	1661	1666	1671	1631	1578	1506	1448	1429	1417	1414	1407	1404	1385	1388	1391	1390	1396	1404	1421	1448	1447	1430	1407	1395	1393	1392	1397	1405	1414	1423	1427	1422	1416	1411	1410	1401	1396	1400	1400	1400	1400	1401	1397	1387	1392	1395	1426	1457	1469	1478	1478	1455	1476	1522	0	0	0	0	0	0	0	0	0	0	0	1746	1733	1702	1670	1660	1678	1705	1707	1713	1709	1704	1705	1728	1739	0	0	0	0	0	0	0	0	0	0	0	0	0	0	0	0	0	0	0	0	0	0	0	0	0	0	0	0	0	0	0	0	0	0	0	0	0	0	0	0	0	0	0	0	0	0	0	0	0	0	0	0	0	0	0	0	0	0	0	0	0	0	0	1436	1431	1433	1404	1404	1410	1411	1402	1390	1397	1400	1397	1396	1394	1390	1392	1393	1395	1397	1396	1394	1392	1373	1385	1395	1390	1381	1370	1377	1399	1396	1372	1365	1368	1377	1386	1380	1381	1390	1409	1413	1408	1406	1406	1402	1388	1396	1396	1386	1392	1405	1430	1500	1595	1639	0	0	0	0	0	0	0	0	0	0	0	0	0	0	0	0	0	0	0	0	0	0	0	0	0	0	0	0	0	0	0	0	0	0	0	0	0	0	0	0	0	0	0	0	0	0	0	0	0	0	0	0	0	0	0	0	0	0	0	0	0	0	1699	1710	1744	1751	1755	0	0	0	0	0	0	0	0	0	0	0	0	0	0	0	0	0	0	0	0	0	1439	1441	1432	1408	1379	1380	1372	1359	1367	1383	1397	1404	1406	1407	1408	1414	1429	1429	1418	1403	1393	1387	1388	1384	1388	1395	1410	1402	1389	1387	1393	1395	1404	1405	1406	1411	1411	1409	1405	1396	1383	1375	1390	1392	1398	1401	1411	1417	1412	1437	1521	0	0	0	0	0	0	0	0	0	0	0	0	0	0	0	0	0	0	0	1502	1478	1467	1472	1469	1473	1480	1483	1433	1426	1424	1421	1417	1414	1418	1430	1436	1432	1434	1437	1436	1438	1436	1432	1432	1436	1442	1441	1437	1425	1413	1414	1421	1424	1419	1407	1425	1430	1434	1448	1442	1448	1461	1461	1449	1440	1437	1436	1443	1439	1420	1408	1401	1405	1406	1407	1406	1406	1410	1417	1420	1416	1406	1398	1397	1396	1399	1399	1399	1395	1396	1395	1398	1404	1408	1399	1391	1387	1391	1400	1404	1409	1405	1405	1396	1394	1400	1411	1416	1425	0	0	0	0	0	0	0
0	0	0	1436	1433	1434	1431	1421	1421	1410	1407	1414	1423	1427	1435	1435	1436	1431	1436	1429	1424	1431	1431	1449	1467	1478	1484	1478	1466	1451	1451	1444	1453	1458	1465	1450	1438	1429	0	0	0	0	0	0	0	0	0	0	0	0	0	0	0	0	0	0	0	0	0	0	0	0	0	0	0	0	0	0	0	0	0	0	0	0	0	1511	1508	1511	1528	1531	1552	1549	1546	1545	0	0	0	0	1471	1425	1383	1365	1355	1351	1357	1364	1364	1363	1364	1368	1376	1377	1393	1406	1416	1409	1398	1396	1386	1377	1358	1365	1367	1371	1374	1384	1394	1403	1412	1407	1400	1392	1388	1380	1363	1351	1353	1354	1374	1384	1385	1390	1412	1430	1421	1420	1429	1437	1446	1450	1449	1459	1464	1468	1460	1470	1476	1487	1495	1505	1512	1495	0	0	0	0	0	0	0	1618	1624	0	0	0	0	0	1664	1659	1680	1682	1670	1655	1646	1664	1675	1682	1680	1682	1706	1708	1683	1626	1607	1618	1644	1679	1701	1713	1700	1680	1678	1626	1559	1517	1468	1451	1438	1431	1410	1398	1381	1378	1391	1393	1398	1405	1428	1459	1456	1436	1425	1408	1402	1399	1393	1394	1408	1412	1415	1415	1413	1415	1415	1407	1398	1404	1406	1407	1404	1403	1399	1396	1395	1401	1428	1449	1447	1448	1442	1442	1458	1514	0	0	0	0	0	0	0	0	0	0	0	0	0	0	1654	1639	1660	1692	1709	1712	1687	1676	1690	1720	0	0	0	0	0	0	0	0	0	0	0	0	0	0	0	0	0	0	0	0	0	0	0	0	0	0	0	0	0	0	0	0	0	0	0	0	0	0	0	0	0	0	0	0	0	0	0	0	0	0	0	0	0	1758	0	0	0	1739	1743	0	0	0	0	0	1427	1410	1405	1401	1404	1411	1411	1405	1383	1381	1388	1388	1389	1385	1379	1381	1388	1391	1400	1406	1402	1404	1405	1378	1402	1401	1394	1384	1391	1394	1395	1398	1404	1396	1390	1380	1380	1388	1411	1412	1410	1404	1402	1397	1393	1385	1397	1401	1396	1395	1399	1419	1501	1614	1661	1693	0	0	0	0	0	0	0	0	0	0	0	0	0	0	0	0	0	0	0	0	0	0	0	0	0	0	0	0	0	0	0	0	0	0	0	0	0	0	0	0	0	0	0	0	0	0	0	0	0	0	0	0	0	0	0	0	0	0	0	0	0	0	1709	1723	0	0	0	0	0	0	0	0	0	0	0	0	0	0	0	0	0	0	0	0	0	0	0	1468	1454	1436	1415	1381	1378	1365	1361	1371	1388	1397	1402	1388	1389	1391	1407	1421	1421	1419	1403	1396	1394	1387	1382	1378	1384	1390	1393	1381	1390	1398	1406	1408	1406	1402	1404	1412	1418	1416	1405	1383	1376	1378	1385	1387	1399	1413	1411	1402	1431	1519	0	0	0	0	0	0	0	0	0	0	0	0	0	0	0	0	0	0	0	1513	1474	1459	1467	1472	1478	1490	1488	1427	1425	1424	1419	1417	1415	1423	1433	1437	1438	1432	1433	1433	1440	1439	1432	1431	1435	1439	1442	1435	1424	1420	1425	1420	1421	1418	1414	1419	1424	1440	1440	1432	1440	1460	1473	1463	1446	1441	1430	1428	1425	1414	1409	1409	1410	1412	1409	1406	1410	1415	1413	1414	1405	1390	1380	1381	1389	1398	1398	1406	1409	1406	1401	1399	1408	1404	1395	1390	1393	1398	1405	1403	1407	1408	1408	1396	1391	1397	1412	1421	1434	0	0	0	0	0	0	0
0	0	0	1419	1428	1431	1432	1429	1429	1420	1414	1427	1421	1426	1432	1432	1435	1431	1431	1426	1419	1421	1421	1437	1451	1482	1502	1509	1494	1471	1471	1442	1434	1435	1445	1455	1453	0	0	0	0	0	0	0	0	0	0	0	0	0	0	0	0	0	0	0	0	0	0	0	0	0	0	0	0	0	0	0	0	0	0	0	0	0	0	0	0	0	1507	0	0	0	0	0	0	0	0	0	1477	1435	1400	1388	1371	1365	1365	1364	1357	1354	1360	1380	1394	1398	1408	1419	1431	1430	1400	1390	1384	1376	1369	1369	1372	1371	1377	1386	1395	1400	1407	1403	1397	1394	1394	1391	1378	1358	1355	1361	1378	1396	1400	1401	1432	1434	1412	1415	1425	1437	1452	1442	1440	1450	1454	1464	1467	1473	1479	1490	1497	1519	1517	1501	0	0	0	0	0	0	0	0	0	0	0	0	0	0	0	0	0	0	1675	1668	1668	1679	1683	0	0	0	0	0	0	0	1649	1635	1647	1673	1708	1727	1728	1717	1665	1609	1533	1514	1489	1466	1451	1442	1416	1396	1382	1382	1398	1403	1407	1415	1432	1457	1452	1440	1430	1421	1413	1403	1396	1395	1400	1404	1404	1407	1406	1408	1406	1399	1402	1412	1418	1416	1407	1399	1401	1402	1403	1406	1430	1427	1423	1413	1404	1420	1456	1495	0	0	0	0	0	0	0	0	0	0	0	0	0	0	0	0	0	0	0	0	0	1676	1687	0	0	0	0	0	0	0	0	0	0	0	0	0	0	0	0	0	0	0	0	0	0	0	0	0	0	0	0	0	0	0	0	1715	1712	1721	1739	0	0	0	0	0	0	0	0	0	0	0	0	0	0	0	1766	1764	1765	1773	1772	1764	1746	1730	1744	1774	1774	0	0	0	1428	1408	1396	1394	1395	1404	1411	1405	1389	1379	1380	1382	1390	1389	1385	1383	1393	1404	1407	1407	1404	1402	1406	1406	1405	1405	1421	1424	1431	1429	1422	1415	1407	1398	1386	1375	1374	1389	1409	1406	1407	1404	1401	1400	1398	1395	1405	1398	1398	1402	1403	1418	1499	1643	1686	1716	1741	1748	1754	0	0	0	0	0	0	0	0	0	0	0	0	0	0	0	0	0	0	0	0	0	0	0	0	0	0	0	0	0	0	0	0	0	0	0	0	0	0	0	0	0	0	0	0	0	0	0	0	0	0	0	0	0	0	0	0	0	0	0	0	0	0	0	0	0	0	0	0	0	0	0	0	0	0	0	0	0	0	0	0	0	0	0	0	0	1477	1440	1416	1391	1381	1369	1364	1377	1392	1399	1400	1380	1376	1380	1390	1406	1405	1402	1399	1399	1397	1390	1381	1378	1376	1384	1375	1380	1391	1397	1411	1408	1400	1392	1399	1409	1420	1431	1412	1384	1360	1369	1374	1378	1388	1399	1401	1407	1425	1489	0	0	0	0	0	0	0	0	0	0	0	0	0	0	0	0	0	0	0	1513	1483	1473	1473	1483	1493	1498	1482	1428	1434	1426	1421	1417	1419	1420	1434	1442	1444	1435	1431	1436	1440	1442	1440	1435	1439	1442	1438	1424	1424	1419	1421	1418	1418	1419	1416	1418	1425	1454	1461	1451	1447	1466	1475	1472	1451	1431	1428	1424	1416	1413	1415	1413	1412	1409	1409	1412	1413	1417	1415	1406	1396	1381	1369	1371	1385	1400	1400	1409	1414	1401	1395	1395	1397	1404	1399	1392	1398	1397	1400	1406	1401	1401	1403	1404	1394	1391	1403	1411	1431	0	0	0	0	0	0	0
0	0	1407	1407	1413	1423	1436	1440	1436	1436	1439	1432	1418	1419	1427	1427	1439	1439	1438	1427	1422	1419	1419	1436	1461	1479	1501	1515	1509	1486	1463	1463	1436	1434	1450	1464	1458	0	0	0	0	0	0	0	0	0	0	0	0	0	0	0	0	0	0	0	0	0	0	0	0	0	0	0	0	0	0	0	0	0	0	0	0	0	0	0	0	0	0	0	0	0	0	0	0	0	0	0	1466	1436	1412	1398	1387	1380	1373	1360	1349	1348	1366	1384	1398	1413	1422	1434	1439	1442	1395	1375	1367	1369	1368	1368	1367	1377	1382	1390	1396	1401	1403	1401	1401	1399	1399	1399	1393	1371	1367	1369	1378	1399	1403	1408	1431	1428	1410	1411	1426	1440	1451	1449	1437	1441	1448	1456	1467	1468	1475	1479	1504	1532	1525	1504	0	0	0	0	0	0	0	0	0	0	0	0	0	0	0	0	0	0	0	0	0	0	0	0	0	0	0	0	0	0	0	0	0	0	0	0	0	1702	1653	1603	1518	1510	1497	1474	1467	1447	1420	1405	1394	1399	1410	1411	1415	1412	1420	1424	1425	1423	1425	1424	1417	1400	1390	1388	1390	1400	1406	1401	1401	1403	1410	1403	1405	1419	1422	1415	1396	1390	1401	1412	1415	1434	1442	1428	1411	1391	1394	1416	1453	1488	0	0	0	0	0	0	0	0	0	0	0	0	0	0	0	0	0	0	0	0	0	0	0	0	0	0	0	0	0	0	0	0	0	0	0	0	0	0	0	0	0	0	0	0	0	0	0	0	0	0	1797	1797	1791	1779	1758	1724	1717	1723	1745	1753	1764	1775	1797	0	1782	1763	1734	1763	1776	0	0	0	1776	1780	1773	1772	1765	1772	1770	1753	1738	1738	1756	1772	1766	0	0	0	1421	1407	1406	1392	1392	1397	1403	1407	1404	1394	1393	1388	1395	1400	1400	1395	1404	1407	1410	1403	1393	1395	1405	1410	1406	1407	1419	1423	1426	1429	1440	1432	1420	1403	1389	1377	1377	1383	1396	1398	1404	1407	1407	1407	1406	1410	1410	1399	1394	1401	1427	1437	1513	1647	1694	1749	1772	1790	1800	1798	1792	1782	1771	1782	1805	1825	0	0	0	0	0	0	0	0	0	0	0	1787	0	0	0	0	0	0	0	0	0	0	0	0	0	0	0	0	0	0	0	0	0	0	0	0	0	0	0	0	0	0	0	0	0	0	0	0	0	0	0	0	0	0	0	0	0	0	0	0	0	0	0	0	0	0	0	0	0	0	0	0	0	0	0	0	0	0	1466	1425	1415	1404	1391	1377	1368	1381	1396	1406	1394	1387	1381	1373	1378	1385	1393	1391	1393	1400	1397	1389	1380	1373	1367	1367	1378	1387	1391	1398	1402	1398	1390	1384	1394	1405	1422	1425	1414	1395	1369	1366	1365	1367	1372	1371	1380	1401	1433	1474	0	0	0	0	0	0	0	0	0	0	0	0	0	0	0	0	0	0	0	0	1490	1477	1486	1496	1511	1511	1471	1420	1439	1447	1449	1441	1444	1448	1458	1462	1446	1432	1431	1439	1455	1468	1462	1452	1446	1441	1429	1423	1419	1424	1423	1419	1421	1425	1428	1437	1439	1494	1500	1480	1473	1473	1481	1471	1442	1431	1432	1426	1421	1419	1418	1416	1409	1403	1408	1418	1423	1427	1420	1413	1396	1383	1371	1374	1392	1407	1407	1414	1406	1394	1386	1390	1392	1397	1399	1390	1396	1398	1402	1403	1402	1402	1406	1400	1392	1385	1380	1392	1417	0	0	0	0	0	0	0
0	0	1404	1404	1404	1419	1431	1440	1441	1444	1442	1434	1416	1411	1428	1428	1439	1436	1437	1437	1419	1420	1420	1429	1440	1461	1483	1504	1501	1488	1467	1467	1449	1447	1458	1455	1448	1447	0	0	0	0	0	0	0	0	0	0	0	0	0	0	0	0	0	0	0	0	0	0	0	0	0	0	0	0	0	0	0	0	0	0	0	0	0	0	0	0	0	0	0	0	0	0	0	0	0	0	1441	1422	1414	1404	1393	1387	1379	1373	1357	1357	1382	1394	1403	1402	1399	1397	1408	1406	1378	1367	1367	1368	1372	1367	1370	1373	1377	1377	1385	1394	1400	1395	1391	1396	1401	1398	1397	1393	1388	1383	1385	1394	1398	1403	1400	1396	1402	1419	1436	1443	1453	1453	1434	1420	1430	1446	1470	1472	1470	1483	1504	1543	1535	0	0	0	0	0	0	0	0	0	0	0	0	0	0	0	0	0	0	0	0	0	0	0	0	0	0	0	0	0	0	0	0	0	0	0	0	0	0	0	0	0	0	1497	1493	1476	1470	1436	1413	1406	1399	1407	1416	1412	1399	1396	1396	1398	1412	1417	1415	1410	1411	1398	1388	1385	1392	1406	1411	1409	1405	1411	1411	1412	1413	1421	1423	1416	1402	1382	1392	1418	1431	1449	1443	1425	1407	1398	1408	1419	1447	1476	0	0	0	0	0	0	0	0	0	0	0	0	0	0	0	0	0	0	0	0	0	0	0	0	0	0	0	0	0	0	0	0	0	0	0	0	0	0	0	1769	1773	1770	1773	1777	1777	0	0	0	1773	1776	1788	1812	1814	1794	1761	1743	1724	1735	1743	1750	1761	1773	1784	1782	1760	1729	1715	1737	1790	1800	1795	1785	1780	1780	1764	1755	1752	1763	1768	1760	1750	1748	1756	1760	1756	1718	0	0	1430	1403	1411	1394	1396	1402	1405	1405	1406	1408	1401	1393	1398	1395	1397	1396	1404	1405	1399	1386	1382	1390	1399	1409	1415	1424	1411	1415	1420	1423	1437	1433	1416	1401	1390	1386	1388	1391	1392	1396	1401	1407	1408	1410	1404	1413	1414	1403	1400	1407	1436	1456	1533	1607	1711	1760	1791	1812	1808	1808	1798	1785	1792	1791	1797	1815	1827	0	0	0	0	0	0	0	0	0	0	0	0	0	0	0	0	0	0	0	0	0	0	0	0	0	0	0	0	0	0	0	0	0	0	0	0	0	0	0	0	0	0	0	0	0	0	0	0	0	0	0	0	0	0	0	0	0	0	0	0	0	0	0	0	0	0	0	0	0	0	0	0	0	0	0	0	0	1426	1415	1421	1423	1413	1390	1384	1385	1398	1405	1398	1389	1381	1378	1383	1387	1385	1388	1390	1394	1391	1380	1376	1363	1359	1368	1380	1390	1391	1391	1388	1385	1378	1381	1390	1404	1416	1420	1415	1399	1379	1371	1362	1359	1358	1359	1365	1388	1431	1473	0	0	0	0	0	0	0	0	0	0	0	0	0	0	0	0	0	0	0	0	1485	1483	1484	1498	1508	1501	1447	1395	1415	1434	1451	1464	1461	1453	1443	1440	1446	1442	1441	1439	1447	1454	1457	1453	1441	1416	1400	1390	1394	1398	1395	1382	1391	1409	1433	1438	1480	1504	1510	1498	1478	1477	1476	1465	1442	1433	1431	1427	1424	1425	1420	1411	1402	1402	1406	1425	1430	1430	1421	1412	1406	1392	1380	1381	1396	1411	1411	1417	1408	1387	1377	1381	1386	1392	1393	1385	1393	1398	1398	1392	1390	1390	1389	1387	1381	1377	1379	1393	1408	0	0	0	0	0	0	0
0	0	1416	1416	1412	1422	1423	1430	1444	1429	1435	1428	1415	1416	1430	1430	1448	1449	1452	1443	1430	1427	1422	1422	1423	1438	1466	1494	1501	1492	1481	1481	1463	1462	1464	1461	1448	1443	0	0	0	0	0	0	0	0	0	0	0	0	0	0	0	0	0	0	0	0	0	0	0	0	0	0	0	0	0	0	0	0	0	0	0	0	0	0	0	0	0	0	0	0	0	0	0	0	0	0	1396	1404	1372	1372	1373	1378	1379	1379	1379	1376	1393	1402	1402	1402	1400	1399	1402	1403	1384	1368	1370	1372	1376	1378	1379	1372	1370	1368	1374	1380	1391	1391	1388	1383	1383	1383	1387	1394	1396	1391	1392	1393	1394	1394	1393	1399	1410	1420	1440	1452	1453	1444	1424	1414	1434	1457	1477	1480	1491	1507	1520	1533	1526	0	0	0	0	0	0	0	0	0	0	0	0	0	0	0	0	0	0	0	0	0	0	0	0	0	0	0	0	0	0	0	0	0	0	0	0	0	0	0	0	0	0	1483	1482	1465	1446	1429	1414	1411	1407	1407	1412	1412	1402	1392	1382	1392	1410	1412	1409	1407	1402	1400	1394	1393	1401	1413	1420	1424	1419	1414	1417	1417	1426	1429	1431	1426	1418	1396	1404	1420	1433	1446	1448	1434	1429	1419	1424	1427	1445	1470	0	0	0	0	0	0	0	0	0	0	0	0	0	0	0	0	0	0	0	0	0	0	0	0	0	0	0	0	0	0	0	0	0	0	0	0	0	0	0	1780	1770	1761	1753	1753	1752	0	0	0	0	1774	1800	1812	1824	1802	1773	1761	1763	1759	1757	1757	1768	1779	1781	1774	1731	1708	1708	1742	1776	1799	1786	1774	1778	1780	1773	1747	1729	1751	1760	1761	1749	1747	1741	1738	1721	1707	0	0	1470	1412	1419	1402	1402	1406	1405	1401	1408	1410	1400	1390	1384	1381	1382	1392	1399	1398	1393	1382	1379	1385	1391	1403	1417	1420	1412	1407	1410	1416	1426	1425	1414	1401	1393	1378	1394	1398	1395	1397	1398	1402	1400	1401	1404	1410	1412	1409	1404	1401	1424	1472	1552	1625	1730	1760	1781	1792	1789	1790	1779	1774	1792	1779	1775	1784	1817	0	0	0	0	0	0	0	0	0	0	0	0	0	0	0	0	0	0	0	0	0	0	0	0	0	0	0	0	0	0	0	0	0	0	0	0	0	0	0	0	0	0	0	0	0	0	0	0	0	0	0	0	0	0	0	0	0	0	0	0	0	0	0	0	0	0	0	0	0	0	0	0	0	0	0	0	0	1392	1400	1422	1433	1439	1425	1397	1395	1392	1399	1399	1391	1387	1386	1392	1399	1387	1381	1386	1388	1386	1376	1369	1354	1358	1374	1387	1401	1392	1386	1381	1373	1368	1377	1389	1395	1404	1409	1410	1406	1381	1376	1371	1371	1376	1365	1373	1392	1447	1482	0	0	0	0	0	0	0	0	0	0	0	0	0	0	0	0	0	0	0	0	0	0	1448	1449	1456	1438	1402	1407	1407	1416	1422	1419	1416	1416	1427	1430	1429	1427	1414	1417	1423	1419	1419	1414	1410	1405	1404	1405	1398	1393	1386	1385	1393	1410	1424	1427	1468	1489	1487	1480	1477	1475	1468	1462	1445	1431	1421	1417	1418	1419	1415	1410	1402	1400	1416	1424	1431	1421	1414	1410	1407	1398	1394	1387	1396	1396	1408	1408	1400	1385	1377	1383	1386	1387	1386	1388	1390	1396	1392	1386	1382	1382	1379	1375	1361	1374	1384	1395	1410	0	0	0	0	0	0	0
0	0	1429	1429	1426	1426	1422	1427	1429	1428	1431	1430	1418	1420	1435	1435	1451	1458	1453	1449	1447	1438	1425	1425	1422	1429	1463	1493	1500	1501	1487	1487	1487	1485	1478	1469	1454	1440	0	0	0	0	0	0	0	0	0	0	0	0	0	0	0	0	0	0	0	0	0	0	0	0	0	0	0	0	0	0	0	0	0	0	0	0	0	0	0	0	0	0	0	0	0	0	0	0	0	0	1367	1353	1345	1357	1366	1371	1374	1379	1385	1391	1399	1409	1410	1411	1404	1407	1415	1407	1386	1374	1369	1374	1379	1382	1381	1374	1368	1368	1373	1380	1385	1383	1377	1367	1370	1380	1392	1403	1401	1399	1395	1393	1390	1385	1397	1414	1418	1431	1448	1459	1450	1441	1421	1418	1444	1465	1473	1487	1493	1499	1520	1499	1488	1491	0	0	0	0	0	0	0	0	0	0	0	0	0	0	0	0	0	0	0	0	0	0	0	0	0	0	0	0	0	0	0	0	0	0	0	0	0	0	0	0	0	1473	1466	1463	1458	1450	1434	1426	1417	1414	1415	1417	1410	1395	1390	1397	1415	1419	1413	1406	1407	1397	1396	1396	1405	1419	1423	1423	1417	1416	1421	1426	1434	1442	1438	1434	1431	1419	1406	1420	1428	1439	1449	1450	1459	1455	1441	1432	1452	1469	0	0	0	0	0	0	0	0	0	0	0	0	0	0	0	0	0	0	0	0	0	0	0	0	0	0	0	0	0	0	0	0	0	0	0	0	0	0	0	1780	1766	1751	1741	1735	1745	0	0	0	0	0	0	0	0	0	1794	1794	0	0	0	0	0	0	0	1765	1733	1707	1713	1739	1769	1788	1774	1763	1762	1762	1765	1736	1729	1720	1724	1747	1748	1735	1730	1716	1712	1695	0	0	1483	1438	1433	1408	1405	1409	1410	1410	1403	1405	1401	1388	1379	1376	1385	1393	1396	1395	1386	1379	1379	1386	1398	1403	1411	1410	1403	1395	1395	1402	1398	1398	1408	1404	1387	1384	1390	1401	1401	1397	1397	1392	1385	1383	1394	1399	1403	1407	1400	1403	1425	1486	1562	1708	1737	1747	1758	1748	1744	1745	1755	1767	1766	1757	1758	1753	1795	0	0	0	0	0	0	0	0	0	0	0	0	0	0	0	0	0	0	0	0	0	0	0	0	0	0	0	0	0	0	0	0	0	0	0	0	0	0	0	0	0	0	0	0	0	0	0	0	0	0	0	0	0	0	0	0	0	0	0	0	0	0	0	0	0	0	0	0	0	0	0	0	0	0	0	0	0	1371	1384	1421	1447	1453	1438	1410	1395	1395	1398	1393	1388	1386	1387	1397	1403	1392	1381	1386	1391	1378	1371	1359	1357	1368	1381	1393	1394	1392	1391	1388	1376	1374	1381	1395	1400	1398	1404	1403	1397	1379	1377	1375	1392	1395	1381	1386	1411	1474	1504	0	0	0	0	0	0	0	0	0	0	0	0	0	0	0	0	0	0	0	0	0	0	0	1425	1424	1421	1417	1417	1418	1420	1423	1423	1419	1418	1423	1426	1420	1412	1410	1416	1417	1417	1415	1411	1410	1403	1400	1402	1402	1396	1393	1400	1412	1424	1411	1391	1405	1430	1458	1464	1473	1470	1456	1457	1432	1416	1409	1398	1410	1412	1413	1411	1406	1401	1413	1417	1418	1412	1405	1401	1403	1406	1402	1401	1402	1402	1402	1403	1399	1389	1388	1386	1390	1393	1393	1392	1392	1389	1385	1381	1380	1380	1375	1379	1379	1386	1391	1399	1408	0	0	0	0	0	0	0
0	0	1435	1435	1432	1423	1414	1416	1412	1412	1419	1424	1430	1432	1449	1451	1451	1451	1446	1454	1452	1440	1423	1423	1427	1434	1454	1485	1509	1510	1496	1496	1506	1504	1493	1491	1479	1453	0	0	0	0	0	0	0	0	0	0	0	0	0	0	0	0	0	0	0	0	0	0	0	0	0	0	0	0	0	0	0	0	0	0	0	0	0	0	0	0	0	0	0	0	0	0	0	0	0	0	1385	1358	1349	1364	1370	1372	1379	1383	1387	1393	1403	1408	1405	1402	1410	1410	1414	1406	1393	1373	1372	1378	1379	1383	1381	1376	1372	1373	1376	1386	1388	1380	1369	1364	1372	1384	1395	1407	1408	1402	1393	1390	1382	1373	1414	1423	1421	1438	1457	1462	1457	1445	1436	1432	1441	1458	1471	1471	1478	1496	1519	1489	1477	1471	0	0	0	0	0	0	0	0	0	0	0	0	0	0	0	0	0	0	0	0	0	0	0	0	0	0	0	0	0	0	0	0	0	0	0	0	0	0	0	0	0	1448	1445	1453	1458	1453	1444	1433	1425	1415	1413	1415	1408	1398	1398	1407	1423	1420	1412	1413	1408	1397	1396	1405	1411	1420	1422	1421	1414	1413	1414	1429	1439	1438	1433	1437	1441	1431	1410	1409	1414	1428	1447	1461	1476	1468	1446	1444	1472	1469	0	0	0	0	0	0	0	0	0	0	0	0	0	0	0	0	0	0	0	0	0	0	0	0	0	0	0	0	0	0	0	0	0	0	0	0	0	0	0	0	1754	1746	1731	1732	1745	1755	0	0	0	0	0	0	0	0	0	0	0	0	0	0	0	0	0	1774	1742	1717	1717	1742	1763	1776	1762	1749	1753	1764	1774	1763	1747	1737	1741	1757	1762	1740	1729	1721	1711	1702	0	0	1460	1432	1439	1426	1415	1413	1414	1417	1421	1421	1411	1393	1379	1382	1394	1404	1410	1408	1418	1425	1414	1400	1390	1399	1405	1410	1401	1393	1385	1385	1389	1390	1393	1397	1392	1393	1400	1402	1408	1408	1403	1396	1382	1378	1375	1383	1391	1403	1405	1405	1444	1494	1559	1718	1731	1748	1755	1736	1732	1731	1743	1754	0	0	0	1772	1783	0	0	0	0	0	0	0	0	0	0	0	0	0	0	0	0	0	0	0	0	0	0	0	0	0	0	0	0	0	0	0	0	0	0	0	0	0	0	0	0	0	0	0	0	0	0	0	0	0	0	0	0	0	0	0	0	0	0	0	0	0	0	0	0	0	0	0	0	0	0	0	0	0	0	0	0	0	1367	1379	1420	1449	1459	1438	1407	1400	1395	1394	1391	1389	1383	1388	1394	1400	1391	1387	1391	1395	1387	1379	1371	1370	1374	1381	1388	1387	1388	1394	1400	1399	1389	1388	1396	1399	1403	1406	1400	1388	1372	1374	1383	1398	1399	1400	1400	1415	1457	1510	0	0	0	0	0	0	0	0	0	0	0	0	0	0	0	0	0	0	0	0	0	0	1427	1418	1427	1436	1439	1431	1429	1423	1422	1421	1424	1425	1428	1428	1419	1406	1404	1412	1421	1421	1420	1417	1415	1405	1400	1405	1407	1409	1409	1416	1417	1417	1417	1403	1392	1409	1423	1431	1435	1445	1440	1438	1429	1407	1398	1403	1410	1414	1412	1414	1408	1404	1406	1406	1406	1404	1399	1394	1398	1401	1411	1406	1405	1405	1403	1406	1404	1400	1392	1389	1390	1394	1403	1402	1397	1389	1383	1377	1373	1373	1387	1396	1392	1392	1393	1396	1399	0	0	0	0	0	0	0
0	0	1421	1421	1424	1422	1410	1410	1398	1398	1405	1411	1425	1434	1452	1452	1452	1443	1455	1458	1460	1439	1422	1422	1409	1426	1448	1480	1503	1503	1500	1500	1498	1497	1498	1505	1491	1481	0	0	0	0	0	0	0	0	0	0	0	0	0	0	0	0	0	0	0	0	0	0	0	0	0	0	0	0	0	0	0	0	0	0	0	0	0	0	0	0	0	0	0	0	0	0	0	0	0	0	1401	1395	1382	1383	1387	1387	1389	1386	1385	1386	1400	1404	1396	1391	1392	1412	1417	1407	1398	1387	1383	1385	1381	1376	1380	1372	1370	1379	1383	1393	1393	1382	1372	1369	1379	1386	1390	1397	1405	1398	1393	1389	1375	1368	1414	1434	1432	1449	1460	1458	1451	1448	1446	1440	1447	1458	1462	1471	1482	1502	1517	1493	1486	1466	0	0	0	0	0	0	0	0	0	0	0	0	0	0	0	0	0	0	0	0	0	0	0	0	0	0	0	0	0	0	0	0	0	0	0	0	0	0	0	0	0	1419	1425	1440	1454	1457	1450	1440	1425	1418	1413	1410	1399	1393	1398	1409	1418	1417	1413	1413	1414	1412	1404	1401	1409	1418	1425	1423	1417	1410	1410	1420	1432	1434	1421	1416	1423	1413	1398	1398	1403	1416	1447	1460	1463	1470	1439	1447	1482	1480	0	0	0	0	0	0	0	0	0	0	0	0	0	0	0	0	0	0	0	0	0	0	0	0	0	0	0	0	0	0	0	0	0	0	0	0	0	0	0	0	0	0	1736	1734	1746	1758	0	0	0	0	0	0	0	0	0	0	0	0	0	0	0	0	0	0	1758	1746	1735	1745	1754	0	0	0	1773	1781	1792	1792	1779	1763	1775	1795	0	1763	1752	1742	1727	0	0	0	1410	1400	1447	1456	1441	1409	1405	1417	1424	1422	1417	1408	1395	1394	1402	1403	1405	1404	1408	1409	1404	1394	1393	1394	1399	1404	1404	1396	1382	1381	1379	1385	1394	1399	1396	1402	1400	1405	1409	1415	1410	1399	1386	1373	1366	1368	1380	1400	1407	1414	1455	1501	1555	1671	1719	1742	1759	1757	1755	1741	1742	1752	0	0	0	1784	1783	0	0	0	0	0	0	0	0	0	0	0	0	0	0	0	0	0	0	0	0	0	0	0	0	0	0	0	0	0	0	0	0	0	0	0	0	0	0	0	0	0	0	0	0	0	0	0	0	0	0	0	0	0	0	0	0	0	0	0	0	0	0	0	0	0	0	0	0	0	0	0	0	0	0	0	0	0	1391	1384	1425	1445	1442	1427	1403	1395	1395	1391	1386	1382	1381	1387	1394	1399	1397	1391	1399	1407	1408	1397	1390	1388	1384	1378	1378	1375	1389	1399	1407	1408	1408	1399	1401	1404	1409	1408	1401	1383	1362	1362	1379	1389	1393	1395	1414	1422	1457	1508	0	0	0	0	0	0	0	0	0	0	0	0	0	0	0	0	0	0	0	0	0	0	1433	1438	1455	1462	1457	1442	1429	1421	1416	1417	1423	1436	1436	1430	1421	1410	1410	1417	1421	1420	1419	1419	1415	1414	1414	1418	1413	1423	1417	1424	1412	1411	1410	1408	1407	1414	1410	1416	1413	1427	1425	1437	1431	1412	1411	1415	1418	1413	1412	1409	1407	1402	1400	1403	1409	1410	1403	1402	1403	1408	1414	1410	1405	1405	1407	1410	1414	1408	1398	1390	1388	1398	1407	1410	1409	1402	1392	1374	1379	1379	1390	1398	1401	1396	1390	1388	1392	0	0	0	0	0	0	0
0	0	1403	1403	1407	1397	1397	1381	1385	1385	1393	1399	1411	1435	1456	1464	1464	1462	1463	1467	1453	1440	1421	1421	1415	1419	1447	1464	1479	1478	1475	1475	1479	1482	1500	1512	1510	1499	1481	0	0	0	0	0	0	0	0	0	0	0	0	0	0	0	0	0	0	0	0	0	0	0	0	0	0	0	0	0	0	0	0	0	0	0	0	0	0	0	0	0	0	0	0	0	0	0	0	0	1400	1401	1409	1406	1406	1403	1397	1389	1383	1389	1398	1394	1385	1383	1388	1400	1408	1406	1401	1398	1395	1384	1373	1370	1368	1365	1371	1378	1391	1396	1391	1384	1375	1380	1385	1389	1385	1394	1393	1395	1394	1392	1379	1371	1413	1441	1445	1444	1448	1447	1449	1451	1446	1443	1440	1451	1461	1470	1488	1498	1511	1510	1493	0	0	0	0	0	0	0	0	0	0	0	0	0	0	0	0	0	0	0	0	0	0	0	0	0	0	0	0	0	0	0	0	0	0	0	0	0	0	0	0	0	0	1389	1408	1427	1441	1452	1441	1431	1425	1415	1403	1397	1395	1392	1399	1403	1410	1409	1413	1417	1422	1413	1404	1398	1404	1422	1436	1432	1420	1413	1411	1420	1426	1420	1404	1407	1407	1400	1388	1383	1389	1407	1428	1446	1449	1445	1419	1458	1466	1451	0	0	0	0	0	0	0	0	0	0	0	0	0	0	0	0	0	0	0	0	0	0	0	0	0	0	0	0	0	0	0	0	0	0	0	0	0	0	0	0	0	0	0	1743	1754	1770	1770	0	0	0	0	0	0	0	0	0	0	0	0	0	0	0	0	0	1779	1770	1761	1760	1766	0	0	0	1794	1792	1790	1817	1809	1800	1807	1808	0	0	0	0	0	0	0	0	1363	1396	1444	1458	1443	1406	1399	1409	1417	1419	1413	1411	1411	1408	1403	1403	1394	1396	1401	1403	1402	1396	1390	1397	1397	1409	1407	1399	1384	1374	1384	1402	1406	1406	1400	1394	1402	1414	1419	1420	1410	1403	1387	1374	1368	1376	1387	1399	1401	1398	1442	1490	1564	1673	1712	1753	1775	1787	1755	1748	1750	1752	0	0	0	1780	1781	1779	0	0	0	0	0	0	0	0	0	0	0	0	0	0	0	0	0	0	0	0	0	0	0	0	0	0	0	0	0	0	0	0	0	0	0	0	0	0	0	0	0	0	0	0	0	0	0	0	0	0	0	0	0	0	0	0	0	0	0	0	0	0	0	0	0	0	0	0	0	0	0	0	0	0	0	0	1425	1418	1434	1431	1423	1411	1396	1389	1385	1381	1378	1381	1383	1389	1396	1404	1400	1397	1399	1404	1405	1404	1398	1389	1384	1384	1381	1386	1396	1405	1414	1416	1418	1426	1424	1421	1424	1422	1406	1396	1367	1363	1372	1381	1387	1402	1417	1417	1455	1514	0	0	0	0	0	0	0	0	0	0	0	0	0	0	0	0	0	0	0	0	0	0	0	1459	1472	1477	1455	1442	1433	1412	1402	1404	1413	1429	1436	1437	1430	1432	1436	1434	1424	1422	1414	1410	1406	1411	1417	1423	1425	1425	1428	1428	1418	1407	1404	1405	1414	1406	1401	1404	1409	1419	1421	1426	1425	1419	1420	1429	1421	1397	1381	1382	1379	1397	1402	1404	1412	1414	1414	1413	1415	1416	1411	1412	1408	1408	1415	1417	1409	1411	1400	1392	1392	1400	1406	1415	1418	1413	1406	1395	1395	1388	1391	1394	1398	1395	1395	1397	1399	0	0	0	0	0	0	0
0	0	1382	1382	1378	1383	1375	1381	1389	1389	1396	1397	1410	1435	1465	1477	1477	1492	1480	1473	1461	1440	1429	1429	1423	1425	1441	1449	1456	1457	1461	1462	1462	1471	1489	1502	1504	1507	1497	0	0	0	0	0	0	0	0	0	0	0	0	0	0	0	0	0	0	0	0	0	0	0	0	0	0	0	0	0	0	0	0	0	0	0	0	0	0	0	0	0	0	0	0	0	0	0	0	0	0	1392	1410	1414	1417	1414	1401	1387	1380	1394	1406	1400	1388	1380	1382	1388	1393	1395	1401	1401	1399	1390	1369	1358	1360	1362	1376	1385	1393	1394	1391	1389	1385	1385	1384	1381	1379	1379	1387	1392	1395	1392	1368	1380	1409	1439	1443	1431	1434	1437	1439	1440	1434	1430	1436	1449	1465	1481	1497	1504	1502	1491	1483	0	0	0	0	0	0	0	0	0	0	0	0	0	0	0	0	0	0	0	0	0	0	0	0	0	0	0	0	0	0	0	0	0	0	0	0	0	0	0	0	0	0	1377	1396	1413	1427	1430	1423	1418	1415	1409	1395	1394	1397	1405	1408	1409	1407	1402	1406	1413	1423	1418	1401	1395	1399	1417	1435	1438	1421	1413	1404	1403	1420	1414	1411	1404	1398	1390	1383	1385	1389	1400	1415	1430	1433	1430	1415	1426	1427	1420	0	0	0	0	0	0	0	0	0	0	0	0	0	0	0	0	0	0	0	0	0	0	0	0	0	0	0	0	0	0	0	0	0	0	0	0	0	0	0	0	0	0	0	1754	1757	1779	1784	0	0	0	1760	1795	0	0	0	0	0	0	0	0	1741	1724	1733	1756	1778	1778	1769	1756	1763	1792	0	1818	1806	1792	1791	1804	1802	1802	1812	1809	1805	1781	1768	0	0	0	0	0	1376	1414	1441	1437	1422	1402	1390	1399	1404	1405	1406	1407	1415	1410	1407	1403	1395	1392	1396	1403	1403	1403	1399	1404	1403	1410	1407	1401	1385	1390	1408	1411	1405	1393	1392	1402	1416	1425	1426	1416	1414	1407	1390	1389	1383	1390	1397	1397	1391	1384	1407	1458	1553	1674	1725	1779	1798	1788	1761	1751	1749	1761	0	0	0	0	1766	1769	0	0	0	0	0	0	0	0	0	0	0	0	0	0	0	0	0	0	0	0	0	0	0	0	0	0	0	0	0	0	0	0	0	0	0	0	0	0	0	0	0	0	0	0	0	0	0	0	0	0	0	0	0	0	0	0	0	0	0	0	0	0	0	0	0	0	0	0	0	0	0	0	0	0	0	0	1446	1436	1428	1406	1402	1398	1392	1378	1373	1370	1369	1377	1384	1395	1406	1413	1405	1392	1389	1391	1396	1397	1394	1392	1388	1394	1398	1403	1423	1424	1426	1423	1426	1421	1426	1426	1433	1426	1416	1404	1388	1370	1361	1364	1382	1399	1405	1405	1420	1510	0	0	0	0	0	0	0	0	0	0	0	0	0	0	0	0	0	0	0	0	0	0	0	1476	1487	1476	1445	1436	1425	1407	1398	1399	1414	1422	1429	1431	1429	1438	1447	1449	1446	1419	1411	1407	1406	1406	1410	1421	1427	1425	1429	1434	1425	1411	1406	1412	1419	1411	1409	1409	1417	1420	1428	1421	1418	1422	1427	1431	1425	1396	1378	1363	1379	1394	1397	1395	1411	1416	1423	1424	1420	1420	1417	1418	1418	1421	1419	1421	1421	1421	1409	1404	1402	1400	1407	1417	1424	1425	1418	1407	1407	1396	1391	1390	1386	1387	1391	1401	1400	0	0	0	0	0	0	0
0	0	1394	1383	1383	1380	1376	1391	1403	1404	1404	1415	1419	1442	1463	1486	1486	1492	1487	1475	1463	1458	1452	1452	1449	1449	1452	1445	1437	1448	1450	1457	1457	1473	1481	1495	1497	1507	1507	0	0	0	0	0	0	0	0	0	0	0	0	0	0	0	0	0	0	0	0	0	0	0	0	0	0	0	0	0	0	0	0	0	0	0	0	0	0	0	0	0	0	0	0	0	0	0	0	0	0	1365	1396	1411	1414	1414	1399	1382	1376	1383	1394	1397	1393	1376	1370	1374	1383	1399	1402	1402	1403	1394	1380	1370	1361	1363	1371	1384	1388	1389	1387	1389	1390	1393	1389	1381	1378	1378	1380	1383	1385	1371	1370	1388	1408	1427	1425	1422	1415	1415	1423	1423	1419	1423	1430	1447	1474	1492	1505	1503	1491	1462	1468	1469	0	0	0	0	0	0	0	0	0	0	0	0	0	0	0	0	0	0	0	0	0	0	0	0	0	0	0	0	0	0	0	0	0	0	0	0	0	0	0	0	0	0	1406	1406	1412	1413	1411	1408	1405	1399	1394	1397	1407	1417	1422	1415	1413	1407	1405	1412	1419	1420	1407	1397	1393	1413	1433	1436	1417	1405	1399	1397	1411	1420	1410	1400	1396	1397	1396	1396	1404	1406	1411	1420	1428	1429	1412	1395	1406	1407	0	0	0	0	0	0	0	0	0	0	0	0	0	0	0	0	0	0	0	0	0	0	0	0	0	0	0	0	0	0	0	0	0	0	0	0	0	0	0	0	0	0	0	1750	1764	1771	1774	1763	1746	1739	1752	1774	1799	0	0	0	0	0	0	1754	1723	1713	1716	1744	1766	1777	1765	1757	1774	1784	1808	1808	1808	1785	1763	1775	1782	1795	1802	1810	1808	1789	1763	1763	0	0	0	0	1424	1428	1429	1413	1404	1392	1388	1385	1390	1399	1405	1410	1407	1411	1406	1397	1392	1389	1387	1390	1396	1401	1406	1410	1416	1417	1418	1413	1412	1415	1408	1409	1395	1386	1387	1396	1407	1420	1417	1406	1400	1403	1398	1392	1392	1396	1402	1407	1393	1384	1385	1401	1499	1685	1755	1802	1798	1787	1764	1754	1760	1749	1746	0	0	0	0	0	0	0	0	0	0	0	0	0	0	0	0	0	0	0	0	0	0	0	0	0	0	0	0	0	0	0	0	0	0	0	0	0	0	0	0	0	0	0	0	0	0	0	0	0	0	0	0	0	0	0	0	0	0	0	0	0	0	0	0	0	0	0	0	0	0	0	0	0	0	0	0	0	0	0	0	0	1438	1434	1430	1402	1405	1404	1394	1375	1364	1359	1363	1374	1387	1401	1414	1412	1397	1384	1379	1383	1390	1388	1392	1392	1396	1404	1423	1432	1433	1435	1433	1428	1417	1409	1414	1424	1426	1418	1411	1396	1387	1375	1358	1364	1385	1400	1396	1395	1417	1516	0	0	0	0	0	0	0	0	0	0	0	0	0	0	0	0	0	0	0	0	0	0	0	0	1486	1456	1436	1427	1420	1403	1395	1406	1413	1424	1428	1427	1431	1440	1448	1457	1450	1430	1426	1416	1406	1403	1408	1414	1411	1410	1415	1429	1438	1432	1425	1417	1423	1417	1418	1430	1430	1435	1439	1428	1417	1421	1427	1434	1423	1408	1389	1381	1394	1404	1400	1397	1405	1407	1409	1421	1425	1420	1416	1416	1416	1415	1416	1419	1428	1423	1420	1414	1414	1412	1411	1416	1421	1428	1422	1408	1408	1405	1394	1385	1382	1370	1375	1384	1394	0	0	0	0	0	0	0
0	0	1419	1406	1406	1396	1392	1403	1413	1418	1418	1424	1427	1442	1464	1485	1485	1488	1482	1461	1465	1459	1457	1465	1465	1468	1462	1450	1444	1446	1457	1466	1466	1474	1474	1471	1482	1504	0	0	0	0	0	0	0	0	0	0	0	0	0	0	0	0	0	0	0	0	0	0	0	0	0	0	0	0	0	0	0	0	0	0	0	0	0	0	0	0	0	0	0	0	0	0	0	0	0	0	0	1348	1383	1407	1413	1402	1387	1377	1374	1385	1391	1393	1385	1369	1360	1365	1379	1400	1400	1407	1404	1406	1395	1383	1372	1366	1368	1370	1374	1376	1378	1380	1387	1399	1403	1392	1379	1375	1376	1377	1372	1364	1377	1396	1410	1410	1421	1415	1414	1410	1409	1414	1417	1418	1426	1440	1457	1474	1482	1477	1465	1454	1462	1461	0	0	0	0	0	0	0	0	0	0	0	0	0	0	0	0	0	0	0	0	0	0	0	0	0	0	0	0	0	0	0	0	0	0	0	0	0	0	0	0	0	0	1426	1416	1406	1401	1398	1397	1395	1403	1406	1408	1418	1424	1427	1423	1423	1414	1407	1405	1408	1418	1418	1411	1407	1420	1433	1433	1417	1401	1391	1392	1398	1419	1424	1403	1399	1400	1407	1412	1415	1416	1414	1416	1417	1420	1410	1388	1405	1421	0	0	0	0	0	0	0	0	0	0	0	0	0	0	0	0	0	0	0	0	0	0	0	0	0	0	0	0	0	0	0	0	0	0	0	0	0	0	0	0	0	0	0	1774	1751	1764	1764	1766	1755	1746	1754	1779	1787	0	0	0	0	0	0	1741	1718	1710	1723	1733	1755	1757	1766	1758	1769	1785	1796	1798	1785	1776	1753	1753	1763	1774	1793	1799	1811	1793	1771	1755	1747	0	0	0	1453	1433	1418	1403	1394	1390	1386	1385	1396	1404	1404	1406	1403	1403	1399	1388	1383	1395	1387	1393	1392	1400	1406	1415	1418	1415	1415	1421	1417	1403	1398	1397	1386	1378	1381	1383	1400	1398	1393	1392	1385	1391	1393	1393	1390	1399	1408	1415	1399	1392	1379	1380	1494	1678	1755	1772	1770	1763	1763	1763	1763	1752	1735	1730	1729	0	0	0	0	0	0	0	0	0	0	0	0	0	0	0	0	0	0	0	0	0	0	0	0	0	0	0	0	0	0	0	0	0	0	0	0	0	0	0	0	0	0	0	0	0	0	0	0	0	0	0	0	0	0	0	0	0	0	0	0	0	0	0	0	0	0	0	0	0	0	0	0	0	0	0	0	0	0	0	1424	1428	1437	1418	1408	1411	1399	1378	1363	1356	1363	1381	1397	1406	1415	1405	1393	1381	1380	1384	1386	1390	1386	1382	1384	1399	1411	1418	1425	1435	1441	1432	1416	1405	1404	1411	1427	1415	1403	1385	1385	1375	1368	1376	1401	1413	1407	1403	1449	1507	0	0	0	0	0	0	0	0	0	0	0	0	0	0	0	0	0	0	0	0	0	0	0	0	1491	1435	1422	1423	1415	1399	1394	1405	1412	1424	1431	1428	1432	1439	1446	1448	1451	1446	1436	1434	1421	1414	1409	1410	1411	1409	1406	1419	1430	1435	1428	1416	1421	1423	1418	1423	1431	1443	1447	1443	1428	1422	1426	1430	1425	1415	1402	1401	1406	1411	1417	1418	1416	1414	1407	1414	1421	1421	1415	1411	1411	1412	1407	1408	1413	1423	1425	1424	1425	1419	1416	1417	1419	1423	1419	1416	1416	1409	1401	1391	1380	1376	1373	1372	1373	0	0	0	0	0	0	0
0	0	1441	1433	1433	1420	1424	1410	1414	1422	1422	1436	1439	1443	1456	1471	1471	1465	1451	1447	1452	1452	1457	1470	1470	1473	1484	1472	1450	1463	1480	1498	1498	1488	1468	1468	1479	0	0	0	0	0	0	0	0	0	0	0	0	0	0	0	0	0	0	0	0	0	0	0	0	0	0	0	0	0	0	0	0	0	0	0	0	0	0	0	0	0	0	0	0	0	0	0	0	0	0	0	0	1327	1375	1402	1396	1397	1385	1384	1382	1386	1390	1390	1379	1364	1356	1364	1373	1395	1395	1397	1399	1405	1400	1395	1381	1372	1365	1369	1368	1370	1369	1372	1379	1392	1400	1400	1397	1381	1372	1369	1363	1363	1379	1399	1405	1410	1426	1425	1419	1415	1417	1423	1433	1428	1427	1424	1433	1445	1442	1446	1451	1444	1458	1469	0	0	0	0	0	0	0	0	0	0	0	0	0	0	0	0	0	0	0	0	0	0	0	0	0	0	0	0	0	0	0	0	0	0	0	0	0	0	0	0	0	0	1440	1448	1422	1398	1390	1386	1396	1407	1416	1420	1423	1423	1416	1413	1417	1421	1413	1405	1406	1410	1419	1421	1422	1427	1435	1436	1423	1404	1389	1388	1402	1425	1429	1414	1413	1414	1417	1420	1424	1422	1420	1410	1402	1404	1401	1388	1416	0	0	0	0	0	0	0	0	0	0	0	0	0	0	0	0	0	0	0	0	0	0	0	0	0	0	0	0	0	0	0	0	0	1748	0	0	0	0	0	0	1747	1770	0	0	0	1757	1754	1768	1789	0	0	1772	1787	1801	1800	0	0	0	0	1762	1731	1719	1731	1742	1743	1744	1755	1755	1778	1785	1787	1782	1772	1772	1762	1750	1751	1753	1761	1776	1795	1792	1795	1774	1761	1753	0	0	0	0	1427	1416	1401	1392	1387	1387	1399	1409	1410	1410	1407	1400	1398	1387	1383	1387	1392	1383	1392	1391	1390	1396	1397	1401	1406	1406	1407	1398	1388	1381	1385	1386	1380	1380	1378	1383	1388	1387	1383	1380	1380	1383	1387	1392	1395	1415	1415	1404	1393	1382	1391	1520	1669	1722	1741	1739	1731	1741	1762	1773	1763	1747	1731	1732	1732	1750	0	0	0	0	0	0	0	0	0	0	0	0	0	0	0	0	0	0	0	0	0	0	0	0	0	0	0	0	0	0	0	0	0	0	0	0	0	0	0	0	0	0	0	0	0	0	0	0	0	0	0	0	0	0	0	0	0	0	0	0	0	0	0	0	0	0	0	0	0	0	0	0	0	0	0	0	0	1415	1419	1436	1450	1420	1414	1407	1392	1373	1369	1377	1389	1399	1404	1403	1394	1381	1390	1391	1399	1399	1392	1391	1377	1376	1381	1395	1400	1419	1430	1431	1421	1410	1399	1392	1395	1405	1407	1394	1385	1382	1373	1372	1389	1418	1435	1425	1418	1443	1483	0	0	0	0	0	0	0	0	0	0	0	0	0	0	0	0	0	0	0	0	0	0	0	0	1478	1423	1414	1421	1414	1408	1408	1411	1417	1442	1441	1439	1440	1438	1440	1439	1445	1447	1442	1437	1419	1417	1412	1409	1413	1419	1412	1420	1426	1433	1423	1413	1415	1432	1419	1425	1432	1447	1458	1441	1430	1426	1421	1429	1429	1420	1408	1404	1405	1415	1425	1433	1431	1421	1418	1418	1419	1424	1424	1420	1414	1408	1402	1394	1396	1410	1419	1427	1427	1419	1421	1418	1422	1419	1420	1414	1414	1406	1398	1390	1379	1375	1380	1381	1372	0	0	0	0	0	0	0
0	0	1447	1448	1448	1437	1431	1430	1435	1429	1429	1432	1435	1440	1450	1458	1450	1450	1444	1438	1433	1443	1451	1469	1469	1486	1491	1484	1467	1479	1506	1515	1515	0	0	0	0	0	0	0	0	0	0	0	0	0	0	0	0	0	0	0	0	0	0	0	0	0	0	0	0	0	0	0	0	0	0	0	0	0	0	0	0	0	0	0	0	0	0	0	0	0	0	0	0	0	0	0	0	1324	1364	1393	1388	1387	1393	1395	1398	1397	1395	1390	1380	1370	1366	1368	1381	1384	1382	1381	1386	1393	1393	1391	1385	1380	1377	1370	1371	1369	1370	1370	1375	1382	1388	1393	1398	1390	1376	1362	1358	1366	1376	1392	1401	1412	1435	1430	1427	1430	1434	1440	1435	1433	1422	1414	1411	1411	1429	1432	1444	1446	1445	0	0	0	0	0	0	0	0	0	0	0	0	0	0	0	0	0	0	0	0	0	0	0	0	0	0	0	0	0	0	0	0	0	0	0	0	0	0	0	0	0	0	0	1434	1460	1455	1428	1400	1390	1400	1413	1420	1425	1423	1413	1405	1403	1408	1421	1415	1404	1398	1402	1411	1415	1422	1426	1435	1435	1426	1404	1389	1384	1397	1428	1437	1424	1424	1418	1420	1424	1427	1428	1424	1415	1404	1401	1391	1385	1409	0	0	0	0	0	0	0	0	0	0	0	0	0	0	0	0	0	0	0	0	0	0	1626	0	0	0	0	0	0	0	0	0	1691	1711	0	0	0	0	0	1759	1738	1740	0	0	0	1768	1764	1774	0	0	0	0	0	1800	0	0	0	0	1782	1751	1730	1739	1761	1772	1772	1763	1755	1767	1787	1798	1800	1781	1769	1766	1755	1757	1745	1747	1748	1753	1775	1773	1770	1761	1769	1764	0	0	0	0	1426	1429	1405	1394	1392	1393	1406	1415	1417	1416	1410	1401	1393	1390	1385	1390	1406	1409	1405	1394	1389	1392	1391	1392	1399	1401	1400	1397	1384	1374	1386	1390	1392	1382	1375	1375	1386	1389	1384	1378	1383	1386	1387	1391	1411	1412	1411	1404	1392	1390	1439	1549	1664	1706	1705	1697	1694	1712	1738	1742	1740	1746	1733	1735	1733	1753	1791	0	0	0	1711	1720	0	0	0	0	0	0	0	0	0	0	0	0	0	0	0	0	0	0	0	0	0	0	0	0	0	0	0	0	0	0	0	0	0	0	0	0	0	0	0	0	0	0	0	0	0	0	0	0	0	0	0	0	0	0	0	0	0	0	0	0	0	0	0	0	0	0	0	0	0	0	0	1443	1432	1435	1450	1417	1408	1406	1397	1385	1379	1385	1389	1392	1385	1392	1386	1388	1392	1403	1402	1402	1393	1401	1380	1365	1367	1374	1386	1400	1414	1418	1411	1403	1395	1400	1396	1396	1400	1388	1390	1383	1378	1377	1387	1416	1433	1431	1421	1424	1450	0	0	0	0	0	0	0	0	0	0	0	0	0	0	0	0	0	0	0	0	0	0	0	0	1446	1420	1415	1422	1418	1419	1428	1432	1448	1454	1454	1448	1441	1441	1437	1436	1440	1446	1441	1435	1429	1419	1415	1420	1427	1437	1439	1433	1432	1424	1415	1408	1431	1440	1425	1428	1432	1443	1431	1432	1425	1418	1409	1420	1427	1417	1410	1400	1396	1411	1427	1442	1440	1430	1420	1417	1415	1418	1421	1421	1418	1413	1405	1391	1390	1401	1420	1427	1420	1420	1418	1413	1411	1417	1416	1416	1412	1403	1399	1394	1391	1388	1392	1383	1371	0	0	0	0	0	0	0
0	0	1455	1450	1450	1441	1440	1447	1449	1431	1431	1438	1443	1448	1450	1449	1440	1440	1427	1422	1423	1432	1448	1457	1457	1474	1467	1458	1457	1465	1493	0	0	0	0	0	0	0	0	0	0	0	0	0	0	0	0	0	0	0	0	0	0	0	0	0	0	0	0	0	0	0	0	0	0	0	0	0	0	0	0	0	0	0	0	0	0	0	0	0	0	0	0	0	0	0	0	0	0	1346	1359	1374	1375	1382	1391	1398	1411	1405	1394	1388	1382	1377	1373	1371	1371	1376	1370	1364	1374	1384	1389	1392	1393	1390	1386	1381	1370	1368	1376	1380	1372	1373	1377	1382	1388	1387	1376	1363	1352	1359	1368	1384	1407	1418	1433	1433	1428	1436	1433	1438	1435	1433	1422	1419	1406	1413	1429	1438	1454	1460	1428	0	0	0	0	0	0	0	0	0	0	0	0	0	0	0	0	0	0	0	0	0	0	0	0	0	0	0	0	0	0	0	0	0	0	0	0	0	0	0	0	0	0	0	1422	1441	1454	1446	1426	1411	1408	1407	1417	1424	1421	1411	1402	1402	1407	1413	1405	1397	1398	1401	1402	1412	1413	1415	1417	1421	1414	1400	1388	1387	1397	1424	1439	1430	1426	1423	1425	1430	1438	1437	1433	1427	1425	1411	1379	1348	1372	0	0	0	0	0	0	0	0	0	0	0	0	0	0	0	0	0	0	0	0	1488	1484	1477	1482	1518	0	0	0	0	0	0	1608	1635	1669	1711	0	0	0	1783	1745	1724	1726	1748	0	0	1760	1762	1761	0	0	0	0	0	0	0	0	0	0	1780	1751	1741	1753	1769	1794	1794	1772	1761	1764	1783	1792	1793	1776	1757	1755	1752	1754	1745	1748	1742	1747	1750	1744	1737	1735	1752	1744	0	0	0	1427	1424	1430	1414	1401	1399	1400	1407	1413	1417	1423	1421	1412	1402	1389	1379	1402	1406	1386	1394	1401	1396	1388	1384	1385	1389	1395	1390	1387	1393	1386	1394	1401	1395	1387	1381	1379	1389	1394	1396	1399	1399	1393	1390	1391	1405	1409	1407	1397	1382	1406	1443	1549	1650	1689	1689	1686	1682	1686	1707	1707	1703	1723	1733	1736	1741	1758	1778	1781	1723	1688	1676	1685	1685	0	0	0	0	0	0	0	0	0	0	0	0	0	0	0	0	0	0	0	1530	1533	1544	1544	0	0	1548	1555	1566	0	0	0	0	0	0	0	0	0	0	0	0	0	0	0	0	0	0	0	0	0	0	0	0	0	0	0	0	0	0	0	0	0	0	0	0	0	0	0	0	0	1475	1463	1451	1442	1423	1399	1399	1405	1411	1394	1386	1392	1385	1383	1404	1401	1396	1392	1392	1394	1399	1406	1401	1401	1395	1370	1370	1372	1378	1385	1396	1402	1404	1402	1400	1409	1414	1413	1407	1408	1408	1402	1393	1379	1378	1396	1414	1416	1407	1407	1407	0	0	0	0	0	0	0	0	0	0	0	0	0	0	0	0	0	0	0	0	0	0	0	0	1398	1406	1429	1426	1424	1435	1435	1440	1447	1448	1451	1444	1438	1434	1435	1436	1436	1443	1445	1440	1428	1420	1422	1431	1444	1456	1454	1448	1439	1426	1417	1415	1430	1437	1438	1441	1429	1428	1420	1415	1416	1407	1406	1408	1417	1414	1404	1398	1391	1404	1424	1443	1442	1429	1419	1408	1404	1406	1406	1406	1407	1402	1405	1406	1413	1411	1422	1421	1415	1412	1408	1403	1402	1401	1409	1409	1412	1402	1399	1396	1403	1404	1394	1381	1374	0	0	0	0	0	0	0
0	0	1437	1441	1441	1447	1453	1470	1469	1458	1458	1454	1452	1447	1455	1443	1439	1439	1426	1420	1421	1430	1439	1449	1449	1449	1432	1422	1427	1442	0	0	0	0	0	0	0	0	0	0	0	0	0	0	0	0	0	0	0	0	0	0	0	0	0	0	0	0	0	0	0	0	0	0	0	0	0	0	0	0	0	0	0	0	0	0	0	0	0	0	0	0	0	0	0	0	0	0	0	1392	1354	1370	1374	1380	1394	1413	1417	1418	1405	1390	1385	1381	1381	1375	1378	1380	1371	1364	1368	1383	1387	1389	1388	1387	1388	1392	1381	1386	1387	1384	1378	1366	1361	1369	1375	1378	1366	1362	1353	1354	1364	1380	1403	1428	1427	1422	1425	1426	1422	1419	1416	1415	1423	1423	1422	1427	1441	1471	1481	1483	0	0	0	0	0	0	0	0	0	0	0	0	0	0	0	0	0	0	0	0	0	0	0	0	0	0	0	0	0	0	0	0	0	0	0	0	0	0	0	0	0	0	0	0	1424	1423	1421	1444	1437	1428	1410	1404	1405	1402	1417	1412	1406	1407	1409	1410	1403	1402	1403	1399	1403	1411	1411	1407	1405	1403	1398	1398	1396	1402	1408	1419	1425	1426	1418	1416	1419	1430	1438	1439	1432	1434	1428	1383	1352	1306	1300	1307	0	0	0	0	0	0	0	0	0	1252	1233	1253	1275	1326	1359	1342	1324	1319	1332	1334	1342	1321	1326	1316	1306	1316	1336	1366	1398	1419	1463	1519	1576	1636	1691	1707	1721	1759	1734	1710	1699	1713	0	0	1749	1739	1740	1734	1723	1722	1742	1762	0	0	0	1802	1780	1770	1749	1741	1743	1746	1766	1771	1759	1737	1739	1749	1758	1760	1739	1723	1708	1715	1722	1722	1727	1718	1685	1702	1702	1702	1705	1722	1724	0	0	0	1427	1413	1424	1417	1411	1407	1401	1402	1406	1409	1415	1423	1420	1406	1395	1383	1402	1398	1382	1384	1394	1400	1392	1384	1386	1387	1403	1406	1400	1401	1401	1406	1401	1395	1390	1385	1389	1398	1405	1411	1414	1409	1403	1398	1395	1400	1407	1410	1405	1395	1402	1428	1521	1639	1661	1673	1657	1657	1656	1668	1656	1655	1680	1706	1718	1722	1724	1692	1676	1650	1627	1626	1624	1622	1606	0	0	0	0	0	0	1506	1423	1401	1385	1397	1431	1452	1437	1312	1298	1311	1362	1342	1279	1258	1273	1285	1288	1295	1301	1367	1445	1429	1415	1384	1401	0	0	0	0	0	0	0	0	0	0	0	0	0	0	0	0	0	0	0	0	0	1607	0	0	0	0	0	0	0	0	0	0	0	0	0	0	1486	1469	1459	1433	1404	1394	1387	1392	1395	1395	1394	1395	1396	1405	1417	1415	1408	1397	1390	1392	1390	1386	1388	1396	1396	1376	1370	1365	1370	1379	1388	1395	1399	1401	1409	1418	1424	1415	1417	1418	1417	1410	1394	1379	1375	1379	1385	1390	1393	1389	1396	0	0	0	0	0	0	0	0	0	0	0	0	0	0	0	0	0	0	0	0	0	0	0	1389	1369	1372	1434	1432	1439	1437	1438	1437	1428	1430	1434	1433	1431	1429	1430	1433	1437	1438	1438	1432	1426	1422	1428	1437	1451	1460	1465	1459	1452	1428	1416	1418	1421	1427	1446	1444	1421	1419	1422	1410	1407	1406	1403	1401	1403	1401	1397	1394	1393	1407	1427	1439	1440	1433	1415	1401	1389	1387	1388	1388	1390	1391	1395	1399	1406	1413	1416	1420	1414	1404	1398	1392	1389	1396	1402	1402	1407	1406	1405	1399	1404	1406	1398	1390	1377	0	0	0	0	0	0	0
0	0	1424	1434	1434	1442	1475	1483	1480	1473	1473	1459	1450	1447	1451	1453	1444	1444	1430	1427	1429	1429	1437	1429	1429	1429	1410	0	0	0	0	0	0	0	0	0	0	0	0	0	0	0	0	0	0	0	0	0	0	0	0	0	0	0	0	0	0	0	0	0	0	0	0	0	0	0	0	0	0	0	0	0	0	0	0	0	0	0	0	0	0	0	0	0	0	0	0	0	0	1424	1376	1360	1363	1379	1391	1407	1421	1425	1416	1404	1390	1382	1380	1382	1390	1393	1386	1375	1371	1378	1378	1374	1378	1379	1383	1390	1389	1393	1391	1387	1376	1356	1356	1364	1367	1373	1367	1363	1361	1364	1376	1396	1405	1417	1415	1409	1416	1419	1417	1419	1415	1414	1422	1428	1436	1443	1461	1488	1510	0	0	0	0	0	0	0	0	0	0	0	0	0	0	0	0	0	0	0	0	0	0	0	0	0	0	0	0	0	0	0	0	0	0	0	0	0	0	0	0	0	0	0	0	1469	1464	1404	1394	1395	1409	1425	1410	1398	1395	1396	1406	1411	1407	1412	1414	1396	1391	1402	1397	1399	1410	1411	1410	1405	1401	1399	1403	1407	1415	1418	1426	1421	1419	1414	1406	1406	1411	1426	1432	1413	1408	1395	1365	1330	1270	1249	1241	1244	1248	1253	1244	1239	1250	1265	1256	1230	1191	1178	1185	1193	1203	1201	1199	1222	1226	1235	1235	1237	1235	1230	1217	1177	1168	1175	1180	1193	1209	1277	1326	1398	1460	1536	1602	1637	1659	1660	1650	1689	1669	1649	1663	1716	1716	1716	1700	1686	1669	1679	1697	1717	1749	0	1759	1746	1738	1727	1718	1711	1699	1703	1720	1711	1702	1703	1697	1697	1686	1697	1672	1660	1644	1643	1646	1660	1656	1648	1636	1628	1634	1647	1659	1666	1652	1638	0	1471	1405	1412	1414	1415	1415	1407	1399	1400	1400	1403	1410	1419	1421	1409	1397	1391	1400	1401	1399	1397	1393	1399	1401	1394	1388	1397	1417	1416	1415	1411	1411	1402	1388	1387	1389	1393	1396	1403	1410	1414	1416	1413	1407	1404	1404	1409	1412	1413	1407	1397	1388	1412	1466	1592	1618	1624	1623	1619	1611	1616	1607	1613	1630	1654	1677	1606	1554	1542	1557	1545	1542	1554	1564	1561	1536	1513	1466	1336	1296	1295	1272	1225	1202	1212	1213	1207	1193	1188	1182	1176	1169	1165	1177	1209	1208	1181	1176	1196	1214	1216	1212	1204	1242	1233	1222	1227	1233	1251	1300	1304	1298	1304	1308	1299	1262	1252	1261	1300	1441	1458	1484	1521	1556	0	0	1540	1517	1523	1532	1535	1588	0	0	0	0	0	0	0	0	0	0	0	0	1484	1486	1475	1446	1414	1400	1392	1386	1398	1403	1401	1406	1415	1434	1433	1424	1409	1400	1388	1375	1373	1373	1375	1387	1389	1385	1377	1376	1377	1390	1399	1406	1410	1408	1414	1418	1419	1419	1417	1418	1412	1405	1393	1379	1381	1380	1385	1379	1368	1370	1388	1419	0	0	0	0	0	0	0	0	0	0	0	0	0	1414	1416	0	0	0	0	0	1428	1408	1383	1372	1366	1411	1425	1435	1440	1442	1432	1423	1423	1422	1422	1425	1425	1425	1435	1433	1436	1434	1424	1423	1423	1430	1441	1447	1456	1460	1458	1447	1431	1420	1408	1406	1413	1427	1432	1419	1421	1427	1428	1413	1410	1409	1402	1397	1389	1386	1388	1396	1421	1434	1436	1434	1428	1416	1396	1385	1389	1389	1392	1387	1382	1379	1387	1392	1399	1401	1402	1410	1404	1394	1386	1379	1388	1402	1402	1407	1407	1404	1402	1403	1400	1396	1392	1386	0	0	0	0	0	0	0
0	0	1395	1419	1454	1437	1461	1471	1477	1463	1447	1447	1438	1440	1442	1450	1460	1460	1451	1439	1428	1429	1427	1429	1427	1427	0	0	0	0	0	0	0	0	0	0	0	0	0	0	0	0	0	0	0	0	0	0	0	0	0	0	0	0	0	0	0	0	0	0	0	0	0	0	0	0	0	0	0	0	0	0	0	0	0	0	0	0	0	0	0	0	0	0	0	0	0	0	0	1427	1396	1371	1362	1375	1386	1401	1409	1415	1414	1407	1398	1393	1394	1412	1415	1409	1401	1384	1384	1381	1375	1360	1359	1365	1372	1385	1386	1391	1387	1383	1372	1355	1359	1366	1370	1369	1366	1369	1372	1381	1387	1405	1401	1393	1392	1398	1410	1424	1438	1432	1431	1428	1430	1441	1450	1450	1459	1475	1507	0	0	0	0	0	0	0	0	0	0	0	0	0	0	0	0	0	0	0	0	0	0	0	0	0	1513	1536	0	0	0	0	0	0	1579	1550	1536	1528	1514	1503	1491	1486	1480	1462	1459	1447	1425	1391	1376	1370	1378	1384	1396	1394	1395	1405	1411	1413	1408	1408	1409	1399	1387	1388	1395	1393	1401	1408	1413	1408	1401	1403	1412	1420	1426	1430	1434	1427	1417	1411	1398	1395	1399	1397	1385	1365	1298	1264	1231	1215	1205	1201	1202	1208	1217	1226	1228	1227	1237	1232	1217	1201	1166	1159	1162	1167	1167	1166	1170	1170	1181	1179	1180	1184	1188	1182	1164	1156	1138	1126	1134	1137	1153	1198	1243	1294	1354	1439	1495	1530	1539	1540	1515	1477	1448	1577	1586	1655	1693	1657	1618	1607	1595	1605	1614	1632	1646	1649	1645	1661	1670	1665	1647	1589	1586	1603	1647	1649	1644	1644	1633	1610	1588	1587	1587	1553	1537	1528	1531	1554	1575	1592	1591	1575	1573	1578	1599	1602	1594	1552	1484	1428	1417	1413	1404	1406	1410	1401	1397	1397	1400	1401	1405	1415	1416	1406	1398	1396	1396	1399	1397	1396	1396	1402	1403	1402	1403	1415	1422	1423	1421	1417	1415	1388	1378	1383	1387	1387	1396	1408	1415	1418	1425	1421	1418	1416	1418	1419	1418	1414	1404	1392	1389	1417	1445	1464	1567	1579	1564	1560	1569	1562	1552	1555	1570	1468	1475	1461	1458	1465	1465	1483	1485	1488	1468	1451	1490	1453	1372	1288	1247	1215	1191	1177	1173	1190	1197	1188	1174	1163	1153	1146	1141	1141	1149	1163	1166	1156	1154	1166	1173	1167	1159	1156	1155	1174	1165	1172	1186	1205	1220	1226	1213	1205	1194	1190	1184	1186	1193	1207	1231	1243	1275	1317	1365	1419	1464	1463	1451	1449	1457	1471	1481	1494	1496	1495	1481	1452	1413	1415	1409	1404	1411	1444	1468	1484	1490	1454	1439	1410	1395	1384	1383	1404	1422	1411	1421	1431	1437	1427	1410	1394	1399	1388	1373	1368	1358	1351	1365	1386	1389	1387	1387	1395	1399	1402	1407	1412	1410	1409	1401	1393	1404	1410	1412	1409	1404	1393	1392	1396	1405	1389	1365	1358	1364	1382	1407	1443	1463	1471	1473	1486	1475	1475	1463	1467	1463	1452	1444	1430	1422	1417	1417	1421	1429	1433	1436	1425	1416	1405	1388	1376	1397	1416	1429	1444	1449	1445	1428	1417	1416	1421	1427	1434	1431	1437	1431	1434	1432	1428	1423	1429	1434	1438	1445	1445	1451	1450	1435	1425	1416	1405	1409	1411	1403	1420	1422	1423	1427	1435	1421	1414	1411	1410	1396	1387	1388	1400	1417	1426	1435	1428	1421	1421	1415	1407	1410	1418	1418	1418	1410	1391	1375	1374	1378	1377	1381	1386	1389	1394	1392	1378	1377	1380	1399	1399	1408	1410	1405	1402	1398	1399	1397	1395	1392	0	0	0	0	0	0	0
0	0	1376	1400	1437	1401	1439	1448	1452	1438	1432	1432	1426	1426	1435	1456	1473	1473	1465	1444	1434	1421	1436	1437	1447	1447	1437	0	0	0	0	0	0	0	0	0	0	0	0	0	0	0	0	0	0	0	0	0	0	0	0	1461	0	0	0	0	0	0	0	0	0	0	0	0	0	0	0	0	0	0	0	0	0	0	0	0	0	0	0	0	0	0	0	0	0	0	0	0	1434	1421	1388	1370	1367	1369	1369	1379	1383	1388	1394	1394	1394	1387	1396	1425	1430	1423	1405	1391	1383	1378	1368	1349	1344	1348	1367	1376	1383	1384	1384	1385	1375	1365	1368	1379	1386	1372	1370	1372	1384	1391	1393	1391	1387	1383	1384	1388	1405	1420	1436	1440	1444	1447	1450	1462	1461	1458	1443	1448	1474	1481	1451	1419	1389	1378	1401	1428	0	0	1503	1499	1491	1474	1442	1433	1441	1454	1532	1529	1521	1487	1462	1440	1437	1460	1481	1455	1458	1472	1500	1500	1494	1468	1475	1489	1470	1455	1440	1435	1418	1421	1435	1450	1447	1430	1418	1396	1375	1364	1374	1385	1390	1389	1387	1399	1402	1413	1413	1409	1412	1407	1405	1390	1391	1394	1400	1401	1394	1399	1406	1410	1416	1422	1424	1424	1422	1423	1417	1412	1393	1393	1353	1316	1275	1207	1187	1181	1171	1169	1180	1180	1179	1189	1197	1208	1210	1209	1214	1209	1203	1180	1154	1149	1157	1153	1151	1153	1159	1159	1163	1159	1157	1160	1165	1173	1175	1157	1141	1122	1122	1122	1154	1176	1208	1249	1296	1351	1387	1424	1437	1447	1445	1444	1438	1439	1434	1486	1503	1502	1455	1456	1467	1469	1465	1445	1445	1458	1490	1523	1504	1488	1452	1441	1444	1455	1461	1482	1485	1479	1464	1460	1450	1444	1444	1447	1450	1444	1441	1443	1456	1462	1461	1473	1480	1490	1512	1517	1503	1472	1449	1433	1425	1415	1416	1417	1411	1401	1392	1392	1393	1389	1400	1403	1403	1400	1388	1385	1385	1387	1390	1393	1395	1398	1403	1403	1409	1418	1431	1434	1430	1421	1406	1377	1369	1374	1383	1385	1387	1397	1417	1419	1433	1433	1433	1428	1424	1420	1423	1415	1399	1390	1399	1417	1437	1443	1450	1454	1447	1465	1477	1482	1464	1434	1441	1449	1446	1443	1433	1432	1443	1464	1473	1466	1441	1433	1433	1431	0	1263	1212	1186	1166	1160	1174	1188	1201	1185	1172	1162	1152	1146	1139	1130	1138	1141	1143	1133	1138	1147	1141	1130	1120	1118	1125	1130	1135	1141	1151	1161	1171	1168	1169	1162	1163	1157	1145	1141	1145	1156	1159	1185	1211	1246	1277	1314	1346	1377	1405	1422	1438	1447	1459	1461	1454	1438	1425	1417	1435	1446	1436	1404	1398	1406	1402	1397	1403	1436	1424	1410	1390	1376	1392	1417	1438	1446	1457	1460	1443	1417	1398	1393	1391	1397	1418	1420	1424	1379	1349	1355	1363	1374	1392	1416	1415	1414	1406	1411	1401	1404	1382	1360	1355	1367	1403	1447	1431	1413	1406	1406	1409	1396	1379	1375	1374	1394	1414	1437	1451	1460	1442	1447	1457	1470	1469	1463	1458	1455	1438	1431	1431	1430	1428	1422	1419	1420	1430	1439	1433	1421	1401	1385	1392	1407	1425	1442	1447	1438	1417	1403	1407	1419	1435	1443	1439	1436	1438	1440	1436	1425	1408	1420	1430	1437	1440	1440	1437	1434	1423	1413	1409	1410	1423	1415	1407	1398	1395	1408	1419	1429	1417	1413	1415	1419	1418	1434	1421	1410	1403	1399	1409	1419	1430	1431	1428	1427	1431	1433	1433	1425	1415	1411	1411	1394	1382	1383	1388	1391	1403	1418	1426	1419	1388	1393	1393	1397	1403	1398	1403	1403	1401	1398	1399	1402	1410	0	0	0	0	0	0	0
0	0	1360	1382	1401	1397	1412	1428	1432	1428	1421	1421	1416	1425	1430	1461	1477	1471	1471	1441	1418	1413	1431	1448	1452	1452	1453	1435	1415	1409	1421	0	0	0	0	0	0	0	0	0	0	1416	1387	1387	1388	1394	0	0	0	1433	1442	1437	1440	1451	1460	1458	1458	1460	1458	1452	1449	1459	1465	1453	1444	1436	1438	1453	1443	1434	1450	1454	1445	1438	1435	1419	1409	1399	1406	1426	1444	1460	1460	1476	1466	0	0	1428	1419	1406	1384	1372	1374	1375	1368	1367	1368	1368	1375	1380	1378	1381	1397	1431	1431	1425	1409	1390	1383	1375	1361	1338	1337	1339	1363	1368	1371	1377	1386	1392	1389	1381	1381	1387	1383	1385	1379	1377	1393	1398	1395	1387	1384	1380	1380	1394	1392	1403	1430	1432	1440	1441	1452	1469	1469	1455	1430	1425	1431	1433	1427	1411	1412	1427	1443	1457	1447	1438	1421	1423	1443	1438	1427	1411	1400	1398	1395	1389	1388	1389	1392	1388	1390	1409	1427	1442	1436	1430	1428	1416	1402	1414	1433	1428	1414	1396	1384	1389	1395	1402	1422	1425	1432	1426	1423	1415	1404	1400	1399	1391	1388	1384	1382	1390	1402	1401	1404	1413	1422	1426	1418	1391	1391	1392	1389	1389	1400	1415	1425	1421	1427	1419	1411	1402	1399	1397	1401	1395	1364	1305	1267	1228	1204	1187	1176	1166	1159	1154	1154	1146	1144	1166	1179	1188	1191	1189	1191	1194	1182	1165	1150	1149	1159	1156	1150	1145	1153	1157	1161	1155	1152	1151	1162	1175	1192	1188	1170	1139	1133	1162	1166	1178	1193	1228	1274	1353	1402	1428	1437	1438	1431	1422	1421	1422	1426	1430	1447	1439	1433	1430	1435	1445	1447	1450	1452	1451	1450	1445	1434	1417	1404	1404	1416	1427	1430	1424	1417	1408	1418	1430	1433	1429	1425	1429	1423	1420	1414	1411	1411	1412	1419	1431	1434	1427	1423	1424	1430	1435	1431	1429	1416	1413	1415	1419	1429	1436	1418	1404	1411	1421	1424	1429	1429	1416	1390	1376	1371	1378	1381	1390	1393	1396	1401	1414	1415	1420	1431	1439	1437	1422	1398	1376	1367	1376	1387	1385	1381	1381	1394	1413	1424	1436	1441	1430	1421	1422	1427	1425	1422	1407	1411	1421	1432	1449	1450	1437	1429	1432	1443	1442	1425	1425	1433	1443	1448	1438	1434	1433	1439	1449	1456	1447	1444	1435	1421	0	0	0	1191	1161	1149	1153	1167	1186	1192	1184	1170	1160	1154	1148	1145	1137	1128	1123	1113	1110	1113	1121	1115	1108	1094	1091	1096	1101	1113	1125	1132	1130	1127	1127	1136	1141	1145	1140	1131	1118	1108	1111	1127	1128	1151	1193	1250	1291	1332	1364	1398	1415	1431	1441	1449	1459	1451	1431	1424	1417	1426	1427	1423	1413	1422	1420	1417	1407	1412	1409	1418	1408	1402	1396	1410	1437	1455	1446	1437	1448	1441	1433	1415	1402	1396	1395	1419	1427	1418	1385	1373	1360	1377	1389	1408	1432	1445	1453	1441	1420	1406	1411	1411	1408	1386	1401	1459	1461	1456	1431	1411	1410	1421	1426	1403	1392	1390	1394	1418	1441	1447	1444	1439	1438	1444	1456	1461	1457	1445	1438	1436	1432	1435	1441	1440	1427	1427	1429	1430	1442	1439	1433	1417	1404	1401	1407	1424	1441	1439	1420	1406	1406	1410	1416	1430	1437	1445	1440	1439	1443	1433	1427	1414	1406	1413	1421	1430	1430	1429	1419	1406	1399	1399	1410	1432	1427	1419	1398	1394	1414	1422	1419	1411	1410	1416	1419	1421	1424	1412	1407	1395	1403	1415	1431	1444	1447	1438	1434	1429	1432	1432	1422	1413	1414	1418	1410	1407	1403	1404	1413	1413	1423	1433	1433	1424	1405	1405	1397	1396	1397	1401	1405	1406	1405	1404	1412	1422	1422	0	0	0	0	0	0
0	0	1375	1380	1397	1392	1412	1434	1436	1434	1435	1435	1438	1424	1437	1451	1471	1472	1472	1445	1421	1416	1424	1424	1433	1433	1428	1403	1403	1410	1414	1426	1442	1447	1447	1431	1398	1389	1392	1390	1376	1389	1397	1405	1405	1413	1414	1406	1400	1410	1424	1424	1425	1441	1453	1454	1451	1451	1446	1453	1454	1450	1450	1447	1441	1447	1462	1464	1447	1428	1418	1428	1443	1452	1448	1428	1407	1403	1420	1444	1465	1468	1468	1469	1459	1451	1454	1441	1425	1405	1378	1370	1376	1376	1372	1364	1366	1373	1382	1383	1379	1378	1395	1431	1437	1422	1401	1389	1383	1369	1361	1351	1338	1345	1350	1363	1368	1377	1387	1388	1386	1382	1386	1384	1382	1373	1372	1388	1399	1406	1394	1388	1380	1385	1416	1409	1398	1396	1404	1421	1417	1429	1439	1454	1453	1436	1411	1408	1411	1416	1412	1416	1417	1430	1443	1443	1427	1418	1407	1409	1422	1431	1429	1413	1397	1394	1396	1391	1383	1386	1402	1407	1413	1423	1427	1436	1432	1431	1422	1409	1406	1414	1428	1420	1404	1398	1396	1401	1406	1416	1419	1422	1428	1423	1426	1419	1412	1415	1403	1397	1392	1390	1388	1396	1412	1417	1416	1405	1405	1415	1424	1415	1397	1396	1400	1404	1419	1433	1453	1462	1450	1417	1390	1367	1350	1338	1313	1293	1281	1236	1217	1193	1190	1183	1176	1164	1154	1146	1135	1126	1127	1135	1140	1148	1150	1145	1148	1150	1144	1136	1130	1141	1151	1147	1141	1137	1144	1156	1157	1154	1153	1147	1159	1175	1193	1195	1188	1178	1183	1178	1177	0	0	0	1290	1357	1424	1444	1450	1436	1424	1414	1416	1421	1424	1435	1441	1443	1444	1437	1438	1443	1453	1451	1449	1452	1460	1457	1443	1425	1403	1401	1414	1422	1425	1426	1420	1419	1425	1428	1430	1423	1426	1429	1420	1416	1423	1417	1412	1406	1413	1416	1419	1416	1418	1419	1420	1430	1435	1433	1424	1415	1427	1438	1447	1444	1424	1431	1432	1436	1439	1447	1451	1452	1437	1392	1380	1375	1383	1383	1394	1397	1405	1416	1422	1423	1433	1439	1415	1406	1407	1404	1411	1416	1414	1413	1411	1423	1433	1442	1445	1438	1436	1431	1429	1429	1438	1441	1443	1431	1426	1431	1444	1456	1445	1436	1431	1437	1446	1437	1425	1426	1428	1435	1438	1440	1435	1434	1434	1445	1444	1448	1444	1441	1415	0	0	0	0	1163	1152	1156	0	0	1166	1156	1148	1142	1149	1150	1155	1138	1120	1110	1101	1091	1094	1097	1097	1086	1077	1072	1070	1078	1092	1117	1123	1107	1092	1097	1105	1118	1120	1122	1120	1104	1095	1097	1104	1109	1104	1110	1125	1146	1204	1295	1336	1367	1410	1419	1427	1442	1435	1421	1413	1418	1422	1412	1415	1427	1438	1440	1429	1419	1414	1409	1410	1412	1404	1416	1436	1465	1452	1438	1428	1431	1443	1429	1416	1410	1402	1401	1401	1405	1402	1393	1382	1378	1387	1414	1434	1450	1463	1456	1433	1418	1402	1411	1421	1416	1403	1418	1463	1461	1447	1428	1414	1421	1434	1434	1429	1412	1401	1411	1427	1435	1438	1434	1432	1435	1442	1452	1449	1442	1428	1428	1424	1433	1444	1446	1449	1443	1438	1441	1440	1438	1425	1424	1420	1419	1413	1424	1444	1454	1448	1438	0	1424	1409	1410	1419	1439	1439	1437	1434	1435	1430	1428	1416	1416	1414	1418	1420	1421	1422	1409	1398	1387	1385	1402	1427	1428	1424	1413	1409	1413	1425	1423	1421	1417	1422	1423	1425	1422	1412	1409	1404	1408	1423	1443	1456	1464	1456	1447	1436	1436	1419	1415	1414	1417	1424	1423	1416	1415	1414	1418	1422	1427	1439	1439	1431	1422	1410	1394	1395	1391	1403	1411	1421	1420	1417	1423	1426	1426	0	0	0	0	0	0
0	0	1404	1386	1392	1391	1421	1442	1454	1453	1455	1455	1452	1448	1445	1451	1452	1445	1445	1432	1421	1411	1401	1390	1383	1383	1387	1392	1405	1411	1412	1430	1444	1446	1446	1440	1408	1403	1394	1385	1380	1384	1393	1408	1408	1409	1415	1409	1413	1414	1424	1424	1418	1427	1443	1446	1441	1441	1445	1445	1439	1425	1423	1417	1422	1430	1441	1439	1434	1427	1428	1436	1452	1461	1451	1431	1410	1416	1421	1442	1465	1462	1455	1455	1441	1438	1463	1463	1442	1416	1380	1375	1372	1365	1362	1365	1376	1394	1404	1395	1387	1386	1403	1419	1422	1413	1394	1386	1384	1387	1392	1399	1413	1405	1385	1378	1381	1385	1394	1386	1381	1378	1380	1387	1381	1370	1364	1371	1383	1382	1378	1383	1393	1408	1423	1417	1403	1393	1392	1393	1399	1404	1421	1435	1438	1419	1412	1412	1415	1414	1415	1410	1412	1429	1436	1430	1422	1413	1409	1411	1425	1433	1433	1414	1396	1392	1399	1399	1396	1398	1417	1423	1429	1422	1433	1426	1433	1438	1441	1429	1422	1418	1421	1404	1402	1408	1413	1416	1418	1421	1422	1423	1427	1429	1431	1420	1395	1409	1411	1407	1399	1399	1399	1411	1426	1436	1434	1421	1423	1418	1430	1431	1401	1398	1400	1409	1423	1441	1455	1461	1447	1411	1377	1346	1316	1289	1256	1232	1218	1203	1182	1172	1177	1178	1178	1166	1158	1146	1131	1122	1114	1117	1112	1107	1106	1106	1111	1119	1113	1110	1109	1115	1123	1123	1123	1124	1132	1148	1153	1149	1143	1144	1148	1169	1183	1189	1185	1185	0	0	0	0	0	0	0	1392	1442	1462	1459	1451	1433	1422	1419	1424	1429	1440	1445	1438	1436	1441	1442	1447	1452	1450	1448	1455	1463	1465	1456	1432	1419	1411	1415	1427	1429	1433	1433	1429	1430	1425	1429	1420	1430	1428	1427	1430	1428	1418	1406	1404	1406	1410	1417	1417	1413	1412	1416	1423	1439	1438	1414	1406	1414	1439	1442	1440	1437	1435	1436	1435	1434	1448	1460	1467	1454	1435	1462	1465	1442	1437	1428	1431	1441	1442	1440	1426	1441	1435	1423	1425	1421	1423	1430	1435	1428	1423	1421	1435	1445	1449	1446	1442	1433	1428	1427	1433	1438	1448	1458	1466	1473	1471	1459	1450	1440	1434	1430	1439	1446	1429	1419	1409	1413	1421	1429	1434	1436	1436	1441	1450	1453	1459	1452	1441	1406	0	0	0	0	1197	1159	1150	0	0	0	1148	1136	0	0	0	1144	1137	1123	1113	1106	1085	1082	1086	1083	1079	1072	1062	1062	1068	1081	1110	1116	1099	1077	1074	1084	1087	1095	1105	1111	1103	1092	1097	1102	1103	1095	1093	1095	1099	1104	1125	1160	1246	1347	1374	1390	1411	1417	1414	1410	1427	1424	1416	1416	1430	1441	1447	1437	1428	1421	1417	1414	1407	1412	1438	1446	1459	1442	1428	1428	1430	1431	1438	1443	1439	1436	1424	1427	1426	1426	1427	1416	1394	1400	1412	1447	1466	1467	1464	1442	1417	1405	1418	1418	1414	1414	1424	1447	1442	1425	1413	1418	1437	1441	1434	1422	1416	1416	1415	1423	1427	1421	1425	1422	1431	1437	1437	1439	1434	1435	1440	1444	1443	1448	1454	1454	1448	1439	1445	1439	1429	1404	1402	1419	1435	1433	1438	1446	1454	1457	1434	0	0	1415	1410	1426	1435	1439	1438	1442	1436	1433	1435	1428	1431	1433	1431	1418	1410	1404	1393	1390	1383	1386	1399	1419	1428	1430	1428	1419	1425	1427	1431	1433	1432	1434	1428	1432	1423	1430	1426	1417	1417	1419	1439	1463	1468	1470	1452	1432	1432	1419	1420	1429	1431	1434	1425	1419	1417	1417	1415	1419	1427	1442	1447	1442	1430	1430	1405	1394	1393	1404	1423	1441	1441	1435	1426	1423	1423	0	0	0	0	0	0
0	0	1392	1387	1391	1394	1424	1453	1467	1469	1470	1470	1466	1453	1441	1442	1442	1436	1436	1424	1409	1413	1397	1387	1372	1372	1366	1385	1398	1405	1408	1415	1437	1449	1449	1445	1436	1419	1412	1404	1395	1391	1394	1392	1392	1401	1415	1431	1434	1437	1440	1430	1422	1425	1432	1435	1446	1446	1440	1434	1420	1403	1397	1400	1412	1424	1421	1424	1425	1423	1425	1432	1443	1447	1435	1423	1410	1419	1428	1447	1454	1449	1438	1423	1423	1428	1453	1465	1451	1433	1409	1408	1397	1385	1371	1368	1389	1406	1416	1415	1404	1400	1402	1412	1414	1402	1382	1374	1378	1387	1388	1396	1410	1405	1398	1380	1384	1381	1384	1388	1376	1375	1381	1403	1423	1429	1395	1381	1383	1411	1421	1434	1419	1407	1417	1424	1418	1412	1403	1391	1384	1396	1406	1422	1423	1420	1416	1415	1421	1414	1415	1416	1420	1426	1434	1426	1423	1418	1411	1418	1426	1432	1432	1425	1410	1404	1403	1413	1411	1425	1430	1426	1431	1440	1438	1434	1441	1448	1452	1454	1448	1420	1418	1417	1415	1432	1435	1437	1431	1428	1426	1434	1439	1441	1437	1421	1404	1412	1422	1425	1416	1418	1422	1434	1444	1442	1437	1430	1428	1425	1438	1453	1436	1423	1407	1411	1423	1427	1423	1409	1394	1377	1360	1317	1284	1247	1206	1182	1178	1182	1175	1167	1170	1165	1165	1163	1154	1143	1129	1118	1109	1097	1091	1084	1086	1094	1104	1106	1100	1090	1087	1091	1091	1090	1097	1107	1123	1131	1133	1132	1134	1129	1135	1149	1159	1174	0	0	0	0	0	0	0	0	1377	1419	1447	1446	1459	1462	1450	1436	1430	1434	1437	1446	1451	1445	1430	1439	1437	1440	1446	1447	1444	1453	1453	1462	1458	1443	1436	1428	1424	1429	1433	1436	1446	1443	1435	1432	1436	1428	1441	1441	1443	1441	1440	1426	1415	1415	1417	1421	1429	1433	1428	1418	1412	1418	1416	1411	1401	1395	1398	1410	1420	1430	1435	1440	1431	1429	1438	1453	1465	1474	1483	1465	1460	1427	1443	1433	1428	1426	1429	1431	1429	1438	1433	1441	1448	1443	1446	1449	1452	1448	1440	1437	1433	1448	1451	1445	1436	1428	1424	1431	1436	1446	1447	1453	1457	1471	1470	1462	1421	1414	1420	1431	1437	1440	1414	1410	1403	1394	1397	1409	1426	1431	1435	1445	1461	1478	1482	1476	1455	1437	1411	0	0	0	0	0	0	1186	1182	1180	1160	0	0	0	0	0	0	0	1121	1118	1109	1092	1088	1083	1082	1072	1067	1061	1059	1063	1077	1098	1103	1085	1069	1062	1061	1070	1086	1100	1102	1096	1086	1090	1111	1108	1097	1088	1085	1083	1082	1083	1085	1115	1182	1317	1344	1374	1364	1400	1410	1423	1422	1425	1428	1436	1447	1449	1444	1434	1431	1433	1430	1417	1423	1429	1446	1449	1433	1426	1429	1436	1443	1456	1453	1453	1443	1439	1439	1441	1436	1433	1411	1398	1389	1397	1428	1469	1463	1459	1445	1430	1417	1418	1415	1411	1408	1411	1431	1423	1417	1419	1427	1439	1429	1432	1422	1420	1423	1430	1432	1425	1411	1400	1409	1411	1421	1426	1440	1449	1448	1461	1460	1461	1460	1456	1450	1443	1436	1435	1430	1406	1392	1404	1417	1431	1439	1437	1431	1430	1439	1442	0	0	1413	1418	1429	1431	1439	1444	1451	1443	1444	1439	1436	1443	1449	1442	1421	1405	1395	1393	1393	1399	1404	1406	1413	1422	1432	1432	1425	1428	1434	1441	1446	1447	1441	1441	1434	1434	1440	1435	1431	1422	1416	1416	1437	1448	1457	1446	1436	1436	1428	1434	1440	1445	1434	1420	1427	1425	1430	1427	1420	1427	1441	1449	1449	1449	1438	1425	1413	1400	1403	1421	1443	1454	1443	1428	1411	1411	0	0	0	0	0	0
0	0	1399	1393	1394	1405	1421	1449	1475	1475	1472	1464	1464	1451	1434	1432	1427	1425	1425	1414	1412	1408	1399	1388	1374	1371	1371	1382	1389	1394	1402	1410	1417	1432	1432	1438	1439	1444	1432	1418	1405	1395	1384	1390	1379	1397	1421	1436	1448	1452	1441	1436	1426	1425	1428	1439	1444	1447	1447	1437	1414	1395	1389	1402	1412	1415	1415	1418	1418	1421	1422	1424	1422	1425	1419	1414	1420	1424	1427	1433	1427	1424	1417	1408	1416	1416	1439	1459	1449	1432	1426	1433	1437	1431	1420	1408	1409	1432	1438	1441	1425	1415	1415	1419	1410	1412	1407	1396	1394	1401	1399	1411	1412	1402	1391	1390	1392	1389	1397	1417	1427	1423	1409	1417	1425	1431	1432	1427	1417	1437	1455	1458	1436	1419	1420	1421	1420	1409	1410	1399	1398	1405	1417	1426	1426	1426	1420	1420	1420	1424	1422	1437	1435	1438	1429	1431	1427	1425	1421	1425	1428	1433	1427	1430	1419	1414	1422	1426	1426	1431	1429	1422	1420	1425	1434	1442	1452	1451	1466	1463	1441	1399	1403	1415	1441	1449	1449	1450	1440	1434	1436	1447	1445	1442	1431	1421	1413	1425	1432	1435	1427	1418	1416	1427	1427	1426	1418	1431	1435	1436	1450	1453	1435	1416	1402	1403	1402	1411	1400	1382	1365	1349	1313	1261	1245	1209	1173	1155	1164	1174	1172	1168	1161	1156	1148	1144	1137	1132	1123	1108	1093	1085	1081	1080	1079	1081	1086	1092	1085	1084	1085	1080	1081	1077	1082	1095	1110	1113	1113	1111	1115	0	0	0	0	0	0	0	0	0	0	0	0	1331	1396	1424	1424	1437	1453	1458	1454	1445	1437	1436	1445	1455	1460	1453	1432	1433	1439	1442	1446	1451	1452	1445	1442	1445	1452	1453	1442	1437	1435	1430	1429	1433	1430	1435	1447	1457	1453	1448	1448	1448	1452	1450	1444	1439	1442	1452	1457	1461	1458	1455	1451	1430	1427	1416	1413	1398	1400	1401	1408	1412	1418	1430	1435	1429	1422	1414	1453	1475	1469	1452	1450	1453	1437	1435	1435	1419	1418	1420	1434	1436	1422	1433	1430	1450	1446	1440	1431	1435	1443	1446	1452	1458	1462	1463	1459	1445	1438	1431	1433	1434	1443	1454	1457	1456	1449	1439	1417	1414	1421	1417	1419	1421	1425	1423	1413	1406	1404	1398	1402	1409	1421	1433	1441	1444	1451	1456	1465	1457	1441	1426	1411	1408	0	0	0	0	0	0	0	1183	1174	0	0	0	0	0	0	0	0	0	1111	1096	1086	1081	1078	1076	1074	1068	1062	1064	1073	1088	1088	1073	1060	1057	1060	1076	1092	1101	1091	1080	1076	1090	1110	1114	1097	1085	1080	1081	1075	1070	1067	1083	1104	1136	1099	1119	1172	1262	1359	1417	1420	1425	1436	1451	1455	1452	1444	1441	1446	1449	1448	1429	1419	1425	1432	1436	1433	1431	1440	1452	1463	1468	1465	1462	1447	1438	1438	1439	1436	1428	1409	1398	1395	1400	1415	1432	1453	1456	1451	1437	1430	1420	1415	1412	1406	1406	1409	1416	1414	1425	1437	1443	1432	1432	1426	1424	1426	1428	1436	1429	1417	1406	1405	1396	1405	1419	1440	1458	1469	1467	1462	1458	1449	1440	1446	1440	1436	1422	1412	1400	1400	1406	1422	1435	1434	1421	1416	1419	1430	1435	1430	1421	1429	1422	1421	1427	1434	1443	1456	1460	1451	1439	1437	1447	1454	1448	1432	1411	1401	1395	1401	1412	1419	1418	1417	1426	1430	1430	1421	1435	1441	1448	1458	1454	1445	1433	1434	1441	1446	1446	1442	1433	1425	1418	1427	1442	1450	1448	1448	1444	1441	1444	1451	1444	1437	1420	1432	1436	1438	1432	1433	1428	1440	1448	1451	1451	1439	1423	1404	1402	1407	1424	1448	1459	1447	1426	1406	1406	0	0	0	0	0	0
0	0	1403	1398	1405	1410	1410	1417	1440	1468	1476	1460	1460	1435	1418	1406	1403	1394	1394	1406	1413	1409	1404	1399	1385	1382	1382	1380	1380	1390	1400	1405	1406	1405	1405	1417	1431	1448	1441	1427	1410	1393	1382	1377	1385	1385	1408	1431	1442	1446	1440	1440	1432	1428	1422	1445	1459	1467	1467	1452	1427	1405	1390	1399	1418	1418	1413	1423	1424	1425	1416	1414	1413	1412	1413	1415	1441	1435	1411	1395	1397	1397	1403	1402	1412	1412	1436	1446	1443	1427	1417	1428	1442	1445	1445	1434	1438	1451	1453	1459	1441	1430	1427	1424	1424	1432	1428	1416	1412	1413	1420	1422	1419	1405	1392	1396	1399	1407	1419	1431	1437	1423	1409	1410	1417	1423	1431	1430	1436	1450	1466	1462	1446	1416	1416	1416	1423	1418	1414	1407	1414	1420	1432	1433	1438	1432	1425	1422	1427	1428	1434	1439	1439	1440	1435	1426	1424	1426	1429	1433	1435	1434	1431	1419	1422	1429	1430	1432	1432	1435	1421	1411	1418	1423	1432	1434	1437	1442	1455	1448	1435	1400	1404	1422	1444	1455	1444	1440	1432	1433	1438	1449	1447	1433	1425	1420	1424	1430	1445	1442	1425	1413	1415	1415	1413	1408	1412	1414	1431	1444	1448	1451	1421	1405	1392	1376	1362	1337	1261	1329	1305	1279	1202	1218	1212	1186	1164	1157	1163	1165	1168	1169	1162	1150	1130	1116	1110	1114	1109	1094	1082	1076	1081	1080	1069	1066	1068	1071	1077	1082	1078	1078	1080	1074	1078	1094	1101	1109	1098	1091	1092	0	0	0	0	0	0	0	0	0	0	0	1311	1383	1429	1430	1432	1440	1457	1460	1455	1444	1431	1439	1451	1468	1473	1460	1434	1424	1438	1442	1454	1458	1461	1450	1440	1434	1443	1450	1444	1447	1443	1429	1422	1412	1416	1428	1447	1464	1461	1452	1446	1448	1448	1450	1451	1456	1460	1471	1475	1477	1477	1477	1466	1449	1430	1417	1410	1405	1407	1417	1419	1418	1424	1433	1437	1452	1444	1429	1422	1426	1414	1431	1430	1431	1421	1423	1430	1420	1409	1414	1431	1435	1431	1426	1439	1449	1440	1433	1429	1438	1436	1446	1449	1455	1457	1455	1455	1446	1436	1427	1437	1440	1445	1451	1451	1435	1426	1412	1402	1408	1419	1423	1421	1422	1417	1413	1414	1408	1405	1404	1407	1417	1424	1432	1437	1438	1442	1447	1450	1449	1437	1419	1401	1397	0	0	0	0	0	0	0	0	0	0	0	0	0	0	0	0	0	0	1099	1092	1091	1091	1094	1089	1084	1074	1065	1064	1072	1075	1072	1059	1049	1052	1061	1086	1105	1098	1088	1072	1078	1092	1113	1120	1107	1085	1074	1072	1072	1073	1068	1073	1077	1080	1076	1088	1099	1130	1220	1350	1402	1419	1438	1452	1456	1451	1439	1436	1445	1455	1457	1450	1428	1419	1424	1429	1430	1435	1450	1457	1467	1470	1465	1460	1448	1432	1421	1423	1422	1420	1402	1400	1405	1409	1419	1431	1441	1455	1451	1438	1426	1416	1413	1409	1411	1410	1406	1404	1419	1430	1436	1437	1425	1419	1417	1422	1420	1427	1435	1428	1427	1414	1407	1392	1410	1424	1438	1446	1458	1453	1448	1440	1431	1430	1434	1437	1431	1424	1409	1405	1414	1422	1438	1459	1426	1411	1410	1416	1426	1438	1433	1430	1419	1412	1416	1422	1431	1444	1455	1457	1448	1433	1432	1444	1453	1446	1434	1420	1414	1415	1417	1422	1421	1427	1428	1432	1430	1416	1417	1433	1447	1457	1461	1458	1443	1427	1424	1438	1450	1456	1455	1445	1432	1430	1425	1435	1450	1448	1448	1450	1456	1453	1454	1448	1436	1427	1428	1431	1436	1439	1433	1437	1439	1447	1443	1443	1432	1411	1402	1402	1414	1431	1455	1457	1445	1425	1425	1414	0	0	0	0	0	0
0	0	1413	1412	1413	1406	1406	1401	1417	1444	1458	1452	1452	1429	1415	1402	1385	1379	1404	1404	1411	1411	1406	1405	1401	1395	1395	1385	1375	1386	1395	1409	1412	1412	1419	1419	1421	1431	1429	1416	1406	1388	1383	1382	1388	1388	1401	1418	1419	1418	1422	1428	1433	1431	1432	1455	1476	1483	1483	1474	1449	1414	1400	1417	1416	1421	1421	1425	1425	1426	1418	1412	1409	1408	1410	1430	1454	1444	1417	1401	1390	1389	1398	1406	1418	1439	1439	1452	1445	1416	1415	1414	1425	1439	1437	1439	1451	1458	1461	1459	1445	1436	1425	1429	1436	1446	1443	1429	1419	1419	1425	1423	1412	1397	1395	1406	1420	1437	1451	1457	1442	1422	1414	1411	1419	1425	1438	1435	1439	1444	1457	1442	1424	1409	1406	1420	1436	1432	1427	1427	1432	1442	1443	1444	1443	1444	1436	1435	1437	1439	1443	1449	1444	1439	1427	1424	1420	1419	1422	1429	1430	1431	1417	1410	1414	1428	1437	1440	1429	1423	1407	1403	1415	1425	1425	1424	1419	1419	1436	1439	1426	1413	1420	1436	1440	1439	1428	1419	1415	1419	1427	1442	1430	1422	1417	1413	1417	1436	1454	1455	1438	1416	1410	1408	1404	1402	1398	1406	1427	1439	1439	1441	1400	1377	1291	1223	1199	1176	1172	1157	1150	1169	1180	1193	1185	1173	1163	1155	1156	1157	1160	1164	1165	1142	1120	1098	1092	1094	1097	1086	1078	1078	1085	1077	1067	1057	1060	1072	1083	1081	1080	1078	1077	1079	1084	1101	1115	1118	1105	1087	1078	0	0	0	0	0	0	0	0	0	0	0	1345	1437	1446	1444	1438	1443	1460	1458	1449	1444	1444	1446	1457	1474	1475	1456	1432	1421	1427	1436	1446	1452	1459	1451	1441	1438	1440	1438	1433	1447	1452	1438	1417	1408	1419	1428	1445	1457	1454	1451	1447	1450	1450	1456	1457	1457	1464	1471	1473	1479	1480	1477	1467	1454	1442	1431	1424	1414	1420	1428	1428	1423	1417	1433	1450	1445	1445	1431	1421	1423	1406	1424	1419	1423	1428	1425	1432	1440	1442	1442	1437	1442	1449	1453	1451	1444	1443	1448	1445	1444	1442	1442	1447	1452	1451	1451	1447	1443	1426	1431	1447	1443	1445	1442	1437	1429	1415	1403	1403	1407	1421	1424	1428	1423	1417	1413	1415	1412	1408	1409	1416	1425	1431	1437	1435	1436	1436	1438	1446	1445	1441	1430	1413	1395	1387	0	0	0	0	0	0	0	0	0	1124	1106	0	0	0	0	0	0	1074	1074	0	0	0	1108	1090	1079	1071	1076	1087	1088	1075	1058	1052	1062	1078	1091	1101	1093	1077	1068	1072	1084	1103	1121	1107	1083	1063	1065	1068	1071	1069	1067	1072	1070	1071	1070	1078	1088	1123	1170	1259	1302	1362	1411	1436	1437	1423	1423	1432	1442	1451	1450	1444	1448	1436	1434	1431	1438	1441	1436	1448	1457	1454	1452	1442	1427	1419	1415	1409	1404	1404	1403	1408	1401	1411	1426	1439	1449	1442	1425	1414	1415	1417	1418	1416	1416	1414	1414	1420	1426	1432	1432	1422	1411	1411	1416	1416	1419	1428	1427	1421	1415	1401	1395	1400	1419	1425	1426	1429	1428	1422	1418	1411	1416	1423	1430	1431	1423	1413	1415	1422	1444	1460	1461	1428	1408	1404	1420	1432	1430	1434	1427	1406	1407	1414	1427	1434	1441	1446	1443	1435	1432	1427	1437	1444	1437	1431	1425	1428	1434	1433	1429	1426	1425	1437	1439	1435	1408	1409	1417	1431	1448	1456	1457	1450	1429	1426	1436	1452	1461	1461	1445	1434	1428	1426	1434	1439	1439	1439	1442	1458	1454	1459	1445	1428	1424	1419	1423	1430	1435	1438	1433	1431	1435	1435	1435	1427	1411	1402	1405	1414	1423	1449	1448	1440	1431	1431	1423	0	0	0	0	0	0
0	0	1418	1422	1416	1407	1407	1399	1411	1426	1435	1432	1432	1427	1407	1393	1391	1398	1401	1401	1406	1404	1402	1402	1400	1388	1388	1388	1385	1390	1405	1419	1423	1415	1409	1409	1409	1410	1414	1409	1394	1391	1394	1395	1405	1405	1416	1416	1415	1408	1406	1417	1428	1428	1427	1452	1473	1484	1484	1476	1456	1422	1413	1418	1422	1425	1424	1427	1433	1433	1422	1410	1404	1407	1416	1432	1445	1440	1431	1417	1408	1402	1397	1413	1429	1455	1465	1453	1453	1435	1427	1430	1437	1438	1441	1442	1449	1456	1446	1450	1440	1437	1423	1432	1438	1448	1451	1439	1433	1426	1423	1412	1396	1389	1393	1413	1437	1454	1464	1467	1451	1444	1434	1430	1430	1429	1437	1441	1444	1437	1439	1424	1401	1386	1408	1429	1443	1444	1441	1433	1440	1448	1451	1445	1444	1447	1453	1452	1455	1459	1458	1456	1450	1433	1425	1421	1416	1414	1414	1418	1430	1434	1424	1416	1412	1428	1440	1438	1432	1423	1401	1397	1413	1422	1423	1412	1411	1414	1428	1436	1437	1431	1433	1439	1440	1435	1422	1408	1411	1414	1423	1432	1433	1424	1414	1408	1407	1421	1435	1449	1440	1428	1421	1418	1401	1392	1386	1393	1414	1426	1427	1406	1358	1163	1128	1124	1129	1130	1129	1131	1131	1133	1136	1160	1154	1150	1137	1131	1134	1136	1145	1151	1149	1131	1110	1086	1080	1087	1090	1091	1086	1092	1090	1082	1066	1057	1062	1079	1087	1087	1086	1086	1077	1074	1084	1107	1127	1125	1112	1091	1078	0	0	0	0	0	0	0	0	0	0	1358	1439	1444	1450	1450	1450	1449	1447	1444	1438	1436	1440	1444	1452	1459	1458	1442	1428	1419	1417	1424	1428	1440	1445	1452	1442	1440	1436	1432	1430	1430	1439	1451	1448	1445	1440	1441	1442	1448	1447	1445	1452	1457	1459	1457	1454	1448	1451	1457	1469	1472	1467	1465	1463	1456	1457	1456	1459	1431	1435	1442	1436	1427	1416	1424	1450	1451	1443	1444	1449	1458	1450	1434	1424	1425	1422	1432	1429	1436	1443	1439	1429	1437	1443	1452	1456	1448	1444	1443	1443	1444	1444	1442	1445	1447	1457	1457	1451	1441	1421	1427	1412	1427	1433	1434	1429	1428	1429	1423	1413	1416	1428	1433	1428	1422	1415	1418	1430	1431	1422	1420	1425	1439	1443	1437	1447	1453	1462	1465	1462	1465	1463	1449	1429	1413	1405	1373	0	0	0	0	0	0	0	0	0	1098	1092	0	0	0	0	0	1065	1077	1100	0	0	1117	1092	1076	1073	1081	1098	1101	1092	1084	1070	1075	1083	1098	1087	1079	1070	1063	1058	1081	1097	1113	1107	1079	1069	1058	1054	1053	1058	1058	1059	1059	1060	1057	1065	1075	1094	1100	1128	1156	1215	1272	1335	1375	1389	1399	1406	1416	1431	1444	1451	1449	1433	1432	1429	1429	1418	1419	1424	1436	1439	1446	1438	1439	1430	1429	1410	1398	1404	1409	1417	1409	1409	1425	1438	1443	1448	1426	1413	1418	1425	1436	1431	1422	1422	1434	1435	1432	1431	1417	1415	1413	1409	1406	1409	1415	1422	1420	1414	1410	1397	1392	1399	1414	1414	1423	1424	1420	1415	1409	1404	1403	1419	1427	1424	1422	1424	1430	1444	1452	1455	1445	1407	1404	1411	1427	1437	1435	1434	1421	1407	1404	1419	1436	1442	1446	1443	1437	1431	1422	1426	1430	1434	1424	1430	1436	1434	1435	1443	1433	1423	1423	1439	1433	1428	1408	1396	1399	1408	1426	1440	1448	1450	1442	1431	1441	1454	1464	1463	1450	1435	1421	1423	1430	1421	1421	1424	1431	1434	1447	1435	1429	1420	1410	1415	1416	1420	1425	1427	1430	1426	1423	1423	1423	1419	1412	1415	1420	1418	1415	1428	1431	1433	1431	1431	1434	0	0	0	0	0	0
0	0	1428	1430	1418	1421	1421	1412	1419	1417	1412	1418	1418	1428	1425	1415	1414	1413	1413	1413	1413	1407	1400	1399	1396	1387	1387	1402	1401	1402	1411	1422	1417	1407	1400	1400	1400	1401	1398	1397	1395	1405	1412	1414	1425	1425	1432	1433	1427	1418	1414	1417	1416	1408	1411	1435	1456	1466	1463	1463	1443	1433	1424	1422	1423	1425	1422	1423	1426	1430	1423	1409	1407	1409	1415	1429	1433	1435	1434	1437	1430	1415	1414	1414	1440	1468	1471	1458	1443	1443	1442	1450	1453	1449	1447	1445	1448	1448	1452	1447	1438	1428	1427	1431	1443	1453	1460	1453	1441	1438	1425	1420	1425	1429	1435	1442	1447	1449	1445	1445	1459	1479	1490	1471	1459	1434	1418	1410	1410	1420	1420	1426	1427	1409	1415	1422	1428	1429	1425	1441	1444	1449	1451	1446	1443	1444	1452	1460	1468	1467	1461	1450	1442	1431	1418	1420	1435	1415	1414	1417	1430	1434	1436	1431	1426	1438	1451	1442	1434	1418	1399	1406	1414	1416	1417	1414	1419	1420	1437	1446	1450	1447	1437	1436	1437	1427	1421	1423	1424	1429	1440	1444	1443	1438	1424	1414	1404	1401	1413	1415	1430	1428	1426	1423	1418	1386	1375	1380	1400	1406	1378	1275	1196	1095	1084	1086	1089	1094	1097	1106	1111	1111	1108	1100	1094	1117	1108	1110	1109	1116	1122	1121	1119	1110	1096	1077	1081	1082	1093	1099	1098	1098	1095	1089	1078	1066	1071	1081	1091	1106	1103	1085	1078	1076	1081	1094	1113	1119	1111	1095	0	0	0	0	0	0	0	0	0	0	1370	1441	1437	1440	1446	1446	1442	1437	1438	1432	1425	1424	1433	1445	1447	1449	1436	1422	1416	1410	1412	1416	1422	1432	1440	1443	1445	1440	1441	1435	1427	1432	1434	1442	1451	1457	1462	1452	1452	1441	1439	1445	1454	1459	1457	1456	1445	1439	1443	1451	1458	1464	1460	1452	1449	1457	1468	1482	1488	1481	1463	1466	1452	1437	1421	1426	1451	1453	1445	1448	1461	1467	1458	1454	1440	1428	1423	1420	1429	1441	1441	1439	1430	1424	1442	1453	1460	1461	1454	1447	1439	1435	1427	1421	1429	1454	1470	1482	1474	1465	1441	1426	1419	1423	1428	1434	1435	1431	1428	1421	1424	1422	1426	1426	1424	1416	1411	1416	1435	1436	1426	1419	1423	1438	1442	1436	1448	1453	1466	1470	1472	1469	1463	1450	1431	1423	1420	1413	1376	0	0	0	0	0	0	0	0	0	0	0	0	0	0	1065	1072	1081	1090	1100	1104	1094	1076	1065	1070	1081	1092	1106	1100	1087	1077	1079	1083	1087	1085	1081	1065	1063	1060	1071	1085	1086	1087	1054	1052	1054	1053	1046	1045	1043	1049	1050	1056	1061	1066	1071	1075	1085	1098	1116	1134	1169	1235	1302	1346	1364	1368	1386	1402	1420	1436	1437	1427	1424	1424	1420	1411	1412	1414	1425	1427	1432	1432	1442	1440	1439	1431	1417	1414	1421	1425	1414	1406	1419	1421	1436	1439	1439	1426	1428	1441	1453	1452	1440	1446	1450	1452	1442	1433	1427	1414	1410	1409	1406	1399	1401	1410	1409	1409	1407	1398	1391	1398	1408	1412	1427	1434	1426	1417	1411	1415	1415	1420	1431	1433	1437	1428	1437	1453	1455	1437	1418	1395	1390	1404	1420	1428	1432	1423	1415	1403	1407	1429	1444	1451	1449	1445	1435	1426	1418	1418	1415	1422	1421	1427	1438	1437	1442	1443	1431	1424	1420	1432	1426	1406	1392	1384	1383	1391	1403	1421	1434	1442	1441	1436	1440	1461	1469	1467	1455	1432	1422	1420	1416	1416	1416	1415	1417	1424	1430	1424	1415	1413	1406	1407	1407	1413	1414	1416	1419	1421	1422	1422	1415	1416	1413	1424	1426	1429	1421	1419	1420	1428	1440	1440	1446	0	0	0	0	0	0
0	0	1432	1432	1428	1429	1429	1437	1435	1421	1414	1424	1428	1428	1431	1430	1423	1423	1422	1422	1421	1416	1408	1407	1402	1400	1412	1412	1417	1419	1416	1415	1410	1404	1393	1393	1405	1403	1399	1397	1412	1417	1422	1425	1436	1447	1447	1450	1447	1436	1428	1418	1406	1392	1386	1416	1439	1448	1442	1442	1441	1436	1431	1426	1427	1426	1422	1423	1429	1430	1425	1416	1405	1414	1420	1426	1426	1432	1439	1446	1451	1426	1412	1417	1439	1460	1464	1455	1446	1442	1442	1451	1453	1448	1453	1451	1449	1448	1438	1434	1431	1429	1427	1444	1455	1469	1468	1458	1442	1429	1423	1421	1437	1441	1451	1445	1435	1435	1437	1437	1447	1469	1485	1478	1459	1429	1412	1401	1404	1409	1430	1440	1445	1433	1430	1424	1423	1422	1424	1437	1438	1433	1423	1414	1418	1428	1443	1449	1452	1459	1452	1437	1434	1422	1418	1423	1454	1461	1426	1422	1429	1445	1455	1453	1451	1452	1452	1442	1443	1433	1403	1405	1416	1414	1412	1425	1437	1439	1448	1452	1455	1451	1433	1433	1429	1425	1429	1439	1444	1446	1449	1456	1449	1445	1429	1407	1397	1388	1394	1409	1419	1423	1418	1414	1396	1377	1368	1348	1302	1252	1171	1143	1113	1066	1060	1059	1066	1067	1069	1079	1086	1093	1087	1083	1074	1068	1063	1066	1090	1097	1107	1097	1096	1094	1089	1084	1083	1083	1090	1097	1097	1090	1093	1085	1082	1080	1081	1088	1094	1102	1102	1096	1079	1075	1066	1069	1086	1094	1098	0	0	0	0	0	0	0	0	0	0	1336	1428	1430	1432	1430	1434	1439	1435	1430	1419	1418	1416	1422	1433	1437	1440	1425	1421	1413	1412	1415	1414	1422	1428	1430	1432	1436	1439	1440	1447	1445	1435	1433	1434	1432	1434	1443	1449	1452	1449	1447	1448	1446	1452	1450	1451	1441	1432	1430	1428	1443	1459	1461	1466	1455	1441	1439	1454	1469	1480	1495	1491	1479	1464	1442	1429	1427	1446	1450	1448	1449	1458	1471	1468	1463	1450	1440	1424	1418	1423	1435	1439	1436	1429	1427	1433	1442	1452	1458	1456	1449	1444	1439	1430	1422	1432	1461	1481	1497	1496	1479	1461	1445	1429	1424	1427	1431	1438	1431	1425	1421	1421	1427	1428	1425	1423	1421	1420	1420	1440	1445	1411	1398	1404	1428	1432	1433	1441	1450	1461	1465	1460	1456	1448	1446	1436	1423	1420	1424	1419	0	0	0	0	0	0	0	0	0	0	1082	1076	1075	0	1076	1078	1079	1079	1078	1068	1053	1039	1043	1050	1072	1087	1094	1087	1081	1063	1056	1059	1074	1079	1070	1062	1057	1060	1071	1071	1069	1064	1054	1051	1055	1046	1038	1034	1034	1038	1047	1053	1058	1066	1062	1054	1061	1066	1080	1089	1109	1139	1187	1260	1308	1339	1348	1372	1391	1405	1407	1412	1420	1428	1436	1425	1422	1417	1421	1424	1422	1429	1433	1445	1439	1426	1416	1424	1438	1443	1440	1420	1414	1425	1429	1442	1442	1434	1434	1449	1457	1460	1455	1461	1469	1471	1460	1448	1437	1421	1411	1407	1401	1400	1394	1408	1417	1417	1417	1417	1412	1402	1399	1415	1433	1439	1433	1426	1424	1424	1436	1433	1433	1425	1424	1438	1441	1455	1452	1428	1395	1383	1390	1392	1406	1420	1421	1425	1418	1409	1410	1438	1451	1459	1457	1443	1434	1426	1414	1409	1409	1414	1422	1422	1439	1447	1450	1441	1428	1417	1422	1424	1417	1392	1388	1381	1384	1387	1393	1405	1422	1438	1440	1439	1429	1454	1469	1471	1455	1439	1424	1418	1413	1413	1410	1411	1413	1421	1429	1432	1419	1405	1404	1403	1404	1405	1408	1410	1417	1418	1420	1420	1416	1418	1419	1431	1437	1441	1432	1426	1425	1434	1434	1450	1454	0	0	0	0	0	0
0	0	1414	1420	1428	1435	1448	1448	1446	1440	1419	1420	1428	1428	1427	1425	1426	1424	1425	1425	1426	1427	1424	1418	1416	1414	1414	1414	1419	1416	1408	1398	1394	1401	1411	1412	1412	1403	1400	1422	1432	1430	1424	1427	1438	1451	1451	1468	1471	1465	1463	1447	1410	1392	1393	1408	1433	1447	1448	1448	1440	1442	1438	1428	1423	1424	1423	1426	1428	1432	1426	1426	1426	1428	1438	1442	1429	1433	1435	1447	1451	1429	1419	1416	1429	1442	1450	1446	1426	1427	1436	1438	1443	1454	1452	1448	1446	1438	1418	1402	1405	1418	1431	1448	1460	1476	1477	1460	1446	1430	1424	1427	1436	1446	1453	1453	1446	1439	1434	1427	1436	1457	1467	1459	1439	1424	1423	1414	1417	1414	1422	1438	1444	1440	1439	1442	1437	1433	1426	1431	1428	1424	1416	1410	1412	1423	1428	1440	1441	1447	1445	1438	1436	1434	1438	1440	1470	1479	1467	1443	1445	1455	1470	1471	1464	1458	1453	1448	1439	1429	1413	1412	1414	1412	1414	1438	1452	1458	1456	1449	1446	1437	1431	1422	1410	1411	1424	1442	1446	1446	1448	1449	1454	1444	1426	1411	1399	1377	1385	1395	1399	1397	1390	1373	1353	1295	1255	1172	1135	1130	1126	1109	1091	1057	1045	1043	1042	1047	1051	1059	1072	1071	1077	1070	1063	1055	1048	1059	1078	1086	1097	1097	1090	1090	1091	1092	1089	1082	1085	1083	1078	1079	1074	1073	1072	1078	1091	1092	0	0	0	1092	1080	1069	1060	1062	1064	0	0	0	0	0	0	0	0	0	0	0	1322	1399	1412	1413	1420	1424	1428	1432	1429	1419	1414	1418	1421	1433	1435	1430	1427	1422	1413	1413	1409	1417	1425	1430	1437	1439	1432	1432	1437	1449	1459	1457	1448	1436	1433	1432	1440	1435	1435	1436	1437	1436	1442	1446	1450	1440	1429	1430	1423	1419	1420	1432	1452	1465	1465	1454	1434	1428	1430	1452	1471	1493	1490	1477	1459	1451	1437	1429	1444	1447	1446	1448	1469	1475	1474	1475	1472	1444	1437	1429	1418	1397	1402	1420	1436	1443	1433	1434	1443	1449	1447	1443	1442	1414	1415	1436	1440	1447	1460	1449	1466	1466	1474	1456	1436	1431	1437	1432	1433	1429	1425	1419	1421	1424	1427	1424	1427	1421	1422	1442	1441	1408	1429	1441	1433	1419	1407	1424	1433	1432	1414	1422	1420	1417	1399	1385	1426	1430	1428	1426	1421	1404	0	0	0	0	0	0	0	0	0	0	1072	1065	1077	1086	1086	1078	1071	1060	1053	1036	1023	1019	1035	1052	1066	1067	1062	1047	1032	1019	1025	1051	1060	1054	1036	1043	1058	1044	1047	1052	1052	1048	1044	1042	1041	1029	1029	1029	1034	1039	1049	1050	1050	1035	1031	1032	1037	1049	1058	1074	1093	1111	1117	1153	1251	1312	1339	1364	1376	1382	1404	1424	1439	1448	1439	1435	1426	1424	1422	1422	1426	1424	1427	1416	1411	1413	1429	1441	1455	1443	1428	1414	1419	1433	1438	1436	1431	1426	1436	1450	1452	1455	1465	1471	1471	1460	1458	1448	1433	1422	1412	1403	1399	1402	1421	1427	1426	1426	1433	1429	1416	1417	1414	1430	1423	1423	1421	1428	1439	1448	1441	1443	1439	1424	1428	1438	1458	1467	1449	1413	1410	1411	1394	1397	1409	1421	1425	1429	1423	1411	1423	1442	1445	1437	1439	1430	1418	1408	1406	1407	1410	1416	1419	1428	1440	1441	1440	1422	1421	1430	1434	1418	1401	1392	1388	1388	1386	1387	1397	1411	1425	1435	1436	1443	1457	1467	1467	1452	1439	1425	1415	1407	1407	1407	1407	1412	1423	1432	1439	1430	1417	1405	1407	1414	1412	1406	1408	1409	1418	1418	1417	1412	1415	1423	1438	1449	1450	1436	1425	1420	1416	1429	1438	1438	0	0	0	0	0	0
