0	0	1454	1455	1442	1442	1425	1400	1395	1410	1425	1425	1422	1410	1398	1401	1414	1424	1424	1425	1423	1409	1392	1387	1391	1391	1397	1400	1397	1410	1424	1433	1429	1418	1418	1421	1424	1434	1437	1452	1450	1435	1430	1432	1432	1436	1432	1421	1426	1437	1428	1411	1418	1432	1444	1448	1455	1455	1457	1454	1455	1453	1442	1456	1457	1449	1436	1431	1429	1432	1443	1462	1463	1462	1459	1452	1451	1447	1449	1451	1454	1476	1493	1486	1486	1457	1435	1421	1419	1422	1420	1413	1410	1413	1410	1409	1401	1398	1397	1396	1417	1425	1423	1422	1416	1412	1401	1396	1396	1401	1409	1414	1415	1412	1412	1409	1414	1415	1406	1396	1391	1386	1403	1416	1417	1418	1419	1419	1417	1415	1416	1434	1451	1421	0	0	0	0	0	0	0	0	0	0	0	0	0	0	0	0	0	0	0	0	0	0	0	0	0	0	0	0	0	0	0	0	0	0	0	0	0	0	0	0	0	0	0	0	0	0	0	1436	1387	1383	1394	1400	1408	1417	1425	1429	1426	1424	1418	1416	1430	1426	1421	1408	1409	1412	1420	1426	1422	1412	1412	1423	1443	1448	1440	1436	1434	1431	1432	1430	1427	1430	1436	1427	1416	1403	1399	1397	1395	1390	1395	1409	1421	1423	1410	1407	1412	1424	1439	1447	1453	1451	1442	1428	1424	1424	1428	1433	1422	1413	1411	1414	1425	1434	1445	1441	1438	1434	1438	1441	1443	1450	1447	1442	1431	1432	1439	1445	1446	1447	1444	1444	1442	1444	1442	1446	1440	1434	1428	1428	1429	1431	1431	1445	1443	1439	1433	1432	1432	1425	1417	1402	1428	1448	1459	1464	1466	1461	1461	1464	1451	1435	1423	1417	1422	1430	1441	1444	1441	1425	1425	1426	1428	1431	1440	1444	1448	1445	1443	1442	1444	1449	1450	1448	1446	1439	1437	1441	1445	1452	1460	1468	1461	1448	1435	1427	1454	1496	1515	1504	1464	1455	1466	1462	1452	1443	1448	1460	1470	1489	1490	1472	1457	1434	1434	1431	1437	1448	1452	1451	1456	1456	1453	1456	1455	1454	1463	1482	1488	1492	1494	1493	1480	1469	1454	1447	1442	1441	1443	1443	1456	1459	1461	1464	1452	1441	1438	1440	1441	1441	1438	1425	1421	1424	1432	1444	1443	1454	1470	1486	1497	1475	1470	1468	1463	1461	1464	1447	1440	1440	1449	1454	1456	1449	1445	1445	1442	1447	1452	1453	1454	1449	1452	1449	1433	1430	1431	1460	1474	1469	1458	1452	1459	1458	1451	1458	1471	1483	1486	1489	1480	1469	1470	1477	1493	1492	1484	1471	1475	1484	1486	1488	1483	1472	1452	1449	1456	1462	1464	1452	1439	1448	1457	1465	1469	1475	1472	1467	1462	1457	1451	1457	1460	1457	1460	1456	1470	1469	1469	1475	1478	1476	1467	1456	1452	1427	1436	1451	0	0	0	0	0	0	0	0	0	0	0	0	0	0	0	0	0	0	0	0	0	0	0	1546	1558	1574	1575	1553	1532	1549	1572	1582	1557	1550	1537	1538	1543	1543	1543	1545	1542	1537	1520	1497	1485	1493	1539	1555	1544	1527	1519	1525	1523	1489	0	0	0	0	0	0	0	0	0	0	0	0	0	0	0	0	0	0	0	1506	1508	1508	1500	1493	1494	1514	1522	1512	1496	1484	1467	1465	1477	1485	1499	1490	1488	1491	1501	1498	1482	1477	1479	1480	1477	1487	1504	1523	1531	1522	1496	1484	1479	1468	1477	1484	1494	1487	1475	1476	1488	1487	1481	1474	1461	1463	1456	1449	1448	1448	1454	1455	1455	1460	1468	1472	1482	1494	1496	1498	1500	1493	1497	1502	1506	1517	1517	1511	1503	1500	1494	1494	1493	1502	1496	1482	1477	1477	0	0	0	0	0	0
0	0	1459	1454	1451	1451	1439	1412	1408	1408	1418	1418	1419	1413	1409	1399	1411	1418	1418	1428	1427	1418	1408	1403	1401	1401	1405	1408	1411	1413	1428	1430	1430	1430	1425	1429	1432	1437	1443	1452	1449	1436	1423	1423	1423	1427	1421	1420	1425	1436	1432	1420	1417	1434	1449	1447	1447	1447	1448	1457	1461	1464	1466	1469	1463	1453	1438	1432	1429	1433	1451	1475	1479	1477	1467	1462	1449	1445	1439	1432	1436	1442	1465	1470	1470	1459	1442	1426	1428	1418	1412	1412	1412	1411	1409	1402	1400	1393	1391	1387	1411	1418	1413	1410	1415	1408	1405	1396	1405	1412	1422	1426	1418	1409	1406	1403	1405	1407	1404	1395	1385	1383	1389	1426	1427	1421	1418	1419	1417	1425	1426	1440	1456	1438	0	0	0	0	0	0	0	0	0	0	0	0	0	0	0	0	0	0	0	0	0	0	0	0	0	0	0	0	0	0	0	0	0	0	0	0	0	0	0	0	0	0	0	0	0	0	0	1422	1387	1385	1395	1402	1409	1422	1426	1429	1428	1424	1421	1424	1424	1410	1413	1416	1424	1420	1422	1422	1417	1414	1412	1431	1449	1451	1451	1448	1440	1436	1435	1440	1433	1430	1425	1426	1410	1395	1390	1391	1390	1389	1392	1408	1425	1427	1415	1412	1417	1432	1440	1443	1442	1440	1431	1429	1432	1432	1426	1420	1419	1411	1407	1403	1415	1424	1423	1434	1440	1439	1445	1452	1454	1455	1451	1441	1437	1433	1437	1434	1426	1432	1430	1435	1438	1439	1446	1442	1438	1435	1427	1425	1430	1428	1436	1437	1438	1434	1428	1429	1431	1429	1413	1415	1428	1447	1459	1467	1467	1464	1466	1473	1469	1444	1432	1426	1421	1434	1439	1447	1446	1447	1434	1429	1427	1427	1437	1447	1453	1453	1453	1456	1452	1452	1450	1447	1448	1446	1447	1449	1454	1459	1467	1464	1458	1446	1433	1439	1469	1502	1499	1481	1471	1461	1470	1463	1443	1437	1442	1453	1462	1481	1484	1476	1453	1436	1432	1436	1441	1445	1448	1445	1446	1449	1452	1454	1454	1458	1472	1485	1501	1498	1497	1495	1485	1465	1447	1441	1445	1439	1444	1445	1452	1456	1461	1464	1468	1466	1456	1448	1445	1439	1435	1431	1428	1437	1448	1450	1451	1444	1465	1503	1517	1513	1500	1476	1460	1446	1440	1428	1421	1416	1422	1440	1457	1459	1455	1457	1458	1459	1465	1466	1477	1481	1474	1457	1434	1442	1452	1471	1475	1471	1470	1475	1480	1477	1476	1475	1476	1485	1491	1487	1459	1434	1443	1458	1477	1481	1475	1460	1453	1456	1459	1469	1478	1481	1484	1469	1467	1472	1475	1472	1438	1411	1400	1414	1437	1468	1485	1482	1475	1462	1457	1458	1456	1443	1439	1434	1432	1442	1455	1468	1482	1476	1465	1461	1466	1469	1474	1476	1512	0	0	0	0	0	0	0	0	0	0	0	0	0	0	0	0	0	0	0	0	0	0	1573	1562	1573	1569	1565	1529	1539	1570	1583	1551	1526	1521	1543	1566	1576	1561	1547	1545	1553	1549	1535	1518	1509	1509	1527	1568	1562	1541	1522	1500	1492	0	0	0	0	0	0	0	0	0	0	0	0	0	0	0	0	0	0	0	1509	1519	1505	1495	1499	1501	1513	1524	1518	1503	1480	1465	1458	1470	1493	1506	1502	1502	1505	1507	1502	1492	1488	1478	1477	1480	1493	1495	1505	1511	1509	1497	1496	1485	1474	1463	1474	1484	1493	1482	1480	1486	1489	1481	1471	1467	1471	1466	1456	1447	1452	1457	1456	1457	1462	1470	1484	1486	1489	1498	1501	1493	1489	1485	1486	1496	1501	1501	1490	1491	1487	1488	1487	1494	1505	1503	1488	1478	1478	0	0	0	0	0	0
0	0	1437	1447	1444	1444	1428	1416	1402	1396	1400	1400	1404	1412	1419	1420	1417	1417	1424	1425	1425	1415	1407	1404	1409	1409	1414	1421	1425	1421	1423	1421	1421	1421	1415	1418	1427	1434	1440	1443	1431	1416	1402	1402	1405	1415	1420	1417	1416	1426	1428	1417	1424	1434	1447	1440	1440	1435	1434	1445	1463	1466	1461	1460	1455	1450	1441	1435	1432	1433	1458	1474	1480	1480	1476	1462	1451	1441	1437	1426	1426	1427	1438	1438	1450	1455	1444	1435	1423	1413	1408	1416	1414	1417	1412	1410	1406	1397	1387	1384	1392	1409	1406	1399	1401	1410	1405	1398	1407	1417	1430	1432	1422	1411	1403	1401	1401	1407	1407	1400	1391	1386	1398	1423	1431	1424	1415	1414	1420	1429	1436	1444	1454	1437	0	0	0	0	0	0	0	0	0	0	0	0	0	0	0	0	0	0	0	0	0	0	0	0	0	0	0	0	0	0	0	0	0	0	0	0	0	0	0	0	0	0	0	0	0	0	0	1410	1392	1398	1403	1404	1410	1425	1427	1430	1425	1433	1431	1425	1415	1423	1419	1422	1424	1433	1423	1411	1409	1415	1429	1449	1464	1469	1468	1461	1452	1458	1453	1440	1432	1423	1420	1419	1409	1396	1389	1385	1388	1390	1386	1405	1429	1451	1428	1425	1439	1445	1444	1438	1436	1429	1427	1431	1440	1436	1427	1426	1421	1426	1421	1406	1413	1417	1415	1422	1432	1440	1445	1466	1470	1477	1474	1460	1437	1432	1428	1421	1414	1414	1423	1427	1439	1450	1447	1435	1433	1430	1425	1427	1428	1430	1431	1423	1431	1439	1437	1434	1437	1436	1424	1426	1431	1430	1433	1423	1414	1416	1420	1426	1442	1448	1447	1446	1453	1459	1454	1458	1471	1475	1473	1453	1448	1442	1441	1441	1441	1446	1451	1439	1433	1428	1430	1437	1442	1448	1447	1445	1461	1478	1478	1454	1436	1429	1431	1442	1476	1509	1488	1480	1474	1478	1460	1439	1427	1421	1416	1423	1426	1428	1435	1438	1439	1439	1431	1429	1437	1438	1438	1425	1413	1413	1430	1430	1433	1434	1447	1471	1494	1499	1500	1497	1485	1461	1434	1428	1432	1446	1443	1446	1445	1443	1455	1468	1478	1478	1465	1451	1444	1438	1433	1432	1432	1440	1447	1460	1454	1444	1470	1500	1516	1519	1497	1477	1448	1427	1417	1423	1435	1437	1425	1429	1422	1423	1420	1429	1432	1437	1458	1467	1475	1488	1488	1489	1479	1476	1479	1483	1482	1480	1469	1472	1465	1428	1431	1442	1470	1485	1494	1485	1462	1433	1434	1450	1469	1479	1477	1468	1466	1461	1465	1475	1488	1486	1488	1474	1467	1469	1477	1472	1451	1424	1407	1409	1440	1462	1479	1481	1474	1465	1464	1460	1459	1442	1424	1415	1421	1434	1455	1464	1472	1467	1462	1459	1474	1488	1487	1481	1494	0	0	0	0	0	0	0	0	0	0	0	0	0	0	0	0	0	0	0	0	0	0	1585	1570	1566	1572	1577	1538	1532	1540	1592	1585	1564	1549	1546	1544	1542	1537	1529	1534	1533	1539	1545	1568	1563	1535	1518	1522	1524	1530	1521	1516	1530	0	0	0	0	0	0	0	0	0	0	0	0	0	0	0	0	0	0	0	1503	1511	1493	1495	1501	1507	1510	1513	1519	1506	1488	1472	1460	1469	1496	1514	1506	1506	1503	1501	1496	1495	1489	1491	1493	1496	1498	1496	1490	1495	1496	1494	1498	1491	1477	1467	1477	1482	1483	1482	1481	1485	1491	1486	1469	1474	1474	1470	1437	1429	1429	1432	1440	1457	1458	1467	1482	1489	1495	1496	1495	1498	1487	1478	1476	1482	1486	1486	1484	1476	1471	1482	1480	1485	1505	1514	1505	1492	0	0	0	0	0	0	0
0	0	1416	1426	1426	1424	1416	1402	1394	1390	1388	1388	1397	1406	1419	1441	1422	1422	1425	1424	1411	1409	1401	1403	1402	1402	1416	1428	1431	1423	1420	1411	1410	1410	1406	1406	1411	1419	1437	1427	1404	1388	1383	1383	1399	1411	1414	1415	1409	1408	1419	1413	1418	1436	1444	1431	1431	1423	1433	1445	1463	1464	1454	1452	1448	1450	1443	1437	1430	1433	1441	1458	1479	1481	1472	1456	1449	1445	1446	1445	1426	1427	1427	1432	1444	1457	1450	1440	1430	1413	1419	1420	1419	1416	1414	1413	1410	1403	1390	1383	1390	1405	1405	1407	1413	1416	1410	1402	1405	1417	1433	1432	1422	1413	1406	1398	1405	1415	1414	1407	1397	1392	1395	1407	1422	1423	1414	1417	1421	1428	1436	1437	1443	1444	0	0	0	0	0	0	0	0	0	0	0	0	0	0	0	0	0	0	0	0	0	0	0	0	0	0	0	0	0	0	0	0	0	0	0	0	0	0	0	0	0	0	0	0	0	0	0	1410	1422	1413	1416	1413	1408	1406	1413	1411	1420	1423	1424	1419	1434	1427	1414	1409	1413	1422	1415	1402	1390	1392	1412	1438	1458	1465	1455	1405	1399	1409	1426	1437	1435	1429	1428	1424	1416	1418	1423	1432	1437	1432	1428	1426	1434	1454	1453	1449	1443	1443	1439	1436	1433	1427	1417	1423	1429	1428	1424	1429	1424	1419	1422	1438	1459	1460	1448	1441	1449	1462	1478	1485	1481	1476	1467	1458	1443	1429	1425	1429	1435	1442	1437	1444	1453	1461	1450	1434	1421	1412	1416	1429	1440	1442	1435	1432	1435	1440	1440	1439	1437	1427	1426	1425	1422	1416	1419	1413	1412	1420	1422	1437	1447	1448	1446	1440	1448	1448	1446	1452	1463	1468	1465	1462	1464	1474	1471	1465	1459	1450	1446	1436	1434	1434	1432	1431	1433	1431	1433	1433	1450	1468	1473	1454	1437	1430	1429	1438	1461	1485	1543	1526	1545	1493	1448	1429	1410	1414	1413	1413	1418	1424	1427	1435	1443	1448	1442	1436	1439	1439	1435	1424	1417	1414	1421	1428	1429	1430	1436	1449	1457	1455	1447	1439	1435	1434	1441	1445	1442	1446	1440	1436	1432	1431	1441	1458	1466	1473	1464	1452	1437	1432	1442	1457	1462	1456	1451	1452	1454	1461	1465	1473	1472	1450	1441	1442	1454	1456	1454	1430	1442	1441	1424	1421	1419	1417	1424	1432	1437	1439	1452	1467	1472	1483	1503	1492	1484	1477	1474	1486	1488	1486	1478	1467	1459	1412	1414	1433	1459	1477	1483	1474	1452	1433	1418	1422	1436	1466	1479	1480	1480	1475	1476	1491	1502	1502	1479	1443	1449	1457	1468	1477	1479	1471	1464	1459	1440	1420	1411	1450	1455	1458	1463	1467	1469	1439	1424	1416	1421	1431	1451	1465	1462	1455	1454	1458	1476	1491	1496	1488	1500	0	0	0	0	0	0	0	0	0	0	0	0	0	0	0	0	0	0	0	0	0	0	1594	1571	1560	1564	1572	1533	1528	1540	1575	1589	1573	1560	1545	1534	1523	1516	1516	1519	1518	1518	1538	1554	0	0	1525	1507	1512	1522	1526	1525	1519	0	0	0	0	0	0	0	0	0	0	0	0	0	0	0	0	0	0	1500	1501	1504	1488	1495	1503	1505	1506	1504	1508	1510	1501	1483	1473	1468	1491	1511	1507	1499	1496	1495	1492	1489	1489	1492	1500	1503	1505	1498	1492	1491	1493	1492	1497	1495	1488	1485	1477	1471	1476	1476	1476	1490	1496	1501	1493	1482	1450	1434	1432	1431	1436	1436	1460	1479	1486	1489	1484	1484	1482	1479	1490	1511	1521	1492	1474	1475	1485	1485	1479	1471	1464	1462	1461	1484	1497	1506	1496	1489	0	0	0	0	0	0	0
0	0	1408	1410	1410	1414	1405	1393	1394	1394	1394	1397	1398	1413	1431	1439	1447	1433	1433	1423	1410	1407	1404	1398	1398	1406	1416	1423	1426	1422	1415	1407	1409	1409	1403	1399	1400	1414	1439	1426	1398	1376	1376	1376	1391	1411	1416	1422	1414	1416	1418	1423	1427	1425	1422	1431	1431	1437	1443	1451	1453	1448	1446	1448	1445	1444	1448	1449	1443	1439	1452	1461	1476	1476	1467	1449	1451	1455	1458	1457	1446	1440	1440	1445	1448	1457	1459	1451	1438	1439	1435	1429	1421	1413	1409	1415	1417	1414	1408	1409	1405	1411	1417	1420	1428	1426	1411	1396	1396	1408	1425	1432	1427	1414	1405	1399	1404	1417	1426	1423	1409	1405	1403	1407	1414	1423	1423	1424	1425	1428	1429	1424	1429	1444	1449	0	0	0	0	0	0	0	0	0	0	0	0	0	0	0	0	0	0	0	0	0	0	0	0	0	0	0	0	0	0	0	0	0	0	0	0	0	0	0	0	0	0	0	0	0	0	0	1429	1438	1432	1425	1409	1400	1398	1407	1413	1415	1413	1416	1435	1428	1413	1403	1409	1417	1415	1403	1388	1386	1403	1433	1454	1459	1452	1398	1396	1412	1433	1437	1440	1433	1425	1421	1415	1423	1433	1437	1447	1441	1435	1428	1431	1450	1449	1441	1444	1439	1435	1431	1431	1435	1435	1430	1429	1423	1421	1426	1423	1424	1432	1451	1465	1467	1444	1444	1454	1470	1482	1488	1481	1472	1467	1451	1431	1429	1440	1454	1463	1467	1464	1461	1455	1446	1447	1444	1453	1455	1458	1459	1458	1451	1448	1440	1444	1445	1449	1446	1437	1421	1414	1424	1418	1417	1422	1426	1443	1445	1437	1439	1455	1447	1439	1430	1416	1417	1430	1442	1451	1451	1455	1460	1471	1480	1472	1464	1467	1460	1445	1442	1438	1435	1436	1431	1429	1431	1426	1437	1441	1458	1462	1456	1439	1433	1425	1420	1430	1472	1531	1553	1554	1495	1443	1432	1419	1427	1425	1422	1414	1418	1430	1439	1448	1456	1456	1450	1449	1449	1439	1429	1421	1421	1432	1436	1437	1428	1434	1443	1453	1449	1440	1436	1431	1432	1438	1444	1451	1449	1442	1433	1431	1435	1441	1450	1462	1467	1468	1457	1446	1449	1454	1469	1467	1458	1448	1451	1457	1460	1465	1465	1456	1447	1438	1439	1445	1447	1445	1435	1441	1445	1455	1461	1481	1477	1463	1466	1470	1474	1473	1466	1448	1440	1441	1447	1457	1460	1454	1449	1460	1468	1469	1461	1451	1438	1423	1424	1437	1439	1455	1456	1440	1432	1433	1437	1431	1449	1462	1476	1482	1487	1493	1498	1502	1487	1459	1449	1451	1451	1454	1449	1456	1462	1451	1452	1453	1433	1419	1445	1452	1458	1466	1474	1476	1456	1434	1419	1421	1441	1461	1457	1447	1454	1452	1458	1471	1489	1495	1500	1518	0	0	0	0	0	0	0	0	0	0	0	0	0	0	0	0	0	0	0	0	0	0	1575	1556	1550	1556	1535	1519	1519	1525	1574	1595	1584	1560	1534	1522	1515	1497	1497	1499	1497	1501	1517	0	0	0	1531	1524	1515	1523	1526	1525	1521	0	0	0	0	0	0	0	0	0	0	0	0	0	0	0	0	0	0	1501	1500	1502	1481	1486	1501	1493	1492	1497	1503	1508	1512	1506	1487	1479	1485	1489	1488	1493	1491	1485	1484	1493	1494	1493	1495	1506	1504	1499	1490	1491	1491	1493	1499	1496	1498	1496	1481	1472	1470	1471	1477	1491	1497	1497	1494	1479	1451	1444	1446	1454	1468	1468	1486	1501	1493	1487	1487	1476	1478	1476	1487	1498	1511	1495	1477	1472	1480	1487	1487	1475	1464	1457	1464	1482	1495	1501	1488	1473	0	0	0	0	0	0	0
0	0	1408	1411	1411	1407	1404	1397	1398	1409	1409	1409	1411	1420	1428	1447	1443	1447	1421	1420	1412	1412	1406	1402	1402	1409	1413	1420	1420	1410	1404	1408	1406	1406	1406	1402	1409	1424	1438	1433	1397	1381	1389	1389	1403	1417	1417	1407	1416	1424	1435	1441	1441	1423	1416	1431	1431	1442	1443	1442	1438	1443	1442	1442	1443	1441	1451	1453	1451	1447	1453	1458	1459	1464	1450	1448	1451	1462	1467	1462	1454	1454	1448	1450	1454	1459	1457	1455	1455	1457	1450	1435	1421	1409	1410	1420	1425	1420	1417	1414	1422	1425	1429	1432	1429	1422	1408	1393	1393	1402	1418	1425	1419	1415	1399	1398	1403	1419	1428	1430	1425	1414	1409	1411	1413	1435	1435	1437	1431	1428	1424	1404	1412	1439	1460	0	0	0	0	0	0	0	0	0	0	0	0	0	0	0	0	0	0	0	0	0	0	0	0	0	0	0	0	0	1646	1633	1627	1617	1634	1671	0	0	0	0	0	0	0	0	0	0	0	0	1414	1412	1402	1409	1407	1402	1400	1406	1412	1413	1415	1412	1422	1425	1405	1393	1396	1402	1408	1405	1392	1390	1403	1424	1439	1438	1429	1405	1406	1418	1429	1438	1436	1425	1420	1419	1425	1432	1442	1444	1450	1443	1432	1430	1427	1438	1437	1439	1441	1443	1439	1434	1435	1436	1442	1458	1448	1410	1402	1408	1419	1430	1440	1455	1472	1474	1456	1455	1457	1466	1469	1474	1448	1446	1455	1456	1436	1432	1448	1458	1466	1458	1458	1460	1442	1442	1443	1445	1450	1429	1435	1445	1454	1464	1458	1453	1451	1442	1437	1442	1437	1427	1419	1425	1423	1427	1427	1435	1449	1457	1453	1442	1422	1432	1434	1431	1424	1426	1432	1440	1448	1448	1447	1458	1471	1480	1466	1466	1466	1460	1455	1451	1439	1436	1434	1431	1433	1432	1430	1436	1446	1454	1461	1455	1449	1442	1440	1432	1424	1457	1514	1520	1521	1483	1451	1447	1450	1450	1448	1443	1422	1427	1421	1445	1456	1461	1464	1458	1460	1452	1440	1431	1425	1432	1451	1459	1443	1437	1435	1441	1447	1445	1440	1428	1420	1421	1431	1444	1456	1450	1442	1431	1431	1439	1444	1453	1462	1463	1460	1460	1460	1465	1472	1480	1473	1459	1447	1447	1447	1451	1460	1467	1463	1451	1446	1446	1444	1434	1430	1435	1450	1466	1472	1470	1478	1476	1465	1456	1456	1464	1473	1468	1457	1445	1440	1445	1458	1457	1450	1450	1454	1458	1462	1456	1456	1453	1430	1438	1447	1454	1458	1452	1445	1438	1441	1446	1440	1428	1441	1464	1478	1480	1472	1464	1458	1453	1446	1442	1447	1448	1444	1434	1433	1438	1439	1438	1456	1472	1475	1466	1456	1458	1472	1478	1471	1458	1447	1438	1442	1459	1471	1465	1452	1451	1454	1458	1467	1480	1494	1505	1532	0	0	0	0	0	0	0	0	0	0	0	0	0	0	0	0	0	0	0	0	0	0	1559	1545	1534	1532	1515	1515	1517	1528	1571	1603	1591	1553	1533	1520	1514	1501	1495	1487	1486	1493	1510	0	0	0	1521	1532	1523	1526	1530	1536	1530	0	0	0	0	0	0	0	0	0	0	0	0	0	0	0	0	0	0	1522	1511	1504	1476	1472	1478	1479	1477	1491	1500	1510	1518	1513	1501	1488	1484	1479	1481	1480	1480	1481	1489	1495	1494	1494	1492	1495	1492	1492	1489	1497	1494	1495	1495	1495	1504	1500	1488	1482	1478	1478	1474	1474	1483	1494	1495	1484	1461	1451	1464	1473	1498	1498	1511	1516	1506	1485	1483	1474	1472	1481	1493	1495	1492	1477	1467	1465	1470	1482	1482	1482	1465	1462	1465	1478	1475	1473	1467	1463	0	0	0	0	0	0	0
0	0	1403	1414	1414	1409	1403	1398	1407	1424	1424	1417	1415	1418	1427	1437	1445	1443	1427	1416	1416	1425	1430	1421	1421	1422	1422	1420	1419	1408	1401	1405	1405	1408	1412	1411	1419	1434	1452	1444	1414	1404	1404	1403	1414	1421	1421	1404	1403	1431	1448	1454	1442	1422	1428	1428	1433	1439	1434	1438	1434	1442	1454	1452	1444	1445	1453	1458	1458	1451	1453	1454	1452	1443	1441	1439	1452	1461	1463	1457	1457	1451	1449	1454	1455	1455	1457	1456	1462	1465	1454	1435	1422	1413	1418	1424	1424	1420	1411	1417	1433	1439	1446	1436	1428	1423	1408	1400	1401	1403	1411	1417	1409	1406	1396	1392	1400	1411	1423	1425	1421	1414	1411	1411	1429	1440	1442	1445	1441	1441	1431	1408	1411	1420	1476	0	0	0	0	0	0	0	0	0	0	0	0	0	0	0	0	0	0	0	0	0	0	0	0	0	0	0	0	0	1662	1677	1681	1683	1673	1660	1685	0	0	0	0	0	0	0	0	0	0	0	1408	1403	1402	1405	1400	1403	1411	1418	1422	1426	1424	1411	1413	1411	1407	1397	1396	1401	1396	1406	1401	1395	1415	1430	1435	1435	1424	1421	1426	1439	1441	1441	1435	1426	1427	1435	1443	1447	1455	1451	1445	1434	1427	1425	1439	1437	1438	1451	1464	1474	1470	1457	1439	1430	1438	1446	1437	1413	1403	1413	1427	1438	1444	1451	1465	1472	1455	1446	1448	1452	1453	1431	1404	1404	1437	1455	1467	1457	1435	1424	1424	1426	1432	1436	1431	1427	1427	1419	1416	1414	1425	1435	1452	1457	1466	1460	1454	1439	1432	1439	1439	1429	1423	1426	1432	1435	1438	1447	1454	1456	1449	1436	1424	1421	1427	1429	1431	1434	1436	1438	1446	1445	1441	1448	1459	1465	1466	1466	1464	1463	1458	1452	1447	1439	1436	1443	1445	1448	1441	1450	1451	1456	1456	1453	1450	1453	1451	1444	1436	1445	1496	1499	1496	1478	1459	1464	1468	1462	1459	1454	1445	1444	1429	1462	1464	1457	1458	1463	1456	1448	1441	1429	1432	1439	1460	1463	1455	1446	1436	1436	1432	1439	1435	1427	1420	1419	1420	1437	1449	1455	1448	1434	1426	1440	1452	1457	1457	1450	1453	1461	1471	1476	1485	1483	1482	1466	1450	1446	1444	1448	1452	1461	1471	1464	1455	1451	1447	1437	1431	1444	1457	1466	1476	1464	1461	1454	1458	1451	1455	1460	1470	1471	1461	1448	1437	1437	1446	1447	1443	1442	1446	1451	1456	1457	1457	1457	1443	1450	1454	1458	1455	1450	1449	1452	1458	1455	1447	1433	1441	1461	1473	1475	1464	1454	1441	1444	1442	1435	1443	1449	1450	1446	1436	1428	1435	1440	1453	1468	1472	1467	1458	1458	1470	1465	1462	1450	1436	1435	1450	1461	1468	1472	1466	1456	1457	1459	1460	1475	1488	1525	1611	0	0	0	0	0	0	0	0	0	0	0	0	0	0	0	0	0	0	0	0	0	0	1550	1542	1539	1537	1517	1518	1520	1529	1571	1589	1580	1551	1538	1532	1521	1526	1511	1495	1476	1488	1495	1497	0	1502	1508	1523	1516	1533	1538	1545	1542	0	0	0	0	0	0	0	0	0	0	0	0	0	0	0	0	0	0	1527	1519	1504	1472	1468	1479	1484	1483	1491	1503	1511	1509	1506	1498	1497	1497	1480	1474	1472	1467	1470	1484	1499	1493	1482	1485	1481	1476	1477	1480	1490	1494	1492	1486	1484	1490	1491	1492	1495	1489	1478	1474	1477	1492	1496	1503	1485	1464	1462	1471	1484	1508	1518	1518	1524	1509	1488	1480	1477	1482	1491	1497	1487	1485	1477	1465	1468	1472	1477	1477	1478	1481	1473	1474	1482	1479	1472	1471	1468	0	0	0	0	0	0	0
0	0	1408	1410	1410	1411	1405	1405	1405	1407	1407	1420	1419	1419	1419	1427	1435	1435	1439	1425	1423	1431	1439	1437	1437	1430	1432	1424	1410	1405	1400	1405	1405	1412	1418	1424	1431	1438	1454	1439	1422	1413	1413	1411	1416	1415	1409	1403	1414	1423	1440	1453	1441	1429	1427	1427	1427	1422	1425	1424	1434	1451	1467	1464	1451	1446	1446	1454	1460	1459	1455	1448	1439	1433	1429	1437	1448	1456	1457	1448	1448	1437	1444	1445	1452	1457	1461	1470	1476	1469	1449	1428	1415	1416	1419	1426	1422	1419	1416	1424	1435	1449	1457	1435	1427	1423	1410	1407	1406	1409	1409	1411	1406	1401	1393	1385	1397	1409	1415	1416	1407	1399	1399	1403	1429	1438	1438	1436	1444	1446	1444	1423	1424	1424	1480	0	0	0	0	0	0	0	0	0	0	0	0	0	0	0	0	0	0	0	0	0	0	0	0	0	0	0	0	0	1675	1687	1692	1689	1683	1675	1673	0	0	0	0	0	0	0	0	0	0	0	1417	1415	1411	1407	1407	1407	1418	1428	1436	1443	1439	1407	1405	1408	1411	1406	1407	1407	1408	1412	1412	1414	1427	1437	1442	1441	1434	1438	1442	1446	1440	1440	1432	1426	1434	1443	1453	1460	1463	1454	1441	1425	1423	1430	1447	1441	1441	1454	1461	1475	1470	1454	1438	1430	1435	1445	1449	1427	1421	1427	1436	1443	1450	1449	1457	1454	1449	1440	1432	1437	1443	1419	1394	1399	1434	1463	1466	1444	1428	1418	1421	1425	1430	1436	1424	1406	1408	1408	1413	1413	1423	1433	1447	1463	1468	1469	1463	1447	1435	1436	1438	1429	1429	1438	1444	1451	1450	1451	1455	1454	1443	1429	1422	1420	1426	1432	1442	1441	1437	1440	1444	1443	1440	1441	1443	1452	1456	1454	1455	1462	1458	1454	1445	1445	1442	1448	1459	1470	1471	1461	1458	1456	1455	1449	1448	1453	1452	1452	1445	1460	1479	1478	1482	1474	1460	1471	1475	1468	1461	1453	1446	1453	1464	1465	1457	1445	1445	1456	1464	1441	1434	1422	1425	1445	1460	1468	1463	1451	1437	1421	1420	1429	1429	1429	1426	1426	1424	1431	1437	1443	1440	1432	1426	1440	1456	1466	1463	1457	1455	1465	1475	1478	1487	1489	1484	1481	1463	1456	1452	1449	1449	1459	1475	1464	1457	1452	1448	1441	1439	1446	1458	1463	1453	1455	1454	1447	1442	1454	1461	1464	1467	1462	1458	1450	1446	1446	1443	1436	1434	1435	1440	1444	1449	1457	1463	1460	1454	1465	1469	1455	1452	1452	1455	1459	1466	1463	1458	1450	1442	1460	1464	1462	1449	1440	1436	1443	1438	1432	1438	1453	1468	1461	1444	1437	1435	1439	1443	1454	1461	1458	1455	1453	1461	1462	1454	1442	1432	1440	1458	1466	1475	1471	1463	1457	1458	1453	1461	1462	1481	1519	1607	0	0	0	0	0	0	0	0	0	0	0	0	0	0	0	0	0	0	0	0	0	0	1561	1563	1567	1563	1537	1526	1525	1531	1553	1576	1566	1549	1547	1545	1543	1537	1535	1513	1506	1505	1512	1492	1468	1459	1458	1462	1482	1508	1531	1548	1558	0	0	0	0	0	0	0	0	0	0	0	0	0	0	0	0	0	0	1529	1516	1512	1478	1484	1493	1498	1501	1494	1497	1502	1501	1505	1509	1501	1496	1472	1466	1462	1465	1473	1481	1488	1477	1474	1471	1476	1470	1461	1469	1485	1491	1487	1479	1467	1476	1487	1509	1501	1498	1492	1481	1479	1491	1499	1495	1493	1474	1471	1479	1487	1496	1504	1504	1518	1502	1482	1477	1481	1493	1491	1488	1479	1477	1480	1470	1466	1464	1466	1466	1477	1474	1471	1481	1494	1512	1519	1491	1473	0	0	0	0	0	0	0
0	0	1399	1407	1407	1405	1399	1391	1388	1392	1392	1413	1422	1422	1417	1412	1412	1423	1438	1429	1422	1428	1434	1427	1427	1424	1421	1417	1407	1399	1398	1405	1405	1418	1426	1427	1436	1433	1445	1441	1426	1422	1422	1415	1411	1413	1416	1403	1409	1414	1433	1441	1448	1436	1430	1430	1422	1414	1411	1411	1436	1457	1473	1467	1458	1443	1445	1452	1460	1470	1469	1447	1438	1425	1431	1441	1457	1466	1465	1465	1456	1447	1445	1441	1452	1461	1465	1465	1463	1455	1437	1414	1403	1408	1413	1418	1422	1424	1425	1433	1436	1431	1431	1428	1421	1416	1408	1404	1406	1408	1415	1416	1414	1407	1392	1382	1391	1404	1411	1412	1402	1399	1393	1399	1417	1424	1428	1427	1444	1440	1442	1438	1426	1429	1465	0	0	0	0	0	0	0	0	0	0	0	0	0	0	0	0	0	0	0	0	0	0	0	0	0	0	0	0	0	1680	1682	1684	1688	1689	1696	1709	0	0	0	0	0	0	0	0	0	0	0	1431	1426	1421	1420	1414	1427	1436	1442	1449	1450	1449	1422	1421	1426	1424	1421	1419	1418	1422	1427	1429	1434	1439	1439	1448	1447	1450	1454	1452	1449	1443	1440	1428	1425	1434	1444	1451	1453	1455	1446	1429	1416	1419	1425	1455	1445	1440	1451	1461	1464	1472	1453	1435	1430	1438	1449	1452	1444	1438	1441	1452	1453	1454	1446	1442	1446	1440	1432	1426	1435	1437	1434	1411	1414	1434	1462	1462	1444	1425	1417	1415	1429	1434	1436	1428	1417	1415	1420	1423	1424	1426	1436	1443	1452	1462	1464	1463	1446	1432	1432	1441	1431	1437	1453	1466	1463	1459	1460	1458	1454	1448	1439	1429	1425	1429	1449	1452	1442	1434	1437	1446	1448	1441	1438	1439	1442	1442	1444	1445	1452	1457	1460	1448	1442	1443	1453	1466	1480	1478	1471	1458	1449	1448	1446	1447	1443	1443	1443	1447	1464	1467	1473	1462	1447	1454	1463	1467	1460	1450	1447	1447	1455	1466	1463	1452	1440	1444	1456	1455	1433	1429	1420	1429	1437	1451	1465	1464	1449	1437	1418	1415	1429	1442	1439	1439	1438	1431	1433	1431	1436	1435	1434	1432	1445	1461	1470	1470	1467	1466	1471	1473	1479	1492	1492	1491	1487	1479	1470	1463	1455	1455	1471	1475	1455	1445	1440	1438	1442	1442	1442	1441	1443	1446	1451	1448	1443	1442	1448	1461	1465	1462	1456	1456	1457	1461	1460	1446	1440	1435	1437	1446	1448	1449	1456	1457	1456	1444	1457	1460	1450	1447	1451	1462	1467	1466	1461	1459	1453	1453	1456	1458	1453	1439	1433	1435	1441	1432	1436	1446	1461	1475	1469	1453	1448	1447	1448	1446	1450	1450	1448	1445	1440	1444	1449	1443	1432	1438	1450	1463	1468	1476	1468	1461	1451	1454	1455	1457	1464	1480	1500	0	0	0	0	0	0	0	0	0	0	0	0	0	0	0	0	0	0	0	0	0	0	0	1577	1587	1597	1604	1557	1536	1537	1543	1541	1561	1572	1573	1557	1547	1542	1542	1538	1525	1503	1504	1512	1520	1525	1517	1507	1494	1497	1508	1524	1539	1551	0	0	0	0	0	0	0	0	0	0	0	0	0	0	0	0	0	0	1527	1526	1513	1490	1497	1505	1504	1503	1493	1498	1503	1500	1507	1513	1514	1496	1472	1459	1456	1463	1476	1480	1475	1462	1459	1467	1467	1467	1461	1468	1483	1491	1484	1474	1471	1478	1496	1512	1519	1519	1502	1488	1479	1483	1489	1490	1492	1485	1484	1475	1466	1472	1476	1476	1475	1475	1460	1464	1471	1487	1489	1476	1462	1461	1458	1470	1479	1470	1464	1464	1465	1462	1478	1490	1507	1525	1524	1496	1466	0	0	0	0	0	0	0
0	0	1396	1403	1403	1404	1406	1392	1389	1394	1394	1411	1421	1422	1406	1406	1406	1407	1417	1425	1429	1423	1420	1415	1415	1410	1407	1404	1397	1400	1398	1409	1409	1415	1425	1432	1437	1434	1440	1439	1437	1427	1427	1422	1434	1429	1431	1425	1410	1412	1432	1445	1461	1452	1435	1435	1417	1408	1408	1419	1443	1454	1460	1456	1450	1442	1434	1442	1455	1471	1476	1465	1440	1438	1440	1451	1466	1475	1477	1477	1469	1464	1462	1463	1450	1437	1436	1423	1427	1431	1417	1399	1388	1398	1408	1412	1418	1425	1431	1432	1416	1421	1421	1419	1420	1415	1403	1397	1392	1400	1406	1415	1424	1414	1401	1386	1387	1399	1409	1408	1407	1404	1401	1398	1389	1393	1403	1416	1437	1436	1437	1445	1437	1434	1446	0	0	0	0	0	0	0	0	0	0	0	0	0	0	0	0	0	0	0	0	0	0	0	0	0	0	0	0	0	1644	1653	1662	1671	1679	1688	1970	0	0	0	0	0	0	0	0	0	0	0	0	1436	1426	1427	1437	1448	1448	1450	1447	1445	1446	1438	1435	1436	1435	1428	1421	1427	1435	1439	1444	1447	1447	1451	1448	1448	1457	1462	1455	1447	1442	1432	1425	1429	1436	1440	1436	1432	1435	1435	1425	1408	1415	1435	1455	1441	1440	1433	1440	1450	1458	1446	1428	1423	1436	1454	1460	1455	1446	1448	1456	1454	1455	1439	1433	1438	1436	1434	1431	1437	1440	1444	1429	1431	1450	1459	1453	1439	1424	1417	1421	1435	1451	1449	1432	1429	1432	1443	1442	1437	1441	1444	1444	1440	1444	1451	1443	1435	1428	1440	1442	1434	1433	1456	1469	1469	1457	1462	1461	1457	1448	1441	1434	1431	1440	1457	1456	1444	1431	1427	1435	1446	1445	1442	1436	1437	1436	1431	1437	1445	1455	1457	1454	1448	1448	1456	1474	1480	1478	1467	1448	1445	1441	1439	1436	1437	1436	1437	1452	1452	1451	1449	1457	1448	1446	1456	1453	1445	1442	1439	1442	1438	1447	1454	1453	1442	1448	1452	1448	1431	1423	1421	1430	1436	1447	1457	1456	1446	1436	1421	1453	1459	1444	1448	1446	1445	1439	1435	1432	1434	1437	1438	1437	1447	1459	1470	1475	1482	1479	1476	1476	1475	1482	1491	1487	1484	1484	1480	1472	1468	1467	1468	1463	1446	1443	1436	1436	1439	1441	1438	1433	1435	1438	1447	1446	1447	1445	1455	1461	1458	1457	1449	1454	1466	1472	1475	1466	1451	1443	1449	1456	1455	1462	1464	1457	1451	1437	1443	1448	1445	1442	1447	1457	1461	1458	1452	1452	1454	1455	1452	1449	1438	1432	1431	1437	1437	1438	1445	1437	1460	1465	1466	1459	1456	1451	1454	1452	1448	1451	1449	1440	1433	1434	1430	1428	1423	1441	1461	1471	1476	1479	1467	1454	1454	1455	1460	1463	1474	1483	1491	0	0	0	0	0	0	0	0	0	0	0	0	0	0	0	0	0	0	0	0	0	0	0	1582	1587	1598	1597	1549	1530	1529	1530	1525	1523	1517	1519	1531	1522	1518	1525	1535	1538	1526	1511	1510	1518	1535	1528	1518	1515	1511	1511	1517	1530	1526	0	0	0	0	0	0	0	0	0	0	0	0	0	0	0	0	0	0	1529	1525	1513	1488	1502	1503	1502	1493	1485	1495	1509	1509	1515	1520	1515	1501	1486	1464	1465	1466	1472	1481	1474	1463	1463	1472	1467	1465	1465	1470	1487	1494	1492	1479	1483	1481	1491	1492	1496	1506	1505	1494	1482	1477	1478	1485	1488	1495	1484	1488	1488	1490	1488	1488	1482	1479	1471	1468	1476	1489	1486	1477	1463	1464	1463	1466	1480	1485	1480	1473	1473	1468	1472	1478	1475	1477	1465	1463	1459	0	0	0	0	0	0	0
0	0	1396	1410	1410	1400	1395	1398	1398	1401	1401	1413	1421	1415	1409	1399	1399	1402	1411	1421	1425	1419	1417	1417	1409	1401	1393	1392	1392	1404	1412	1413	1413	1414	1420	1428	1432	1435	1433	1429	1441	1449	1449	1446	1452	1450	1452	1437	1425	1429	1439	1453	1460	1451	1427	1427	1410	1401	1412	1433	1455	1459	1455	1454	1449	1442	1435	1437	1448	1456	1465	1463	1455	1454	1456	1466	1484	1486	1486	1478	1471	1472	1471	1466	1449	1420	1407	1412	1422	1425	1405	1386	1385	1390	1403	1402	1413	1419	1420	1416	1408	1408	1410	1424	1422	1413	1399	1386	1384	1387	1400	1417	1428	1426	1411	1392	1392	1399	1410	1408	1411	1409	1404	1391	1377	1374	1387	1405	1425	1434	1436	1448	1449	1437	1430	0	0	0	0	0	0	0	0	0	0	0	0	0	0	0	0	0	0	0	0	0	0	0	0	0	0	0	0	0	1642	1646	1655	1671	1676	1678	1691	1714	0	0	0	0	0	0	0	0	0	0	0	1443	1422	1426	1443	1452	1454	1446	1431	1441	1443	1434	1436	1437	1436	1429	1420	1430	1440	1452	1455	1460	1458	1452	1445	1443	1446	1445	1433	1425	1425	1423	1426	1429	1437	1435	1430	1421	1435	1434	1426	1413	1420	1450	1451	1448	1439	1433	1432	1434	1437	1431	1418	1415	1429	1450	1455	1454	1449	1448	1442	1440	1437	1435	1426	1429	1432	1436	1440	1439	1440	1441	1444	1450	1459	1462	1453	1440	1431	1432	1448	1452	1456	1451	1440	1444	1448	1455	1456	1452	1451	1450	1444	1431	1425	1427	1425	1430	1431	1436	1444	1439	1443	1444	1458	1455	1452	1456	1462	1450	1438	1424	1427	1431	1440	1457	1457	1439	1425	1418	1428	1438	1441	1445	1441	1442	1440	1435	1432	1440	1450	1454	1448	1436	1442	1455	1467	1471	1469	1454	1443	1441	1437	1438	1427	1427	1434	1447	1454	1444	1447	1451	1456	1443	1443	1436	1436	1429	1425	1429	1412	1440	1431	1451	1449	1483	1476	1461	1451	1437	1431	1427	1434	1442	1448	1447	1446	1437	1432	1422	1457	1465	1445	1445	1438	1439	1436	1436	1433	1443	1447	1446	1440	1441	1452	1463	1468	1472	1473	1472	1469	1467	1470	1473	1469	1474	1472	1474	1470	1464	1464	1458	1452	1447	1448	1449	1456	1454	1455	1444	1436	1432	1436	1445	1448	1445	1445	1449	1454	1453	1442	1436	1450	1466	1476	1477	1469	1454	1450	1454	1466	1474	1473	1468	1458	1448	1446	1428	1425	1430	1426	1432	1440	1448	1447	1452	1455	1460	1457	1449	1439	1428	1429	1434	1446	1448	1452	1447	1451	1468	1462	1458	1459	1462	1459	1450	1448	1453	1455	1452	1444	1438	1428	1424	1420	1417	1441	1469	1489	1496	1489	1476	1465	1457	1464	1468	1474	1489	1485	1486	0	0	0	0	0	0	0	0	0	0	0	0	0	0	0	0	0	0	0	0	0	0	0	1588	1593	1594	1596	1560	1538	1538	1536	1528	1520	1515	1522	1521	1524	1521	1522	1532	1541	1543	1533	1521	1516	1511	1507	1517	1516	1511	1519	1524	1523	1495	0	0	0	0	0	0	0	0	0	0	0	0	0	0	0	0	0	0	1527	1523	1501	1487	1492	1499	1497	1489	1483	1495	1514	1516	1513	1513	1509	1505	1494	1502	1486	1468	1457	1455	1459	1465	1469	1473	1473	1467	1469	1475	1484	1489	1494	1484	1475	1474	1472	1476	1486	1498	1499	1499	1495	1493	1494	1490	1490	1479	1481	1481	1492	1496	1501	1489	1489	1482	1475	1477	1479	1482	1482	1474	1469	1470	1475	1469	1472	1484	1480	1476	1476	1468	1468	1469	1471	1471	1470	1465	1464	0	0	0	0	0	0	0
0	0	1406	1406	1410	1394	1390	1401	1406	1406	1409	1404	1414	1410	1407	1396	1396	1399	1409	1419	1425	1418	1412	1412	1412	1407	1395	1398	1397	1410	1421	1420	1420	1414	1415	1425	1432	1430	1425	1427	1441	1441	1459	1466	1458	1459	1443	1447	1433	1433	1441	1455	1458	1439	1439	1426	1413	1407	1421	1453	1468	1476	1465	1459	1451	1452	1446	1445	1442	1442	1451	1458	1456	1456	1457	1466	1480	1485	1485	1475	1467	1470	1474	1468	1450	1427	1408	1422	1429	1437	1406	1389	1384	1387	1394	1397	1395	1400	1399	1403	1413	1414	1416	1419	1422	1416	1406	1397	1389	1388	1412	1427	1432	1434	1424	1420	1414	1409	1405	1404	1410	1407	1397	1383	1375	1374	1378	1394	1413	1423	1431	1450	1454	1446	1421	0	0	0	0	0	0	0	0	0	0	0	0	0	0	0	0	0	0	0	0	0	0	0	0	0	0	0	0	0	1648	1657	1664	1675	1680	1678	1675	1694	0	0	0	0	0	0	0	0	0	0	0	1440	1432	1428	1448	1452	1450	1442	1435	1443	1446	1429	1437	1437	1431	1428	1419	1414	1433	1449	1461	1466	1465	1456	1442	1438	1437	1425	1411	1397	1393	1401	1416	1431	1431	1433	1428	1427	1432	1433	1421	1415	1427	1444	1452	1447	1446	1444	1433	1430	1430	1427	1417	1410	1420	1436	1443	1444	1445	1438	1430	1420	1423	1431	1426	1428	1437	1438	1440	1432	1435	1443	1440	1451	1458	1463	1452	1445	1450	1450	1453	1457	1452	1446	1446	1450	1456	1461	1454	1455	1457	1452	1441	1431	1425	1423	1422	1425	1435	1440	1445	1454	1446	1453	1451	1455	1457	1447	1447	1439	1429	1421	1423	1428	1442	1454	1453	1441	1430	1424	1425	1443	1442	1446	1442	1445	1441	1444	1441	1445	1446	1442	1422	1433	1440	1448	1456	1460	1448	1444	1440	1432	1448	1439	1439	1426	1439	1447	1451	1433	1431	1441	1454	1448	1441	1428	1415	1408	1414	1405	1426	1426	1444	1446	1462	1449	1475	1474	1455	1443	1440	1444	1445	1442	1452	1439	1431	1425	1426	1433	1439	1448	1447	1439	1431	1416	1417	1430	1434	1453	1453	1447	1440	1435	1441	1450	1455	1457	1461	1458	1458	1451	1455	1461	1459	1456	1453	1451	1457	1458	1451	1445	1444	1448	1463	1474	1481	1481	1480	1470	1451	1445	1448	1454	1450	1441	1432	1439	1440	1441	1435	1437	1442	1450	1472	1460	1449	1444	1451	1458	1474	1479	1479	1474	1465	1461	1463	1461	1435	1424	1419	1423	1427	1435	1446	1446	1457	1467	1466	1446	1432	1426	1428	1436	1445	1461	1457	1453	1458	1478	1468	1461	1458	1458	1455	1444	1444	1450	1458	1456	1456	1443	1433	1425	1419	1422	1430	1478	1498	1501	1498	1474	1474	1459	1462	1478	1494	1495	1490	1499	0	0	0	0	0	0	0	0	0	0	0	0	0	0	0	0	0	0	0	0	0	0	0	1600	1598	1597	1587	1578	1550	1542	1542	1536	1528	1537	1535	1530	1521	1522	1526	1536	1541	1541	1533	1523	1521	1522	1523	1524	1526	1537	1541	1531	1512	1498	0	0	0	0	0	0	0	0	0	0	0	0	0	0	0	0	0	0	1522	1511	1497	1490	1496	1499	1501	1494	1478	1472	1472	1479	1484	1490	1499	1502	1502	1512	1503	1488	1467	1461	1465	1473	1487	1497	1488	1483	1486	1489	1488	1494	1498	1482	1482	1468	1467	1465	1475	1485	1495	1494	1496	1506	1504	1503	1485	1480	1478	1480	1491	1508	1506	1497	1497	1482	1479	1476	1480	1484	1481	1475	1480	1484	1482	1471	1468	1471	1478	1472	1472	1470	1467	1463	1465	1471	1473	1468	1470	0	0	0	0	0	0	0
0	0	1403	1403	1400	1386	1386	1395	1404	1404	1409	1406	1404	1402	1398	1390	1390	1396	1406	1411	1411	1423	1412	1412	1416	1408	1404	1397	1402	1411	1424	1424	1419	1416	1415	1418	1424	1429	1429	1431	1437	1437	1451	1462	1465	1453	1437	1438	1435	1437	1442	1451	1446	1439	1439	1429	1418	1415	1427	1452	1473	1478	1479	1468	1463	1456	1452	1451	1441	1440	1448	1454	1449	1448	1449	1465	1475	1475	1475	1468	1462	1463	1472	1474	1461	1444	1435	1438	1443	1445	1423	1395	1390	1397	1397	1396	1392	1394	1408	1410	1415	1415	1408	1410	1401	1407	1422	1427	1428	1421	1425	1431	1429	1425	1416	1409	1419	1424	1412	1404	1404	1390	1390	1381	1374	1376	1380	1385	1397	1410	1413	1438	1448	1440	1405	0	0	0	0	0	0	0	0	0	0	0	0	0	0	0	0	0	0	0	0	0	0	0	0	0	0	0	0	0	1649	1664	1681	1682	1683	1687	1679	1679	0	0	0	0	0	0	0	0	0	0	1450	1452	1446	1439	1447	1451	1439	1437	1435	1441	1447	1436	1434	1436	1431	1418	1401	1399	1418	1451	1467	1475	1469	1453	1439	1427	1432	1424	1405	1396	1388	1397	1411	1422	1427	1431	1429	1427	1424	1423	1410	1411	1417	1438	1442	1444	1450	1446	1441	1434	1434	1427	1419	1407	1410	1419	1428	1435	1441	1437	1423	1418	1425	1435	1443	1440	1441	1436	1432	1429	1429	1435	1436	1446	1453	1459	1438	1447	1446	1448	1450	1453	1447	1445	1440	1444	1452	1450	1446	1445	1440	1442	1437	1437	1434	1431	1426	1432	1438	1440	1447	1452	1464	1464	1452	1447	1446	1442	1439	1436	1431	1432	1433	1437	1442	1449	1454	1444	1435	1427	1428	1437	1437	1436	1438	1443	1448	1449	1449	1444	1444	1437	1423	1417	1422	1437	1439	1446	1445	1442	1441	1443	1451	1449	1433	1437	1434	1433	1429	1416	1416	1423	1457	1455	1438	1433	1413	1410	1420	1425	1422	1435	1445	1446	1462	1490	1484	1467	1457	1451	1452	1452	1453	1451	1442	1438	1420	1416	1419	1430	1437	1445	1446	1436	1422	1411	1415	1422	1440	1459	1463	1453	1441	1429	1426	1429	1441	1445	1451	1446	1445	1436	1441	1445	1446	1446	1439	1443	1446	1446	1442	1437	1435	1444	1466	1478	1489	1493	1491	1481	1471	1452	1450	1461	1454	1439	1427	1428	1428	1430	1432	1438	1445	1450	1453	1443	1436	1437	1450	1458	1473	1480	1478	1477	1473	1476	1484	1484	1447	1434	1420	1422	1424	1433	1444	1446	1460	1476	1464	1448	1432	1423	1427	1446	1460	1464	1462	1460	1465	1475	1470	1465	1458	1459	1446	1436	1434	1448	1458	1463	1466	1450	1437	1428	1433	1436	1443	1477	1492	1495	1486	1473	1476	1464	1468	1484	1489	1501	1497	1499	0	0	0	0	0	0	0	0	0	0	0	0	0	0	0	0	0	0	0	0	0	0	0	1606	1606	1597	1591	1588	1556	1541	1543	1538	1542	1544	1538	1534	1529	1523	1533	1539	1541	1526	1517	1517	1521	1520	1526	1530	1533	1537	1544	1534	1520	1516	0	0	0	0	0	0	0	0	0	0	0	0	0	0	0	0	0	0	1523	1516	1510	1514	1520	1508	1494	1489	1472	1454	1454	1457	1459	1466	1470	1484	1500	1510	1513	1499	1488	1477	1480	1492	1490	1500	1503	1505	1505	1508	1504	1506	1498	1490	1479	1471	1467	1469	1473	1478	1488	1491	1493	1501	1501	1488	1480	1466	1460	1474	1482	1503	1501	1485	1485	1480	1473	1476	1482	1483	1481	1483	1489	1489	1482	1471	1465	1470	1471	1471	1471	1461	1458	1456	1463	1466	1472	1477	1474	0	0	0	0	0	0	0
0	0	1402	1402	1396	1382	1383	1389	1396	1396	1405	1395	1386	1397	1373	1383	1383	1399	1404	1400	1401	1399	1406	1406	1411	1414	1412	1407	1408	1409	1412	1412	1407	1411	1413	1413	1418	1427	1431	1436	1437	1437	1445	1455	1456	1454	1436	1429	1433	1433	1440	1443	1444	1438	1438	1438	1422	1416	1432	1442	1456	1469	1474	1471	1467	1462	1455	1447	1440	1432	1438	1440	1444	1449	1458	1466	1473	1473	1465	1454	1459	1467	1472	1480	1480	1472	1459	1447	1448	1447	1422	1407	1411	1412	1407	1398	1397	1403	1416	1420	1420	1411	1409	1406	1398	1393	1409	1430	1431	1414	1411	1420	1417	1411	1402	1406	1417	1421	1419	1409	1402	1402	1403	1412	1414	1409	1410	1402	1403	1413	1419	1437	1443	1436	1394	1364	0	0	0	0	0	0	0	0	0	0	0	0	0	0	0	0	0	0	0	0	0	0	0	0	0	0	0	0	1635	1650	1670	1682	1679	1679	1687	1675	1667	0	0	0	0	0	0	0	0	0	1455	1455	1458	1463	1458	1439	1428	1424	1430	1439	1439	1439	1436	1430	1431	1431	1415	1396	1422	1446	1463	1473	1463	1439	1422	1415	1433	1428	1413	1401	1404	1404	1409	1414	1420	1422	1424	1427	1417	1407	1405	1408	1419	1429	1435	1443	1445	1449	1441	1435	1433	1433	1421	1402	1404	1405	1413	1424	1431	1432	1426	1427	1435	1445	1465	1458	1447	1436	1430	1425	1429	1429	1434	1438	1440	1436	1434	1441	1437	1436	1441	1440	1436	1430	1432	1433	1438	1438	1430	1422	1429	1427	1435	1438	1444	1438	1433	1429	1433	1442	1456	1463	1473	1469	1457	1443	1441	1439	1440	1442	1443	1439	1436	1439	1444	1450	1448	1443	1432	1426	1425	1428	1432	1426	1425	1436	1446	1454	1452	1447	1442	1437	1428	1429	1426	1425	1424	1431	1439	1449	1446	1447	1446	1448	1443	1433	1426	1425	1411	1421	1423	1430	1463	1459	1437	1432	1428	1429	1435	1435	1431	1423	1421	1423	1432	1456	1465	1459	1453	1456	1456	1458	1456	1455	1442	1428	1418	1414	1416	1429	1440	1444	1449	1439	1420	1408	1416	1437	1452	1466	1471	1467	1456	1438	1426	1423	1430	1439	1443	1433	1436	1428	1427	1434	1439	1440	1439	1445	1447	1450	1443	1441	1443	1446	1453	1470	1464	1470	1469	1470	1468	1470	1474	1473	1460	1443	1431	1430	1429	1437	1440	1444	1456	1456	1453	1443	1432	1427	1438	1455	1474	1479	1480	1480	1481	1490	1494	1499	1454	1442	1439	1441	1440	1437	1444	1458	1468	1467	1459	1443	1439	1428	1429	1449	1465	1469	1471	1469	1470	1458	1454	1464	1474	1466	1448	1432	1434	1444	1460	1475	1480	1463	1448	1436	1437	1448	1455	1478	1482	1483	1483	1476	1476	1470	1473	1492	1499	1489	1486	1495	0	0	0	0	0	0	0	0	0	0	0	0	0	0	0	0	0	0	0	0	0	0	0	1599	1601	1584	1572	1559	1547	1528	1538	1543	1555	1550	1540	1535	1534	1536	1539	1542	1538	1522	1511	1518	1517	1523	1534	1540	1541	1543	1542	1539	1533	1552	0	0	0	0	0	0	0	0	0	0	0	0	0	0	0	0	0	0	1548	1534	1515	1523	1523	1489	1472	1471	1468	1455	1455	1458	1445	1446	1459	1476	1499	1509	1512	1507	1489	1480	1484	1492	1499	1501	1507	1516	1523	1530	1520	1517	1501	1485	1480	1476	1477	1481	1480	1482	1485	1485	1488	1492	1492	1482	1483	1471	1473	1468	1477	1486	1487	1481	1481	1470	1467	1472	1478	1489	1488	1494	1490	1490	1487	1476	1468	1471	1469	1465	1465	1454	1446	1449	1453	1463	1471	1472	1466	0	0	0	0	0	0	0
0	0	1399	1399	1389	1375	1377	1390	1397	1397	1406	1405	1380	1377	1380	1391	1391	1415	1410	1397	1390	1399	1399	1399	1410	1416	1415	1414	1413	1417	1401	1401	1404	1404	1408	1409	1414	1420	1429	1442	1439	1439	1447	1457	1465	1461	1442	1429	1428	1426	1432	1439	1438	1441	1441	1437	1433	1425	1424	1427	1442	1455	1467	1467	1467	1468	1461	1450	1439	1435	1435	1438	1441	1450	1458	1467	1464	1464	1455	1452	1453	1464	1474	1482	1483	1481	1471	1455	1442	1431	1427	1416	1420	1422	1412	1393	1392	1401	1417	1428	1430	1424	1419	1414	1406	1408	1419	1425	1426	1421	1418	1414	1412	1407	1400	1401	1413	1417	1409	1401	1395	1400	1407	1423	1430	1426	1425	1418	1403	1410	1415	1441	1448	1440	1400	1370	0	0	0	0	0	0	0	0	0	0	0	0	0	0	0	0	0	0	0	0	0	0	0	0	0	0	0	0	1625	1646	1658	1667	1670	1673	1682	1671	1675	0	0	0	0	0	0	0	0	0	1474	1467	1467	1461	1461	1443	1424	1419	1425	1430	1432	1430	1427	1429	1428	1434	1414	1407	1424	1443	1461	1459	1459	1433	1407	1400	1417	1430	1421	1423	1413	1415	1416	1413	1415	1415	1423	1423	1418	1409	1406	1412	1423	1436	1439	1447	1450	1443	1434	1423	1427	1427	1418	1404	1389	1397	1406	1418	1422	1424	1426	1432	1444	1459	1463	1460	1448	1430	1422	1421	1424	1430	1427	1428	1427	1427	1427	1426	1427	1425	1422	1419	1418	1417	1417	1420	1422	1416	1410	1413	1415	1425	1433	1437	1449	1442	1429	1424	1431	1444	1457	1464	1475	1473	1462	1447	1444	1449	1452	1452	1450	1447	1437	1427	1437	1446	1445	1441	1431	1423	1428	1439	1438	1429	1425	1434	1443	1451	1452	1447	1441	1439	1441	1442	1436	1428	1424	1433	1446	1459	1461	1454	1446	1435	1425	1422	1419	1418	1422	1433	1428	1444	1455	1451	1434	1430	1440	1447	1441	1437	1432	1427	1431	1436	1445	1450	1460	1451	1447	1447	1451	1450	1454	1455	1456	1433	1424	1427	1440	1445	1446	1452	1452	1438	1421	1408	1421	1436	1445	1462	1475	1481	1474	1452	1437	1429	1430	1433	1431	1429	1430	1422	1423	1430	1439	1440	1447	1448	1446	1449	1446	1450	1450	1458	1458	1458	1450	1446	1443	1451	1455	1463	1465	1472	1463	1441	1428	1430	1440	1448	1449	1449	1454	1456	1454	1440	1431	1434	1451	1457	1470	1469	1475	1482	1485	1483	1485	1495	1460	1438	1444	1448	1447	1443	1448	1464	1469	1461	1453	1447	1440	1439	1442	1449	1467	1489	1487	1477	1470	1457	1437	1456	1476	1476	1455	1430	1427	1435	1461	1481	1486	1474	1461	1444	1438	1446	1457	1466	1471	1477	1483	1489	1491	1492	1495	1489	1489	1483	1475	1485	0	0	0	0	0	0	0	0	0	0	0	0	0	0	0	0	0	0	0	0	0	0	0	1590	1582	1565	1542	1526	1535	1526	1517	1536	1554	1550	1539	1534	1534	1529	1541	1544	1540	1535	1525	1524	1527	1532	1544	1546	1546	1538	1530	1535	1548	1582	0	0	0	0	0	0	0	0	0	0	0	0	0	0	0	0	0	0	1539	1532	1512	1521	1518	1487	1461	1466	1466	1470	1472	1470	1457	1447	1466	1483	1500	1509	1512	1504	1489	1480	1478	1487	1490	1498	1499	1506	1526	1532	1523	1514	1504	1493	1489	1490	1489	1484	1482	1485	1489	1485	1484	1482	1484	1493	1493	1481	1470	1471	1477	1480	1479	1473	1468	1468	1463	1464	1473	1484	1491	1497	1493	1488	1487	1486	1480	1479	1475	1463	1451	1451	1442	1439	1444	1452	1453	1449	1459	0	0	0	0	0	0	0
0	0	1398	1398	1386	1387	1388	1392	1401	1401	1401	1401	1395	1386	1392	1392	1408	1418	1406	1393	1397	1408	1413	1402	1406	1418	1418	1412	1410	1408	1411	1411	1403	1398	1403	1406	1405	1409	1427	1451	1452	1452	1456	1466	1464	1461	1450	1432	1429	1426	1432	1437	1440	1440	1440	1447	1440	1437	1432	1428	1438	1453	1462	1468	1476	1480	1485	1474	1463	1451	1441	1441	1442	1453	1456	1453	1453	1450	1446	1450	1450	1459	1465	1467	1475	1476	1472	1453	1437	1420	1405	1399	1410	1417	1404	1394	1387	1399	1415	1426	1431	1436	1435	1429	1419	1420	1425	1425	1432	1425	1425	1414	1410	1401	1395	1403	1413	1406	1394	1390	1392	1397	1408	1415	1428	1434	1432	1421	1411	1400	1413	1443	1436	1447	1422	1403	0	0	0	0	0	0	0	0	0	0	0	0	0	0	0	0	0	0	0	0	0	0	0	0	0	0	0	0	1628	1644	1656	1668	1666	1678	1680	1677	1677	0	0	0	0	0	0	0	0	0	0	1475	1476	1482	1475	1461	1427	1418	1420	1425	1421	1417	1431	1438	1438	1426	1406	1394	1389	1407	1434	1455	1444	1425	1408	1388	1391	1391	1392	1406	1416	1426	1428	1430	1421	1421	1418	1418	1420	1419	1409	1420	1434	1437	1447	1478	1468	1443	1428	1418	1420	1427	1423	1410	1401	1397	1401	1413	1420	1422	1424	1430	1439	1451	1449	1449	1442	1428	1421	1422	1407	1414	1430	1444	1448	1439	1430	1427	1423	1418	1414	1411	1406	1405	1408	1405	1395	1395	1403	1414	1414	1420	1430	1451	1455	1445	1430	1420	1429	1445	1454	1466	1466	1467	1453	1447	1448	1452	1449	1450	1449	1440	1428	1409	1424	1432	1431	1432	1429	1428	1436	1446	1443	1443	1431	1430	1440	1445	1449	1443	1444	1442	1444	1446	1440	1431	1429	1441	1455	1463	1455	1448	1439	1433	1438	1436	1436	1439	1444	1425	1417	1438	1446	1433	1434	1438	1446	1449	1442	1434	1426	1427	1430	1440	1448	1448	1451	1451	1445	1443	1448	1451	1455	1453	1452	1447	1444	1452	1454	1453	1454	1454	1449	1436	1421	1414	1414	1427	1430	1436	1446	1463	1483	1488	1476	1453	1434	1429	1421	1430	1434	1432	1426	1424	1437	1452	1468	1465	1455	1447	1445	1448	1457	1462	1462	1446	1441	1423	1417	1433	1445	1449	1464	1466	1466	1446	1433	1436	1438	1445	1440	1440	1443	1444	1445	1453	1457	1451	1451	1454	1448	1445	1464	1475	1482	1480	1480	1483	1478	1433	1432	1438	1443	1436	1448	1458	1466	1456	1449	1447	1451	1447	1453	1464	1468	1494	1485	1472	1459	1442	1428	1453	1475	1477	1459	1432	1418	1430	1450	1475	1486	1480	1471	1456	1445	1444	1452	1460	1462	1472	1478	1491	1492	1491	1487	1488	1487	1482	1476	1488	0	0	0	0	0	0	0	0	0	0	0	0	0	0	0	0	0	0	0	0	0	0	0	1579	1572	1562	1548	1511	1523	1524	1518	1530	1548	1545	1539	1534	1535	1528	1535	1540	1549	1548	1541	1539	1536	1541	1549	1553	1560	1539	1533	1527	1555	1593	0	0	0	0	0	0	0	0	0	0	0	0	0	0	0	0	0	0	1514	1504	1494	1504	1510	1494	1482	1479	1486	1485	1487	1487	1476	1464	1473	1490	1503	1506	1508	1504	1496	1487	1480	1479	1477	1474	1483	1501	1519	1529	1518	1510	1504	1498	1502	1498	1491	1487	1479	1474	1489	1487	1481	1478	1486	1490	1488	1478	1474	1475	1481	1478	1475	1476	1473	1473	1467	1464	1467	1476	1482	1486	1481	1481	1485	1499	1503	1497	1482	1471	1453	1453	1444	1441	1444	1443	1444	1448	1451	0	0	0	0	0	0	0
0	0	1404	1404	1397	1391	1387	1388	1396	1396	1399	1409	1412	1410	1411	1411	1410	1418	1415	1404	1417	1422	1428	1428	1411	1421	1412	1406	1399	1409	1412	1412	1418	1411	1406	1408	1407	1412	1433	1456	1458	1458	1455	1463	1463	1458	1457	1447	1437	1432	1439	1448	1453	1453	1449	1448	1446	1440	1439	1441	1444	1463	1472	1476	1478	1489	1498	1498	1474	1454	1448	1445	1445	1448	1447	1439	1439	1442	1448	1449	1448	1449	1455	1460	1460	1459	1464	1447	1429	1409	1380	1376	1388	1398	1396	1393	1394	1407	1424	1437	1439	1437	1430	1434	1426	1429	1428	1427	1426	1422	1423	1417	1412	1406	1398	1401	1403	1394	1391	1388	1392	1395	1396	1393	1413	1422	1428	1419	1406	1406	1394	1435	1428	1425	1415	1421	0	0	0	0	0	0	0	0	0	0	0	0	0	0	0	0	0	0	0	0	0	0	0	0	0	0	0	1611	1638	1653	1670	1670	1675	1677	1682	1667	1655	0	0	0	0	0	0	0	0	0	0	1473	1475	1482	1482	1459	1424	1418	1427	1424	1410	1408	1427	1433	1430	1413	1398	1386	1387	1398	1426	1436	1437	1428	1410	1396	1392	1388	1384	1405	1410	1422	1435	1434	1432	1420	1418	1418	1421	1424	1428	1433	1447	1452	1463	1482	1478	1451	1432	1429	1440	1454	1457	1438	1422	1406	1408	1413	1420	1422	1419	1428	1438	1438	1436	1438	1435	1423	1418	1409	1408	1413	1425	1443	1453	1448	1437	1428	1428	1428	1428	1426	1416	1415	1410	1406	1395	1401	1407	1416	1412	1414	1427	1444	1454	1447	1418	1419	1422	1435	1447	1453	1454	1454	1448	1442	1439	1449	1447	1448	1445	1438	1425	1417	1425	1429	1429	1431	1435	1441	1454	1461	1457	1451	1440	1438	1442	1445	1447	1442	1445	1443	1434	1441	1433	1423	1433	1444	1455	1457	1450	1444	1441	1437	1436	1441	1441	1445	1445	1407	1408	1441	1441	1435	1438	1440	1441	1438	1435	1425	1425	1426	1436	1441	1442	1448	1448	1445	1445	1449	1455	1459	1458	1456	1450	1446	1444	1450	1458	1459	1450	1453	1449	1443	1427	1417	1415	1423	1428	1431	1441	1454	1477	1483	1465	1457	1456	1435	1429	1429	1436	1439	1431	1429	1445	1462	1475	1472	1460	1440	1435	1439	1448	1456	1460	1447	1423	1408	1407	1423	1438	1453	1460	1467	1452	1441	1433	1437	1438	1440	1433	1421	1415	1426	1435	1454	1467	1469	1464	1458	1453	1452	1444	1442	1465	1470	1469	1463	1456	1422	1410	1417	1421	1432	1438	1452	1458	1455	1444	1449	1468	1494	1504	1499	1477	1457	1448	1439	1445	1449	1469	1471	1465	1461	1452	1449	1444	1441	1441	1459	1483	1483	1480	1466	1449	1443	1443	1449	1454	1450	1448	1449	1449	1459	1485	1488	1486	1481	1478	1496	0	0	0	0	0	0	0	0	0	0	0	0	0	0	0	0	0	0	0	0	0	0	0	1567	1566	1556	1556	1516	1529	1535	1524	1525	1531	1545	1534	1529	1530	1526	1529	1539	1545	1550	1547	1547	1546	1549	1555	1562	1578	1557	1543	1536	1552	1572	0	0	0	0	0	0	0	0	0	0	0	0	0	0	0	0	0	0	1519	1498	1472	1495	1505	1507	1498	1490	1490	1498	1500	1498	1493	1488	1489	1498	1499	1502	1499	1503	1502	1506	1501	1492	1485	1474	1489	1496	1513	1519	1512	1501	1495	1493	1497	1501	1492	1484	1482	1475	1481	1489	1478	1481	1482	1490	1495	1484	1477	1477	1480	1478	1479	1478	1471	1471	1466	1461	1460	1468	1472	1473	1473	1476	1477	1495	1505	1506	1493	1477	1463	1463	1457	1459	1448	1438	1447	1454	1458	0	0	0	0	0	0	0
0	0	1416	1416	1410	1395	1384	1375	1385	1385	1403	1418	1429	1428	1422	1422	1416	1412	1420	1426	1431	1435	1435	1439	1433	1425	1412	1402	1405	1415	1420	1420	1422	1425	1421	1419	1417	1422	1433	1457	1457	1461	1453	1452	1449	1449	1465	1463	1451	1444	1449	1461	1464	1464	1462	1452	1451	1454	1452	1458	1468	1470	1479	1476	1472	1484	1491	1490	1478	1458	1451	1448	1453	1448	1443	1443	1438	1444	1446	1447	1446	1447	1457	1456	1452	1451	1454	1442	1427	1411	1379	1365	1376	1377	1394	1398	1407	1421	1437	1440	1435	1428	1429	1428	1423	1424	1423	1422	1417	1419	1418	1416	1417	1413	1411	1410	1415	1410	1400	1398	1403	1398	1393	1383	1396	1408	1418	1419	1412	1408	1392	1421	1419	1420	1414	1438	0	0	0	0	0	0	0	0	0	0	0	0	0	0	0	0	0	0	0	0	0	0	0	0	0	0	0	1606	1654	1670	1669	1678	1685	1685	1676	1660	1648	0	0	0	0	0	0	0	0	0	0	1482	1465	1473	1480	1453	1435	1429	1430	1434	1404	1396	1406	1402	1408	1423	1429	1431	1434	1420	1424	1432	1440	1434	1417	1402	1394	1396	1406	1413	1417	1422	1432	1438	1436	1426	1420	1416	1424	1438	1449	1450	1450	1459	1468	1485	1479	1457	1443	1442	1447	1461	1469	1461	1438	1421	1420	1421	1424	1427	1423	1429	1437	1433	1432	1436	1440	1428	1428	1416	1407	1405	1409	1410	1408	1413	1421	1426	1430	1439	1439	1442	1443	1437	1427	1408	1400	1403	1411	1416	1415	1413	1418	1432	1441	1444	1434	1437	1433	1431	1427	1428	1432	1436	1442	1447	1453	1450	1447	1447	1445	1441	1430	1427	1434	1438	1443	1441	1445	1449	1466	1475	1471	1460	1445	1442	1445	1445	1444	1444	1438	1437	1426	1417	1417	1428	1436	1441	1441	1438	1432	1426	1421	1432	1445	1442	1441	1440	1436	1395	1398	1436	1447	1439	1442	1444	1438	1436	1433	1432	1426	1431	1440	1445	1449	1452	1445	1438	1448	1453	1459	1459	1458	1452	1451	1435	1436	1444	1452	1451	1448	1452	1454	1453	1446	1436	1431	1434	1439	1438	1441	1451	1462	1463	1457	1463	1462	1440	1435	1442	1444	1446	1443	1446	1462	1469	1473	1471	1459	1436	1431	1435	1443	1450	1448	1440	1423	1407	1403	1416	1428	1443	1453	1453	1448	1440	1435	1439	1437	1441	1433	1424	1417	1421	1430	1446	1455	1458	1467	1464	1462	1459	1451	1440	1441	1441	1454	1454	1455	1441	1425	1423	1424	1428	1435	1451	1459	1446	1441	1448	1467	1494	1496	1477	1462	1446	1439	1441	1448	1460	1474	1478	1468	1459	1449	1449	1447	1447	1454	1474	1489	1486	1484	1462	1442	1431	1431	1449	1444	1444	1439	1445	1453	1457	1460	1472	1492	1491	1483	0	0	0	0	0	0	0	0	0	0	0	0	0	0	0	0	0	0	0	0	0	0	0	0	1561	1553	1557	1561	1543	1546	1548	1540	1534	1534	1538	1526	1519	1522	1522	1530	1533	1542	1551	1546	1549	1551	1550	1550	1561	1582	1570	1556	1549	1550	1553	0	0	0	0	0	0	0	0	0	0	0	0	0	0	0	0	0	0	1544	1495	1453	1484	1507	1510	1508	1499	1494	1505	1508	1506	1501	1496	1496	1496	1493	1493	1490	1502	1509	1515	1505	1495	1484	1483	1492	1492	1501	1512	1502	1495	1484	1485	1492	1501	1494	1489	1483	1488	1485	1488	1494	1494	1492	1493	1497	1488	1476	1472	1468	1473	1472	1478	1466	1466	1460	1449	1456	1461	1468	1472	1466	1469	1474	1485	1490	1496	1487	1476	1468	1468	1465	1467	1466	1462	1459	1454	1457	0	0	0	0	0	0	0
0	0	1433	1433	1423	1403	1376	1373	1379	1379	1403	1420	1429	1429	1427	1427	1413	1408	1410	1428	1437	1436	1436	1439	1434	1430	1415	1411	1409	1416	1418	1418	1419	1423	1432	1434	1430	1430	1435	1460	1460	1463	1456	1443	1446	1455	1465	1478	1462	1457	1455	1461	1467	1467	1462	1461	1458	1457	1456	1463	1474	1477	1473	1469	1467	1468	1474	1474	1459	1447	1455	1453	1457	1456	1451	1451	1448	1446	1443	1441	1443	1450	1458	1454	1450	1449	1449	1437	1427	1415	1395	1372	1376	1377	1399	1405	1419	1426	1440	1442	1435	1430	1429	1425	1422	1421	1422	1417	1415	1419	1417	1414	1422	1423	1429	1432	1434	1427	1417	1417	1420	1416	1408	1391	1392	1407	1416	1417	1425	1417	1401	1433	1426	1430	1417	1434	0	0	0	0	0	0	0	0	0	0	0	0	0	0	0	0	0	0	0	0	0	0	0	0	0	0	0	0	1653	1675	1672	1670	1685	1688	1691	1668	1655	0	0	0	0	0	0	0	0	0	0	1498	1467	1467	1474	1456	1448	1446	1446	1439	1408	1399	1390	1398	1411	1432	1449	1452	1449	1437	1428	1441	1445	1440	1419	1406	1410	1414	1424	1426	1425	1427	1425	1438	1442	1435	1425	1423	1429	1441	1457	1459	1450	1450	1442	1433	1418	1417	1422	1426	1430	1433	1439	1443	1445	1440	1448	1433	1418	1419	1411	1404	1410	1433	1425	1425	1414	1425	1428	1424	1415	1418	1423	1423	1425	1429	1434	1444	1448	1444	1448	1442	1442	1437	1431	1414	1407	1412	1421	1428	1425	1420	1425	1431	1441	1443	1440	1447	1446	1438	1426	1425	1427	1435	1444	1454	1453	1446	1444	1443	1446	1441	1439	1439	1446	1449	1456	1453	1450	1452	1458	1463	1462	1455	1443	1442	1445	1445	1445	1440	1424	1417	1414	1416	1424	1437	1447	1451	1446	1435	1426	1423	1428	1433	1444	1439	1434	1431	1427	1407	1408	1425	1445	1446	1449	1443	1433	1434	1432	1432	1434	1435	1444	1445	1446	1449	1444	1435	1441	1453	1455	1460	1452	1449	1442	1433	1434	1443	1445	1447	1444	1443	1457	1458	1460	1459	1454	1455	1451	1452	1454	1451	1445	1436	1446	1456	1467	1468	1454	1453	1455	1455	1464	1468	1467	1465	1467	1465	1453	1443	1435	1434	1440	1441	1436	1437	1429	1422	1410	1412	1429	1437	1446	1449	1452	1448	1442	1443	1442	1443	1442	1436	1435	1436	1435	1436	1440	1447	1455	1461	1463	1456	1455	1441	1442	1441	1448	1455	1459	1454	1436	1438	1441	1441	1441	1454	1466	1460	1446	1447	1457	1478	1468	1466	1448	1439	1436	1447	1455	1466	1480	1484	1478	1464	1446	1444	1446	1456	1459	1472	1502	1496	1482	1463	1446	1435	1444	1454	1449	1448	1446	1440	1464	1470	1462	1457	1478	1485	1517	0	0	0	0	0	0	0	0	0	0	0	0	0	0	0	0	0	0	0	0	0	0	0	0	1569	1556	1560	1558	1552	1553	1555	1560	1546	1530	1502	1502	1509	1514	1518	1524	1543	1565	1585	1584	1568	1539	1527	1511	1511	1532	1555	1556	1550	1548	1540	0	0	0	0	0	0	0	0	0	0	0	0	0	0	0	0	0	0	1540	1503	1460	1484	1502	1511	1511	1507	1494	1509	1510	1507	1502	1502	1501	1493	1485	1474	1487	1498	1509	1515	1500	1485	1468	1472	1480	1487	1493	1507	1499	1481	1472	1478	1492	1496	1495	1492	1490	1493	1495	1507	1517	1509	1503	1498	1499	1496	1490	1476	1461	1465	1467	1465	1464	1450	1450	1449	1452	1465	1471	1474	1469	1469	1474	1473	1477	1477	1467	1458	1462	1462	1464	1469	1473	1474	1472	1462	1463	0	0	0	0	0	0	0
0	0	0	1447	1432	1415	1383	1376	1376	1378	1407	1418	1427	1425	1419	1419	1414	1410	1412	1423	1422	1426	1426	1426	1435	1440	1438	1435	1419	1414	1414	1416	1416	1417	1430	1440	1439	1435	1438	1461	1461	1476	1461	1448	1441	1452	1462	1473	1462	1457	1451	1457	1460	1460	1461	1463	1464	1462	1458	1459	1471	1471	1464	1457	1455	1456	1456	1462	1462	1461	1458	1454	1459	1461	1460	1460	1459	1457	1447	1435	1439	1445	1455	1455	1450	1450	1452	1427	1419	1420	1411	1387	1380	1382	1397	1408	1416	1428	1436	1436	1431	1433	1433	1431	1425	1429	1427	1420	1416	1416	1417	1415	1418	1429	1437	1441	1446	1449	1438	1438	1440	1439	1429	1415	1407	1414	1419	1425	1435	1434	1435	1429	1429	1430	1427	1419	1428	0	0	0	0	0	0	0	0	0	0	0	0	0	0	0	0	0	0	0	0	0	0	0	0	0	0	0	1664	1683	1673	1677	1684	1681	1684	1667	0	0	0	0	0	0	0	0	0	0	0	1513	1461	1465	1469	1450	1445	1447	1453	1454	1424	1409	1402	1405	1419	1441	1456	1465	1452	1437	1434	1443	1453	1449	1429	1410	1413	1420	1427	1428	1429	1431	1433	1439	1439	1437	1434	1431	1434	1444	1449	1446	1457	1460	1453	1436	1417	1413	1415	1416	1426	1430	1435	1439	1449	1453	1452	1440	1421	1409	1407	1412	1414	1421	1422	1415	1413	1422	1420	1418	1421	1419	1433	1439	1452	1449	1460	1463	1459	1450	1433	1430	1431	1439	1435	1426	1423	1422	1428	1434	1434	1430	1425	1431	1442	1442	1445	1452	1450	1440	1433	1427	1425	1433	1442	1451	1449	1444	1436	1436	1438	1444	1448	1456	1456	1458	1458	1456	1445	1445	1443	1449	1447	1444	1439	1441	1442	1444	1441	1425	1419	1414	1413	1417	1430	1441	1452	1459	1456	1437	1427	1425	1432	1443	1452	1436	1425	1428	1414	1412	1425	1421	1448	1453	1452	1447	1442	1430	1430	1436	1439	1439	1444	1444	1444	1444	1442	1434	1437	1442	1455	1453	1452	1446	1443	1441	1441	1447	1452	1452	1447	1448	1455	1467	1472	1471	1470	1472	1483	1478	1454	1425	1425	1423	1439	1460	1475	1463	1455	1451	1459	1468	1480	1478	1463	1458	1455	1458	1458	1454	1441	1433	1429	1429	1432	1434	1436	1435	1426	1436	1438	1438	1444	1444	1449	1451	1451	1441	1456	1456	1451	1448	1448	1449	1446	1437	1438	1444	1452	1454	1455	1454	1441	1447	1443	1445	1450	1459	1456	1458	1459	1450	1452	1451	1451	1458	1470	1459	1451	1432	1428	1431	1443	1447	1444	1444	1441	1449	1459	1467	1477	1482	1479	1462	1450	1445	1444	1457	1465	1481	1492	1491	1485	1469	1450	1446	1454	1463	1460	1451	1442	1455	1472	1476	1469	1454	1440	1464	1507	0	0	0	0	0	0	0	0	0	0	0	0	0	0	0	0	0	0	0	0	0	0	0	1636	1601	1575	1556	1556	1552	1548	1553	1550	1535	1523	1502	1501	1510	1512	1518	1516	1517	1546	1533	1526	1516	1515	1524	1506	1464	1466	1523	1544	1557	1554	1541	0	0	0	0	0	0	0	0	0	0	0	0	0	0	0	0	0	1556	1539	1513	1478	1500	1508	1509	1509	1504	1494	1500	1507	1502	1506	1508	1504	1493	1476	1471	1479	1493	1500	1491	1484	1471	1469	1470	1481	1499	1516	1512	1507	1482	1474	1482	1493	1503	1502	1502	1496	1498	1510	1524	1526	1515	1504	1501	1506	1512	1498	1479	1460	1455	1457	1464	1463	1453	1453	1453	1467	1474	1476	1473	1468	1470	1477	1479	1480	1469	1461	1457	1457	1457	1467	1474	1478	1482	1477	1463	1472	0	0	0	0	0	0	0
0	0	0	1442	1431	1421	1396	1389	1389	1393	1402	1415	1412	1409	1409	1409	1412	1419	1422	1421	1417	1411	1411	1412	1422	1434	1433	1432	1432	1423	1423	1418	1417	1417	1429	1441	1449	1443	1438	1439	1439	1470	1468	1448	1441	1444	1444	1443	1448	1447	1440	1444	1452	1452	1459	1468	1471	1464	1457	1462	1460	1458	1457	1454	1450	1448	1453	1454	1447	1441	1446	1448	1450	1458	1458	1459	1459	1455	1449	1444	1441	1449	1458	1458	1460	1460	1448	1419	1416	1422	1418	1400	1399	1400	1402	1411	1416	1418	1424	1429	1433	1432	1433	1428	1422	1437	1435	1416	1417	1418	1420	1415	1415	1423	1429	1433	1437	1444	1444	1451	1457	1456	1441	1426	1419	1421	1427	1429	1433	1436	1446	1428	1427	1430	1434	1411	1410	0	0	0	0	0	0	0	0	0	0	0	0	0	0	0	0	0	0	0	0	0	0	0	0	0	0	0	1679	1686	1681	1676	1672	1675	1683	1688	0	0	0	0	0	0	0	0	0	0	0	1492	1450	1463	1465	1441	1438	1432	1449	1457	1440	1430	1421	1423	1423	1434	1450	1460	1456	1447	1441	1448	1457	1451	1439	1419	1421	1422	1429	1428	1428	1438	1444	1452	1448	1444	1438	1432	1429	1435	1440	1441	1448	1458	1454	1443	1431	1426	1421	1418	1423	1428	1435	1438	1450	1457	1452	1437	1423	1418	1424	1430	1424	1423	1422	1419	1425	1421	1417	1411	1411	1414	1425	1446	1462	1463	1475	1476	1466	1451	1435	1430	1429	1436	1451	1443	1445	1438	1436	1441	1440	1437	1431	1432	1441	1442	1443	1448	1450	1444	1429	1423	1424	1432	1440	1448	1445	1437	1432	1427	1436	1444	1455	1465	1463	1460	1454	1447	1432	1426	1426	1428	1431	1435	1436	1437	1441	1439	1440	1432	1420	1418	1420	1427	1431	1435	1451	1463	1462	1447	1432	1431	1438	1446	1450	1446	1432	1422	1415	1418	1421	1431	1444	1451	1450	1448	1447	1437	1435	1441	1444	1431	1443	1443	1449	1451	1448	1444	1438	1446	1453	1455	1451	1447	1444	1446	1446	1453	1457	1458	1453	1454	1458	1466	1474	1479	1476	1473	1468	1462	1447	1425	1413	1431	1450	1467	1474	1462	1449	1451	1458	1477	1483	1477	1462	1453	1454	1463	1460	1462	1451	1438	1426	1419	1427	1433	1436	1446	1437	1444	1444	1442	1439	1441	1437	1452	1453	1448	1456	1453	1452	1446	1452	1457	1453	1445	1443	1441	1451	1455	1456	1449	1447	1446	1446	1447	1454	1457	1455	1459	1467	1471	1473	1466	1461	1465	1471	1466	1455	1430	1418	1407	1417	1432	1446	1450	1447	1447	1449	1459	1468	1482	1479	1473	1464	1451	1453	1456	1463	1468	1478	1485	1480	1472	1462	1457	1456	1459	1461	1458	1455	1464	1483	1483	1470	1456	1441	1439	1460	0	0	0	0	0	0	0	0	0	0	0	0	0	0	0	0	0	0	0	0	0	0	0	1648	1618	1595	1572	1560	1556	1549	1551	1548	1540	1538	1520	1503	1505	1518	1521	1528	1562	1556	1547	1526	1520	1537	1553	1528	1504	1501	1533	1554	1558	1563	1550	0	0	0	0	0	0	0	0	0	0	0	0	0	0	0	0	0	1545	1550	1532	1494	1503	1511	1515	1512	1509	1491	1485	1493	1490	1505	1509	1495	1485	1473	1477	1485	1490	1486	1477	1477	1474	1472	1473	1480	1495	1512	1511	1508	1492	1481	1485	1496	1505	1506	1505	1507	1510	1515	1522	1514	1509	1505	1503	1513	1518	1504	1479	1462	1455	1456	1460	1466	1466	1466	1478	1482	1486	1480	1472	1465	1469	1478	1480	1482	1478	1470	1466	1467	1477	1477	1485	1489	1492	1484	1470	1475	0	0	0	0	0	0	0
0	0	0	1418	1412	1407	1404	1396	1396	1396	1406	1412	1403	1400	1403	1403	1417	1420	1424	1423	1416	1409	1409	1413	1417	1422	1420	1422	1425	1425	1431	1425	1417	1423	1427	1440	1449	1447	1437	1434	1434	1446	1458	1456	1448	1438	1440	1436	1439	1433	1434	1437	1437	1444	1457	1470	1471	1471	1467	1459	1457	1459	1453	1442	1443	1451	1459	1453	1444	1435	1433	1437	1442	1451	1451	1448	1454	1448	1453	1454	1449	1457	1466	1466	1463	1456	1442	1409	1408	1409	1413	1409	1410	1407	1405	1408	1405	1408	1412	1421	1425	1432	1426	1424	1417	1434	1426	1415	1417	1419	1419	1416	1417	1424	1427	1423	1425	1435	1444	1454	1454	1454	1446	1438	1426	1433	1426	1425	1422	1430	1443	1463	1447	1475	1434	1402	0	0	0	0	0	0	0	0	0	0	0	0	0	0	0	0	0	0	0	0	0	0	0	0	0	0	0	0	1694	1699	1682	1670	1673	1669	1673	1684	1689	0	0	0	0	0	0	0	0	0	0	1449	1441	1458	1447	1423	1418	1420	1429	1446	1444	1442	1434	1432	1429	1434	1441	1447	1444	1439	1433	1438	1452	1454	1449	1423	1420	1422	1426	1425	1431	1443	1457	1460	1462	1454	1442	1431	1418	1427	1430	1429	1432	1445	1446	1450	1449	1451	1436	1429	1423	1425	1431	1439	1449	1464	1460	1457	1442	1435	1438	1445	1433	1429	1425	1421	1427	1427	1419	1410	1414	1417	1423	1430	1452	1467	1477	1478	1468	1457	1444	1440	1442	1448	1454	1452	1455	1448	1446	1443	1442	1444	1438	1435	1437	1436	1437	1443	1445	1438	1427	1424	1418	1431	1437	1440	1437	1428	1424	1426	1431	1442	1458	1474	1477	1469	1442	1428	1413	1414	1412	1425	1432	1440	1439	1437	1439	1440	1438	1432	1436	1432	1436	1433	1431	1432	1441	1456	1467	1465	1450	1442	1444	1447	1453	1445	1439	1421	1412	1420	1419	1433	1444	1450	1448	1447	1441	1439	1441	1446	1449	1443	1434	1447	1453	1463	1464	1454	1452	1448	1456	1458	1455	1450	1450	1451	1449	1457	1461	1458	1466	1464	1464	1465	1477	1482	1481	1472	1459	1448	1437	1426	1421	1443	1458	1465	1460	1449	1445	1451	1453	1466	1476	1470	1459	1450	1452	1457	1463	1462	1456	1441	1431	1422	1422	1433	1439	1453	1452	1450	1447	1446	1438	1427	1435	1442	1447	1443	1451	1449	1443	1440	1449	1451	1456	1452	1447	1450	1453	1460	1454	1454	1447	1443	1444	1445	1451	1451	1457	1457	1470	1470	1476	1477	1474	1480	1473	1470	1458	1436	1423	1412	1424	1439	1461	1462	1454	1452	1451	1459	1467	1480	1479	1474	1464	1455	1458	1461	1465	1459	1463	1473	1475	1473	1462	1463	1475	1472	1458	1453	1455	1466	1478	1466	1469	1464	1455	1438	1464	0	0	0	0	0	0	0	0	0	0	0	0	0	0	0	0	0	0	0	0	0	0	0	0	1611	1588	1570	1562	1572	1567	1558	1554	1552	1543	1524	1495	1508	1519	1531	1552	1574	1578	1567	1552	1562	1566	1566	1547	1523	1521	1539	1556	1563	1563	1550	0	0	0	0	0	0	0	0	0	0	0	0	0	0	0	0	0	0	1546	1558	1511	1495	1509	1514	1513	1509	1485	1482	1483	1490	1496	1497	1491	1476	1474	1476	1484	1484	1472	1472	1480	1481	1473	1466	1477	1486	1493	1486	1476	1490	1495	1494	1495	1501	1511	1515	1519	1510	1512	1511	1499	1485	1482	1494	1502	1512	1503	1475	1463	1457	1457	1461	1468	1477	1477	1493	1497	1491	1474	1463	1460	1477	1485	1491	1481	1482	1479	1475	1483	1495	1495	1497	1496	1495	1481	1473	1471	0	0	0	0	0	0	0
0	0	0	1399	1394	1388	1393	1396	1396	1397	1409	1405	1404	1401	1398	1398	1407	1416	1421	1420	1417	1411	1411	1408	1413	1413	1414	1415	1421	1421	1421	1416	1418	1417	1425	1437	1441	1436	1424	1424	1424	1431	1446	1455	1449	1441	1433	1435	1442	1436	1428	1434	1434	1445	1452	1454	1456	1467	1468	1462	1461	1456	1450	1437	1436	1453	1468	1468	1461	1441	1435	1441	1447	1444	1444	1436	1437	1450	1459	1469	1469	1478	1468	1467	1459	1449	1434	1404	1397	1399	1407	1407	1412	1414	1411	1408	1414	1408	1406	1411	1416	1424	1418	1417	1415	1431	1420	1418	1418	1421	1417	1418	1422	1424	1416	1412	1428	1436	1447	1451	1454	1450	1441	1433	1430	1431	1428	1419	1414	1419	1439	1464	1467	1460	1435	1414	0	0	0	0	0	0	0	0	0	0	0	0	0	0	0	0	0	0	0	0	0	0	0	0	0	0	0	0	1683	1701	1690	1679	1670	1665	1672	1684	1688	0	0	0	0	0	0	0	0	0	0	1418	1439	1449	1436	1415	1408	1404	1414	1439	1442	1439	1434	1434	1432	1432	1437	1432	1435	1432	1418	1422	1439	1446	1439	1427	1422	1425	1428	1427	1425	1442	1455	1464	1467	1458	1448	1436	1426	1424	1422	1410	1412	1430	1435	1453	1462	1465	1449	1433	1426	1418	1421	1437	1450	1461	1466	1459	1446	1445	1447	1447	1437	1434	1430	1428	1431	1427	1425	1423	1424	1422	1421	1427	1430	1454	1468	1467	1465	1458	1456	1456	1454	1447	1455	1456	1455	1447	1440	1439	1441	1447	1444	1437	1439	1437	1435	1434	1441	1432	1429	1429	1423	1426	1437	1439	1438	1436	1428	1429	1433	1442	1457	1470	1477	1471	1443	1425	1407	1411	1417	1429	1445	1450	1456	1441	1437	1439	1435	1432	1441	1439	1441	1439	1432	1432	1436	1448	1467	1475	1459	1447	1444	1442	1449	1444	1435	1417	1417	1424	1433	1447	1443	1443	1441	1440	1436	1439	1444	1444	1450	1445	1451	1455	1462	1469	1469	1467	1460	1452	1454	1458	1454	1450	1449	1449	1447	1454	1451	1453	1459	1461	1472	1479	1480	1483	1482	1479	1468	1457	1445	1442	1439	1450	1457	1460	1454	1444	1444	1450	1448	1456	1465	1452	1446	1447	1450	1452	1457	1459	1457	1450	1439	1427	1426	1433	1439	1453	1451	1447	1450	1450	1444	1430	1431	1437	1441	1435	1443	1441	1439	1437	1443	1451	1459	1460	1457	1459	1462	1462	1463	1458	1456	1452	1454	1451	1446	1446	1450	1457	1463	1465	1468	1477	1479	1485	1489	1483	1461	1441	1423	1424	1441	1469	1481	1479	1464	1454	1463	1462	1468	1479	1480	1473	1463	1458	1459	1465	1463	1454	1457	1473	1475	1465	1460	1464	1475	1484	1464	1453	1451	1454	1450	1458	1462	1467	1459	1442	1477	0	0	0	0	0	0	0	0	0	0	0	0	0	0	0	0	0	0	0	0	0	0	0	0	1587	1571	1558	1568	1590	1584	1573	1564	1552	1542	1520	1504	1513	1523	1536	1552	1579	1595	1589	1584	1574	1571	1571	1549	1530	1521	1524	1541	1549	1556	1550	0	0	0	0	0	0	0	0	0	0	0	0	0	0	0	0	0	0	0	1569	1504	1482	1496	1507	1509	1508	1496	1487	1481	1483	1486	1485	1475	1469	1474	1480	1483	1478	1464	1468	1485	1490	1472	1471	1479	1487	1487	1481	1472	1483	1508	1512	1504	1511	1517	1525	1528	1510	1499	1478	1477	1464	1461	1468	1481	1489	1481	1475	1469	1465	1466	1466	1470	1483	1483	1499	1499	1490	1465	1457	1467	1491	1497	1491	1490	1484	1488	1484	1494	1507	1507	1505	1498	1485	1477	1470	1465	0	0	0	0	0	0	0
0	0	0	1392	1390	1378	1378	1390	1390	1395	1406	1409	1413	1403	1388	1388	1384	1399	1407	1421	1414	1414	1414	1410	1409	1412	1411	1414	1422	1409	1409	1408	1393	1404	1417	1429	1429	1424	1420	1422	1422	1426	1452	1463	1468	1451	1440	1443	1451	1440	1435	1428	1428	1437	1438	1430	1436	1449	1460	1461	1464	1454	1443	1433	1436	1459	1478	1480	1474	1455	1446	1451	1452	1443	1443	1431	1434	1445	1461	1470	1484	1484	1466	1457	1455	1450	1437	1408	1398	1395	1401	1412	1416	1419	1413	1407	1417	1421	1413	1411	1412	1422	1418	1409	1417	1429	1420	1418	1421	1418	1421	1425	1429	1419	1403	1406	1426	1443	1449	1445	1445	1450	1446	1437	1429	1425	1421	1417	1415	1417	1435	1450	1456	1427	1415	1417	0	0	0	0	0	0	0	0	0	0	0	0	0	0	0	0	0	0	0	0	0	0	0	0	0	0	0	0	1664	1696	1685	1675	1669	1673	1674	1686	1686	0	0	0	0	0	0	0	0	0	0	1430	1442	1447	1429	1422	1414	1407	1408	1436	1443	1441	1435	1432	1429	1435	1429	1429	1433	1436	1428	1428	1426	1436	1435	1435	1430	1434	1433	1427	1426	1435	1442	1452	1455	1453	1450	1448	1437	1435	1425	1401	1406	1418	1436	1450	1463	1466	1458	1440	1428	1413	1405	1413	1433	1446	1455	1455	1451	1441	1440	1439	1443	1443	1443	1445	1440	1436	1433	1433	1428	1424	1415	1424	1429	1441	1462	1468	1465	1461	1468	1467	1458	1450	1446	1456	1444	1432	1429	1431	1438	1450	1447	1443	1440	1439	1442	1444	1440	1440	1437	1440	1444	1438	1432	1443	1446	1447	1440	1435	1434	1436	1438	1462	1470	1468	1452	1430	1425	1421	1431	1447	1459	1465	1461	1446	1436	1440	1444	1440	1445	1445	1446	1442	1435	1430	1432	1445	1463	1472	1462	1448	1441	1444	1452	1444	1439	1426	1422	1430	1443	1460	1454	1448	1443	1438	1436	1440	1444	1448	1445	1447	1452	1460	1460	1466	1472	1470	1458	1456	1452	1454	1450	1448	1449	1447	1447	1448	1439	1432	1441	1454	1465	1475	1478	1480	1476	1472	1468	1456	1454	1450	1448	1456	1461	1464	1454	1444	1441	1440	1446	1460	1453	1446	1438	1443	1442	1447	1452	1458	1464	1460	1450	1440	1434	1434	1440	1448	1451	1446	1448	1451	1447	1437	1438	1440	1439	1436	1440	1439	1436	1432	1435	1443	1455	1465	1467	1465	1467	1462	1463	1454	1455	1457	1458	1457	1449	1445	1446	1446	1452	1451	1456	1466	1483	1498	1497	1481	1450	1431	1427	1430	1456	1491	1504	1491	1473	1467	1473	1472	1469	1475	1476	1469	1460	1462	1463	1470	1475	1462	1479	1480	1475	1470	1453	1461	1479	1492	1472	1457	1448	1454	1454	1453	1458	1465	1470	1442	1487	0	0	0	0	0	0	0	0	0	0	0	0	0	0	0	0	0	0	0	0	0	0	0	0	1563	1551	1552	1555	1582	1585	1581	1572	1551	1549	1521	1519	1523	1526	1534	1540	1564	1590	1601	1598	1580	1572	1568	1536	1528	1525	1506	1514	1528	1545	1548	0	0	0	0	0	0	0	0	0	0	0	0	0	0	0	0	0	0	1528	1552	1499	1478	1489	1498	1504	1504	1500	1494	1487	1480	1479	1477	1479	1479	1484	1489	1488	1481	1472	1469	1481	1485	1477	1477	1488	1498	1494	1481	1471	1489	1503	1510	1505	1506	1514	1521	1520	1513	1503	1493	1486	1478	1473	1478	1483	1485	1479	1471	1477	1486	1479	1472	1469	1479	1492	1492	1493	1479	1455	1461	1472	1490	1497	1498	1500	1489	1491	1488	1494	1509	1509	1503	1490	1478	1469	1470	1465	0	0	0	0	0	0	0
0	0	0	1400	1391	1372	1381	1391	1391	1404	1406	1409	1405	1391	1391	1376	1379	1386	1405	1416	1425	1418	1418	1419	1416	1414	1415	1430	1425	1420	1420	1398	1403	1390	1407	1415	1420	1417	1418	1420	1420	1428	1456	1466	1464	1451	1441	1438	1445	1440	1434	1431	1431	1425	1427	1424	1424	1434	1446	1457	1459	1453	1438	1434	1438	1455	1474	1483	1475	1454	1454	1454	1451	1451	1445	1437	1435	1443	1464	1483	1486	1482	1468	1448	1448	1447	1441	1416	1400	1398	1407	1425	1430	1431	1428	1424	1429	1430	1425	1410	1410	1416	1422	1422	1423	1434	1426	1415	1411	1412	1424	1433	1425	1414	1402	1399	1433	1457	1456	1449	1446	1446	1443	1432	1420	1411	1418	1415	1415	1422	1429	1440	1421	1411	1407	1406	0	0	0	0	0	0	0	0	0	0	0	0	0	0	0	0	0	0	0	0	0	0	0	0	0	0	0	0	1652	1690	1688	1681	1673	1675	1681	1690	1686	0	0	0	0	0	0	0	0	0	0	1462	1470	1453	1444	1437	1425	1411	1408	1442	1449	1441	1440	1430	1433	1432	1427	1429	1435	1442	1438	1427	1421	1422	1426	1432	1445	1436	1428	1424	1424	1426	1429	1434	1437	1442	1445	1450	1444	1437	1425	1410	1408	1418	1428	1446	1462	1466	1469	1453	1432	1411	1406	1414	1427	1436	1445	1449	1448	1440	1432	1434	1449	1455	1458	1466	1464	1460	1447	1438	1437	1419	1415	1417	1431	1443	1455	1467	1457	1460	1469	1459	1458	1452	1449	1459	1449	1435	1427	1427	1433	1441	1447	1448	1442	1440	1444	1451	1457	1452	1452	1457	1455	1445	1446	1452	1460	1460	1456	1443	1437	1429	1430	1435	1457	1457	1448	1442	1438	1436	1445	1459	1471	1472	1457	1438	1432	1440	1440	1440	1443	1445	1448	1439	1435	1432	1429	1437	1455	1461	1458	1447	1444	1447	1451	1454	1450	1433	1435	1447	1455	1461	1461	1451	1444	1437	1439	1442	1446	1448	1445	1447	1453	1462	1458	1460	1461	1454	1449	1446	1452	1448	1445	1445	1445	1441	1441	1442	1427	1426	1423	1436	1459	1472	1476	1472	1463	1463	1457	1453	1451	1455	1453	1458	1463	1467	1459	1446	1445	1449	1456	1465	1455	1450	1444	1454	1451	1450	1453	1458	1465	1464	1457	1450	1437	1436	1435	1444	1447	1450	1446	1443	1446	1450	1454	1459	1450	1443	1438	1438	1433	1427	1429	1441	1457	1471	1473	1469	1461	1459	1454	1448	1448	1453	1462	1456	1447	1443	1442	1442	1445	1444	1444	1453	1481	1498	1497	1469	1438	1427	1426	1443	1459	1474	1508	1504	1484	1478	1474	1472	1472	1473	1473	1467	1461	1464	1470	1479	1485	1492	1491	1484	1480	1474	1464	1458	1472	1488	1471	1457	1455	1465	1467	1460	1457	1463	1464	1454	1499	0	0	0	0	0	0	0	0	0	0	0	0	0	0	0	0	0	0	0	0	0	0	0	1597	1562	1533	1538	1541	1557	1564	1570	1578	1580	1547	1532	1533	1535	1531	1532	1533	1541	1568	1576	1567	1546	1525	1519	1521	1526	1528	1528	1531	1533	1539	1547	0	0	0	0	0	0	0	0	0	0	0	0	0	0	0	0	0	1507	1514	1522	1496	1494	1494	1500	1505	1505	1502	1499	1497	1484	1474	1477	1491	1503	1505	1503	1497	1490	1477	1478	1481	1477	1479	1485	1498	1503	1496	1479	1463	1459	1460	1467	1481	1493	1502	1512	1511	1504	1499	1502	1505	1497	1499	1494	1500	1497	1491	1481	1485	1488	1487	1474	1471	1481	1485	1485	1487	1462	1454	1461	1476	1481	1483	1488	1494	1496	1491	1492	1500	1501	1501	1502	1491	1480	1473	1462	1472	0	0	0	0	0	0	0
0	0	0	1404	1390	1381	1384	1397	1397	1414	1411	1412	1399	1384	1384	1371	1380	1406	1415	1430	1426	1425	1425	1420	1421	1421	1425	1428	1425	1417	1417	1411	1403	1398	1405	1411	1412	1415	1411	1411	1422	1432	1441	1457	1462	1446	1422	1424	1437	1436	1438	1436	1436	1435	1427	1412	1417	1422	1434	1447	1452	1447	1442	1435	1443	1448	1460	1467	1453	1451	1451	1453	1452	1452	1445	1437	1433	1436	1448	1468	1482	1477	1462	1452	1447	1450	1446	1429	1408	1409	1418	1435	1441	1434	1433	1431	1428	1426	1420	1411	1408	1414	1420	1422	1423	1429	1429	1410	1405	1411	1424	1433	1426	1407	1398	1407	1445	1460	1468	1455	1447	1448	1442	1428	1416	1407	1405	1413	1419	1424	1431	1439	1413	1399	1400	1394	1398	0	0	0	0	0	0	0	0	0	0	0	0	0	0	0	0	0	0	0	0	0	0	0	0	0	0	0	1647	1690	1695	1688	1677	1678	1687	1682	1673	0	0	0	0	0	0	0	0	0	0	1495	1480	1459	1451	1443	1426	1414	1412	1440	1447	1448	1443	1441	1438	1432	1423	1425	1439	1446	1441	1427	1421	1421	1435	1441	1435	1423	1414	1412	1419	1423	1418	1419	1416	1423	1431	1438	1438	1438	1429	1420	1422	1424	1434	1448	1458	1472	1479	1468	1446	1430	1419	1424	1436	1444	1455	1461	1457	1445	1436	1439	1454	1463	1470	1472	1471	1457	1459	1457	1456	1440	1420	1425	1434	1446	1456	1463	1460	1457	1459	1456	1452	1447	1457	1461	1457	1442	1434	1432	1432	1439	1447	1453	1446	1440	1451	1463	1469	1462	1461	1468	1463	1457	1456	1459	1467	1465	1459	1448	1439	1431	1427	1434	1436	1444	1445	1444	1445	1445	1451	1461	1473	1471	1445	1435	1429	1433	1436	1438	1445	1451	1452	1436	1434	1435	1432	1439	1450	1458	1461	1455	1451	1455	1457	1460	1456	1453	1449	1449	1452	1458	1462	1455	1447	1441	1445	1447	1449	1448	1441	1442	1449	1455	1457	1457	1455	1448	1445	1445	1445	1444	1443	1447	1449	1446	1445	1440	1421	1419	1424	1440	1450	1466	1475	1466	1454	1443	1444	1446	1456	1453	1454	1462	1471	1469	1463	1455	1456	1461	1470	1481	1487	1476	1474	1466	1457	1451	1450	1451	1455	1469	1462	1446	1437	1437	1440	1442	1447	1444	1442	1444	1449	1461	1470	1472	1457	1443	1441	1439	1441	1425	1428	1450	1464	1478	1483	1473	1462	1457	1447	1440	1447	1457	1465	1463	1453	1445	1444	1442	1448	1448	1445	1449	1473	1490	1489	1468	1440	1438	1452	1465	1478	1481	1482	1481	1467	1484	1469	1469	1467	1472	1471	1471	1467	1465	1472	1476	1488	1493	1490	1488	1479	1471	1457	1456	1462	1475	1468	1458	1463	1471	1477	1468	1463	1467	1472	1495	1504	0	0	0	0	0	0	0	0	0	0	0	0	0	0	0	0	0	0	0	0	0	0	0	1591	1561	1545	1530	1524	1523	1539	1545	1558	1566	1552	1538	1549	1552	1549	1547	1538	1532	1535	1543	1543	1528	1515	1515	1518	1529	1542	1571	1574	1554	1543	1548	0	0	0	0	0	0	0	0	0	0	0	0	0	0	0	0	0	1496	1496	1499	1496	1511	1517	1510	1510	1507	1501	1500	1504	1486	1480	1480	1495	1515	1517	1514	1508	1497	1493	1483	1477	1478	1481	1496	1503	1503	1494	1480	1462	1456	1456	1458	1470	1471	1486	1488	1497	1490	1495	1498	1514	1517	1508	1501	1500	1499	1490	1485	1482	1489	1478	1460	1460	1472	1480	1480	1488	1468	1465	1464	1465	1466	1467	1476	1493	1496	1492	1491	1491	1482	1482	1492	1491	1484	1482	1469	1477	0	0	0	0	0	0	0
0	0	0	1413	1398	1384	1387	1397	1397	1409	1411	1401	1389	1376	1376	1377	1387	1428	1438	1429	1426	1426	1421	1412	1413	1418	1423	1428	1421	1420	1420	1412	1408	1406	1406	1417	1423	1425	1423	1417	1412	1415	1427	1433	1436	1422	1412	1414	1431	1438	1430	1442	1442	1446	1443	1428	1420	1424	1424	1445	1453	1450	1445	1444	1442	1442	1454	1453	1459	1462	1462	1455	1451	1451	1445	1441	1435	1435	1442	1455	1461	1465	1459	1456	1449	1450	1453	1438	1429	1423	1424	1432	1435	1426	1428	1421	1414	1416	1420	1418	1413	1409	1417	1421	1415	1415	1419	1412	1402	1407	1422	1428	1416	1405	1398	1421	1441	1455	1460	1452	1448	1450	1446	1437	1425	1411	1415	1419	1425	1434	1436	1451	1427	1405	1409	1411	1417	0	0	0	0	0	0	0	0	0	0	0	0	0	0	0	0	0	0	0	0	0	0	0	0	0	0	0	0	1682	1689	1686	1682	1679	1681	1669	1646	0	0	0	0	0	0	0	0	1442	1469	1496	1472	1461	1454	1440	1424	1413	1418	1439	1444	1446	1448	1446	1445	1436	1426	1422	1433	1443	1438	1430	1425	1422	1434	1424	1402	1397	1393	1394	1406	1417	1417	1417	1420	1425	1424	1426	1426	1427	1424	1431	1440	1449	1452	1456	1468	1475	1479	1469	1457	1445	1436	1431	1444	1456	1468	1474	1465	1455	1448	1449	1460	1467	1471	1460	1457	1458	1455	1460	1468	1457	1432	1429	1435	1447	1457	1461	1454	1448	1445	1453	1452	1456	1449	1458	1460	1451	1439	1440	1438	1443	1451	1459	1451	1447	1458	1470	1466	1473	1466	1467	1465	1460	1459	1450	1458	1456	1452	1453	1446	1439	1436	1436	1436	1439	1449	1452	1450	1448	1452	1469	1479	1475	1452	1434	1431	1434	1437	1441	1446	1451	1452	1446	1439	1441	1438	1438	1443	1461	1466	1460	1458	1460	1460	1461	1460	1459	1456	1445	1446	1454	1456	1457	1458	1457	1453	1451	1447	1442	1440	1439	1447	1453	1452	1458	1474	1482	1480	1485	1485	1481	1466	1462	1469	1477	1476	1461	1451	1449	1461	1462	1463	1465	1473	1482	1481	1469	1458	1456	1454	1452	1454	1458	1465	1471	1467	1464	1454	1452	1458	1473	1485	1492	1491	1479	1459	1444	1437	1430	1436	1454	1484	1497	1498	1482	1468	1451	1449	1442	1443	1443	1454	1511	1534	1522	1487	1460	1456	1457	1470	1463	1472	1494	1490	1506	1522	1515	1495	1466	1457	1453	1451	1461	1467	1475	1464	1448	1443	1440	1445	1479	1471	1461	1471	1480	1486	1484	1479	1470	1477	1477	1482	1485	1475	1460	1450	1439	1440	1441	1465	1474	1473	1472	1467	1460	1463	1471	1490	1496	1488	1480	1476	1474	1466	1450	1454	1460	1467	1463	1467	1468	1469	1465	1467	1472	1504	1503	0	0	0	0	0	0	0	0	0	0	0	0	0	0	0	0	0	0	0	0	0	0	0	0	1604	1583	1564	1539	1526	1516	1527	1530	1523	1533	1541	1535	1536	1537	1551	1547	1539	1530	1528	1527	1524	1522	1516	1517	1522	1530	1544	1569	1567	1567	1546	1548	0	0	0	0	0	0	0	0	0	0	0	0	0	0	0	0	1506	1481	1479	1492	1490	1511	1518	1519	1510	1504	1495	1504	1502	1489	1481	1478	1488	1508	1512	1518	1512	1503	1497	1495	1480	1478	1483	1489	1503	1506	1500	1493	1493	1486	1473	1467	1477	1465	1461	1465	1473	1484	1485	1500	1511	1514	1510	1502	1493	1490	1482	1484	1488	1477	1443	1426	1428	1452	1473	1473	1488	1490	1485	1470	1455	1454	1458	1468	1487	1489	1487	1478	1473	1472	1472	1469	1487	1489	1482	1499	1491	0	0	0	0	0	0	0
0	0	0	1428	1406	1393	1393	1396	1396	1397	1400	1392	1392	1384	1384	1387	1409	1423	1437	1419	1412	1412	1410	1398	1404	1406	1410	1421	1421	1419	1419	1417	1412	1413	1415	1427	1428	1428	1421	1421	1418	1411	1417	1421	1418	1418	1409	1423	1432	1437	1436	1443	1443	1446	1449	1432	1426	1426	1422	1437	1455	1459	1448	1447	1445	1450	1459	1455	1460	1459	1451	1451	1455	1455	1450	1447	1439	1442	1440	1451	1452	1455	1459	1455	1449	1447	1452	1448	1439	1425	1418	1422	1430	1428	1419	1413	1409	1418	1429	1429	1425	1416	1417	1419	1416	1415	1412	1404	1397	1402	1414	1418	1406	1398	1398	1407	1427	1439	1446	1451	1451	1450	1451	1445	1439	1422	1419	1432	1438	1442	1436	1452	1433	1416	1414	1411	1419	0	0	0	0	0	0	0	0	0	0	0	0	0	0	0	0	0	0	0	0	0	0	0	0	0	0	0	0	1675	1683	1674	1672	1672	1665	1648	1614	0	0	0	0	0	0	0	1410	1453	1486	1475	1461	1451	1448	1434	1427	1422	1428	1437	1441	1447	1453	1462	1456	1434	1423	1422	1429	1438	1441	1437	1435	1431	1430	1420	1399	1382	1375	1390	1403	1425	1426	1425	1420	1421	1427	1422	1422	1427	1439	1440	1445	1452	1463	1479	1479	1477	1473	1462	1455	1450	1440	1438	1443	1451	1461	1475	1469	1460	1451	1439	1452	1464	1461	1450	1424	1424	1434	1445	1455	1450	1429	1423	1429	1441	1440	1440	1440	1446	1441	1445	1443	1446	1443	1444	1445	1445	1443	1442	1438	1437	1447	1465	1458	1454	1457	1455	1463	1456	1451	1453	1452	1448	1440	1442	1441	1441	1442	1447	1455	1456	1452	1453	1453	1460	1469	1471	1457	1443	1448	1464	1478	1484	1476	1440	1435	1443	1448	1450	1454	1454	1449	1452	1448	1442	1441	1441	1446	1454	1466	1471	1471	1466	1460	1462	1461	1461	1443	1447	1439	1450	1453	1458	1456	1459	1458	1454	1448	1444	1439	1451	1457	1453	1452	1458	1472	1481	1473	1481	1479	1478	1471	1462	1462	1469	1468	1469	1466	1461	1460	1460	1460	1459	1468	1482	1480	1471	1455	1458	1462	1472	1475	1473	1471	1473	1464	1455	1446	1448	1459	1475	1489	1493	1493	1475	1455	1438	1427	1426	1439	1461	1473	1479	1479	1477	1474	1459	1449	1433	1439	1451	1473	1501	1515	1505	1476	1453	1445	1460	1487	1500	1499	1489	1479	1467	1458	1455	1460	1457	1460	1465	1474	1480	1480	1470	1466	1459	1452	1444	1450	1483	1493	1489	1478	1476	1474	1477	1477	1471	1475	1475	1475	1471	1461	1445	1436	1434	1439	1440	1452	1455	1447	1447	1459	1446	1436	1445	1460	1470	1473	1467	1467	1467	1453	1461	1483	1490	1480	1474	1478	1477	1477	1476	1483	1493	1489	1509	1506	0	0	0	0	0	0	0	0	0	0	0	0	0	0	0	0	0	0	0	0	0	0	0	0	1614	1600	1580	1533	1500	1512	1514	1517	1526	1531	1532	1533	1535	1540	1543	1538	1518	1514	1516	1522	1527	1528	1529	1539	1541	1552	1565	1558	1551	1546	1526	0	0	0	0	0	0	0	0	0	0	0	0	0	0	0	0	0	1493	1486	1497	1498	1511	1516	1515	1508	1501	1495	1497	1498	1487	1483	1478	1487	1503	1509	1515	1517	1507	1496	1499	1493	1481	1484	1492	1500	1505	1502	1517	1506	1497	1480	1473	1477	1465	1458	1459	1468	1478	1489	1495	1509	1511	1507	1491	1489	1482	1477	1483	1492	1483	1460	1440	1440	1455	1474	1474	1490	1497	1494	1484	1464	1453	1450	1462	1478	1477	1472	1458	1449	1441	1441	1452	1469	1489	1499	1498	1490	0	0	0	0	0	0	0
0	0	0	1418	1409	1397	1386	1394	1394	1398	1398	1392	1400	1401	1401	1415	1424	1425	1424	1412	1410	1410	1406	1399	1390	1390	1399	1408	1413	1413	1421	1423	1425	1421	1422	1427	1423	1429	1425	1425	1418	1409	1405	1421	1430	1430	1443	1450	1442	1443	1444	1444	1444	1444	1443	1427	1420	1422	1427	1438	1455	1454	1450	1444	1454	1456	1458	1458	1454	1441	1437	1443	1443	1450	1456	1456	1447	1447	1448	1447	1447	1449	1452	1446	1436	1439	1443	1441	1432	1423	1409	1414	1425	1425	1417	1411	1411	1425	1440	1444	1433	1420	1414	1412	1412	1412	1407	1400	1400	1408	1417	1415	1404	1395	1395	1399	1407	1420	1431	1442	1441	1445	1449	1453	1445	1436	1430	1438	1444	1439	1435	1444	1436	1422	1419	1414	1428	0	0	0	0	0	0	0	0	0	0	0	0	0	0	0	0	0	0	0	0	0	0	0	0	0	0	0	1656	1662	1670	1661	1660	1651	1657	1637	0	0	0	0	0	1407	1413	1421	1434	1447	1452	1438	1430	1437	1440	1435	1430	1431	1436	1445	1442	1461	1470	1475	1457	1444	1421	1422	1429	1444	1451	1451	1437	1429	1428	1439	1432	1407	1380	1382	1410	1427	1432	1429	1423	1414	1430	1431	1429	1433	1439	1447	1440	1442	1466	1483	1488	1480	1466	1449	1444	1449	1452	1450	1446	1448	1451	1462	1453	1451	1440	1441	1445	1458	1461	1446	1423	1418	1426	1440	1448	1439	1419	1414	1416	1426	1427	1431	1435	1436	1443	1445	1434	1436	1421	1422	1427	1435	1434	1434	1431	1427	1432	1455	1458	1456	1454	1439	1423	1426	1428	1436	1439	1441	1430	1432	1430	1433	1439	1446	1452	1452	1453	1458	1463	1472	1482	1475	1467	1457	1447	1454	1457	1452	1450	1442	1427	1429	1437	1449	1453	1451	1444	1437	1440	1446	1450	1462	1472	1482	1489	1482	1475	1454	1452	1442	1442	1453	1435	1448	1441	1443	1465	1451	1449	1453	1449	1449	1446	1447	1440	1451	1456	1453	1452	1457	1465	1467	1461	1450	1451	1466	1464	1456	1451	1454	1465	1478	1482	1476	1466	1444	1433	1434	1455	1468	1472	1469	1461	1464	1479	1489	1493	1492	1488	1477	1458	1440	1429	1432	1455	1475	1485	1491	1488	1479	1458	1436	1426	1429	1436	1445	1454	1456	1456	1463	1462	1457	1454	1439	1440	1446	1466	1491	1491	1492	1463	1440	1435	1457	1481	1503	1502	1486	1461	1447	1442	1440	1449	1455	1459	1466	1471	1468	1462	1471	1468	1462	1454	1454	1461	1475	1492	1491	1487	1481	1484	1482	1481	1477	1476	1473	1469	1465	1456	1443	1433	1438	1441	1451	1457	1458	1458	1454	1441	1430	1425	1430	1450	1459	1468	1472	1467	1472	1471	1474	1478	1480	1481	1478	1479	1474	1474	1469	1483	1485	1483	1480	1478	1527	0	0	0	0	0	0	0	0	0	0	0	0	0	0	0	0	0	0	0	0	0	0	1637	1638	1640	1617	1534	1492	1516	1517	1515	1519	1522	1527	1538	1538	1535	1532	1524	1520	1512	1521	1533	1533	1535	1532	1538	1543	1549	1562	1558	1548	1546	1534	0	0	0	0	0	0	0	0	0	0	0	0	0	0	0	0	0	0	1517	1512	1504	1516	1511	1504	1503	1502	1501	1495	1491	1489	1485	1486	1495	1507	1514	1512	1512	1502	1501	1505	1497	1493	1490	1497	1503	1504	1500	1510	1501	1488	1456	1455	1460	1459	1453	1463	1469	1486	1489	1498	1504	1512	1501	1491	1483	1477	1473	1479	1493	1495	1486	1484	1479	1478	1485	1485	1493	1501	1502	1495	1473	1462	1462	1469	1470	1470	1464	1445	1433	1435	1447	1447	1468	1480	1489	1483	1480	0	0	0	0	0	0	0
0	0	0	1400	1394	1384	1390	1396	1396	1403	1401	1403	1402	1420	1420	1428	1429	1418	1414	1412	1415	1415	1415	1408	1399	1391	1395	1403	1414	1414	1417	1422	1426	1424	1426	1421	1429	1426	1417	1417	1414	1404	1405	1423	1432	1438	1449	1454	1459	1450	1449	1449	1450	1452	1445	1434	1425	1423	1429	1435	1451	1453	1455	1448	1447	1449	1451	1452	1445	1433	1431	1429	1429	1436	1446	1455	1450	1444	1443	1447	1450	1455	1448	1439	1432	1433	1447	1443	1436	1421	1410	1403	1417	1426	1421	1416	1418	1429	1450	1449	1441	1424	1411	1408	1408	1413	1405	1407	1407	1412	1423	1416	1404	1396	1392	1398	1406	1411	1426	1432	1431	1431	1434	1439	1441	1437	1438	1444	1447	1435	1429	1432	1434	1432	1430	1418	1429	0	0	0	0	0	0	0	0	0	0	0	0	0	0	0	0	0	0	0	0	0	0	0	0	0	0	0	1648	1658	1661	1655	1644	1640	1645	1623	0	0	0	0	0	1400	1414	1422	1423	1413	1396	1396	1403	1421	1431	1427	1424	1431	1434	1438	1450	1460	1468	1462	1450	1432	1420	1426	1436	1450	1449	1450	1444	1430	1425	1434	1442	1433	1408	1400	1404	1406	1406	1405	1412	1413	1423	1438	1436	1434	1447	1447	1441	1439	1451	1476	1482	1473	1456	1444	1438	1448	1454	1453	1441	1444	1445	1447	1448	1442	1441	1438	1444	1454	1457	1443	1419	1421	1426	1440	1448	1436	1425	1415	1417	1421	1419	1426	1431	1436	1437	1435	1432	1420	1417	1418	1419	1429	1432	1425	1422	1420	1422	1435	1447	1452	1447	1435	1422	1418	1418	1428	1439	1443	1443	1435	1430	1426	1430	1439	1434	1444	1451	1452	1452	1463	1474	1482	1477	1462	1455	1457	1454	1449	1448	1435	1426	1430	1434	1450	1458	1451	1443	1435	1431	1440	1449	1466	1478	1485	1486	1474	1460	1449	1443	1441	1455	0	0	0	0	1465	1471	1449	1437	1435	1437	1443	1440	1441	1435	1445	1450	1451	1451	1445	1444	1446	1445	1443	1442	1442	1449	1451	1448	1452	1470	1487	1493	1487	1468	1438	1434	1431	1430	1446	1448	1455	1457	1465	1489	1502	1505	1498	1489	1476	1451	1434	1427	1434	1446	1461	1471	1474	1477	1477	1466	1448	1428	1420	1426	1438	1445	1441	1436	1439	1437	1447	1445	1440	1442	1446	1451	1462	1465	1450	1449	1442	1443	1446	1469	1490	1486	1473	1452	1437	1436	1442	1457	1464	1464	1465	1462	1455	1447	1462	1465	1461	1462	1459	1459	1466	1480	1484	1487	1488	1486	1483	1480	1473	1475	1467	1457	1448	1441	1436	1430	1431	1440	1453	1464	1469	1468	1457	1445	1434	1430	1429	1433	1440	1450	1455	1467	1467	1466	1472	1477	1473	1477	1489	1481	1470	1462	1474	1480	1484	1487	1493	1490	1487	1544	0	0	0	0	0	0	0	0	0	0	0	0	0	0	0	0	0	0	0	0	1608	1625	1649	1649	1627	1541	1494	1522	1532	1525	1518	1517	1526	1536	1535	1531	1531	1525	1527	1527	1530	1532	1537	1534	1537	1535	1541	1543	1547	1544	1526	1546	1547	0	0	0	0	0	0	0	0	0	0	0	0	0	0	0	0	0	0	1541	1533	1516	1516	1501	1495	1496	1499	1498	1492	1488	1492	1493	1501	1513	1518	1522	1511	1507	1507	1516	1514	1506	1510	1512	1517	1512	1503	1489	1484	1475	1466	1461	1454	1454	1451	1448	1456	1483	1496	1501	1495	1487	1488	1488	1493	1489	1480	1478	1484	1491	1495	1497	1491	1483	1486	1491	1491	1499	1505	1503	1498	1493	1486	1479	1474	1470	1461	1445	1440	1444	1447	1457	1457	1470	1478	1483	1475	1461	0	0	0	0	0	0	0
0	0	0	1387	1381	1383	1391	1391	1396	1404	1401	1398	1398	1421	1421	1429	1428	1416	1409	1413	1415	1415	1422	1414	1406	1397	1395	1404	1414	1414	1414	1416	1414	1423	1419	1423	1430	1421	1413	1413	1411	1404	1423	1436	1441	1431	1436	1440	1445	1440	1441	1451	1453	1455	1459	1448	1442	1439	1435	1436	1447	1456	1462	1456	1452	1441	1441	1444	1448	1434	1422	1421	1421	1425	1438	1443	1439	1438	1442	1451	1458	1459	1449	1446	1443	1449	1459	1454	1445	1430	1415	1407	1421	1424	1424	1411	1416	1426	1437	1439	1428	1419	1410	1408	1409	1412	1412	1411	1411	1417	1425	1425	1414	1401	1399	1404	1409	1412	1412	1410	1409	1411	1421	1431	1440	1440	1445	1450	1439	1423	1417	1423	1448	1437	1430	1409	1430	0	0	0	0	0	0	0	0	0	0	0	0	0	0	0	0	0	0	0	0	0	0	0	0	0	0	0	1637	1647	1650	1654	1648	1653	1650	1644	1599	0	0	0	1375	1405	1419	1425	1422	1410	1396	1391	1395	1407	1417	1423	1412	1415	1424	1426	1437	1439	1434	1418	1410	1409	1418	1425	1430	1443	1445	1450	1449	1438	1423	1433	1437	1435	1428	1415	1408	1399	1396	1401	1404	1413	1423	1442	1439	1433	1445	1446	1445	1440	1450	1459	1460	1457	1446	1437	1440	1453	1460	1448	1441	1440	1438	1442	1447	1447	1440	1440	1444	1451	1444	1427	1411	1413	1424	1440	1444	1441	1430	1423	1422	1422	1420	1421	1428	1432	1427	1423	1422	1420	1419	1419	1420	1414	1409	1413	1416	1421	1418	1418	1428	1437	1450	1438	1426	1411	1408	1426	1439	1447	1442	1429	1417	1422	1433	1440	1441	1440	1454	1445	1443	1451	1465	1476	1473	1464	1459	1455	1451	1449	1446	1439	1437	1430	1440	1446	1454	1451	1444	1437	1432	1432	1448	1467	1479	1484	1479	1467	1449	1440	1438	1471	0	0	0	0	0	1473	1462	1444	1437	1429	1433	1434	1432	1432	1437	1438	1445	1440	1439	1434	1432	1439	1443	1449	1446	1448	1442	1443	1450	1457	1468	1482	1484	1479	1467	1454	1444	1435	1430	1439	1440	1447	1450	1465	1486	1503	1503	1491	1478	1461	1448	1439	1438	1439	1442	1457	1465	1466	1466	1469	1465	1453	1436	1427	1434	1447	1446	1440	1433	1427	1428	1434	1439	1435	1442	1447	1453	1460	1445	1445	1448	1445	1443	1445	1449	1461	1471	1467	1452	1440	1443	1451	1465	1469	1470	1468	1463	1449	1443	1443	1453	1459	1457	1450	1461	1468	1460	1460	1478	1481	1479	1476	1469	1467	1460	1450	1436	1428	1421	1421	1422	1431	1439	1459	1471	1479	1470	1461	1452	1447	1443	1444	1438	1441	1443	1448	1451	1454	1453	1474	1482	1480	1473	1476	1472	1466	1471	1473	1483	1490	1501	1505	1507	1498	1546	0	0	0	0	0	0	0	0	0	0	0	0	0	0	0	0	0	0	0	1589	1598	1621	1641	1631	1622	1567	1513	1532	1542	1535	1528	1524	1528	1529	1528	1533	1532	1542	1543	1543	1542	1537	1535	1538	1538	1537	1535	1533	1533	1529	1520	1545	1555	0	0	0	0	0	0	0	0	0	0	0	0	0	0	0	0	0	1510	1517	1514	1512	1512	1493	1488	1484	1484	1485	1481	1482	1489	1498	1509	1519	1525	1519	1513	1506	1511	1511	1512	1512	1515	1526	1528	1514	1505	1493	1478	1462	1459	1469	1463	1447	1445	1448	1465	1488	1503	1503	1485	1479	1474	1488	1502	1497	1489	1482	1485	1499	1500	1497	1496	1493	1496	1506	1509	1509	1510	1506	1506	1499	1494	1477	1473	1456	1441	1447	1449	1453	1464	1474	1474	1478	1477	1476	1466	1459	0	0	0	0	0	0	0
0	0	0	1385	1381	1386	1394	1394	1406	1403	1395	1393	1402	1415	1415	1426	1426	1413	1410	1413	1417	1417	1418	1413	1408	1400	1397	1403	1408	1408	1411	1407	1407	1414	1422	1428	1434	1425	1418	1418	1414	1410	1443	1457	1451	1438	1430	1429	1438	1429	1427	1427	1443	1462	1473	1465	1460	1451	1439	1446	1448	1459	1461	1459	1448	1439	1440	1446	1449	1447	1434	1424	1424	1424	1437	1442	1446	1444	1453	1461	1469	1464	1460	1457	1462	1461	1472	1460	1444	1439	1426	1423	1423	1417	1416	1411	1411	1420	1420	1424	1420	1413	1413	1413	1415	1414	1414	1409	1418	1423	1431	1429	1418	1412	1412	1414	1423	1411	1395	1399	1401	1406	1417	1432	1441	1441	1438	1440	1434	1419	1414	1423	1441	1427	1416	1392	1428	0	0	0	0	0	0	0	0	0	0	0	0	0	0	0	0	0	0	0	0	0	0	0	0	0	0	0	1619	1639	1652	1655	1655	1664	1669	1647	1603	0	0	0	1364	1398	1419	1425	1424	1415	1406	1396	1394	1396	1406	1422	1419	1421	1427	1419	1413	1410	1406	1400	1395	1394	1410	1413	1415	1425	1444	1463	1464	1459	1428	1427	1430	1436	1426	1416	1407	1398	1400	1401	1401	1410	1427	1434	1437	1436	1438	1441	1446	1445	1445	1443	1449	1441	1432	1431	1441	1450	1453	1450	1438	1434	1439	1443	1451	1448	1443	1436	1441	1442	1433	1415	1400	1402	1418	1432	1441	1439	1437	1432	1426	1421	1416	1424	1427	1429	1421	1414	1407	1418	1424	1424	1416	1406	1399	1407	1420	1424	1417	1410	1408	1421	1442	1446	1432	1417	1405	1408	1438	1447	1440	1431	1429	1434	1441	1449	1461	1458	1453	1447	1441	1441	1447	1454	1460	1460	1457	1450	1445	1444	1445	1455	1453	1456	1454	1445	1449	1450	1447	1436	1432	1439	1450	1460	1473	1473	1475	1466	1450	1437	1430	1489	0	0	0	0	0	1463	1445	1432	1441	1445	1442	1435	1429	1434	1435	1437	1436	1438	1435	1427	1425	1438	1448	1457	1456	1455	1450	1435	1432	1438	1451	1458	1462	1461	1462	1458	1453	1448	1439	1438	1442	1444	1448	1462	1476	1490	1486	1476	1464	1459	1454	1450	1446	1440	1446	1454	1464	1469	1466	1463	1460	1455	1446	1445	1449	1460	1460	1450	1435	1428	1430	1442	1439	1438	1447	1452	1463	1463	1452	1447	1448	1449	1451	1447	1444	1445	1455	1459	1454	1449	1451	1461	1469	1474	1474	1477	1467	1454	1442	1445	1448	1447	1446	1448	1456	1465	1464	1461	1472	1476	1475	1468	1462	1455	1448	1436	1419	1413	1413	1414	1416	1424	1444	1460	1473	1478	1468	1461	1460	1461	1460	1462	1463	1457	1447	1449	1452	1456	1459	1463	1475	1473	1469	1441	1442	1448	1462	1472	1478	1493	1505	1518	1515	1508	1544	0	0	0	0	0	0	0	0	0	0	0	0	0	0	0	0	0	0	1609	1598	1604	1621	1632	1621	1609	1581	1543	1539	1550	1545	1539	1539	1532	1528	1531	1537	1541	1552	1553	1552	1544	1535	1534	1536	1537	1534	1534	1528	1528	1515	1529	1558	1565	0	0	0	0	0	0	0	0	0	0	0	0	0	0	0	0	1501	1496	1483	1481	1505	1514	1493	1483	1479	1469	1458	1470	1476	1487	1497	1509	1516	1520	1517	1508	1501	1502	1507	1509	1509	1514	1516	1518	1511	1512	1513	1500	1475	1486	1483	1477	1468	1453	1464	1478	1496	1506	1499	1481	1470	1472	1488	1501	1503	1494	1496	1503	1511	1516	1505	1500	1492	1502	1508	1511	1511	1504	1491	1480	1472	1466	1463	1461	1458	1448	1450	1452	1462	1475	1481	1481	1488	1480	1467	1459	1458	0	0	0	0	0	0	0
