0	0	1376	1383	1383	1377	1367	1359	1371	1392	1392	1396	1401	1417	1433	1434	1432	1395	1397	1394	1391	1392	1388	1395	1395	1405	1420	1423	1417	1403	1395	1394	1394	1402	1406	1410	1409	1410	1408	1406	1395	1395	1395	1390	1390	1390	1389	1394	1397	1412	1416	1415	1410	1388	1396	1396	1410	1420	1424	1440	1433	1429	1426	1414	1413	1398	1381	1390	1394	1397	1390	1391	1394	1395	1405	1394	1399	1414	1428	1431	1431	1425	1412	1406	1408	1410	1421	1427	1441	1445	1446	1439	1432	1424	1426	1432	1431	1427	1413	1404	1397	1379	1377	1365	1363	1369	1361	1355	1358	1369	1370	1367	1359	1370	1382	1384	1371	1364	1362	1368	1368	1359	1359	1358	1370	1372	1378	1383	1385	1382	1371	1362	1365	1370	1378	1386	1391	1392	1383	1376	1371	1369	1366	1371	1358	1367	1369	1367	1371	1368	0	0	0	0	0	0	0	0	0	0	0	0	0	0	0	0	0	0	0	0	0	0	0	0	0	0	0	0	0	0	0	0	1628	1634	1644	1662	1666	1670	1680	1692	1732	0	0	0	0	0	0	0	1351	1326	1317	1330	1353	1364	1366	1357	1345	1346	1358	1398	1404	1390	1375	1365	1360	1361	1360	1366	1372	1371	1374	1373	1377	1377	1377	1377	1356	1336	1326	1331	1333	1338	1346	1353	1348	1346	1349	1358	1370	1366	1360	1358	1355	1353	1350	1356	1363	1368	1364	1360	1360	1357	1361	1358	1358	1351	1349	1342	1342	1336	1330	1327	1323	1320	1322	1332	1340	1360	1384	1369	1358	1348	1346	1351	1356	1358	1359	1352	1337	1328	1328	1343	1366	1370	1366	1362	1351	1344	1345	1348	1352	1352	1357	1361	1356	1342	1337	1336	1343	1353	1360	1358	1356	1355	1351	1362	1371	1368	1353	1338	1329	1331	1336	1347	1357	1361	1359	1353	1347	1343	1340	1345	1343	1342	1345	1359	1372	1381	1380	1364	1354	1346	1343	1352	1357	1355	1356	1353	1352	1351	1353	1358	1360	1362	1354	1367	1360	1351	1348	1354	1356	1361	1358	1343	1341	1351	1392	1386	1380	1363	1367	1365	1358	1364	1365	1360	1352	1356	1357	1348	1347	1353	1352	1348	1343	1350	1348	1347	1354	1354	1350	1345	1346	1344	1348	1333	1331	1330	1335	1341	1330	1368	1364	1368	1373	1370	1365	1366	1360	1347	1339	1342	1347	1356	1367	1356	1348	1334	1328	1323	1333	1339	1348	1354	1353	1350	1349	1351	1371	1377	1379	1373	1359	1350	1344	1341	1336	1327	1313	1317	1322	1334	1338	1342	1340	1336	1331	1331	1330	1329	1337	1346	1360	1367	1368	1355	1346	1340	1334	1322	1318	1324	1330	1344	1353	1349	1347	1341	1340	1343	1345	1342	1337	1341	1360	1364	1369	1370	1368	1366	1362	1349	1337	1337	1341	1342	1342	1341	1333	1334	1332	1336	1336	1355	1364	1366	1358	1349	1345	1353	1358	1360	1365	1364	1354	1348	1341	1333	1317	1315	1321	1331	1325	1319	1321	1322	1322	1324	1327	1331	1339	1344	1343	1335	1305	1291	1294	1304	1324	1378	1434	0	0	0	0	0	0	0	0	0	0	0	0	0	0	0	0	0	0	0	0	0	0	0	0	1456	1412	1404	1399	1396	1404	1407	1447	1448	1447	1440	1437	1436	1437	1429	1417	1402	1404	1406	1407	1401	1403	1410	1413	1419	1417	1421	1421	1420	1418	1421	1433	1441	1442	1444	1473	0	0	0	0	0	0	0	0	0	0	0	0	0	1431	1427	1404	1404	1390	1391	1390	1386	1385	1382	1375	1365	1362	1362	1357	1351	1353	1359	1375	1378	1376	1372	1361	1363	1349	1342	1342	1344	1345	1345	1352	1359	1365	1369	1377	1384	1387	1379	1361	0	0	0	0	0	0	0
0	0	1399	1391	1391	1388	1381	1368	1361	1365	1365	1364	1379	1400	1409	1427	1436	1436	1428	1414	1389	1383	1381	1388	1388	1396	1414	1425	1421	1414	1403	1402	1402	1405	1411	1417	1416	1416	1409	1395	1393	1395	1395	1390	1390	1387	1386	1388	1401	1403	1405	1407	1396	1390	1388	1388	1403	1407	1418	1428	1430	1427	1414	1405	1398	1386	1378	1388	1393	1394	1392	1390	1395	1402	1395	1397	1399	1406	1416	1415	1420	1415	1414	1405	1407	1411	1416	1423	1432	1448	1449	1443	1430	1421	1413	1417	1423	1420	1414	1404	1393	1390	1389	1376	1383	1387	1375	1368	1368	1369	1371	1368	1357	1370	1382	1375	1366	1354	1353	1360	1364	1364	1359	1368	1372	1383	1371	1370	1373	1374	1365	1354	1358	1368	1378	1388	1395	1394	1385	1380	1379	1373	1368	1365	1357	1356	1363	1368	1381	1371	0	0	0	0	0	0	0	0	0	0	0	0	0	0	0	0	0	0	0	0	0	0	0	0	0	0	0	0	0	0	0	0	1638	1650	1658	1663	1669	1670	1673	1690	1719	0	0	0	0	0	0	0	1356	1351	1328	1339	1355	1369	1370	1352	1346	1349	1359	1384	1387	1376	1356	1348	1343	1343	1349	1361	1371	1378	1376	1379	1375	1371	1368	1364	1348	1337	1336	1343	1339	1338	1336	1330	1327	1332	1338	1349	1364	1359	1360	1360	1355	1346	1343	1345	1357	1366	1370	1367	1360	1350	1355	1357	1362	1354	1359	1358	1350	1343	1331	1323	1316	1314	1323	1337	1346	1347	1354	1354	1355	1350	1351	1355	1365	1370	1362	1349	1337	1326	1329	1341	1364	1363	1362	1362	1358	1351	1357	1360	1358	1356	1357	1357	1351	1335	1324	1321	1336	1349	1360	1361	1355	1350	1355	1365	1371	1373	1364	1346	1340	1341	1342	1347	1355	1363	1361	1356	1351	1345	1341	1342	1343	1347	1354	1362	1371	1375	1372	1361	1354	1345	1339	1339	1345	1350	1352	1354	1364	1369	1362	1360	1357	1356	1364	1360	1354	1345	1344	1349	1358	1357	1357	1341	1334	1361	1385	1382	1374	1372	1372	1360	1362	1371	1366	1360	1350	1343	1336	1352	1347	1334	1336	1350	1356	1345	1348	1349	1353	1357	1353	1347	1349	1349	1355	1358	1362	1374	1376	1382	1387	1384	1383	1381	1371	1369	1369	1367	1359	1347	1337	1344	1352	1354	1360	1356	1342	1328	1322	1324	1335	1340	1347	1351	1351	1349	1350	1368	1381	1387	1382	1373	1359	1346	1341	1337	1336	1330	1327	1328	1333	1328	1333	1334	1335	1332	1328	1331	1336	1342	1342	1356	1369	1377	1375	1361	1347	1338	1328	1319	1313	1322	1332	1342	1344	1346	1341	1340	1342	1345	1345	1345	1341	1344	1351	1364	1370	1364	1356	1356	1351	1342	1336	1339	1344	1347	1350	1339	1337	1330	1329	1332	1327	1339	1370	1373	1364	1352	1341	1342	1358	1359	1362	1354	1350	1344	1334	1337	1331	1311	1316	1322	1322	1322	1325	1325	1326	1329	1331	1333	1336	1339	1339	1334	1317	1303	1294	1312	1330	1369	1436	0	0	0	0	0	0	0	0	0	0	0	0	0	0	0	0	0	0	0	0	0	0	0	0	1455	1417	1407	1404	1400	1397	1394	1449	1447	1451	1438	1435	1436	1431	1418	1409	1404	1407	1410	1412	1414	1418	1426	1422	1425	1421	1430	1432	1428	1422	1420	1428	1436	1448	1451	1494	0	0	0	0	0	0	0	0	0	0	0	0	0	1450	1429	1406	1387	1378	1384	1395	1392	1403	1394	1370	1365	1369	1369	1369	1363	1361	1358	1366	1372	1368	1363	1361	1364	1365	1355	1340	1337	1338	1338	1349	1359	1359	1362	1370	1381	1386	1383	1365	0	0	0	0	0	0	0
0	0	1402	1408	1408	1396	1384	1362	1356	1342	1342	1336	1357	1381	1404	1421	1421	1438	1440	1416	1389	1383	1382	1380	1380	1388	1400	1417	1424	1413	1404	1399	1399	1404	1412	1419	1415	1400	1401	1389	1391	1392	1392	1390	1384	1384	1392	1386	1398	1398	1399	1394	1392	1392	1389	1389	1400	1398	1406	1411	1420	1424	1414	1400	1388	1375	1389	1400	1407	1408	1407	1399	1404	1407	1407	1411	1409	1414	1415	1415	1412	1409	1404	1405	1408	1409	1405	1412	1425	1436	1445	1443	1429	1415	1409	1404	1402	1405	1406	1403	1396	1390	1377	1369	1376	1390	1385	1380	1376	1372	1373	1372	1367	1372	1375	1370	1355	1341	1338	1350	1361	1366	1364	1373	1389	1394	1385	1374	1377	1371	1365	1352	1354	1363	1373	1380	1383	1386	1381	1378	1377	1370	1365	1357	1350	1350	1356	1370	1372	1372	0	0	0	0	0	0	0	0	0	0	0	0	0	0	0	0	0	0	0	0	0	0	0	0	0	0	0	0	0	0	0	0	1644	1661	1671	1675	1670	1662	1663	1664	1691	0	0	0	0	0	0	0	0	1370	1343	1340	1361	1371	1370	1354	1354	1352	1358	1362	1360	1348	1341	1331	1327	1330	1341	1359	1374	1381	1384	1385	1377	1365	1358	1347	1350	1345	1350	1356	1356	1348	1338	1328	1321	1323	1329	1342	1352	1357	1362	1363	1358	1347	1338	1334	1343	1363	1366	1367	1358	1349	1344	1350	1346	1341	1343	1350	1348	1342	1333	1324	1318	1321	1328	1340	1344	1342	1343	1348	1352	1351	1353	1362	1370	1376	1371	1360	1347	1334	1332	1354	1370	1361	1360	1360	1362	1364	1365	1366	1363	1355	1356	1352	1343	1331	1317	1320	1333	1347	1358	1360	1358	1356	1357	1364	1368	1373	1366	1358	1354	1352	1347	1347	1349	1360	1368	1371	1363	1352	1344	1342	1345	1348	1354	1359	1368	1365	1360	1353	1348	1345	1340	1337	1336	1341	1342	1349	1360	1365	1352	1346	1339	1347	1351	1353	1349	1342	1343	1345	1350	1354	1356	1346	1354	1375	1382	1377	1381	1388	1375	1364	1363	1371	1369	1361	1351	1356	1363	1361	1344	1331	1333	1345	1363	1344	1349	1348	1353	1357	1354	1346	1342	1349	1358	1363	1372	1381	1385	1392	1391	1386	1382	1381	1372	1367	1366	1358	1353	1345	1341	1343	1346	1355	1362	1359	1344	1325	1322	1325	1334	1344	1351	1351	1350	1355	1358	1367	1380	1386	1378	1362	1349	1335	1336	1339	1339	1340	1333	1338	1336	1335	1331	1331	1324	1350	1351	1333	1339	1339	1344	1354	1371	1381	1376	1360	1347	1335	1322	1318	1316	1322	1332	1335	1333	1336	1333	1334	1340	1344	1346	1345	1342	1337	1340	1344	1345	1346	1345	1348	1340	1334	1341	1342	1349	1348	1347	1339	1329	1326	1322	1324	1341	1353	1378	1380	1369	1354	1338	1339	1350	1358	1355	1351	1346	1344	1342	1342	1334	1314	1316	1313	1311	1321	1326	1334	1348	1353	1354	1349	1342	1337	1337	1329	1324	1326	1324	1336	1348	1373	1462	0	0	0	0	0	0	0	0	0	0	0	0	0	0	0	0	0	0	0	0	0	0	0	0	1460	1433	1424	1412	1399	1404	1418	1449	1445	1441	1437	1436	1438	1430	1416	1403	1405	1412	1418	1423	1428	1437	1440	1440	1433	1425	1430	1433	1432	1419	1414	1419	1430	1443	1454	1499	0	0	0	0	0	0	0	0	0	0	0	0	0	0	1445	1414	1387	1368	1366	1386	1392	1393	1383	1367	1372	1379	1379	1376	1381	1368	1351	1353	1359	1360	1359	1364	1375	1375	1366	1350	1339	1336	1336	1347	1354	1361	1365	1371	1377	1384	1382	1364	0	0	0	0	0	0	0
0	0	1400	1406	1406	1403	1393	1363	1349	1330	1330	1328	1348	1368	1395	1416	1416	1424	1421	1412	1394	1381	1376	1375	1375	1381	1395	1413	1422	1418	1403	1398	1398	1406	1414	1419	1417	1405	1399	1391	1390	1388	1388	1386	1380	1381	1388	1394	1393	1388	1389	1387	1391	1393	1394	1394	1399	1396	1402	1402	1412	1413	1406	1401	1375	1383	1400	1416	1427	1429	1422	1420	1414	1424	1424	1419	1419	1420	1424	1424	1420	1410	1406	1400	1398	1393	1402	1399	1407	1430	1443	1441	1422	1415	1403	1397	1388	1392	1396	1391	1386	1378	1365	1360	1365	1371	1375	1378	1374	1370	1366	1371	1372	1375	1367	1359	1346	1332	1329	1344	1358	1363	1367	1378	1388	1394	1391	1380	1383	1379	1370	1372	1377	1375	1377	1372	1371	1374	1372	1367	1361	1357	1349	1346	1349	1353	1353	1361	1366	1368	0	0	0	0	0	0	0	0	0	0	0	0	0	0	0	0	0	0	0	0	0	0	0	0	0	0	0	0	0	0	0	0	1637	1666	1674	1676	1673	1657	1643	1646	1658	0	0	0	0	0	0	0	0	1360	1349	1339	1355	1365	1369	1363	1359	1360	1346	1343	1342	1340	1334	1327	1326	1338	1348	1369	1385	1390	1394	1392	1376	1351	1347	1349	1358	1356	1364	1364	1359	1353	1346	1336	1332	1332	1334	1336	1348	1354	1356	1359	1358	1350	1339	1335	1337	1358	1364	1366	1359	1351	1342	1332	1323	1319	1329	1337	1341	1342	1339	1331	1330	1336	1363	1357	1345	1343	1345	1350	1351	1349	1349	1362	1378	1384	1382	1376	1358	1346	1338	1363	1374	1365	1355	1366	1367	1367	1360	1365	1360	1354	1347	1344	1340	1334	1328	1331	1336	1346	1356	1357	1353	1357	1357	1366	1368	1367	1366	1364	1367	1364	1358	1353	1358	1373	1379	1379	1370	1353	1345	1341	1339	1342	1345	1351	1359	1359	1356	1350	1346	1340	1340	1337	1335	1335	1335	1342	1347	1351	1347	1341	1344	1350	1357	1355	1352	1342	1343	1340	1348	1349	1355	1359	1381	1387	1365	1372	1387	1394	1382	1368	1366	1368	1372	1370	1366	1361	1341	1358	1359	1344	1335	1339	1347	1353	1357	1356	1355	1354	1347	1335	1336	1343	1354	1370	1372	1378	1386	1390	1383	1374	1366	1365	1372	1363	1362	1354	1342	1338	1335	1337	1346	1354	1358	1358	1354	1357	1327	1334	1338	1338	1345	1349	1352	1357	1357	1360	1369	1377	1371	1355	1337	1323	1334	1345	1348	1351	1347	1341	1340	1337	1332	1323	1324	1351	1356	1339	1340	1335	1338	1348	1366	1372	1364	1353	1340	1325	1321	1326	1317	1325	1333	1334	1327	1325	1320	1332	1340	1344	1346	1345	1340	1335	1331	1330	1334	1340	1346	1346	1342	1342	1352	1352	1349	1349	1344	1338	1327	1321	1324	1328	1341	1357	1387	1383	1376	1356	1346	1343	1349	1351	1348	1341	1341	1343	1345	1338	1334	1320	1314	1309	1306	1305	1318	1343	1361	1371	1370	1358	1343	1337	1332	1329	1341	1348	1356	1355	1370	1418	1504	0	0	0	0	0	0	0	0	0	0	0	0	0	0	0	0	0	0	0	0	0	0	0	0	1472	1453	1440	1418	1399	1402	1428	1446	1442	1431	1428	1434	1436	1430	1418	1411	1413	1420	1428	1436	1443	1453	1453	1442	1437	1432	1427	1433	1429	1421	1418	1426	1433	1434	1436	1462	1505	0	0	0	0	0	0	0	0	0	0	0	0	0	1474	1441	1390	1364	1363	1377	1389	1385	1381	1369	1371	1380	1380	1378	1379	1375	1363	1345	1350	1353	1350	1359	1374	1383	1378	1364	1348	1343	1344	1344	1353	1360	1370	1381	1387	1384	1379	1365	0	0	0	0	0	0	0
0	0	1402	1414	1414	1393	1366	1355	1344	1332	1332	1331	1354	1380	1403	1410	1410	1413	1403	1394	1384	1372	1374	1374	1380	1382	1394	1408	1418	1419	1413	1418	1418	1427	1437	1433	1421	1405	1396	1385	1391	1387	1387	1392	1396	1396	1398	1397	1389	1386	1380	1379	1375	1380	1388	1388	1396	1401	1399	1402	1404	1408	1408	1395	1382	1390	1408	1424	1430	1426	1424	1422	1428	1435	1435	1428	1423	1422	1422	1422	1422	1417	1408	1398	1396	1389	1405	1426	1432	1436	1441	1432	1404	1414	1409	1390	1386	1383	1383	1382	1376	1356	1349	1361	1363	1362	1366	1368	1368	1364	1359	1361	1363	1364	1361	1352	1344	1335	1338	1347	1357	1362	1365	1374	1383	1384	1382	1381	1390	1386	1383	1379	1388	1387	1381	1369	1362	1363	1356	1347	1344	1339	1340	1349	1359	1365	1370	1375	1361	1372	0	0	0	0	0	0	0	0	0	0	0	0	0	0	0	0	0	0	0	0	0	0	0	0	0	0	0	0	0	0	0	0	1639	1664	1676	1683	1672	1643	1625	1619	1627	1637	0	0	0	0	0	0	0	1341	1342	1338	1347	1358	1360	1359	1357	1360	1345	1336	1341	1341	1337	1335	1338	1348	1364	1377	1394	1393	1388	1383	1361	1344	1342	1344	1347	1359	1363	1360	1359	1349	1349	1344	1346	1343	1338	1339	1341	1350	1352	1355	1359	1352	1342	1340	1333	1352	1356	1361	1363	1365	1344	1327	1310	1309	1320	1331	1341	1346	1349	1348	1352	1363	1369	1363	1346	1348	1347	1348	1344	1339	1343	1356	1372	1385	1385	1379	1366	1353	1340	1353	1367	1363	1363	1360	1368	1362	1354	1358	1357	1345	1338	1334	1342	1343	1346	1349	1347	1347	1351	1347	1348	1350	1353	1366	1369	1368	1368	1372	1377	1373	1366	1368	1364	1380	1384	1376	1365	1352	1344	1341	1338	1341	1339	1344	1346	1352	1360	1353	1348	1338	1334	1333	1335	1335	1335	1334	1341	1342	1342	1341	1343	1357	1367	1370	1363	1355	1348	1345	1349	1354	1367	1383	1389	1376	1356	1356	1377	1378	1369	1362	1361	1359	1367	1371	1375	1385	1386	1379	1365	1353	1338	1334	1343	1350	1359	1359	1349	1345	1343	1340	1332	1326	1347	1354	1344	1346	1355	1373	1364	1346	1348	1351	1365	1364	1359	1352	1343	1328	1329	1337	1343	1351	1357	1356	1365	1370	1366	1331	1331	1335	1338	1338	1354	1356	1357	1358	1362	1366	1360	1348	1333	1326	1338	1351	1352	1353	1354	1334	1333	1335	1332	1325	1321	1327	1329	1339	1339	1332	1334	1344	1359	1364	1355	1336	1331	1327	1328	1325	1325	1334	1335	1330	1325	1323	1323	1331	1344	1354	1354	1338	1327	1323	1324	1326	1338	1344	1355	1359	1358	1363	1367	1356	1348	1341	1340	1339	1338	1339	1326	1324	1331	1343	1373	1380	1375	1367	1360	1361	1356	1349	1343	1336	1335	1339	1350	1344	1337	1328	1332	1331	1329	1323	1334	1352	1368	1367	1367	1359	1353	1352	1353	1345	1341	1349	1361	1377	1404	1434	1489	0	0	0	0	0	0	0	0	0	0	0	0	0	0	0	0	0	0	0	0	0	0	0	0	1468	1465	1444	1424	1410	1416	1437	1447	1441	1426	1423	1426	1430	1425	1422	1422	1429	1433	1433	1441	1447	1455	1451	1441	1435	1422	1413	1422	1418	1420	1416	1417	1415	1426	1433	1454	1498	0	0	0	0	0	0	1437	1447	1447	1446	0	0	0	0	1457	1407	1381	1382	1383	1385	1383	1383	1374	1374	1382	1368	1368	1370	1369	1365	1350	1347	1347	1348	1356	1367	1376	1377	1365	1352	1345	1342	1342	1349	1360	1377	1393	1391	1384	1372	1359	0	0	0	0	0	0	0
0	0	1411	1411	1405	1378	1353	1350	1340	1340	1331	1333	1369	1396	1416	1410	1410	1402	1392	1387	1381	1368	1361	1361	1374	1388	1399	1414	1415	1418	1414	1418	1418	1429	1440	1441	1421	1397	1387	1387	1391	1391	1394	1399	1410	1416	1407	1400	1388	1379	1373	1374	1375	1372	1372	1376	1403	1408	1411	1414	1412	1411	1410	1395	1388	1401	1425	1438	1433	1424	1419	1427	1438	1442	1434	1429	1426	1426	1426	1428	1425	1426	1420	1407	1402	1408	1418	1427	1432	1431	1432	1411	1383	1385	1402	1409	1415	1413	1406	1398	1379	1349	1351	1361	1374	1369	1368	1372	1375	1365	1356	1351	1350	1357	1360	1353	1352	1356	1354	1356	1365	1366	1372	1378	1379	1375	1371	1379	1388	1389	1381	1377	1390	1395	1384	1368	1357	1355	1345	1340	1345	1339	1347	1362	1376	1380	1390	1386	1368	1374	1392	0	0	0	0	0	0	0	0	0	0	0	0	0	0	0	0	0	0	0	0	0	0	0	0	0	0	0	0	0	0	0	1659	1663	1663	1666	1656	1638	1629	1624	1628	1631	0	0	0	0	0	0	0	1316	1332	1334	1338	1346	1352	1352	1355	1356	1350	1342	1344	1343	1340	1337	1340	1354	1370	1377	1386	1383	1377	1365	1352	1342	1343	1332	1339	1349	1355	1357	1349	1347	1350	1353	1353	1344	1341	1337	1335	1336	1342	1348	1352	1350	1346	1340	1333	1334	1345	1353	1362	1361	1350	1328	1310	1315	1325	1343	1351	1354	1348	1341	1343	1357	1363	1358	1354	1347	1342	1340	1333	1333	1339	1349	1365	1376	1375	1367	1359	1347	1338	1346	1362	1371	1364	1364	1360	1358	1359	1349	1352	1347	1339	1334	1340	1351	1361	1361	1352	1347	1343	1342	1341	1354	1356	1363	1359	1355	1357	1372	1376	1374	1368	1364	1365	1383	1378	1370	1361	1353	1347	1347	1346	1339	1347	1338	1347	1348	1366	1365	1353	1339	1323	1328	1333	1335	1337	1334	1331	1333	1340	1342	1346	1351	1358	1365	1372	1360	1357	1358	1359	1368	1380	1387	1370	1371	1363	1351	1352	1363	1360	1354	1355	1358	1361	1367	1372	1370	1370	1372	1357	1350	1328	1325	1335	1348	1355	1358	1351	1346	1346	1342	1342	1327	1319	1326	1320	1320	1332	1343	1349	1350	1351	1352	1355	1361	1360	1350	1334	1325	1331	1340	1343	1350	1356	1361	1369	1371	1364	1322	1321	1327	1336	1341	1335	1333	1348	1341	1342	1350	1356	1353	1350	1353	1353	1349	1347	1347	1350	1346	1341	1335	1330	1329	1325	1326	1331	1328	1326	1328	1334	1350	1358	1360	1348	1329	1318	1336	1341	1336	1334	1326	1324	1322	1327	1330	1333	1334	1341	1347	1347	1335	1328	1323	1320	1328	1338	1351	1362	1371	1374	1369	1368	1352	1345	1333	1330	1341	1346	1345	1333	1326	1323	1329	1357	1371	1372	1371	1372	1371	1362	1354	1341	1330	1326	1336	1349	1349	1342	1330	1335	1339	1335	1332	1338	1346	1362	1361	1355	1349	1357	1367	1369	1352	1331	1350	1362	1376	1391	1435	1500	0	0	0	0	0	0	0	0	0	0	0	0	0	0	0	0	0	0	0	0	0	0	0	0	1466	1457	1448	1425	1413	1419	1434	1444	1434	1422	1419	1419	1418	1424	1425	1433	1434	1432	1427	1422	1423	1428	1431	1437	1431	1416	1412	1417	1414	1411	1410	1406	1409	1428	1440	1450	0	0	0	0	0	0	0	1444	1441	1439	1426	1428	0	0	0	1475	1436	1402	1398	1387	1400	1395	1386	1372	1381	1380	1370	1370	1366	1365	1366	1360	1357	1359	1355	1361	1363	1366	1365	1353	1343	1343	1346	1346	1350	1364	1378	1398	1394	1377	1365	1359	0	0	0	0	0	0	0
0	0	1406	1406	1393	1375	1356	1356	1354	1354	1352	1352	1382	1412	1423	1402	1402	1391	1387	1386	1393	1379	1368	1368	1384	1393	1407	1411	1411	1416	1408	1408	1404	1416	1423	1425	1410	1380	1364	1371	1391	1391	1396	1396	1404	1418	1414	1405	1392	1384	1378	1376	1379	1381	1381	1385	1411	1421	1438	1455	1442	1413	1402	1391	1396	1415	1432	1446	1441	1433	1430	1432	1436	1435	1420	1421	1425	1425	1427	1424	1429	1427	1430	1419	1412	1415	1418	1425	1421	1425	1426	1399	1379	1378	1391	1409	1425	1425	1430	1418	1401	1370	1363	1368	1383	1385	1387	1390	1391	1383	1354	1346	1341	1349	1357	1361	1365	1373	1369	1368	1370	1364	1373	1379	1378	1372	1371	1372	1383	1387	1373	1372	1385	1391	1389	1374	1360	1351	1374	1378	1369	1359	1362	1378	1389	1395	1396	1397	1399	1369	1368	0	0	0	0	0	0	0	0	0	0	0	0	0	0	0	0	0	0	0	0	0	0	0	0	0	0	0	0	0	0	0	1663	1661	1656	1648	1652	1643	1638	1642	1630	1626	0	0	0	0	0	0	0	1315	1333	1344	1330	1337	1342	1349	1349	1341	1347	1345	1344	1345	1334	1330	1332	1349	1364	1375	1375	1363	1361	1357	1348	1345	1341	1327	1329	1341	1353	1350	1343	1342	1350	1356	1352	1341	1335	1334	1332	1330	1333	1339	1344	1346	1350	1348	1330	1329	1336	1347	1353	1358	1355	1331	1316	1322	1340	1353	1363	1362	1349	1335	1335	1340	1348	1356	1354	1343	1335	1327	1327	1330	1335	1340	1355	1356	1356	1350	1340	1334	1326	1334	1341	1351	1358	1353	1350	1345	1345	1347	1352	1352	1349	1342	1345	1354	1366	1365	1365	1347	1336	1335	1339	1348	1352	1349	1351	1355	1354	1357	1360	1360	1362	1360	1357	1355	1357	1363	1355	1353	1350	1351	1357	1361	1367	1355	1340	1355	1361	1362	1349	1333	1323	1324	1326	1333	1339	1346	1338	1344	1354	1352	1347	1350	1351	1357	1363	1367	1371	1373	1369	1375	1379	1374	1362	1372	1364	1371	1342	1356	1358	1353	1352	1343	1339	1345	1362	1366	1366	1359	1355	1348	1334	1327	1328	1339	1348	1353	1352	1350	1353	1350	1350	1343	1336	1324	1318	1319	1329	1346	1355	1356	1354	1347	1341	1337	1341	1340	1337	1339	1349	1355	1357	1362	1362	1359	1348	1370	1361	1329	1329	1361	1360	1357	1348	1337	1343	1349	1338	1345	1358	1356	1361	1361	1355	1348	1341	1341	1345	1350	1345	1344	1332	1336	1333	1331	1332	1327	1325	1329	1334	1353	1365	1364	1347	1332	1329	1342	1344	1340	1335	1326	1326	1329	1335	1340	1335	1334	1335	1338	1332	1325	1327	1342	1345	1340	1343	1353	1366	1378	1378	1371	1365	1349	1350	1338	1337	1351	1354	1366	1362	1360	1353	1349	1355	1367	1369	1360	1357	1352	1348	1348	1342	1337	1338	1354	1365	1364	1353	1334	1338	1339	1337	1333	1330	1326	1328	1327	1336	1351	1360	1366	1356	1344	1325	1329	1349	1361	1386	1444	0	0	0	0	0	0	0	0	0	0	0	0	0	0	0	0	0	0	0	0	0	0	0	0	0	1438	1442	1440	1433	1425	1417	1422	1427	1421	1415	1417	1418	1424	1430	1433	1430	1425	1415	1409	1406	1412	1414	1416	1417	1413	1413	1416	1420	1419	1414	1407	1407	1420	1427	1431	1454	0	0	0	0	0	0	0	0	1435	1429	1416	1428	0	0	0	1492	1443	1414	1400	1395	1386	1383	1386	1363	1376	1380	1364	1364	1365	1366	1368	1371	1369	1367	1371	1370	1365	1359	1355	1346	1337	1345	1353	1353	1361	1369	1380	1391	1391	1384	1362	1357	0	0	0	0	0	0	0
0	0	1384	1384	1381	1376	1382	1389	1379	1379	1374	1365	1374	1409	1393	1388	1388	1386	1380	1386	1393	1394	1387	1387	1385	1388	1399	1414	1421	1417	1400	1400	1385	1393	1399	1395	1386	1376	1370	1372	1379	1379	1387	1386	1386	1396	1406	1409	1401	1388	1379	1376	1387	1399	1399	1402	1414	1428	1464	1471	1456	1414	1381	1378	1394	1415	1434	1442	1441	1436	1436	1433	1430	1420	1413	1413	1416	1416	1421	1421	1426	1433	1428	1422	1410	1416	1420	1407	1410	1422	1426	1420	1396	1388	1397	1414	1431	1443	1439	1429	1409	1385	1376	1372	1383	1377	1383	1392	1396	1383	1367	1361	1356	1362	1373	1382	1392	1388	1378	1363	1350	1350	1361	1373	1378	1372	1370	1364	1372	1383	1384	1377	1375	1381	1384	1382	1382	1390	1393	1389	1374	1363	1367	1379	1384	1385	1388	1365	1385	1361	1352	0	0	0	0	0	0	0	0	0	0	0	0	0	0	0	0	0	0	0	0	0	0	0	0	0	0	0	0	0	0	0	1650	1645	1645	1643	1643	1642	1646	1649	1642	1642	0	0	0	0	0	0	0	1322	1335	1339	1330	1333	1342	1339	1335	1333	1339	1341	1341	1338	1335	1321	1316	1324	1342	1350	1351	1348	1340	1339	1338	1344	1355	1366	1364	1360	1358	1352	1349	1351	1360	1358	1349	1335	1334	1328	1327	1324	1325	1330	1332	1342	1350	1345	1340	1339	1336	1340	1343	1351	1352	1341	1333	1337	1362	1372	1377	1380	1375	1369	1353	1338	1334	1341	1349	1342	1332	1323	1324	1329	1336	1341	1348	1348	1347	1342	1336	1329	1323	1323	1325	1328	1336	1342	1341	1336	1337	1340	1348	1358	1360	1345	1342	1349	1362	1367	1362	1348	1333	1323	1329	1341	1346	1347	1353	1363	1354	1352	1355	1355	1354	1350	1346	1351	1357	1360	1353	1352	1352	1351	1358	1363	1361	1357	1347	1348	1355	1356	1340	1335	1333	1328	1331	1345	1346	1358	1359	1357	1354	1353	1349	1350	1352	1355	1359	1364	1369	1369	1369	1372	1372	1369	1364	1380	1378	1377	1355	1361	1363	1365	1349	1337	1338	1339	1351	1356	1359	1359	1358	1351	1340	1326	1320	1326	1332	1341	1344	1346	1350	1350	1365	1360	1344	1328	1323	1332	1351	1359	1361	1360	1352	1339	1330	1325	1329	1337	1330	1337	1344	1353	1359	1358	1349	1325	1330	1342	1343	1341	1334	1385	1369	1358	1353	1347	1344	1348	1349	1346	1362	1371	1371	1360	1357	1349	1347	1342	1337	1336	1338	1341	1340	1342	1343	1339	1334	1334	1336	1343	1340	1342	1351	1355	1347	1340	1335	1330	1338	1349	1354	1352	1337	1332	1334	1348	1358	1360	1353	1350	1356	1355	1351	1349	1350	1348	1353	1358	1358	1357	1358	1360	1358	1356	1356	1348	1343	1355	1352	1347	1346	1349	1353	1355	1351	1362	1364	1362	1351	1344	1341	1338	1335	1336	1338	1343	1355	1362	1356	1339	1337	1334	1339	1339	1340	1337	1337	1334	1337	1335	1339	1338	1337	1336	1334	1329	1333	1349	1386	1453	0	0	0	0	0	0	0	0	0	0	0	0	0	0	0	0	0	0	0	0	0	0	0	0	0	1435	1436	1442	1440	1433	1420	1431	1428	1424	1420	1426	1432	1429	1429	1424	1422	1413	1402	1392	1392	1400	1400	1403	1409	1410	1414	1429	1441	1437	1414	1409	1417	1425	1430	1426	1462	0	0	0	0	0	0	0	0	1430	1434	1433	1443	1483	0	0	1492	1443	1420	1403	1396	1398	1392	1382	1352	1375	1376	1370	1370	1365	1366	1373	1375	1378	1379	1382	1382	1373	1361	1359	1356	1353	1352	1361	1361	1368	1376	1380	1379	1384	1383	1375	1356	0	0	0	0	0	0	0
0	0	1368	1368	1359	1361	1398	1422	1423	1423	1403	1387	1374	1375	1385	1386	1386	1393	1387	1388	1393	1394	1382	1382	1380	1380	1388	1412	1431	1428	1398	1398	1383	1376	1380	1387	1386	1384	1379	1381	1382	1382	1381	1380	1380	1386	1397	1402	1403	1388	1374	1372	1381	1393	1393	1406	1422	1435	1449	1452	1440	1407	1379	1369	1389	1414	1427	1436	1437	1442	1445	1438	1425	1410	1403	1404	1408	1408	1414	1426	1430	1430	1425	1413	1410	1408	1406	1401	1399	1410	1428	1422	1405	1394	1402	1416	1431	1443	1443	1430	1415	1399	1382	1376	1383	1383	1389	1389	1395	1382	1369	1353	1354	1365	1372	1382	1391	1385	1380	1353	1338	1335	1349	1368	1382	1377	1368	1367	1369	1375	1379	1367	1365	1373	1373	1376	1377	1387	1390	1387	1374	1364	1367	1369	1369	1366	1373	1385	1378	1363	1349	1358	0	0	0	0	0	0	0	0	0	0	0	0	0	0	0	0	0	0	0	0	0	0	0	0	0	0	0	0	0	0	1642	1637	1634	1633	1635	1646	1659	1661	1660	1675	0	0	0	0	0	0	0	1331	1342	1344	1337	1335	1342	1336	1324	1317	1328	1343	1345	1351	1333	1321	1320	1325	1339	1346	1342	1337	1335	1335	1336	1345	1356	1371	1368	1366	1360	1363	1361	1357	1360	1361	1359	1353	1340	1339	1331	1326	1323	1327	1332	1341	1350	1347	1332	1333	1334	1334	1338	1346	1351	1345	1343	1348	1363	1374	1380	1384	1385	1378	1362	1345	1337	1341	1343	1347	1338	1333	1329	1340	1349	1354	1350	1344	1350	1351	1341	1335	1327	1322	1319	1323	1334	1342	1342	1339	1335	1336	1342	1350	1359	1349	1337	1331	1354	1360	1359	1350	1340	1331	1332	1348	1352	1353	1361	1357	1345	1339	1341	1345	1349	1350	1353	1361	1367	1363	1358	1355	1350	1347	1348	1355	1358	1349	1342	1333	1324	1325	1330	1339	1338	1337	1341	1348	1350	1357	1364	1362	1354	1359	1363	1354	1347	1346	1355	1359	1361	1350	1365	1366	1362	1359	1356	1376	1394	1391	1355	1364	1375	1370	1355	1346	1344	1348	1353	1352	1356	1352	1348	1345	1337	1324	1322	1323	1325	1328	1332	1340	1347	1359	1373	1364	1354	1348	1345	1345	1351	1358	1358	1354	1346	1338	1327	1323	1326	1340	1335	1340	1348	1356	1348	1341	1331	1327	1322	1349	1356	1365	1389	1379	1367	1360	1351	1343	1337	1338	1339	1339	1348	1352	1361	1354	1350	1349	1342	1331	1322	1326	1332	1328	1334	1340	1344	1345	1338	1341	1344	1349	1351	1343	1340	1347	1343	1336	1327	1333	1338	1350	1359	1361	1338	1332	1334	1349	1361	1360	1359	1355	1361	1361	1355	1347	1347	1354	1359	1366	1361	1348	1351	1356	1358	1360	1360	1364	1359	1347	1342	1337	1336	1339	1346	1352	1351	1355	1364	1359	1344	1338	1330	1330	1332	1329	1334	1340	1345	1352	1353	1350	1338	1335	1339	1347	1350	1348	1345	1339	1331	1330	1329	1322	1315	1326	1336	1335	1333	1353	1404	0	0	0	0	0	0	0	0	0	0	0	0	0	0	0	0	0	0	0	0	0	0	0	0	0	0	1431	1438	1445	1445	1440	1422	1437	1439	1437	1440	1437	1432	1427	1422	1410	1406	1397	1386	1376	1375	1373	1368	1371	1393	1409	1430	1455	1472	1470	1451	1431	1429	1435	1435	1462	1466	0	0	0	0	0	0	0	0	0	1442	1444	1454	1474	1490	1504	1476	1435	1404	1401	1402	1401	1387	1368	1355	1379	1374	1365	1361	1361	1362	1373	1376	1381	1383	1387	1387	1378	1368	1362	1357	1360	1359	1367	1376	1376	1381	1377	1373	1378	1381	1375	1372	0	0	0	0	0	0	0
0	0	1350	1350	1336	1347	1373	1421	1441	1441	1436	1406	1380	1370	1383	1383	1393	1409	1391	1390	1392	1402	1390	1379	1364	1376	1392	1416	1430	1417	1396	1396	1375	1367	1376	1385	1393	1392	1385	1387	1388	1388	1384	1384	1383	1386	1393	1397	1396	1388	1378	1374	1379	1379	1381	1400	1428	1432	1428	1421	1412	1401	1388	1377	1385	1406	1424	1430	1436	1451	1453	1442	1421	1410	1404	1403	1403	1406	1411	1424	1433	1432	1419	1404	1396	1394	1400	1404	1405	1408	1416	1416	1409	1402	1408	1422	1435	1437	1434	1419	1411	1402	1393	1390	1388	1386	1388	1392	1400	1380	1369	1356	1356	1360	1362	1375	1387	1390	1377	1353	1342	1340	1344	1351	1370	1374	1367	1366	1370	1375	1380	1364	1363	1366	1370	1369	1373	1375	1381	1378	1369	1360	1356	1358	1359	1359	1377	1384	1378	1382	1357	1361	0	0	0	0	0	0	0	0	0	0	0	0	0	0	0	0	0	0	0	0	0	0	0	0	0	0	0	0	0	0	1639	1631	1627	1635	1642	1640	1641	1655	1675	1688	0	0	0	0	0	0	0	1339	1349	1345	1341	1352	1350	1340	1323	1319	1329	1345	1350	1358	1343	1334	1337	1347	1357	1352	1347	1337	1334	1334	1331	1345	1361	1360	1361	1364	1367	1373	1372	1366	1364	1366	1364	1359	1357	1354	1343	1333	1330	1333	1338	1346	1348	1337	1330	1336	1337	1340	1344	1356	1349	1347	1352	1357	1359	1355	1352	1351	1353	1359	1361	1363	1361	1362	1365	1367	1368	1364	1361	1361	1360	1359	1356	1357	1355	1355	1356	1352	1347	1347	1345	1341	1346	1354	1355	1348	1342	1336	1331	1335	1337	1333	1333	1324	1341	1354	1356	1351	1344	1346	1355	1368	1371	1363	1352	1346	1346	1347	1353	1354	1356	1355	1353	1357	1363	1360	1358	1351	1347	1341	1344	1352	1362	1362	1370	1356	1343	1338	1339	1343	1343	1343	1343	1343	1354	1362	1366	1367	1366	1364	1362	1358	1350	1352	1355	1355	1357	1351	1347	1348	1355	1351	1352	1375	1387	1394	1354	1358	1370	1368	1364	1358	1354	1357	1359	1358	1357	1353	1349	1342	1336	1330	1327	1331	1328	1330	1337	1346	1349	1361	1363	1358	1348	1343	1341	1346	1350	1355	1355	1349	1342	1341	1344	1339	1335	1341	1344	1340	1342	1347	1343	1337	1340	1326	1322	1358	1373	1374	1371	1372	1366	1358	1351	1341	1332	1339	1346	1343	1343	1343	1341	1343	1345	1346	1340	1329	1324	1322	1327	1327	1327	1333	1339	1342	1346	1346	1360	1360	1358	1347	1336	1339	1343	1342	1330	1338	1335	1344	1355	1356	1342	1335	1339	1352	1357	1361	1354	1353	1360	1363	1353	1344	1344	1352	1359	1361	1358	1343	1346	1348	1354	1361	1364	1366	1363	1348	1340	1332	1333	1337	1342	1346	1347	1348	1357	1356	1345	1337	1330	1327	1328	1328	1332	1337	1343	1348	1350	1350	1339	1336	1338	1349	1356	1351	1349	1343	1338	1335	1325	1316	1315	1324	1343	1349	1349	1356	1380	0	0	0	0	0	0	0	0	0	0	0	0	0	0	0	0	0	0	0	0	0	0	0	0	0	0	1441	1444	1450	1446	1435	1410	1435	1443	1445	1449	1445	1429	1414	1405	1407	1407	1401	1398	1407	1412	1410	1407	1407	1427	1455	1451	1445	1441	1433	1434	1430	1440	1449	1457	1460	1464	0	0	0	0	0	0	0	0	0	1441	1455	1458	1452	1467	1471	1450	1418	1396	1387	1387	1380	1374	1370	1364	1385	1378	1366	1358	1358	1360	1369	1381	1386	1388	1386	1386	1378	1368	1362	1361	1364	1374	1383	1382	1382	1382	1374	1367	1363	1373	1380	1371	0	0	0	0	0	0	0
0	0	1340	1340	1332	1331	1346	1395	1425	1425	1438	1417	1388	1377	1388	1388	1398	1407	1398	1390	1398	1403	1399	1399	1371	1383	1397	1411	1409	1395	1373	1373	1363	1358	1372	1388	1393	1392	1392	1388	1388	1388	1394	1390	1391	1390	1388	1386	1384	1379	1384	1382	1380	1380	1380	1382	1422	1418	1409	1398	1388	1395	1397	1395	1389	1406	1421	1434	1438	1444	1450	1435	1418	1409	1406	1405	1405	1408	1417	1421	1429	1425	1411	1395	1382	1386	1390	1400	1406	1409	1414	1414	1407	1409	1415	1424	1431	1428	1424	1420	1415	1406	1388	1386	1388	1386	1388	1394	1394	1393	1386	1376	1370	1362	1357	1367	1379	1388	1379	1360	1351	1344	1337	1332	1352	1356	1353	1368	1373	1385	1374	1365	1368	1374	1373	1363	1361	1368	1373	1373	1364	1351	1346	1348	1352	1356	1378	1397	1386	1386	1379	1379	0	0	0	0	0	0	0	0	0	0	0	0	0	0	0	0	0	0	0	0	0	0	0	0	0	0	0	0	0	0	1637	1622	1628	1638	1643	1625	1622	1627	1668	1665	0	0	0	0	0	0	0	1344	1359	1362	1358	1363	1352	1349	1343	1338	1343	1350	1363	1375	1369	1370	1372	1370	1374	1366	1367	1362	1354	1341	1325	1317	1342	1347	1353	1356	1364	1356	1353	1340	1340	1345	1352	1355	1355	1354	1345	1340	1339	1348	1357	1365	1361	1360	1350	1346	1343	1349	1352	1352	1354	1352	1355	1354	1349	1343	1333	1338	1344	1350	1350	1358	1365	1372	1370	1369	1369	1365	1361	1360	1357	1355	1352	1350	1353	1360	1347	1343	1340	1344	1352	1351	1351	1357	1355	1344	1332	1332	1335	1341	1343	1341	1337	1336	1340	1352	1358	1354	1353	1354	1362	1369	1369	1358	1350	1344	1348	1352	1356	1356	1358	1356	1349	1351	1357	1351	1356	1353	1348	1342	1345	1356	1367	1376	1374	1367	1355	1347	1346	1351	1350	1350	1347	1349	1355	1352	1359	1359	1361	1357	1358	1358	1359	1356	1350	1352	1355	1353	1348	1346	1347	1347	1349	1378	1376	1364	1348	1347	1359	1364	1363	1365	1366	1371	1365	1363	1359	1359	1354	1348	1345	1349	1352	1346	1338	1344	1353	1351	1348	1347	1345	1348	1341	1339	1340	1345	1351	1358	1358	1352	1349	1352	1356	1352	1347	1338	1347	1342	1346	1352	1348	1349	1348	1349	1354	1365	1370	1369	1361	1359	1361	1354	1344	1338	1336	1346	1350	1350	1347	1344	1342	1343	1344	1346	1340	1335	1329	1329	1334	1337	1329	1331	1338	1345	1354	1358	1363	1368	1359	1350	1343	1344	1347	1351	1347	1337	1337	1339	1353	1359	1346	1342	1342	1351	1358	1351	1346	1349	1352	1355	1351	1338	1336	1339	1350	1353	1353	1345	1345	1342	1351	1361	1365	1368	1366	1355	1336	1332	1340	1338	1338	1342	1342	1347	1352	1353	1346	1338	1335	1336	1332	1329	1333	1339	1343	1337	1348	1345	1348	1346	1351	1356	1359	1356	1348	1342	1343	1342	1336	1328	1321	1328	1339	1352	1352	1349	1353	0	0	0	0	0	0	0	0	0	0	0	0	0	0	0	0	0	0	0	0	0	0	0	0	0	0	1452	1442	1440	1435	1429	1409	1430	1434	1433	1430	1429	1422	1423	1427	1428	1423	1426	1423	1418	1406	1420	1446	1456	1454	1445	1387	1377	1384	1409	1412	1414	1420	1426	1445	1447	1465	0	0	0	0	0	0	0	0	0	1442	1448	1448	1431	1436	1452	1437	1402	1375	1369	1367	1367	1369	1366	1370	1374	1381	1375	1368	1368	1366	1368	1378	1388	1390	1386	1376	1371	1366	1365	1371	1378	1379	1379	1388	1388	1380	1371	1351	1346	1356	1365	1372	0	0	0	0	0	0	0
0	0	1346	1346	1339	1330	1338	1381	1407	1407	1427	1414	1398	1394	1395	1395	1390	1400	1398	1391	1393	1396	1396	1403	1399	1397	1398	1399	1398	1383	1358	1358	1345	1359	1374	1395	1397	1390	1388	1383	1383	1391	1395	1395	1389	1386	1380	1377	1373	1379	1385	1393	1391	1391	1388	1378	1402	1407	1395	1384	1384	1396	1404	1401	1399	1409	1426	1434	1435	1429	1422	1417	1407	1406	1409	1409	1409	1415	1417	1421	1423	1418	1414	1400	1390	1384	1386	1389	1393	1404	1409	1414	1414	1408	1417	1422	1426	1420	1419	1417	1417	1401	1383	1375	1376	1374	1383	1388	1393	1391	1383	1378	1375	1366	1356	1359	1374	1383	1383	1366	1355	1341	1331	1323	1336	1334	1340	1366	1378	1385	1369	1366	1368	1375	1372	1363	1356	1365	1372	1367	1357	1346	1340	1348	1344	1348	1380	1394	1394	1396	1389	1392	0	0	0	0	0	0	0	0	0	0	0	0	0	0	0	0	0	0	0	0	0	0	0	0	0	0	0	0	0	0	1622	1637	1639	1644	1642	1626	1622	1629	1648	1658	0	0	0	0	0	0	0	1366	1378	1363	1357	1353	1351	1349	1349	1349	1348	1348	1348	1353	1359	1369	1379	1379	1379	1375	1370	1361	1351	1329	1324	1322	1339	1342	1344	1349	1349	1344	1338	1334	1337	1348	1353	1356	1353	1351	1347	1344	1343	1351	1364	1373	1372	1366	1363	1358	1360	1356	1356	1352	1349	1355	1358	1352	1343	1331	1331	1341	1343	1346	1345	1359	1374	1381	1378	1372	1367	1363	1358	1357	1354	1348	1342	1338	1345	1350	1343	1340	1332	1342	1351	1353	1356	1354	1353	1340	1334	1334	1343	1352	1353	1351	1351	1343	1345	1345	1352	1359	1363	1364	1370	1370	1367	1356	1344	1339	1344	1353	1359	1361	1357	1351	1343	1345	1350	1360	1357	1356	1354	1351	1355	1360	1366	1375	1380	1369	1360	1354	1354	1356	1354	1354	1354	1352	1352	1348	1341	1357	1360	1359	1359	1361	1361	1357	1350	1349	1345	1343	1350	1347	1351	1347	1343	1356	1354	1338	1341	1342	1354	1361	1365	1369	1369	1367	1362	1357	1358	1360	1358	1354	1356	1358	1355	1353	1352	1358	1364	1358	1348	1341	1337	1339	1342	1348	1350	1353	1355	1359	1360	1353	1355	1359	1362	1363	1353	1345	1351	1346	1345	1349	1345	1344	1349	1352	1357	1363	1366	1363	1355	1350	1347	1343	1338	1336	1341	1354	1358	1353	1347	1344	1341	1340	1336	1328	1332	1330	1335	1336	1338	1354	1344	1340	1339	1351	1358	1358	1360	1355	1354	1353	1347	1354	1356	1362	1353	1341	1339	1347	1362	1371	1370	1365	1355	1350	1344	1342	1341	1342	1351	1358	1350	1344	1340	1337	1337	1339	1338	1349	1345	1346	1352	1362	1364	1368	1367	1365	1358	1353	1349	1342	1340	1339	1338	1342	1350	1353	1347	1344	1346	1340	1337	1334	1340	1340	1339	1335	1329	1340	1350	1350	1355	1363	1372	1368	1352	1347	1346	1355	1350	1343	1335	1335	1342	1346	1343	1331	1328	0	0	0	0	0	0	0	0	0	0	0	0	0	0	0	0	0	0	0	0	0	0	0	0	0	0	1452	1441	1431	1427	1410	1401	1420	1423	1417	1408	1413	1414	1422	1432	1440	1429	1426	1424	1405	1392	1423	1442	1449	1450	1415	1391	1386	1400	1412	1421	1420	1416	1415	1432	1444	1450	0	0	0	0	0	0	0	0	0	0	1442	1432	1430	1429	1430	1418	1399	1370	1366	1364	1367	1361	1360	1367	1349	1365	1381	1378	1378	1373	1368	1378	1386	1387	1381	1373	1367	1369	1379	1385	1388	1382	1379	1378	1378	1369	1361	1343	1347	1356	1359	1364	0	0	0	0	0	0	0
0	0	1365	1365	1354	1346	1353	1368	1393	1393	1415	1417	1411	1400	1398	1398	1386	1378	1370	1376	1379	1384	1384	1396	1400	1398	1398	1400	1397	1384	1362	1362	1355	1361	1379	1387	1383	1380	1377	1384	1384	1393	1398	1388	1387	1379	1373	1368	1363	1382	1381	1384	1393	1393	1395	1393	1394	1401	1390	1384	1394	1403	1409	1409	1403	1412	1423	1433	1415	1404	1402	1400	1401	1404	1411	1411	1417	1414	1414	1406	1408	1413	1418	1412	1408	1402	1391	1387	1392	1401	1406	1405	1405	1404	1416	1423	1420	1416	1409	1410	1419	1405	1382	1371	1366	1365	1371	1376	1385	1388	1380	1372	1376	1373	1362	1368	1382	1394	1393	1379	1365	1346	1331	1322	1319	1333	1349	1371	1384	1377	1368	1363	1366	1373	1374	1361	1356	1359	1366	1366	1355	1343	1341	1346	1346	1345	1379	1392	1396	1390	1390	1385	0	0	0	0	0	0	0	0	0	0	0	0	0	0	0	0	0	0	0	0	0	0	0	0	0	0	0	0	0	0	1592	1646	1658	1654	1649	1630	1629	1636	1651	1650	0	0	0	0	0	0	0	1390	1380	1362	1347	1346	1347	1350	1349	1361	1362	1355	1348	1348	1357	1371	1373	1380	1383	1375	1367	1360	1347	1333	1326	1331	1343	1340	1339	1341	1344	1341	1338	1335	1343	1354	1365	1361	1356	1347	1347	1338	1339	1357	1365	1368	1371	1371	1359	1358	1352	1355	1349	1349	1342	1353	1357	1353	1345	1340	1343	1348	1351	1348	1349	1355	1372	1384	1384	1373	1365	1363	1357	1354	1350	1341	1330	1327	1332	1336	1337	1336	1336	1341	1348	1352	1350	1351	1346	1339	1333	1338	1353	1366	1376	1372	1368	1358	1349	1341	1347	1352	1360	1366	1372	1376	1364	1353	1340	1335	1342	1351	1361	1365	1354	1346	1339	1338	1349	1359	1360	1363	1366	1371	1363	1365	1373	1375	1373	1364	1355	1355	1360	1358	1356	1357	1356	1357	1347	1337	1342	1359	1358	1361	1360	1356	1356	1349	1345	1345	1342	1336	1340	1345	1348	1352	1346	1336	1337	1330	1342	1350	1352	1358	1360	1363	1368	1361	1353	1348	1347	1356	1355	1360	1363	1364	1361	1354	1350	1351	1362	1364	1351	1336	1336	1337	1360	1366	1363	1363	1361	1351	1349	1351	1359	1364	1367	1368	1356	1352	1356	1355	1341	1336	1341	1340	1347	1353	1360	1365	1366	1359	1351	1347	1346	1345	1338	1339	1349	1358	1361	1355	1347	1343	1340	1330	1329	1321	1321	1323	1324	1326	1342	1361	1355	1353	1353	1349	1351	1356	1357	1359	1355	1356	1354	1357	1358	1365	1354	1344	1339	1348	1353	1367	1369	1364	1359	1347	1340	1338	1342	1347	1353	1361	1365	1352	1345	1344	1344	1344	1351	1356	1354	1352	1356	1347	1361	1370	1375	1375	1369	1363	1362	1355	1350	1343	1338	1344	1350	1353	1351	1351	1352	1350	1346	1343	1343	1342	1341	1331	1330	1339	1341	1342	1353	1362	1367	1364	1352	1346	1351	1359	1364	1353	1348	1345	1348	1343	1337	1334	1330	0	0	0	0	0	0	0	0	0	0	0	0	0	0	0	0	0	0	0	0	0	0	0	0	0	0	1460	1444	1430	1413	1398	1398	1422	1421	1407	1394	1400	1408	1417	1431	1441	1426	1423	1413	1393	1383	1417	1440	1445	1445	1434	1424	1398	1416	1429	1432	1421	1410	1415	1428	1435	1440	0	0	0	0	0	0	0	0	0	0	0	0	0	1427	1428	1421	1395	1376	1377	1379	1373	1367	1356	1355	1329	1354	1378	1380	1381	1381	1374	1379	1383	1382	1379	1372	1373	1378	1380	1394	1398	1387	1375	1364	1364	1362	1361	1357	1363	1360	1364	1358	0	0	0	0	0	0	0
0	0	0	1398	1380	1373	1360	1372	1372	1380	1403	1425	1424	1415	1403	1403	1381	1374	1365	1357	1359	1374	1374	1381	1387	1394	1397	1397	1405	1405	1405	1393	1374	1379	1385	1380	1373	1369	1372	1388	1388	1397	1396	1392	1384	1376	1372	1369	1383	1377	1378	1383	1397	1397	1401	1393	1396	1400	1392	1382	1399	1408	1413	1408	1403	1407	1418	1429	1421	1411	1400	1394	1392	1397	1410	1410	1419	1419	1408	1398	1398	1409	1419	1420	1421	1421	1406	1396	1389	1397	1402	1404	1396	1403	1414	1424	1419	1406	1398	1399	1410	1408	1387	1379	1366	1366	1367	1366	1366	1369	1363	1366	1371	1378	1376	1382	1392	1398	1398	1387	1373	1357	1337	1327	1324	1340	1360	1383	1393	1386	1379	1357	1362	1376	1383	1372	1368	1368	1371	1369	1360	1356	1351	1351	1347	1349	1354	1362	1369	1378	1382	1385	0	0	0	0	0	0	0	0	0	0	0	0	0	0	0	0	0	0	0	0	0	0	0	0	0	0	0	0	0	0	1581	1659	1674	1661	1650	1630	1626	1642	1656	1661	0	0	0	0	0	0	0	0	1388	1357	1350	1350	1354	1359	1352	1364	1362	1354	1346	1346	1360	1368	1372	1370	1366	1364	1367	1360	1354	1342	1338	1339	1347	1347	1344	1345	1344	1343	1342	1342	1355	1368	1375	1369	1365	1355	1350	1349	1353	1357	1366	1360	1366	1362	1354	1350	1343	1343	1332	1330	1339	1341	1351	1351	1357	1353	1360	1362	1356	1350	1348	1360	1373	1381	1374	1361	1360	1355	1349	1349	1348	1341	1331	1327	1332	1339	1338	1342	1348	1351	1353	1352	1349	1348	1343	1338	1337	1347	1358	1375	1382	1380	1378	1372	1357	1344	1344	1349	1350	1360	1369	1375	1373	1354	1341	1337	1339	1347	1355	1360	1354	1346	1340	1341	1349	1358	1365	1370	1376	1375	1363	1360	1362	1371	1371	1357	1354	1361	1350	1348	1355	1355	1361	1357	1352	1349	1353	1356	1359	1361	1360	1351	1347	1343	1342	1341	1342	1332	1332	1332	1340	1350	1352	1336	1336	1334	1345	1351	1353	1358	1360	1363	1361	1353	1345	1338	1335	1345	1351	1362	1361	1357	1355	1351	1351	1356	1361	1357	1343	1334	1336	1341	1372	1379	1375	1371	1359	1355	1352	1346	1348	1358	1367	1368	1359	1357	1356	1351	1339	1341	1342	1343	1348	1353	1363	1366	1364	1347	1349	1341	1347	1349	1349	1346	1351	1355	1360	1361	1354	1351	1345	1339	1324	1330	1330	1326	1323	1323	1321	1350	1358	1359	1354	1349	1350	1355	1355	1353	1359	1352	1352	1350	1352	1355	1353	1344	1338	1342	1348	1351	1356	1355	1350	1337	1337	1340	1345	1359	1366	1370	1370	1356	1350	1344	1343	1351	1363	1373	1359	1354	1346	1349	1358	1364	1376	1375	1368	1367	1368	1362	1350	1344	1340	1350	1352	1353	1352	1352	1353	1354	1351	1350	1347	1347	1345	1342	1343	1343	1341	1339	1344	1356	1359	1355	1348	1337	1348	1350	1353	1352	1349	1346	1345	1344	1343	1346	1343	0	0	0	0	0	0	0	0	0	0	0	0	0	0	0	0	0	0	0	0	0	0	0	0	0	0	1461	1454	1436	1415	1400	1410	1417	1415	1400	1394	1400	1407	1415	1436	1441	1423	1418	1409	1389	1390	1423	1436	1445	1442	1459	1449	1437	1440	1445	1438	1417	1407	1407	1426	1433	1435	0	0	0	0	0	0	0	0	0	0	0	0	0	0	1452	1439	1405	1392	1398	1393	1388	1369	1354	1349	1335	1351	1375	1380	1382	1382	1383	1381	1382	1380	1377	1373	1374	1385	1398	1403	1398	1387	1372	1363	1363	1360	1367	1369	1368	1362	1356	1358	0	0	0	0	0	0	0
0	0	0	1410	1395	1381	1365	1368	1368	1379	1390	1422	1422	1419	1412	1412	1397	1368	1359	1352	1359	1367	1367	1374	1382	1390	1388	1397	1402	1417	1417	1414	1407	1393	1388	1377	1366	1364	1373	1374	1374	1392	1393	1379	1383	1373	1378	1375	1388	1385	1382	1399	1402	1402	1401	1402	1398	1393	1386	1389	1402	1411	1429	1432	1400	1406	1414	1419	1417	1409	1405	1401	1394	1397	1397	1409	1424	1422	1410	1401	1407	1415	1421	1427	1432	1435	1421	1408	1406	1408	1413	1411	1405	1410	1415	1427	1418	1395	1383	1389	1407	1411	1390	1379	1378	1361	1360	1355	1346	1345	1348	1356	1367	1381	1386	1384	1386	1391	1394	1387	1380	1370	1347	1330	1335	1355	1381	1395	1403	1408	1395	1358	1364	1377	1389	1387	1387	1386	1387	1381	1372	1362	1364	1370	1366	1360	1360	1362	1363	1372	1388	1374	0	0	0	0	0	0	0	0	0	0	0	0	0	0	0	0	0	0	0	0	0	0	0	0	0	0	0	0	0	0	1599	1668	1682	1665	1645	1635	1633	1637	1658	1666	0	0	0	0	0	0	0	0	1396	1361	1361	1370	1373	1367	1356	1356	1357	1354	1350	1349	1358	1367	1368	1369	1359	1351	1360	1364	1364	1353	1353	1353	1349	1350	1350	1348	1347	1349	1351	1355	1361	1367	1375	1377	1376	1365	1355	1355	1359	1354	1355	1358	1365	1364	1358	1351	1341	1329	1324	1326	1334	1339	1344	1354	1362	1359	1360	1364	1361	1356	1350	1356	1361	1372	1374	1361	1354	1347	1342	1343	1345	1346	1337	1337	1342	1348	1349	1353	1364	1366	1362	1356	1350	1351	1352	1349	1349	1359	1371	1375	1380	1376	1374	1371	1355	1348	1345	1351	1348	1354	1360	1371	1373	1366	1354	1345	1341	1343	1351	1354	1355	1354	1353	1355	1358	1362	1372	1379	1380	1369	1353	1351	1353	1359	1363	1362	1364	1368	1356	1349	1352	1363	1365	1361	1356	1352	1355	1359	1362	1365	1357	1338	1346	1342	1342	1344	1341	1342	1335	1339	1339	1347	1363	1360	1354	1349	1348	1351	1356	1360	1360	1359	1353	1349	1344	1337	1333	1338	1347	1353	1353	1350	1347	1357	1360	1364	1361	1356	1345	1341	1341	1349	1367	1377	1382	1376	1365	1364	1358	1352	1349	1354	1364	1364	1363	1361	1358	1352	1337	1345	1347	1348	1352	1355	1355	1365	1363	1349	1346	1340	1339	1352	1350	1349	1350	1358	1366	1366	1356	1354	1353	1345	1343	1346	1346	1342	1339	1332	1323	1328	1348	1353	1355	1351	1356	1359	1357	1355	1357	1353	1351	1338	1339	1342	1347	1345	1333	1330	1334	1343	1349	1349	1343	1340	1346	1351	1355	1361	1366	1362	1363	1354	1341	1343	1342	1343	1348	1357	1356	1356	1351	1354	1360	1360	1358	1352	1357	1363	1364	1357	1350	1342	1337	1346	1349	1348	1347	1349	1352	1348	1347	1352	1355	1354	1350	1346	1341	1342	1335	1331	1340	1352	1356	1351	1347	1344	1339	1340	1338	1343	1343	1346	1344	1341	1344	1369	1367	0	0	0	0	0	0	0	0	0	0	0	0	0	0	1553	1567	0	0	0	0	0	0	0	0	0	0	1456	1452	1441	1428	1418	1426	1406	1400	1396	1401	1405	1403	1418	1440	1443	1426	1420	1410	1395	1404	1424	1449	1450	1440	1440	1461	1459	1462	1454	1438	1413	1400	1422	1431	1427	1426	0	0	0	0	0	0	0	0	0	0	0	0	0	0	1468	1453	1418	1403	1401	1400	1398	1374	1359	1350	1356	1365	1376	1376	1380	1380	1385	1381	1379	1374	1376	1375	1377	1385	1391	1398	1394	1386	1377	1369	1369	1369	1367	1366	1359	1352	1353	1361	0	0	0	0	0	0	0
0	0	0	1418	1402	1384	1365	1356	1356	1362	1375	1404	1415	1423	1418	1418	1406	1384	1366	1362	1379	1379	1379	1383	1388	1390	1386	1384	1390	1408	1414	1417	1420	1401	1380	1368	1371	1369	1371	1377	1377	1384	1388	1386	1375	1375	1377	1375	1392	1394	1391	1400	1400	1401	1396	1383	1394	1385	1383	1389	1400	1416	1427	1434	1404	1399	1417	1416	1417	1409	1412	1410	1402	1404	1404	1413	1423	1420	1423	1416	1420	1419	1422	1425	1429	1432	1426	1421	1412	1419	1422	1424	1417	1411	1419	1427	1415	1398	1379	1390	1401	1419	1400	1389	1381	1353	1349	1340	1333	1319	1325	1352	1372	1385	1389	1381	1376	1375	1382	1386	1380	1370	1357	1340	1346	1369	1383	1395	1402	1405	1397	1375	1377	1385	1388	1396	1402	1405	1402	1388	1379	1372	1371	1378	1377	1373	1371	1371	1376	1376	1373	1349	0	0	0	0	0	0	0	0	0	0	0	0	0	0	0	0	0	0	0	0	0	0	0	0	0	0	0	0	0	0	1637	1674	1681	1664	1644	1637	1635	1643	1663	0	0	0	0	0	0	0	0	1444	1404	1375	1380	1386	1390	1379	1354	1349	1354	1351	1352	1353	1357	1362	1362	1356	1351	1341	1351	1367	1367	1369	1367	1361	1361	1362	1353	1354	1352	1354	1358	1359	1356	1361	1367	1377	1383	1381	1371	1368	1361	1359	1358	1363	1373	1366	1356	1346	1340	1332	1329	1333	1343	1348	1347	1347	1357	1362	1365	1365	1366	1366	1358	1355	1362	1373	1375	1362	1352	1343	1340	1338	1340	1341	1341	1341	1349	1358	1364	1373	1377	1376	1373	1365	1354	1363	1367	1373	1368	1366	1375	1378	1372	1371	1370	1364	1357	1349	1339	1343	1347	1357	1360	1374	1377	1382	1368	1355	1346	1349	1350	1356	1365	1361	1360	1360	1366	1364	1372	1377	1380	1375	1357	1349	1348	1353	1363	1366	1373	1377	1360	1359	1360	1369	1371	1366	1361	1356	1357	1362	1365	1368	1362	1353	1340	1346	1340	1344	1348	1350	1356	1350	1355	1350	1376	1374	1371	1354	1346	1356	1362	1365	1368	1358	1350	1338	1344	1344	1342	1340	1341	1342	1347	1348	1347	1360	1364	1365	1363	1360	1357	1351	1345	1347	1365	1372	1375	1371	1370	1368	1364	1356	1352	1353	1360	1365	1367	1368	1358	1351	1350	1351	1351	1355	1355	1352	1358	1360	1360	1348	1348	1343	1341	1339	1348	1345	1353	1361	1369	1376	1368	1360	1360	1360	1355	1355	1358	1353	1355	1347	1340	1330	1343	1349	1359	1363	1361	1363	1366	1365	1358	1355	1351	1339	1340	1346	1352	1347	1339	1338	1340	1352	1354	1349	1349	1350	1355	1359	1361	1358	1358	1349	1347	1347	1344	1345	1342	1343	1343	1342	1352	1357	1360	1361	1360	1353	1349	1344	1351	1356	1361	1357	1348	1339	1337	1342	1343	1342	1343	1348	1347	1347	1343	1353	1357	1362	1357	1348	1346	1342	1331	1330	1339	1352	1356	1350	1348	1344	1336	1332	1334	1341	1344	1344	1338	1338	1341	1378	1388	0	0	0	0	0	0	0	0	0	0	0	0	0	0	1569	1558	1544	0	0	0	0	0	0	0	0	0	1445	1449	1438	1429	1429	1438	1408	1407	1403	1396	1420	1424	1433	1440	1439	1429	1427	1426	1410	1428	1446	1450	1428	1429	1437	1462	1467	1474	1454	1431	1412	1412	1423	1423	1418	1410	0	0	0	0	0	0	0	0	0	0	0	0	0	1458	1469	1459	1417	1394	1401	1395	1402	1395	1377	1363	1375	1379	1378	1374	1374	1374	1376	1386	1378	1374	1370	1368	1372	1374	1378	1376	1381	1384	1384	1384	1379	1379	1374	1366	1357	1344	1353	1357	0	0	0	0	0	0	0
0	0	0	1408	1401	1373	1353	1345	1345	1351	1358	1387	1408	1413	1412	1412	1401	1380	1379	1388	1397	1404	1404	1400	1406	1402	1387	1370	1373	1388	1388	1403	1414	1397	1360	1359	1368	1373	1372	1376	1376	1383	1390	1385	1375	1367	1364	1367	1395	1402	1398	1395	1395	1396	1390	1390	1378	1376	1381	1389	1402	1414	1427	1407	1401	1405	1415	1415	1414	1408	1411	1415	1419	1418	1418	1420	1427	1429	1435	1434	1428	1429	1417	1423	1424	1429	1429	1423	1419	1421	1429	1430	1421	1417	1424	1439	1436	1416	1389	1392	1404	1410	1396	1390	1375	1336	1333	1331	1321	1322	1329	1352	1374	1389	1390	1384	1378	1375	1375	1386	1383	1371	1354	1345	1357	1374	1387	1391	1382	1380	1396	1387	1388	1385	1382	1395	1401	1409	1403	1389	1380	1376	1384	1392	1400	1383	1382	1381	1372	1375	1371	1341	0	0	0	0	0	0	0	0	0	0	0	0	0	0	0	0	0	0	0	0	0	0	0	0	0	0	0	0	0	0	0	1678	1676	1663	1650	1648	1652	1662	1672	0	0	0	0	0	0	0	0	1456	1409	1382	1382	1383	1392	1382	1347	1350	1348	1350	1349	1353	1355	1359	1355	1352	1345	1344	1347	1364	1374	1375	1376	1378	1381	1375	1363	1361	1358	1359	1362	1361	1361	1360	1363	1378	1388	1385	1377	1371	1365	1361	1368	1377	1380	1370	1358	1346	1340	1333	1339	1355	1367	1369	1358	1357	1353	1366	1372	1370	1373	1373	1362	1359	1360	1365	1373	1367	1355	1349	1346	1346	1345	1341	1337	1344	1364	1369	1378	1376	1384	1378	1376	1369	1359	1362	1381	1385	1379	1378	1377	1374	1366	1363	1362	1352	1347	1345	1338	1344	1352	1364	1370	1375	1381	1384	1385	1368	1359	1354	1354	1362	1369	1362	1359	1358	1363	1364	1361	1367	1378	1381	1367	1354	1349	1349	1363	1367	1377	1381	1369	1366	1371	1375	1370	1369	1361	1360	1361	1366	1371	1369	1364	1355	1354	1353	1347	1345	1352	1363	1371	1358	1352	1356	1377	1382	1373	1350	1344	1361	1365	1369	1372	1364	1354	1346	1349	1351	1349	1346	1340	1341	1347	1352	1356	1359	1361	1366	1364	1364	1366	1368	1367	1364	1366	1363	1365	1371	1371	1370	1369	1363	1360	1361	1363	1367	1376	1374	1362	1353	1352	1352	1354	1355	1347	1343	1346	1350	1353	1354	1360	1351	1341	1336	1341	1350	1362	1368	1375	1380	1379	1377	1381	1373	1367	1365	1370	1373	1371	1367	1357	1346	1339	1351	1358	1365	1362	1356	1358	1354	1359	1353	1340	1339	1347	1357	1363	1362	1358	1354	1359	1360	1361	1354	1356	1356	1359	1362	1361	1353	1347	1343	1349	1353	1355	1355	1350	1346	1339	1340	1357	1359	1361	1359	1355	1350	1342	1344	1353	1359	1361	1358	1347	1338	1336	1341	1338	1343	1341	1344	1342	1340	1338	1349	1355	1361	1355	1350	1348	1348	1327	1327	1339	1350	1354	1349	1344	1340	1337	1335	1339	1339	1343	1348	1345	1336	1341	1367	1399	0	0	0	0	0	0	0	0	0	0	0	0	0	0	0	1568	0	0	0	0	0	0	0	0	0	0	1443	1441	1433	1426	1425	1442	1409	1418	1420	1431	1439	1431	1421	1408	1395	1414	1429	1437	1449	1445	1435	1425	1423	1432	1446	1480	1485	1473	1454	1428	1419	1416	1420	1415	1417	1401	0	0	0	0	0	0	0	0	0	0	0	0	1424	1440	1445	1441	1418	1400	1395	1403	1407	1401	1394	1383	1393	1394	1384	1376	1372	1372	1373	1389	1383	1371	1359	1354	1362	1365	1364	1367	1369	1380	1390	1391	1388	1388	1382	1368	1359	1353	1349	1356	0	0	0	0	0	0	0
0	0	0	1395	1393	1375	1356	1348	1348	1346	1357	1376	1395	1407	1396	1396	1380	1367	1381	1409	1415	1419	1419	1420	1418	1417	1381	1361	1361	1363	1363	1384	1382	1381	1353	1351	1363	1370	1374	1380	1380	1386	1399	1392	1380	1369	1369	1373	1388	1396	1403	1408	1408	1420	1406	1383	1377	1378	1381	1390	1400	1407	1419	1407	1407	1417	1423	1412	1404	1399	1402	1410	1419	1426	1426	1421	1427	1429	1430	1424	1428	1420	1406	1405	1423	1430	1430	1421	1419	1417	1418	1417	1418	1424	1429	1444	1452	1442	1416	1400	1397	1397	1393	1387	1373	1334	1328	1330	1330	1335	1350	1363	1380	1388	1389	1380	1376	1371	1374	1383	1381	1377	1368	1367	1376	1391	1393	1386	1377	1375	1377	1392	1382	1370	1374	1383	1393	1396	1397	1384	1377	1381	1393	1407	1412	1392	1386	1384	1363	1363	1367	1363	1369	0	0	0	0	0	0	0	0	0	0	0	0	0	0	0	0	0	0	0	0	0	0	0	0	0	0	0	0	0	0	1680	1668	1666	1667	1676	1677	1679	1680	0	0	0	0	0	0	0	0	1454	1409	1379	1381	1382	1380	1376	1357	1354	1351	1352	1352	1357	1362	1362	1359	1351	1348	1348	1356	1370	1376	1383	1382	1383	1390	1385	1374	1363	1360	1358	1361	1364	1368	1378	1376	1371	1375	1374	1371	1368	1368	1368	1372	1374	1379	1371	1366	1361	1351	1343	1349	1366	1382	1384	1378	1371	1369	1374	1381	1385	1378	1370	1362	1356	1356	1363	1366	1369	1358	1354	1357	1354	1353	1348	1343	1350	1368	1376	1380	1385	1380	1378	1370	1363	1363	1363	1371	1384	1381	1378	1372	1365	1359	1357	1353	1344	1338	1341	1345	1346	1361	1366	1370	1375	1378	1379	1382	1375	1362	1357	1349	1356	1363	1355	1353	1350	1350	1351	1357	1367	1375	1379	1374	1363	1353	1352	1361	1367	1376	1381	1380	1371	1373	1378	1374	1367	1365	1364	1368	1372	1372	1374	1367	1361	1362	1362	1353	1353	1366	1377	1371	1359	1347	1347	1376	1381	1386	1361	1348	1356	1363	1367	1378	1375	1369	1342	1346	1355	1354	1350	1348	1342	1348	1354	1353	1356	1359	1365	1374	1380	1387	1388	1385	1385	1369	1363	1366	1367	1367	1372	1370	1369	1370	1366	1362	1373	1383	1379	1368	1352	1358	1358	1356	1350	1342	1336	1334	1341	1350	1365	1377	1370	1351	1332	1337	1350	1362	1370	1373	1381	1391	1402	1407	1397	1389	1380	1376	1386	1388	1387	1372	1347	1338	1351	1358	1357	1352	1349	1348	1345	1335	1332	1328	1331	1348	1363	1372	1371	1372	1369	1373	1371	1364	1358	1354	1359	1362	1364	1362	1354	1348	1349	1357	1365	1369	1364	1350	1340	1336	1349	1368	1361	1358	1355	1351	1346	1344	1350	1366	1366	1366	1363	1358	1345	1345	1347	1348	1350	1349	1341	1332	1330	1336	1349	1355	1354	1348	1348	1346	1345	1325	1325	1334	1348	1348	1335	1335	1339	1339	1337	1341	1343	1336	1341	1342	1333	1350	1362	1466	0	0	0	0	0	0	0	0	0	0	0	0	0	0	0	0	0	0	0	0	0	0	0	0	0	0	1456	1449	1436	1426	1424	1438	1420	1422	1429	1421	1423	1426	1422	1416	1419	1424	1430	1435	1435	1437	1436	1431	1429	1436	1446	1456	1454	1450	1441	1430	1425	1430	1430	1430	1423	1414	0	0	0	0	0	0	0	0	0	1417	1397	1409	1421	1443	1448	1443	1430	1410	1408	1410	1409	1395	1390	1392	1399	1406	1393	1385	1379	1387	1387	1389	1382	1360	1355	1348	1354	1360	1367	1368	1367	1377	1386	1389	1387	1387	1381	1369	1363	1359	1361	1359	0	0	0	0	0	0	0
0	0	0	1364	1378	1372	1367	1360	1360	1361	1360	1374	1386	1394	1394	1385	1366	1364	1378	1403	1424	1427	1427	1436	1431	1430	1402	1378	1365	1365	1365	1367	1374	1350	1339	1346	1357	1364	1373	1377	1377	1386	1398	1393	1384	1376	1373	1376	1385	1392	1399	1405	1405	1403	1391	1391	1389	1390	1393	1390	1397	1405	1418	1415	1409	1416	1417	1413	1398	1380	1387	1398	1411	1411	1418	1421	1421	1426	1426	1426	1422	1418	1401	1401	1410	1428	1438	1431	1421	1409	1407	1405	1414	1425	1435	1446	1453	1447	1428	1405	1392	1383	1395	1389	1367	1347	1339	1344	1344	1353	1364	1369	1378	1377	1381	1371	1372	1368	1375	1383	1385	1384	1382	1383	1390	1388	1397	1388	1383	1374	1365	1376	1349	1359	1371	1380	1389	1391	1391	1386	1383	1384	1394	1409	1404	1391	1374	1372	1359	1360	1366	1362	1379	0	0	0	0	0	0	0	0	0	0	0	0	0	0	0	0	0	0	0	0	0	0	0	0	0	0	0	0	0	0	1677	1662	1661	1663	1678	1685	1686	1675	1567	0	0	0	0	0	0	0	1428	1403	1381	1373	1368	1363	1359	1355	1359	1364	1358	1357	1362	1368	1369	1360	1357	1353	1358	1364	1373	1378	1382	1376	1386	1388	1383	1372	1362	1358	1356	1359	1364	1378	1386	1379	1370	1367	1367	1365	1365	1368	1369	1368	1364	1368	1370	1375	1381	1375	1365	1355	1366	1389	1393	1387	1379	1382	1382	1381	1387	1374	1363	1357	1344	1354	1356	1358	1369	1367	1364	1361	1363	1359	1360	1356	1364	1372	1373	1371	1373	1378	1373	1370	1365	1358	1354	1366	1377	1376	1368	1367	1360	1353	1351	1351	1345	1337	1344	1351	1356	1362	1360	1366	1368	1369	1367	1369	1371	1363	1358	1344	1357	1358	1349	1343	1342	1345	1352	1359	1368	1373	1372	1370	1364	1355	1353	1360	1369	1376	1377	1378	1380	1379	1378	1375	1370	1368	1367	1373	1376	1379	1378	1373	1371	1370	1368	1357	1362	1370	1377	1369	1357	1352	1346	1369	1378	1392	1388	1367	1356	1357	1367	1366	1365	1370	1361	1348	1344	1345	1353	1356	1358	1359	1358	1354	1355	1360	1362	1355	1348	1353	1352	1344	1338	1331	1335	1336	1341	1345	1348	1352	1353	1352	1354	1360	1372	1374	1373	1369	1362	1348	1350	1348	1349	1349	1348	1352	1356	1360	1369	1364	1344	1319	1309	1323	1342	1360	1363	1349	1346	1349	1362	1379	1390	1398	1398	1388	1368	1363	1358	1354	1354	1341	1317	1303	1304	1319	1330	1329	1325	1340	1348	1356	1360	1366	1372	1370	1377	1377	1375	1376	1371	1365	1356	1361	1372	1373	1374	1370	1372	1371	1378	1379	1379	1377	1366	1351	1328	1329	1350	1371	1362	1355	1348	1347	1346	1345	1351	1360	1371	1386	1393	1366	1360	1357	1353	1356	1361	1351	1339	1321	1325	1328	1339	1344	1336	1334	1339	1344	1343	1322	1316	1321	1326	1327	1327	1333	1352	1349	1339	1328	1325	1331	1347	1344	1343	1348	1347	1428	0	0	0	0	0	0	0	0	0	0	0	0	0	0	0	0	0	0	0	0	0	0	0	0	0	0	1475	1471	1452	1432	1435	1435	1421	1433	1434	1425	1423	1420	1422	1422	1422	1423	1424	1423	1421	1420	1421	1419	1421	1432	1442	1448	1452	1446	1430	1416	1408	1414	1421	1432	1450	1441	0	0	0	0	0	0	0	0	1462	1433	1423	1424	1444	1453	1461	1458	1454	1441	1427	1425	1402	1389	1392	1393	1395	1401	1396	1389	1388	1385	1385	1385	1369	1364	1366	1358	1356	1365	1368	1368	1366	1366	1376	1379	1370	1370	1367	1365	1364	1367	1357	1366	0	0	0	0	0	0	0
0	0	0	1355	1351	1370	1371	1372	1372	1366	1365	1383	1385	1387	1387	1377	1363	1362	1373	1397	1405	1415	1415	1426	1432	1434	1414	1383	1375	1373	1373	1376	1368	1353	1338	1341	1355	1363	1366	1366	1377	1387	1392	1391	1383	1375	1377	1378	1384	1391	1397	1399	1399	1391	1388	1391	1396	1401	1399	1396	1405	1413	1428	1415	1408	1405	1405	1401	1385	1378	1381	1392	1403	1403	1410	1412	1415	1415	1419	1430	1433	1435	1411	1405	1408	1427	1440	1438	1420	1405	1398	1402	1414	1419	1426	1430	1432	1436	1425	1409	1392	1383	1382	1386	1376	1358	1356	1360	1363	1365	1367	1365	1364	1357	1359	1362	1368	1369	1379	1391	1394	1395	1396	1390	1386	1383	1379	1383	1387	1376	1361	1343	1350	1359	1373	1383	1391	1390	1387	1382	1381	1383	1387	1398	1402	1394	1380	1380	1357	1363	1369	1364	1392	0	0	0	0	0	0	0	0	0	0	0	0	0	0	0	0	0	0	0	0	0	0	0	0	0	0	0	0	0	0	1656	1649	1642	1652	1666	1674	1675	1671	1571	1538	0	0	0	0	0	1400	1420	1404	1385	1370	1361	1347	1344	1360	1373	1380	1376	1376	1372	1373	1373	1368	1362	1360	1365	1369	1369	1375	1373	1366	1368	1370	1369	1363	1352	1357	1360	1362	1373	1383	1397	1396	1376	1363	1358	1361	1364	1367	1366	1359	1356	1354	1363	1377	1393	1392	1372	1363	1368	1387	1395	1384	1374	1373	1376	1381	1380	1370	1354	1346	1342	1346	1351	1358	1370	1368	1367	1366	1365	1366	1366	1375	1378	1378	1369	1367	1364	1365	1367	1363	1362	1351	1349	1360	1367	1366	1363	1355	1351	1349	1348	1349	1352	1351	1359	1362	1362	1361	1358	1357	1352	1345	1346	1349	1359	1361	1361	1359	1358	1355	1353	1348	1342	1349	1366	1382	1389	1381	1369	1367	1363	1362	1363	1364	1368	1373	1375	1375	1378	1380	1382	1382	1379	1375	1374	1380	1378	1385	1386	1384	1383	1378	1369	1365	1365	1373	1374	1367	1360	1351	1376	1393	1394	1384	1382	1388	1373	1357	1361	1366	1365	1357	1345	1341	1335	1337	1343	1350	1356	1360	1349	1342	1344	1354	1354	1352	1348	1352	1350	1343	1339	1345	1340	1337	1334	1332	1335	1341	1343	1350	1356	1361	1363	1364	1368	1367	1363	1348	1346	1349	1355	1360	1360	1365	1369	1365	1366	1359	1342	1321	1306	1322	1340	1354	1364	1353	1344	1345	1355	1372	1386	1399	1400	1387	1367	1362	1355	1352	1349	1341	1323	1308	1306	1321	1332	1330	1330	1340	1350	1359	1372	1382	1387	1380	1371	1368	1355	1344	1343	1341	1338	1338	1348	1362	1364	1358	1348	1338	1331	1329	1335	1348	1365	1370	1361	1346	1334	1324	1321	1329	1349	1359	1357	1350	1348	1354	1363	1362	1361	1346	1340	1349	1359	1370	1363	1344	1331	1329	1328	1332	1330	1329	1331	1334	1330	1329	1328	1322	1326	1333	1343	1352	1357	1361	1359	1358	1341	1328	1327	1336	1346	1353	1345	1351	1344	1358	1383	0	0	0	0	0	0	0	0	0	0	0	0	0	0	0	0	0	0	0	0	0	0	0	0	0	1501	1485	1464	1454	1443	1439	1419	1430	1430	1426	1422	1422	1426	1429	1429	1420	1417	1418	1414	1419	1417	1418	1425	1433	1443	1445	1445	1443	1433	1418	1403	1402	1412	1423	1448	1467	0	0	0	0	0	0	0	0	1466	1445	1444	1448	1455	1464	1478	1478	1471	1456	1449	1435	1425	1404	1392	1383	1383	1390	1385	1381	1389	1380	1380	1377	1367	1373	1379	1373	1370	1372	1383	1375	1363	1360	1357	1359	1348	1348	1358	1358	1360	1359	1348	1358	0	0	0	0	0	0	0
0	0	0	1358	1346	1359	1374	1374	1374	1370	1379	1383	1385	1380	1380	1377	1371	1371	1376	1384	1390	1390	1387	1401	1417	1418	1410	1389	1381	1379	1379	1377	1373	1358	1342	1352	1365	1375	1381	1370	1371	1373	1387	1389	1380	1376	1369	1377	1391	1405	1402	1394	1394	1387	1384	1394	1399	1407	1405	1412	1417	1426	1428	1422	1398	1391	1391	1389	1392	1392	1396	1398	1397	1397	1399	1410	1410	1408	1413	1431	1443	1445	1422	1411	1410	1429	1445	1446	1427	1408	1397	1404	1416	1412	1413	1408	1415	1417	1417	1410	1398	1381	1381	1384	1371	1361	1368	1376	1374	1374	1369	1360	1353	1346	1341	1353	1359	1370	1379	1391	1393	1399	1398	1388	1378	1369	1374	1382	1390	1386	1371	1342	1349	1361	1371	1400	1406	1384	1379	1375	1375	1379	1385	1395	1402	1393	1386	1379	1362	1368	1371	1377	1406	0	0	0	0	0	0	0	0	0	0	0	0	0	0	0	0	0	0	0	0	0	0	0	0	0	0	0	0	0	0	1633	1633	1624	1634	1641	1650	1662	1665	1580	1546	1482	1430	1402	1391	1389	1407	1414	1393	1388	1374	1355	1343	1336	1361	1369	1373	1384	1384	1378	1379	1374	1370	1367	1368	1367	1367	1365	1361	1359	1354	1354	1354	1358	1359	1354	1360	1366	1368	1372	1382	1390	1390	1374	1353	1343	1341	1350	1357	1358	1357	1355	1351	1356	1374	1381	1382	1375	1362	1359	1369	1371	1360	1350	1346	1350	1360	1372	1367	1363	1357	1368	1369	1378	1368	1362	1364	1368	1379	1390	1392	1397	1399	1391	1374	1362	1360	1360	1353	1359	1353	1349	1350	1355	1361	1357	1360	1353	1348	1346	1346	1348	1350	1351	1358	1363	1370	1362	1356	1352	1351	1355	1354	1355	1358	1363	1365	1364	1364	1369	1371	1378	1376	1370	1371	1384	1386	1383	1371	1373	1367	1369	1378	1386	1397	1393	1382	1375	1372	1374	1378	1379	1368	1368	1362	1368	1374	1374	1373	1377	1383	1380	1384	1381	1370	1361	1368	1372	1376	1384	1399	1406	1407	1410	1400	1405	1374	1379	1365	1360	1361	1359	1354	1342	1334	1333	1337	1341	1342	1352	1350	1341	1333	1333	1341	1348	1350	1360	1363	1364	1359	1353	1350	1340	1336	1330	1327	1328	1340	1352	1360	1362	1360	1361	1360	1353	1358	1345	1334	1334	1349	1359	1369	1374	1376	1376	1364	1345	1333	1335	1342	1332	1331	1340	1337	1344	1355	1352	1346	1341	1333	1329	1340	1361	1363	1364	1360	1353	1349	1348	1348	1344	1348	1345	1342	1342	1342	1339	1340	1346	1355	1363	1378	1384	1378	1370	1368	1362	1352	1336	1343	1336	1332	1342	1357	1361	1356	1346	1337	1327	1326	1331	1346	1365	1378	1361	1348	1332	1326	1326	1333	1351	1364	1354	1350	1345	1352	1357	1362	1359	1349	1348	1352	1360	1371	1362	1344	1335	1330	1332	1333	1338	1337	1341	1338	1330	1329	1321	1333	1337	1341	1348	1351	1358	1362	1365	1363	1352	1339	1345	1353	1361	1362	1347	1347	1349	1380	1382	1401	0	0	0	0	0	0	0	0	0	0	0	0	0	0	0	0	0	1567	0	0	0	0	0	0	1507	1482	1462	1447	1435	1435	1402	1430	1433	1429	1426	1422	1428	1431	1428	1421	1415	1415	1415	1417	1414	1420	1428	1434	1438	1437	1440	1438	1429	1420	1416	1405	1409	1417	1434	1463	0	0	0	0	0	0	0	0	1473	1461	1456	1458	1466	1464	1480	1479	1468	1455	1449	1445	1436	1423	1397	1379	1375	1381	1378	1377	1377	1374	1374	1371	1375	1384	1385	1377	1376	1384	1386	1382	1368	1359	1349	1347	1344	1344	1349	1363	1361	1347	1351	1340	0	0	0	0	0	0	0
0	0	0	1361	1344	1354	1368	1379	1379	1385	1387	1397	1388	1375	1375	1376	1386	1395	1390	1384	1377	1377	1374	1380	1407	1410	1388	1382	1375	1377	1377	1380	1372	1364	1356	1362	1369	1383	1388	1388	1389	1390	1383	1385	1375	1368	1368	1377	1391	1410	1408	1404	1404	1393	1389	1396	1405	1418	1419	1425	1429	1427	1425	1415	1401	1385	1387	1383	1390	1395	1400	1401	1401	1401	1405	1412	1415	1417	1416	1427	1430	1432	1415	1406	1410	1426	1449	1458	1443	1418	1404	1400	1416	1415	1409	1409	1409	1414	1411	1406	1400	1391	1380	1382	1380	1363	1373	1382	1386	1378	1372	1362	1358	1353	1352	1348	1354	1363	1375	1389	1396	1396	1392	1369	1358	1357	1370	1384	1394	1397	1385	1358	1353	1359	1364	1368	1371	1377	1365	1365	1367	1376	1383	1394	1399	1391	1378	1375	1367	1367	1368	1387	1426	0	0	0	0	0	0	0	0	0	0	0	0	0	0	0	0	0	0	0	0	0	0	0	0	0	0	0	0	0	0	1617	1619	1630	1636	1635	1635	1646	1646	1579	1534	1399	1344	1349	1354	1364	1381	1392	1389	1382	1368	1353	1346	1340	1348	1358	1359	1362	1367	1371	1365	1371	1370	1373	1361	1356	1361	1358	1356	1353	1356	1352	1356	1362	1363	1363	1362	1368	1370	1366	1372	1379	1372	1364	1350	1336	1334	1351	1353	1357	1360	1353	1361	1358	1361	1369	1358	1349	1347	1348	1358	1361	1357	1348	1346	1347	1356	1367	1376	1381	1371	1369	1368	1374	1364	1359	1363	1371	1389	1399	1400	1392	1387	1381	1373	1367	1362	1355	1355	1349	1347	1350	1353	1355	1356	1358	1357	1350	1340	1335	1334	1339	1343	1346	1363	1374	1371	1363	1350	1340	1343	1349	1351	1352	1351	1351	1352	1360	1367	1374	1380	1381	1376	1378	1379	1380	1376	1370	1362	1360	1369	1370	1377	1382	1382	1387	1379	1379	1377	1380	1381	1373	1359	1357	1354	1360	1363	1362	1364	1371	1375	1380	1387	1392	1380	1365	1361	1366	1369	1382	1378	1437	1428	0	1406	1408	1374	1372	1367	1363	1363	1361	1353	1343	1337	1340	1342	1344	1342	1346	1343	1335	1331	1332	1340	1345	1352	1356	1362	1361	1358	1356	1352	1344	1341	1338	1338	1338	1346	1361	1373	1374	1366	1356	1346	1343	1343	1335	1329	1340	1353	1363	1371	1373	1373	1364	1353	1338	1334	1339	1347	1351	1347	1345	1342	1341	1343	1349	1350	1340	1333	1330	1340	1354	1364	1363	1359	1353	1347	1347	1349	1357	1361	1359	1354	1344	1338	1339	1343	1342	1348	1357	1361	1372	1370	1362	1355	1350	1344	1332	1337	1331	1331	1335	1341	1348	1347	1343	1331	1326	1327	1333	1344	1359	1362	1369	1360	1349	1333	1335	1345	1347	1342	1341	1347	1348	1352	1357	1368	1360	1354	1356	1353	1352	1365	1361	1346	1339	1336	1343	1349	1355	1354	1351	1342	1334	1328	1337	1344	1354	1351	1351	1345	1350	1362	1368	1361	1352	1361	1365	1370	1375	1373	1351	1349	1352	1363	1392	1410	0	0	0	0	0	0	0	0	0	0	0	0	0	0	0	0	1573	1565	1550	1543	0	0	0	0	1508	1459	1445	1441	1433	1428	1402	1432	1436	1432	1426	1423	1427	1429	1430	1424	1420	1417	1417	1414	1415	1420	1428	1429	1432	1432	1432	1433	1426	1420	1425	1423	1417	1412	1418	1455	0	0	0	0	0	0	0	0	0	1465	1474	1467	1458	1456	1460	1450	1452	1440	1444	1434	1432	1413	1391	1377	1379	1374	1372	1371	1371	1369	1369	1368	1375	1380	1381	1376	1375	1382	1390	1391	1378	1369	1359	1351	1346	1346	1355	1368	1385	1374	1357	1343	0	0	0	0	0	0	0
0	0	0	1365	1353	1355	1370	1394	1394	1401	1406	1403	1396	1386	1386	1391	1408	1409	1397	1384	1376	1376	1369	1382	1394	1393	1386	1372	1371	1371	1377	1373	1376	1375	1370	1365	1363	1380	1391	1391	1402	1397	1392	1389	1386	1369	1368	1379	1392	1408	1414	1414	1408	1398	1400	1405	1414	1421	1434	1436	1434	1424	1417	1414	1407	1386	1379	1379	1383	1393	1397	1401	1401	1410	1423	1434	1436	1434	1431	1421	1417	1414	1409	1401	1401	1423	1453	1464	1457	1433	1413	1410	1416	1422	1417	1411	1413	1415	1413	1413	1404	1400	1393	1385	1379	1374	1380	1385	1393	1388	1385	1383	1374	1370	1361	1358	1352	1359	1369	1394	1397	1395	1379	1359	1354	1358	1374	1390	1397	1397	1396	1381	1366	1365	1362	1361	1366	1363	1353	1357	1362	1366	1374	1385	1385	1388	1377	1374	1367	1360	1360	1398	1444	0	0	0	0	0	0	0	0	0	0	0	0	0	0	0	0	0	0	0	0	0	0	0	0	0	0	0	0	0	0	1617	1636	1640	1643	1638	1631	1639	1632	1565	1399	1349	1349	1361	1362	1366	1368	1374	1370	1369	1363	1361	1353	1346	1342	1349	1354	1356	1350	1341	1346	1351	1361	1364	1359	1344	1343	1343	1346	1353	1354	1358	1361	1358	1362	1358	1361	1366	1364	1356	1359	1371	1372	1366	1346	1330	1331	1349	1355	1363	1361	1363	1366	1362	1357	1359	1356	1347	1340	1350	1359	1363	1363	1359	1353	1348	1341	1349	1374	1378	1376	1369	1363	1364	1352	1353	1360	1378	1393	1398	1386	1379	1372	1371	1369	1369	1367	1349	1341	1345	1345	1352	1357	1362	1353	1357	1354	1347	1336	1330	1333	1334	1334	1346	1355	1367	1367	1353	1343	1340	1338	1340	1341	1340	1347	1348	1344	1353	1362	1372	1380	1388	1386	1391	1388	1383	1374	1365	1364	1365	1369	1371	1374	1365	1367	1368	1369	1377	1374	1379	1371	1357	1352	1341	1348	1365	1366	1367	1368	1376	1372	1383	1389	1391	1384	1369	1359	1357	1361	1356	1431	0	0	0	0	1420	1373	1362	1359	1362	1367	1368	1361	1352	1346	1344	1339	1347	1351	1357	1352	1344	1339	1345	1352	1358	1357	1357	1354	1350	1350	1356	1355	1352	1350	1348	1345	1348	1356	1370	1370	1371	1370	1361	1351	1344	1337	1334	1338	1350	1363	1371	1370	1367	1354	1355	1347	1339	1335	1342	1343	1358	1355	1347	1339	1337	1334	1335	1340	1340	1331	1332	1340	1348	1358	1367	1363	1352	1343	1347	1353	1350	1363	1361	1354	1341	1339	1338	1346	1343	1341	1342	1348	1356	1358	1352	1347	1343	1338	1337	1337	1339	1330	1334	1339	1341	1342	1342	1337	1328	1331	1339	1345	1355	1367	1370	1358	1347	1336	1343	1351	1348	1343	1344	1349	1347	1352	1362	1369	1371	1370	1363	1348	1337	1350	1349	1348	1340	1340	1346	1355	1364	1362	1354	1342	1335	1335	1342	1354	1367	1364	1363	1356	1358	1361	1352	1343	1339	1349	1368	1376	1375	1374	1365	1352	1352	1368	1388	1415	0	0	0	0	0	0	0	0	0	0	0	0	0	0	0	0	1561	1554	1533	1528	1524	0	0	0	1485	1462	1457	1440	1429	1424	1410	1437	1440	1428	1420	1421	1429	1428	1429	1430	1427	1423	1421	1417	1414	1418	1425	1429	1432	1430	1425	1422	1422	1425	1433	1430	1419	1412	1416	1439	0	0	0	0	0	0	0	0	0	0	0	1463	1447	1439	1436	1432	1427	1427	1419	1416	1391	1384	1362	1371	1383	1374	1370	1368	1373	1377	1377	1371	1374	1370	1370	1362	1368	1387	1395	1392	1389	1386	1379	1363	1355	1353	1353	1361	1385	1377	1361	1352	0	0	0	0	0	0	0
0	0	0	1370	1364	1359	1382	1406	1406	1409	1417	1409	1389	1393	1393	1399	1409	1405	1400	1396	1386	1386	1376	1377	1383	1386	1384	1379	1383	1383	1376	1376	1378	1388	1384	1362	1360	1371	1386	1386	1396	1400	1402	1400	1397	1390	1376	1376	1388	1403	1412	1412	1412	1413	1415	1421	1425	1427	1437	1439	1437	1433	1420	1414	1397	1380	1371	1377	1378	1386	1399	1405	1405	1420	1442	1461	1468	1460	1441	1418	1407	1409	1408	1398	1396	1414	1448	1461	1457	1440	1420	1409	1414	1422	1420	1416	1413	1413	1418	1414	1413	1415	1402	1396	1391	1384	1381	1395	1402	1401	1403	1401	1392	1378	1367	1354	1345	1349	1359	1391	1405	1399	1379	1361	1362	1368	1380	1391	1396	1389	1388	1390	1382	1372	1373	1366	1367	1361	1360	1356	1356	1356	1360	1369	1370	1378	1372	1371	1371	1359	1348	1394	1447	0	0	0	0	0	0	0	0	0	0	0	0	0	0	0	0	0	0	0	0	0	0	0	0	0	0	0	0	0	0	1629	1645	1653	1651	1642	1629	1637	1647	1527	1411	1361	1363	1363	1358	1356	1350	1361	1365	1372	1368	1363	1364	1358	1341	1340	1349	1357	1346	1335	1329	1330	1330	1337	1349	1341	1336	1341	1344	1348	1359	1364	1362	1354	1351	1355	1355	1360	1356	1355	1354	1366	1367	1357	1332	1331	1335	1348	1360	1365	1371	1361	1362	1358	1354	1355	1355	1352	1349	1359	1368	1373	1375	1376	1366	1345	1328	1332	1351	1366	1362	1357	1351	1344	1347	1351	1362	1377	1384	1370	1356	1354	1354	1362	1368	1369	1354	1347	1336	1338	1339	1350	1360	1365	1370	1363	1356	1345	1335	1335	1326	1334	1338	1339	1347	1359	1360	1352	1342	1338	1336	1335	1336	1342	1349	1344	1342	1343	1343	1364	1378	1395	1400	1402	1393	1386	1376	1364	1357	1356	1367	1370	1363	1353	1349	1350	1352	1357	1365	1370	1360	1350	1338	1337	1350	1364	1374	1376	1374	1375	1366	1374	1375	1377	1372	1362	1356	1355	1351	1344	0	0	0	0	0	1409	1369	1354	1351	1361	1368	1363	1371	1360	1339	1337	1336	1345	1358	1366	1368	1359	1351	1358	1366	1371	1365	1357	1348	1347	1346	1354	1358	1354	1356	1351	1350	1350	1349	1354	1356	1364	1366	1363	1353	1349	1344	1343	1342	1361	1373	1375	1367	1352	1345	1341	1352	1350	1346	1340	1353	1359	1355	1355	1339	1330	1329	1331	1339	1341	1332	1331	1338	1343	1352	1362	1364	1352	1344	1340	1342	1348	1359	1359	1347	1344	1345	1348	1353	1344	1335	1334	1339	1349	1352	1348	1343	1335	1335	1336	1342	1342	1331	1326	1330	1333	1334	1337	1342	1351	1356	1363	1353	1357	1359	1361	1358	1347	1342	1347	1352	1354	1343	1349	1352	1348	1352	1362	1373	1376	1373	1362	1348	1336	1341	1345	1344	1341	1343	1347	1353	1354	1353	1349	1341	1336	1338	1344	1353	1372	1364	1358	1357	1353	1349	1340	1330	1328	1343	1366	1370	1367	1366	1364	1345	1342	1355	1386	1441	0	0	0	0	0	0	0	0	0	0	0	0	0	0	0	0	1531	1515	1513	1517	1516	1514	1506	1514	1491	1486	1461	1450	1427	1433	1429	1440	1439	1436	1423	1417	1425	1427	1428	1434	1434	1432	1429	1421	1417	1415	1419	1428	1431	1430	1425	1419	1420	1428	1428	1417	1417	1421	1426	1435	0	0	0	0	0	0	0	0	0	0	0	0	1442	1428	1428	1425	1420	1417	1406	1389	1376	1367	1359	1364	1378	1382	1375	1373	1378	1385	1385	1379	1375	1370	1365	1365	1373	1388	1391	1392	1388	1375	1360	1348	1341	1345	1345	1356	1361	1362	1363	1359	0	0	0	0	0	0	0
0	0	0	1371	1373	1370	1378	1378	1409	1404	1400	1387	1389	1403	1403	1409	1410	1407	1400	1392	1379	1379	1380	1378	1382	1390	1392	1400	1399	1399	1388	1378	1384	1394	1392	1369	1355	1365	1380	1380	1402	1409	1411	1409	1400	1392	1384	1377	1379	1385	1396	1406	1411	1417	1425	1437	1436	1429	1429	1434	1439	1433	1431	1419	1405	1386	1375	1371	1379	1390	1397	1415	1415	1432	1455	1467	1468	1456	1434	1415	1410	1412	1414	1410	1410	1421	1445	1455	1447	1434	1419	1408	1421	1424	1420	1415	1409	1412	1411	1421	1423	1425	1414	1406	1391	1393	1388	1394	1401	1409	1410	1404	1386	1368	1355	1352	1349	1348	1352	1379	1405	1409	1391	1377	1377	1380	1390	1396	1386	1377	1379	1395	1400	1380	1380	1373	1374	1369	1372	1366	1365	1359	1360	1367	1364	1363	1354	1366	1369	1358	1349	1374	1415	0	0	0	0	0	0	0	0	0	0	0	0	0	0	0	0	0	0	0	0	0	0	0	0	0	0	0	0	0	0	1630	1653	1656	1651	1647	1628	1637	1654	1503	1422	1362	1354	1345	1339	1337	1346	1350	1354	1364	1357	1362	1374	1372	1345	1341	1344	1343	1342	1335	1333	1329	1326	1336	1348	1354	1341	1340	1339	1340	1351	1355	1356	1354	1352	1355	1349	1356	1353	1353	1357	1362	1362	1345	1335	1334	1335	1346	1363	1376	1371	1350	1348	1344	1346	1352	1354	1357	1366	1370	1372	1379	1380	1379	1369	1355	1333	1327	1345	1360	1359	1351	1345	1339	1343	1353	1366	1369	1362	1352	1342	1340	1348	1357	1367	1366	1363	1347	1338	1325	1326	1340	1361	1370	1375	1368	1358	1347	1342	1343	1340	1338	1345	1337	1342	1348	1351	1343	1339	1341	1333	1328	1332	1343	1353	1351	1345	1332	1337	1350	1372	1391	1402	1402	1398	1384	1371	1358	1346	1350	1359	1364	1357	1347	1342	1338	1338	1341	1347	1353	1345	1341	1340	1341	1353	1365	1376	1375	1375	1368	1363	1360	1360	1352	1349	1342	1343	1349	1345	1338	0	0	0	0	0	1393	1362	1348	1343	1347	1369	1375	1370	1353	1336	1333	1337	1347	1359	1370	1371	1363	1360	1364	1372	1374	1371	1360	1351	1345	1341	1352	1355	1357	1354	1351	1345	1340	1339	1340	1347	1357	1359	1359	1359	1352	1346	1340	1340	1357	1368	1364	1360	1352	1335	1346	1350	1352	1344	1348	1351	1355	1356	1353	1342	1331	1322	1322	1332	1335	1335	1335	1340	1340	1341	1347	1352	1350	1342	1333	1335	1354	1354	1345	1349	1349	1348	1349	1349	1343	1334	1335	1340	1347	1348	1345	1341	1336	1334	1338	1344	1348	1338	1329	1330	1332	1329	1336	1339	1350	1359	1362	1358	1350	1338	1337	1335	1350	1344	1346	1352	1348	1348	1346	1345	1346	1353	1363	1375	1379	1373	1361	1351	1343	1344	1337	1337	1335	1335	1346	1344	1346	1345	1342	1339	1337	1343	1345	1358	1367	1361	1354	1352	1348	1345	1338	1336	1335	1352	1364	1363	1363	1360	1354	1337	1333	1358	1407	0	0	0	0	0	0	0	0	0	0	0	0	0	0	0	0	0	0	1497	1503	1512	1514	1516	1518	1506	1501	1495	1486	1463	1440	1439	1438	1436	1440	1439	1427	1417	1416	1427	1436	1439	1442	1441	1436	1426	1418	1414	1421	1425	1428	1423	1420	1420	1423	1421	1417	1415	1411	1419	1430	1423	1420	0	0	0	0	0	0	0	0	0	0	0	1441	1436	1437	1434	1416	1403	1392	1384	1379	1377	1372	1370	1377	1378	1380	1381	1384	1388	1379	1379	1375	1369	1365	1364	1376	1375	1379	1377	1369	1366	1348	1332	1328	1336	1336	1346	1349	1353	1357	1360	0	0	0	0	0	0	0
0	0	0	1379	1377	1378	1387	1387	1395	1397	1389	1388	1396	1401	1401	1403	1404	1399	1395	1379	1375	1375	1377	1380	1394	1398	1405	1406	1403	1403	1399	1393	1390	1397	1394	1373	1358	1369	1388	1388	1403	1411	1411	1408	1396	1390	1389	1383	1385	1386	1384	1384	1395	1405	1419	1437	1435	1420	1411	1422	1427	1431	1436	1435	1411	1394	1382	1384	1383	1393	1396	1408	1408	1422	1443	1455	1438	1432	1419	1410	1406	1414	1423	1430	1433	1427	1443	1439	1427	1413	1409	1417	1420	1420	1418	1412	1413	1418	1418	1426	1426	1426	1420	1406	1390	1385	1385	1384	1398	1400	1400	1393	1369	1366	1360	1360	1361	1354	1361	1390	1409	1412	1401	1386	1382	1393	1394	1392	1383	1371	1377	1398	1392	1381	1378	1372	1373	1373	1378	1377	1378	1371	1365	1370	1374	1359	1341	1341	1369	1370	1359	1366	1400	0	0	0	0	0	0	0	0	0	0	0	0	0	0	0	0	0	0	0	0	0	0	0	0	0	0	0	0	0	0	1634	1648	1654	1648	1639	1640	1646	1657	1517	1433	1346	1344	1333	1332	1329	1339	1342	1344	1342	1350	1356	1401	1402	1370	1363	1362	1359	1347	1337	1332	1330	1333	1342	1357	1365	1355	1340	1334	1338	1339	1340	1348	1358	1358	1358	1364	1359	1354	1355	1358	1360	1354	1349	1343	1338	1334	1344	1363	1379	1376	1334	1330	1329	1333	1340	1350	1361	1373	1377	1373	1374	1376	1373	1366	1353	1339	1337	1342	1353	1357	1353	1339	1335	1339	1353	1360	1356	1346	1344	1338	1335	1339	1349	1356	1362	1367	1366	1352	1329	1322	1326	1355	1373	1382	1375	1370	1361	1359	1360	1361	1356	1343	1337	1335	1339	1344	1342	1343	1343	1335	1329	1332	1348	1359	1362	1353	1345	1341	1346	1369	1385	1391	1390	1388	1379	1357	1341	1335	1336	1357	1362	1356	1349	1345	1341	1333	1334	1335	1339	1336	1334	1341	1345	1354	1362	1361	1359	1360	1360	1352	1345	1342	1342	1338	1330	1329	1333	1338	1364	0	0	0	0	0	1381	1358	1342	1339	1344	1354	1364	1354	1341	1329	1333	1346	1352	1361	1370	1368	1364	1356	1356	1363	1371	1368	1358	1355	1348	1344	1343	1349	1352	1352	1348	1338	1333	1326	1330	1336	1352	1356	1360	1355	1352	1344	1340	1334	1348	1353	1346	1346	1342	1337	1345	1351	1351	1351	1349	1348	1349	1353	1349	1343	1333	1322	1322	1329	1336	1340	1345	1346	1340	1335	1338	1345	1344	1338	1331	1331	1356	1361	1357	1351	1352	1351	1345	1336	1333	1334	1340	1347	1358	1354	1347	1339	1336	1330	1332	1339	1348	1357	1344	1335	1333	1330	1334	1338	1344	1352	1360	1355	1351	1336	1328	1325	1328	1330	1331	1336	1340	1343	1342	1343	1345	1352	1366	1378	1382	1373	1364	1356	1342	1346	1348	1348	1336	1337	1343	1349	1350	1341	1335	1337	1335	1338	1347	1356	1363	1355	1351	1349	1343	1341	1339	1348	1354	1362	1365	1359	1355	1358	1349	1334	1339	1363	1434	0	0	0	0	0	0	0	0	0	0	0	0	0	0	0	0	0	0	0	0	1510	1522	1527	1526	1508	1505	1500	1487	1467	1455	1448	1431	1433	1439	1439	1438	1431	1429	1428	1436	1445	1453	1450	1443	1432	1419	1412	1413	1419	1418	1416	1417	1422	1425	1420	1412	1413	1409	1403	1422	1414	1408	0	0	0	0	0	0	0	0	0	0	0	0	1448	1447	0	1410	1389	1388	1397	1402	1408	1403	1381	1382	1380	1381	1385	1389	1380	1374	1374	1366	1353	1351	1357	1360	1359	1364	1370	1369	1360	1345	1332	1327	1327	1327	1335	1341	1342	1350	1365	0	0	0	0	0	0	0
0	0	0	1391	1386	1386	1389	1389	1389	1390	1389	1397	1388	1390	1390	1387	1392	1393	1391	1375	1373	1373	1380	1386	1398	1400	1401	1406	1405	1405	1400	1393	1397	1400	1401	1387	1381	1384	1400	1400	1408	1409	1403	1401	1389	1386	1393	1400	1397	1392	1390	1390	1384	1392	1399	1411	1426	1420	1406	1409	1420	1431	1446	1442	1424	1410	1396	1395	1390	1390	1384	1394	1394	1405	1414	1416	1409	1403	1401	1399	1407	1415	1435	1449	1451	1451	1437	1428	1421	1411	1415	1424	1422	1417	1415	1410	1410	1426	1429	1433	1421	1417	1411	1399	1371	1370	1374	1383	1389	1393	1391	1381	1373	1373	1381	1390	1388	1384	1394	1406	1409	1404	1402	1395	1391	1389	1381	1383	1377	1365	1374	1381	1367	1366	1367	1368	1367	1366	1368	1371	1373	1372	1373	1368	1379	1368	1348	1357	1381	1378	1376	1376	1395	0	0	0	0	0	0	0	0	0	0	0	0	0	0	0	0	0	0	0	0	0	0	0	0	0	0	0	0	0	0	1622	1645	1642	1641	1644	1652	1653	1659	1532	1467	1333	1337	1342	1336	1344	1344	1338	1332	1329	1342	1355	1394	1396	1389	1385	1377	1376	1358	1348	1336	1333	1341	1360	1369	1372	1359	1347	1343	1342	1326	1329	1350	1368	1371	1376	1370	1368	1359	1358	1354	1354	1349	1351	1341	1337	1335	1350	1361	1372	1374	1326	1324	1318	1328	1334	1350	1366	1370	1375	1371	1362	1362	1359	1353	1347	1340	1338	1343	1350	1356	1352	1348	1340	1344	1355	1359	1355	1342	1340	1339	1333	1329	1334	1348	1354	1359	1370	1375	1358	1350	1342	1348	1366	1369	1380	1377	1377	1372	1373	1368	1358	1346	1337	1335	1337	1339	1338	1338	1344	1344	1339	1331	1345	1360	1360	1354	1350	1339	1353	1361	1377	1382	1382	1378	1364	1348	1333	1336	1346	1358	1364	1366	1365	1357	1347	1342	1340	1332	1326	1326	1332	1342	1346	1348	1341	1338	1341	1348	1348	1344	1340	1337	1337	1339	1331	1325	1317	1350	1411	0	0	0	0	0	1387	1362	1350	1341	1340	1348	1343	1332	1315	1320	1336	1354	1361	1366	1367	1362	1357	1354	1356	1363	1366	1364	1360	1358	1352	1346	1336	1330	1338	1336	1336	1332	1326	1323	1325	1332	1342	1353	1360	1357	1352	1348	1342	1338	1347	1339	1338	1340	1341	1341	1345	1350	1350	1346	1346	1345	1347	1348	1348	1348	1341	1333	1331	1331	1340	1349	1348	1340	1336	1331	1331	1338	1336	1331	1328	1329	1358	1364	1358	1352	1352	1347	1342	1333	1328	1337	1348	1353	1359	1358	1344	1336	1334	1332	1331	1340	1358	1358	1352	1340	1333	1333	1333	1335	1340	1348	1357	1359	1352	1336	1322	1319	1319	1319	1324	1334	1341	1345	1345	1344	1349	1357	1370	1376	1382	1374	1363	1351	1340	1344	1346	1344	1345	1342	1354	1361	1357	1351	1335	1328	1326	1329	1344	1353	1360	1363	1357	1354	1343	1341	1347	1351	1359	1363	1365	1358	1349	1353	1348	1339	1348	1408	0	0	0	0	0	0	0	0	0	0	0	0	0	0	0	0	0	0	0	0	0	1511	1514	1529	1527	1512	1493	1483	1477	1466	1448	1448	1415	1426	1433	1438	1439	1435	1430	1429	1433	1445	1455	1453	1443	1431	1419	1413	1415	1416	1414	1416	1417	1420	1422	1414	1412	1410	1409	1414	1431	1416	1421	0	0	0	0	0	0	0	0	0	0	0	0	0	0	0	0	1392	1406	1412	1425	1425	1417	1392	1391	1383	1376	1379	1383	1385	1380	1380	1377	1368	1366	1357	1353	1354	1357	1360	1362	1356	1351	1346	1340	1332	1332	1339	1334	1343	1346	1364	0	0	0	0	0	0	0
0	0	0	1397	1395	1388	1389	1389	1375	1378	1379	1374	1373	1363	1363	1368	1385	1401	1403	1392	1383	1383	1379	1389	1400	1398	1393	1397	1401	1401	1400	1392	1395	1399	1392	1386	1389	1397	1404	1404	1409	1403	1398	1395	1383	1381	1392	1403	1405	1402	1399	1399	1394	1388	1388	1401	1418	1419	1412	1412	1427	1441	1452	1436	1408	1399	1405	1408	1403	1394	1387	1387	1389	1389	1397	1406	1403	1395	1395	1409	1421	1421	1438	1453	1456	1443	1434	1424	1416	1419	1427	1431	1429	1425	1417	1412	1407	1412	1423	1421	1408	1397	1398	1388	1362	1349	1360	1369	1381	1385	1387	1387	1380	1383	1394	1400	1393	1389	1395	1401	1395	1390	1389	1393	1389	1380	1378	1376	1375	1363	1369	1365	1361	1363	1358	1361	1365	1361	1358	1359	1366	1365	1371	1366	1378	1380	1373	1374	1384	1385	1392	1391	1393	0	0	0	0	0	0	0	0	0	0	0	0	0	0	0	0	0	0	0	0	0	0	0	0	0	0	0	0	0	0	1605	1636	1644	1651	1651	1651	1657	1634	1559	1521	1378	1324	1328	1334	1339	1342	1331	1328	1334	1336	1349	1380	1394	1385	1378	1384	1386	1380	1363	1350	1347	1350	1367	1377	1381	1367	1355	1349	1350	1339	1341	1359	1374	1380	1376	1378	1376	1370	1364	1355	1347	1344	1340	1337	1339	1340	1350	1358	1370	1356	1340	1324	1324	1329	1339	1352	1368	1369	1377	1370	1359	1347	1341	1337	1341	1342	1339	1343	1350	1359	1357	1357	1349	1352	1356	1363	1358	1338	1327	1335	1331	1339	1337	1339	1347	1356	1358	1362	1355	1354	1348	1351	1359	1359	1369	1372	1375	1377	1375	1371	1360	1351	1342	1340	1342	1348	1347	1349	1347	1336	1330	1334	1347	1361	1352	1346	1339	1338	1354	1362	1368	1372	1374	1368	1356	1343	1340	1346	1364	1370	1374	1376	1375	1368	1352	1335	1332	1330	1325	1332	1338	1345	1343	1341	1328	1324	1322	1336	1330	1332	1332	1333	1344	1344	1340	1332	1315	1347	1432	1454	0	0	0	0	1384	1369	1364	1353	1347	1342	1331	1317	1308	1320	1344	1365	1373	1375	1371	1359	1354	1343	1351	1361	1366	1369	1364	1361	1354	1346	1332	1324	1328	1332	1336	1322	1318	1326	1324	1330	1342	1353	1361	1362	1364	1357	1349	1342	1340	1331	1336	1341	1346	1345	1343	1343	1342	1339	1337	1337	1340	1342	1346	1347	1341	1339	1339	1341	1348	1345	1350	1346	1337	1330	1330	1333	1334	1331	1334	1337	1347	1361	1354	1347	1341	1343	1342	1341	1342	1350	1354	1347	1348	1347	1344	1338	1340	1338	1338	1343	1365	1359	1350	1341	1340	1342	1343	1342	1345	1352	1357	1361	1357	1340	1329	1320	1320	1320	1321	1335	1345	1349	1346	1343	1344	1350	1358	1360	1366	1365	1366	1360	1354	1349	1353	1344	1343	1345	1351	1354	1354	1340	1335	1324	1323	1322	1336	1342	1357	1355	1355	1349	1345	1344	1346	1350	1358	1356	1359	1359	1356	1353	1348	1341	1363	1422	0	0	0	0	0	0	0	0	0	0	0	0	0	0	0	0	0	0	0	0	0	1521	1517	1513	1519	1496	1465	1462	1459	1451	1448	1441	1405	1408	1425	1434	1437	1431	1423	1423	1434	1446	1445	1439	1436	1426	1424	1427	1431	1422	1418	1417	1413	1418	1414	1409	1407	1414	1421	1450	1453	1425	0	0	0	0	0	0	0	0	0	0	0	0	0	0	0	0	0	1386	1414	1432	1433	1427	1403	1394	1386	1376	1372	1370	1379	1383	1390	1390	1389	1379	1373	1369	1364	1359	1359	1357	1361	1360	1366	1362	1356	1343	1343	1338	1340	1347	1353	1363	0	0	0	0	0	0	0
0	0	0	1391	1391	1390	1382	1382	1369	1363	1350	1352	1345	1345	1345	1360	1386	1411	1419	1409	1398	1398	1396	1406	1410	1402	1398	1399	1403	1403	1394	1382	1381	1381	1380	1382	1386	1395	1400	1400	1405	1391	1386	1382	1380	1385	1390	1397	1404	1409	1404	1404	1401	1398	1393	1402	1401	1407	1407	1407	1424	1446	1448	1425	1397	1399	1413	1416	1418	1407	1403	1403	1400	1389	1406	1406	1407	1405	1407	1411	1414	1419	1433	1446	1445	1434	1423	1418	1415	1418	1425	1433	1434	1429	1423	1416	1407	1404	1402	1406	1401	1384	1383	1379	1365	1330	1343	1362	1369	1378	1384	1382	1385	1385	1389	1390	1381	1377	1372	1380	1376	1376	1383	1387	1387	1373	1371	1375	1374	1364	1361	1360	1358	1364	1369	1367	1361	1358	1346	1350	1368	1374	1370	1365	1378	1380	1375	1377	1381	1398	1394	1398	1372	0	0	0	0	0	0	0	0	0	0	0	0	0	0	0	0	0	0	0	0	0	0	0	0	0	0	0	0	0	0	1625	1649	1663	1674	1674	1667	1651	1646	1552	1527	1475	1340	1330	1335	1342	1338	1327	1325	1329	1334	1335	1361	1388	1373	1368	1371	1384	1389	1379	1365	1356	1357	1368	1379	1377	1367	1356	1353	1352	1351	1349	1364	1368	1371	1377	1380	1379	1379	1375	1359	1348	1335	1324	1330	1336	1341	1348	1356	1362	1355	1341	1331	1328	1331	1337	1348	1362	1366	1369	1368	1358	1345	1339	1330	1336	1337	1342	1347	1348	1354	1354	1355	1350	1349	1358	1365	1364	1341	1333	1329	1332	1337	1343	1345	1347	1348	1350	1350	1342	1348	1351	1352	1350	1353	1357	1360	1367	1371	1378	1370	1366	1353	1344	1338	1346	1350	1354	1356	1351	1332	1326	1333	1344	1360	1346	1334	1330	1339	1348	1356	1360	1365	1366	1359	1349	1345	1342	1349	1366	1380	1386	1385	1379	1369	1359	1342	1338	1331	1329	1339	1344	1348	1347	1339	1333	1326	1329	1329	1328	1325	1327	1328	1344	1349	1347	1341	1337	1349	1357	1449	1471	0	1466	1440	1382	1377	1370	1365	1356	1345	1329	1317	1317	1323	1353	1368	1382	1384	1366	1360	1350	1348	1359	1352	1349	1357	1344	1352	1355	1348	1338	1330	1330	1335	1339	1332	1329	1329	1327	1334	1343	1352	1365	1369	1368	1367	1355	1345	1342	1341	1344	1348	1348	1344	1339	1325	1326	1316	1331	1335	1341	1344	1346	1348	1346	1346	1339	1343	1348	1344	1351	1345	1337	1333	1329	1326	1324	1331	1329	1335	1346	1357	1346	1335	1332	1334	1338	1342	1355	1357	1357	1350	1346	1346	1337	1336	1336	1342	1348	1353	1374	1363	1346	1347	1353	1360	1357	1359	1356	1359	1363	1363	1359	1353	1342	1329	1322	1312	1325	1336	1344	1345	1340	1341	1339	1341	1340	1349	1356	1364	1370	1369	1361	1355	1357	1354	1352	1345	1344	1338	1339	1335	1329	1331	1319	1325	1340	1337	1345	1344	1340	1337	1335	1336	1345	1356	1356	1359	1361	1365	1360	1353	1350	1359	1395	1414	0	0	0	0	0	0	0	0	0	0	0	0	0	0	0	0	0	0	0	0	0	0	1511	1506	1498	1476	1453	1452	1449	1443	1440	1433	1409	1406	1411	1412	1401	1390	1386	1389	1405	1442	1447	1436	1416	1400	1391	1401	1416	1433	1439	1434	1416	1407	1398	1399	1408	1432	1450	1456	1431	1421	0	0	0	0	0	0	0	0	0	0	0	0	0	0	1401	1392	1390	1394	1399	1405	1405	1399	1394	1381	1373	1369	1372	1360	1368	1375	1395	1395	1393	1386	1383	1383	1383	1374	1368	1365	1363	1369	1373	1373	1369	1357	1357	1352	1346	1352	1358	1357	0	0	0	0	0	0	0
0	0	0	1386	1395	1388	1377	1377	1367	1357	1338	1332	1338	1347	1347	1356	1373	1398	1407	1408	1406	1406	1407	1409	1410	1406	1398	1403	1409	1409	1390	1383	1379	1368	1368	1376	1388	1395	1395	1402	1392	1385	1378	1379	1387	1392	1389	1393	1394	1403	1408	1408	1410	1404	1404	1408	1391	1386	1386	1402	1419	1434	1442	1410	1392	1410	1422	1429	1430	1426	1419	1419	1421	1423	1433	1428	1409	1404	1398	1391	1391	1398	1428	1435	1431	1424	1406	1414	1418	1417	1414	1416	1424	1428	1423	1419	1405	1407	1409	1410	1402	1384	1369	1364	1357	1335	1348	1359	1366	1371	1365	1370	1368	1381	1382	1374	1365	1348	1350	1360	1364	1362	1371	1383	1387	1379	1375	1377	1365	1363	1363	1365	1367	1367	1376	1372	1370	1364	1349	1353	1368	1373	1374	1372	1378	1362	1366	1361	1381	1394	1398	1386	0	0	0	0	0	0	0	0	0	0	0	0	0	0	0	0	0	0	0	0	0	0	0	0	0	0	0	0	0	0	0	1638	1664	1666	1671	1681	1686	1671	1657	1590	0	1508	1424	1353	1343	1348	1344	1330	1320	1325	1326	1326	1335	1349	1356	1356	1368	1376	1393	1395	1370	1358	1354	1364	1373	1372	1358	1352	1348	1351	1366	1357	1354	1352	1359	1368	1374	1377	1385	1378	1364	1344	1329	1317	1320	1339	1343	1343	1346	1356	1361	1346	1335	1328	1330	1341	1343	1347	1357	1366	1369	1368	1357	1336	1336	1336	1340	1340	1344	1353	1354	1353	1347	1340	1344	1352	1360	1363	1347	1339	1343	1338	1341	1351	1356	1358	1354	1353	1351	1353	1351	1354	1355	1351	1348	1346	1350	1361	1367	1368	1368	1365	1353	1344	1332	1336	1351	1362	1363	1358	1333	1321	1333	1345	1346	1339	1321	1324	1334	1344	1350	1353	1356	1357	1350	1342	1340	1342	1358	1367	1385	1390	1385	1374	1372	1366	1354	1348	1343	1340	1348	1357	1356	1356	1352	1343	1332	1333	1331	1333	1331	1330	1332	1341	1350	1353	1350	1347	1356	1366	1391	1454	1449	1438	1431	1382	1375	1372	1370	1362	1352	1344	1338	1337	1345	1355	1360	1364	1378	1364	1357	1351	1348	1355	1354	1348	1358	1344	1341	1348	1342	1340	1336	1342	1344	1336	1327	1326	1325	1328	1337	1344	1353	1358	1366	1370	1367	1359	1353	1347	1353	1354	1349	1341	1340	1335	1327	1320	1324	1335	1340	1347	1346	1344	1345	1351	1353	1343	1351	1349	1349	1337	1343	1346	1341	1329	1322	1318	1320	1323	1336	1349	1352	1336	1326	1324	1324	1327	1338	1358	1361	1358	1353	1358	1348	1337	1333	1336	1343	1352	1369	1380	1358	1339	1343	1347	1341	1344	1360	1354	1354	1364	1369	1371	1368	1358	1343	1330	1314	1332	1341	1341	1334	1330	1327	1326	1332	1345	1344	1358	1361	1366	1368	1364	1359	1355	1356	1352	1349	1346	1340	1329	1335	1334	1333	1332	1338	1343	1347	1338	1324	1316	1319	1322	1336	1348	1361	1363	1355	1353	1359	1355	1342	1336	1374	1390	1408	0	0	0	0	0	0	0	0	0	0	0	0	0	0	0	0	0	0	0	0	0	0	1527	1509	1494	1473	1459	1450	1446	1435	1432	1422	1406	1409	1411	1409	1370	1368	1363	1374	1412	1427	1430	1429	1421	1401	1383	1352	1339	1337	1401	1411	1405	1410	1410	1411	1401	1418	1436	1436	1442	1443	0	0	0	0	0	0	0	0	0	1431	1432	1432	1431	1420	1400	1392	1391	1383	1378	1385	1389	1393	1385	1367	1364	1368	1364	1357	1351	1351	1389	1389	1388	1386	1389	1396	1394	1387	1382	1375	1368	1372	1378	1377	1379	1369	1369	1359	1351	1346	1349	1351	0	0	0	0	0	0	0
0	0	0	1397	1399	1393	1388	1388	1368	1356	1345	1338	1351	1358	1358	1370	1375	1381	1389	1393	1400	1400	1408	1410	1409	1403	1402	1403	1402	1402	1397	1391	1382	1378	1372	1379	1396	1403	1403	1400	1393	1384	1384	1390	1396	1395	1396	1391	1392	1401	1407	1407	1410	1412	1420	1417	1395	1376	1377	1387	1402	1418	1429	1424	1407	1413	1431	1438	1441	1439	1434	1434	1432	1437	1438	1431	1411	1400	1392	1386	1385	1390	1407	1407	1406	1408	1405	1415	1426	1411	1395	1391	1401	1414	1417	1414	1408	1406	1427	1435	1423	1404	1379	1372	1358	1352	1352	1362	1366	1363	1363	1361	1366	1378	1371	1375	1365	1346	1349	1356	1358	1366	1370	1379	1384	1385	1380	1381	1368	1368	1368	1369	1370	1375	1384	1390	1391	1377	1362	1362	1367	1372	1378	1382	1376	1349	1358	1353	1388	1411	1399	1393	0	0	0	0	0	0	0	0	0	0	0	0	0	0	0	0	0	0	0	0	0	0	0	0	0	0	0	0	0	0	0	1657	1665	1662	1669	1680	1690	1671	1650	1598	0	0	1447	1370	1353	1346	1343	1335	1328	1328	1329	1329	1334	1349	1353	1354	1358	1368	1379	1378	1373	1353	1345	1355	1362	1363	1347	1341	1343	1347	1361	1359	1347	1343	1347	1353	1360	1365	1371	1370	1361	1346	1325	1317	1336	1341	1336	1330	1337	1347	1356	1349	1343	1337	1337	1339	1335	1331	1338	1368	1379	1371	1371	1359	1347	1342	1336	1336	1346	1353	1352	1352	1342	1335	1337	1345	1358	1363	1358	1350	1343	1342	1346	1357	1370	1373	1372	1366	1360	1356	1354	1362	1365	1358	1348	1346	1352	1361	1360	1357	1348	1348	1353	1344	1329	1339	1346	1363	1368	1363	1350	1332	1326	1335	1335	1325	1320	1324	1335	1341	1343	1342	1346	1350	1343	1339	1338	1345	1352	1356	1366	1376	1374	1365	1365	1369	1370	1361	1345	1340	1348	1359	1360	1360	1356	1355	1352	1335	1339	1338	1335	1333	1337	1343	1352	1362	1364	1363	1357	1364	1386	1426	1414	1414	1419	1378	1366	1369	1367	1354	1348	1353	1348	1348	1347	1354	1358	1353	1350	1351	1352	1356	1348	1342	1342	1338	1338	1343	1348	1344	1340	1341	1343	1350	1342	1331	1321	1315	1317	1324	1335	1347	1351	1351	1356	1364	1361	1357	1351	1353	1352	1346	1348	1342	1341	1342	1339	1332	1340	1347	1355	1354	1338	1335	1346	1351	1351	1349	1347	1349	1342	1338	1346	1349	1345	1345	1334	1326	1322	1323	1333	1349	1350	1334	1332	1316	1318	1323	1329	1345	1354	1356	1359	1357	1351	1340	1335	1337	1341	1344	1355	1371	1355	1337	1329	1328	1332	1335	1349	1344	1347	1343	1354	1360	1367	1363	1353	1341	1327	1338	1342	1335	1326	1319	1318	1324	1340	1354	1357	1354	1357	1360	1359	1354	1351	1349	1352	1349	1347	1346	1344	1333	1330	1343	1334	1332	1338	1349	1356	1342	1329	1321	1323	1330	1338	1348	1356	1363	1351	1352	1336	1320	1312	1325	1368	1413	0	0	0	0	0	0	0	0	0	0	0	0	0	0	0	0	0	0	0	0	0	0	0	0	1522	1507	1494	1476	1461	1449	1432	1429	1413	1407	1410	1408	1392	1391	1389	1387	1396	1420	1435	1436	1434	1426	1418	1421	1425	1433	1436	1422	1403	1396	1399	1407	1400	1394	1419	1429	1434	1441	1442	0	0	0	0	0	0	0	1441	1420	1419	1423	1438	1437	1436	1416	1409	1397	1380	1378	1387	1399	1403	1390	1360	1359	1372	1361	1344	1339	1345	1383	1383	1388	1387	1392	1392	1391	1390	1384	1380	1375	1369	1374	1377	1378	1376	1376	1365	1357	1346	1342	1351	0	0	0	0	0	0	0
0	0	0	1394	1401	1401	1394	1394	1379	1371	1367	1355	1368	1376	1376	1384	1385	1375	1374	1376	1396	1396	1406	1423	1415	1404	1398	1396	1394	1394	1399	1398	1392	1395	1386	1394	1401	1398	1398	1396	1390	1387	1388	1389	1392	1393	1395	1394	1395	1401	1404	1404	1409	1422	1433	1428	1414	1396	1376	1367	1379	1404	1429	1446	1431	1435	1442	1445	1445	1450	1448	1448	1447	1448	1449	1433	1424	1409	1412	1403	1399	1398	1404	1407	1409	1407	1413	1422	1426	1421	1409	1400	1407	1419	1423	1416	1410	1417	1429	1438	1437	1424	1417	1411	1400	1369	1370	1375	1374	1368	1365	1369	1373	1380	1381	1381	1375	1363	1365	1363	1359	1357	1364	1370	1370	1365	1362	1368	1377	1379	1386	1371	1373	1383	1397	1404	1402	1392	1378	1371	1372	1375	1378	1385	1388	1386	1383	1365	1368	1385	1375	1383	0	0	0	0	0	0	0	0	0	0	0	0	0	0	0	0	0	0	0	0	0	0	0	0	0	0	0	0	0	0	0	1678	1669	1668	1668	1672	1680	1676	1643	1622	0	0	1468	1389	1359	1345	1338	1335	1330	1331	1334	1336	1337	1351	1352	1352	1351	1356	1357	1360	1359	1356	1346	1348	1348	1345	1333	1329	1336	1341	1349	1344	1343	1339	1341	1349	1353	1352	1361	1358	1356	1346	1331	1338	1341	1340	1334	1327	1330	1340	1348	1347	1348	1344	1340	1339	1328	1320	1332	1364	1377	1386	1373	1372	1349	1348	1345	1342	1353	1356	1358	1348	1345	1338	1341	1347	1355	1364	1354	1347	1346	1345	1347	1363	1381	1387	1382	1375	1365	1365	1368	1367	1359	1359	1353	1353	1358	1362	1359	1350	1348	1354	1373	1375	1356	1341	1348	1362	1370	1371	1354	1338	1330	1333	1330	1320	1321	1334	1342	1340	1334	1334	1338	1337	1341	1332	1333	1337	1345	1351	1360	1365	1363	1359	1357	1364	1365	1357	1344	1340	1348	1354	1357	1353	1353	1352	1354	1351	1338	1336	1341	1345	1345	1347	1359	1367	1370	1359	1357	1359	1405	1408	1398	1397	1393	1369	1362	1367	1372	1359	1354	1352	1348	1350	1351	1354	1355	1350	1339	1342	1344	1354	1357	1348	1351	1354	1357	1355	1344	1344	1340	1340	1342	1337	1333	1320	1307	1307	1316	1321	1331	1346	1336	1325	1325	1344	1352	1356	1352	1354	1353	1346	1345	1344	1343	1339	1340	1351	1365	1361	1356	1356	1342	1337	1335	1343	1341	1339	1337	1340	1338	1334	1339	1345	1345	1346	1344	1344	1338	1334	1338	1345	1346	1340	1333	1324	1319	1321	1323	1333	1343	1351	1348	1349	1347	1342	1337	1334	1333	1332	1337	1355	1349	1335	1326	1328	1327	1336	1336	1335	1335	1340	1342	1350	1365	1367	1358	1348	1337	1338	1337	1334	1331	1338	1338	1343	1348	1354	1353	1346	1327	1310	1301	1305	1317	1348	1358	1356	1326	1310	1307	1313	1325	1337	1345	1333	1335	1344	1346	1350	1360	1368	1372	1359	1356	1355	1365	1378	1382	1371	1353	1329	1327	1341	1386	0	0	0	0	0	0	0	0	0	0	0	0	0	0	0	0	0	0	0	0	0	0	0	0	0	1539	1530	1514	1488	1475	1475	1466	1461	1442	1415	1411	1415	1435	1442	1442	1441	1445	1449	1442	1433	1439	1431	1419	1423	1433	1442	1455	1439	1415	1406	1411	1408	1401	1411	1417	1415	1420	1420	1428	0	0	0	0	0	0	0	1433	1412	1407	1411	1433	1442	1454	1441	1426	1407	1398	1398	1409	1415	1422	1409	1369	1354	1376	1361	1361	1375	1336	1382	1382	1387	1391	1388	1381	1379	1379	1384	1381	1372	1370	1366	1370	1374	1380	1380	1376	1372	1364	1357	1358	0	0	0	0	0	0	0
