0	0	0	1420	1426	1433	1429	1429	1432	1427	1412	1399	1398	1398	1404	1413	1412	1412	1414	1431	1431	1435	1447	1450	1449	1438	1426	1425	1422	1422	1421	1421	1418	1412	1410	1406	1414	1408	1408	1435	1456	1427	1409	1419	1431	1436	1425	1426	1441	1441	1441	1434	1436	1442	1451	1458	1461	1464	1470	1473	1471	1463	1455	1451	1445	1440	1445	1445	1450	1457	1457	1470	1473	1471	1463	1446	1441	1441	1459	1464	1467	1470	1469	1473	1473	1473	1471	1470	1453	1440	1428	1424	1406	1402	1404	1408	1421	1431	1440	1443	1450	1450	1449	1432	1423	1421	1422	1435	1437	1437	1439	1428	1427	1419	1416	1412	1419	1435	1441	1443	1441	1445	1450	1451	1443	1435	1432	1431	1437	1428	1424	1420	1412	1411	1416	1420	1417	0	0	0	0	0	0	0	0	0	0	0	0	0	0	0	0	0	0	0	0	0	0	0	0	0	0	0	1640	1656	1671	1681	1670	1669	1655	1645	1631	0	0	0	0	0	0	1410	1417	1431	1433	1392	1395	1410	1425	1427	1431	1423	1429	1423	1422	1423	1431	1438	1441	1440	1441	1439	1441	1452	1461	1465	1455	1417	1410	1414	1409	1408	1416	1419	1426	1435	1439	1445	1439	1425	1400	1396	1404	1438	1434	1429	1426	1432	1436	1435	1427	1425	1436	1450	1466	1473	1470	1462	1443	1417	1405	1400	1407	1417	1434	1435	1435	1438	1441	1436	1426	1426	1434	1445	1449	1450	1453	1444	1443	1439	1434	1431	1425	1421	1410	1403	1400	1412	1447	1460	1453	1440	1423	1424	1431	1438	1435	1434	1430	1431	1426	1438	1451	1460	1456	1454	1453	1444	1435	1420	1416	1414	1418	1426	1437	1446	1450	1443	1441	1443	1444	1450	1454	1456	1464	1459	1454	1449	1451	1459	1451	1436	1436	1441	1437	1435	1439	1438	1429	1439	1450	1460	1464	1461	1458	1455	1452	1449	1462	1476	1507	0	0	1455	1441	1454	1463	1461	1435	1428	1430	1438	1446	1446	1444	1445	1453	1451	1449	1452	1451	1449	1445	1444	1442	1443	1448	1456	1459	1466	1462	1458	1450	1452	1451	1453	1449	1447	1445	1437	1427	1421	1432	1446	1459	1458	1463	1463	1458	1460	1469	1476	1472	1463	1455	1450	1457	1462	1466	1473	1461	1452	1442	1437	1434	1442	1448	1432	1425	1437	1446	1462	1478	1481	1483	1478	1463	1447	1443	1444	1442	1432	1419	1432	1445	1450	1461	1467	1473	1474	1481	1490	1480	1472	1476	1465	1456	1453	1452	1453	1455	1464	1464	1462	1459	1459	1461	1459	1453	1448	1448	1446	1443	1439	1443	1450	1463	1459	1452	1443	1445	1442	1441	1442	1452	1453	1447	1423	1432	1442	1447	1452	1445	1437	1435	1437	1440	1457	1458	1476	1485	1488	1491	1494	1494	1481	1469	1466	1472	1466	1477	0	0	0	0	0	0	0	0	0	0	0	0	0	0	0	0	0	0	0	0	0	0	0	1600	1602	1600	1586	1582	1567	1573	1568	1558	1546	1544	1540	1529	1519	1543	1559	1567	1565	1558	1559	1549	1546	1540	1537	1530	1520	1520	1519	1523	1528	1524	1528	1559	1543	0	0	0	0	0	0	0	0	0	0	0	0	0	0	0	0	0	1538	1535	1515	1498	1485	1487	1503	1508	1487	1476	1471	1487	1504	1516	1519	1511	1500	1489	1479	1480	1485	1501	1505	1502	1515	1521	1512	1499	1484	1470	1470	1463	1454	1455	1467	1492	1509	1515	1510	1499	1496	1495	1495	1492	1489	1490	1490	1484	1466	1455	1454	1458	1469	1470	1479	1491	1500	1497	1497	1494	1494	1495	1493	1491	1480	1476	1475	1466	1470	1469	1467	1463	1466	1476	1483	1483	1478	1480	1475	1486	0	0	0	0	0	0	0
0	0	0	1436	1435	1436	1428	1428	1420	1416	1404	1400	1396	1396	1399	1408	1415	1419	1422	1421	1421	1428	1439	1435	1438	1424	1418	1411	1411	1416	1420	1419	1424	1415	1405	1394	1389	1392	1392	1429	1459	1431	1421	1435	1439	1436	1431	1430	1452	1460	1460	1445	1438	1440	1445	1456	1462	1467	1467	1469	1466	1452	1450	1455	1451	1442	1451	1448	1448	1448	1448	1454	1466	1464	1462	1461	1461	1460	1456	1455	1460	1470	1474	1472	1463	1459	1457	1451	1438	1430	1422	1431	1422	1427	1418	1424	1427	1441	1440	1435	1447	1446	1444	1430	1422	1423	1426	1429	1424	1422	1417	1414	1414	1420	1419	1416	1418	1423	1425	1423	1426	1433	1438	1444	1439	1439	1436	1431	1429	1424	1426	1433	1421	1419	1425	1434	0	0	0	0	0	0	0	0	0	0	0	0	0	0	0	0	0	0	0	0	0	0	0	0	0	0	0	0	1640	1670	1683	1689	1687	1673	1664	1658	1653	0	0	0	0	0	0	1421	1419	1435	1429	1398	1400	1420	1433	1441	1436	1429	1431	1431	1432	1433	1442	1447	1444	1433	1425	1426	1440	1457	1465	1466	1448	1414	1414	1417	1423	1422	1422	1421	1432	1431	1434	1444	1442	1420	1402	1390	1401	1438	1435	1425	1420	1417	1420	1411	1410	1418	1436	1449	1465	1473	1472	1455	1442	1427	1413	1406	1407	1421	1444	1448	1452	1456	1460	1454	1428	1434	1435	1441	1443	1449	1446	1445	1438	1434	1430	1429	1424	1414	1402	1399	1403	1414	1450	1461	1452	1436	1425	1426	1431	1434	1428	1433	1432	1423	1423	1429	1440	1450	1460	1456	1454	1445	1434	1426	1424	1420	1422	1425	1430	1437	1443	1446	1449	1448	1448	1449	1453	1461	1466	1459	1453	1448	1450	1452	1453	1442	1434	1429	1432	1443	1451	1451	1450	1454	1462	1476	1476	1466	1459	1459	1451	1445	1438	1462	1506	1504	1496	1458	1437	1447	1450	1455	1438	1438	1432	1437	1441	1440	1437	1438	1448	1457	1459	1457	1456	1451	1452	1443	1443	1447	1454	1467	1470	1468	1465	1460	1455	1450	1441	1438	1443	1444	1439	1432	1425	1421	1433	1439	1447	1448	1440	1437	1446	1458	1470	1481	1478	1469	1470	1464	1462	1469	1469	1471	1465	1448	1440	1434	1432	1440	1437	1418	1419	1425	1444	1460	1476	1484	1475	1462	1458	1455	1458	1457	1451	1443	1437	1445	1452	1451	1451	1459	1465	1471	1475	1482	1475	1473	1461	1459	1453	1458	1460	1469	1474	1474	1475	1474	1477	1472	1471	1472	1474	1463	1453	1443	1439	1444	1454	1465	1471	1468	1460	1453	1450	1452	1450	1451	1457	1455	1441	1424	1427	1439	1448	1454	1444	1429	1431	1444	1444	1450	1457	1478	1486	1490	1492	1496	1493	1480	1469	1458	1453	1436	1429	0	0	0	0	0	0	0	0	0	0	0	0	0	0	0	0	0	0	0	0	0	0	0	1606	1617	1594	1598	1583	1568	1556	1549	1549	1549	1545	1538	1523	1516	1537	1552	1557	1560	1565	1574	1571	1559	1544	1524	1511	1504	1510	1523	1532	1537	1537	1532	1549	1544	0	0	0	0	0	0	0	0	0	0	0	0	0	0	0	0	0	1532	1505	1488	1498	1492	1489	1512	1511	1486	1481	1486	1492	1503	1507	1503	1496	1493	1490	1493	1493	1499	1504	1497	1498	1506	1518	1516	1514	1503	1497	1486	1472	1468	1475	1483	1495	1511	1514	1508	1500	1493	1488	1487	1490	1495	1501	1487	1475	1459	1453	1448	1464	1475	1480	1475	1493	1506	1501	1499	1495	1495	1489	1486	1479	1472	1464	1463	1464	1470	1481	1482	1471	1468	1473	1483	1483	1485	1478	1472	1488	0	0	0	0	0	0	0
0	0	0	1441	1443	1439	1425	1425	1414	1414	1408	1403	1397	1397	1401	1408	1420	1427	1427	1431	1431	1425	1422	1420	1414	1407	1405	1404	1404	1408	1416	1415	1419	1417	1411	1395	1387	1390	1390	1426	1454	1434	1426	1434	1446	1452	1453	1449	1463	1468	1468	1439	1426	1434	1443	1451	1454	1459	1466	1464	1457	1453	1457	1465	1465	1461	1460	1454	1447	1444	1444	1443	1447	1452	1455	1463	1469	1465	1453	1458	1464	1471	1472	1468	1462	1454	1453	1446	1427	1420	1422	1430	1439	1439	1438	1436	1434	1442	1431	1429	1437	1438	1435	1421	1417	1420	1423	1422	1422	1417	1406	1399	1400	1416	1425	1426	1420	1412	1405	1403	1415	1423	1431	1442	1442	1444	1436	1434	1424	1424	1432	1437	1433	1446	1453	1453	0	0	0	0	0	0	0	0	0	0	0	0	0	0	0	0	0	0	0	0	0	0	0	0	0	0	0	0	1669	1686	1689	1682	1666	1657	1666	1658	1661	0	0	0	0	0	0	1450	1435	1445	1435	1407	1403	1415	1432	1434	1429	1420	1427	1433	1434	1444	1445	1448	1439	1426	1416	1413	1424	1442	1463	1460	1446	1417	1422	1427	1422	1428	1422	1425	1427	1419	1432	1441	1443	1433	1412	1401	1402	1437	1445	1431	1412	1408	1407	1406	1408	1418	1428	1440	1450	1452	1448	1437	1434	1434	1423	1411	1411	1429	1460	1466	1464	1468	1466	1462	1451	1442	1436	1441	1443	1442	1446	1444	1443	1442	1431	1428	1427	1417	1409	1408	1413	1421	1448	1455	1441	1434	1431	1432	1441	1439	1437	1436	1431	1426	1430	1431	1436	1454	1457	1456	1450	1441	1430	1430	1431	1435	1432	1426	1426	1433	1438	1442	1451	1449	1451	1457	1462	1462	1463	1461	1444	1434	1437	1441	1449	1445	1435	1430	1434	1441	1454	1455	1459	1463	1466	1470	1459	1466	1463	1459	1450	1439	1431	1437	1430	1469	1478	1456	1433	1434	1431	1439	1454	1449	1445	1441	1440	1441	1432	1433	1443	1458	1470	1468	1458	1448	1441	1430	1426	1437	1461	1483	1487	1480	1464	1462	1452	1443	1438	1436	1441	1447	1444	1440	1429	1427	1434	1444	1439	1445	1448	1436	1442	1456	1469	1476	1473	1465	1462	1459	1460	1463	1469	1469	1455	1441	1432	1426	1432	1440	1437	1419	1409	1423	1436	1455	1472	1482	1482	1457	1454	1459	1461	1458	1453	1447	1448	1453	1457	1452	1447	1450	1456	1457	1460	1464	1466	1466	1457	1449	1450	1449	1460	1476	1487	1485	1480	1478	1475	1474	1481	1486	1475	1468	1452	1445	1441	1449	1457	1469	1476	1471	1466	1465	1463	1465	1466	1459	1455	1454	1448	1426	1428	1438	1448	1453	1452	1437	1435	1443	1454	1468	1472	1478	1482	1488	1486	1488	1487	1472	1455	1451	1442	1427	1405	0	0	0	0	0	0	0	0	0	0	0	0	0	0	0	0	0	0	0	0	0	0	0	1607	1615	1588	1600	1587	1554	1549	1536	1532	1541	1545	1539	1525	1521	1538	1546	1547	1556	1564	1569	1571	1561	1545	1530	1517	1514	1518	1527	1537	1541	1537	1532	1543	1543	0	0	0	0	0	0	0	0	0	0	0	0	0	0	0	0	0	1513	1480	1463	1502	1505	1509	1497	1508	1485	1488	1494	1496	1495	1493	1488	1484	1491	1497	1503	1511	1509	1499	1477	1480	1483	1495	1507	1512	1518	1516	1507	1494	1489	1484	1494	1500	1506	1508	1510	1497	1487	1469	1477	1490	1503	1502	1489	1475	1455	1451	1455	1467	1480	1477	1485	1498	1505	1508	1503	1499	1499	1486	1473	1467	1469	1458	1457	1462	1473	1483	1480	1468	1459	1457	1473	1473	1477	1481	1485	1479	0	0	0	0	0	0	0
0	0	0	1435	1430	1432	1435	1435	1426	1419	1417	1415	1419	1419	1411	1415	1419	1427	1437	1438	1438	1428	1421	1413	1403	1400	1400	1404	1404	1410	1413	1411	1413	1420	1418	1410	1406	1399	1399	1428	1444	1415	1407	1419	1430	1449	1461	1468	1473	1464	1464	1433	1419	1430	1443	1447	1455	1460	1463	1465	1460	1458	1461	1475	1475	1470	1461	1455	1447	1443	1443	1438	1439	1438	1446	1455	1462	1461	1457	1462	1464	1471	1467	1465	1462	1458	1451	1435	1419	1412	1415	1423	1438	1445	1445	1443	1442	1424	1421	1428	1428	1434	1435	1423	1418	1419	1428	1423	1419	1415	1400	1388	1386	1406	1425	1429	1419	1404	1392	1391	1406	1417	1428	1435	1439	1446	1445	1435	1427	1438	1441	1436	1443	1459	1469	1459	0	0	0	0	0	0	0	0	0	0	0	0	0	0	0	0	0	0	0	0	0	0	0	0	0	0	0	0	1696	1698	1701	1676	1653	1650	1661	1656	1662	0	0	0	0	0	0	1460	1455	1463	1443	1408	1405	1410	1417	1417	1412	1406	1420	1428	1442	1446	1442	1440	1430	1417	1406	1403	1406	1425	1443	1447	1430	1418	1428	1430	1429	1426	1427	1421	1422	1423	1433	1448	1454	1448	1434	1418	1417	1442	1448	1434	1417	1414	1410	1410	1422	1430	1433	1427	1419	1422	1420	1414	1427	1435	1432	1419	1417	1428	1466	1472	1470	1465	1465	1464	1458	1451	1445	1437	1437	1438	1437	1442	1450	1449	1443	1436	1431	1429	1428	1427	1429	1436	1447	1449	1441	1434	1440	1444	1446	1438	1437	1437	1441	1444	1441	1443	1448	1454	1456	1450	1440	1433	1430	1429	1439	1440	1440	1425	1421	1430	1419	1425	1431	1438	1445	1457	1466	1465	1459	1447	1438	1429	1433	1441	1450	1444	1437	1431	1434	1443	1450	1455	1456	1454	1456	1459	1456	1464	1465	1462	1455	1445	1433	1433	1411	1464	1472	1449	1429	1422	1425	1439	1450	1457	1455	1451	1443	1439	1431	1430	1441	1459	1471	1468	1455	1440	1430	1420	1421	1432	1460	1487	1496	1489	1472	1455	1446	1437	1437	1450	1456	1460	1463	1455	1446	1444	1448	1445	1446	1459	1457	1450	1450	1467	1470	1471	1467	1459	1452	1455	1455	1454	1460	1461	1451	1439	1426	1422	1438	1441	1444	1425	1419	1418	1430	1447	1472	1491	1495	1454	1444	1453	1460	1451	1444	1443	1453	1462	1464	1458	1451	1448	1452	1448	1449	1453	1455	1460	1454	1454	1445	1449	1459	1471	1480	1477	1458	1452	1457	1466	1475	1481	1475	1464	1452	1450	1451	1455	1456	1463	1468	1472	1471	1470	1474	1471	1471	1464	1455	1447	1446	1429	1432	1441	1456	1463	1466	1454	1446	1447	1460	1472	1484	1485	1485	1482	1482	1486	1477	1463	1452	1449	1449	1448	1437	0	0	0	0	0	0	0	0	0	0	0	0	0	0	0	0	0	0	0	0	0	0	0	0	1593	1588	1561	1556	1555	1541	1535	1532	1546	1552	1545	1535	1529	1541	1545	1548	1552	1562	1570	1567	1554	1547	1535	1532	1529	1532	1537	1539	1539	1541	1534	1543	1543	0	0	0	0	0	0	0	0	0	0	0	0	0	0	0	0	0	1487	1467	1467	1504	1523	1519	1508	1492	1493	1505	1490	1488	1478	1474	1473	1478	1491	1508	1519	1533	1520	1498	1474	1471	1472	1483	1489	1502	1517	1522	1513	1507	1495	1491	1499	1504	1504	1509	1514	1509	1491	1479	1475	1485	1504	1507	1496	1478	1461	1452	1461	1477	1488	1498	1491	1495	1493	1500	1498	1500	1500	1490	1473	1467	1468	1465	1464	1471	1474	1476	1483	1464	1452	1454	1469	1469	1472	1480	1486	1488	0	0	0	0	0	0	0
0	0	0	1421	1422	1432	1433	1433	1430	1426	1425	1432	1433	1433	1430	1418	1428	1434	1440	1442	1442	1437	1435	1422	1405	1402	1400	1407	1407	1410	1413	1408	1411	1422	1423	1420	1423	1430	1430	1434	1429	1403	1401	1420	1431	1448	1458	1468	1459	1446	1446	1436	1440	1444	1446	1449	1455	1460	1466	1462	1458	1455	1459	1468	1473	1464	1449	1446	1440	1436	1436	1435	1438	1441	1445	1448	1460	1462	1465	1464	1461	1458	1458	1458	1458	1456	1452	1437	1419	1413	1408	1416	1428	1430	1433	1441	1436	1423	1422	1431	1432	1437	1436	1431	1425	1426	1435	1429	1421	1414	1401	1383	1384	1398	1420	1427	1419	1396	1385	1390	1407	1421	1430	1435	1441	1449	1451	1451	1451	1450	1447	1442	1448	1455	1469	1456	0	0	0	0	0	0	0	0	0	0	0	0	0	0	0	0	0	0	0	0	0	0	0	0	0	0	0	0	1702	1706	1695	1674	1661	1664	1670	1664	1647	0	0	0	0	0	0	1463	1467	1463	1438	1404	1397	1407	1415	1411	1410	1398	1412	1430	1441	1442	1433	1426	1416	1407	1400	1395	1404	1413	1422	1431	1427	1423	1420	1426	1432	1420	1417	1425	1429	1440	1463	1470	1463	1444	1444	1439	1436	1445	1441	1424	1417	1418	1421	1429	1437	1442	1435	1426	1412	1402	1403	1407	1425	1438	1443	1434	1426	1427	1469	1475	1470	1459	1454	1455	1461	1454	1442	1434	1427	1423	1426	1431	1443	1452	1452	1448	1443	1444	1448	1449	1452	1457	1454	1452	1446	1443	1447	1451	1447	1435	1437	1441	1449	1456	1453	1461	1456	1459	1455	1447	1430	1424	1425	1433	1435	1437	1432	1427	1429	1434	1428	1418	1415	1423	1436	1455	1469	1468	1442	1438	1433	1432	1436	1447	1451	1453	1440	1434	1437	1442	1449	1453	1446	1440	1437	1444	1453	1464	1468	1468	1462	1450	1445	1442	1443	1464	1472	1454	1432	1429	1424	1433	1446	1451	1454	1451	1448	1439	1440	1440	1445	1458	1465	1466	1457	1445	1433	1429	1435	1445	1463	1487	1498	1495	1477	1450	1438	1435	1444	1457	1468	1485	1487	1478	1460	1448	1450	1449	1460	1455	1455	1459	1465	1468	1467	1468	1463	1456	1454	1454	1455	1457	1458	1456	1449	1438	1431	1421	1434	1446	1446	1441	1429	1434	1432	1443	1465	1485	1494	1461	1451	1459	1457	1447	1437	1436	1446	1455	1458	1460	1445	1457	1455	1452	1450	1445	1452	1455	1462	1462	1456	1456	1465	1470	1473	1468	1451	1447	1452	1448	1461	1468	1466	1458	1450	1450	1454	1458	1459	1455	1464	1471	1475	1473	1473	1475	1470	1460	1453	1439	1441	1429	1437	1445	1458	1470	1471	1463	1453	1441	1450	1472	1486	1490	1485	1487	1485	1486	1471	1455	1451	1457	1461	1476	0	0	0	0	0	0	0	0	0	0	0	0	0	0	0	0	0	0	0	0	0	0	0	0	0	1612	1587	1584	1580	1553	1552	1544	1543	1552	1555	1549	1543	1539	1546	1546	1547	1549	1552	1551	1549	1549	1548	1545	1541	1545	1544	1544	1544	1545	1526	1529	1533	1552	0	0	0	0	0	0	0	0	0	0	0	0	0	0	0	0	0	1478	1459	1469	1504	1522	1518	1505	1490	1496	1493	1480	1469	1462	1455	1458	1474	1491	1520	1540	1541	1524	1498	1479	1466	1472	1472	1474	1487	1512	1524	1524	1515	1499	1488	1491	1496	1508	1515	1516	1518	1499	1478	1470	1477	1486	1501	1501	1487	1464	1455	1472	1486	1494	1490	1493	1492	1485	1491	1494	1498	1498	1484	1463	1465	1480	1479	1477	1468	1470	1471	1466	1461	1456	1459	1462	1462	1471	1479	1482	1479	0	0	0	0	0	0	0
0	0	0	1404	1413	1426	1429	1429	1434	1432	1428	1429	1431	1431	1428	1423	1422	1427	1428	1435	1435	1436	1436	1431	1420	1416	1419	1422	1422	1424	1416	1418	1415	1418	1419	1425	1430	1437	1437	1435	1418	1409	1413	1422	1425	1440	1446	1458	1456	1455	1455	1456	1455	1454	1453	1452	1452	1455	1459	1463	1459	1452	1450	1459	1462	1453	1447	1442	1438	1440	1440	1443	1452	1453	1459	1461	1463	1461	1464	1466	1459	1448	1448	1451	1451	1447	1445	1442	1433	1422	1408	1414	1427	1427	1429	1424	1419	1420	1425	1438	1439	1438	1434	1433	1432	1437	1438	1434	1429	1425	1415	1391	1386	1399	1417	1424	1417	1409	1397	1401	1415	1424	1431	1434	1440	1451	1458	1460	1455	1455	1450	1446	1446	1445	1470	0	0	0	0	0	0	0	0	0	0	0	0	0	0	0	0	0	0	0	0	0	0	0	0	0	0	0	0	0	1699	1695	1686	1672	1661	1671	1674	1671	1653	0	0	0	0	0	0	1474	1472	1465	1423	1400	1395	1411	1420	1424	1418	1406	1422	1428	1441	1435	1426	1412	1403	1401	1399	1399	1405	1410	1414	1422	1421	1419	1428	1435	1428	1420	1415	1423	1437	1450	1453	1468	1455	1436	1441	1446	1446	1433	1431	1432	1428	1435	1440	1446	1450	1447	1444	1428	1422	1414	1407	1415	1430	1450	1455	1449	1437	1434	1467	1477	1474	1467	1461	1453	1452	1448	1442	1429	1418	1415	1415	1421	1440	1444	1444	1444	1447	1450	1452	1455	1461	1463	1464	1466	1458	1456	1455	1453	1443	1440	1439	1447	1454	1461	1458	1454	1451	1457	1454	1442	1429	1423	1429	1440	1435	1432	1423	1421	1429	1444	1447	1431	1420	1421	1437	1465	1473	1468	1445	1434	1433	1434	1438	1443	1448	1445	1443	1433	1433	1441	1448	1450	1443	1434	1432	1440	1457	1465	1469	1462	1462	1453	1448	1447	1459	1470	1469	1450	1450	1442	1439	1427	1440	1443	1446	1448	1447	1446	1451	1460	1460	1462	1460	1463	1462	1459	1455	1450	1451	1451	1457	1475	1487	1483	1483	1453	1436	1429	1445	1461	1480	1499	1504	1488	1468	1459	1459	1465	1463	1463	1458	1466	1469	1474	1463	1459	1458	1460	1457	1461	1462	1466	1461	1456	1448	1438	1433	1432	1433	1437	1447	1450	1446	1445	1447	1445	1457	1468	1476	1470	1460	1461	1461	1452	1437	1435	1431	1440	1450	1452	1451	1455	1462	1466	1457	1450	1448	1454	1458	1462	1457	1464	1469	1480	1477	1460	1453	1451	1440	1441	1454	1460	1458	1449	1440	1441	1451	1458	1455	1456	1461	1469	1472	1468	1465	1469	1470	1460	1446	1438	1430	1434	1439	1455	1464	1469	1464	1461	1452	1439	1445	1462	1478	1485	1484	1489	1491	1493	1466	1451	1452	1464	1475	1484	0	0	0	0	0	0	0	0	0	0	0	0	0	0	0	0	0	0	0	0	0	0	0	0	0	1623	1624	1593	1583	1564	1566	1570	1569	1568	1558	1547	1540	1544	1542	1545	1541	1544	1545	1544	1548	1555	1558	1554	1554	1554	1554	1548	1547	1549	1532	1526	1520	1535	0	0	0	0	0	0	0	0	0	0	0	0	0	0	0	0	1521	1491	1473	1521	1530	1519	1503	1509	1503	1484	1474	1468	1466	1457	1462	1466	1478	1493	1517	1540	1540	1523	1506	1489	1471	1473	1465	1466	1487	1509	1521	1527	1518	1496	1481	1478	1486	1494	1514	1518	1516	1505	1485	1470	1470	1479	1490	1502	1501	1479	1471	1488	1494	1490	1486	1485	1483	1483	1481	1487	1489	1489	1490	1477	1474	1492	1487	1481	1466	1462	1468	1466	1453	1456	1465	1472	1472	1475	1471	1474	1482	0	0	0	0	0	0	0
0	0	0	1395	1410	1425	1431	1431	1429	1428	1429	1424	1415	1415	1407	1410	1418	1416	1418	1421	1421	1426	1439	1439	1434	1426	1430	1428	1428	1420	1417	1415	1414	1418	1420	1426	1435	1442	1442	1437	1413	1411	1421	0	1421	1429	1437	1449	1461	1460	1460	1468	1467	1448	1445	1444	1441	1443	1453	1462	1462	1449	1448	1452	1458	1455	1442	1437	1433	1441	1441	1451	1468	1483	1477	1479	1464	1457	1460	1466	1466	1455	1451	1454	1446	1443	1436	1442	1436	1428	1422	1423	1429	1424	1407	1407	1410	1419	1428	1435	1438	1432	1430	1428	1433	1440	1441	1436	1434	1436	1424	1403	1395	1399	1413	1422	1422	1416	1414	1423	1424	1429	1432	1436	1439	1450	1461	1465	1460	1460	1453	1453	1454	1448	1467	0	0	0	0	0	0	0	0	0	0	0	0	0	0	0	0	0	0	0	0	0	0	0	0	0	0	0	0	0	1688	1685	1669	1664	1659	1672	1668	1663	1667	0	0	0	0	0	0	1492	1477	1468	1429	1404	1406	1420	1429	1434	1429	1428	1418	1436	1434	1434	1428	1422	1410	1403	1403	1410	1413	1418	1421	1424	1424	1423	1433	1433	1435	1421	1419	1421	1432	1436	1439	1438	1433	1433	1432	1432	1445	1445	1433	1428	1432	1437	1447	1458	1464	1455	1447	1437	1427	1420	1421	1423	1439	1452	1461	1452	1437	1433	1460	1478	1481	1481	1470	1457	1449	1442	1431	1420	1410	1407	1411	1425	1434	1438	1436	1433	1432	1439	1450	1456	1453	1461	1468	1474	1469	1466	1457	1445	1442	1447	1445	1449	1460	1462	1456	1450	1449	1453	1459	1447	1440	1432	1459	1470	1453	1428	1418	1421	1435	1452	1459	1454	1447	1446	1451	1474	1482	1469	1446	1434	1436	1441	1441	1444	1444	1446	1444	1435	1439	1445	1449	1453	1447	1438	1437	1442	1455	1459	1456	1453	1452	1451	1450	1455	1476	1486	1488	1453	1453	1453	1444	1448	1447	1444	1446	1446	1446	1451	1463	1469	1466	1460	1461	1464	1465	1467	1466	1466	1463	1459	1457	1464	1468	1471	1470	1452	1445	1440	1447	1455	1474	1500	1510	1502	1480	1467	1462	1459	1461	1456	1459	1465	1469	1472	1479	1473	1474	1474	1470	1472	1470	1462	1460	1455	1446	1441	1433	1429	1433	1436	1451	1458	1460	1456	1453	1452	1457	1463	1468	1474	1475	1476	1476	1460	1441	1432	1428	1435	1433	1438	1442	1455	1470	1477	1467	1455	1451	1446	1452	1459	1462	1468	1472	1479	1481	1476	1463	1457	1452	1448	1463	1468	1463	1452	1442	1444	1446	1454	1455	1461	1470	1476	1476	1471	1465	1469	1469	1460	1445	1434	1433	1436	1449	1461	1466	1466	1456	1453	1444	1451	1448	1456	1470	1480	1488	1490	1498	1494	1464	1453	1454	1464	1483	1490	0	0	0	0	0	0	0	0	0	0	0	0	0	0	0	0	0	0	0	0	0	0	0	0	0	1615	1624	1605	1589	1577	1579	1580	1580	1575	1555	1541	1532	1531	1538	1540	1540	1535	1536	1538	1550	1559	1565	1556	1550	1549	1549	1547	1553	1556	1541	1531	1520	1541	0	0	0	0	0	0	0	0	0	0	0	0	0	0	0	0	1537	1500	1504	1537	1526	1488	1516	1510	1492	1490	1461	1463	1473	1475	1472	1472	1475	1487	1511	1518	1521	1514	1506	1489	1484	1482	1473	1472	1489	1505	1518	1516	1504	1490	1480	1473	1477	1485	1500	1514	1515	1505	1487	1473	1465	1464	1484	1504	1508	1500	1493	1494	1498	1491	1481	1483	1485	1480	1481	1480	1487	1487	1497	1503	1517	1514	1486	1471	1456	1455	1457	1455	1461	1463	1464	1480	1480	1484	1482	1472	1474	0	0	0	0	0	0	0
0	0	0	1396	1409	1424	1437	1437	1439	1432	1428	1418	1403	1403	1377	1375	1396	1415	1417	1419	1419	1429	1438	1450	1449	1450	1437	1423	1423	1412	1413	1410	1409	1415	1417	1426	1437	1445	1445	1439	1411	1414	1417	0	0	1423	1434	1454	1463	1463	1463	1470	1454	1437	1435	1433	1434	1442	1454	1460	1453	1448	1446	1451	1456	1461	1457	1445	1443	1448	1448	1464	1476	1483	1486	1481	1467	1452	1456	1472	1478	1472	1469	1468	1463	1449	1442	1436	1432	1435	1436	1428	1424	1412	1403	1400	1406	1418	1426	1433	1431	1430	1421	1416	1429	1434	1439	1441	1439	1440	1430	1414	1403	1406	1413	1419	1420	1423	1425	1433	1431	1433	1435	1436	1435	1445	1452	1454	1450	1451	1447	1455	1460	1464	1466	0	0	0	0	0	0	0	0	0	0	0	0	0	0	0	0	0	0	0	0	0	0	0	0	0	0	0	0	0	1675	1675	1664	1665	1655	1657	1669	1672	1692	0	0	0	0	0	0	1504	1473	1467	1445	1416	1421	1431	1436	1436	1435	1432	1430	1434	1437	1436	1437	1428	1416	1409	1407	1418	1429	1430	1428	1435	1430	1432	1440	1444	1439	1431	1424	1421	1422	1430	1433	1439	1438	1437	1429	1435	1436	1451	1443	1432	1429	1437	1446	1457	1465	1450	1442	1437	1434	1428	1426	1427	1444	1459	1459	1447	1439	1435	1458	1473	1486	1490	1486	1468	1453	1440	1426	1416	1403	1408	1414	1424	1434	1437	1427	1425	1417	1429	1437	1445	1451	1453	1467	1473	1474	1468	1455	1446	1448	1455	1455	1456	1458	1454	1449	1448	1453	1462	1464	1463	1457	1467	1473	1466	1450	1437	1426	1426	1438	1449	1460	1462	1465	1468	1469	1480	1478	1462	1451	1445	1446	1449	1448	1447	1441	1446	1445	1448	1447	1455	1460	1462	1453	1445	1451	1455	1453	1455	1452	1454	1448	1447	1448	1448	1466	1476	1479	1464	1452	1460	1463	1464	1460	1454	1450	1445	1444	1449	1460	1468	1464	1457	1459	1462	1466	1466	1466	1471	1477	1473	1470	1465	1466	1463	1466	1455	1451	1449	1454	1460	1470	1484	1499	1499	1485	1472	1469	1455	1453	1452	1457	1466	1474	1478	1482	1480	1484	1485	1480	1485	1476	1469	1471	1464	1455	1445	1434	1433	1433	1438	1449	1461	1462	1462	1457	1454	1460	1464	1475	1485	1492	1488	1487	1484	1465	1445	1436	1435	1435	1424	1440	1457	1474	1478	1473	1460	1456	1449	1450	1458	1476	1487	1485	1482	1482	1480	1474	1464	1463	1459	1478	1479	1469	1466	1461	1460	1458	1462	1468	1471	1481	1489	1490	1480	1473	1472	1467	1468	1453	1447	1448	1460	1469	1479	1476	1465	1453	1448	1450	1454	1460	1465	1468	1476	1485	1490	1492	1487	1473	1459	1462	1469	1484	1503	0	0	0	0	0	0	0	0	0	0	0	0	0	0	0	0	0	0	0	0	0	0	0	0	0	1606	1610	1593	1588	1583	1578	1557	1580	1579	1558	1530	1522	1519	1528	1533	1537	1537	1536	1536	1554	1565	1567	1553	1545	1538	1544	1548	1555	1560	1548	1546	1519	1543	0	0	0	0	0	0	0	0	0	0	0	0	0	0	0	1555	1526	1512	1512	1527	1547	1518	1490	1482	1490	1465	1454	1474	1481	1473	1467	1469	1474	1480	1488	1502	1502	1506	1505	1495	1502	1517	1515	1487	1493	1498	1503	1498	1488	1485	1483	1475	1461	1468	1491	1504	1513	1510	1496	1478	1465	1466	1482	1505	1512	1503	1491	1493	1489	1480	1476	1474	1481	1479	1481	1485	1499	1499	1519	1531	1532	1509	1483	1455	1450	1447	1445	1449	1458	1461	1473	1480	1480	1485	1477	1471	1475	0	0	0	0	0	0	0
0	0	0	1433	1432	1441	1455	1455	1459	1449	1444	1431	1413	1413	1383	1383	1388	1416	1423	1419	1419	1428	1442	1451	1457	1460	1448	1422	1422	1414	1408	1403	1405	1413	1431	1433	1442	1441	1441	1437	1407	1402	0	0	0	1408	1420	1441	1459	1464	1464	1456	1444	1429	1420	1427	1443	1443	1456	1450	1450	1446	1452	1448	1464	1469	1460	1447	1446	1448	1448	1475	1473	1479	1489	1481	1464	1455	1461	1469	1478	1477	1479	1479	1470	1460	1447	1438	1427	1429	1432	1431	1426	1414	1410	1403	1407	1415	1421	1431	1427	1420	1416	1414	1422	1434	1447	1446	1444	1442	1434	1422	1408	1408	1408	1419	1419	1419	1430	1434	1439	1438	1440	1438	1437	1441	1442	1439	1434	1434	1437	1452	1467	1472	1472	0	0	0	0	0	0	0	0	0	0	0	0	0	0	0	0	0	0	0	0	0	0	0	0	0	0	0	0	0	1646	1662	1665	1666	1673	1677	1683	1695	0	0	0	0	0	0	0	1515	1475	1462	1444	1424	1430	1441	1434	1432	1432	1436	1435	1436	1441	1442	1441	1432	1422	1418	1426	1434	1441	1440	1440	1442	1437	1438	1444	1458	1458	1447	1432	1423	1420	1424	1438	1441	1446	1441	1434	1430	1438	1450	1449	1441	1435	1442	1454	1458	1462	1449	1439	1437	1432	1436	1431	1438	1443	1454	1459	1449	1445	1443	1463	1476	1486	1487	1485	1465	1449	1435	1426	1419	1414	1412	1419	1428	1435	1436	1423	1423	1418	1424	1431	1445	1443	1451	1461	1470	1469	1463	1452	1439	1452	1465	1470	1462	1458	1450	1447	1441	1452	1463	1475	1480	1480	1481	1486	1466	1450	1440	1434	1441	1443	1452	1461	1467	1476	1479	1476	1472	1479	1465	1459	1456	1450	1453	1457	1454	1453	1452	1449	1452	1455	1468	1476	1476	1465	1467	1462	1463	1460	1461	1461	1460	1455	1456	1448	1455	1454	1470	1478	1481	1437	1454	1469	1483	1496	1495	1471	1455	1450	1451	1453	1449	1446	1450	1463	1471	1474	1462	1459	1466	1477	1483	1475	1474	1473	1475	1471	1467	1459	1460	1461	1463	1474	1481	1488	1482	1478	1472	1465	1471	1464	1468	1474	1481	1486	1479	1479	1476	1480	1490	1496	1510	1509	1499	1481	1480	1477	1480	1470	1459	1449	1442	1440	1450	1459	1463	1459	1456	1459	1472	1484	1507	1518	1518	1510	1507	1491	1477	1455	1441	1427	1423	1440	1468	1494	1511	1509	1506	1496	1480	1474	1469	1477	1487	1483	1485	1489	1494	1497	1491	1487	1483	1489	1489	1484	1497	1508	1515	1485	1483	1487	1496	1508	1508	1506	1488	1484	1478	1474	1472	1469	1462	1466	1488	1499	1498	1491	1479	1466	1464	1463	1467	1470	1470	1475	1475	1482	1484	1484	1480	1470	1461	1463	1470	1481	1492	1526	0	0	0	0	0	0	0	0	0	0	0	0	0	0	0	0	0	0	0	0	0	0	0	0	1601	1602	1591	1582	1576	1562	1546	1571	1575	1555	1545	1530	1522	1529	1534	1535	1534	1537	1541	1551	1561	1565	1558	1539	1538	1539	1545	1550	1561	1555	1558	1552	1541	0	0	0	0	0	0	0	0	0	0	0	1488	1500	0	0	1529	1513	1507	1518	1529	1546	1543	1522	1517	1490	1458	1461	1475	1478	1479	1463	1457	1458	1470	1481	1489	1488	1495	1499	1513	1537	1557	1559	1543	1502	1495	1500	1505	1487	1487	1485	1494	1479	1486	1490	1500	1501	1507	1519	1517	1507	1504	1503	1504	1496	1487	1478	1482	1481	1473	1462	1455	1464	1479	1479	1487	1516	1516	1543	1557	1547	1521	1491	1466	1452	1443	1446	1453	1465	1485	1494	1485	1485	1482	1480	1479	1481	0	0	0	0	0	0	0
0	0	0	1479	1474	1483	1485	1485	1481	1453	1446	1447	1432	1432	1420	1422	1422	1438	1458	1475	1475	1465	1475	1477	1470	1462	1454	1445	1445	1439	1426	1406	1410	1424	1436	1461	1460	1451	1451	1401	1397	1403	0	0	0	1410	1403	1423	1438	1451	1451	1444	1430	1411	1412	1421	1446	1467	1462	1453	1447	1445	1457	1469	1472	1466	1453	1450	1458	1468	1468	1470	1467	1463	1462	1464	1463	1461	1463	1468	1471	1469	1476	1471	1468	1456	1445	1418	1406	1407	1420	1426	1424	1427	1431	1419	1418	1417	1419	1421	1431	1428	1411	1411	1425	1439	1446	1440	1433	1429	1420	1419	1425	1427	1428	1421	1416	1425	1433	1440	1438	1429	1429	1442	1448	1452	1462	1466	1462	1448	1422	1442	1462	1440	1462	0	0	0	0	0	0	0	0	0	0	0	0	0	0	0	0	0	0	0	0	0	0	0	0	0	0	0	0	0	1618	1638	1646	1643	0	0	0	0	0	0	0	0	0	0	0	1519	1482	1454	1440	1428	1436	1445	1443	1427	1429	1434	1433	1439	1442	1443	1437	1437	1441	1447	1461	1467	1464	1455	1444	1443	1439	1463	1484	1489	1487	1465	1452	1439	1440	1457	1471	1473	1476	1456	1445	1440	1451	1456	1458	1458	1464	1470	1461	1459	1460	1470	1469	1469	1468	1462	1458	1448	1445	1446	1451	1459	1458	1452	1460	1470	1476	1474	1466	1453	1443	1434	1433	1429	1429	1428	1436	1440	1440	1434	1428	1430	1430	1429	1432	1447	1455	1459	1461	1464	1459	1455	1450	1441	1443	1458	1461	1462	1457	1450	1452	1454	1462	1473	1483	1483	1488	1488	1489	1470	1450	1445	1453	1455	1453	1456	1464	1468	1478	1479	1476	1465	1473	1471	1461	1464	1456	1460	1461	1465	1468	1462	1452	1454	1459	1470	1485	1491	1486	1479	1471	1470	1470	1469	1474	1466	1464	1464	1454	1454	1449	1450	1476	1439	1431	1456	1467	1482	1497	1491	1472	1459	1460	1458	1461	1450	1445	1448	1466	1484	1478	1469	1463	1467	1480	1484	1483	1479	1482	1487	1482	1474	1467	1463	1464	1467	1472	1476	1480	1477	1469	1467	1469	1478	1471	1477	1484	1488	1487	1485	1478	1475	1475	1482	1494	1515	1519	1504	1486	1480	1480	1476	1466	1458	1449	1435	1433	1444	1461	1474	1470	1462	1470	1475	1489	1501	1511	1515	1511	1505	1491	1469	1452	1440	1433	1436	1449	1474	1502	1515	1520	1515	1503	1491	1480	1467	1475	1485	1490	1490	1494	1500	1500	1501	1495	1494	1500	1496	1496	1503	1519	1526	1507	1493	1505	1515	1517	1509	1506	1501	1493	1486	1477	1473	1471	1475	1477	1511	1520	1512	1498	1486	1480	1474	1464	1469	1472	1477	1483	1484	1481	1482	1484	1480	1468	1470	1466	1471	1481	1493	1516	1538	1534	1527	1550	0	0	0	0	0	0	0	0	0	0	0	0	0	0	0	0	0	0	0	0	1617	1608	1594	1581	1572	1557	1537	1556	1561	1565	1553	1544	1529	1534	1538	1545	1547	1546	1550	1554	1563	1563	1572	1560	1543	1535	1537	1545	1550	1559	1549	1539	1526	0	0	0	0	0	0	0	1550	1557	1550	1514	1503	1513	1522	1529	1509	1509	1510	1525	1536	1550	1547	1535	1507	1487	1463	1465	1479	1488	1484	1466	1453	1462	1473	1485	1478	1475	1486	1489	1513	1537	1567	1559	1528	1500	1495	1500	1504	1501	1498	1505	1508	1515	1532	1530	1525	1515	1520	1523	1536	1545	1535	1525	1507	1486	1475	1473	1480	1478	1470	1465	1456	1470	1482	1492	1508	1527	1527	1549	1557	1540	1515	1481	1464	1452	1443	1451	1458	1476	1495	1499	1496	1496	1488	1486	1479	1472	0	0	0	0	0	0	0
0	0	0	0	0	0	0	0	0	1455	1439	1442	1443	1443	1438	1434	1427	1439	1460	1500	1500	1707	0	1717	1500	1473	1450	1432	1432	1422	1413	1414	1424	1439	1448	1470	1479	1460	1460	1420	1401	1401	0	0	0	1399	1392	1403	1418	1431	1431	1432	1437	1428	1414	1425	1440	1450	1448	1437	1424	1423	1434	1454	1472	1477	1482	1477	1473	1460	1460	1456	1448	1438	1436	1427	1417	1433	1451	1463	1474	1469	1466	1462	1451	1437	1417	1402	1392	1396	1408	1423	1432	1423	1415	1415	1414	1418	1411	1419	1422	1428	1418	1409	1418	1437	1445	1432	1420	1410	1418	1431	1450	1447	1454	1459	1465	1461	1454	1457	1448	1453	1450	1447	1449	1451	1458	1462	1475	1468	1462	1458	1439	1471	0	0	0	0	0	0	0	0	0	0	0	0	0	0	0	0	0	0	0	0	0	0	0	0	0	0	0	0	0	0	1639	1646	1645	1653	0	0	0	0	0	0	0	0	0	0	1534	1522	1489	1462	1451	1442	1454	1474	1484	1483	1465	1450	1439	1443	1441	1440	1434	1443	1458	1476	1485	1487	1479	1469	1458	1448	1442	1474	1492	1495	1498	1486	1468	1456	1465	1481	1493	1501	1491	1473	1460	1455	1455	1450	1449	1459	1479	1479	1468	1460	1468	1476	1482	1483	1478	1473	1465	1462	1447	1446	1446	1458	1462	1454	1459	1467	1475	1473	1461	1445	1435	1443	1454	1453	1449	1451	1447	1445	1438	1428	1426	1435	1434	1433	1432	1448	1465	1470	1461	1454	1454	1446	1444	1442	1443	1459	1455	1461	1461	1461	1464	1467	1469	1469	1483	1482	1484	1485	1488	1478	1461	1456	1463	1470	1467	1463	1461	1467	1469	1474	1456	1454	1463	1474	1468	1462	1456	1460	1479	1485	1485	1487	1488	1485	1491	1513	1528	1523	1513	1505	1498	1482	1480	1475	1476	1475	1468	1460	1456	1446	1444	1430	1452	1470	1469	1467	1474	1462	1467	1476	1487	1501	1497	1492	1483	1478	1480	1479	1494	1506	1508	1512	1511	1517	1519	1513	1502	1491	1496	1517	1519	1512	1511	1505	1496	1478	1464	1460	1460	1471	1471	1471	1469	1476	1487	1494	1497	1499	1491	1488	1487	1479	1476	1481	1503	1515	1527	1518	1497	1494	1481	1476	1463	1463	1468	1471	1467	1468	1483	1500	1508	1513	1515	1504	1493	1500	1498	1502	1499	1488	1482	1476	1466	1473	1468	1460	1469	1473	1497	1503	1512	1521	1519	1504	1481	1477	1490	1496	1492	1496	1498	1509	1512	1507	1500	1500	1503	1502	1506	1506	1506	1507	1499	1499	1501	1502	1490	1492	1503	1516	1512	1507	1495	1490	1482	1474	1473	1510	1519	1519	1515	1517	1514	1513	1499	1485	1486	1499	1514	1523	1514	1493	1490	1490	1495	1490	1493	1486	1493	1495	1515	1539	1547	1537	1531	1558	0	0	0	0	0	0	0	0	0	0	0	0	0	0	0	0	0	0	0	0	1629	1599	1574	1560	1547	1529	1536	1554	1552	1554	1534	1508	1522	1544	1553	1565	1571	1571	1569	1549	1527	1512	1511	1504	1507	1525	1541	1554	1551	1530	1515	1500	1513	1534	0	1562	1549	1557	1550	1557	1545	1560	1552	1546	1547	1550	1556	1538	1529	1525	1538	1550	1556	1548	1541	1520	1501	1483	1482	1497	1499	1488	1479	1466	1479	1486	1490	1472	1463	1466	1480	1506	1541	1569	1561	1534	1502	1502	1507	1506	1506	1503	1510	1513	1528	1545	1552	1540	1529	1525	1529	1543	1551	1552	1537	1516	1501	1485	1490	1491	1488	1478	1474	1475	1487	1504	1515	1518	1532	1532	1547	1545	1509	1474	1463	1451	1445	1446	1457	1469	1481	1496	1506	1504	1504	1498	1496	1484	1475	0	0	0	0	0	0	0
0	0	0	0	0	0	0	0	0	0	1444	1450	1455	1455	1449	1446	1439	1439	1458	1491	1491	0	0	1715	1495	1470	1445	1421	1421	1411	1402	1416	1431	1444	1454	1465	1466	1451	1451	1422	1386	1379	1396	0	0	1389	1392	1399	1405	1416	1416	1425	1428	1426	1426	1428	1431	1435	1432	1424	1418	1416	1424	1446	1468	1468	1473	1469	1465	1451	1451	1445	1441	1437	1434	1424	1415	1426	1444	1461	1476	1485	1476	1470	1454	1426	1408	1392	1387	1389	1407	1428	1437	1428	1415	1418	1424	1420	1415	1414	1417	1420	1422	1415	1415	1425	1439	1430	1427	1419	1418	1434	1449	1450	1455	1454	1457	1456	1444	1455	1462	1464	1469	1455	1450	1448	1452	1459	1482	1498	1514	0	0	0	0	0	0	0	0	0	0	0	0	0	1544	1544	0	0	0	0	0	0	0	0	0	0	0	0	0	0	0	0	1645	1641	1653	1654	1656	1658	1675	0	0	0	0	0	0	0	0	1536	1534	1509	1482	1479	1474	1466	1474	1484	1495	1497	1487	1469	1453	1450	1444	1438	1438	1453	1469	1488	1497	1501	1497	1487	1473	1456	1448	1479	1490	1500	1505	1500	1491	1487	1489	1505	1513	1518	1504	1483	1476	1465	1458	1435	1440	1452	1474	1479	1463	1458	1475	1479	1488	1491	1497	1502	1498	1484	1456	1452	1455	1462	1467	1464	1473	1479	1483	1471	1474	1467	1463	1465	1473	1497	1499	1491	1466	1444	1429	1424	1437	1442	1443	1454	1466	1481	1485	1478	1467	1462	1459	1460	1461	1465	1464	1482	1495	1497	1498	1506	1505	1498	1484	1461	1438	1442	1452	1462	1462	1463	1467	1476	1480	1477	1474	1477	1475	1468	1475	1475	1476	1475	1477	1484	1477	1467	1459	1466	1489	1492	1472	1495	1491	1490	1492	1493	1500	1493	1479	1475	1474	1476	1490	1491	1488	1483	1473	1462	1459	1447	1442	1448	1464	1484	1486	1481	1484	1488	1492	1489	1484	1490	1504	1525	1527	1505	1496	1503	1517	1511	1516	1523	1522	1520	1516	1491	1482	1479	1499	1501	1504	1504	1500	1494	1486	1482	1486	1485	1485	1483	1483	1476	1467	1460	1460	1469	1483	1479	1472	1474	1483	1483	1470	1462	1480	1495	1495	1499	1493	1498	1493	1483	1476	1475	1486	1486	1477	1480	1491	1507	1524	1526	1519	1504	1493	1503	1513	1506	1496	1484	1486	1487	1485	1485	1472	1461	1458	1479	1491	1497	1506	1519	1520	1509	1495	1490	1497	1495	1490	1490	1501	1505	1510	1507	1498	1488	1501	1511	1512	1514	1508	1500	1490	1492	1490	1482	1476	1477	1486	1500	1511	1504	1501	1499	1485	1475	1464	1485	1498	1509	1513	1523	1534	1536	1524	1507	1498	1507	1526	1536	1526	1514	1509	1511	1516	1513	1512	1515	1518	1512	1527	1542	1556	1544	1531	1542	0	0	0	0	0	0	0	0	0	0	0	0	0	0	0	0	0	0	0	0	1642	1613	1559	1530	1533	1534	1554	1573	1590	1592	1559	1528	1527	1547	1540	1538	1539	1524	1548	1548	1537	1513	1501	1497	1502	1508	1523	1534	1532	1517	1498	1490	1504	1520	1531	1544	1559	1549	1558	1562	1561	1570	1551	1540	1533	1532	1536	1556	1546	1538	1538	1549	1552	1556	1552	1544	1523	1512	1512	1518	1518	1520	1513	1511	1507	1499	1484	1467	1468	1472	1480	1495	1526	1566	1563	1545	1526	1522	1515	1510	1510	1501	1499	1501	1519	1532	1539	1542	1525	1518	1514	1543	1565	1566	1552	1533	1511	1503	1515	1511	1501	1489	1485	1499	1510	1530	1543	1541	1538	1538	1533	1510	1469	1456	1451	1449	1451	1457	1471	1474	1480	1480	1490	1498	1498	1503	1502	1493	1482	0	0	0	0	0	0	0
0	0	0	0	0	0	0	0	0	0	1447	1456	1458	1458	1460	1458	1451	1443	1442	1475	1475	1513	1706	1508	1482	1451	1436	1420	1420	1406	1401	1413	1434	1448	1451	1453	1453	1438	1438	1406	1376	1357	1356	1366	1383	1393	1404	1399	1404	1407	1407	1412	1424	1426	1430	1426	1425	1423	1420	1412	1411	1405	1417	1450	1461	1463	1459	1454	1456	1432	1432	1435	1445	1448	1439	1432	1423	1425	1437	1453	1471	1479	1483	1479	1460	1429	1400	1387	1374	1388	1409	1438	1446	1434	1424	1404	1417	1421	1417	1406	1403	1412	1426	1422	1416	1417	1426	1447	1454	1444	1436	1403	1403	1416	1431	1442	1451	1449	1435	1446	1463	1475	1478	1470	1465	1457	1454	1465	1485	1511	0	0	0	0	0	0	0	0	0	0	1577	1589	1595	1598	1589	1579	1585	1607	1622	1615	1608	1606	1596	1597	1588	1586	1585	1588	1595	1609	1622	1647	1646	1649	1647	1655	1664	1669	1687	1708	1715	1699	0	0	0	0	1545	1533	1513	1476	1482	1490	1494	1487	1486	1488	1494	1494	1496	1485	1471	1467	1458	1448	1448	1458	1468	1489	1496	1506	1508	1508	1499	1480	1465	1478	1490	1496	1506	1502	1492	1485	1487	1496	1505	1508	1500	1488	1481	1479	1470	1452	1444	1447	1453	1471	1486	1490	1486	1483	1488	1498	1506	1509	1498	1492	1493	1479	1478	1478	1472	1468	1486	1492	1487	1474	1468	1474	1483	1492	1483	1484	1476	1474	1469	1453	1442	1433	1445	1449	1458	1463	1469	1463	1468	1466	1463	1466	1470	1471	1478	1478	1478	1482	1496	1509	1506	1508	1510	1507	1494	1464	1440	1444	1456	1467	1471	1473	1486	1498	1503	1504	1499	1498	1500	1497	1487	1481	1488	1485	1485	1491	1489	1488	1487	1487	1494	1473	1473	1476	1505	1493	1492	1492	1493	1484	1481	1475	1470	1471	1480	1496	1499	1488	1475	1466	1454	1448	1449	1453	1467	1484	1487	1495	1490	1480	1480	1480	1481	1485	1491	1516	1513	1494	1513	1527	1519	1518	1521	1523	1523	1521	1494	1491	1489	1483	1501	1502	1505	1502	1496	1481	1476	1483	1496	1500	1496	1494	1491	1471	1469	1457	1458	1476	1494	1486	1482	1482	1487	1488	1481	1476	1484	1496	1493	1493	1489	1494	1500	1498	1490	1488	1487	1487	1483	1484	1496	1507	1519	1523	1513	1496	1485	1495	1510	1514	1502	1495	1489	1484	1485	1485	1479	1469	1467	1481	1495	1489	1497	1514	1515	1506	1499	1495	1499	1494	1483	1480	1495	1503	1505	1497	1487	1480	1506	1519	1530	1523	1514	1501	1492	1489	1483	1476	1475	1484	1496	1506	1505	1506	1504	1504	1497	1486	1472	1475	1482	1496	1510	1523	1537	1542	1532	1519	1513	1518	1534	1533	1537	1535	1524	1532	1530	1532	1526	1525	1518	1516	1522	1543	1562	1554	1547	1546	1584	0	0	0	0	0	0	0	0	0	0	0	0	0	0	0	0	0	0	0	0	1608	1567	1533	1523	1544	1565	1580	1597	1587	1563	1538	1529	1550	1542	1534	1520	1532	1544	1543	1528	1510	1509	1517	1503	1510	1517	1531	1514	1507	1502	1501	1515	1529	1533	1554	1565	1565	1571	1567	1583	1557	1537	1525	1530	1524	1525	1549	1555	1549	1544	1540	1548	1555	1558	1551	1537	1523	1516	1522	1529	1533	1532	1529	1512	1495	1478	1474	1477	1486	1489	1496	1520	1562	1575	1571	1548	1538	1531	1525	1519	1507	1503	1497	1497	1488	1504	1509	1502	1495	1504	1524	1552	1567	1559	1545	1526	1518	1524	1519	1513	1507	1505	1510	1533	1552	1557	1550	1536	1536	1511	1490	1473	1459	1460	1458	1461	1474	1478	1480	1469	1456	1454	1464	1464	1486	1495	1500	1489	0	0	0	0	0	0	0
0	0	0	1467	1459	1464	1466	1466	1468	1454	1447	1452	1465	1465	1466	1461	1438	1413	1393	1388	1388	1391	1396	1405	1412	1413	1416	1408	1408	1396	1394	1403	1430	1448	1454	1439	1423	1406	1406	1398	1381	1372	1370	1390	1421	1433	1450	1439	1424	1406	1406	1400	1411	1426	1429	1428	1423	1414	1409	1415	1409	1405	1411	1423	1431	1432	1421	1414	1397	1396	1396	1407	1445	1452	1452	1444	1433	1428	1426	1441	1432	1431	1432	1445	1449	1434	1416	1396	1392	1413	1432	1449	1456	1456	1448	1424	1415	1422	1427	1425	1425	1427	1429	1422	1420	1422	1433	1461	1467	1460	1422	1398	1391	1405	1425	1440	1447	1440	1436	1437	1459	1480	1484	1483	1482	1473	1469	1478	1489	1520	0	0	0	0	0	0	0	0	0	0	1589	1609	1615	1616	1606	1601	1602	1615	1615	1616	1617	1614	1606	1598	1598	1588	1586	1600	1596	1598	1622	1636	1645	1646	1639	1642	1655	1665	1688	1699	1698	1690	1687	0	0	0	1560	1520	1478	1473	1476	1486	1490	1494	1495	1484	1478	1481	1487	1498	1480	1476	1464	1460	1459	1458	1454	1455	1465	1487	1520	1518	1507	1490	1473	1473	1483	1483	1486	1473	1468	1468	1473	1481	1490	1495	1490	1487	1479	1476	1468	1466	1456	1455	1451	1473	1495	1501	1496	1488	1483	1495	1502	1508	1508	1507	1501	1498	1494	1487	1474	1470	1482	1494	1485	1470	1462	1471	1483	1489	1491	1480	1482	1476	1474	1466	1459	1451	1448	1456	1459	1466	1461	1457	1457	1456	1459	1465	1470	1478	1484	1492	1490	1486	1492	1494	1497	1497	1507	1512	1501	1463	1441	1447	1452	1457	1470	1480	1484	1494	1495	1496	1494	1490	1493	1485	1479	1475	1489	1486	1470	1462	1466	1468	1471	1481	1492	1484	1480	1484	1503	1493	1487	1483	1484	1486	1490	1483	1471	1472	1475	1502	1505	1506	1504	1512	1495	1471	1462	1462	1476	1490	1499	1499	1502	1515	1512	1514	1514	1517	1498	1496	1484	1495	1508	1517	1510	1515	1513	1523	1533	1503	1483	1491	1493	1503	1502	1500	1510	1504	1489	1477	1470	1482	1497	1507	1505	1503	1491	1483	1467	1461	1469	1485	1509	1500	1488	1495	1491	1486	1483	1484	1500	1509	1504	1490	1481	1487	1503	1505	1489	1491	1487	1484	1492	1499	1496	1506	1514	1514	1511	1493	1484	1488	1506	1516	1514	1503	1493	1487	1483	1496	1487	1485	1485	1492	1490	1493	1492	1500	1505	1506	1503	1500	1501	1491	1481	1476	1490	1497	1498	1488	1476	1476	1518	1537	1550	1548	1526	1514	1502	1494	1483	1480	1481	1496	1505	1510	1507	1509	1513	1510	1507	1492	1476	1472	1479	1496	1505	1516	1524	1539	1538	1528	1522	1526	1531	1534	1535	1541	1548	1545	1540	1542	1533	1519	1510	1508	1514	1538	1564	1567	1562	1554	1598	0	0	0	0	0	0	0	0	0	0	0	0	0	0	0	0	0	0	0	0	1600	1568	1542	1542	1563	1573	1582	1578	1575	1568	1554	1546	1552	1548	1534	1528	1525	1534	1534	1513	1505	1510	1525	1525	1524	1527	1536	1517	1516	1522	1539	1539	1543	1553	1567	1574	1569	1568	1557	1551	1536	1526	1525	1530	1528	1524	1550	1555	1559	1550	1539	1541	1545	1551	1544	1534	1527	1514	1516	1525	1533	1537	1527	1509	1489	1483	1482	1490	1497	1497	1503	1522	1563	1585	1579	1567	1546	1535	1532	1527	1514	1505	1500	1492	1477	1480	1485	1492	1484	1492	1507	1536	1558	1564	1550	1531	1527	1527	1532	1529	1520	1519	1530	1549	1562	1561	1552	1525	1525	1492	1479	1474	1479	1485	1480	1482	1488	1487	1485	1467	1448	1441	1459	1459	1481	1497	1500	1496	0	0	0	0	0	0	0
0	0	0	1435	1446	1466	1472	1472	1465	1451	1436	1431	1422	1422	1419	1417	1403	1395	1390	1388	1388	1376	1364	1363	1373	1385	1388	1394	1394	1396	1393	1400	1407	1418	1414	1409	1398	1392	1392	1392	1397	1401	1412	1423	1431	1439	1440	1440	1418	1409	1409	1401	1411	1421	1431	1433	1438	1424	1420	1412	1407	1410	1414	1420	1423	1417	1408	1397	1399	1398	1398	1401	1421	1445	1451	1447	1432	1419	1420	1433	1435	1428	1423	1434	1435	1433	1421	1415	1428	1428	1430	1440	1447	1451	1448	1443	1432	1431	1441	1440	1428	1422	1413	1409	1410	1410	1420	1444	1454	1439	1414	1404	1402	1403	1426	1437	1436	1427	1419	1434	1470	1481	1487	1494	1499	1492	1488	1495	1506	1517	1530	1544	1544	0	0	0	0	0	0	0	0	1614	1618	1621	1610	1610	1610	1617	1615	1621	1617	1605	1605	1606	0	0	0	0	0	0	0	0	0	1647	1645	1640	1646	1658	1680	1689	1680	1681	1682	1686	0	0	1550	1509	1478	1468	1470	1471	1476	1483	1488	1476	1465	1463	1465	1481	1488	1483	1473	1469	1463	1464	1458	1457	1454	1467	1494	1514	1506	1491	1481	1478	1479	1469	1463	1467	1473	1472	1469	1473	1477	1482	1485	1487	1483	1483	1470	1474	1468	1466	1458	1464	1488	1501	1495	1481	1477	1489	1501	1512	1512	1510	1502	1500	1493	1484	1471	1467	1481	1488	1483	1467	1460	1465	1478	1483	1485	1483	1490	1487	1481	1475	1473	1464	1457	1456	1459	1463	1461	1452	1450	1456	1459	1464	1472	1481	1493	1501	1500	1490	1480	1483	1484	1490	1499	1506	1499	1475	1449	1450	1458	1464	1476	1481	1481	1486	1487	1484	1483	1482	1482	1478	1471	1469	1474	1468	1459	1454	1452	1456	1465	1484	1491	1490	1481	1484	1487	1475	1475	1470	1474	1485	1488	1488	1485	1473	1495	1463	1495	1504	1497	1489	1477	1464	1474	1481	1502	1507	1502	1492	1483	1459	1455	1489	1494	1496	1473	1469	1482	1492	1501	1488	1486	1503	1508	1522	1523	1510	1486	1492	1496	1499	1497	1497	1501	1498	1489	1476	1474	1483	1497	1507	1500	1495	1496	1487	1473	1472	1482	1504	1518	1506	1504	1500	1490	1477	1488	1499	1519	1530	1514	1501	1491	1487	1503	1504	1502	1501	1497	1499	1510	1516	1511	1506	1503	1504	1505	1493	1481	1481	1496	1515	1517	1509	1496	1483	1488	1490	1497	1490	1490	1495	1497	1496	1490	1494	1506	1509	1507	1504	1503	1503	1484	1477	1484	1490	1488	1480	1475	1478	1530	1558	1566	1557	1540	1525	1514	1508	1497	1488	1491	1501	1507	1505	1507	1511	1520	1517	1512	1496	1488	1483	1488	1484	1499	1508	1521	1535	1535	1533	1525	1526	1527	1523	1524	1535	1544	1540	1537	1535	1529	1519	1511	1497	1504	1522	1554	1569	1579	1568	1603	0	0	0	0	0	0	0	0	0	0	0	0	0	1745	1723	1693	0	0	0	1611	1581	1564	1560	1562	1565	1570	1565	1555	1555	1558	1556	1535	1543	1544	1543	1537	1534	1535	1526	1505	1493	1517	1531	1537	1544	1543	1543	1527	1534	1547	1562	1554	1555	1549	1561	1571	1548	1535	1536	1529	1534	1533	1533	1530	1527	1526	1550	1562	1564	1561	1554	1546	1544	1542	1529	1525	1514	1508	1511	1514	1513	1520	1503	1494	1484	1487	1491	1510	1511	1508	1511	1528	1565	1579	1575	1562	1547	1538	1527	1533	1524	1508	1499	1486	1478	1476	1483	1486	1489	1489	1499	1528	1549	1571	1557	1542	1524	1524	1531	1530	1524	1521	1526	1543	1557	1554	1540	1511	1511	1478	1480	1483	1500	1504	1510	1504	1496	1500	1499	1482	1465	1453	1457	1457	1482	1503	1507	1504	0	0	0	0	0	0	0
0	0	0	1447	1456	1463	1473	1473	1459	1440	1423	1423	1420	1420	1410	1409	1390	1396	1396	1394	1394	1388	1373	1377	1388	1387	1391	1396	1396	1397	1396	1398	1399	1397	1401	1391	1388	1384	1384	1384	1405	1419	1428	1429	1429	1431	1434	1427	1415	1408	1408	1393	1399	1416	1427	1439	1444	1440	1427	1412	1411	1413	1418	1423	1418	1410	1401	1406	1408	1406	1406	1418	1428	1445	1453	1440	1427	1417	1422	1425	1429	1428	1416	1420	1423	1422	1424	1423	1421	1417	1415	1421	1425	1433	1435	1433	1435	1437	1440	1434	1425	1420	1414	1410	1410	1409	1413	1435	1441	1428	1412	1416	1415	1419	1434	1444	1445	1431	1431	1442	1471	1480	1485	1498	1499	1502	1500	0	0	0	1523	1517	1521	1527	0	0	0	0	0	0	0	0	0	1599	1593	1588	1605	1609	1611	1605	1598	0	0	0	0	0	0	0	0	0	0	0	0	0	1667	1653	1661	1680	1695	1700	1701	1693	1690	1672	0	0	1514	1484	1481	1471	1467	1466	1461	1469	1477	1470	1453	1454	1465	1476	1482	1482	1478	1471	1465	1459	1462	1459	1465	1471	1481	1483	1485	1487	1484	1479	1481	1469	1470	1476	1487	1486	1475	1464	1463	1472	1481	1492	1491	1484	1486	1493	1491	1473	1466	1479	1487	1489	1485	1472	1466	1476	1491	1506	1513	1508	1500	1483	1486	1475	1465	1465	1476	1480	1475	1468	1460	1457	1472	1479	1487	1498	1503	1502	1495	1484	1482	1478	1467	1460	1466	1470	1464	1462	1469	1471	1471	1471	1466	1481	1488	1496	1502	1485	1475	1469	1473	1481	1490	1496	1498	1489	1469	1462	1469	1479	1482	1487	1485	1483	1481	1476	1476	1481	1476	1473	1470	1466	1477	1458	1451	1447	1450	1450	1462	1486	1490	1491	1479	1481	1483	1465	1457	1462	1470	1490	1488	1490	1486	1477	1462	1486	1497	1509	1510	1488	1480	1469	1466	1472	1476	1475	1473	1472	1467	1463	1447	1465	1482	1473	1463	1462	1472	1487	1486	1466	1469	1479	1500	1519	1520	1509	1483	1490	1490	1485	1491	1490	1489	1490	1485	1484	1489	1494	1502	1498	1486	1484	1485	1487	1487	1486	1494	1506	1518	1507	1491	1494	1478	1480	1491	1510	1527	1532	1522	1504	1493	1491	1497	1503	1504	1504	1497	1501	1515	1520	1520	1505	1490	1488	1492	1487	1481	1477	1497	1510	1517	1506	1491	1483	1476	1477	1483	1484	1488	1496	1494	1489	1480	1485	1503	1520	1521	1508	1508	1505	1500	1483	1484	1485	1484	1479	1470	1478	1533	1552	1564	1553	1538	1524	1522	1516	1514	1506	1502	1505	1504	1504	1500	1510	1526	1519	1513	1498	1494	1489	1486	1491	1497	1502	1514	1524	1526	1527	1527	1532	1526	1517	1517	1525	1526	1525	1525	1525	1524	1513	1505	1503	1507	1521	1547	1565	1576	1581	0	0	0	0	0	0	0	0	0	0	0	0	1731	1720	1717	1724	1710	1686	1681	1661	1636	1587	1560	1560	1560	1557	1552	1549	1533	1526	1544	1549	1522	1529	1532	1537	1541	1542	1543	1533	1517	1498	1513	1536	1556	1557	1554	1553	1544	1551	1565	1583	1566	1553	1549	1557	1548	1514	1522	1527	1530	1530	1540	1535	1534	1524	1520	1552	1562	1564	1562	1556	1554	1546	1533	1519	1518	1498	1494	1501	1504	1506	1509	1491	1486	1485	1492	1503	1516	1515	1512	1510	1528	1546	1567	1567	1554	1529	1520	1522	1531	1519	1504	1489	1486	1485	1486	1489	1495	1491	1491	1498	1520	1538	1553	1551	1534	1528	1528	1532	1527	1518	1508	1519	1525	1528	1526	1520	1506	1506	1485	1487	1500	1509	1519	1517	1517	1511	1509	1510	1507	1495	1476	1475	1475	1492	1504	1505	1498	0	0	0	0	0	0	0
0	0	0	1458	1466	1470	1466	1466	1458	1419	1408	1413	1409	1409	1401	1397	1399	1400	1401	1405	1405	1400	1407	1412	1410	1404	1397	1394	1394	1401	1405	1398	1403	1390	1389	1388	1385	1383	1383	1385	1399	1415	1427	1429	1428	1421	1418	1417	1409	1403	1403	1397	1393	1400	1425	1441	1449	1431	1420	1410	1411	1418	1433	1427	1419	1409	1406	1414	1421	1431	1431	1437	1451	1456	1456	1446	1427	1425	1429	1431	1429	1424	1414	1410	1414	1412	1411	1409	1413	1412	1406	1406	1413	1418	1421	1416	1421	1429	1439	1435	1428	1421	1420	1417	1414	1411	1418	1432	1436	1433	1422	1422	1422	1434	1444	1450	1450	1441	1447	1470	1484	1485	1486	1496	1499	1505	1504	0	0	1513	1506	1503	1499	1509	1536	0	0	0	0	0	0	0	0	0	0	1577	1591	0	0	0	0	0	0	0	0	0	0	0	0	0	0	0	0	1671	1679	1678	1663	1674	1710	1713	1716	1707	1695	1674	1643	0	1477	1472	1477	1485	1481	1470	1463	1459	1464	1464	1461	1460	1465	1469	1478	1478	1477	1473	1466	1459	1462	1464	1471	1482	1484	1485	1483	1486	1491	1481	1483	1486	1483	1491	1505	1505	1488	1463	1462	1468	1482	1495	1492	1494	1500	1511	1505	1497	1486	1486	1483	1480	1474	1465	1460	1464	1478	1495	1500	1494	1484	1475	1467	1462	1455	1457	1466	1467	1462	1458	1453	1453	1462	1483	1494	1493	1507	1507	1500	1492	1485	1485	1485	1476	1474	1484	1489	1491	1491	1486	1486	1469	1467	1471	1480	1486	1496	1482	1463	1466	1470	1478	1486	1494	1496	1498	1494	1483	1478	1485	1487	1484	1487	1484	1472	1474	1469	1469	1468	1467	1472	1474	1480	1465	1454	1465	1477	1467	1480	1490	1488	1486	1481	1483	1483	1469	1469	1466	1475	1485	1484	1483	1483	1491	1500	1478	1497	1503	1474	1487	1484	1457	1458	1459	1460	1461	1467	1475	1487	1485	1471	1447	1470	1469	1466	1463	1469	1483	1468	1461	1465	1471	1501	1515	1517	1516	1494	1480	1478	1480	1486	1481	1483	1478	1484	1489	1493	1500	1496	1486	1475	1471	1480	1488	1496	1498	1499	1504	1500	1493	1488	1485	1483	1485	1499	1505	1520	1524	1511	1497	1486	1489	1499	1504	1507	1510	1502	1504	1511	1521	1521	1506	1486	1482	1484	1485	1483	1475	1489	1504	1507	1508	1488	1474	1469	1467	1468	1476	1481	1487	1490	1486	1480	1491	1516	1536	1536	1518	1513	1504	1502	1495	1485	1483	1483	1482	1480	1490	1522	1538	1540	1535	1527	1520	1519	1517	1520	1519	1511	1495	1487	1490	1502	1506	1511	1514	1508	1505	1492	1492	1492	1492	1498	1506	1515	1521	1525	1528	1534	1536	1533	1519	1516	1515	1519	1524	1525	1527	1529	1514	1521	1513	1514	1524	1541	1550	1558	1588	0	0	0	0	0	0	0	0	0	0	0	1679	1677	1696	1703	1716	1715	1698	1687	1681	1646	1594	1561	1559	1554	1548	1543	1540	1531	1511	1510	1507	1519	1517	1507	1501	1509	1533	1558	1562	1543	1524	1509	1518	1540	1567	1595	1601	1546	1535	1555	1580	1576	1574	1565	1554	1509	1501	1518	1535	1534	1535	1538	1538	1533	1524	1511	1550	1563	1565	1557	1556	1554	1558	1547	1528	1506	1492	1478	1483	1497	1516	1511	1501	1500	1490	1506	1514	1519	1517	1510	1514	1521	1534	1544	1543	1531	1511	1504	1524	1520	1512	1491	1483	1492	1493	1495	1495	1498	1497	1489	1495	1510	1523	1532	1526	1518	1529	1539	1534	1521	1511	1498	1495	1498	1498	1503	1509	1507	1507	1508	1513	1522	1519	1522	1531	1529	1521	1521	1523	1531	1518	1501	1485	1485	1483	1474	1456	1450	0	0	0	0	0	0	0
0	0	0	1463	1464	1461	1458	1458	1437	1400	1400	1397	1396	1396	1392	1394	1403	1412	1412	1415	1415	1420	1429	1441	1438	1416	1399	1396	1396	1408	1414	1412	1416	1397	1392	1396	1398	1389	1389	1384	1393	1400	1414	1421	1427	1423	1419	1419	1418	1410	1410	1403	1390	1395	1405	1430	1443	1439	1429	1414	1409	1420	1442	1442	1422	1415	1409	1422	1435	1451	1451	1459	1464	1470	1465	1450	1440	1436	1438	1435	1425	1422	1422	1418	1414	1406	1403	1407	1406	1413	1409	1416	1417	1419	1416	1417	1419	1420	1433	1433	1432	1434	1432	1425	1417	1412	1420	1435	1435	1437	1435	1432	1435	1443	1446	1454	1451	1455	1472	1489	1494	1494	1494	1504	1512	1501	1498	1496	1494	1495	1499	1495	1496	1511	1531	0	0	0	0	0	0	0	0	0	0	0	0	0	0	0	0	0	0	0	0	0	0	0	0	0	0	0	1664	1670	1675	1674	1660	1688	1704	1715	1726	1711	1692	1669	1630	0	1456	1473	1496	1497	1488	1476	1463	1449	1452	1456	1459	1459	1461	1463	1472	1481	1482	1478	1473	1464	1463	1471	1478	1489	1489	1491	1489	1502	1501	1491	1490	1492	1495	1507	1521	1517	1499	1473	1475	1479	1483	1490	1482	1499	1502	1517	1513	1511	1497	1488	1479	1472	1465	1460	1459	1466	1475	1491	1497	1486	1477	1469	1464	1460	1448	1446	1441	1445	1451	1448	1449	1448	1459	1480	1496	1505	1508	1504	1497	1486	1477	1488	1486	1487	1481	1483	1491	1504	1504	1499	1496	1488	1478	1467	1480	1486	1495	1480	1465	1465	1471	1478	1480	1487	1499	1500	1502	1500	1491	1486	1487	1485	1485	1480	1468	1468	1468	1464	1466	1462	1468	1482	1490	1484	1482	1482	1486	1487	1497	1496	1494	1485	1479	1479	1468	1470	1470	1473	1495	1492	1487	1486	1476	1482	1482	1479	1485	1479	1480	1461	1461	1451	1451	1450	1458	1459	1465	1468	1485	1485	1473	1473	1477	1476	1471	1469	1470	1500	1478	1472	1471	1467	1492	1514	1514	1505	1503	1481	1485	1488	1488	1486	1478	1475	1479	1489	1497	1495	1488	1477	1471	1481	1490	1504	1510	1512	1509	1506	1494	1486	1490	1493	1478	1487	1507	1511	1510	1507	1496	1487	1486	1486	1500	1501	1512	1509	1511	1515	1522	1532	1532	1518	1493	1497	1501	1503	1495	1488	1506	1517	1511	1500	1486	1474	1463	1456	1461	1476	1492	1500	1503	1495	1495	1506	1524	1543	1538	1521	1505	1500	1506	1502	1492	1485	1485	1491	1500	1514	1510	1512	1520	1517	1519	1517	1512	1521	1531	1530	1506	1490	1484	1494	1496	1502	1509	1499	1506	1503	1508	1503	1500	1509	1508	1512	1520	1525	1530	1534	1537	1532	1524	1520	1517	1513	1516	1520	1529	1538	1538	1530	1526	1529	1526	1534	1542	1545	1547	1567	1603	0	0	0	0	0	0	0	0	0	0	1656	1675	1697	1716	1710	1707	1695	1700	1688	1664	1618	1584	1546	1542	1535	1535	1530	1528	1532	1529	1526	1536	1528	1528	1528	1528	1533	1546	1553	1553	1553	1540	1536	1531	1533	1546	1560	1550	1542	1542	1550	1587	0	0	1568	1507	1516	1532	1546	1543	1544	1546	1545	1528	1517	1511	1545	1556	1555	1549	1551	1557	1564	1554	1538	1517	1487	1472	1485	1513	1528	1529	1516	1509	1510	1516	1520	1520	1513	1512	1512	1524	1537	1538	1532	1517	1492	1495	1504	1512	1505	1492	1484	1500	1512	1511	1503	1500	1500	1496	1509	1515	1522	1523	1512	1521	1531	1541	1538	1525	1510	1499	1495	1491	1496	1503	1519	1531	1531	1544	1547	1536	1536	1530	1538	1534	1526	1518	1521	1535	1538	1515	1493	1493	1486	1475	1460	1450	0	0	0	0	0	0	0
0	0	0	1457	1452	1450	1435	1435	1413	1402	1392	1391	1386	1386	1382	1384	1400	1411	1415	1430	1430	1436	1449	1453	1444	1423	1404	1399	1407	1407	1419	1423	1423	1414	1400	1404	1406	1397	1397	1385	1382	1390	1394	1412	1418	1420	1417	1422	1426	1429	1429	1422	1406	1399	1406	1422	1437	1448	1436	1423	1411	1424	1442	1445	1430	1421	1419	1429	1445	1458	1458	1464	1465	1467	1469	1462	1457	1453	1451	1442	1430	1424	1429	1429	1423	1410	1414	1414	1416	1419	1420	1420	1426	1427	1426	1421	1424	1434	1442	1438	1435	1451	1457	1449	1440	1433	1436	1432	1425	1419	1430	1433	1435	1426	1418	1425	1441	1451	1495	1500	1496	1492	1485	1514	1514	1511	1492	1480	1481	1479	1482	1497	1497	1515	1527	0	0	0	0	0	0	0	0	0	0	0	0	0	0	0	0	0	0	0	0	0	0	0	0	1683	1685	1676	1665	1670	1668	1666	1663	1685	1707	1713	1728	1703	1677	1654	1618	0	1477	1494	1503	1493	1487	1473	1460	1448	1442	1446	1451	1453	1452	1452	1465	1471	1480	1480	1476	1475	1469	1474	1479	1486	1497	1503	1511	1511	1509	1494	1494	1491	1497	1505	1516	1519	1503	1485	1482	1482	1478	1473	1474	1491	1501	1507	1504	1504	1503	1494	1479	1464	1455	1458	1468	1483	1506	1510	1501	1484	1479	1469	1458	1456	1448	1435	1422	1426	1437	1439	1442	1450	1463	1485	1497	1503	1509	1493	1487	1471	1466	1472	1480	1489	1479	1472	1478	1494	1502	1500	1493	1486	1490	1502	1505	1506	1506	1491	1481	1474	1477	1482	1474	1478	1486	1492	1495	1492	1489	1493	1486	1477	1475	1464	1468	1471	1480	1478	1476	1471	1466	1476	1489	1502	1497	1503	1507	1503	1507	1515	1524	1513	1488	1476	1475	1483	1485	1489	1488	1495	1494	1481	1478	1474	1490	1497	1494	1474	1468	1462	1460	1450	1444	1442	1452	1454	1449	1449	1461	1474	1484	1486	1487	1482	1480	1478	1494	1500	1487	1481	1479	1470	1484	1510	1509	1497	1496	1503	1513	1515	1507	1498	1497	1493	1484	1475	1468	1468	1477	1489	1501	1511	1505	1488	1483	1483	1489	1491	1488	1496	1510	1511	1503	1505	1516	1506	1472	1451	1466	1497	1528	1529	1509	1490	1491	1502	1530	1554	1556	1552	1543	1534	1521	1511	1508	1480	1442	1434	1476	1508	1537	1537	1505	1476	1474	1480	1498	1517	1541	1554	1548	1550	1560	1572	1574	1571	1569	1573	1580	1581	1560	1564	1553	1538	1530	1541	1550	1546	1493	1461	1458	1473	1493	1511	1512	1523	1538	1535	1519	1499	1495	1494	1496	1504	1506	1499	1508	1518	1528	1528	1528	1515	1508	1511	1521	1526	1535	1539	1534	1515	1511	1514	1513	1511	1516	1522	1530	1539	1535	1527	1524	1530	1536	1534	1541	1537	1540	1575	1580	0	0	0	0	0	0	0	0	0	0	1654	1685	1723	1732	1731	1710	1690	1690	1680	1654	1629	1590	1553	1529	1521	1529	1531	1536	1540	1543	1550	1548	1540	1536	1535	1537	1540	1544	1545	1552	1563	1554	1550	1541	1540	1548	1542	1535	1534	1541	1536	1569	0	0	1578	1528	1540	1554	1558	1554	1556	1555	1547	1541	1527	1519	1523	1535	1539	1541	1543	1546	1556	1549	1538	1524	1509	1493	1509	1523	1542	1547	1537	1528	1527	1514	1523	1519	1507	1500	1507	1518	1539	1542	1528	1509	1497	1490	1499	1504	1509	1509	1522	1538	1540	1535	1529	1521	1521	1538	1546	1549	1549	1559	1578	1581	1557	1541	1534	1522	1508	1498	1491	1493	1496	1517	1534	1550	1550	1560	1576	1571	1553	1544	1541	1533	1521	1518	1514	1514	1528	1541	1534	1534	1518	1518	1508	1482	0	0	0	0	0	0	0
0	0	0	1451	1449	1427	1418	1418	1404	1397	1393	1392	1376	1376	1378	1393	1407	1418	1425	1438	1438	1451	1452	1458	1446	1431	1412	1406	1410	1410	1417	1424	1423	1412	1411	1410	1398	1390	1390	1382	1375	1375	1386	1398	1405	1407	1403	1411	1419	1425	1425	1427	1429	1416	1412	1422	1439	1449	1448	1438	1424	1413	1435	1432	1431	1425	1422	1430	1441	1454	1454	1458	1430	1429	1436	1446	1451	1455	1459	1448	1436	1427	1425	1427	1432	1436	1445	1452	1444	1437	1437	1435	1445	1449	1449	1439	1435	1440	1441	1439	1432	1444	1454	1458	1455	1452	1448	1442	1436	1426	1423	1425	1428	1416	1413	1418	1430	1441	1482	1499	1495	1487	1480	1484	1500	1499	1489	1468	1456	1459	1478	1499	1504	1498	1507	1525	0	0	0	0	0	0	0	0	0	1655	1680	1690	1671	1673	1667	0	1638	1642	0	0	0	1665	1676	1688	1691	1697	1677	1670	1667	1668	1665	1688	1708	1709	1716	1690	1662	1647	1615	0	1509	1498	1484	1482	1480	1470	1457	1447	1439	1433	1436	1444	1449	1450	1458	1474	1484	1487	1485	1486	1478	1476	1478	1484	1505	1511	1514	1510	1504	1495	1490	1485	1485	1490	1501	1501	1488	1485	1490	1491	1483	1470	1472	1488	1492	1492	1474	1482	1489	1502	1494	1474	1473	1493	1518	1532	1537	1535	1528	1506	1485	1457	1449	1449	1451	1455	1436	1428	1429	1435	1439	1451	1466	1482	1482	1484	1468	1458	1434	1416	1413	1424	1449	1476	1480	1487	1481	1478	1480	1492	1507	1526	1541	1539	1544	1544	1563	1521	1483	1452	1438	1438	1448	1453	1447	1424	1410	1422	1454	1480	1502	1509	1514	1510	1525	1534	1540	1520	1497	1477	1465	1464	1475	1496	1518	1552	1586	1598	1523	1529	1534	1544	1530	1499	1476	1481	1487	1491	1484	1489	1485	1479	1472	1469	1487	1489	1482	1479	1477	1471	1472	1475	1464	1448	1446	1464	1459	1452	1455	1459	1474	1489	1489	1489	1487	1498	1486	1474	1486	1485	1480	1474	1484	1508	1509	1508	1523	1530	1531	1526	1522	1529	1552	1520	1498	1460	1417	1383	0	0	0	0	0	0	0	0	0	0	0	0	0	0	0	0	0	0	0	0	0	0	0	0	0	0	0	0	0	0	0	0	0	0	0	0	0	0	0	0	0	0	0	0	0	0	0	0	0	0	0	1699	1698	1705	1717	1729	1708	1705	1719	1741	1742	1716	1696	1695	1702	0	0	0	0	0	1478	1452	1444	1469	1495	1511	1521	1535	1545	1541	1528	1508	1500	1497	1497	1499	1499	1503	1506	1524	1538	1548	1535	1521	1513	1512	1516	1526	1530	1531	1514	1495	1493	1499	1511	1513	1516	1522	1535	1541	1538	1532	1526	1525	1535	1538	1535	1537	1549	1572	1572	0	0	0	0	0	0	0	0	0	0	1666	1697	1732	2022	1786	1719	1684	1683	1665	1638	1623	1598	1569	1536	1517	1529	1546	1546	1546	1543	1550	1556	1549	1550	1549	1547	1550	1549	1549	1560	1565	1549	1544	1542	1551	1552	1543	1516	1520	1524	1509	1519	1545	1558	1543	1544	1558	1562	1563	1564	1568	1568	1562	1555	1536	1529	1510	1506	1508	1512	1520	1527	1531	1537	1543	1535	1523	1517	1520	1532	1538	1537	1538	1542	1539	1546	1535	1519	1512	1511	1518	1539	1550	1551	1521	1511	1503	1512	1516	1518	0	0	0	0	0	0	0	0	0	0	0	0	0	0	0	0	0	0	0	0	0	0	0	1520	1503	1501	0	0	0	0	0	0	0	0	0	0	0	0	0	0	0	0	0	0	1504	1476	0	0	0	0	0	0	0	0	0
0	0	0	1426	1425	1411	1389	1389	1381	1382	1388	1388	1389	1389	1404	1422	1422	1423	1427	1435	1448	1448	1448	1434	1425	1423	1422	1417	1428	1428	1422	1417	1420	1410	1412	1400	1386	1379	1379	1382	1383	1382	1389	1401	1405	1410	1407	1391	1390	1404	1404	1419	1436	1431	1427	1432	1447	1457	1455	1450	1479	1476	1472	1447	1426	1411	1408	1405	1397	1395	1395	1403	1410	1406	1414	1425	1434	1444	1451	1442	1432	1419	1416	1423	1431	1439	1449	1454	1449	1438	1436	1438	1442	1454	1457	1442	1436	1437	1440	1429	1427	1438	1454	1459	1461	1453	1451	1446	1449	1436	1425	1420	1419	1412	1413	1415	1421	1434	1466	1484	1480	1479	1461	1463	1478	1484	1466	1452	1449	1467	1493	1510	1501	1489	1495	1516	0	0	0	0	1575	1572	1578	1599	1647	1680	1927	1927	1662	1664	1671	1687	1696	1690	1671	1650	1646	1647	1674	1690	1693	1690	1694	1699	1689	1674	1663	1682	1695	1699	1697	1677	1647	1648	1626	0	1527	1485	1469	1468	1469	1463	1453	1446	1445	1433	1432	1445	1451	1459	1467	1479	1489	1496	1495	1491	1483	1477	1478	1489	1504	1508	1509	1499	1489	1486	1477	1478	1475	1473	1478	1470	1473	1486	1493	1488	1477	1477	1482	1478	1475	1464	1462	1458	1463	1484	1486	1490	1496	1519	1553	1584	1611	1636	1656	1662	1656	1627	1612	1613	1628	1640	1640	1618	1596	1559	0	0	0	0	0	0	0	0	0	0	0	0	0	0	0	0	0	0	0	0	0	0	0	0	0	0	0	0	0	0	0	0	0	0	0	0	0	0	0	0	0	0	0	0	0	0	0	0	0	0	0	0	0	0	0	0	0	0	0	1505	1513	1511	1497	1489	1480	1477	1479	1486	1479	1480	1480	1472	1467	1465	1481	1483	1477	1473	1457	1462	1462	1484	1466	1455	1470	1493	1483	1463	1452	1447	1466	1480	1495	1497	1501	1494	1476	1463	1479	1480	1480	1478	1486	1509	1522	1520	1519	1522	1519	1518	1528	1552	0	0	0	0	0	0	0	0	0	0	0	0	0	0	0	0	0	0	0	0	0	0	0	0	0	0	0	0	0	0	0	0	0	0	0	0	0	0	0	0	0	0	0	0	0	0	0	0	0	0	0	0	0	0	0	0	0	0	1731	1738	1739	1741	1721	1718	1731	1751	1753	1743	1736	1734	1735	0	0	0	0	0	0	0	0	1505	1508	1519	1521	1543	1550	1545	1528	1515	1503	1501	1497	1494	1497	1501	1517	1526	1536	1538	1533	1509	1499	1511	1512	1519	1519	1512	1493	1482	1480	1488	1504	1510	1514	1527	1544	1546	1541	1533	1526	1524	1525	1524	1529	1532	1545	1562	1566	0	0	0	0	0	0	0	0	0	0	1697	1705	1726	2026	2024	1736	1680	1673	1654	1639	1624	1616	1587	1557	1526	1545	1554	1552	1551	1540	1535	1542	1550	1553	1557	1556	1556	1549	1539	1532	1538	1544	1549	1554	1562	1561	1552	1530	1529	1530	1517	1511	1531	1539	1526	1544	1555	1547	1544	1557	1563	1564	1546	1534	1522	1530	1525	1518	1515	1517	1521	1519	1524	1530	1535	1530	1523	1517	1522	1528	1530	1529	1526	1548	1547	1558	1554	1535	1530	1528	1528	1535	1536	1525	1508	1498	1498	1503	1514	0	0	0	0	0	0	0	0	0	0	0	0	0	0	0	0	0	0	0	0	0	0	0	0	0	0	0	0	0	0	0	0	0	0	0	0	0	0	0	0	0	0	0	0	0	0	0	0	0	0	0	0	0	0	0	0
0	0	0	1407	1393	1385	1378	1378	1369	1388	1395	1411	0	0	0	0	1445	1436	1434	1434	1445	1445	1436	0	0	0	0	0	0	0	1445	1456	1461	1463	1459	1441	1434	1420	1420	1419	1426	1437	1446	1446	1456	1455	1441	1420	1412	1442	1442	0	1496	1501	1489	1490	1481	1489	1501	1510	1537	1538	1509	1472	1446	1438	1454	1472	1446	1433	1433	1430	1425	1408	1394	1413	1421	1432	1437	1433	1420	1403	1405	1415	1428	1439	1446	1452	1443	1434	1436	1435	1449	1449	1447	1438	1435	1439	1436	1431	1423	1435	1452	1454	1451	1446	1436	1437	1441	1442	1420	1417	1413	1408	1409	1414	1430	1438	1453	1463	1473	1474	1463	1467	1485	1475	1459	1442	1451	1470	1491	1492	1491	1485	1490	0	0	0	1564	1578	1588	1594	1614	1630	1665	1688	1944	1692	1644	1661	1680	1966	0	0	1688	1663	1647	1650	1669	1692	1700	1702	1702	1706	1701	1695	1697	1682	1687	1682	1668	1669	1671	1664	1630	0	1538	1471	1461	1461	1463	1464	1453	1451	1446	1442	1443	1452	1460	1472	1474	1478	1488	1496	1494	1494	1487	1481	1482	1487	1490	1493	1492	1486	1478	1477	1477	1473	1467	1460	1462	1458	1467	1484	1491	1493	1477	1471	1475	1466	1457	1460	1489	1541	0	0	0	0	0	0	0	1631	1644	1665	1681	1692	1682	1669	1664	1660	1674	1685	1696	1661	1637	0	0	0	0	0	0	0	0	0	0	0	0	0	0	0	0	0	0	0	0	0	0	0	0	0	0	0	0	0	0	0	0	0	0	0	0	0	0	0	0	0	0	0	0	0	0	0	0	0	0	0	0	0	0	0	0	0	0	0	0	0	1529	1513	1499	1498	1495	1486	1486	1498	1486	1471	1468	1465	1461	1461	1475	1472	1474	1471	1465	1459	1460	1463	1460	1488	1468	1471	1469	1467	1467	1474	1456	1498	1483	1484	1498	1492	1474	1458	1473	1473	1475	1480	1490	1520	1524	1507	1497	1511	1521	1548	1556	0	0	0	0	0	0	0	0	0	0	0	0	0	0	0	0	0	0	0	0	0	0	0	0	0	0	0	0	0	0	0	0	0	0	0	0	0	0	0	0	0	0	0	0	0	0	0	0	0	0	0	0	0	0	0	0	0	0	0	1744	1760	1770	1767	1745	1733	1738	1764	1773	1772	1769	1775	1781	0	0	0	0	0	0	0	0	0	1511	1519	1524	1539	1545	1541	1526	1510	1500	1507	1503	1498	1496	1509	1518	1521	1522	1526	1513	1503	1494	1498	1512	1511	1510	1502	1489	1475	1476	1486	1499	1507	1512	1539	1542	1544	1538	1527	1538	1535	1528	1518	1516	1529	1531	1540	1557	0	0	0	0	0	0	0	0	0	0	1710	1710	1717	1772	2019	1760	1706	1688	1677	1645	1623	1617	1595	1565	1559	1561	1567	1563	1553	1537	1530	1532	1534	1538	1543	1550	1550	1545	1532	1532	1537	1543	1552	1561	1563	1560	1553	1542	1537	1546	1546	1534	1520	1524	1524	1543	1549	1534	1533	1555	1565	1547	1514	1503	1504	1515	1530	1531	1529	1526	1519	1518	1515	1525	1537	1527	1513	1510	1513	1516	1522	1522	1529	1547	1566	1567	1553	1538	1534	1527	1538	1535	1527	1510	1498	1489	1484	1486	1496	0	0	0	0	0	0	0	0	0	0	0	0	1609	0	0	0	1603	1592	1601	0	0	1789	1606	0	0	0	0	0	0	0	0	0	0	0	0	0	0	0	0	0	0	0	0	0	0	0	0	0	0	0	0	0	0	0	0	0
0	0	0	0	0	0	0	0	0	0	0	0	0	0	0	0	0	0	0	0	0	0	0	0	0	0	0	0	0	0	0	0	0	0	0	0	0	0	0	0	1447	1459	1462	1480	1488	0	0	0	0	0	0	0	0	1511	1513	1514	1514	1514	1524	1548	0	0	1549	1513	1484	1481	1514	1533	0	0	0	0	1474	1438	1411	1405	1419	1421	1423	1412	1410	1411	1409	1413	1422	1436	1439	1447	1447	1442	1434	1435	1428	1425	1423	1429	1432	1435	1443	1438	1435	1440	1452	1454	1443	1432	1421	1418	1429	1433	1413	1408	1409	1413	1423	1435	1454	1449	1450	1451	1469	1477	1481	1487	1485	1486	1470	1455	1458	1486	1500	1483	1476	1486	1493	0	0	0	1561	1586	1609	1628	1643	1660	1701	1948	1947	1668	1645	1661	1681	1976	0	0	1973	1675	1655	1658	1675	1683	1692	1702	1789	1703	1708	1708	1710	1691	1689	1689	1661	1665	1672	1671	1637	0	1544	1483	1462	1464	1470	1474	1475	1472	1467	1455	1463	1473	1466	1469	1467	1474	1481	1495	1493	1491	1488	1484	1484	1489	1485	1480	1480	1477	1475	1485	1484	1473	1460	1452	1452	1453	1476	1488	1496	1502	1485	1475	1467	1457	1451	1474	1563	0	0	0	0	0	0	0	0	0	1684	1696	1715	1721	1710	1702	1707	1709	1723	1742	1754	1709	1681	0	0	0	0	0	0	0	0	0	0	0	0	0	0	0	0	0	0	0	0	0	0	0	0	0	0	0	0	0	0	0	0	0	0	0	0	0	0	0	0	0	0	0	0	0	0	0	0	0	0	0	0	0	0	0	0	0	0	0	0	0	0	1531	1511	1517	1513	1503	1495	1496	1481	1467	1468	1466	1468	1467	1465	1471	1476	1474	1465	1464	1456	1465	1481	1461	1457	1463	1459	1465	1474	1481	1483	1496	1478	1486	1497	1495	1467	1462	1476	1479	1481	1485	1507	1522	1518	1495	1478	1497	1540	1542	0	0	0	0	0	0	0	0	0	0	0	0	0	0	0	0	0	0	0	0	0	0	0	0	0	0	0	0	0	0	0	0	0	0	0	0	0	0	0	0	0	0	0	0	0	0	0	0	0	0	0	0	0	0	0	0	0	0	0	0	1766	1783	1790	1783	1762	1753	1758	1767	1781	1783	1781	1787	1790	1772	0	0	0	0	0	0	0	0	0	1514	1528	1537	1541	1542	1530	1517	1502	1513	1513	1513	1503	1508	1511	1510	1516	1509	1504	1490	1484	1499	1508	1515	1512	1508	1495	1488	1485	1492	1501	1504	1511	1538	1541	1539	1528	1533	1540	1537	1530	1518	1514	1519	1508	1510	1555	0	0	0	0	0	0	0	0	0	0	0	1724	1735	1766	2012	2000	1718	1700	1675	1645	1612	1584	1564	1544	1557	1562	1557	1556	1550	1536	1522	1522	1526	1529	1537	1539	1535	1536	1535	1536	1545	1552	1554	1558	1558	1556	1549	1542	1540	1554	1564	1544	1529	1524	1517	1532	1538	1532	1538	1556	1564	1543	1509	1495	1493	1512	1532	1527	1528	1525	1515	1514	1508	1517	1525	1520	1504	1489	1492	1505	1513	1524	1531	1537	1550	1540	1533	1523	1524	1523	1521	1523	1521	1507	1493	1482	1471	1473	1483	0	0	0	0	0	0	0	0	0	0	0	1611	1610	1617	1804	1614	1610	1601	1594	1601	1798	1795	1608	1597	0	0	0	0	0	0	0	0	0	0	0	0	0	0	0	0	0	0	0	0	0	0	0	0	0	0	0	0	0	0	0	0
0	0	0	0	0	0	0	0	0	0	0	0	0	0	0	0	0	0	0	0	0	0	0	0	0	0	0	0	0	0	0	0	0	0	0	0	0	0	0	0	0	0	0	0	0	0	1504	0	0	0	0	0	0	0	1538	1542	1545	1555	1562	1575	1753	1760	1571	1543	1537	1545	1565	1582	0	0	0	0	0	1467	1436	1424	1417	1418	1421	1420	1415	1412	1419	1416	1416	1425	1437	1449	1464	1456	1439	1427	1425	1427	1429	1430	1433	1440	1444	1443	1442	1444	1452	1451	1440	1428	1420	1417	1418	1425	1409	1403	1403	1407	1437	1460	1467	1457	1449	1454	1472	1487	1489	1486	1489	1495	1479	1465	1477	1505	1512	1476	1477	1485	0	0	0	0	1569	1596	1617	1643	1667	1703	1946	1950	1680	1665	1664	1673	1679	1748	0	0	1975	1684	1664	1663	1671	1672	1680	1689	1699	1700	1702	1706	1708	1694	1694	1691	1656	1657	1675	1680	1635	0	1565	1511	1483	1485	1493	1495	1479	1473	1468	1464	1476	1476	1465	1460	1455	1463	1483	1490	1497	1490	1488	1487	1489	1492	1491	1483	1480	1479	1478	1486	1484	1476	1459	1444	1444	1445	1474	1473	1477	1501	1483	1473	1464	1458	1459	1492	1562	0	0	0	0	0	0	0	0	0	1709	1718	1729	1730	1729	1728	1735	1744	1758	1770	1774	1750	1713	0	0	0	0	0	0	0	0	0	0	0	0	0	0	0	0	0	0	0	0	0	0	0	0	0	0	0	0	0	0	0	0	0	0	0	0	0	0	0	0	0	0	0	0	0	0	0	0	0	0	0	0	0	0	0	0	0	0	0	0	0	0	1527	1535	1522	1519	1515	1499	1495	1478	1470	1471	1477	1480	1468	1467	1473	1474	1473	1473	1466	1465	1467	1467	1460	1451	1457	1458	1468	1490	1493	1482	1466	1483	1492	1494	1490	1481	1485	1492	1491	1491	1505	1510	1509	1503	1468	1465	1490	1527	1532	0	0	0	0	0	0	0	0	0	0	0	0	0	0	0	0	0	0	0	0	0	0	0	0	0	0	0	0	0	0	0	0	0	0	0	0	0	0	0	0	0	0	0	0	0	0	0	0	0	0	0	0	0	0	0	0	0	0	0	0	1791	1802	1804	1803	1787	1773	1788	1792	1791	1783	1779	1784	1788	1783	0	0	0	0	0	0	0	0	0	0	1539	1539	1537	1540	1530	1515	1508	1512	1514	1525	1521	1511	1510	1510	1504	1501	1504	1494	1491	1494	1507	1524	1527	1518	1504	1492	1497	1512	1515	1511	1514	1532	1530	1522	1511	1517	1518	1523	1518	1507	1509	1512	1513	1511	1576	0	0	0	0	0	0	0	0	0	0	0	1741	1740	1739	1759	1742	1721	1701	1672	1634	1589	1558	1541	1532	1553	1555	1547	1542	1537	1527	1528	1523	1526	1529	1533	1536	1533	1534	1539	1542	1550	1555	1557	1555	1549	1544	1534	1541	1551	1563	1564	1548	1538	1524	1508	1536	1530	1534	1546	1558	1558	1530	1514	1503	1498	1498	1516	1516	1510	1511	1509	1508	1507	1518	1520	1515	1498	1481	1482	1488	1506	1519	1527	1528	1531	1528	1513	1513	1506	1507	1508	1508	1511	1499	1489	1480	1479	1475	1499	0	0	0	0	0	0	0	0	0	0	0	1613	1610	1616	1805	0	1803	1603	1601	1599	1600	1593	1599	1587	1574	0	0	0	0	0	0	0	0	0	0	1548	1536	1547	0	0	0	0	0	0	0	0	0	0	0	0	0	0	0	0	0	0
0	0	0	0	0	0	0	0	0	0	0	0	0	0	0	0	0	0	0	0	0	0	0	0	0	0	0	0	0	0	0	0	0	0	0	0	0	0	0	0	0	0	0	0	1526	1492	1500	1511	1537	0	0	0	0	0	1567	1574	1572	1570	1573	1766	1560	1554	1558	1567	1569	1586	1780	0	0	0	0	0	0	0	1469	1460	1429	1421	1422	1428	1434	1434	1427	1420	1416	1422	1431	1450	1468	1470	1441	1420	1423	1434	1441	1439	1437	1439	1444	1445	1442	1441	1442	1442	1438	1430	1421	1415	1425	1427	1430	1397	1398	1405	1447	1462	1470	1454	1446	1452	1461	1478	1482	1497	1501	1501	1491	1489	1510	1526	1530	1487	1484	1491	0	0	0	0	1597	1610	1626	1642	1666	1706	1714	1672	1666	1665	1670	1671	1678	1675	1677	1685	1683	1673	1661	1662	1657	1662	1672	1676	1688	1694	1688	1701	1708	1704	1701	1701	1658	1655	1669	1698	1657	0	1572	1517	1491	1499	1509	1512	1500	1482	1473	1479	1480	1479	1476	1462	1460	1468	1485	1497	1504	1503	1496	1495	1496	1500	1494	1490	1486	1480	1478	1476	1476	1467	1449	1442	1437	1437	1464	1459	1463	1495	1487	1478	1469	1461	1465	1487	1533	0	0	0	0	0	0	0	0	0	1723	1727	1738	1741	1740	1741	1755	1772	1785	1782	1768	1761	1742	0	0	0	0	0	0	0	0	0	0	0	0	0	0	0	0	0	0	0	0	0	0	0	0	0	0	0	0	0	0	0	0	0	0	0	0	0	0	0	0	0	0	0	0	0	0	0	0	0	0	0	0	0	0	0	0	0	0	0	0	0	0	1544	1555	1541	1519	1511	1501	1502	1483	1477	1477	1486	1487	1482	1475	1475	1478	1474	1475	1474	1475	1468	1456	1460	1460	1462	1460	1488	1496	1499	1473	1468	1473	1476	1487	1488	1504	1498	1501	1500	1497	1506	1510	1503	1490	1463	1471	1492	1528	1526	0	0	0	0	0	0	0	0	0	0	0	0	0	0	0	0	0	0	0	0	0	0	0	0	0	0	0	0	0	0	0	0	0	0	0	0	0	0	0	0	0	0	0	0	0	0	0	0	0	0	0	0	0	0	0	0	0	0	0	0	1809	1819	1837	1849	1858	1865	1865	1805	1790	1779	1777	1773	1781	0	0	0	0	0	0	0	0	0	0	0	1558	1541	1534	1535	1524	1514	1506	1507	1509	1521	1526	1514	1512	1513	1505	1502	1502	1510	1513	1518	1529	1535	1532	1521	1512	1501	1497	1515	1523	1526	1531	1529	1520	1508	1500	1504	1513	1514	1523	1528	1522	1525	1534	1560	1623	0	0	0	0	0	0	0	0	0	0	0	1958	1994	1729	1720	1710	1708	1684	1658	1597	1573	1559	1552	1544	1547	1558	1551	1534	1526	1528	1529	1529	1526	1530	1529	1532	1534	1534	1536	1537	1547	1554	1554	1551	1535	1528	1531	1535	1557	1571	1549	0	1544	1520	1516	1530	1545	1541	1554	1564	1543	1521	1509	1511	1506	1504	1512	1502	1503	1502	1498	1504	1511	1521	1527	1522	1504	1486	1481	1491	1508	1513	1522	1524	1527	1524	1520	1513	1506	1497	1498	1499	1504	1507	1499	1495	1493	1499	1518	0	0	0	0	0	0	0	0	0	0	0	1613	1612	1617	1816	0	0	0	1612	1601	1592	1574	1578	1566	1571	0	0	0	0	0	0	0	0	0	0	1540	1527	1527	1544	0	0	0	0	0	0	0	0	0	0	0	0	0	0	0	0	0
0	0	0	0	0	0	0	0	0	0	0	0	0	0	0	0	0	0	0	0	0	0	0	0	0	0	0	0	0	0	0	0	0	0	0	0	0	0	0	0	1529	1542	1548	1543	1503	1489	1488	1503	1531	1555	1726	1726	0	0	0	1771	1560	1554	1559	1550	1550	1530	1544	1563	1574	1589	1796	0	0	0	0	0	0	0	1485	1461	1428	1421	1430	1438	1445	1447	1440	1428	1421	1422	1425	1439	1453	1442	1415	1407	1417	1434	1442	1444	1439	1446	1449	1451	1444	1439	1435	1434	1436	1434	1425	1426	1434	1437	1440	1403	1399	1402	1439	1454	1460	1452	1447	1453	1455	1457	1472	1492	1514	1524	1528	1541	1545	0	1530	1481	1482	1505	0	0	0	0	1616	1616	1623	1634	1650	1666	1668	1658	1653	1651	1669	1670	1671	1673	1664	1665	1666	1660	1659	1661	1658	1664	1672	1678	1686	1686	1691	1702	1840	1703	1702	1703	1672	1665	1683	1704	1665	0	0	1487	1486	1502	1516	1508	1498	1493	1477	1479	1480	1481	1478	1468	1467	1476	1497	1506	1511	1502	1495	1490	1494	1492	1498	1500	1498	1495	1490	1482	1473	1464	1455	1446	1438	1436	1458	1463	1476	1493	1496	1490	1479	1461	1460	1478	1505	0	0	0	0	0	0	0	0	0	1730	1744	1745	1740	1742	1754	1773	1789	1796	1775	1760	1772	1779	0	0	0	0	0	0	0	0	0	0	0	0	0	0	0	0	0	0	0	0	0	0	0	0	0	0	0	0	0	0	0	0	0	0	0	0	0	0	0	0	0	0	0	0	0	0	0	0	0	0	0	0	0	0	0	0	0	0	0	0	0	0	1565	1579	1540	1513	1507	1509	1516	1490	1484	1485	1487	1486	1487	1481	1489	1481	1478	1467	1470	1477	1461	1460	1465	1468	1464	1470	1489	1482	1481	1462	1441	1452	1466	1470	1494	1498	1498	1493	1496	1503	1505	1509	1512	1493	1475	1486	1505	1526	1530	0	0	0	0	0	0	0	0	0	0	0	0	0	0	0	0	0	0	0	0	0	0	0	0	0	0	0	0	0	0	0	0	0	0	0	0	0	0	0	0	0	0	0	0	0	0	0	0	0	0	0	0	0	0	0	0	0	0	0	0	1817	1822	1837	2102	2104	0	0	1846	1796	1779	1768	1765	1765	0	0	0	0	0	0	0	0	0	0	0	1578	1545	1535	1525	1514	1505	1497	1496	1500	1508	1513	1513	1523	1525	1515	1515	1510	1511	1517	1521	1527	1525	1519	1513	1508	1502	1497	1506	1521	1529	1542	1536	1518	1510	1506	1507	1517	1524	1527	1528	1527	1519	1521	1550	1605	0	0	0	0	0	0	0	0	0	0	0	0	0	1747	1710	1699	1695	1668	1637	1589	1583	1580	1568	1559	1553	1562	1554	1541	1533	1533	1538	1538	1533	1533	1539	1538	1534	1518	1530	1538	1541	1550	1551	1541	1533	1528	1535	1542	1571	1581	1545	0	0	1537	1524	1542	1545	1544	1550	1554	1534	1519	1509	1505	1507	1504	1504	1509	1508	1504	1503	1509	1518	1531	1536	1531	1504	1486	1478	1500	1513	1519	1525	1531	1534	1536	1530	1513	1504	1497	1496	1501	1509	1513	1514	1512	1526	1533	1552	0	0	0	0	0	0	0	0	0	0	1601	1604	1613	1621	1816	1813	1814	1614	1605	1596	1582	1571	1559	1556	1572	0	0	0	0	0	0	0	0	0	1548	1533	1521	1518	1545	1561	0	0	0	0	0	0	0	0	0	0	0	0	0	0	0	0
0	0	0	0	0	0	0	0	0	0	0	0	0	0	0	0	0	0	0	0	0	0	0	0	0	0	0	0	0	0	0	0	0	0	0	0	0	0	0	0	1531	1544	1550	1534	1496	1475	1482	1505	1533	1543	1549	1549	1751	0	0	1576	1544	1538	1541	1550	1553	1541	1545	1557	1575	1583	1582	1591	1581	0	0	0	0	0	1489	1441	1432	1435	1434	1444	1451	1455	1449	1440	1428	1419	1418	1424	1435	1432	1408	1403	1415	1424	1427	1432	1435	1445	1452	1455	1450	1445	1431	1431	1435	1437	1426	1424	1426	1447	1420	1409	1408	1406	1432	1451	1457	1458	1457	1464	1467	1463	1471	1504	1531	1547	1554	1556	0	1530	1499	1472	1483	1504	0	0	0	0	1607	1626	1630	1638	1650	1666	1677	1666	1646	1638	1663	1663	1680	1670	1669	1663	1657	1662	1670	1667	1677	1675	1674	1682	1692	1697	1697	1713	1855	1702	1696	1701	1687	1687	1700	1712	1683	0	0	1480	1486	1502	1517	1512	1495	1493	1475	1479	1480	1480	1476	1468	1467	1489	1507	1516	1513	1490	1480	1483	1485	1488	1489	1485	1489	1486	1487	1489	1484	1487	1483	1462	1457	1443	1461	1467	1475	1496	1500	1498	1482	1475	1461	1464	1484	0	0	0	0	0	0	0	0	0	1755	1762	1754	1752	1745	1754	1774	1788	1784	1768	1755	1772	1787	0	0	0	0	0	0	0	0	0	0	0	0	0	0	0	0	0	0	0	0	0	0	0	0	0	0	0	0	0	0	0	0	0	0	0	0	0	0	0	0	0	0	0	0	0	0	0	0	0	0	0	0	0	0	0	0	0	0	0	0	0	0	1562	1571	1535	1505	1495	1512	1521	1486	1482	1482	1480	1477	1483	1493	1494	1489	1470	1465	1475	1477	1479	1470	1479	1468	1458	1461	1469	1470	1474	1472	1441	1445	1471	1482	1488	1481	1485	1483	1492	1500	1504	1507	1515	1497	1482	1502	1524	1534	1535	0	0	0	0	0	0	0	0	0	0	0	0	0	0	0	0	0	0	0	0	0	0	0	0	0	0	0	0	0	0	0	0	0	0	0	0	0	0	0	0	0	0	0	0	0	0	0	0	0	0	0	0	0	0	0	0	0	0	0	0	1820	1829	1809	1849	1857	2104	2100	1805	1796	1781	1770	1768	1755	0	0	0	0	0	0	0	0	0	0	0	1595	1552	1535	1514	1501	1496	1491	1475	1481	1486	1487	1506	1522	1529	1526	1519	1524	1520	1515	1520	1520	1512	1501	1499	1500	1503	1507	1498	1501	1510	1514	1525	1516	1505	1506	1511	1522	1521	1526	1528	1521	1517	1516	1541	1566	0	0	0	0	0	0	0	0	0	0	0	0	0	0	1728	1710	1689	0	1615	1587	1591	1595	1575	1563	1555	1555	1561	1543	1535	1542	1549	1547	1540	1534	1533	1530	1528	1515	1515	1540	1559	1562	1554	1544	1533	1530	1540	1564	1580	1590	1577	0	0	0	1541	1558	1562	1548	1543	1536	1536	1518	1513	1511	1518	1518	1512	1511	1506	1504	1508	1518	1534	1540	1548	1542	1515	1493	1490	1507	1521	1535	1527	1529	1533	1539	1524	1509	1507	1500	1511	1515	1518	1523	1521	1531	1545	1550	1544	0	0	0	0	0	0	0	0	0	0	1591	1583	1593	1612	1611	1609	1580	1571	1569	1571	1568	1555	1550	1557	1573	1591	0	0	0	0	0	0	0	1549	1535	1522	1513	1529	1555	0	0	0	0	0	0	0	0	0	0	0	0	0	0	0	0	0
0	0	0	0	0	0	0	0	0	0	0	0	0	0	0	0	0	0	0	0	0	0	0	0	0	0	0	0	0	0	0	0	0	0	0	0	1524	0	0	0	0	1538	1550	1547	1525	1492	1490	1516	1533	1538	1533	1533	1546	1570	1575	1553	1529	1528	1545	1559	1560	1555	1552	1563	1572	1574	1581	1574	1564	1551	0	0	0	0	1473	1428	1428	1438	1442	1443	1448	1454	1455	1451	1439	1430	1422	1424	1433	1433	1430	1419	1414	1428	1425	1428	1436	1446	1457	1459	1457	1448	1434	1427	1427	1427	1422	1423	1428	1448	1423	1415	1415	1412	1433	1450	1467	1473	1469	1489	1477	1474	1478	1517	1532	1546	1544	1531	1517	1496	1474	1472	1488	1504	1530	0	0	0	1598	1627	1639	1635	1639	1669	1725	1682	1653	1630	1639	1652	1677	1695	1680	1672	1673	1682	1693	1690	1697	1693	1688	1690	1698	1707	1699	1707	1705	1688	1686	1709	1710	1712	1713	1710	1681	0	0	1483	1481	1501	1509	1509	1497	1482	1476	1473	1481	1479	1471	1462	1464	1495	1515	1516	1505	1479	1471	1477	1485	1484	1482	1478	1475	1472	1473	1475	1484	1488	1486	1489	1474	1453	1457	1468	1474	1485	1497	1500	1495	1487	1475	1463	1468	0	0	0	0	0	0	0	0	0	1768	1769	1764	1757	1754	1753	1764	1772	1772	1763	1754	1754	1761	0	0	0	0	0	0	0	0	0	0	0	0	0	0	0	0	0	0	0	0	0	0	0	0	0	0	0	0	0	0	0	0	0	0	0	0	0	0	0	0	0	0	0	0	0	0	0	0	0	0	0	0	0	0	0	0	0	0	0	0	0	0	1537	1551	1528	1513	1512	1512	1508	1482	1474	1474	1472	1470	1474	1490	1500	1493	1486	1472	1480	1484	1496	1487	1474	1460	1446	1463	1466	1471	1465	1473	1460	1462	1474	1479	1479	1475	1471	1482	1486	1493	1498	1501	1516	1498	1490	1509	1537	1540	1520	0	0	0	0	0	0	0	0	0	0	0	0	0	0	0	0	0	0	0	0	0	0	0	0	0	0	0	0	0	0	0	0	0	0	0	0	0	0	0	0	0	0	0	0	0	0	0	0	0	0	0	0	0	0	0	0	0	0	0	0	1813	1805	1774	1780	1785	1792	1796	1788	1788	1784	1780	1768	1756	1732	0	0	0	0	0	0	0	0	0	0	1610	1578	1539	1513	1493	1487	1486	1474	1473	1470	1472	1501	1517	1527	1533	1523	1529	1524	1522	1517	1520	1512	1502	1501	1504	1509	1507	1499	1498	1504	1510	1516	1508	1505	1509	1515	1520	1520	1515	1521	1518	1520	1526	1542	1531	0	0	0	0	0	0	0	0	0	0	0	1754	0	0	1975	1733	0	0	1597	1582	1583	1589	1570	1554	1560	1546	1545	1546	1547	1545	1529	1528	1529	1538	1549	1553	1549	1543	1549	1562	1569	1578	1566	1545	1521	1506	1555	1567	1587	1585	1582	0	0	0	1559	1575	1575	1553	1538	1536	1533	1523	1519	1526	1525	1530	1527	1518	1511	1512	1519	1536	1543	1557	1561	1549	1524	1504	1502	1516	1532	1546	1534	1527	1514	1490	1498	1502	1506	1511	1520	1524	1533	1528	1528	1540	1543	1546	1530	0	0	0	0	0	0	0	0	0	0	0	1589	1593	1605	1603	1585	1565	1548	1547	1546	1543	1547	1561	1575	1574	1575	1574	1562	1562	0	0	0	1549	1535	1526	1521	1530	1546	1569	0	0	0	0	0	0	0	0	0	0	0	0	0	0	0	0	0
0	0	0	0	0	0	0	0	0	0	0	0	0	0	0	0	0	0	0	0	0	0	0	0	0	0	0	0	0	0	0	0	0	0	0	0	1503	1499	1508	1508	1519	1531	1543	1547	1537	1531	1522	1534	1537	1540	1534	1534	1533	1549	1543	1529	1515	1533	1556	1571	1572	1573	1566	1566	1578	1579	1583	1576	1557	1543	0	0	0	0	1459	1418	1421	1435	1429	1431	1433	1443	1452	1453	1448	1439	1431	1434	1441	1448	1442	1433	1428	1426	1425	1432	1441	1448	1453	1454	1453	1448	1432	1429	1424	1418	1417	1425	1436	1449	1429	1414	1418	1422	1437	1461	1486	1484	1468	1485	1479	1478	1484	1497	1513	1518	1508	1501	1495	1479	1490	1501	1496	1506	1521	1524	0	0	1589	1629	1640	1637	1640	1669	1673	1683	1661	1630	1613	1646	1685	1734	1697	1689	1687	1686	1695	1767	1770	1702	1683	1694	1696	1706	1698	1697	1687	1680	1689	1763	0	1823	1705	1692	1680	0	0	1496	1487	1499	1501	1499	1485	1470	1468	1474	1480	1484	1477	1470	1469	1496	1511	1509	1498	1473	1463	1476	1481	1480	1482	1475	1469	1467	1465	1462	1480	1483	1481	1481	1467	1453	1458	1469	1475	1493	1499	1503	1507	1501	1491	1479	1472	0	0	0	0	0	0	0	0	0	1754	1756	1756	1765	1769	1768	1770	1771	1772	1756	1748	1731	1738	0	0	0	0	0	0	0	0	0	0	0	0	0	0	0	0	0	0	0	0	0	0	0	0	0	0	0	0	0	0	0	0	0	0	0	0	0	0	0	0	0	0	0	0	0	0	0	0	0	0	0	0	0	0	0	0	0	0	0	0	0	0	1516	1545	1537	1518	1513	1506	1489	1472	1472	1472	1469	1476	1471	1484	1487	1492	1494	1487	1489	1494	1502	1495	1479	1458	1451	1459	1470	1470	1472	1478	1466	1467	1473	1474	1471	1468	1463	1474	1478	1484	1488	1491	1509	1498	1497	1517	1542	1542	1511	0	0	0	0	0	0	0	0	0	0	0	0	0	0	0	0	0	0	0	0	0	0	0	0	0	0	0	0	0	0	0	0	0	0	0	0	0	0	0	0	0	0	0	0	0	0	0	0	0	0	0	0	0	0	0	0	0	0	0	0	1808	1778	1760	1752	1755	1768	1776	1775	1778	1788	1786	1783	1775	1767	0	0	0	0	0	0	0	0	0	0	1615	1584	1552	1523	1514	1490	1471	1475	1473	1473	1469	1504	1511	1524	1530	1528	1530	1526	1521	1521	1526	1525	1518	1509	1506	1502	1502	1496	1496	1505	1516	1515	1510	1512	1508	1513	1519	1517	1516	1521	1525	1536	1547	1562	1529	0	0	0	0	0	0	0	0	0	0	0	1733	1752	0	1961	1729	0	0	0	1581	1577	1574	1564	1547	1548	1540	1541	1546	1572	1578	1548	1536	1524	1525	1527	1526	1544	1546	1543	1539	1534	1537	0	0	0	0	1559	1552	1550	1560	1553	0	0	0	1566	1588	1583	1555	1538	1534	1542	1538	1530	1524	1532	1538	1532	1528	1518	1519	1529	1540	1553	1556	1561	1551	1526	1511	1510	1515	1533	1539	1528	1520	1503	1484	1486	1498	1509	1520	1530	1538	1533	1529	1529	1526	1529	1531	1508	1493	0	0	0	0	0	0	0	0	0	0	1608	1611	1612	1612	1603	1576	1558	1548	1543	1550	1554	1567	1593	1592	1575	1557	1549	1549	1554	0	1563	1559	1546	1531	1538	1559	1575	0	0	0	0	0	0	0	0	0	0	0	0	0	0	0	0	0	0
0	0	0	0	0	0	0	0	0	0	0	0	0	0	0	0	0	0	0	0	0	0	0	0	0	0	0	0	0	0	0	0	0	0	0	1499	1498	1493	1504	1504	1514	1519	1532	1543	1555	1555	1548	1541	1542	1538	1542	1542	1544	1537	1532	1518	1516	1535	1558	1573	1579	1572	1566	1560	1568	1588	1592	1584	1576	1562	0	0	0	0	1464	1426	1423	1423	1417	1411	1413	1425	1435	1441	1446	1447	1438	1437	1440	1443	1443	1435	1427	1423	1427	1440	1446	1442	1439	1438	1445	1444	1436	1422	1417	1412	1414	1426	1439	1437	1426	1427	1427	1437	1451	1472	1487	1479	1461	1452	1470	1472	1479	1484	1493	1487	1479	1480	1492	1510	0	1521	1504	1505	1508	0	0	1550	1590	1629	1631	1634	1645	1662	1669	1657	1645	1625	1626	1657	1688	1971	1976	1974	1744	1682	1680	1682	1693	1695	1692	1686	1693	1698	1691	1689	1665	1677	1683	1709	0	1821	1702	1679	1671	0	0	1519	1493	1495	1496	1492	1481	1468	1469	1469	1481	1491	1489	1481	1489	1496	1500	1495	1486	1476	1467	1469	1469	1472	1480	1475	1467	1466	1463	1466	1483	1480	1471	1465	1459	1460	1461	1461	1470	1505	1511	1502	1498	1509	1521	1500	1489	0	0	0	0	0	0	0	0	0	1736	1723	1741	1757	1770	1777	1778	1782	1773	1760	1743	1726	1721	0	0	0	0	0	0	0	0	0	0	0	0	0	0	0	0	0	0	0	0	0	0	0	0	0	0	0	0	0	0	0	0	0	0	0	0	0	0	0	0	0	0	0	0	0	0	0	0	0	0	0	0	0	0	0	0	0	0	0	0	0	0	1527	1538	1535	1522	1504	1488	1471	1470	1473	1478	1484	1492	1491	1476	1464	1479	1483	1486	1485	1491	1493	1500	1483	1472	1454	1458	1467	1468	1475	1475	1463	1473	1477	1474	1472	1473	1464	1478	1481	1477	1478	1483	1503	1487	1497	1517	1526	1546	1511	0	0	0	0	0	0	0	0	0	0	0	0	0	0	0	0	0	0	0	0	0	0	0	0	0	0	0	0	0	0	0	0	0	0	0	0	0	0	0	0	0	0	0	0	0	0	0	0	0	0	0	0	0	0	0	0	0	0	0	0	1804	1767	1745	1743	1750	1761	1758	1767	1781	1798	1795	1795	1791	1800	0	0	0	0	0	0	0	0	0	0	1599	1584	1567	1543	1525	1504	1477	1483	1492	1493	1475	1511	1520	1529	1533	1538	1526	1520	1512	1517	1525	1530	1524	1510	1507	1508	1506	1502	1499	1507	1516	1526	1521	1512	1508	1507	1504	1507	1510	1517	1530	1545	1562	1572	1544	0	0	0	0	0	0	0	0	0	0	0	1698	1730	1742	1943	0	0	0	0	1567	1559	1546	1543	1551	1551	1547	1550	1554	1576	1569	1544	1538	1521	1524	1533	1542	1549	1543	1536	1536	1553	0	0	0	0	0	1542	1529	1531	1534	1536	0	0	1538	1560	1586	1576	1548	1539	1535	1541	1541	1535	1531	1531	1542	1536	1531	1529	1538	1542	1547	1553	1555	1554	1545	1535	1520	1515	1520	1527	1515	1510	1500	1492	1483	1497	1516	1527	1536	1538	1529	1520	1517	1517	1523	1526	1516	1496	1483	0	0	0	0	0	0	0	0	0	0	0	0	0	0	1823	1609	1574	1563	1561	1565	1577	1788	0	0	1580	1562	1554	1554	1572	0	0	1582	1557	1555	1572	0	0	0	0	0	0	0	0	0	0	0	0	0	0	0	0	0	0	0	0
0	0	0	0	0	0	0	0	0	0	0	0	0	0	0	0	0	0	0	0	0	0	0	0	0	0	0	0	0	0	0	0	0	0	0	0	1486	1492	1504	1504	1506	1511	1512	1525	1545	1548	1550	1543	1543	1545	1547	1547	1552	1543	1527	1515	1523	1532	1552	1579	1579	1573	1554	1546	1555	1577	1591	1584	1584	1572	0	0	0	0	1455	1424	1421	1417	1405	1403	1401	1411	1419	1430	1436	1436	1427	1424	1430	1436	1438	1429	1425	1423	1436	1445	1447	1440	1430	1420	1428	1441	1442	1438	1428	1413	1415	1433	1441	1437	1428	1432	1437	1435	1441	1457	1467	1468	1460	1454	1456	1470	1477	1480	1475	1472	1466	1473	1502	0	0	1538	1512	1499	0	0	0	1547	1591	1627	1624	1626	1638	1653	1664	1651	1639	1634	1663	1719	1959	1971	1723	1968	1733	1675	1663	1666	1677	1688	1691	1693	1686	1696	1692	1683	1655	1671	1686	1696	2052	1720	1702	1683	1671	0	0	1530	1524	1502	1502	1497	1493	1476	1470	1475	1479	1495	1487	1491	1494	1498	1494	1487	1482	1478	1470	1466	1465	1467	1477	1474	1471	1472	1472	1473	1490	1490	1475	1460	1452	1458	1467	1463	1471	1512	1517	1509	1494	1490	1516	1505	1491	0	0	0	0	0	0	0	0	0	1702	1702	1713	1735	1757	1777	1796	1796	1781	1765	1736	1714	1713	0	0	0	0	0	0	0	0	0	0	0	0	0	0	0	0	0	0	0	0	0	0	0	0	0	0	0	0	0	0	0	0	0	0	0	0	0	0	0	0	0	0	0	0	0	0	0	0	0	0	0	0	0	0	0	0	0	0	0	0	0	0	0	1537	1525	1507	1496	1482	1466	1464	1465	1482	1487	1495	1496	1486	1461	1458	1467	1475	1473	1474	1474	1486	1484	1481	1476	1484	1483	1475	1479	1473	1459	1478	1473	1474	1473	1495	1482	1483	1483	1477	1477	1486	1503	1476	1487	1514	1527	1546	1524	0	0	0	0	0	0	0	0	0	0	0	0	0	0	0	0	0	0	0	0	0	0	0	0	0	0	0	0	0	0	0	0	0	0	0	0	0	0	0	0	0	0	0	0	0	0	0	0	0	0	0	0	0	0	0	0	0	0	0	0	1802	1784	1758	1754	1758	1764	1758	1754	1774	1796	1803	1805	1807	2023	0	0	0	0	0	0	0	0	0	0	1579	1582	1594	1550	1532	1515	1505	1493	1503	1507	1506	1513	1525	1552	1563	1555	1530	1513	1508	1510	1519	1529	1524	1522	1519	1520	1524	1509	1500	1501	1530	1537	1533	1519	1505	1496	1500	1501	1504	1512	1520	1541	1550	1568	1570	0	0	0	0	0	0	0	0	0	0	0	1680	1713	1721	0	0	0	0	0	1564	1532	1530	1536	1551	1559	1560	1558	1555	1559	1548	1530	1531	1520	1530	1533	1555	1563	1552	1556	1550	0	0	0	0	0	0	1532	1529	1526	1528	1527	0	1512	1522	1544	1559	1560	1540	1531	1525	1530	1540	1539	1532	1535	1537	1531	1525	1531	1535	1552	1547	1549	1552	1547	1543	1541	1539	1534	1532	1516	1500	1491	1483	1488	1498	1521	1532	1543	1543	1529	1522	1503	1499	1505	1517	1516	1506	1495	0	0	0	0	0	0	0	0	0	0	0	0	0	0	0	0	1814	1598	1588	1596	1602	1602	0	0	0	1584	1566	1568	1568	0	0	0	0	0	0	0	0	0	0	0	0	0	0	0	0	0	0	0	0	0	0	0	0	0	0	0
0	0	0	0	0	0	0	0	0	0	0	0	0	0	0	0	0	0	0	0	0	0	0	0	0	0	0	0	0	0	0	0	0	0	0	0	0	1498	1511	1511	1515	1508	1502	1513	1524	1540	1544	1545	1544	1544	1554	1554	1557	1547	1533	1525	1529	1529	1557	1567	1577	1573	1553	1538	1539	1560	1570	1573	1581	1580	0	0	0	0	1442	1424	1419	1419	1401	1405	1406	1405	1414	1419	1427	1423	1423	1421	1427	1434	1434	1427	1427	1428	1437	1447	1449	1438	1418	1403	1412	1439	1459	1462	1442	1420	1423	1435	1441	1434	1429	1433	1434	1434	1424	1427	1438	1451	1463	1455	1456	1469	1482	1482	1476	1471	1464	1474	1495	1530	0	1531	1513	1506	0	0	0	1558	1595	1626	1631	1634	1643	1668	1669	1665	1648	1661	0	0	0	1967	1685	1677	1674	1658	1646	1650	1666	1684	1695	1697	1705	1757	1704	1680	1656	1668	1676	1684	1709	1710	1699	1694	1671	0	0	1527	1522	1515	1511	1510	1502	1481	1475	1477	1485	1483	1484	1486	1492	1498	1493	1490	1481	1484	1481	1465	1460	1467	1478	1485	1483	1479	1479	1480	1497	1494	1479	1460	1443	1453	1468	1474	1479	1510	1523	1506	1489	1485	1505	1502	1488	0	0	0	0	0	0	0	0	0	1710	1705	1710	1726	1751	1778	1883	2110	1796	1764	1735	1719	1706	0	0	0	0	0	0	0	0	0	0	0	0	0	0	0	0	0	0	0	0	0	0	0	0	0	0	0	0	0	0	0	0	0	0	0	0	0	0	0	0	0	0	0	0	0	0	0	0	0	0	0	0	0	0	0	0	0	0	0	0	0	0	0	1545	1518	1500	1496	1489	1475	1466	1461	1477	1489	1495	1497	1491	1458	1458	1459	1461	1468	1462	1456	1466	1484	1484	1470	1470	1468	1470	1466	1460	1456	1481	1477	1476	1475	1490	1487	1483	1488	1484	1483	1490	1507	1482	1485	1513	1542	1553	1546	0	0	0	0	0	0	0	0	0	0	0	0	0	0	0	0	0	0	0	0	0	0	0	0	0	0	0	0	0	0	0	0	0	0	0	0	0	0	0	0	0	0	0	0	0	0	0	0	0	0	0	0	0	0	0	0	0	0	0	0	1801	1796	1782	1776	1776	1774	1761	1758	1755	1780	1798	1805	1812	0	0	0	0	0	0	0	0	0	0	0	1573	1585	1592	1550	1530	1522	1510	1496	1502	1511	1507	1518	1530	1558	1573	1560	1538	1512	1507	1513	1520	1524	1523	1523	1525	1527	1523	1511	1500	1498	1528	1535	1529	1517	1509	1498	1501	1503	1505	1500	1502	1511	1528	1542	1566	0	0	0	0	0	0	0	0	0	0	0	0	0	0	0	0	0	0	0	1567	1528	1529	1540	1553	1556	1561	1563	1555	1538	1528	1519	1527	1530	1536	1536	1563	1574	1576	1575	1573	1551	0	0	0	0	0	1555	1538	1530	1537	1530	0	0	1523	1525	1543	1543	1531	1522	1519	1523	1534	1540	1540	1538	1529	1527	1528	1532	1540	1542	1538	1542	1545	1545	1546	1548	1551	1548	1535	1518	1499	1489	1490	1502	1520	1531	1538	1536	1540	1516	1504	1499	1500	1507	1507	1515	1512	1515	0	0	0	0	0	0	0	0	0	0	0	0	0	0	0	1811	1599	1598	1597	1614	1822	0	0	0	1594	1577	1571	0	0	0	0	0	0	0	0	0	0	0	0	0	0	0	0	0	0	0	0	0	0	0	0	0	0	0	0	0
0	0	0	0	0	0	0	0	0	1437	0	0	0	0	0	0	0	0	0	0	0	0	0	0	0	0	0	0	0	0	0	0	0	0	0	0	0	0	1527	1527	1533	1518	1510	1512	1525	1537	1544	1546	1544	1544	1546	1546	1545	1537	1528	1532	1532	1545	1551	1566	1568	1564	1554	1547	1547	1555	1563	1573	1578	1579	0	0	0	0	1443	1419	1417	1420	1414	1411	1410	1407	1419	1426	1433	1426	1422	1427	1436	1435	1431	1426	1422	1435	1445	1452	1449	1434	1414	1405	1409	1438	1466	1470	1455	1433	1425	1433	1432	1430	1432	1435	1440	1431	1417	1412	1425	1450	1462	1462	1459	1473	1485	1495	1488	1471	1472	1485	1497	1521	1530	1508	1500	1500	1512	0	0	0	1592	1623	1627	1640	1666	1948	0	1731	1674	1677	0	0	0	1956	1681	1672	1656	1642	1641	1643	1660	1675	1693	1702	1763	1705	1698	1689	1664	1674	1688	1694	1697	1702	1695	1693	1680	0	0	1515	1502	1507	1512	1515	1500	1487	1479	1477	1485	1487	1485	1486	1493	1505	1499	1490	1482	1484	1481	1472	1470	1479	1488	1501	1498	1493	1490	1486	1495	1500	1480	1462	1444	1455	1470	1480	1477	1506	1521	1506	1496	1489	1504	1500	1500	0	0	0	0	0	0	0	0	0	1746	1728	1724	1737	1753	1788	1872	2106	1872	1764	1733	1724	1705	0	0	0	0	0	0	0	0	0	0	0	0	0	0	0	0	0	0	0	0	0	0	0	0	0	0	0	0	0	0	0	0	0	0	0	0	0	0	0	0	0	0	0	0	0	0	0	0	0	0	0	0	0	0	0	0	0	0	0	0	0	0	0	1540	1505	1494	1500	1505	1483	1470	1465	1477	1487	1501	1505	1499	1474	1466	1461	1462	1472	1461	1452	1473	1467	1475	1470	1468	1465	1471	1466	1463	1460	1484	1487	1481	1478	1468	1489	1493	1488	1485	1483	1500	1508	1496	1495	1496	1549	1564	1553	0	0	0	0	0	0	0	0	0	0	0	0	0	0	0	0	0	0	0	0	0	0	0	0	0	0	0	0	0	0	0	0	0	0	0	0	0	0	0	0	0	0	0	0	0	0	0	0	0	0	0	0	0	0	0	0	0	0	0	0	1781	1787	1773	1776	1771	1766	1761	1740	1748	1765	1781	1804	1812	0	0	0	0	0	0	0	0	0	0	0	1566	1585	1582	1543	1525	1515	1508	1498	1497	1514	1512	1528	1535	1555	1562	1552	1528	1514	1510	1516	1522	1526	1532	1527	1527	1526	1517	1501	1491	1497	1529	1530	1522	1515	1510	1508	1507	1510	1502	1493	1488	1489	1502	1508	1545	0	0	0	0	0	0	0	0	0	0	0	0	0	0	0	0	0	0	0	1557	1533	1525	1533	1543	1559	1560	1562	1556	1540	1514	1520	1540	1538	1538	1538	1538	1570	1588	1590	1576	1552	1535	1532	0	0	1570	1562	1555	1548	1547	1535	0	0	1523	1535	1539	1545	1536	1519	1512	1517	1531	1548	1547	1536	1528	1531	1536	1531	1531	1528	1533	1532	1539	1550	1555	1555	1553	1549	1532	1524	1509	1504	1505	1509	1517	1531	1527	1526	1525	1516	1516	1510	1518	1514	1507	1514	1513	1531	0	0	0	0	0	0	0	0	0	0	0	1608	1620	1609	1606	1598	1587	1586	1599	1613	1809	0	1791	1599	1587	1568	1572	1580	1580	0	0	1579	1555	1529	1512	0	0	0	0	0	0	0	0	0	0	0	0	0	0	0	0	0	0	0	0	0
0	0	0	0	0	0	0	1449	1449	1444	1459	0	0	0	0	0	0	0	0	0	0	0	0	0	0	0	0	0	0	0	0	0	0	0	0	0	0	0	1527	1527	1531	1521	1509	1520	1532	1540	1550	1543	1535	1534	1539	1539	1541	1543	1543	1546	1560	1564	1566	1577	1568	1564	1555	1548	1553	1564	1564	1582	1582	1581	0	0	0	0	1458	1432	1429	1424	1428	1421	1409	1410	1419	1441	1443	1431	1421	1424	1438	1441	1432	1423	1429	1437	1445	1443	1438	1435	1428	1421	1430	1448	1466	1463	1448	1432	1430	1427	1423	1422	1428	1430	1431	1432	1419	1415	1421	1452	1479	1475	1467	1475	1492	1499	1499	1498	1497	1503	1508	1513	1511	1498	1492	1491	1504	0	0	0	0	1629	1636	1650	1677	0	0	0	1735	1737	0	0	0	0	1690	1674	1659	1647	1635	1637	1646	1665	1689	1763	1978	1700	1692	1689	1687	1687	1693	1699	1691	1686	1694	1688	0	0	0	1496	1491	1502	1507	1502	1499	1483	1477	1482	1493	1492	1493	1491	1495	1508	1501	1488	1483	1481	1478	1470	1476	1486	1500	1508	1507	1500	1496	1492	1506	1504	1487	1463	1451	1456	1476	1482	1480	1496	1513	1509	1499	1497	1507	1493	1492	0	0	0	0	0	0	0	0	0	1720	1714	1735	1742	1764	1782	2104	2104	1867	1770	1747	1732	1716	0	0	0	0	0	0	0	0	0	0	0	0	0	0	0	0	0	0	0	0	0	0	0	0	0	0	0	0	0	0	0	0	0	0	0	0	0	0	0	0	0	0	0	0	0	0	0	0	0	0	0	0	0	0	0	0	0	0	0	0	0	0	0	1528	1483	1493	1497	1508	1509	1475	1465	1474	1491	1506	1515	1507	1486	1482	1476	1470	1477	1483	1485	1473	1479	1473	1479	1472	1468	1465	1467	1462	1476	1488	1494	1489	1480	1466	1493	1493	1484	1482	1480	1496	1508	1512	1504	1509	1531	1552	1563	0	0	0	0	0	0	0	0	0	0	0	0	0	0	0	0	0	0	0	0	0	0	0	0	0	0	0	0	0	0	0	0	0	0	0	0	0	0	0	0	0	0	0	0	0	0	0	0	0	0	0	0	0	0	0	0	0	0	0	0	1742	1759	1756	1759	1760	1758	1747	1732	1740	1748	1764	1786	1801	1794	0	0	0	0	0	0	0	0	0	0	1566	1585	1572	1530	1523	1509	1501	1496	1501	1521	1531	1534	1534	1539	1535	1532	1524	1520	1515	1524	1534	1539	1535	1530	1525	1521	1512	1497	1491	1496	1529	1526	1518	1511	1512	1516	1519	1514	1503	1495	1493	1496	1501	1507	1530	0	0	0	0	0	0	0	0	0	0	0	0	0	0	0	0	0	0	0	1555	1538	1529	1535	1544	1559	1556	1563	1564	1564	1554	1520	1518	1529	1531	1533	1540	1542	1553	1573	1585	1573	1549	1529	1519	1514	1523	1556	1557	1556	1554	1554	0	0	1562	1548	1552	1554	1550	1519	1513	1522	1536	1541	1542	1540	1535	1535	1535	1534	1530	1529	1529	1526	1538	1545	1550	1554	1551	1539	1529	1526	1520	1516	1511	1513	1520	1527	1527	1523	1510	1507	1509	1522	1528	1529	1513	1504	1513	1548	0	0	0	0	0	0	0	0	0	0	0	1591	1591	1573	1572	1568	1567	1568	1578	1593	1607	1789	1782	1592	1580	1569	1560	1560	0	0	1591	1569	1542	1509	1484	1495	0	0	0	0	0	0	0	0	0	0	0	0	0	0	0	0	0	0	0	0
