0	0	0	1226	1227	1235	1253	1266	1266	1275	1269	1270	1266	1271	1271	1271	1266	1256	1252	1263	1265	1267	1267	1245	1246	1253	1248	0	0	0	0	0	0	0	0	0	0	0	0	0	0	0	0	0	0	0	0	0	0	0	0	0	0	0	0	0	0	0	0	0	0	0	0	1513	1510	1511	1513	1507	1493	1494	1500	1507	1486	1486	1463	1439	1403	0	1310	1302	1309	1317	1320	1295	1278	1272	1274	1274	1270	1266	1263	1270	1279	1274	1271	1273	1279	1282	1286	1291	1295	1300	1300	1293	1285	1276	1280	1281	1284	1283	1286	1289	1296	1303	1308	1309	1307	1295	1286	1281	1285	1292	1299	1288	1282	1283	1285	1297	1308	1315	1312	1299	1301	1302	1306	1302	1296	1289	1293	1306	1313	1319	1320	1318	1312	1310	1315	1320	1292	1281	1271	1278	1289	1300	1310	1308	1299	1291	1283	1270	1255	1261	1284	1308	1298	1289	1285	1280	1279	1286	1291	1290	1288	1289	1301	1320	1329	1325	1320	1315	1316	1319	1312	1306	1305	1306	1324	1340	1346	1343	1340	1349	1350	1350	1350	1346	1337	1337	1339	1348	1349	1345	1339	1330	1328	1329	1320	1315	1318	1317	1321	1332	1344	1351	1347	1342	1335	1332	1332	1338	1345	1346	1337	1337	1338	1335	1336	1335	1347	1361	1370	1362	1353	1345	1342	1350	1358	1358	1359	1362	1363	1361	1356	1360	1375	1384	1382	1372	1354	1332	1324	1343	1370	1392	1384	1358	1341	1353	1366	1382	1388	1383	1375	1356	1350	1348	1364	1373	1380	1380	1385	1383	1383	1387	1386	1381	1387	1388	1387	1372	1366	1373	1385	1402	1400	1390	1381	1374	1374	1384	1396	1397	1389	1377	1361	1361	1365	1373	1376	1376	1382	1383	1381	1370	1369	1379	1383	1398	1395	1391	1392	1397	1397	1401	1394	1383	1381	1391	1390	1389	1389	1390	1393	1391	1395	1403	1408	1408	1399	1393	1416	1430	1440	1439	1430	1421	1418	1421	1429	1433	1433	1431	1423	1415	1407	1403	1402	1402	1410	1417	1419	1421	1421	1422	1418	1417	1421	1417	1415	1421	1425	1431	1429	1422	1409	1397	1399	1404	1412	1412	1417	1413	1412	1414	1423	1433	1444	1445	1450	1455	1459	1455	1451	1445	1445	1439	1434	1447	1449	1445	1430	1427	1434	1451	1458	1460	1463	1466	1468	1459	1435	1428	1430	1441	1460	1475	1570	0	0	0	0	0	0	0	0	0	0	0	0	0	0	1625	1598	1589	1592	0	0	0	0	0	1571	1576	1567	1562	1551	1563	1558	1567	1566	1560	1549	1548	1551	1550	1541	1534	1542	1540	1536	1509	1516	1540	1561	1568	1565	1563	1570	1585	1583	1591	1588	0	0	0	0	0	0	0	0	0	1554	1548	1547	1551	1553	1561	1561	1547	1557	1577	1558	1550	1524	1510	1513	1542	1550	1547	1547	1544	1532	1501	1480	1482	1504	1523	1524	1523	1520	1529	1542	1533	1525	1525	1539	1540	1532	1522	1506	1511	1527	1550	1551	1546	1531	1527	1551	1553	1551	1543	1527	1518	1524	1531	1539	1542	1528	1524	1522	1525	1540	1561	1560	1551	1551	1551	1555	1553	1539	1516	1513	1528	1538	1536	1534	1527	1539	1547	1553	1549	1546	1550	1560	1561	1554	1544	1543	1544	1547	1547	1540	1534	1537	1546	1556	1550	1540	1533	1536	1530	1524	1527	1527	1515	1506	1494	1490	1503	1511	1518	1529	1537	1558	1547	1531	1527	1529	1540	1545	1537	1545	1546	1547	1537	1531	1524	1511	1480	1462	1462	1480	1506	1533	1559	1562	1542	1505	1486	1482	1493	1503	1503	1514	1508	1524	1527	1521	1515	1515	1518	1522	1521	1518	1518	1519	1517	1517	1547	1557	1555	1536	1511	1515	0	0	0	0	0	0	0
0	0	0	1225	1221	1223	1243	1255	1255	1262	1268	1267	1267	1262	1262	1259	1247	1250	1259	1260	1262	1262	1262	1234	1236	1246	1246	0	0	0	0	0	0	0	0	0	0	0	0	0	0	0	0	0	0	0	0	0	0	0	0	0	0	0	0	0	0	0	0	0	0	0	0	1495	1492	1500	1510	1502	1504	1506	1515	1504	1465	1465	1441	1417	1368	1321	1304	1317	1325	1319	1297	1275	1269	1268	1270	1269	1270	1265	1271	1280	1284	1277	1277	1284	1289	1295	1297	1295	1292	1292	1292	1291	1278	1270	1274	1273	1274	1278	1284	1293	1301	1304	1307	1309	1303	1291	1278	1273	1278	1297	1304	1298	1284	1276	1283	1297	1307	1315	1314	1303	1306	1312	1320	1319	1305	1285	1286	1291	1296	1300	1305	1300	1298	1299	1306	1311	1303	1300	1295	1284	1295	1309	1311	1308	1300	1297	1292	1287	1282	1285	1299	1301	1293	1284	1275	1267	1267	1274	1288	1294	1294	1318	1331	1341	1341	1326	1326	1321	1318	1318	1310	1309	1300	1307	1322	1341	1350	1352	1345	1345	1345	1351	1346	1339	1333	1330	1333	1341	1350	1352	1345	1331	1335	1333	1332	1322	1310	1317	1324	1335	1347	1349	1349	1344	1342	1338	1336	1343	1341	1338	1331	1337	1344	1343	1339	1336	1347	1365	1374	1366	1348	1333	1327	1332	1349	1362	1362	1361	1362	1362	1359	1350	1351	1366	1374	1364	1351	1338	1344	1367	1380	1365	1359	1369	1334	1350	1368	1383	1384	1378	1361	1358	1349	1363	1360	1367	1373	1377	1379	1378	1379	1382	1379	1383	1386	1391	1388	1376	1362	1373	1380	1389	1390	1383	1375	1368	1385	1393	1400	1410	1392	1370	1361	1363	1368	1375	1385	1384	1382	1379	1370	1369	1366	1364	1361	1365	1372	1377	1394	1400	1397	1395	1403	1402	1399	1406	1406	1397	1379	1374	1374	1386	1396	1390	1382	1371	1371	1377	1397	1409	1414	1407	1388	1387	1389	1400	1410	1412	1424	1426	1422	1397	1399	1405	1400	1396	1406	1412	1413	1410	1405	1406	1407	1410	1421	1424	1420	1429	1422	1425	1433	1439	1447	1429	1419	1417	1415	1417	1414	1415	1407	1406	1416	1431	1454	1460	1460	1464	1460	1455	1453	1451	1447	1437	1441	1458	1454	1432	1423	1420	1427	1446	1456	1460	1446	1426	1421	1404	1415	1426	1434	1434	1437	1465	1577	0	0	0	0	0	0	0	0	0	0	0	0	0	0	0	1611	1600	1611	1631	0	0	0	0	1567	1560	1543	1535	1544	1545	1554	1550	1549	1553	1557	1561	1569	1559	1547	1543	1545	1551	1551	1550	1557	1555	1561	1554	1548	1539	1536	1548	1577	1585	1590	0	0	0	0	0	0	0	0	0	0	1574	1561	1556	1558	1546	1548	1536	1550	1568	1566	1551	1538	1527	1534	1541	1551	1545	1537	1537	1526	1504	1485	1493	1510	1527	1529	1531	1543	1552	1573	1555	1537	1539	1549	1558	1538	1516	1506	1512	1529	1535	1536	1527	1514	1523	1543	1548	1552	1541	1525	1519	1515	1523	1526	1520	1518	1526	1549	1551	1555	1563	1557	1553	1540	1550	1546	1540	1531	1515	1514	1531	1534	1543	1545	1544	1560	1567	1558	1549	1528	1543	1562	1561	1554	1551	1546	1550	1548	1537	1528	1518	1530	1543	1551	1539	1531	1524	1529	1525	1519	1526	1524	1521	1516	1524	1521	1536	1532	1528	1527	1539	1552	1546	1536	1531	1529	1541	1545	1541	1540	1537	1537	1538	1519	1505	1486	1459	1453	1462	1483	1512	1530	1542	1551	1529	1513	1504	1508	1515	1516	1516	1522	1522	1529	1544	1530	1520	1521	1523	1530	1522	1520	1511	1512	1523	1523	1532	1559	1555	1533	1530	1517	0	0	0	0	0	0	0
0	0	0	1235	1219	1217	1231	1243	1243	1257	1262	1265	1267	1259	1259	1240	1240	1248	1258	1263	1262	1262	1254	1219	1229	1240	1243	0	0	0	0	0	0	0	0	0	0	0	0	0	0	0	0	0	0	0	0	0	0	0	0	0	0	0	0	0	0	0	0	0	0	0	0	1480	1488	1499	1514	1524	1523	1527	1523	1494	1466	1466	1445	1404	1304	1232	1240	1270	1285	1288	1271	1261	1260	1265	1267	1267	1268	1271	1281	1286	1293	1284	1276	1280	1291	1297	1298	1293	1288	1283	1282	1280	1272	1261	1264	1264	1267	1272	1284	1291	1292	1297	1298	1294	1294	1280	1269	1267	1282	1299	1311	1312	1313	1301	1299	1299	1302	1303	1298	1301	1308	1315	1318	1310	1298	1282	1278	1276	1281	1285	1285	1283	1289	1291	1292	1291	1292	1299	1304	1312	1312	1316	1313	1304	1294	1289	1284	1287	1285	1281	1285	1287	1280	1269	1266	1261	1269	1273	1286	1303	1317	1324	1325	1330	1330	1321	1326	1325	1324	1325	1323	1318	1307	1303	1313	1322	1338	1344	1334	1319	1322	1328	1334	1336	1330	1320	1315	1329	1354	1362	1358	1346	1344	1352	1343	1327	1306	1302	1307	1328	1340	1352	1342	1334	1321	1326	1339	1344	1341	1330	1332	1338	1344	1332	1329	1323	1324	1334	1340	1347	1354	1365	1357	1358	1358	1359	1348	1350	1339	1340	1336	1328	1335	1337	1345	1348	1346	1362	1363	1354	1372	0	0	1353	1327	1348	1365	1376	1379	1374	1358	1351	1354	1362	1360	1363	1369	1371	1373	1372	1373	1371	1377	1382	1386	1388	1387	1374	1371	1363	1362	1375	1381	1378	1371	1377	1386	1391	1395	1402	1385	1371	1361	1359	1368	1378	1384	1385	1379	1371	1369	1370	1369	1368	1368	1375	1379	1394	1406	1409	1403	1402	1405	1410	1403	1400	1401	1396	1384	1371	1377	1385	1397	1397	1394	1395	1387	1390	1397	1405	1408	1404	1389	1392	1394	1397	1402	1400	1394	1386	1375	1380	1388	1391	1387	1387	1397	1408	1408	1409	1407	1409	1414	1412	1410	1413	1409	1407	1407	1418	1429	1441	1445	1450	1447	1437	1420	1415	1411	1415	1411	1407	1415	1424	1424	1423	1424	1436	1447	1452	1455	1457	1465	1467	1461	1449	1429	1411	1389	1394	1408	1432	1448	1443	1433	1424	1418	1412	1413	1426	1433	1433	1435	1450	1508	1592	0	0	0	0	0	0	0	0	0	0	0	0	0	0	1616	1616	1632	1652	1665	0	0	0	1588	1556	1534	1524	1536	1545	1554	1551	1550	1551	1559	1567	1572	1561	1546	1540	1543	1549	1550	1549	1546	1543	1561	1564	1555	1553	1542	1545	1547	1554	1569	0	0	0	0	0	0	0	0	0	0	1581	1578	1558	1559	1544	1535	1524	1534	1561	1567	1547	1540	1540	1546	1551	1544	1538	1524	1528	1525	1514	1504	1512	1518	1534	1535	1536	1548	1569	1576	1557	1543	1551	1568	1567	1547	1533	1517	1512	1521	1529	1518	1503	1498	1513	1536	1546	1543	1540	1534	1516	1510	1516	1507	1502	1502	1512	1532	1534	1548	1557	1548	1542	1538	1533	1528	1526	1515	1508	1516	1523	1535	1534	1549	1569	1570	1575	1556	1531	1529	1541	1548	1544	1539	1536	1538	1547	1540	1533	1519	1516	1529	1543	1536	1518	1512	1517	1521	1519	1518	1525	1525	1529	1534	1550	1555	1561	1552	1539	1529	1526	1528	1532	1524	1520	1523	1534	1540	1535	1539	1529	1520	1517	1499	1484	1469	1460	1459	1468	1493	1510	1529	1544	1541	1530	1515	1519	1529	1537	1537	1537	1518	1513	1515	1523	1527	1515	1511	1509	1509	1511	1512	1510	1510	1513	1513	1526	1528	1535	1534	1518	1504	0	0	0	0	0	0	0
0	0	0	1244	1233	1217	1223	1241	1241	1252	1261	1268	1274	1269	1269	1251	1249	1252	1259	1263	1260	1260	1250	1228	1227	1241	1242	0	0	0	0	0	0	0	0	0	0	0	0	0	0	0	0	0	0	0	0	0	0	0	0	0	0	0	0	0	0	0	0	0	0	0	0	1471	1494	1520	1536	1548	1545	1537	1531	1506	1506	1469	1445	1343	1236	1229	1241	1254	1263	1270	1266	1258	1259	1266	1267	1266	1268	1276	1286	1295	1295	1285	1274	1271	1279	1284	1287	1287	1279	1271	1270	1267	1262	1260	1265	1268	1272	1284	1293	1292	1288	1286	1286	1288	1286	1281	1267	1272	1283	1305	1317	1318	1314	1303	1299	1294	1291	1288	1291	1298	1303	1309	1311	1306	1293	1278	1271	1268	1271	1279	1284	1286	1290	1293	1291	1280	1274	1289	1298	1306	1311	1309	1304	1296	1285	1281	1280	1282	1281	1278	1272	1269	1265	1261	1263	1260	1271	1277	1294	1306	1313	1317	1317	1320	1326	1319	1317	1323	1323	1325	1325	1312	1306	1304	1311	1318	1322	1327	1319	1306	1305	1323	1331	1331	1328	1321	1316	1328	1340	1352	1351	1337	1334	1344	1339	1325	1304	1296	1298	1313	1330	1337	1329	1321	1316	1319	1332	1335	1338	1338	1336	1339	1341	1324	1317	1313	1314	1324	1336	1342	1351	1366	1364	1362	1357	1352	1345	1351	1343	1342	1337	1342	1339	1339	1334	1337	1355	1354	1388	1374	0	0	0	1366	1339	1349	1359	1366	1364	1356	1351	1353	1353	1360	1351	1357	1363	1366	1363	1364	1367	1370	1373	1381	1380	1380	1380	1373	1363	1359	1345	1351	1356	1369	1362	1368	1370	1371	1369	1373	1369	1367	1358	1362	1361	1355	1353	1347	1347	1348	1352	1360	1375	1382	1394	1399	1396	1407	1412	1415	1416	1411	1407	1402	1392	1386	1389	1392	1385	1380	1380	1387	1400	1409	1425	1418	1408	1404	1394	1400	1398	1397	1400	1397	1405	1407	1403	1397	1388	1381	1369	1374	1383	1392	1391	1393	1397	1402	1401	1405	1409	1409	1412	1408	1411	1416	1412	1410	1407	1417	1427	1437	1446	1449	1447	1438	1419	1417	1416	1421	1421	1420	1423	1430	1424	1423	1423	1440	1455	1458	1461	1465	1468	1472	1463	1447	1423	1404	1394	1403	1412	1430	1438	1440	1430	1427	1422	1424	1434	1447	1448	1442	1435	1443	1459	1525	1536	0	0	0	0	0	0	0	0	0	0	0	0	0	1604	1610	1631	1641	1649	0	0	0	1597	1557	1551	1525	1532	1539	1548	1544	1545	1549	1557	1563	1567	1559	1543	1536	1538	1545	1548	1547	1546	1555	1565	1572	1568	1566	1563	1561	1576	1581	1573	0	0	0	0	0	0	0	0	0	0	1588	1577	1558	1562	1552	1532	1521	1515	1535	1547	1551	1548	1546	1550	1548	1530	1517	1516	1523	1529	1529	1519	1529	1533	1539	1543	1538	1543	1558	1570	1564	1556	1562	1566	1571	1564	1552	1537	1526	1512	1503	1503	1500	1497	1505	1534	1538	1534	1532	1519	1512	1497	1506	1513	1496	1499	1500	1508	1511	1525	1540	1546	1543	1538	1536	1536	1528	1523	1509	1509	1523	1536	1541	1544	1557	1572	1574	1545	1521	1520	1535	1533	1523	1497	1501	1522	1544	1542	1533	1526	1521	1538	1542	1537	1510	1506	1511	1519	1521	1522	1524	1524	1535	1550	1566	1579	1577	1559	1544	1527	1512	1510	1513	1510	1508	1514	1519	1536	1538	1540	1524	1501	1472	1462	1472	1474	1473	1489	1504	1513	1518	1530	1540	1543	1527	1526	1530	1544	1547	1538	1538	1514	1503	1505	1507	1503	1500	1500	1495	1497	1510	1522	1524	1518	1514	1513	1513	1520	1524	1521	1510	1503	0	0	0	0	0	0	0
0	0	0	1252	1247	1235	1235	1248	1248	1263	1272	1283	1285	1285	1285	1276	1261	1258	1264	1264	1259	1259	1249	1237	1238	1246	1243	1226	0	0	0	0	0	0	0	0	0	0	0	0	0	0	0	0	0	0	0	0	0	0	0	0	0	0	0	0	0	0	0	0	0	0	0	1463	1498	1539	1552	1560	1542	1532	1533	1515	1515	1465	1425	1353	1242	1235	1245	1253	1257	1266	1269	1268	1264	1259	1262	1263	1269	1278	1293	1298	1293	1283	1271	1268	1270	1269	1278	1276	1269	1261	1256	1251	1253	1252	1261	1276	1288	1294	1298	1294	1286	1283	1280	1282	1284	1279	1274	1279	1293	1303	1309	1307	1303	1296	1295	1292	1290	1287	1292	1297	1296	1298	1313	1309	1296	1278	1272	1266	1268	1277	1287	1290	1281	1286	1284	1273	1262	1270	1277	1289	1293	1299	1294	1290	1289	1281	1281	1283	1284	1276	1263	1259	1256	1253	1259	1264	1268	1280	1291	1302	1313	1319	1321	1319	1317	1303	1305	1309	1319	1325	1323	1316	1308	1309	1314	1311	1309	1303	1304	1305	1311	1326	1329	1329	1324	1318	1309	1320	1337	1352	1347	1334	1333	1340	1337	1324	1313	1307	1299	1307	1319	1314	1308	1309	1317	1319	1319	1328	1334	1339	1343	1342	1335	1316	1308	1308	1309	1321	1334	1341	1346	1354	1348	1345	1332	1337	1348	1351	1355	1345	1348	1358	1352	1344	1338	1329	1340	1399	0	0	0	0	0	1386	1361	1362	1357	1358	1350	1342	1337	1341	1350	1348	1355	1361	1363	1361	1357	1358	1366	1372	1374	1382	1382	1379	1371	1374	1367	1362	1348	1351	1356	1365	1369	1367	1364	1362	1357	1364	1355	1359	1361	1362	1361	1360	1355	1348	1342	1339	1341	1351	1363	1380	1392	1391	1392	1401	1406	1413	1414	1409	1402	1394	1379	1368	1358	1369	1377	1379	1386	1391	1400	1409	1413	1423	1415	1408	1403	1400	1393	1396	1397	1396	1384	1390	1395	1399	1390	1378	1360	1359	1366	1380	1397	1402	1400	1395	1394	1399	1410	1410	1406	1403	1408	1411	1417	1414	1410	1407	1410	1417	1439	1441	1424	1415	1403	1403	1411	1420	1429	1436	1430	1432	1428	1426	1430	1438	1451	1457	1460	1465	1471	1472	1463	1441	1417	1400	1391	1397	1408	1420	1429	1434	1427	1435	1436	1442	1441	1455	1464	1463	1451	1435	1448	1459	1503	0	0	0	0	0	0	0	0	0	0	0	0	0	0	1605	1614	1620	1632	1643	0	0	1618	1576	1567	1540	1540	1535	1538	1539	1542	1547	1555	1560	1561	1555	1544	1538	1541	1544	1542	1543	1546	1552	1567	1571	1576	1569	1565	1562	1587	1596	1605	0	0	0	0	0	0	0	0	0	1623	1584	0	0	0	1568	1545	1534	1524	1515	1529	1540	1528	1519	1539	1535	1515	1509	1510	1519	1530	1536	1532	1535	1536	1545	1537	1535	1538	1545	1548	1553	1547	1550	1559	1553	1553	1558	1547	1538	1517	1510	1509	1501	1509	1515	1536	1533	1531	1524	1517	1504	1489	1498	1504	1505	1502	1498	1503	1513	1521	1529	1536	1529	1541	1548	1542	1543	1523	1515	1513	1514	1523	1522	1534	1544	1559	1542	1528	1505	1518	1525	1515	1501	1493	1495	1512	1533	1543	1537	1531	1528	1536	1544	1530	1516	1513	1514	1516	1517	1524	1529	1534	1551	1564	1575	1566	1565	1557	1546	1522	1497	1486	1494	1497	1507	1520	1525	1533	1537	1553	1529	1500	1468	1471	1475	1493	1508	1523	1539	1543	1532	1532	1543	1534	1529	1529	1539	1547	1547	1535	1535	1513	1493	1491	1483	1490	1493	1494	1488	1489	1502	1518	1516	1512	1502	1506	1506	1509	1515	1507	1506	1511	0	0	0	0	0	0	0
0	0	0	1253	1250	1246	1248	1248	1257	1268	1284	1294	1297	1300	1300	1293	1284	1269	1267	1261	1253	1253	1248	1251	1256	1257	1247	1235	0	0	0	0	0	0	0	0	0	0	0	0	0	0	0	0	0	0	0	0	0	0	0	0	0	0	0	0	0	0	0	0	0	0	0	1467	1511	1549	1551	1538	1526	1522	1526	1518	1518	1461	1424	1363	1254	1248	1247	1257	1260	1265	1268	1277	1268	1265	1267	1268	1274	1284	1296	1301	1304	1288	1274	1265	1263	1267	1270	1272	1264	1259	1252	1241	1241	1249	1268	1288	1293	1301	1294	1290	1283	1279	1280	1284	1281	1278	1278	1286	1297	1300	1299	1294	1294	1293	1296	1301	1295	1292	1290	1292	1297	1297	1310	1309	1299	1282	1278	1276	1284	1285	1290	1287	1272	1270	1274	1272	1265	1268	1270	1273	1280	1287	1288	1292	1291	1292	1294	1295	1291	1280	1260	1256	1254	1254	1257	1263	1276	1289	1291	1304	1314	1317	1318	1317	1303	1292	1293	1302	1314	1325	1323	1319	1312	1308	1314	1312	1292	1287	1299	1304	1311	1322	1322	1313	1306	1303	1311	1317	1327	1342	1327	1324	1329	1335	1330	1325	1312	1308	1304	1304	1310	1309	1303	1304	1313	1321	1318	1322	1328	1334	1345	1342	1337	1322	1316	1308	1303	1316	1332	1342	1341	1341	1338	1323	1321	1331	1344	1355	1360	1352	1354	1368	1362	1354	1345	1334	1338	0	0	0	0	0	0	1399	1379	1366	1358	1347	1336	1335	1336	1340	1343	1349	1354	1359	1362	1353	1351	1353	1361	1368	1375	1378	1377	1376	1376	1369	1366	1357	1349	1352	1363	1364	1366	1366	1361	1356	1353	1363	1359	1352	1362	1364	1368	1370	1364	1350	1343	1337	1339	1347	1361	1375	1373	1369	1371	1378	1394	1399	1404	1403	1395	1384	1368	1354	1354	1364	1376	1385	1393	1398	1405	1406	1405	1405	1407	1406	1403	1398	1392	1395	1396	1386	1380	1381	1394	1401	1397	1386	1371	1361	1366	1376	1391	1399	1396	1390	1391	1396	1408	1411	1401	1388	1391	1401	1412	1422	1410	1405	1408	1420	1432	1431	1417	1407	1400	1403	1411	1424	1435	1439	1438	1436	1427	1426	1426	1433	1443	1452	1452	1456	1462	1470	1459	1439	1416	1404	1401	1403	1413	1419	1421	1428	1440	1441	1441	1438	1441	1452	1468	1477	1473	1464	1450	1452	1467	0	0	0	0	0	0	0	0	0	0	0	0	0	0	1591	1605	1610	1613	1619	1630	1642	1619	1600	1595	1593	1544	1525	1533	1536	1538	1547	1555	1559	1562	1559	1551	1547	1545	1545	1543	1542	1543	1556	1563	1568	1573	1571	1562	1557	1573	1598	1598	0	0	0	0	0	0	0	0	0	1596	1575	0	0	1574	1574	1573	1551	1536	1518	1519	1526	1514	1501	1501	1516	1509	1496	1497	1513	1522	1531	1524	1524	1530	1526	1530	1521	1523	1528	1534	1537	1535	1539	1544	1540	1537	1543	1538	1537	1530	1528	1517	1512	1517	1530	1565	1560	1553	1542	1546	1544	1524	1518	1518	1516	1517	1513	1513	1523	1521	1522	1530	1528	1542	1557	1551	1539	1533	1523	1516	1517	1519	1522	1527	1532	1533	1532	1515	1503	1509	1521	1515	1508	1501	1506	1514	1523	1532	1529	1519	1511	1523	1528	1528	1528	1529	1517	1516	1519	1526	1529	1541	1551	1559	1563	1555	1548	1543	1535	1508	1482	1480	1495	1503	1510	1526	1531	1521	1530	1561	1539	1500	1482	1482	1491	1511	1531	1545	1560	1551	1528	1524	1509	1512	1510	1519	1544	1552	1558	1537	1523	1523	1497	1480	1478	1492	1504	1527	1530	1529	1529	1537	1522	1511	1504	1501	1501	1506	1513	1512	1516	1522	0	0	0	0	0	0	0
0	0	0	1253	1252	1251	1253	1253	1261	1276	1288	1300	1302	1298	1298	1289	1285	1274	1266	1258	1258	1258	1250	1260	1271	1267	1258	1245	0	0	0	0	0	0	0	0	0	0	0	0	0	0	0	0	0	0	0	0	0	0	0	0	0	0	0	0	0	0	0	0	0	0	0	1483	1526	1548	1538	1523	1512	1523	1528	1527	1527	1463	1424	1363	1265	1264	1264	1264	1263	1267	1272	1282	1278	1264	1270	1273	1276	1281	1289	1308	1308	1294	1269	1259	1256	1257	1269	1272	1272	1262	1254	1246	1238	1242	1276	1282	1291	1292	1285	1281	1277	1280	1281	1283	1286	1277	1277	1291	1300	1300	1289	1285	1280	1289	1301	1307	1309	1300	1295	1291	1287	1293	1307	1307	1299	1291	1287	1294	1300	1298	1291	1279	1270	1263	1267	1275	1275	1272	1268	1268	1272	1280	1286	1292	1302	1306	1308	1309	1301	1289	1259	1252	1254	1260	1264	1270	1276	1285	1293	1297	1309	1317	1313	1314	1291	1281	1280	1295	1312	1326	1328	1319	1307	1305	1307	1307	1295	1288	1298	1303	1303	1313	1316	1305	1303	1300	1309	1317	1323	1324	1325	1331	1329	1326	1308	1304	1304	1304	1301	1303	1304	1304	1303	1304	1313	1322	1320	1317	1317	1327	1340	1341	1343	1341	1330	1318	1319	1320	1329	1337	1336	1335	1328	1324	1319	1332	1347	1357	1363	1359	1357	1364	1363	1356	1352	1340	1345	0	0	0	0	0	0	1386	1376	1357	1354	1339	1332	1335	1341	1349	1345	1351	1355	1361	1355	1348	1340	1347	1353	1359	1370	1371	1374	1371	1371	1370	1363	1356	1346	1344	1361	1365	1364	1363	1365	1362	1362	1366	1367	1363	1363	1369	1372	1370	1366	1360	1358	1352	1346	1350	1361	1367	1365	1363	1360	1372	1382	1387	1396	1396	1390	1379	1366	1360	1355	1364	1380	1388	1397	1401	1402	1401	1399	1402	1397	1395	1390	1394	1388	1388	1391	1386	1389	1390	1396	1407	1404	1399	1383	1370	1369	1382	1399	1405	1401	1397	1393	1396	1400	1403	1393	1382	1383	1397	1413	1420	1414	1400	1397	1409	1425	1427	1421	1410	1407	1407	1415	1430	1437	1443	1438	1431	1425	1427	1425	1427	1434	1438	1442	1442	1451	1456	1448	1428	1414	1408	1413	1419	1421	1425	1422	1433	1441	1446	1442	1439	1440	1450	1467	1474	1476	1470	1457	1450	0	0	0	0	0	0	0	0	0	0	0	0	0	0	0	1609	1626	1621	1621	1621	1630	1638	1629	1620	1602	1585	1554	1537	1534	1537	1542	1550	1554	1559	1563	1562	1555	1554	1551	1546	1543	1538	1551	1557	1562	1565	1571	1566	1560	1552	1561	1579	1610	0	0	0	0	0	0	0	0	1574	1549	1525	1535	1547	1568	1578	1583	1579	1552	1532	1522	1529	1512	1502	1504	1509	1512	1508	1513	1512	1519	1511	1513	1511	1501	1497	1502	1514	1524	1532	1528	1535	1531	1540	1542	1533	1517	1512	1523	1531	1525	1523	1514	1510	1521	1528	1563	1568	1561	1550	1552	1552	1538	1537	1526	1526	1521	1519	1522	1535	1536	1530	1517	1531	1550	1558	1545	1531	1524	1529	1528	1521	1524	1526	1529	1528	1525	1522	1516	1515	1521	1532	1526	1521	1525	1532	1537	1537	1524	1514	1502	1503	1504	1512	1525	1537	1537	1517	1515	1520	1531	1522	1512	1528	1546	1547	1542	1533	1529	1524	1499	1476	1477	1498	1507	1526	1530	1523	1517	1509	1530	1536	1516	1511	1504	1515	1525	1543	1554	1550	1536	1526	1513	1510	1499	1495	1504	1533	1550	1556	1540	1536	1536	1512	1505	1521	1537	1553	1558	1558	1561	1557	1543	1541	1527	1518	1504	1504	1510	1508	1513	1520	1528	0	0	0	0	0	0	0
0	0	0	1260	1260	1254	1256	1256	1261	1277	1287	1293	1290	1275	1275	1270	1268	1273	1270	1261	1262	1262	1256	1272	1273	1273	1262	0	0	0	0	0	0	0	0	0	0	0	0	0	0	0	0	0	0	0	0	0	0	0	0	0	0	0	0	0	0	0	0	0	0	0	0	1498	1542	1553	1534	1515	1513	1524	1529	1528	1528	1462	1423	1370	1289	1280	1282	1275	1279	1275	1282	1286	1279	1274	1273	1277	1285	1281	1291	1304	1306	1290	1268	1251	1248	1254	1274	1278	1279	1271	1263	1256	1247	1254	1270	1274	1279	1279	1276	1271	1277	1280	1284	1285	1283	1284	1291	1293	1301	1297	1287	1276	1276	1282	1296	1306	1305	1302	1299	1292	1289	1298	1305	1306	1297	1288	1284	1290	1302	1307	1295	1277	1267	1262	1267	1279	1286	1276	1272	1274	1281	1281	1286	1284	1293	1303	1304	1307	1304	1293	1265	1257	1265	1265	1271	1276	1281	1284	1286	1289	1299	1309	1307	1305	1285	1272	1273	1287	1303	1316	1320	1311	1300	1290	1297	1301	1300	1300	1305	1311	1311	1316	1319	1323	1309	1312	1314	1316	1322	1327	1333	1334	1335	1321	1319	1320	1306	1301	1297	1303	1300	1298	1302	1314	1323	1326	1321	1317	1313	1314	1325	1337	1353	1356	1344	1337	1332	1335	1333	1335	1331	1326	1324	1325	1323	1337	1349	1359	1359	1354	1355	1361	1361	1357	1353	1345	1364	0	0	0	0	0	1415	1362	1347	1344	1345	1339	1336	1342	1349	1345	1352	1349	1354	1359	1354	1348	1340	1339	1344	1350	1357	1358	1362	1354	1350	1353	1357	1344	1340	1344	1346	1364	1359	1364	1364	1364	1365	1366	1367	1367	1369	1371	1370	1369	1364	1367	1371	1371	1362	1364	1359	1358	1364	1362	1364	1371	1369	1384	1386	1393	1391	1384	1372	1363	1360	1366	1381	1388	1392	1395	1398	1395	1395	1396	1398	1396	1389	1386	1386	1385	1393	1399	1400	1400	1405	1414	1416	1410	1394	1378	1369	1379	1393	1406	1406	1405	1397	1391	1397	1398	1383	1380	1388	1405	1412	1410	1401	1388	1390	1400	1412	1420	1418	1413	1409	1412	1419	1430	1437	1440	1438	1429	1425	1423	1424	1423	1426	1426	1424	1420	1423	1428	1420	1410	1407	1412	1421	1428	1434	1432	1433	1438	1442	1444	1440	1438	1441	1455	1450	1461	1471	1463	1455	1452	0	0	0	0	0	0	0	0	0	0	0	0	0	0	0	0	1635	1638	1639	1639	1644	1643	1644	1624	1597	1567	1561	1555	1548	1547	1551	1555	1555	1554	1558	1560	1554	1549	1554	1551	1545	1550	1558	1558	1558	1555	1552	1555	1551	1543	1550	1572	1598	0	0	0	0	0	0	0	0	1568	1531	1507	1517	1532	1548	1576	1590	1585	1559	1546	1543	1534	1526	1518	1515	1520	1516	1511	1510	1518	1512	1512	1505	1500	1498	1482	1491	1500	1533	1540	1540	1538	1544	1552	1544	1523	1502	1493	1507	1521	1520	1513	1507	1501	1516	1518	1551	1568	1562	1556	1546	1544	1532	1521	1515	1503	1498	1503	1524	1541	1543	1537	1523	1525	1550	1553	1532	1522	1521	1526	1532	1524	1533	1533	1531	1530	1529	1528	1537	1543	1543	1546	1544	1538	1545	1557	1551	1532	1519	1503	1501	1500	1508	1513	1526	1539	1542	1522	1514	1519	1530	1512	1494	1515	1522	1526	1530	1528	1531	1528	1512	1493	1488	1502	1517	1525	1523	1519	1511	1507	1508	1514	1526	1523	1526	1528	1541	1543	1532	1523	1510	1514	1521	1517	1514	1504	1511	1526	1548	1548	1542	1538	1538	1538	1543	1547	1559	1570	1571	1576	1568	1558	1550	1548	1549	1532	1518	1518	1513	1506	1512	1508	1515	0	0	0	0	0	0	0
0	0	0	1268	1270	1259	1255	1255	1259	1266	1270	1270	1260	1242	1242	1239	1254	1262	1267	1271	1271	1271	1260	1260	1268	1273	1270	0	0	0	0	0	0	0	0	0	0	0	0	0	0	0	0	0	0	0	0	0	0	0	0	0	0	0	0	0	0	0	0	0	0	0	0	1523	1561	1563	1553	1527	1527	1529	1534	1534	1537	1462	1434	1399	1314	1287	1289	1292	1298	1287	1284	1281	1274	1274	1275	1283	1282	1285	1291	1296	1298	1288	1272	1255	1249	1265	1277	1287	1284	1277	1271	1265	1262	1267	1256	1259	1271	1273	1271	1274	1282	1286	1287	1286	1282	1284	1293	1292	1294	1288	1279	1271	1267	1272	1285	1293	1296	1294	1294	1291	1290	1291	1291	1296	1293	1284	1278	1276	1291	1300	1304	1291	1270	1263	1269	1279	1289	1289	1295	1292	1296	1297	1287	1287	1291	1292	1297	1298	1293	1287	1275	1277	1275	1275	1275	1279	1283	1283	1278	1279	1283	1299	1304	1303	1294	1283	1281	1290	1297	1304	1303	1298	1290	1284	1297	1299	1300	1302	1328	1340	1345	1344	1338	1330	1315	1310	1313	1312	1318	1329	1333	1336	1340	1337	1334	1327	1314	1310	1305	1308	1305	1303	1303	1315	1324	1331	1326	1321	1310	1309	1319	1333	1349	1356	1356	1353	1348	1346	1340	1336	1332	1325	1323	1323	1327	1334	1345	1346	1347	1344	1349	1357	1354	1355	1350	1349	1376	0	0	0	0	0	1402	1349	1337	1340	1348	1354	1350	1353	1356	1352	1357	1354	1354	1351	1349	1348	1331	1327	1340	1349	1357	1356	1350	1349	1351	1351	1350	1343	1339	1343	1350	1363	1360	1366	1362	1360	1359	1358	1367	1373	1375	1372	1368	1364	1368	1372	1380	1385	1377	1367	1365	1360	1363	1360	1366	1365	1365	1379	1388	1387	1387	1391	1385	1378	1364	1369	1377	1386	1388	1383	1384	1386	1392	1400	1394	1396	1392	1388	1389	1387	1395	1402	1403	1404	1407	1408	1410	1398	1392	1375	1367	1376	1384	1393	1400	1401	1400	1402	1404	1401	1394	1396	1398	1399	1397	1393	1387	1379	1379	1393	1400	1408	1416	1410	1414	1411	1412	1420	1428	1431	1419	1415	1417	1421	1431	1425	1417	1412	1405	1397	1403	1409	1404	1406	1394	1403	1418	1424	1434	1442	1445	1443	1442	1436	1429	1432	1440	1443	1436	1444	1454	1460	1446	0	0	0	0	0	0	0	0	0	0	0	0	0	0	0	0	0	1644	1641	1656	1658	1653	1654	1643	1618	1591	1562	1571	1569	1558	1556	1558	1552	1551	1551	1550	1550	1535	1533	1545	1549	1549	1555	1563	1559	1544	1537	1538	1545	1545	1540	1546	1562	1590	0	0	0	0	0	0	0	0	0	0	0	0	0	1540	1562	1572	1564	1546	1539	1545	1548	1543	1543	1542	1537	1525	1529	1516	1520	1513	1504	1502	1497	1481	1490	1493	1511	1532	1552	1552	1556	1555	1546	1543	1524	1510	1506	1510	1516	1507	1501	1500	1503	1512	1521	1534	1553	1558	1550	1541	1537	1523	1507	1497	1485	1482	1493	1510	1531	1548	1545	1526	1535	1555	1548	1531	1515	1513	1524	1528	1529	1529	1530	1534	1540	1540	1542	1548	1555	1561	1556	1537	1545	1558	1569	1561	1534	1519	1511	1516	1505	1507	1523	1534	1544	1551	1540	1518	1524	1530	1509	1494	1508	1514	1515	1514	1525	1533	1538	1539	1522	1511	1509	1515	1526	1529	1519	1505	1503	1501	1510	1524	1523	1527	1532	1538	1542	1529	1512	1502	1506	1531	1527	1526	1526	1519	1531	1550	1545	1539	1540	1540	1534	1537	1547	1557	1563	1563	1562	1554	1532	1536	1551	1555	1547	1524	1524	1511	1501	1496	1492	1505	0	0	0	0	0	0	0
0	0	0	1264	1268	1263	1259	1259	1253	1253	1250	1251	1245	1235	1235	1233	1245	1257	1264	1269	1276	1276	1274	1265	1271	1291	0	0	0	0	0	0	0	0	0	0	0	0	0	0	0	0	0	0	0	0	0	0	0	0	0	0	0	0	0	0	0	0	0	0	0	0	1492	1518	1537	1551	1527	1523	1525	1531	1542	1542	1548	1480	1452	1410	1373	1304	1296	1286	1287	1287	1285	1278	1273	1274	1275	1275	1275	1275	1278	1285	1292	1289	1280	1265	1256	1262	1272	1282	1289	1289	1286	1284	1281	1266	1246	1254	1266	1277	1279	1279	1285	1289	1287	1282	1276	1278	1283	1285	1282	1275	1269	1257	1258	1266	1274	1276	1277	1276	1278	1279	1278	1285	1291	1286	1281	1283	1271	1275	1291	1304	1306	1294	1278	1268	1270	1275	1292	1299	1303	1316	1313	1310	1295	1291	1296	1299	1291	1280	1273	1282	1293	1288	1286	1279	1280	1284	1286	1285	1280	1277	1283	1294	1295	1290	1297	1297	1294	1293	1292	1293	1288	1288	1286	1293	1303	1299	1297	1304	1327	1337	1349	1348	1340	1330	1315	1311	1311	1310	1318	1332	1340	1334	1339	1343	1336	1327	1316	1312	1313	1318	1318	1320	1317	1322	1326	1330	1331	1326	1319	1312	1317	1328	1342	1347	1350	1352	1353	1345	1339	1339	1329	1323	1324	1321	1330	1330	1329	1331	1331	1329	1331	1338	1347	1347	1345	1351	1378	1423	0	0	0	0	1378	1350	1337	1342	1348	1358	1367	1361	1363	1362	1360	1357	1349	1340	1333	1340	1329	1329	1333	1351	1355	1350	1347	1350	1355	1360	1361	1351	1345	1348	1351	1363	1368	1364	1357	1356	1356	1358	1361	1369	1376	1376	1367	1366	1365	1369	1385	1406	1393	1383	1372	1361	1364	1362	1365	1366	1371	1376	1383	1388	1388	1390	1390	1384	1374	1370	1382	1400	1397	1389	1383	1384	1389	1397	1398	1402	1400	1396	1393	1392	1396	1398	1396	1397	1398	1400	1398	1393	1386	1380	1373	1377	1379	1386	1399	1400	1405	1409	1413	1415	1408	1403	1396	1393	1392	1386	1378	1375	1370	1378	1387	1397	1403	1410	1410	1410	1406	1409	1418	1419	1411	1418	1416	1424	1431	1418	1412	1404	1394	1392	1393	1402	1400	1404	1405	1411	1417	1415	1425	1435	1444	1441	1432	1417	1419	1422	1431	1439	1442	1442	1447	1448	1432	0	0	0	0	0	0	0	0	0	0	0	0	0	0	0	0	0	0	1638	1647	1663	1661	1656	1641	1617	1592	1569	1576	1570	1553	1558	1557	1550	1544	1545	1546	1541	1528	1524	1540	1548	1554	1557	1566	1563	1544	1536	1528	1535	1538	1543	1556	1558	1578	0	0	0	0	0	0	0	0	0	0	0	0	0	0	1565	1566	1548	1540	1519	1536	1538	1536	1540	1543	1537	1541	1549	1546	1539	1526	1514	1501	1493	1494	1499	1517	1519	1537	1555	1553	1553	1549	1540	1536	1533	1526	1522	1521	1518	1508	1498	1496	1499	1511	1525	1542	1549	1551	1543	1540	1533	1515	1505	1489	1480	1480	1484	1499	1522	1545	1550	1551	1556	1564	1550	1530	1512	1513	1524	1529	1523	1529	1529	1536	1541	1548	1551	1555	1555	1559	1545	1529	1536	1554	1570	1568	1549	1522	1511	1521	1524	1525	1527	1534	1544	1562	1572	1532	1532	1529	1514	1515	1519	1515	1506	1510	1513	1528	1554	1552	1547	1531	1523	1523	1529	1538	1529	1518	1510	1510	1521	1527	1523	1518	1507	1509	1514	1509	1499	1498	1507	1520	1524	1520	1512	1515	1528	1540	1540	1533	1527	1527	1522	1526	1528	1529	1538	1531	1524	1523	1517	1522	1536	1547	1546	1529	1529	1509	1493	1483	1484	1488	0	0	0	0	0	0	0
0	0	0	1260	1272	1268	1265	1265	1257	1242	1237	1243	1244	1240	1240	1241	1245	1245	1251	1263	1271	1271	1275	1270	1279	1297	0	0	0	0	0	0	0	0	0	0	0	0	0	0	0	0	0	0	0	0	0	0	0	0	0	0	0	0	0	0	0	0	0	0	0	0	1485	1512	1526	1535	1518	1512	1520	1535	1542	1542	1542	1545	1494	1418	1393	1349	1296	1269	1268	1270	1279	1274	1267	1269	1261	1267	1263	1253	1257	1273	1284	1287	1282	1269	1256	1257	1266	1279	1290	1296	1297	1297	1289	1274	1254	1260	1271	1280	1277	1280	1276	1287	1284	1280	1272	1261	1271	1275	1271	1270	1260	1255	1255	1258	1263	1271	1268	1266	1269	1270	1271	1272	1281	1276	1279	1289	1281	1284	1291	1303	1302	1290	1283	1274	1272	1281	1284	1286	1306	1317	1321	1320	1304	1303	1317	1315	1298	1272	1272	1278	1303	1306	1298	1285	1289	1294	1299	1294	1288	1290	1287	1279	1276	1275	1283	1295	1295	1295	1292	1291	1287	1284	1288	1293	1304	1307	1310	1313	1323	1338	1343	1344	1333	1327	1315	1314	1311	1312	1313	1329	1335	1338	1331	1323	1328	1323	1320	1314	1318	1325	1329	1330	1324	1319	1320	1324	1332	1333	1329	1324	1326	1333	1338	1338	1341	1345	1346	1340	1336	1332	1325	1319	1321	1324	1327	1330	1326	1325	1325	1322	1320	1332	1341	1340	1340	1351	1374	1397	1443	0	0	0	1380	1338	1345	1347	1352	1355	1374	1375	1371	1374	1367	1353	1348	1335	1318	1357	1328	1329	1340	1347	1358	1339	1332	1337	1362	1365	1370	1369	1355	1349	1352	1355	1360	1359	1358	1358	1358	1353	1360	1369	1373	1375	1365	1366	1369	1372	1392	1416	1411	1387	1382	1368	1359	1363	1365	1365	1369	1378	1388	1390	1389	1389	1390	1388	1383	1386	1405	1414	1411	1402	1390	1386	1384	1390	1392	1398	1405	1406	1404	1396	1391	1384	1378	1379	1376	1384	1386	1391	1395	1390	1386	1386	1386	1390	1399	1407	1412	1415	1418	1414	1408	1401	1399	1398	1396	1389	1382	1379	1374	1376	1379	1390	1398	1407	1406	1394	1396	1397	1403	1407	1415	1418	1423	1425	1429	1414	1403	1399	1392	1394	1394	1403	1402	1407	1411	1416	1417	1416	1419	1426	1431	1416	1411	1411	1413	1413	1421	1435	1451	1448	1439	1433	1439	0	0	0	0	0	0	0	0	0	0	0	0	0	0	0	0	0	0	0	1652	1658	1653	1644	1631	1616	1599	1591	1579	1564	1556	1555	1551	1546	1547	1549	1544	1536	1523	1532	1550	1563	1570	1577	1575	1568	1561	1554	1549	1530	1536	1548	1540	1538	1599	0	0	0	0	0	0	0	0	0	0	0	0	0	0	1576	1553	1546	1542	1531	1533	1527	1525	1528	1533	1536	1551	1562	1554	1542	1523	1509	1493	1480	1490	1502	1515	1524	1532	1527	1525	1531	1524	1524	1530	1539	1538	1542	1537	1526	1506	1492	1497	1505	1512	1532	1542	1535	1533	1535	1530	1521	1514	1498	1488	1474	1467	1474	1495	1511	1538	1552	1553	1561	1560	1556	1534	1517	1514	1524	1533	1539	1545	1546	1547	1548	1548	1549	1546	1544	1549	1540	1519	1526	1545	1561	1568	1551	1531	1520	1527	1526	1528	1530	1537	1550	1566	1569	1543	1538	1531	1529	1528	1527	1524	1507	1501	1506	1523	1552	1557	1552	1542	1530	1533	1524	1535	1533	1529	1532	1541	1562	1573	1546	1518	1506	1497	1506	1503	1500	1508	1521	1522	1520	1516	1506	1503	1521	1527	1527	1519	1514	1514	1508	1505	1507	1508	1511	1513	1515	1517	1513	1518	1524	1534	1527	1519	1519	1506	1497	1487	1487	1490	0	0	0	0	0	0	0
0	0	0	1255	1261	1266	1263	1263	1253	1237	1231	1234	1240	1235	1235	1243	1247	1239	1241	1249	1257	1257	1277	1283	1298	1308	0	0	0	0	0	0	0	0	0	0	0	0	0	0	0	0	0	0	0	0	0	0	0	0	0	0	0	0	0	0	0	0	0	0	0	0	1466	1499	1516	1533	1531	1515	1521	1539	1541	1541	1532	1523	1503	1424	1399	1366	1296	1263	1269	1269	1264	1255	1252	1251	1242	1244	1250	1245	1253	1268	1293	1310	1302	1278	1261	1251	1262	1273	1290	1295	1295	1296	1283	1272	1253	1264	1277	1278	1279	1275	1276	1282	1282	1290	1282	1268	1269	1271	1270	1274	1265	1258	1253	1256	1261	1264	1266	1267	1265	1269	1272	1276	1277	1281	1289	1295	1300	1299	1297	1294	1293	1287	1274	1278	1279	1278	1282	1281	1295	1310	1322	1325	1310	1307	1292	1270	1261	1260	1264	1272	1310	1319	1315	1304	1302	1298	1298	1300	1293	1292	1289	1280	1283	1278	1286	1288	1289	1291	1296	1294	1288	1285	1293	1302	1306	1308	1313	1315	1327	1332	1337	1335	1330	1322	1320	1314	1315	1314	1319	1328	1339	1344	1339	1328	1327	1326	1323	1319	1320	1324	1330	1328	1321	1316	1315	1325	1330	1339	1338	1328	1318	1332	1342	1338	1333	1329	1327	1325	1324	1320	1323	1323	1320	1322	1339	1336	1330	1330	1334	1335	1323	1328	1335	1338	1349	1358	1384	1400	1427	1447	0	0	1392	1355	1356	1358	1359	1356	1368	1373	1373	1373	1369	1364	1361	1352	1329	1359	1337	1334	1334	1349	1345	1344	1336	1327	1335	1365	1371	1373	1356	1345	1348	1348	1352	1359	1365	1367	1364	1361	1360	1369	1376	1371	1367	1375	1373	1378	1387	1405	1415	1395	1378	1364	1359	1358	1363	1364	1366	1377	1388	1395	1391	1391	1391	1395	1397	1399	1409	1415	1410	1401	1390	1383	1378	1382	1385	1392	1396	1403	1406	1404	1393	1376	1362	1357	1364	1370	1385	1389	1394	1396	1400	1398	1397	1401	1405	1410	1411	1411	1408	1405	1399	1399	1401	1408	1411	1406	1398	1390	1384	1386	1384	1386	1392	1400	1407	1398	1386	1389	1396	1414	1420	1429	1432	1431	1417	1407	1396	1391	1392	1397	1402	1413	1412	1418	1433	1427	1423	1420	1425	1424	1421	1410	1406	1408	1408	1407	1414	1433	1452	1437	1437	1447	0	0	0	0	0	0	0	0	0	0	0	0	0	0	0	0	0	0	0	0	0	1663	1658	1632	1605	1603	1605	1592	1569	1554	1557	1545	1524	1545	1558	1566	1570	1549	1535	1542	1562	1581	1590	1584	1559	1541	1538	1553	1546	1531	1531	1537	1533	1541	0	0	0	0	0	0	0	0	0	0	0	0	0	0	0	1589	1566	1551	1560	1564	1543	1528	1520	1518	1522	1535	1569	1565	1549	1532	1512	1499	1486	1475	1481	1497	1508	1519	1528	1530	1531	1534	1530	1525	1524	1523	1531	1530	1533	1538	1521	1523	1525	1521	1527	1534	1526	1525	1521	1521	1522	1527	1523	1505	1481	1469	1470	1477	1488	1511	1532	1546	1548	1559	1559	1552	1536	1526	1517	1528	1540	1555	1558	1555	1550	1551	1540	1540	1530	1534	1539	1531	1512	1515	1530	1557	1570	1570	1552	1544	1537	1539	1544	1542	1541	1550	1557	1546	1542	1535	1528	1527	1539	1544	1530	1507	1501	1498	1506	1523	1543	1547	1542	1537	1521	1531	1524	1532	1535	1534	1544	1559	1570	1562	1534	1514	1504	1510	1512	1513	1524	1529	1529	1527	1511	1503	1497	1508	1521	1514	1509	1504	1504	1497	1498	1494	1500	1499	1507	1511	1518	1522	1519	1525	1524	1513	1501	1501	1500	1499	1494	1492	1498	0	0	0	0	0	0	0
0	0	0	1240	1250	1253	1259	1259	1254	1242	1235	1231	1232	1233	1233	1238	1239	1236	1235	1238	1248	1248	1281	1306	1312	1330	0	0	0	0	0	0	0	0	0	0	0	0	0	0	0	0	0	0	0	0	0	0	0	0	0	0	0	0	0	0	0	0	0	0	0	0	1444	1479	1516	1537	1539	1535	1530	1543	1535	1535	1530	1531	1518	1421	1391	1344	1295	1264	1263	1270	1266	1258	1254	1252	1255	1256	1258	1258	1265	1274	1288	1298	1294	1271	1251	1246	1249	1264	1274	1276	1275	1273	1266	1253	1255	1262	1271	1273	1276	1284	1291	1300	1301	1298	1297	1285	1279	1267	1263	1272	1281	1280	1277	1279	1271	1268	1271	1278	1282	1276	1273	1282	1285	1289	1293	1305	1309	1305	1301	1296	1290	1291	1293	1292	1292	1284	1274	1271	1278	1291	1303	1312	1311	1299	1280	1263	1259	1263	1271	1283	1314	1323	1316	1305	1295	1293	1292	1291	1288	1287	1285	1282	1281	1283	1281	1285	1286	1291	1296	1293	1289	1291	1303	1310	1307	1304	1306	1318	1335	1338	1342	1335	1328	1323	1316	1318	1316	1318	1322	1327	1335	1343	1342	1328	1330	1330	1325	1328	1323	1321	1326	1326	1322	1317	1312	1321	1331	1343	1341	1325	1306	1320	1336	1339	1334	1327	1322	1317	1323	1316	1325	1324	1317	1328	1335	1338	1343	1342	1343	1343	1331	1332	1336	1346	1355	1364	1385	1403	1430	1422	0	1437	1380	1363	1359	1369	1365	1358	1358	1361	1363	1363	1371	1368	1375	1371	1356	1347	1337	1335	1334	1341	1349	1340	1335	1325	1345	1360	1370	1369	1365	1352	1344	1343	1352	1360	1372	1374	1371	1368	1367	1369	1370	1373	1372	1375	1378	1381	1385	1395	1396	1383	1372	1363	1358	1358	1359	1362	1360	1371	1384	1396	1398	1390	1397	1397	1402	1400	1403	1402	1399	1392	1383	1384	1382	1381	1380	1382	1386	1396	1402	1408	1402	1379	1356	1349	1356	1380	1379	1384	1390	1398	1404	1407	1409	1404	1401	1408	1407	1403	1400	1395	1397	1396	1401	1418	1429	1438	1422	1404	1403	1397	1389	1388	1389	1400	1403	1395	1382	1385	1394	1420	1438	1440	1438	1427	1413	1403	1393	1391	1392	1405	1409	1415	1426	1432	1431	1430	1433	1430	1431	1431	1424	1416	1407	1405	1412	1413	1423	1443	1454	1442	1448	1508	0	0	0	0	0	0	0	0	0	0	0	0	0	0	0	0	0	0	0	0	0	1671	1666	1623	1603	1604	1594	1581	1551	1555	1553	1524	1512	1503	1510	1533	1544	1551	1544	1547	1581	1582	1576	1569	1580	1581	1559	1524	1517	1519	1529	1533	1531	1547	0	0	0	0	0	0	0	0	0	0	0	0	0	0	1604	1589	1565	1546	1553	1573	1543	1530	1517	1521	1523	1532	1573	1555	1532	1514	1499	1486	1476	1480	1488	1502	1510	1506	1518	1538	1542	1542	1537	1528	1522	1516	1513	1518	1524	1536	1541	1531	1526	1524	1526	1530	1533	1533	1528	1518	1514	1531	1535	1528	1488	1480	1478	1483	1502	1519	1536	1554	1544	1541	1537	1531	1540	1539	1535	1530	1539	1554	1563	1564	1546	1535	1534	1531	1520	1522	1532	1529	1511	1509	1526	1546	1559	1567	1570	1572	1563	1561	1564	1552	1545	1549	1547	1548	1549	1541	1534	1522	1537	1541	1528	1520	1506	1500	1506	1526	1536	1545	1543	1526	1514	1524	1518	1526	1534	1532	1523	1536	1562	1568	1554	1533	1524	1516	1512	1517	1522	1528	1530	1528	1520	1502	1492	1501	1514	1513	1508	1505	1505	1497	1500	1503	1507	1511	1529	1542	1544	1534	1535	1524	1516	1507	1495	1495	1493	1499	1506	1507	1510	0	0	0	0	0	0	0
0	0	0	1232	1238	1247	1255	1255	1261	1258	1251	1236	1224	1224	1221	1229	1232	1238	1241	1243	1239	1239	1275	1301	1320	1332	0	0	0	0	0	0	0	0	0	0	0	0	0	0	0	0	0	0	0	0	0	0	0	0	0	0	0	0	0	0	0	0	0	0	0	0	1431	1472	1516	1541	1544	1541	1552	1554	1552	1552	1538	1554	1538	1423	1372	1327	1269	1258	1256	1264	1267	1267	1265	1266	1268	1279	1286	1295	1286	1279	1284	1283	1277	1258	1243	1241	1249	1254	1259	1266	1269	1272	1264	1257	1252	1262	1276	1281	1281	1288	1295	1305	1303	1297	1286	1281	1275	1266	1273	1277	1287	1295	1294	1285	1277	1276	1281	1288	1290	1274	1276	1285	1292	1291	1287	1289	1295	1301	1297	1290	1288	1292	1292	1295	1291	1277	1270	1268	1276	1286	1299	1306	1307	1297	1287	1271	1265	1274	1283	1292	1321	1324	1316	1306	1295	1291	1287	1286	1281	1280	1272	1279	1286	1286	1282	1282	1286	1294	1298	1294	1295	1300	1307	1310	1301	1296	1303	1314	1339	1340	1338	1334	1325	1317	1317	1322	1321	1322	1316	1327	1336	1339	1334	1331	1332	1333	1328	1328	1327	1324	1325	1327	1323	1321	1319	1330	1342	1356	1346	1320	1297	1312	1323	1337	1333	1327	1322	1321	1321	1325	1330	1328	1319	1325	1332	1340	1350	1356	1354	1348	1331	1343	1353	1361	1365	1369	1396	1399	1415	1413	1426	1423	1386	1360	1359	1357	1358	1354	1348	1348	1349	1353	1364	1371	1375	1370	1362	1348	1339	1336	1330	1341	1341	1339	1341	1345	1355	1367	1374	1368	1358	1349	1345	1342	1348	1359	1371	1374	1368	1363	1362	1364	1368	1366	1366	1370	1375	1383	1385	1390	1388	1378	1365	1360	1352	1354	1357	1358	1361	1365	1381	1393	1394	1389	1390	1392	1395	1395	1387	1386	1387	1384	1381	1383	1384	1383	1374	1377	1381	1392	1406	1408	1408	1395	1364	1354	1366	1385	1387	1386	1387	1396	1396	1407	1407	1400	1401	1402	1404	1400	1396	1396	1397	1401	1411	1430	1459	1459	1442	1420	1411	1403	1398	1396	1394	1401	1395	1386	1381	1383	1399	1415	1442	1444	1437	1422	1404	1407	1407	1400	1400	1405	1421	1439	1441	1440	1434	1438	1438	1447	1446	1444	1434	1424	1425	1419	1418	1429	1442	1450	1449	1461	1480	1560	0	0	0	0	0	0	0	0	0	0	0	0	0	0	0	0	0	0	0	0	0	1675	1650	1608	1590	1595	1585	1564	1539	1553	1553	1542	1506	1504	1497	1509	1533	1547	1549	1572	1583	1581	1577	1579	1576	1572	1564	1533	1510	1524	1528	1530	1534	1543	0	0	0	0	0	0	0	0	0	0	0	0	0	1584	1574	1571	1551	1542	1554	1571	1524	1506	1521	1531	1541	1545	1564	1538	1520	1506	1490	1482	1477	1481	1494	1507	1511	1511	1515	1529	1543	1544	1537	1528	1511	1504	1495	1507	1521	1533	1538	1538	1528	1528	1527	1528	1538	1539	1520	1514	1512	1521	1536	1535	1514	1507	1500	1510	1530	1542	1557	1563	1553	1542	1534	1528	1533	1544	1544	1537	1535	1547	1557	1558	1541	1530	1528	1529	1525	1525	1531	1530	1511	1516	1528	1546	1553	1566	1574	1571	1571	1562	1556	1547	1547	1553	1555	1549	1548	1539	1536	1532	1545	1541	1536	1529	1519	1520	1530	1538	1541	1547	1536	1526	1520	1515	1524	1525	1524	1521	1511	1507	1525	1556	1563	1555	1551	1533	1515	1506	1502	1515	1529	1538	1528	1510	1493	1494	1512	1518	1514	1507	1507	1502	1507	1510	1521	1540	1559	1563	1555	1541	1532	1530	1523	1509	1494	1494	1493	1503	1521	1532	1527	0	0	0	0	0	0	0
0	0	0	1234	1235	1249	1257	1257	1262	1265	1257	1248	1231	1231	1230	1228	1234	1242	1247	1240	1248	1248	1257	1268	1286	1307	0	0	0	0	0	0	0	0	0	0	0	0	0	0	0	0	0	0	0	0	0	0	0	0	0	0	0	0	0	0	0	0	0	0	0	0	1428	1473	1515	1539	1543	1545	1551	1553	1568	1568	1575	1572	1519	1433	1377	1316	1274	1267	1263	1259	1263	1264	1262	1268	1272	1291	1309	1309	1298	1288	1283	1269	1251	1243	1247	1255	1257	1254	1253	1253	1260	1267	1267	1261	1262	1266	1277	1284	1285	1282	1281	1292	1298	1297	1297	1299	1300	1298	1291	1287	1290	1290	1281	1271	1260	1260	1277	1286	1291	1277	1288	1298	1300	1299	1293	1287	1283	1285	1287	1280	1272	1280	1285	1280	1287	1282	1266	1257	1261	1268	1278	1289	1294	1281	1270	1273	1280	1300	1315	1320	1330	1328	1319	1302	1302	1297	1303	1304	1300	1299	1301	1301	1296	1290	1289	1292	1302	1300	1295	1288	1283	1287	1289	1283	1275	1272	1283	1292	1316	1311	1314	1309	1310	1310	1322	1329	1327	1327	1330	1326	1314	1317	1320	1339	1340	1339	1342	1346	1334	1333	1329	1333	1336	1338	1331	1336	1346	1350	1340	1318	1305	1315	1322	1330	1332	1328	1319	1318	1325	1328	1329	1322	1321	1321	1331	1341	1353	1357	1354	1343	1344	1353	1361	1362	1366	1370	1387	1403	1409	1419	1420	1414	1376	1360	1355	1353	1353	1347	1344	1343	1346	1350	1357	1359	1363	1356	1356	1347	1341	1338	1337	1349	1348	1350	1352	1354	1358	1371	1372	1362	1354	1349	1347	1346	1348	1359	1370	1372	1372	1382	1386	1386	1375	1365	1360	1367	1377	1382	1387	1387	1381	1372	1359	1352	1351	1347	1348	1355	1357	1365	1375	1388	1389	1384	1380	1385	1385	1384	1380	1387	1390	1387	1382	1387	1380	1376	1375	1377	1382	1394	1402	1406	1406	1394	1375	1368	1376	1391	1394	1397	1396	1399	1392	1393	1406	1398	1401	1403	1407	1406	1398	1396	1401	1406	1413	1423	1436	1445	1439	1429	1424	1428	1429	1422	1415	1404	1399	1388	1386	1390	1400	1410	1415	1423	1423	1429	1443	1449	1444	1422	1404	1401	1419	1436	1440	1436	1427	1419	1434	1439	1440	1438	1436	1433	1430	1438	1450	1453	1441	1444	1446	1474	1511	0	0	0	0	0	0	0	0	0	0	0	0	0	0	0	0	0	0	0	0	0	0	0	1652	1606	1590	1599	1584	1551	1534	1560	1562	1563	1533	1516	1502	1508	1529	1543	1548	1568	1587	1583	1582	1570	1562	1563	1555	1537	1520	1525	1525	1526	1522	1532	0	0	0	0	0	0	0	0	0	1613	1615	1580	1556	1554	1543	1544	1540	1538	1547	1559	1518	1498	1522	1545	1539	1553	1547	1525	1513	1511	1492	1481	1487	1501	1517	1533	1529	1516	1512	1515	1519	1536	1535	1526	1505	1493	1488	1500	1519	1539	1538	1538	1536	1535	1524	1527	1542	1533	1524	1513	1513	1520	1525	1524	1509	1504	1510	1527	1547	1561	1565	1571	1553	1545	1536	1535	1533	1541	1545	1542	1539	1551	1561	1550	1536	1524	1518	1520	1525	1529	1534	1529	1518	1524	1534	1540	1553	1565	1570	1572	1568	1561	1553	1544	1543	1548	1557	1546	1527	1521	1526	1543	1540	1533	1531	1532	1532	1536	1539	1544	1546	1540	1536	1537	1529	1538	1534	1524	1524	1516	1509	1501	1504	1525	1547	1559	1557	1543	1520	1495	1495	1508	1528	1543	1533	1517	1499	1503	1520	1526	1525	1513	1513	1513	1517	1524	1537	1556	1575	1571	1531	1512	1520	1523	1522	1513	1502	1502	1500	1517	1535	1538	1530	0	0	0	0	0	0	0
0	0	0	1242	1244	1243	1251	1251	1257	1263	1269	1261	1245	1245	1235	1234	1237	1247	1257	1262	1250	1250	1243	1245	1246	1255	0	0	0	0	0	0	0	0	0	0	0	0	0	0	0	0	0	0	0	0	0	0	0	0	0	0	0	0	0	0	0	0	0	0	0	0	1431	1480	1525	1540	1544	1547	1548	1550	1562	1562	1565	1566	1537	0	0	1332	1279	1278	1273	1262	1260	1258	1258	1259	1267	1294	1315	1313	1301	1291	1279	1266	1247	1243	1247	1260	1263	1258	1253	1254	1254	1266	1269	1266	1266	1267	1282	1288	1286	1277	1270	1283	1289	1296	1294	1298	1297	1298	1295	1286	1283	1282	1278	1267	1260	1257	1270	1280	1286	1279	1282	1289	1294	1292	1289	1290	1287	1291	1281	1275	1275	1275	1275	1278	1290	1282	1269	1260	1261	1272	1283	1288	1287	1276	1268	1275	1268	1285	1309	1312	1322	1320	1309	1302	1301	1305	1310	1314	1314	1316	1315	1312	1306	1300	1295	1297	1303	1303	1300	1297	1295	1295	1290	1280	1273	1276	1284	1287	1277	1278	1291	1300	1305	1312	1321	1327	1330	1330	1329	1323	1310	1307	1306	1349	1362	1365	1360	1348	1331	1325	1324	1334	1342	1336	1338	1343	1343	1341	1339	1336	1317	1320	1326	1333	1336	1335	1329	1323	1315	1317	1313	1305	1309	1317	1333	1344	1352	1354	1344	1344	1344	1355	1357	1360	1358	1367	1384	1413	1413	1410	1408	1392	1362	1348	1344	1345	1347	1348	1349	1350	1349	1350	1352	1350	1349	1344	1340	1341	1340	1340	1343	1349	1352	1355	1360	1367	1369	1363	1355	1344	1338	1342	1350	1355	1351	1351	1362	1365	1382	1391	1394	1397	1384	1372	1364	1366	1374	1380	1383	1381	1375	1364	1357	1356	1355	1360	1348	1354	1360	1367	1371	1381	1381	1369	1362	1369	1376	1378	1383	1392	1392	1400	1395	1400	1384	1378	1375	1374	1381	1385	1386	1391	1389	1379	1379	1378	1384	1389	1397	1409	1406	1391	1375	1381	1392	1394	1399	1409	1414	1409	1399	1395	1405	1421	1424	1421	1421	1427	1423	1426	1423	1427	1430	1420	1409	1401	1393	1386	1390	1396	1412	1416	1413	1412	1420	1429	1445	1449	1444	1424	1407	1409	1417	1424	1434	1426	1424	1418	1423	1427	1425	1430	1431	1432	1432	1445	1447	1448	1438	1437	1442	1465	1498	0	0	0	0	0	0	0	0	0	0	0	0	0	0	0	0	0	0	0	0	0	0	0	1649	1623	1602	1599	1582	1541	1545	1571	1573	1583	1558	1535	1513	1512	1533	1537	1540	1562	1575	1587	1585	1575	1554	1549	1547	1531	1533	1525	1527	1516	1513	1514	1547	0	0	0	0	0	0	0	0	0	1601	1591	1547	1532	1524	1524	1522	1534	1542	1552	1547	1534	1542	1530	1551	1544	1543	1533	1523	1519	1517	1517	1522	1532	1539	1549	1538	1529	1517	1516	1509	1520	1528	1528	1509	1506	1501	1509	1525	1530	1530	1537	1542	1540	1527	1519	1535	1534	1534	1524	1532	1527	1518	1501	1483	1491	1507	1525	1546	1558	1562	1565	1559	1552	1540	1527	1520	1528	1538	1540	1549	1558	1561	1547	1529	1512	1505	1511	1518	1538	1545	1538	1539	1536	1543	1541	1550	1560	1565	1562	1564	1559	1547	1543	1541	1550	1546	1534	1512	1500	1511	1533	1525	1523	1519	1526	1530	1539	1544	1544	1543	1534	1539	1548	1549	1547	1539	1533	1531	1529	1519	1511	1511	1530	1551	1555	1548	1539	1527	1508	1503	1517	1536	1542	1532	1521	1510	1507	1519	1526	1526	1525	1525	1525	1531	1530	1537	1543	1552	1541	1511	1492	1498	1500	1503	1503	1505	1519	1519	1531	1543	1541	1524	0	0	0	0	0	0	0
0	0	0	1231	1240	1238	1243	1243	1249	1254	1267	1267	1252	1252	1245	1245	1245	1252	1261	1264	1264	1261	1251	1247	1244	1234	0	0	0	0	0	0	0	0	0	0	0	0	0	0	0	0	0	0	0	0	0	0	0	0	0	0	0	0	0	0	0	0	0	0	0	0	1432	1498	1533	1538	1541	1545	1541	1544	1544	1550	1559	1565	1537	0	0	1349	1297	1290	1285	1269	1252	1257	1257	1257	1260	1280	1301	1309	1300	1288	1280	1265	1253	1243	1251	1259	1263	1261	1259	1257	1263	1273	1273	1273	1264	1277	1289	1296	1293	1282	1275	1272	1274	1283	1281	1284	1295	1299	1291	1279	1275	1276	1274	1271	1268	1278	1278	1285	1284	1270	1261	1256	1256	1272	1293	1302	1299	1292	1282	1273	1272	1276	1277	1274	1281	1295	1299	1295	1292	1290	1296	1292	1291	1293	1285	1278	1272	1271	1271	1277	1282	1290	1309	1306	1302	1305	1307	1313	1321	1327	1326	1319	1318	1309	1303	1301	1302	1304	1304	1300	1301	1299	1294	1285	1276	1276	1288	1294	1282	1282	1298	1303	1308	1311	1324	1329	1336	1337	1332	1321	1311	1311	1307	1346	1353	1368	1360	1348	1332	1319	1321	1336	1350	1342	1340	1344	1339	1334	1331	1332	1323	1322	1330	1336	1339	1345	1342	1330	1316	1313	1303	1311	1313	1320	1339	1343	1348	1340	1333	1325	1335	1345	1358	1361	1362	1364	1376	1390	1408	1396	1402	1386	1359	1344	1345	1348	1353	1357	1357	1358	1350	1349	1345	1341	1336	1336	1336	1340	1345	1346	1347	1350	1349	1357	1359	1367	1370	1357	1348	1344	1341	1341	1351	1357	1359	1351	1349	1361	1382	1395	1396	1393	1384	1371	1365	1362	1368	1372	1374	1372	1364	1359	1359	1356	1359	1368	1366	1367	1365	1372	1378	1376	1370	1357	1344	1348	1353	1373	1384	1397	1407	1413	1423	1418	1404	1387	1375	1372	1374	1375	1384	1389	1393	1383	1382	1382	1385	1392	1393	1394	1397	1398	1379	1378	1388	1394	1401	1409	1410	1404	1399	1405	1415	1425	1428	1418	1405	1404	1402	1409	1405	1408	1410	1408	1398	1387	1389	1396	1408	1417	1424	1417	1407	1397	1394	1389	1390	1406	1427	1432	1432	1435	1435	1434	1429	1423	1412	1412	1409	1414	1419	1424	1430	1428	1431	1431	1440	1437	1438	1448	1445	1456	1496	0	0	0	0	0	0	0	0	0	0	0	0	0	0	0	0	0	0	0	0	0	0	0	0	1661	1605	1598	1574	1552	1555	1574	1567	1582	1573	1549	1525	1515	1532	1533	1533	1534	1557	1567	1561	1558	1555	1560	1553	1541	1539	1525	1518	1499	1509	1507	1530	0	0	0	0	0	0	0	0	0	1601	1591	1571	1548	1531	1518	1527	1531	1537	1535	1551	1543	1530	1534	1529	1546	1549	1537	1524	1525	1528	1532	1537	1537	1540	1537	1529	1519	1516	1517	1509	1514	1522	1534	1524	1520	1509	1518	1528	1531	1525	1517	1529	1531	1523	1521	1551	1554	1547	1544	1539	1534	1517	1496	1486	1502	1517	1535	1547	1555	1560	1568	1559	1552	1546	1525	1503	1513	1529	1540	1559	1567	1573	1565	1536	1517	1506	1508	1526	1543	1557	1558	1558	1548	1547	1543	1548	1552	1557	1555	1555	1551	1550	1538	1541	1550	1548	1532	1498	1491	1499	1519	1511	1512	1510	1511	1520	1537	1550	1554	1542	1533	1537	1547	1549	1555	1548	1547	1540	1537	1527	1524	1523	1543	1556	1554	1548	1541	1528	1523	1529	1538	1546	1550	1536	1533	1523	1522	1523	1524	1527	1527	1540	1540	1542	1536	1528	1527	1529	1528	1504	1489	1485	1489	1493	1494	1501	1517	1517	1531	1542	1540	1525	0	0	0	0	0	0	0
0	0	0	1240	1244	1241	1238	1238	1244	1251	1261	1259	1250	1250	1249	1249	1252	1265	1263	1257	1257	1263	1266	1265	1252	1247	0	0	0	0	0	0	0	0	0	0	0	0	0	0	0	0	0	0	0	0	0	0	0	0	0	0	0	0	0	0	0	0	0	0	0	0	1452	1514	1535	1540	1543	1534	1537	1540	1540	1547	1560	1567	1542	0	0	0	1310	1298	1283	1258	1252	1261	1264	1267	1270	1269	1274	1275	1281	1277	1275	1265	1255	1250	1251	1254	1261	1264	1268	1278	1291	1294	1298	1292	1284	1291	1298	1300	1298	1289	1275	1266	1260	1254	1250	1254	1265	1277	1276	1263	1263	1272	1288	1298	1295	1292	1286	1291	1285	1273	1269	1275	1284	1292	1294	1288	1289	1289	1284	1278	1277	1281	1280	1286	1293	1303	1296	1291	1289	1299	1313	1316	1310	1306	1310	1313	1312	1296	1281	1278	1277	1287	1300	1302	1306	1291	1289	1294	1298	1305	1309	1316	1323	1322	1301	1285	1279	1285	1297	1307	1313	1313	1309	1306	1298	1295	1292	1289	1291	1304	1317	1325	1317	1313	1318	1318	1321	1323	1321	1319	1323	1321	1325	1333	1337	1347	1348	1339	1326	1319	1324	1336	1352	1366	1360	1337	1322	1319	1324	1316	1311	1314	1330	1341	1341	1346	1344	1339	1333	1332	1334	1339	1340	1342	1348	1341	1332	1325	1315	1312	1316	1330	1347	1359	1364	1355	1355	1362	1391	0	0	1387	1362	1350	1351	1351	1358	1364	1366	1363	1350	1345	1341	1340	1341	1343	1343	1344	1348	1350	1348	1348	1348	1352	1358	1362	1361	1356	1346	1353	1353	1350	1358	1359	1362	1358	1356	1369	1382	1385	1384	1382	1376	1371	1366	1363	1365	1365	1367	1357	1356	1356	1352	1353	1361	1373	1372	1372	1370	1372	1377	1369	1366	1352	1338	1340	1354	1372	1386	1403	1412	1422	1435	1433	1417	1401	1381	1374	1375	1377	1384	1394	1402	1400	1385	1383	1385	1391	1396	1399	1399	1401	1397	1389	1389	1393	1401	1404	1405	1398	1393	1397	1410	1418	1423	1424	1424	1415	1414	1408	1405	1397	1402	1402	1392	1383	1381	1393	1407	1411	1419	1423	1413	1403	1396	1396	1398	1405	1412	1422	1430	1440	1442	1440	1437	1428	1420	1413	1412	1422	1431	1435	1434	1433	1434	1433	1433	1429	1435	1447	1455	1452	1462	0	0	0	0	0	0	0	0	0	0	0	0	0	0	0	0	0	0	0	0	0	0	0	0	1666	1608	1595	1582	1572	1558	1564	1547	1544	1544	1541	1541	1541	1536	1550	1557	1558	1533	1519	1519	1527	1535	1536	1541	1541	1533	1532	1529	1528	1528	1525	1542	0	0	0	0	0	0	0	0	1594	1595	1594	1595	1576	1549	1533	1534	1523	1521	1517	1541	1537	1532	1534	1537	1552	1542	1539	1537	1534	1537	1534	1533	1533	1525	1513	1502	1504	1506	1513	1512	1508	1518	1522	1523	1521	1516	1516	1524	1527	1521	1506	1511	1517	1518	1529	1542	1551	1554	1544	1543	1537	1525	1511	1511	1530	1540	1538	1545	1551	1559	1562	1546	1548	1544	1529	1505	1511	1526	1536	1556	1567	1575	1570	1567	1542	1520	1515	1528	1548	1555	1552	1554	1546	1539	1539	1540	1550	1556	1553	1554	1548	1545	1541	1541	1545	1542	1516	1498	1485	1507	1509	1503	1501	1496	1496	1510	1523	1534	1554	1554	1549	1541	1542	1545	1551	1551	1552	1536	1530	1522	1524	1536	1552	1557	1549	1536	1529	1531	1534	1539	1546	1544	1549	1553	1547	1537	1528	1523	1523	1525	1529	1534	1534	1544	1535	1517	1508	1513	1520	1512	1504	1489	1485	1486	1490	1506	1515	1515	1526	1540	1536	1523	0	0	0	0	0	0	0
0	0	0	1251	1251	1247	1245	1245	1252	1264	1268	1259	1256	1256	1248	1250	1260	1265	1264	1269	1269	1269	1279	1288	1280	1262	0	0	0	0	0	0	0	0	0	0	0	0	0	0	0	0	0	0	0	0	0	0	0	0	0	0	0	0	0	0	0	0	0	0	0	0	1473	1515	1538	1535	1539	1541	1540	1546	1546	1554	1579	1580	1538	0	0	0	1335	1298	1268	1253	1259	1268	1273	1271	1269	1266	1266	1265	1269	1273	1271	1255	1248	1247	1251	1255	1259	1263	1269	1285	1301	1309	1307	1300	1292	1295	1297	1297	1291	1282	1274	1264	1260	1258	1256	1258	1268	1275	1270	1268	1269	1277	1289	1298	1298	1294	1286	1283	1287	1275	1277	1282	1284	1288	1284	1281	1286	1284	1283	1281	1278	1279	1283	1290	1292	1298	1299	1296	1292	1303	1318	1328	1318	1315	1313	1311	1316	1304	1290	1286	1286	1288	1293	1298	1300	1303	1298	1306	1306	1303	1307	1317	1320	1318	1292	1285	1282	1293	1306	1317	1326	1321	1317	1307	1302	1296	1293	1286	1297	1299	1312	1317	1323	1322	1319	1320	1322	1321	1321	1321	1326	1331	1331	1314	1325	1332	1329	1317	1320	1312	1321	1331	1342	1347	1340	1328	1316	1317	1319	1305	1299	1305	1321	1334	1339	1342	1335	1332	1328	1331	1333	1335	1341	1351	1348	1340	1326	1318	1314	1315	1318	1322	1337	1359	1364	1358	1354	1338	1378	0	0	1360	1352	1342	1339	1345	1353	1367	1372	1370	1363	1357	1352	1351	1353	1356	1353	1358	1356	1356	1352	1350	1347	1345	1346	1349	1346	1351	1355	1351	1354	1360	1366	1368	1366	1358	1366	1375	1380	1379	1372	1370	1367	1370	1370	1368	1363	1365	1359	1356	1362	1363	1357	1353	1357	1371	1370	1367	1366	1371	1368	1362	1363	1354	1347	1352	1359	1376	1392	1404	1410	1416	1424	1423	1415	1403	1391	1380	1381	1387	1396	1410	1417	1404	1391	1382	1386	1393	1396	1399	1398	1398	1400	1394	1398	1401	1412	1410	1400	1390	1384	1387	1395	1403	1409	1422	1430	1435	1432	1422	1409	1403	1400	1402	1390	1381	1381	1392	1414	1423	1432	1424	1419	1408	1405	1408	1410	1412	1414	1415	1425	1441	1448	1450	1445	1432	1424	1418	1424	1432	1436	1441	1436	1423	1425	1433	1429	1425	1427	1438	1450	1448	1444	0	0	0	0	0	0	0	0	0	0	0	0	0	0	0	0	0	0	0	0	0	0	0	0	1655	1608	1597	1585	1587	1546	1532	1526	1540	1542	1555	1568	1576	1571	1555	1557	1551	1547	1535	1549	1554	1556	1555	1556	1564	1564	1549	1553	1545	1543	1555	1590	0	0	0	0	0	0	0	1573	1579	1581	1586	1593	1581	1564	1550	1537	1526	1515	1536	1543	1537	1538	1547	1541	1539	1534	1552	1549	1544	1533	1528	1520	1513	1498	1490	1486	1493	1499	1509	1519	1509	1504	1510	1509	1509	1506	1508	1516	1534	1539	1518	1509	1517	1525	1525	1531	1539	1543	1549	1539	1537	1522	1524	1527	1539	1534	1532	1527	1535	1544	1545	1537	1534	1544	1540	1526	1523	1524	1528	1546	1553	1557	1568	1574	1562	1534	1525	1525	1531	1538	1532	1532	1529	1522	1528	1539	1548	1553	1550	1555	1559	1550	1539	1540	1540	1535	1520	1498	1494	1505	1513	1508	1502	1490	1488	1495	1513	1540	1558	1562	1558	1546	1551	1533	1539	1543	1544	1530	1515	1507	1510	1533	1545	1535	1529	1512	1508	1511	1521	1527	1526	1533	1544	1553	1557	1543	1534	1525	1520	1526	1531	1531	1531	1535	1523	1511	1501	1509	1514	1511	1504	1491	1485	1491	1497	1505	1518	1518	1523	1531	1519	1505	0	0	0	0	0	0	0
0	0	0	1255	1251	1252	1255	1255	1265	1268	1268	1265	1258	1258	1250	1249	1255	1261	1265	1262	1262	1266	1277	1287	1299	0	0	0	0	0	0	0	0	0	0	0	0	0	0	0	0	0	0	0	0	0	0	0	0	0	0	0	0	0	0	0	0	0	0	0	0	0	1485	1523	1535	1525	1533	1541	1543	1548	1548	1560	1578	1578	1551	0	0	0	1343	1295	1264	1259	1267	1277	1282	1275	1264	1262	1261	1262	1262	1270	1262	1257	1241	1247	1248	1257	1259	1267	1282	1296	1309	1317	1311	1302	1297	1297	1294	1291	1285	1279	1272	1264	1260	1257	1258	1267	1274	1275	1274	1271	1270	1280	1287	1298	1295	1290	1281	1283	1287	1279	1275	1280	1282	1281	1278	1275	1276	1279	1283	1282	1284	1282	1284	1289	1292	1298	1299	1298	1294	1296	1317	1327	1318	1310	1302	1308	1313	1307	1298	1290	1290	1289	1291	1297	1300	1306	1309	1308	1310	1307	1310	1313	1316	1315	1302	1295	1295	1303	1314	1325	1327	1322	1315	1307	1299	1295	1292	1290	1295	1301	1309	1320	1326	1324	1316	1311	1317	1318	1322	1326	1334	1339	1327	1306	1305	1304	1307	1307	1304	1303	1312	1321	1328	1332	1329	1319	1318	1318	1318	1305	1302	1311	1326	1338	1341	1330	1327	1323	1324	1328	1329	1332	1340	1339	1342	1340	1323	1318	1321	1326	1326	1325	1337	1366	1376	1372	1353	1346	1363	1375	1380	1364	1351	1341	1338	1342	1353	1364	1370	1371	1367	1364	1363	1357	1352	1353	1354	1356	1361	1359	1353	1351	1344	1346	1345	1340	1340	1347	1353	1358	1360	1370	1375	1376	1365	1360	1360	1370	1378	1377	1365	1358	1355	1365	1370	1367	1365	1364	1361	1364	1372	1374	1369	1365	1364	1370	1369	1365	1364	1363	1368	1377	1373	1364	1357	1357	1362	1377	1391	1400	1399	1400	1393	1403	1392	1394	1395	1389	1392	1394	1402	1410	1410	1402	1381	1380	1382	1392	1400	1400	1398	1394	1395	1395	1401	1411	1414	1413	1399	1388	1379	1382	1384	1393	1401	1416	1430	1436	1434	1428	1413	1408	1410	1410	1395	1385	1382	1393	1421	1429	1437	1439	1421	1412	1411	1417	1415	1418	1417	1419	1434	1443	1452	1459	1452	1436	1424	1420	1427	1447	1444	1445	1436	1425	1424	1424	1426	1421	1425	1434	1441	1436	1440	0	0	0	0	0	0	0	0	0	0	0	0	0	0	0	0	0	0	0	0	0	0	0	0	1613	1590	1605	1627	1565	1536	1520	1544	1547	1543	1542	1549	1557	1556	1555	1550	1552	1549	1554	1565	1576	1574	1569	1566	1562	1558	1557	1556	1553	1549	1554	1597	0	0	0	0	0	1556	1561	1573	1577	1574	1576	1579	1579	1561	1550	1545	1533	1514	1531	1541	1549	1540	1548	1540	1538	1533	1552	1549	1532	1518	1505	1500	1496	1487	1483	1486	1490	1504	1526	1529	1504	1503	1498	1500	1498	1499	1506	1512	1532	1546	1533	1526	1525	1526	1522	1514	1524	1535	1539	1545	1539	1525	1520	1523	1528	1530	1518	1518	1528	1529	1530	1515	1528	1539	1545	1546	1529	1523	1529	1533	1536	1545	1554	1565	1566	1536	1522	1523	1529	1524	1526	1529	1531	1523	1529	1547	1549	1552	1557	1565	1573	1566	1549	1538	1531	1527	1517	1500	1498	1500	1511	1522	1517	1501	1483	1487	1508	1536	1558	1562	1561	1559	1543	1525	1526	1525	1532	1519	1503	1493	1496	1508	1518	1513	1508	1502	1494	1500	1499	1501	1498	1511	1516	1538	1542	1535	1512	1509	1513	1528	1530	1537	1537	1534	1520	1510	1500	1501	1507	1504	1495	1486	1482	1497	1502	1514	1526	1526	1542	1538	1519	1508	0	0	0	0	0	0	0
0	0	0	1253	1250	1251	1258	1258	1264	1265	1263	1264	1256	1256	1246	1245	1249	1253	1257	1260	1260	1260	1265	1267	1282	0	0	0	0	0	0	0	0	0	0	0	0	0	0	0	0	0	0	0	0	0	0	0	0	0	0	0	0	0	0	0	0	0	0	0	0	0	1500	1523	1535	1527	1532	1538	1543	1548	1548	1556	1564	1555	1533	0	0	0	1334	1289	1275	1273	1274	1282	1287	1275	1265	1262	1261	1260	1264	1266	1261	1246	1243	1249	1255	1262	1267	1274	1289	1302	1311	1318	1316	1302	1294	1294	1298	1298	1290	1273	1267	1262	1259	1255	1259	1268	1277	1279	1269	1268	1271	1282	1290	1293	1285	1282	1281	1283	1290	1278	1273	1277	1283	1280	1274	1274	1279	1281	1285	1288	1289	1289	1286	1290	1288	1297	1299	1299	1298	1299	1309	1320	1316	1302	1298	1302	1304	1296	1294	1287	1290	1288	1290	1294	1297	1305	1308	1306	1304	1304	1307	1311	1307	1303	1311	1308	1309	1310	1318	1323	1320	1318	1308	1299	1295	1294	1294	1292	1296	1302	1315	1321	1320	1317	1311	1307	1311	1316	1323	1325	1337	1336	1325	1308	1301	1297	1292	1301	1299	1301	1301	1310	1319	1322	1322	1318	1319	1321	1321	1311	1315	1326	1338	1347	1346	1327	1317	1316	1320	1327	1331	1333	1338	1340	1341	1339	1324	1321	1329	1341	1336	1334	1343	1362	1381	1376	1372	1366	1362	1365	1379	1388	1357	1348	1353	1355	1353	1356	1360	1364	1369	1373	1369	1355	1352	1353	1349	1353	1360	1355	1357	1354	1347	1350	1351	1341	1341	1345	1347	1364	1369	1375	1380	1379	1370	1360	1356	1358	1367	1364	1355	1351	1355	1360	1364	1366	1364	1362	1361	1364	1369	1381	1382	1377	1372	1368	1370	1369	1368	1376	1388	1388	1383	1378	1369	1367	1364	1373	1380	1392	1394	1391	1378	1380	1385	1385	1385	1388	1392	1394	1401	1403	1397	1391	1389	1388	1398	1401	1399	1402	1401	1403	1403	1400	1409	1411	1416	1407	1395	1386	1375	1374	1377	1387	1395	1408	1421	1429	1432	1426	1422	1419	1423	1423	1409	1397	1394	1408	1428	1439	1439	1441	1437	1414	1413	1417	1421	1424	1425	1428	1435	1451	1463	1469	1460	1446	1429	1426	1436	1451	1454	1445	1438	1432	1422	1429	1428	1429	1429	1436	1444	1445	1452	0	0	0	0	0	0	0	0	0	0	0	0	0	0	0	0	0	0	0	0	0	0	0	0	1613	1612	1609	1625	1595	1530	1526	1548	1553	1545	1542	1545	1553	1552	1553	1550	1547	1548	1558	1570	1577	1572	1565	1561	1564	1565	1558	1554	1555	1549	1544	1582	0	0	0	0	1588	1576	1579	1578	1573	1564	1559	1572	1575	1565	1558	1560	1547	1537	1494	1502	1537	1547	1545	1543	1536	1543	1541	1529	1509	1482	1484	1485	1495	1503	1506	1504	1511	1517	1535	1539	1515	1509	1498	1497	1498	1506	1505	1514	1530	1542	1536	1531	1531	1533	1525	1506	1511	1522	1535	1539	1537	1529	1521	1519	1521	1524	1528	1527	1532	1532	1529	1509	1526	1545	1551	1547	1535	1529	1523	1524	1523	1525	1534	1553	1549	1533	1528	1529	1532	1535	1538	1542	1542	1542	1546	1558	1556	1561	1574	1590	1588	1578	1555	1535	1528	1516	1512	1508	1508	1502	1511	1534	1536	1523	1497	1503	1515	1537	1552	1559	1562	1554	1543	1527	1519	1511	1515	1514	1505	1494	1493	1491	1495	1488	1497	1493	1493	1483	1483	1483	1488	1491	1501	1513	1534	1519	1506	1510	1513	1534	1547	1547	1547	1537	1526	1517	1502	1495	1500	1496	1494	1485	1483	1489	1504	1516	1543	1543	1556	1545	1526	1497	0	0	0	0	0	0	0
0	0	0	1247	1239	1245	1255	1255	1259	1255	1256	1256	1255	1255	1244	1233	1235	1249	1249	1247	1247	1249	1255	1255	1262	0	0	0	0	0	0	0	0	0	0	0	0	0	0	0	0	0	0	0	0	0	0	0	0	0	0	0	0	0	0	0	0	0	0	0	0	0	1517	1523	1530	1531	1531	1537	1547	1549	1549	1550	1545	1525	1504	0	0	0	1305	1284	1293	1294	1282	1281	1284	1280	1274	1268	1263	1265	1270	1267	1260	1254	1247	1254	1268	1274	1278	1282	1292	1302	1313	1314	1313	1304	1290	1290	1294	1299	1296	1277	1263	1262	1259	1256	1260	1268	1275	1274	1264	1264	1270	1278	1285	1284	1278	1273	1280	1287	1294	1279	1273	1275	1282	1284	1285	1285	1292	1295	1292	1291	1297	1293	1294	1292	1289	1295	1301	1301	1300	1300	1309	1312	1297	1288	1283	1286	1293	1291	1286	1285	1281	1283	1295	1294	1299	1304	1301	1295	1295	1299	1304	1306	1298	1292	1312	1316	1311	1311	1311	1316	1312	1310	1308	1301	1297	1295	1298	1295	1295	1302	1317	1320	1316	1308	1298	1294	1301	1313	1318	1321	1321	1322	1306	1314	1313	1303	1302	1308	1310	1302	1303	1313	1322	1323	1319	1324	1328	1326	1330	1321	1331	1340	1350	1360	1348	1326	1321	1323	1330	1336	1336	1336	1342	1341	1350	1347	1334	1327	1337	1344	1347	1343	1346	1360	1378	1378	1380	1383	1368	1368	1373	1397	1365	1357	1369	1368	1360	1351	1344	1350	1363	1367	1360	1354	1352	1356	1356	1359	1362	1361	1360	1361	1361	1357	1353	1349	1341	1340	1346	1356	1367	1376	1377	1381	1373	1370	1367	1366	1369	1361	1355	1361	1354	1355	1354	1357	1356	1356	1356	1361	1371	1382	1392	1388	1381	1375	1371	1374	1382	1391	1396	1402	1395	1387	1378	1375	1375	1379	1379	1386	1393	1394	1384	1390	1386	1387	1379	1394	1393	1388	1394	1398	1394	1391	1391	1405	1413	1413	1406	1409	1409	1414	1411	1405	1405	1406	1406	1403	1398	1386	1376	1375	1383	1386	1388	1398	1409	1417	1429	1426	1426	1427	1429	1426	1422	1417	1420	1428	1433	1437	1441	1446	1431	1414	1407	1418	1424	1438	1440	1440	1445	1453	1463	1464	1463	1455	1444	1437	1443	1447	1456	1446	1438	1425	1426	1431	1433	1436	1450	1454	1458	1459	1456	0	0	0	0	0	0	0	0	0	0	0	0	0	0	0	0	0	0	0	0	0	0	0	0	1617	1601	1621	1619	1602	1534	1529	1554	1555	1553	1552	1550	1555	1552	1552	1547	1544	1544	1556	1567	1570	1566	1562	1558	1561	1567	1558	1552	1549	1554	1542	1555	1561	0	0	1577	1581	1585	1582	1582	1569	1564	1564	1589	1583	1583	1569	1572	1556	1547	1511	1494	1538	1549	1538	1535	1545	1547	1536	1520	1500	1471	1469	1479	1505	1517	1529	1523	1519	1516	1517	1514	1525	1519	1511	1503	1507	1514	1518	1522	1531	1544	1544	1536	1534	1536	1527	1502	1504	1514	1528	1541	1540	1536	1526	1522	1521	1527	1543	1547	1551	1548	1531	1517	1537	1551	1552	1543	1536	1535	1529	1520	1513	1512	1520	1533	1535	1532	1532	1541	1541	1549	1546	1551	1545	1554	1562	1561	1569	1571	1583	1599	1594	1576	1545	1535	1519	1508	1504	1507	1507	1508	1504	1533	1535	1522	1509	1514	1523	1535	1547	1555	1559	1553	1535	1523	1514	1509	1510	1513	1510	1510	1505	1498	1497	1496	1496	1492	1492	1487	1481	1485	1487	1491	1489	1503	1517	1531	1521	1515	1519	1538	1548	1549	1549	1536	1526	1510	1496	1487	1485	1489	1491	1477	1486	1484	1496	1525	1561	1561	1558	1547	1523	1501	0	0	0	0	0	0	0
0	0	0	1236	1228	1236	1246	1246	1250	1250	1250	1257	1254	1254	1244	1226	1234	1243	1243	1243	1243	1254	1269	1256	1251	0	0	0	0	0	0	0	0	0	0	0	0	0	0	0	0	0	0	0	0	0	0	0	0	0	0	0	0	0	0	0	0	0	0	0	0	0	1507	1524	1528	1527	1527	1535	1543	1548	1548	1549	1542	1517	1480	0	0	0	1298	1287	1312	1309	1278	1276	1281	1283	1281	1274	1264	1263	1267	1267	1261	1254	1253	1265	1278	1282	1285	1289	1292	1302	1308	1308	1307	1299	1284	1285	1295	1298	1298	1278	1266	1265	1260	1259	1260	1266	1268	1266	1260	1264	1274	1281	1284	1285	1280	1277	1280	1289	1296	1287	1276	1277	1285	1291	1299	1303	1306	1307	1296	1295	1297	1297	1300	1301	1300	1304	1304	1296	1299	1296	1301	1298	1283	1276	1271	1274	1279	1281	1275	1270	1279	1290	1297	1299	1299	1300	1292	1289	1286	1297	1309	1307	1298	1290	1313	1314	1308	1303	1303	1309	1309	1305	1303	1300	1300	1291	1300	1297	1301	1306	1311	1307	1296	1285	1277	1288	1302	1313	1326	1325	1322	1314	1307	1318	1310	1311	1316	1318	1320	1318	1320	1324	1330	1330	1330	1325	1334	1339	1340	1338	1340	1332	1341	1351	1346	1337	1332	1332	1337	1342	1341	1338	1343	1349	1351	1348	1345	1338	1339	1346	1357	1350	1348	1355	1371	1375	1383	1392	1358	1356	1357	1385	1363	1359	1373	1376	1365	1352	1340	1347	1353	1354	1352	1353	1352	1353	1354	1357	1357	1364	1371	1377	1372	1362	1358	1349	1339	1346	1345	1354	1358	1367	1370	1379	1382	1380	1376	1376	1376	1373	1370	1367	1363	1358	1352	1352	1348	1352	1355	1368	1369	1388	1393	1395	1387	1378	1377	1381	1384	1399	1408	1412	1404	1396	1382	1378	1378	1382	1383	1388	1400	1407	1409	1407	1400	1396	1389	1387	1384	1383	1395	1399	1387	1391	1399	1411	1419	1418	1414	1409	1411	1415	1410	1403	1402	1404	1398	1402	1399	1397	1391	1389	1389	1388	1383	1385	1408	1419	1425	1422	1423	1422	1422	1429	1433	1429	1428	1426	1428	1425	1430	1424	1411	1406	1405	1412	1423	1440	1447	1448	1447	1452	1453	1460	1462	1459	1452	1446	1439	1440	1451	1445	1430	1426	1424	1428	1441	1450	1453	1455	1462	1471	1473	0	0	0	0	0	0	0	0	0	0	0	0	0	0	0	0	0	0	0	0	0	0	0	0	1600	1603	1619	1608	1601	1532	1534	1555	1558	1555	1554	1552	1556	1558	1556	1552	1547	1551	1558	1565	1565	1553	1547	1551	1559	1567	1557	1546	1540	1556	1548	1548	1545	1545	1538	1553	1579	1594	1591	1579	1559	1560	1580	1615	1606	1592	1578	1570	1557	1548	1535	1570	1541	1534	1537	1542	1547	1546	1536	1526	1518	1510	1503	1512	1515	1532	1541	1532	1510	1500	1495	1509	1538	1539	1530	1515	1522	1524	1528	1530	1539	1543	1542	1540	1542	1536	1523	1501	1507	1517	1534	1544	1541	1532	1529	1519	1516	1522	1542	1567	1571	1557	1539	1522	1544	1546	1554	1539	1541	1536	1535	1520	1505	1503	1511	1527	1539	1543	1547	1555	1556	1553	1539	1538	1532	1535	1545	1559	1570	1576	1581	1592	1588	1566	1542	1524	1511	1503	1507	1507	1511	1512	1504	1519	1530	1517	1510	1502	1507	1513	1533	1547	1558	1546	1540	1525	1513	1507	1508	1520	1524	1522	1518	1512	1511	1499	1493	1486	1484	1493	1498	1495	1490	1487	1494	1499	1519	1525	1524	1524	1524	1537	1538	1540	1540	1527	1504	1491	1481	1481	1474	1480	1484	1485	1480	1486	1499	1532	1558	1558	1557	1538	1512	1495	0	0	0	0	0	0	0
0	0	0	1225	1223	1227	1235	1235	1241	1242	1247	1257	1263	1263	1259	1246	1240	1247	1242	1245	1245	1255	1271	1255	1254	0	0	0	0	0	0	0	0	0	0	0	0	0	0	0	0	0	0	0	0	0	0	0	0	0	0	0	0	0	0	0	0	0	0	0	0	0	1488	1511	1529	1531	1529	1536	1545	1550	1550	1544	1549	1535	1501	0	0	0	1314	1312	1329	1304	1269	1267	1272	1277	1283	1277	1268	1265	1267	1270	1268	1261	1263	1271	1274	1277	1282	1290	1295	1300	1302	1300	1297	1291	1281	1285	1300	1302	1295	1278	1268	1268	1268	1266	1272	1275	1272	1266	1259	1265	1273	1282	1286	1294	1290	1283	1277	1290	1296	1291	1281	1278	1283	1294	1309	1318	1318	1310	1300	1294	1295	1303	1310	1315	1309	1300	1307	1304	1294	1302	1295	1290	1276	1264	1261	1264	1272	1276	1277	1272	1286	1291	1303	1302	1300	1298	1291	1289	1289	1297	1313	1318	1309	1303	1312	1310	1303	1296	1299	1302	1306	1304	1302	1301	1297	1295	1308	1304	1307	1305	1310	1299	1285	1274	1267	1288	1310	1323	1331	1327	1324	1321	1314	1309	1315	1309	1313	1318	1320	1324	1328	1335	1330	1340	1341	1335	1343	1344	1337	1329	1332	1330	1334	1338	1337	1337	1339	1339	1346	1346	1341	1338	1344	1352	1354	1355	1352	1345	1346	1353	1366	1359	1354	1358	1367	1367	1370	1376	1345	1345	1358	1370	1357	1364	1375	1373	1364	1357	1355	1355	1356	1359	1354	1353	1348	1344	1345	1345	1351	1361	1372	1388	1380	1370	1357	1348	1342	1344	1347	1355	1356	1358	1364	1375	1383	1389	1386	1386	1381	1370	1369	1370	1371	1360	1355	1351	1348	1355	1366	1379	1389	1398	1401	1392	1380	1374	1372	1371	1384	1391	1401	1408	1405	1397	1388	1385	1385	1388	1393	1397	1409	1413	1419	1413	1407	1403	1403	1392	1378	1388	1401	1399	1399	1387	1399	1404	1416	1414	1411	1404	1402	1405	1400	1403	1402	1404	1405	1408	1409	1407	1408	1407	1398	1386	1380	1373	1408	1417	1417	1414	1417	1416	1426	1431	1436	1429	1424	1424	1424	1424	1423	1416	1408	1406	1410	1419	1415	1422	1436	1444	1439	1438	1441	1452	1458	1460	1452	1442	1438	1438	1442	1435	1427	1419	1421	1435	1445	1443	1443	1443	1448	1475	1488	0	0	0	0	0	0	0	0	0	0	0	0	0	0	0	0	0	0	0	0	0	0	0	1559	1600	1617	1624	1619	1603	1537	1529	1554	1554	1554	1551	1555	1558	1560	1564	1558	1554	1554	1556	1561	1556	1550	1538	1540	1548	1557	1559	1547	1542	1564	1555	1538	1539	1544	1548	1561	1583	1591	1586	1570	1562	1565	1588	1631	1630	1614	1591	1567	1548	1541	1533	1554	1540	1532	1537	1537	1548	1557	1546	1536	1528	1519	1521	1517	1532	1537	1545	1528	1505	1489	1490	1502	1540	1555	1549	1538	1526	1525	1538	1537	1537	1540	1545	1543	1544	1532	1520	1506	1525	1549	1549	1553	1540	1538	1532	1528	1520	1521	1550	1574	1569	1553	1541	1526	1536	1542	1534	1532	1536	1541	1540	1530	1510	1501	1513	1536	1546	1549	1562	1569	1561	1550	1523	1516	1516	1516	1537	1547	1562	1571	1578	1580	1578	1556	1534	1518	1505	1502	1515	1518	1515	1511	1510	1517	1520	1517	1514	1501	1503	1502	1507	1538	1553	1546	1535	1533	1524	1519	1515	1515	1519	1519	1523	1524	1525	1511	1498	1484	1488	1489	1503	1506	1502	1500	1513	1512	1518	1516	1510	1509	1516	1521	1531	1533	1533	1512	1500	1477	1481	1477	1485	1482	1484	1488	1485	1483	1499	1523	1533	1533	1537	1519	1504	1492	0	0	0	0	0	0	0
0	0	0	1237	1232	1229	1225	1225	1226	1230	1237	1251	1266	1266	1274	1272	1264	1262	1258	1256	1256	1258	1272	1253	1268	0	0	0	0	0	0	0	0	0	0	0	0	0	0	0	0	0	0	0	0	0	0	0	0	0	0	0	0	0	0	0	0	0	0	0	0	0	1478	1508	1530	1538	1541	1545	1547	1542	1542	1532	1533	1544	1527	1476	0	0	0	1336	1333	1290	1265	1256	1260	1270	1277	1280	1272	1273	1280	1282	1280	1272	1267	1272	1273	1268	1268	1273	1284	1292	1296	1291	1283	1282	1278	1286	1299	1301	1288	1273	1268	1269	1274	1279	1283	1287	1284	1272	1269	1269	1275	1278	1285	1292	1292	1288	1278	1286	1291	1289	1280	1277	1281	1293	1306	1319	1319	1306	1292	1285	1290	1299	1317	1320	1313	1303	1311	1299	1295	1291	1286	1282	1273	1268	1261	1270	1273	1276	1282	1279	1295	1308	1304	1302	1301	1297	1297	1298	1297	1305	1314	1319	1317	1322	1318	1309	1306	1297	1301	1304	1304	1305	1302	1300	1295	1303	1312	1319	1302	1311	1306	1303	1287	1282	1285	1308	1328	1336	1330	1324	1321	1323	1319	1309	1309	1296	1298	1303	1310	1320	1327	1327	1331	1340	1335	1343	1342	1338	1341	1337	1330	1325	1324	1324	1330	1334	1340	1341	1348	1348	1344	1342	1351	1360	1360	1358	1355	1350	1352	1357	1370	1366	1360	1361	1363	1359	1353	1361	1336	1344	1358	1368	1369	1373	1371	1366	1363	1363	1364	1368	1372	1372	1364	1359	1349	1343	1339	1344	1349	1358	1371	1387	1382	1369	1358	1350	1349	1354	1358	1361	1363	1360	1363	1372	1385	1392	1391	1384	1370	1364	1365	1368	1372	1373	1368	1361	1352	1365	1379	1390	1396	1396	1397	1381	1368	1364	1361	1362	1368	1380	1390	1399	1395	1399	1398	1392	1392	1397	1404	1409	1408	1417	1417	1408	1411	1412	1416	1410	1398	1384	1395	1396	1391	1391	1394	1398	1403	1405	1402	1398	1397	1393	1391	1394	1403	1409	1410	1409	1411	1414	1421	1426	1417	1395	1374	1370	1392	1405	1417	1417	1416	1418	1428	1439	1438	1426	1418	1419	1424	1423	1422	1419	1412	1414	1416	1415	1423	1428	1442	1442	1435	1428	1422	1434	1444	1453	1445	1438	1429	1430	1436	1430	1424	1422	1431	1444	1451	1445	1434	1429	1437	1469	1492	0	0	0	0	0	0	0	0	0	0	0	0	0	0	0	0	0	0	0	0	0	0	0	1560	1602	1610	1621	1620	1601	1545	1532	1554	1551	1553	1552	1555	1557	1558	1562	1561	1560	1555	1558	1560	1559	1547	1538	1536	1538	1545	1554	1554	1558	1578	1564	1530	1538	1551	1572	1577	1588	1598	1585	1575	1558	1565	1584	1630	1632	1613	1599	1575	1548	1535	1525	1525	1523	1527	1534	1537	1549	1564	1558	1545	1526	1515	1507	1508	1517	1537	1540	1534	1513	1499	1494	1504	1537	1551	1547	1545	1534	1530	1532	1524	1524	1533	1538	1540	1538	1527	1514	1519	1550	1559	1561	1549	1540	1537	1539	1538	1524	1527	1565	1571	1557	1539	1535	1526	1526	1525	1520	1520	1534	1550	1555	1537	1512	1505	1514	1534	1546	1550	1557	1558	1557	1548	1514	1499	1494	1505	1526	1543	1558	1559	1559	1558	1560	1558	1531	1507	1492	1491	1513	1521	1515	1506	1518	1506	1508	1509	1505	1507	1505	1497	1504	1525	1539	1542	1535	1529	1528	1524	1521	1509	1508	1508	1524	1527	1531	1525	1509	1493	1482	1487	1496	1512	1522	1520	1512	1512	1503	1489	1491	1493	1501	1521	1532	1526	1526	1510	1490	1481	1490	1495	1504	1499	1491	1477	1474	1484	1494	1515	1526	1526	1524	1514	1499	1492	0	0	0	0	0	0	0
0	0	0	1265	1253	1242	1235	1235	1226	1222	1232	1245	1263	1263	1261	1260	1270	1274	1273	1268	1268	1268	1260	1259	1276	0	0	0	0	0	0	0	0	0	0	0	0	0	0	0	0	0	0	0	0	0	0	0	0	0	0	0	0	0	0	0	0	0	0	0	0	0	1474	1500	1529	1540	1553	1554	1552	1534	1534	1534	1539	1528	1540	1498	0	0	0	1331	1319	1287	1262	1260	1262	1265	1272	1275	1275	1280	1287	1291	1281	1277	1273	1274	1277	1268	1256	1258	1271	1284	1289	1280	1280	1276	1275	1292	1302	1299	1285	1273	1268	1277	1284	1288	1290	1294	1293	1288	1283	1276	1275	1275	1280	1292	1290	1288	1282	1283	1281	1282	1278	1277	1285	1295	1310	1312	1309	1296	1289	1281	1289	1299	1311	1314	1312	1310	1309	1300	1292	1284	1283	1280	1279	1275	1277	1281	1290	1289	1290	1288	1309	1312	1306	1306	1301	1302	1301	1303	1304	1303	1307	1310	1320	1331	1327	1320	1313	1309	1308	1307	1308	1306	1305	1303	1299	1302	1309	1314	1309	1314	1314	1312	1301	1297	1306	1327	1341	1340	1328	1320	1320	1320	1319	1318	1314	1302	1297	1302	1311	1317	1324	1331	1337	1341	1342	1345	1343	1345	1341	1348	1340	1330	1320	1322	1325	1333	1341	1342	1347	1350	1351	1358	1365	1367	1368	1359	1352	1346	1352	1357	1369	1367	1360	1362	1367	1360	1355	1351	1346	1350	1362	1372	1370	1371	1366	1362	1362	1369	1366	1372	1371	1379	1378	1370	1355	1346	1344	1347	1350	1358	1369	1384	1378	1362	1352	1349	1351	1362	1369	1375	1370	1364	1360	1366	1380	1391	1390	1381	1369	1362	1366	1374	1380	1378	1377	1368	1362	1371	1385	1396	1398	1393	1387	1375	1362	1355	1351	1354	1361	1373	1381	1395	1394	1397	1395	1393	1405	1410	1406	1411	1410	1414	1405	1398	1399	1403	1416	1412	1402	1398	1394	1395	1391	1387	1385	1390	1390	1394	1394	1396	1397	1397	1397	1397	1406	1409	1409	1406	1409	1419	1436	1441	1434	1424	1406	1387	1392	1398	1416	1419	1418	1423	1434	1439	1436	1426	1417	1421	1437	1442	1436	1426	1423	1426	1421	1418	1427	1433	1446	1447	1430	1418	1418	1425	1441	1450	1444	1438	1428	1430	1432	1424	1425	1432	1438	1450	1455	1447	1436	1428	1434	1458	1495	0	0	0	0	0	0	0	0	0	0	0	0	0	0	0	0	0	0	0	0	0	0	0	0	1610	1606	1602	1600	1583	1541	1535	1558	1558	1556	1553	1552	1557	1564	1560	1562	1561	1555	1554	1555	1556	1550	1544	1537	1536	1537	1551	1556	1566	1583	1564	1526	1543	0	0	0	0	1576	1569	1561	1545	1542	1565	1622	1619	1616	1610	1586	1553	1536	1524	1513	1512	1510	1529	1539	1551	1568	1562	1548	1529	1507	1495	1498	1512	1524	1535	1541	1535	1526	1515	1524	1536	1543	1544	1542	1534	1532	1526	1509	1502	1513	1525	1535	1525	1516	1513	1538	1551	1556	1554	1543	1530	1536	1547	1546	1550	1571	1572	1560	1542	1531	1534	1528	1525	1508	1508	1508	1531	1557	1562	1544	1520	1506	1519	1535	1548	1547	1548	1549	1539	1530	1511	1495	1493	1503	1522	1540	1551	1551	1547	1546	1548	1537	1512	1490	1475	1479	1504	1517	1511	1514	1506	1502	1503	1497	1502	1508	1512	1511	1511	1525	1539	1533	1528	1531	1530	1526	1516	1497	1489	1506	1523	1536	1536	1528	1520	1505	1482	1479	1490	1518	1520	1509	1501	1496	1484	1476	1480	1487	1511	1522	1532	1517	1517	1504	1496	1496	1501	1515	1505	1503	1481	1464	1462	1476	1499	1519	1526	1526	1524	1513	1497	1500	0	0	0	0	0	0	0
0	0	0	1281	1272	1260	1248	1248	1242	1235	1240	1244	1245	1245	1252	1262	1264	1281	1280	1276	1276	1273	1268	1264	1282	0	0	0	0	0	0	0	0	0	0	0	0	0	0	0	0	0	0	0	0	0	0	0	0	0	0	0	0	0	0	0	0	0	0	0	0	0	1485	1500	1521	1539	1547	1548	1557	1545	1545	1538	1531	1535	1539	1504	0	0	0	1305	1292	1281	1271	1273	1274	1275	1272	1273	1270	1279	1285	1289	1283	1271	1270	1276	1274	1277	1260	1261	1266	1278	1286	1286	1283	1281	1284	1298	1302	1297	1284	1277	1274	1287	1286	1290	1292	1295	1302	1298	1293	1287	1284	1279	1283	1286	1288	1286	1283	1285	1284	1279	1278	1276	1284	1291	1301	1304	1302	1294	1287	1285	1289	1294	1304	1308	1309	1308	1308	1299	1289	1286	1283	1283	1283	1280	1289	1299	1302	1298	1292	1285	1306	1315	1316	1313	1309	1306	1306	1306	1309	1304	1302	1305	1314	1330	1339	1330	1322	1323	1323	1319	1315	1311	1311	1310	1301	1302	1309	1312	1318	1321	1325	1318	1312	1317	1329	1346	1351	1342	1326	1319	1318	1322	1321	1321	1315	1309	1306	1312	1320	1326	1326	1331	1336	1340	1343	1349	1348	1348	1348	1350	1346	1334	1329	1336	1343	1342	1344	1345	1349	1354	1357	1364	1368	1372	1365	1356	1350	1342	1346	1357	1365	1363	1359	1360	1361	1357	1353	1350	1344	1358	1371	1377	1369	1367	1360	1353	1351	1362	1363	1370	1375	1387	1386	1376	1360	1355	1352	1359	1355	1359	1370	1378	1371	1363	1352	1353	1353	1358	1365	1368	1375	1370	1364	1366	1394	1405	1399	1380	1365	1364	1370	1393	1396	1395	1389	1383	1376	1380	1403	1401	1404	1396	1389	1379	1367	1357	1355	1359	1363	1377	1388	1412	1414	1405	1399	1409	1412	1414	1409	1408	1407	1408	1405	1401	1395	1399	1408	1419	1410	1408	1397	1396	1395	1391	1389	1385	1387	1393	1413	1442	1450	1455	1442	1428	1419	1409	1406	1403	1414	1434	1454	1447	1434	1418	1408	1401	1397	1410	1421	1426	1430	1432	1440	1439	1437	1429	1428	1439	1456	1477	1471	1442	1431	1420	1423	1427	1444	1455	1463	1459	1441	1431	1426	1434	1446	1453	1451	1444	1436	1434	1430	1426	1435	1445	1452	1459	1459	1457	1451	1448	1451	1451	1492	1500	0	0	0	0	0	0	0	0	0	0	0	0	0	0	0	0	0	0	0	0	0	0	0	1646	1586	1575	1575	1559	1538	1542	1571	1568	1565	1560	1560	1563	1564	1565	1562	1555	1552	1542	1550	1554	1553	1550	1539	1534	1532	1550	1562	1566	1583	1562	1538	0	0	0	0	0	1555	1544	1547	1528	1526	1545	1601	1601	1601	1588	1573	1558	1547	1531	1520	1507	1519	1536	1550	1547	1557	1553	1548	1526	1520	1512	1510	1522	1523	1534	1538	1550	1561	1567	1558	1542	1544	1546	1544	1534	1531	1518	1504	1497	1502	1511	1513	1514	1513	1522	1539	1538	1542	1543	1538	1535	1543	1561	1570	1583	1589	1584	1570	1550	1536	1539	1535	1534	1514	1507	1500	1512	1536	1547	1535	1515	1507	1513	1526	1540	1547	1553	1550	1540	1546	1544	1531	1520	1527	1541	1550	1534	1527	1525	1527	1520	1514	1503	1490	1480	1476	1503	1522	1518	1515	1506	1502	1497	1491	1485	1495	1506	1516	1540	1535	1528	1509	1502	1509	1515	1513	1521	1501	1510	1518	1537	1540	1530	1531	1546	1537	1510	1479	1503	1513	1509	1498	1489	1490	1486	1480	1487	1507	1522	1528	1528	1531	1531	1518	1513	1519	1518	1525	1514	1497	1473	1460	1462	1476	1506	1530	1534	1534	1535	1531	1530	1524	0	0	0	0	0	0	0
0	0	0	1283	1278	1263	1253	1253	1249	1249	1246	1245	1238	1238	1240	1253	1262	1274	1271	1271	1271	1264	1271	1287	1309	0	0	0	0	0	0	0	0	0	0	0	0	0	0	0	0	0	0	0	0	0	0	0	0	0	0	0	0	0	0	0	0	0	0	0	0	0	1503	1514	1512	1520	1531	1541	1549	1559	1559	1558	1552	1538	1498	0	0	0	1328	1298	1287	1284	1281	1282	1291	1286	1281	1273	1265	1269	1277	1280	1278	1269	1266	1271	1276	1284	1282	1273	1274	1284	1290	1290	1291	1286	1288	1302	1303	1296	1279	1275	1281	1291	1291	1286	1290	1296	1302	1301	1301	1297	1293	1288	1287	1287	1285	1288	1289	1288	1287	1289	1284	1278	1279	1282	1289	1297	1297	1297	1297	1292	1283	1289	1300	1310	1305	1305	1304	1298	1293	1287	1286	1284	1288	1291	1296	1303	1311	1304	1291	1285	1302	1311	1319	1314	1311	1309	1311	1316	1311	1304	1303	1299	1310	1331	1341	1331	1327	1327	1330	1324	1313	1312	1313	1316	1310	1299	1305	1311	1318	1324	1335	1340	1343	1343	1349	1352	1346	1333	1319	1314	1319	1320	1314	1320	1322	1318	1320	1324	1333	1334	1343	1347	1348	1351	1357	1360	1355	1351	1355	1354	1346	1342	1344	1355	1356	1352	1350	1354	1355	1359	1360	1367	1367	1361	1361	1356	1347	1344	1352	1360	1367	1364	1358	1353	1358	1355	1348	1349	1343	1361	1374	1369	1375	1382	1383	1385	1383	1381	1374	1372	1383	1399	1404	1397	1374	1361	1361	1369	1383	1383	1389	1411	1391	1375	1367	1361	1359	1359	1363	1369	1382	1390	1387	1387	1395	1404	1412	1412	1404	1401	1405	1416	1418	1414	1412	1409	1400	1391	1404	1406	1404	1405	1399	1398	1386	1371	1368	1372	1389	1435	1439	1438	1434	1425	1418	1415	1417	1421	1418	1417	1423	1414	1414	1413	1403	1410	1414	1416	1422	1415	1414	1421	1422	1420	1413	1408	1415	1427	1441	1446	1454	1456	1451	1439	1431	1422	1413	1413	1423	1438	1451	1439	1423	1405	1395	1398	1405	1421	1434	1443	1444	1447	1447	1444	1436	1433	1431	1451	1469	1490	1476	1449	1432	1421	1425	1441	1461	1479	1480	1472	1449	1438	1440	1446	1460	1464	1459	1453	1444	1439	1436	1430	1442	1459	1470	1478	1472	1468	1470	1469	1470	1465	1461	1513	1520	1522	1519	0	0	0	0	0	0	0	0	0	0	0	0	0	0	0	0	0	0	0	0	1671	1577	1572	1564	1550	1532	1548	1557	1577	1572	1566	1567	1564	1570	1568	1559	1549	1539	1534	1538	1555	1560	1556	1541	1537	1532	1554	1566	1587	1584	1543	1560	1577	0	0	1569	1555	1552	1554	1557	1545	1539	1537	1552	1555	1548	1553	1561	1553	1537	1530	1531	1531	1544	1546	1547	1544	1542	1546	1548	1548	1542	1519	1517	1531	1534	1532	1548	1563	1578	1576	1563	1550	1548	1540	1543	1534	1537	1541	1538	1527	1523	1516	1529	1533	1528	1536	1534	1539	1551	1553	1558	1564	1567	1574	1561	1572	1581	1583	1576	1561	1541	1531	1532	1522	1519	1513	1504	1508	1526	1529	1536	1525	1518	1523	1528	1542	1547	1561	1574	1584	1582	1587	1582	1561	1559	1566	1559	1543	1526	1521	1525	1538	1541	1545	1528	1514	1512	1515	1519	1523	1529	1534	1533	1531	1507	1485	1480	1503	1528	1533	1531	1511	1493	1491	1500	1514	1532	1528	1522	1526	1534	1553	1554	1553	1551	1556	1544	1527	1507	1506	1501	1498	1495	1501	1512	1534	1545	1542	1542	1530	1525	1524	1522	1522	1523	1523	1529	1521	1512	1500	1500	1500	1501	1503	1503	1510	1523	1536	1536	1550	1546	1543	1534	0	0	0	0	0	0	0
0	0	0	1277	1274	1266	1257	1257	1251	1255	1252	1245	1240	1240	1242	1253	1263	1267	1263	1262	1262	1265	1274	1313	1352	0	0	0	0	0	0	0	0	0	0	0	0	0	0	0	0	0	0	0	0	0	0	0	0	0	0	0	0	0	0	0	0	0	0	0	0	0	1531	1527	1518	1506	1512	1527	1543	1550	1550	1549	1533	1504	0	0	0	0	1314	1296	1290	1284	1284	1287	1299	1301	1292	1278	1268	1269	1276	1280	1278	1272	1268	1277	1282	1294	1300	1295	1293	1295	1297	1290	1284	1285	1293	1301	1297	1288	1277	1273	1287	1290	1293	1292	1292	1293	1298	1300	1302	1306	1302	1292	1294	1298	1294	1291	1299	1301	1299	1305	1298	1280	1272	1268	1278	1281	1297	1309	1310	1304	1306	1318	1326	1321	1315	1305	1299	1299	1296	1299	1302	1309	1316	1314	1314	1316	1316	1313	1304	1301	1313	1320	1321	1320	1312	1311	1315	1321	1321	1313	1307	1306	1321	1341	1330	1320	1318	1325	1336	1334	1323	1316	1318	1318	1320	1314	1309	1313	1329	1342	1355	1352	1348	1344	1338	1342	1334	1323	1315	1309	1318	1321	1317	1321	1331	1330	1329	1332	1337	1341	1350	1354	1362	1372	1372	1370	1363	1355	1360	1353	1345	1346	1360	1363	1359	1354	1355	1358	1365	1360	1358	1365	1357	1356	1357	1355	1348	1346	1351	1363	1384	1376	1370	1363	1362	1360	1357	1351	1356	1347	1356	1369	1380	1389	1395	1394	1392	1391	1379	1379	1387	1397	1403	1396	1373	1357	1364	1377	1390	1399	1404	1415	1397	1385	1383	1380	1375	1372	1368	1359	1385	1391	1397	1394	1396	1400	1406	1413	1411	1409	1414	1420	1416	1414	1410	1412	1397	1394	1398	1410	1407	1404	1400	1397	1392	1380	1377	1385	1404	1441	1449	1447	1446	1433	1427	1422	1420	1423	1427	1423	1420	1423	1421	1420	1417	1413	1422	1420	1430	1432	1433	1436	1440	1432	1428	1422	1429	1438	1438	1444	1445	1445	1447	1445	1442	1436	1433	1429	1429	1446	1450	1431	1417	1398	1397	1404	1425	1437	1456	1466	1464	1466	1458	1449	1441	1437	1445	1459	1467	1473	1464	1450	1435	1430	1435	1452	1473	1496	1500	1490	1476	1454	1457	1463	1469	1478	1479	1476	1470	1471	1466	1459	1471	1481	1488	1483	1479	1482	1492	1497	1487	1481	1482	1488	1489	1494	1517	1527	0	0	0	0	0	0	0	0	0	0	0	0	0	0	0	0	0	0	0	1682	1576	1572	1561	1556	1528	1540	1545	1546	1562	1568	1574	1580	1579	1577	1569	1553	1539	1541	1550	1566	1573	1569	1558	1549	1550	1581	1595	1595	1558	1551	1560	1599	1602	1592	1601	1606	1606	1605	1578	1543	1532	1531	1541	1557	1567	1561	1564	1545	1531	1532	1543	1556	1562	1560	1553	1548	1539	1533	1545	1562	1567	1566	1571	1567	1568	1561	1553	1550	1576	1570	1569	1554	1549	1546	1537	1545	1544	1558	1556	1551	1535	1541	1547	1559	1550	1541	1535	1539	1558	1563	1576	1580	1581	1578	1554	1546	1556	1570	1578	1559	1542	1533	1521	1520	1516	1515	1507	1509	1520	1537	1544	1550	1549	1546	1541	1550	1550	1559	1578	1582	1586	1596	1604	1580	1580	1578	1570	1552	1539	1529	1530	1544	1551	1553	1539	1529	1528	1525	1531	1543	1551	1561	1561	1551	1524	1508	1496	1522	1540	1541	1527	1515	1494	1499	1515	1529	1547	1543	1537	1543	1551	1554	1564	1560	1557	1553	1550	1528	1518	1506	1509	1499	1496	1502	1527	1551	1562	1552	1549	1539	1529	1529	1523	1523	1529	1526	1510	1502	1513	1514	1519	1526	1537	1529	1520	1517	1523	1544	1544	1561	1556	1554	1542	0	0	0	0	0	0	0
0	0	0	1300	1316	1314	1303	1303	1282	1275	1276	1274	1276	1276	1274	1276	1284	1280	1278	1291	1291	1306	1330	1372	0	0	0	0	0	0	0	0	0	0	0	0	0	0	0	0	0	0	0	0	0	0	0	0	0	0	0	0	0	0	0	0	0	0	0	0	0	0	1549	1553	1528	1505	1495	1511	1524	1530	1530	1516	1511	0	0	0	0	0	1305	1296	1300	1301	1293	1296	1307	1310	1302	1293	1284	1277	1279	1285	1285	1285	1290	1288	1291	1298	1303	1303	1297	1297	1290	1282	1280	1287	1299	1295	1291	1286	1282	1284	1296	1302	1303	1306	1300	1295	1286	1297	1304	1307	1308	1301	1306	1311	1320	1313	1325	1321	1315	1306	1299	1281	1265	1260	1269	1282	1297	1308	1306	1312	1324	1329	1337	1328	1324	1313	1308	1302	1306	1308	1314	1321	1322	1324	1325	1326	1328	1325	1329	1330	1344	1334	1334	1326	1323	1313	1321	1323	1328	1325	1312	1309	1319	1336	1328	1322	1322	1324	1332	1340	1335	1327	1325	1322	1320	1321	1320	1327	1343	1352	1365	1361	1354	1342	1332	1330	1326	1319	1310	1312	1321	1323	1327	1328	1334	1336	1337	1337	1339	1344	1351	1359	1370	1383	1383	1375	1365	1360	1358	1353	1349	1354	1365	1370	1367	1348	1352	1357	1359	1358	1358	1361	1364	1365	1366	1377	1380	1371	1361	1369	1390	1391	1376	1361	1369	1376	1380	1374	1362	1369	1374	1382	1391	1398	1401	1407	1413	1416	1411	1402	1390	1385	1384	1388	1390	1390	1387	1386	1384	1380	1380	1387	1392	1398	1399	1398	1392	1391	1393	1391	1389	1404	1417	1425	1427	1424	1423	1426	1426	1418	1408	1397	1394	1397	1413	1425	1434	1427	1420	1424	1430	1439	1442	1441	1438	1433	1425	1419	1420	1428	1448	1463	1458	1446	1427	1412	1405	1410	1411	1410	1419	1419	1417	1400	1400	1399	1404	1418	1430	1442	1447	1454	1451	1442	1430	1422	1423	1428	1421	1419	1415	1410	1413	1424	1441	1451	1452	1452	1452	1458	1466	1453	1434	1431	1412	1417	1436	1456	1473	1485	1489	1486	1478	1467	1453	1442	1449	1459	1463	1465	1460	1462	1464	1463	1459	1466	1484	1505	1506	1497	1489	1476	1460	1465	1468	1478	1481	1489	1492	1496	1498	1494	1489	1487	1484	1473	1472	1475	1482	1483	1491	1491	1497	1493	1492	1491	1501	1520	1515	0	0	0	0	0	0	0	0	0	0	0	0	0	0	0	0	0	0	0	1578	1570	1566	1556	1534	1541	1543	1552	1548	1555	1551	1562	1554	1545	1543	1534	1530	1581	1596	1590	1582	1576	1557	1553	1549	1546	1554	1559	1562	1556	1558	1590	1602	1600	1612	1621	1619	1606	1559	1530	1532	1558	1558	1559	1571	1589	1584	1561	1550	1547	1562	1572	1582	1577	1572	1565	1550	1547	1558	1570	1581	1589	1585	1595	1588	1574	1559	1544	1538	1546	1552	1563	1559	1554	1551	1548	1551	1562	1562	1551	1541	1546	1563	1573	1571	1560	1546	1551	1555	1569	1570	1558	1552	1536	1521	1514	1526	1539	1554	1563	1550	1542	1527	1528	1526	1525	1524	1538	1533	1542	1565	1579	1581	1572	1567	1575	1560	1565	1569	1566	1567	1580	1591	1587	1577	1568	1567	1563	1556	1548	1538	1538	1549	1554	1548	1534	1530	1548	1565	1575	1573	1575	1573	1556	1536	1532	1540	1553	1554	1551	1541	1530	1525	1522	1529	1547	1554	1564	1572	1570	1560	1561	1559	1555	1557	1558	1556	1547	1538	1532	1521	1509	1502	1501	1498	1506	1517	1538	1550	1557	1553	1546	1539	1539	1539	1525	1504	1512	1524	1531	1538	1546	1556	1549	1532	1519	1526	1548	1548	1562	1568	1565	1561	0	0	0	0	0	0	0
0	0	0	1325	1330	1323	1310	1310	1300	1294	1294	1302	1297	1297	1292	1291	1304	1318	1320	1325	1325	1342	1353	0	0	0	0	0	0	0	0	0	0	0	0	0	0	0	0	0	0	0	0	0	0	0	0	0	0	0	0	0	0	0	0	0	0	0	0	0	0	0	1551	1549	1537	1505	1494	1500	1522	1526	1526	1524	1515	1511	0	0	0	1349	1297	1299	1303	1304	1304	1305	1318	1322	1330	1323	1305	1292	1281	1292	1300	1302	1306	1293	1301	1305	1310	1302	1292	1290	1287	1289	1286	1299	1315	1308	1301	1299	1299	1298	1305	1310	1318	1318	1310	1298	1283	1287	1297	1306	1311	1317	1324	1328	1328	1331	1328	1321	1315	1307	1297	1282	1272	1266	1277	1296	1305	1311	1313	1317	1325	1332	1335	1329	1325	1320	1316	1312	1316	1322	1328	1328	1330	1331	1337	1338	1341	1345	1349	1356	1363	1351	1339	1332	1330	1320	1323	1325	1328	1325	1315	1305	1312	1319	1330	1332	1334	1340	1350	1352	1348	1347	1342	1330	1319	1316	1326	1333	1356	1364	1369	1363	1357	1347	1338	1331	1336	1338	1336	1331	1337	1341	1354	1379	1372	1361	1372	1371	1365	1365	1358	1361	1372	1379	1381	1365	1359	1359	1358	1364	1373	1384	1393	1381	1365	1372	1372	1381	1380	1382	1382	1381	1375	1374	1383	1384	1385	1388	1384	1381	1380	1375	1373	1380	1390	1390	1381	1379	1371	1382	1383	1382	1380	1374	1374	1373	1387	1394	1390	1374	1370	1366	1372	1374	1374	1383	1389	1393	1377	1361	1367	1388	1388	1394	1379	1386	1378	1394	1398	1398	1405	1416	1424	1427	1423	1419	1420	1413	1400	1390	1381	1381	1390	1400	1413	1429	1435	1435	1446	1451	1450	1443	1441	1443	1451	1443	1434	1421	1410	1400	1405	1422	1431	1420	1408	1400	1402	1409	1412	1407	1409	1414	1415	1414	1408	1411	1419	1425	1435	1440	1445	1458	1461	1447	1439	1430	1426	1431	1427	1431	1424	1423	1422	1435	1444	1450	1454	1453	1451	1458	1455	1458	1452	1439	1427	1423	1438	1454	1471	1481	1484	1485	1478	1469	1449	1440	1435	1435	1450	1458	1461	1465	1469	1465	1467	1469	1474	1489	1503	1496	1487	1479	1469	1470	1468	1471	1470	1477	1484	1489	1492	1498	1487	1481	1471	1467	1465	1471	1474	1468	1463	1480	1493	1496	1495	1496	1506	1508	1520	0	0	0	0	0	0	0	0	0	0	0	0	0	0	0	0	0	0	0	1565	1553	1549	1547	1549	1555	1563	1538	1542	1547	1551	1559	1557	1543	1533	1526	1553	1570	1574	1577	1579	1584	1577	1560	1561	1550	1549	1554	1559	1557	1547	1559	1574	1586	1612	1622	1612	1580	1549	1544	1550	1570	1567	1557	1564	1567	1558	1555	1552	1557	1569	1576	1579	1587	1580	1567	1557	1556	1562	1568	1580	1591	1602	1600	1586	1574	1559	1543	1536	1535	1547	1560	1557	1553	1540	1548	1548	1556	1552	1542	1538	1539	1551	1568	1576	1571	1550	1550	1564	1560	1556	1546	1530	1520	1519	1515	1525	1534	1548	1548	1544	1540	1527	1529	1535	1544	1552	1556	1550	1551	1577	1591	1602	1597	1604	1592	1576	1562	1567	1552	1546	1553	1569	1572	1563	1545	1543	1551	1559	1552	1541	1540	1543	1547	1546	1537	1542	1561	1575	1581	1579	1573	1565	1557	1547	1558	1572	1581	1574	1555	1534	1535	1540	1532	1531	1531	1544	1559	1566	1560	1550	1545	1543	1543	1551	1550	1557	1566	1563	1553	1540	1521	1503	1493	1499	1511	1515	1529	1546	1554	1553	1548	1540	1540	1538	1533	1533	1521	1530	1537	1543	1544	1540	1540	1540	1531	1538	1551	1551	1564	1568	1576	1571	0	0	0	0	0	0	0
0	0	0	1331	1343	1334	1318	1318	1297	1286	1290	1296	1302	1302	1308	1308	1311	1326	1339	1338	1338	1335	1344	0	0	0	0	0	0	0	0	1318	1341	1368	1389	1399	1408	1404	1404	1411	1390	1374	1371	1381	1388	1391	1386	1403	1432	1460	1460	1478	1475	1470	1448	1443	1453	1486	1512	1542	1544	1538	1540	1539	1535	1508	1502	1510	1531	1537	1537	1544	1543	1534	1504	1468	1412	1351	1293	1305	1305	1315	1314	1316	1327	1342	1346	1346	1330	1310	1302	1306	1314	1313	1312	1298	1303	1307	1311	1306	1295	1292	1291	1297	1303	1313	1323	1318	1314	1312	1315	1313	1316	1319	1321	1321	1320	1305	1294	1283	1278	1306	1330	1341	1343	1336	1332	1329	1323	1315	1305	1304	1302	1298	1292	1294	1301	1313	1320	1329	1327	1336	1338	1331	1326	1319	1325	1337	1334	1347	1356	1361	1359	1352	1349	1346	1347	1349	1351	1357	1361	1355	1330	1317	1314	1316	1324	1331	1338	1345	1343	1336	1321	1316	1322	1336	1336	1338	1339	1340	1345	1346	1342	1344	1347	1342	1324	1321	1330	1344	1348	1352	1351	1347	1335	1326	1325	1335	1344	1350	1365	1368	1367	1365	1355	1358	1365	1366	1367	1373	1376	1367	1360	1356	1361	1363	1361	1349	1346	1355	1354	1359	1356	1367	1369	1366	1372	1378	1376	1376	1383	1379	1378	1379	1379	1383	1382	1376	1366	1374	1383	1377	1360	1364	1374	1382	1388	1386	1378	1377	1383	1385	1384	1374	1359	1351	1355	1366	1375	1386	1384	1374	1365	1363	1365	1368	1377	1391	1389	1384	1392	1385	1378	1388	1390	1372	1380	1387	1381	1402	1397	1398	1404	1415	1422	1422	1418	1406	1402	1407	1402	1389	1383	1381	1391	1399	1409	1413	1421	1431	1431	1433	1434	1426	1429	1438	1450	1451	1442	1431	1418	1407	1408	1414	1415	1406	1398	1396	1399	1403	1409	1408	1411	1416	1423	1428	1419	1429	1437	1439	1440	1436	1439	1445	1454	1456	1449	1442	1438	1440	1438	1440	1441	1438	1441	1442	1448	1451	1450	1450	1463	1450	1448	1450	1448	1443	1432	1424	1436	1445	1457	1471	1476	1478	1475	1467	1450	1432	1423	1428	1439	1449	1456	1464	1466	1469	1468	1479	1470	1472	1478	1480	1482	1482	1481	1477	1465	1461	1464	1465	1465	1483	1490	1491	1490	1486	1471	1468	1471	1470	1474	1466	1462	1475	1490	1494	1495	1499	1502	1509	1537	0	0	0	0	0	0	0	0	0	0	1669	1691	0	0	0	0	0	0	0	1564	1550	1537	1536	1555	1567	1575	1546	1540	1543	1549	1575	1550	1540	1529	1529	1535	1544	1551	1559	1585	1592	1589	1559	1557	1551	1546	1549	1549	1550	1541	1556	1575	1580	1602	1608	1580	1559	1549	1556	1570	1581	1567	1557	1552	1544	1546	1549	1557	1566	1572	1573	1576	1578	1577	1570	1567	1560	1558	1561	1564	1589	1604	1602	1587	1575	1563	1554	1549	1543	1548	1564	1557	1543	1533	1540	1546	1545	1550	1547	1542	1541	1540	1556	1576	1582	1549	1554	1560	1562	1551	1543	1531	1521	1521	1523	1534	1545	1546	1549	1540	1534	1530	1540	1550	1554	1563	1571	1575	1576	1578	1590	1601	1606	1603	1594	1578	1579	1573	1560	1542	1535	1545	1554	1544	1527	1537	1543	1550	1542	1541	1540	1542	1548	1548	1546	1550	1563	1576	1575	1574	1564	1563	1565	1564	1576	1596	1598	1578	1551	1534	1533	1538	1541	1540	1534	1540	1553	1562	1555	1543	1537	1537	1536	1542	1551	1559	1569	1569	1554	1540	1527	1515	1514	1522	1524	1529	1535	1542	1549	1542	1542	1540	1540	1534	1531	1532	1537	1545	1541	1544	1537	1535	1539	1536	1534	1543	1553	1553	1567	1564	1560	1556	0	0	0	0	0	0	0
