0	0	1419	1419	1412	1419	1419	1427	1442	1435	1442	1443	1429	1417	1404	1404	1400	1395	1408	1412	1427	1439	1456	1456	1457	1466	1473	1472	1470	1477	1490	1490	1493	1475	1460	1479	0	0	0	0	0	0	0	0	0	0	0	0	0	0	0	0	0	0	0	0	0	0	0	0	0	0	0	0	0	0	0	0	0	0	0	0	0	0	0	0	0	0	0	0	0	0	0	0	0	0	0	0	1449	1403	1375	1377	1383	1389	1387	1384	1382	1374	1377	1385	1390	1388	1387	1385	1388	1380	1388	1395	1391	1392	1393	1392	1385	1370	1360	1368	1381	1392	1396	1392	1388	1383	1371	1359	1315	1302	1313	1324	1330	1337	1344	1357	1363	1365	1359	1348	1336	1340	1357	1367	1370	1384	1407	1440	1460	1450	1435	1433	1434	1416	1430	1456	0	0	0	0	0	0	0	0	0	0	0	0	0	0	0	0	0	0	0	0	0	0	0	0	0	0	0	0	0	0	0	0	0	0	0	0	0	0	0	0	0	1459	1443	1422	1402	1399	1407	1416	1413	1413	1408	1417	1428	1428	1423	1428	1443	1438	1425	1410	1402	1410	1422	1436	1445	1447	1443	1433	1427	1420	1409	1397	1388	1409	1421	1425	1429	1416	1407	1398	1398	1411	1422	1421	1420	1420	1424	1414	1445	1447	0	0	0	0	0	0	0	0	0	0	0	0	0	0	0	0	0	0	0	0	0	0	0	0	0	0	0	0	0	0	0	0	0	0	0	0	0	1722	1740	1761	1772	1773	1755	1745	1742	0	0	0	0	0	0	0	0	0	0	0	0	0	0	0	0	0	0	0	0	0	1766	1770	1796	1810	1808	1818	1822	1803	1782	1782	1782	1808	1809	1801	1799	1808	1814	1802	1774	1741	0	0	1559	1447	1386	1374	1382	1387	1383	1379	1385	1394	1399	1402	1404	1405	1404	1406	1402	1410	1409	1401	1389	1382	1376	1378	1387	1394	1399	1407	1408	1400	1394	1394	1398	1401	1400	1390	1407	1410	1406	1400	1397	1399	1399	1409	1411	1404	1398	1402	1410	1413	1411	1436	1490	1632	1709	1748	1769	1782	1770	1773	1791	1796	1802	1779	1786	1774	1776	1786	1795	1806	0	0	0	0	1739	1738	0	0	0	0	0	0	0	0	0	0	0	0	0	0	0	0	0	0	0	0	0	0	0	0	0	0	0	0	0	0	0	0	0	0	0	0	0	0	0	0	0	0	0	0	0	0	0	0	0	0	0	0	0	0	0	0	0	0	0	0	0	0	0	0	0	0	0	0	1446	1478	1443	1400	1385	1380	1381	1396	1402	1408	1412	1414	1402	1391	1392	1397	1387	1390	1395	1393	1387	1388	1385	1374	1379	1370	1368	1378	1379	1387	1403	1414	1416	1415	1408	1398	1400	1403	1404	1404	1400	1398	1388	1388	1395	1381	1378	1384	1436	1470	0	0	0	0	0	0	0	0	0	0	0	0	0	0	0	0	0	0	0	0	0	0	1388	1410	1424	1433	1432	1441	1439	1433	1428	1421	1419	1418	1434	1444	1443	1436	1418	1409	1418	1435	1444	1439	1427	1415	1401	1389	1392	1423	1434	1435	1423	1406	1390	1371	1398	1433	1467	1478	1471	1441	1422	1441	1464	1465	1441	1431	1425	1420	1420	1420	1419	1414	1409	1411	1417	1407	1399	1397	1398	1411	1421	1417	1413	1413	1418	1423	1433	1431	1419	1416	1407	1402	1401	1394	1388	1380	1381	1383	1389	1389	1392	1396	1390	1393	1391	1383	1386	0	0	0	0	0	0	0
0	0	1397	1397	1399	1409	1417	1424	1435	1440	1439	1444	1431	1420	1408	1408	1409	1414	1408	1417	1431	1451	1468	1468	1474	1474	1471	1464	1462	1478	1495	1495	1503	1490	1481	1505	0	0	0	0	0	0	0	0	0	0	0	0	0	0	0	0	0	0	0	0	0	0	0	0	0	0	0	0	0	0	0	0	0	0	0	0	0	0	0	0	0	0	0	0	0	0	0	0	0	0	0	0	1453	1408	1381	1380	1386	1386	1382	1382	1384	1385	1381	1385	1389	1393	1385	1388	1391	1379	1387	1394	1392	1393	1400	1404	1397	1382	1371	1370	1379	1386	1388	1383	1379	1375	1372	1354	1312	1299	1300	1311	1323	1329	1333	1349	1355	1355	1357	1349	1343	1358	1366	1381	1380	1394	1410	1429	1453	1458	1461	1453	1462	1437	1433	1432	1442	0	0	0	0	0	0	0	0	0	0	0	0	0	0	0	0	0	0	0	0	0	0	0	0	0	0	0	0	0	0	0	0	0	0	0	0	0	0	0	0	1445	1425	1407	1407	1406	1409	1416	1410	1407	1410	1423	1437	1436	1431	1432	1442	1435	1418	1397	1391	1391	1408	1420	1431	1431	1424	1418	1409	1404	1399	1395	1389	1413	1429	1434	1429	1428	1410	1408	1406	1415	1423	1425	1426	1428	1420	1414	1440	1449	0	0	0	0	0	0	0	0	0	0	0	0	0	0	0	0	0	0	0	0	0	0	0	0	0	0	0	0	0	0	0	0	0	1735	1749	1751	1751	1738	1736	1737	1745	1762	1764	1755	1745	1746	0	0	0	0	0	0	0	0	0	0	0	0	0	0	0	0	0	0	0	0	1766	1772	1789	1820	0	0	0	0	1798	1767	1778	1780	1784	1787	1787	1786	1803	1800	1776	1739	0	0	1532	1439	1385	1376	1389	1393	1389	1382	1375	1381	1395	1401	1405	1404	1409	1404	1402	1407	1407	1399	1385	1376	1376	1375	1384	1399	1405	1406	1402	1395	1386	1386	1400	1401	1388	1383	1385	1402	1401	1391	1391	1390	1388	1393	1399	1398	1397	1404	1412	1407	1406	1436	1509	1654	1717	1746	1767	1769	1767	1769	1767	1777	1777	1758	1749	1745	1765	1775	1792	1802	0	0	0	0	0	0	0	0	0	0	0	0	0	0	0	0	0	0	0	0	0	0	0	0	0	0	0	0	0	0	0	0	0	0	0	0	0	0	0	0	0	0	0	0	0	0	0	0	0	0	0	0	0	0	0	0	0	0	0	0	0	0	0	0	0	0	0	0	0	0	0	0	0	0	1463	1479	1431	1399	1389	1384	1387	1395	1403	1402	1394	1392	1388	1385	1387	1393	1387	1380	1389	1397	1392	1386	1371	1370	1376	1367	1363	1362	1370	1380	1391	1405	1403	1389	1383	1377	1380	1394	1407	1410	1403	1397	1390	1386	1391	1384	1378	1398	1431	1443	0	0	0	0	0	0	0	0	0	0	0	0	0	0	0	0	0	0	0	0	0	0	1377	1374	1400	1416	1428	1440	1438	1429	1431	1426	1419	1418	1429	1444	1440	1424	1415	1416	1428	1438	1443	1433	1419	1400	1388	1384	1393	1408	1412	1407	1394	1388	1383	1382	1383	1422	1457	1468	1474	1458	1429	1444	1455	1457	1442	1425	1431	1416	1405	1412	1415	1420	1420	1417	1412	1400	1391	1388	1392	1401	1405	1405	1402	1402	1403	1417	1424	1425	1427	1422	1415	1402	1398	1396	1400	1401	1404	1402	1395	1395	1390	1387	1388	1383	1381	1380	1378	0	0	0	0	0	0	0
0	0	1379	1379	1379	1400	1417	1434	1439	1439	1432	1430	1427	1416	1413	1409	1409	1413	1406	1415	1435	1461	1481	1481	1486	1473	1463	1462	1469	1485	1496	1496	1506	1494	1490	1520	0	0	0	0	0	0	0	0	0	0	0	0	0	0	0	0	0	0	0	0	0	0	0	0	0	0	0	0	0	0	0	0	0	0	0	0	0	0	0	0	0	0	0	0	0	0	0	0	0	0	0	0	1421	1407	1390	1386	1392	1392	1390	1385	1387	1389	1386	1389	1388	1386	1387	1379	1378	1387	1388	1390	1394	1402	1406	1411	1407	1394	1382	1379	1380	1385	1385	1376	1373	1372	1370	1360	1322	1311	1308	1316	1324	1323	1321	1332	1352	1351	1349	1345	1353	1365	1379	1394	1412	1428	1436	1436	1449	1467	1475	1477	1477	1443	1436	1437	1439	0	0	0	0	0	0	0	0	0	0	0	0	0	0	0	0	0	0	0	0	0	0	0	0	0	0	0	0	0	0	0	0	0	0	0	0	0	0	0	0	1442	1421	1412	1408	1406	1409	1414	1418	1411	1412	1427	1438	1436	1428	1421	1431	1423	1405	1385	1371	1366	1378	1405	1410	1417	1418	1409	1399	1390	1386	1391	1394	1417	1427	1431	1433	1431	1413	1408	1406	1408	1418	1427	1430	1428	1422	1428	1443	0	0	0	0	0	0	0	0	0	0	0	0	0	0	0	0	0	0	0	0	0	0	0	0	0	0	0	0	0	0	0	0	0	0	1735	1751	0	0	0	0	0	0	0	0	0	0	1734	1745	0	0	0	0	0	0	0	0	0	0	0	0	0	0	0	0	0	0	0	1772	1788	1808	0	0	0	0	0	1795	1777	1773	1772	1783	1787	1763	1761	1783	1795	0	0	0	0	1505	1434	1392	1383	1388	1390	1387	1376	1378	1382	1388	1393	1396	1400	1406	1404	1398	1386	1384	1389	1382	1378	1377	1378	1386	1401	1407	1406	1400	1393	1388	1387	1390	1388	1374	1365	1372	1381	1388	1388	1387	1386	1383	1386	1390	1394	1397	1409	1417	1406	1409	1439	1527	1675	1731	1755	1773	1767	1767	1766	0	0	0	1754	1753	1754	1762	1770	1781	0	0	0	0	0	0	0	0	0	0	0	0	0	0	0	0	0	0	0	0	0	0	0	0	0	0	0	0	0	0	0	0	0	0	0	0	0	0	0	0	0	0	0	0	0	0	0	0	0	0	0	0	0	0	0	0	0	0	0	0	0	0	0	0	0	0	0	0	0	0	0	0	0	0	0	1464	1460	1422	1400	1403	1401	1396	1402	1403	1397	1385	1382	1378	1380	1382	1389	1384	1386	1394	1398	1394	1383	1370	1364	1366	1366	1362	1361	1370	1377	1391	1399	1393	1376	1362	1360	1372	1389	1406	1415	1410	1401	1392	1386	1372	1377	1389	1401	1449	1496	0	0	0	0	0	0	0	0	0	0	0	0	0	0	0	0	0	0	0	0	0	0	1386	1376	1386	1403	1416	1437	1436	1437	1432	1423	1411	1404	1420	1437	1434	1421	1414	1416	1425	1434	1437	1430	1418	1402	1393	1396	1397	1407	1409	1399	1392	1396	1407	1406	1399	1399	1443	1458	1451	1438	1422	1428	1446	1455	1451	1445	1432	1408	1399	1403	1411	1424	1424	1419	1407	1395	1386	1383	1392	1394	1400	1392	1396	1396	1400	1411	1419	1424	1425	1424	1420	1410	1400	1402	1408	1420	1426	1418	1402	1402	1396	1387	1379	1376	1375	1373	1392	0	0	0	0	0	0	0
0	0	1372	1372	1379	1400	1419	1433	1432	1432	1418	1424	1422	1424	1423	1409	1409	1406	1409	1411	1429	1454	1474	1474	1455	1457	1456	1456	1462	1477	1491	1491	1497	1480	1472	1486	1516	1518	0	0	0	0	0	0	0	0	0	0	0	0	0	0	0	0	0	0	0	0	0	0	0	0	0	0	0	0	0	0	0	0	0	0	0	0	0	0	0	0	0	0	0	0	0	0	0	0	0	0	1404	1405	1395	1386	1391	1397	1395	1381	1377	1379	1385	1388	1391	1388	1378	1378	1377	1383	1386	1391	1397	1403	1407	1407	1407	1396	1386	1388	1383	1378	1376	1367	1368	1369	1373	1367	1337	1327	1325	1329	1330	1329	1324	1327	1343	1338	1338	1345	1357	1374	1386	1413	1443	1455	1452	1439	1448	1463	1479	1488	1486	1447	1452	1453	1447	0	0	0	0	0	0	0	0	0	0	0	0	0	0	0	0	0	0	0	0	0	0	0	0	0	0	0	0	0	0	0	0	0	0	0	0	0	0	0	0	1459	1447	1431	1421	1412	1408	1416	1419	1418	1422	1433	1441	1441	1427	1414	1416	1413	1404	1384	1368	1365	1376	1388	1402	1410	1417	1408	1395	1384	1382	1386	1394	1399	1414	1414	1418	1417	1414	1406	1407	1404	1411	1420	1427	1438	1432	1434	1461	0	0	0	0	0	0	0	0	0	0	0	0	0	0	0	0	0	0	0	0	0	0	0	0	0	0	0	0	0	0	0	0	0	0	0	0	0	0	0	0	0	0	0	0	0	1733	1715	1716	1746	0	0	0	0	0	0	0	0	0	0	0	0	0	0	0	0	0	0	0	0	0	0	0	0	0	1779	1791	1784	1774	1769	1779	1776	1766	1763	0	0	0	0	0	0	1479	1440	1403	1391	1388	1378	1376	1374	1375	1379	1385	1393	1402	1411	1407	1397	1386	1377	1381	1392	1404	1399	1384	1386	1392	1395	1403	1402	1395	1394	1391	1392	1392	1389	1375	1375	1376	1388	1393	1392	1390	1382	1382	1386	1395	1402	1406	1410	1408	1399	1406	1441	1527	1689	1746	1758	1767	1758	1760	1766	0	0	0	0	1762	1752	1750	1755	0	0	0	0	0	0	0	0	0	0	0	0	0	0	0	0	0	0	0	0	0	0	0	0	0	0	0	0	0	0	0	0	0	0	0	0	0	0	0	0	0	0	0	0	0	0	0	0	0	0	0	0	0	0	0	0	0	0	0	0	0	0	0	0	0	0	0	0	0	0	0	0	0	0	0	0	1446	1437	1405	1403	1409	1410	1407	1407	1399	1389	1380	1378	1373	1376	1381	1388	1389	1388	1394	1399	1390	1381	1373	1373	1371	1365	1370	1363	1375	1382	1391	1397	1392	1372	1360	1356	1370	1389	1407	1413	1413	1396	1391	1377	1368	1375	1392	1426	1486	1533	0	0	0	0	0	0	0	0	0	0	0	0	0	0	0	0	0	0	0	0	0	0	1395	1389	1408	1409	1413	1426	1430	1433	1433	1417	1397	1401	1416	1427	1437	1422	1413	1413	1423	1431	1440	1438	1428	1421	1414	1413	1406	1417	1407	1406	1398	1407	1417	1428	1434	1418	1437	1447	1430	1423	1407	1415	1427	1437	1447	1446	1439	1417	1404	1409	1415	1422	1416	1414	1407	1399	1393	1393	1402	1403	1407	1404	1406	1406	1410	1412	1414	1411	1419	1424	1421	1415	1408	1403	1412	1430	1446	1433	1417	1417	1403	1389	1380	1378	1379	1384	1400	0	0	0	0	0	0	0
0	0	1381	1381	1401	1417	1435	1442	1434	1434	1421	1425	1435	1439	1434	1421	1421	1404	1396	1398	1408	1419	1431	1431	1433	1442	1448	1441	1453	1459	1481	1481	1493	1466	1453	1463	1484	1491	1483	1477	1478	1478	0	0	0	0	0	0	0	0	0	1491	1499	0	0	0	0	0	0	0	0	0	0	0	0	0	0	0	0	0	0	0	0	0	0	0	0	0	0	0	0	0	0	0	0	0	0	0	0	1404	1398	1391	1393	1399	1397	1379	1366	1368	1375	1378	1385	1386	1375	1370	1369	1381	1384	1390	1392	1392	1393	1398	1399	1390	1387	1386	1382	1376	1370	1363	1363	1376	1381	1380	1359	1348	1335	1333	1337	1336	1336	1335	1339	1337	1339	1347	1373	1389	1402	1425	1458	1474	1465	1444	1437	1449	1464	1472	1477	1477	1478	1471	1450	0	0	0	0	0	0	0	0	0	0	0	0	0	0	0	0	0	0	0	0	0	0	0	0	0	0	0	0	0	0	0	0	0	0	0	0	0	0	0	0	1474	1465	1447	1429	1413	1415	1421	1426	1430	1426	1437	1444	1439	1430	1416	1411	1404	1403	1396	1385	1374	1375	1382	1394	1407	1412	1411	1399	1394	1390	1387	1386	1383	1392	1401	1403	1408	1409	1404	1400	1398	1409	1423	1433	1435	1426	1440	1473	0	0	0	0	0	0	0	0	0	0	0	0	0	0	0	0	0	0	0	0	0	0	0	0	0	0	0	0	0	0	0	0	0	0	0	0	0	0	0	0	0	0	0	0	0	1742	1717	1719	1747	0	0	0	0	0	0	0	0	0	0	0	0	0	0	0	0	0	0	0	0	0	0	1797	1772	1759	1768	1779	1786	1781	1785	1778	1777	1775	1771	1783	0	0	0	0	0	1469	1451	1415	1395	1392	1379	1381	1379	1383	1388	1392	1395	1407	1413	1406	1394	1380	1376	1384	1396	1407	1409	1396	1397	1391	1399	1399	1396	1390	1392	1401	1409	1406	1396	1388	1392	1398	1402	1399	1397	1388	1386	1383	1386	1397	1408	1414	1409	1397	1394	1434	1451	1503	1679	1746	1758	1761	1739	1732	1745	1782	0	0	0	0	1758	1759	1757	0	0	0	0	0	0	0	0	0	0	0	0	0	0	0	0	0	0	0	0	0	0	0	0	0	0	0	0	0	0	0	0	0	0	0	0	0	0	0	0	0	0	0	0	0	0	0	0	0	0	0	0	0	0	0	0	0	0	0	0	0	0	0	0	0	0	0	0	0	0	0	0	0	0	0	0	1449	1436	1403	1404	1412	1413	1407	1403	1395	1383	1373	1372	1378	1387	1388	1392	1394	1397	1400	1400	1385	1374	1371	1374	1376	1371	1372	1380	1382	1386	1391	1395	1392	1396	1394	1391	1403	1416	1416	1418	1405	1392	1380	1378	1373	1386	1402	1457	1505	1536	0	0	0	0	0	0	0	0	0	0	0	0	0	0	0	0	0	0	0	0	0	0	0	1425	1437	1434	1417	1420	1423	1424	1417	1409	1399	1392	1410	1429	1438	1426	1420	1422	1419	1427	1436	1439	1433	1431	1427	1424	1420	1416	1413	1418	1414	1423	1428	1450	1457	1440	1433	1430	1429	1429	1417	1420	1420	1430	1441	1435	1425	1415	1403	1404	1408	1415	1417	1411	1414	1411	1410	1414	1419	1426	1423	1421	1416	1416	1415	1412	1401	1402	1408	1419	1422	1420	1409	1402	1406	1429	1447	1444	1444	1422	1405	1393	1390	1385	1386	1397	1413	0	0	0	0	0	0	0
0	0	1411	1411	1420	1438	1443	1450	1437	1437	1430	1435	1447	1453	1449	1427	1427	1414	1401	1393	1403	1412	1416	1416	1430	1439	1442	1441	1440	1446	1472	1474	1474	1461	1442	1446	1470	1480	1471	1469	1480	1480	0	0	0	0	0	0	0	0	1455	1472	1486	1505	1505	0	0	0	0	0	0	0	0	0	0	0	0	0	0	0	0	0	0	0	0	0	0	0	0	0	0	0	0	0	0	0	0	0	0	1390	1393	1401	1403	1412	1401	1382	1365	1363	1362	1369	1377	1382	1370	1364	1365	1380	1389	1387	1385	1382	1379	1383	1389	1386	1391	1388	1383	1376	1371	1372	1377	1387	1386	1381	1368	1354	1340	1338	1337	1340	1338	1338	1339	1345	1348	1369	1391	1399	1419	1440	1465	1478	1473	1459	1447	1449	1450	1456	1458	1474	1488	1481	0	0	0	0	0	0	0	0	0	0	0	0	0	0	0	0	0	0	0	0	0	0	0	0	0	0	0	0	0	0	0	0	0	0	0	0	0	0	0	0	0	1467	1451	1432	1409	1405	1413	1420	1426	1432	1431	1445	1437	1432	1424	1418	1411	1394	1397	1404	1403	1395	1388	1386	1397	1407	1407	1404	1406	1405	1395	1377	1376	1369	1391	1394	1399	1399	1403	1404	1402	1408	1422	1428	1429	1426	1424	1440	1483	0	0	0	0	0	0	0	0	0	0	0	0	0	0	0	0	0	0	0	0	0	0	0	0	0	0	0	0	0	0	0	0	0	0	0	0	0	0	0	0	0	0	0	0	0	1757	1749	1755	1755	0	0	0	0	0	0	0	0	0	0	0	0	0	0	0	0	0	0	0	0	1828	1793	1773	1763	1761	1778	1779	1785	1775	1784	1782	1789	1795	1793	1781	1753	1738	0	0	0	1473	1453	1416	1392	1394	1391	1387	1391	1387	1391	1392	1395	1409	1408	1405	1396	1389	1383	1385	1400	1409	1411	1401	1400	1398	1398	1394	1392	1389	1399	1411	1409	1405	1406	1408	1404	1407	1406	1405	1397	1399	1396	1385	1385	1390	1407	1416	1409	1393	1390	1425	1447	1504	1661	1729	1754	1753	1737	1725	1745	1763	1784	0	0	0	0	1766	0	0	0	0	0	0	0	0	0	0	0	0	0	0	0	0	0	0	0	0	0	0	0	0	0	0	0	0	0	0	0	0	0	0	0	0	0	0	0	0	0	0	0	0	0	0	0	0	0	0	0	0	0	0	0	0	0	0	0	0	0	0	0	0	0	0	0	0	0	0	0	0	0	0	0	0	0	1465	1438	1403	1404	1410	1414	1407	1401	1391	1370	1362	1361	1378	1390	1398	1397	1396	1399	1406	1405	1388	1376	1374	1379	1385	1386	1386	1387	1396	1394	1392	1388	1396	1403	1410	1409	1413	1418	1414	1416	1404	1384	1375	1372	1385	1398	1427	1470	1496	1521	0	0	0	0	0	0	0	0	0	0	0	0	0	0	0	0	0	0	0	0	0	0	0	1455	1477	1456	1419	1419	1421	1419	1418	1417	1426	1407	1416	1433	1442	1430	1421	1419	1422	1417	1425	1429	1434	1433	1434	1435	1432	1426	1431	1439	1454	1456	1462	1463	1461	1447	1434	1435	1433	1445	1456	1439	1425	1430	1440	1427	1418	1400	1386	1382	1395	1416	1422	1422	1425	1426	1429	1432	1435	1441	1435	1433	1433	1428	1419	1405	1395	1399	1408	1415	1422	1423	1416	1405	1405	1420	1436	1430	1430	1411	1398	1388	1388	1388	1394	1403	1414	0	0	0	0	0	0	0
0	0	1428	1437	1437	1447	1450	1451	1444	1438	1438	1440	1457	1468	1454	1435	1435	1414	1409	1403	1411	1418	1426	1426	1440	1450	1461	1454	1445	1453	1462	1460	1460	1446	1434	1439	1455	1461	1461	0	0	0	0	0	1440	1438	1421	1409	1411	1422	1447	1466	1474	0	0	0	0	0	0	0	0	0	0	0	0	0	0	0	0	0	0	0	0	0	0	0	0	0	0	0	0	0	0	0	0	0	0	0	0	1365	1383	1394	1416	1417	1412	1396	1377	1361	1351	1354	1366	1373	1369	1366	1367	1388	1389	1384	1381	1383	1380	1382	1386	1389	1390	1394	1387	1376	1373	1381	1394	1400	1398	1387	1370	1354	1337	1339	1341	1347	1343	1343	1343	1349	1357	1389	1398	1406	1415	1442	1472	1485	1477	1465	1462	1458	1449	1446	1440	1467	1477	1489	0	0	0	0	0	0	0	0	0	0	0	0	0	0	0	0	0	0	0	0	0	0	0	0	0	0	0	0	0	0	0	0	0	0	0	0	0	0	0	0	0	0	1429	1406	1392	1393	1401	1401	1412	1419	1436	1443	1430	1417	1413	1410	1407	1389	1391	1404	1405	1400	1401	1402	1406	1407	1403	1402	1403	1407	1398	1381	1368	1376	1390	1391	1395	1398	1400	1404	1411	1425	1430	1424	1420	1424	1419	1426	1470	1478	0	0	0	0	0	0	0	0	0	0	0	0	0	0	0	0	0	0	0	0	0	0	0	0	0	0	0	0	0	0	0	0	0	0	0	0	0	0	0	0	0	0	1820	1795	1774	1762	1768	1767	1791	0	0	0	0	0	0	0	0	0	0	0	0	0	0	0	0	0	1817	1798	1772	1762	1764	1763	1784	1782	1781	1776	1764	1776	1792	1800	1808	1811	1785	1755	1719	0	0	0	0	1444	1401	1392	1396	1399	1400	1388	1381	1387	1387	1394	1396	1402	1400	1392	1386	1385	1382	1384	1390	1397	1399	1402	1402	1402	1396	1399	1403	1409	1407	1400	1405	1423	1422	1412	1405	1407	1404	1397	1395	1396	1382	1377	1383	1401	1417	1411	1394	1395	1418	1448	1511	1610	1704	1737	1745	1745	1733	1745	1763	1764	1761	1760	0	0	0	0	0	0	0	0	0	0	0	0	0	0	0	0	0	0	0	0	0	0	0	0	0	0	0	0	0	0	0	0	0	0	0	0	0	0	0	0	0	0	0	0	0	0	0	0	0	0	0	0	0	0	0	0	0	0	0	0	0	0	0	0	0	0	0	0	0	0	0	0	0	0	0	0	0	0	0	0	1472	1428	1400	1411	1415	1414	1415	1404	1390	1367	1362	1362	1365	1384	1396	1393	1391	1392	1405	1410	1400	1380	1374	1383	1390	1397	1410	1406	1397	1390	1390	1391	1401	1409	1419	1419	1411	1401	1400	1395	1390	1387	1373	1386	1401	1409	1422	1451	1463	1484	0	0	0	0	0	0	0	0	0	0	0	0	0	0	0	0	0	0	0	0	0	0	0	0	1504	1457	1419	1417	1419	1415	1418	1435	1445	1442	1431	1437	1443	1431	1426	1419	1419	1410	1416	1418	1426	1431	1438	1443	1448	1442	1430	1434	1453	1465	1466	1461	1453	1441	1448	1445	1451	1464	1477	1461	1421	1429	1439	1438	1423	1408	1384	1375	1389	1413	1420	1421	1427	1428	1424	1432	1443	1435	1431	1428	1428	1425	1415	1403	1397	1400	1408	1417	1422	1422	1418	1412	1406	1416	1424	1406	1406	1391	1385	1388	1390	1385	1388	1390	1407	0	0	0	0	0	0	0
0	0	1439	1445	1445	1448	1451	1448	1453	1450	1450	1442	1458	1468	1461	1440	1440	1423	1410	1402	1424	1439	1446	1448	1448	1470	1480	1484	1468	1459	1445	1447	1447	1434	1436	1434	1450	1449	0	0	0	0	0	0	0	1436	1430	1424	1416	1424	1442	0	0	0	0	0	0	0	0	0	0	0	0	0	0	0	0	0	0	0	0	0	0	0	0	0	0	0	0	0	0	0	0	0	0	0	0	0	0	1342	1370	1392	1411	1417	1417	1407	1392	1376	1356	1358	1366	1370	1368	1368	1372	1391	1394	1395	1389	1395	1397	1392	1388	1390	1392	1394	1388	1381	1380	1387	1404	1407	1405	1394	1378	1363	1354	1346	1355	1356	1350	1341	1345	1357	1375	1395	1401	1403	1404	1418	1472	1476	1477	1475	1477	1470	1461	1452	1440	1429	1470	1485	0	0	0	0	0	0	0	0	0	0	0	0	0	0	0	0	0	0	0	0	0	0	0	0	0	0	0	0	0	0	0	0	0	0	0	0	0	0	0	0	0	0	1426	1398	1388	1381	1378	1384	1390	1415	1431	1439	1432	1417	1413	1416	1407	1388	1394	1402	1396	1398	1402	1406	1411	1413	1409	1406	1405	1405	1402	1393	1367	1374	1389	1394	1392	1394	1395	1398	1411	1425	1425	1417	1401	1400	1414	1426	1463	1477	0	0	0	0	0	0	0	0	0	0	0	0	0	0	0	0	0	0	0	0	0	0	0	0	0	0	0	0	0	0	0	0	0	0	0	0	0	0	0	0	0	0	1799	1787	1762	1755	1756	1758	1767	0	0	0	0	1765	0	0	0	1816	1817	0	0	0	0	0	0	1817	1794	1766	1746	1752	1772	1785	1792	1792	1781	1773	1765	1765	1774	1779	1801	1803	1790	1756	1739	0	0	0	0	1443	1404	1403	1404	1412	1410	1389	1375	1376	1380	1386	1387	1395	1393	1383	1383	1390	1382	1391	1394	1397	1401	1403	1401	1401	1401	1411	1416	1418	1406	1394	1405	1414	1419	1413	1411	1404	1397	1399	1391	1389	1373	1371	1373	1394	1411	1407	1399	1402	1413	1449	1529	1613	1690	1723	1739	1751	1762	1764	1777	1767	1752	1754	0	0	0	0	0	0	0	0	0	0	0	0	0	0	0	0	0	0	0	0	0	0	0	0	0	0	0	0	0	0	0	0	0	0	0	0	0	0	0	0	0	0	0	0	0	0	0	0	0	0	0	0	0	0	0	0	0	0	0	0	0	0	0	0	0	0	0	0	0	0	0	0	0	0	0	0	0	0	0	0	1443	1407	1401	1410	1414	1420	1418	1407	1392	1367	1367	1368	1371	1375	1388	1383	1376	1378	1378	1386	1375	1389	1393	1389	1382	1392	1398	1388	1376	1377	1389	1410	1421	1424	1425	1421	1415	1397	1391	1383	1388	1388	1392	1398	1405	1405	1413	1416	1422	1456	0	0	0	0	0	0	0	0	0	0	0	0	0	0	0	0	0	0	0	0	0	0	0	0	1518	1445	1408	1412	1417	1415	1425	1443	1457	1463	1445	1441	1436	1432	1430	1423	1416	1412	1412	1419	1422	1430	1438	1444	1450	1443	1421	1419	1431	1455	1459	1455	1440	1436	1455	1453	1453	1467	1472	1457	1417	1426	1440	1444	1435	1426	1407	1393	1398	1408	1407	1406	1410	1414	1418	1425	1429	1424	1426	1431	1431	1429	1417	1400	1392	1399	1409	1411	1413	1417	1418	1414	1407	1406	1401	1393	1393	1377	1380	1387	1391	1390	1383	1385	1383	0	0	0	0	0	0	0
0	0	1441	1438	1438	1445	1434	1441	1453	1453	1453	1460	1457	1461	1454	1433	1433	1420	1406	1414	1446	1453	1453	1454	1454	1467	1486	1483	1468	1454	1446	1441	1441	1434	1434	1441	1446	1444	0	0	0	0	0	0	0	0	1446	1444	1432	0	0	0	0	0	0	0	0	0	0	0	0	0	0	0	0	0	0	0	0	0	0	0	0	0	0	0	0	0	0	0	0	0	0	0	0	0	0	0	0	1332	1357	1385	1401	1410	1408	1402	1396	1388	1376	1363	1365	1367	1369	1372	1371	1394	1402	1401	1401	1406	1407	1404	1395	1391	1390	1392	1388	1386	1382	1388	1397	1409	1408	1405	1393	1374	1381	1367	1366	1373	1357	1344	1386	1389	1390	1401	1407	1395	1392	1400	1439	1450	1451	1459	1473	1482	1472	1457	1441	1430	1471	0	0	0	0	0	0	0	0	0	0	0	0	0	0	0	0	0	0	0	0	0	0	0	0	0	0	0	0	0	0	0	0	0	0	0	0	0	0	0	0	0	0	0	1448	1444	1409	1387	1375	1371	1384	1402	1426	1432	1431	1426	1430	1427	1422	1402	1405	1399	1398	1393	1396	1401	1411	1413	1413	1412	1409	1412	1411	1405	1398	1385	1390	1393	1393	1394	1392	1393	1411	1422	1423	1407	1388	1383	1407	1438	1453	0	0	0	0	0	0	0	0	0	0	0	0	0	0	0	0	0	0	0	0	0	0	1696	1699	0	0	0	0	0	0	0	0	0	0	0	0	0	0	0	0	0	0	0	1780	1778	1748	1733	1727	1728	1746	1765	0	0	1779	1759	1758	1782	1794	1807	1807	1807	0	0	0	0	0	1816	1792	1763	1752	1765	1770	1769	1768	1779	1777	1781	1775	1763	1749	1738	1744	1784	1783	1780	0	0	0	0	0	1451	1441	1418	1414	1415	1420	1397	1377	1372	1372	1378	1381	1385	1380	1381	1384	1387	1389	1394	1396	1388	1385	1387	1391	1395	1400	1408	1419	1415	1407	1392	1397	1400	1410	1409	1406	1404	1402	1397	1390	1382	1372	1370	1380	1396	1402	1396	1396	1398	1407	1440	1547	1613	1689	1731	1749	1771	1770	1784	1775	1767	1751	1754	0	0	0	1756	1744	0	0	0	0	0	0	0	0	0	0	0	0	0	0	0	0	0	0	0	0	0	0	0	0	0	0	0	0	0	0	0	0	0	0	0	0	0	0	0	0	0	0	0	0	0	0	0	0	0	0	0	0	0	0	0	0	0	0	0	0	0	0	0	0	0	0	0	0	0	0	0	0	0	0	0	1413	1401	1400	1417	1423	1424	1421	1407	1385	1372	1379	1385	1384	1385	1381	1374	1359	1351	1349	1359	1372	1381	1399	1400	1381	1381	1385	1372	1367	1373	1389	1413	1421	1421	1420	1413	1410	1411	1403	1395	1399	1394	1400	1400	1402	1402	1402	1395	1394	1425	0	0	0	0	0	0	0	0	0	0	0	0	0	0	0	0	0	0	0	0	0	0	0	0	1526	1425	1395	1405	1415	1420	1429	1450	1462	1451	1439	1433	1432	1430	1430	1431	1434	1434	1431	1426	1415	1426	1435	1441	1446	1448	1427	1418	1420	1436	1442	1443	1428	1437	1454	1453	1455	1462	1459	1431	1419	1427	1436	1448	1446	1438	1420	1413	1406	1401	1396	1392	1392	1404	1417	1424	1425	1425	1425	1428	1436	1433	1425	1401	1395	1396	1409	1409	1405	1401	1406	1408	1412	1407	1402	1389	1389	1381	1389	1392	1392	1392	1386	1383	1380	0	0	0	0	0	0	0
0	0	1420	1425	1425	1428	1422	1435	1460	1461	1461	1457	1454	1453	1448	1426	1411	1411	1412	1433	1458	1461	1447	1452	1452	1456	1476	1478	1453	1448	1456	1450	1450	1451	1454	1465	1463	0	0	0	0	0	0	0	0	0	0	0	0	0	0	0	0	0	0	0	0	0	0	0	0	0	0	0	0	0	0	0	0	0	0	0	0	0	0	0	0	0	0	0	0	0	0	0	0	0	0	0	0	1325	1350	1374	1393	1393	1400	1397	1396	1391	1383	1374	1368	1373	1378	1378	1378	1390	1395	1402	1406	1407	1406	1403	1396	1389	1382	1388	1390	1390	1387	1385	1393	1400	1402	1399	1394	1388	1391	1395	1389	1381	1362	1350	1412	1420	1416	1414	1410	1392	1385	1386	1399	1410	1420	1438	1466	1473	1472	1458	1443	1433	1474	0	0	0	0	0	0	0	0	0	0	0	0	0	0	0	0	0	0	0	0	0	0	0	0	0	0	0	0	0	0	0	0	0	0	0	0	0	0	0	0	0	0	0	1456	1450	1425	1402	1387	1376	1384	1400	1420	1431	1430	1435	1439	1439	1437	1431	1416	1403	1400	1397	1399	1402	1408	1413	1416	1410	1411	1414	1414	1409	1404	1395	1387	1391	1393	1392	1381	1389	1403	1423	1420	1407	1386	1378	1395	1419	1416	0	0	0	0	0	0	0	0	0	0	0	0	0	0	0	0	0	0	0	0	0	1604	1607	1608	0	0	0	0	0	0	0	0	0	0	0	1728	0	0	0	0	0	0	0	0	1774	1747	1712	1703	1701	1720	1752	1775	1776	1759	1745	1744	1756	1764	1763	1785	1793	1802	0	0	0	0	0	0	1772	1764	1768	1770	1747	1743	1754	1767	1775	1778	1770	1738	1719	1717	1740	1769	1788	0	0	0	0	0	1463	1463	1438	1417	1421	1420	1396	1384	1378	1375	1376	1379	1385	1392	1388	1387	1397	1403	1402	1393	1388	1387	1383	1379	1379	1384	1398	1413	1410	1402	1391	1380	1389	1391	1402	1406	1405	1403	1396	1385	1382	1379	1376	1382	1391	1394	1387	1389	1398	1397	1428	1555	1637	1699	1732	0	1761	1782	1788	1774	1774	1758	1765	0	0	1729	1717	1709	1707	1703	1699	1708	0	0	0	0	0	0	0	0	0	0	0	0	0	0	0	0	0	0	0	0	0	0	0	0	0	0	0	0	0	0	0	0	0	0	0	0	0	0	0	0	0	0	0	0	0	0	0	0	0	0	0	0	0	0	0	0	0	0	0	0	0	0	0	0	0	0	0	0	0	0	0	1413	1403	1409	1419	1424	1426	1415	1392	1375	1374	1389	1396	1399	1401	1399	1379	1365	1359	1362	1359	1369	1375	1395	1406	1388	1385	1378	1372	1367	1376	1383	1397	1400	1397	1403	1405	1411	1423	1421	1411	1396	1398	1396	1400	1402	1397	1394	1393	1405	1427	0	0	0	0	0	0	0	0	0	0	0	0	0	0	0	0	0	0	0	0	0	0	0	0	1503	1420	1399	1407	1417	1426	1442	1439	1439	1429	1429	1433	1428	1421	1423	1429	1437	1438	1435	1429	1428	1433	1435	1444	1450	1453	1448	1437	1425	1424	1429	1431	1431	1450	1457	1450	1446	1453	1436	1431	1431	1428	1421	1434	1441	1435	1430	1414	1403	1399	1392	1392	1397	1405	1415	1424	1422	1416	1414	1414	1413	1407	1401	1400	1398	1406	1410	1409	1392	1390	1393	1401	1408	1410	1405	1405	1397	1394	1401	1402	1394	1385	1378	1372	1368	0	0	0	0	0	0	0
0	0	1407	1408	1408	1412	1404	1425	1448	1449	1449	1451	1442	1447	1449	1433	1409	1409	1410	1434	1456	1465	1449	1438	1438	1441	1451	1460	1452	1451	1460	1463	1463	1464	1473	1480	0	0	0	0	0	0	0	0	0	0	0	0	0	0	0	0	0	0	0	0	0	0	0	0	0	0	0	0	0	0	0	0	0	0	0	0	0	0	0	0	0	0	0	0	0	0	0	0	0	0	0	0	0	1320	1337	1359	1378	1387	1390	1383	1386	1384	1377	1369	1372	1375	1380	1384	1374	1382	1390	1396	1398	1396	1394	1397	1393	1384	1380	1384	1382	1384	1390	1384	1387	1392	1394	1394	1387	1383	1390	1396	1392	1377	1364	1360	1412	1425	1427	1422	1411	1402	1397	1392	1401	1413	1422	1446	1450	1463	1463	1433	1422	1434	0	0	0	0	0	0	0	0	0	0	0	0	0	0	0	0	0	0	0	0	0	0	0	0	0	0	0	0	0	0	0	0	0	0	0	0	0	0	0	0	0	0	0	0	1437	1438	1425	1414	1406	1397	1399	1413	1424	1433	1434	1437	1439	1440	1435	1433	1412	1398	1400	1402	1413	1416	1414	1411	1413	1409	1409	1415	1413	1404	1397	1388	1382	1391	1396	1400	1400	1393	1413	1422	1418	1406	1393	1391	1398	1373	1355	0	0	0	0	0	0	0	0	0	0	0	0	0	0	0	0	0	0	0	0	1458	1466	1460	1473	1489	1533	1543	1574	1597	1619	0	0	0	0	1680	1704	0	0	0	0	0	0	0	0	0	1750	1701	1691	1692	1719	1744	1761	1765	1756	1739	1729	1724	1722	1720	1732	1753	1774	1787	0	0	0	0	0	1780	1771	1773	1757	1737	1725	1723	1755	1777	1780	1774	1749	1723	1715	1727	1744	1770	0	0	0	0	0	1465	1458	1435	1421	1420	1407	1400	1395	1390	1386	1387	1397	1402	1399	1392	1400	1405	1396	1409	1413	1400	1392	1387	1381	1378	1376	1377	1385	1402	1404	1393	1384	1385	1394	1404	1412	1405	1400	1392	1386	1383	1383	1383	1383	1385	1386	1386	1384	1385	1392	1411	1549	1650	1690	1724	0	1766	1771	1762	1762	1759	1753	1754	0	1725	1711	1693	1691	1672	1678	1685	1695	1698	1700	1685	1681	0	0	0	0	1623	1603	0	0	0	0	0	0	0	0	0	0	0	0	1526	0	0	0	0	0	0	0	0	0	0	0	0	0	0	0	0	0	0	0	0	0	0	0	0	0	0	0	0	0	0	0	0	0	0	0	0	0	0	0	0	0	0	0	0	0	0	0	0	1403	1406	1417	1431	1423	1409	1405	1393	1373	1376	1387	1402	1402	1411	1401	1386	1374	1371	1368	1369	1378	1383	1394	1402	1408	1403	1390	1388	1381	1379	1384	1380	1379	1375	1386	1398	1411	1423	1425	1406	1399	1390	1392	1393	1398	1403	1401	1394	1413	1426	0	0	0	0	0	0	0	0	0	0	0	0	0	0	0	0	0	0	0	0	0	0	0	0	1436	1426	1417	1421	1430	1450	1450	1445	1433	1418	1418	1422	1415	1407	1411	1426	1436	1435	1429	1423	1424	1428	1437	1439	1447	1454	1449	1434	1427	1426	1426	1427	1436	1450	1448	1451	1447	1446	1445	1440	1431	1417	1409	1416	1427	1429	1425	1418	1405	1402	1397	1406	1407	1409	1419	1422	1422	1412	1408	1408	1395	1391	1387	1393	1400	1414	1416	1411	1394	1384	1384	1390	1398	1401	1403	1403	1404	1403	1402	1403	1398	1388	1372	1361	1350	0	0	0	0	0	0	0
0	0	1396	1400	1400	1404	1410	1426	1438	1448	1448	1453	1437	1447	1454	1434	1415	1415	1404	1420	1449	1456	1448	1444	1444	1438	1445	1453	1452	1451	1453	0	0	0	0	0	0	0	0	0	0	0	0	0	0	0	0	0	0	0	0	0	0	0	0	0	0	0	0	0	0	0	0	0	0	0	0	0	0	0	0	0	0	0	0	0	0	0	0	0	0	0	0	0	0	0	0	0	0	1315	1325	1352	1371	1381	1388	1386	1382	1380	1375	1371	1372	1378	1383	1388	1384	1384	1386	1386	1383	1387	1387	1387	1382	1374	1372	1387	1386	1393	1385	1383	1387	1389	1390	1386	1373	1369	1374	1385	1388	1379	1368	1366	1383	1405	1424	1423	1418	1418	1413	1416	1412	1426	1442	1454	1457	1454	1445	1437	1424	1456	0	0	0	0	0	0	0	0	0	0	0	0	0	0	0	0	0	0	0	0	0	0	0	0	0	0	0	0	0	0	0	0	0	0	0	0	0	0	0	0	0	0	0	0	1396	1399	1401	1411	1413	1414	1418	1423	1434	1429	1432	1431	1428	1427	1426	1430	1405	1394	1401	1406	1416	1420	1417	1413	1403	1403	1401	1414	1407	1399	1389	1374	1378	1387	1397	1399	1398	1403	1401	1410	1407	1392	1392	1388	1362	1319	1281	1265	0	0	0	0	0	0	1225	1211	1219	1242	1249	1284	1308	1348	1339	0	0	1280	1298	1305	1318	1303	1306	1294	1293	1310	1335	1387	1433	1478	1503	1539	1568	1588	1614	1664	0	0	0	0	0	0	0	0	1749	1690	1673	1686	1714	1722	1732	1733	1727	1729	1722	1711	1691	1681	1700	1703	1714	1724	1754	1769	1778	0	0	1768	1768	1760	1739	1714	1681	1679	1706	1734	1759	1763	1752	1739	1712	1702	1692	1717	0	0	0	0	1476	1453	1435	1424	1422	1417	1400	1398	1402	1396	1396	1403	1415	1413	1414	1401	1405	1406	1406	1415	1421	1405	1396	1398	1391	1381	1376	1376	1375	1387	1395	1400	1393	1402	1409	1410	1414	1398	1392	1391	1387	1385	1385	1386	1382	1383	1384	1390	1391	1390	1384	1400	1538	1638	1668	1698	1728	1749	1748	1751	1747	1735	1723	1712	1713	1703	1685	1654	1651	1648	1645	1653	1644	1650	1624	1599	1566	1545	1597	1551	1467	1461	1433	1405	1374	1364	1380	1389	1400	1374	1390	1396	1376	1343	1333	1337	1343	1359	1362	1343	1346	1362	1367	1381	1389	1401	1400	1481	0	0	0	0	0	0	0	0	0	0	0	0	0	0	0	0	0	0	0	0	0	0	0	0	0	0	0	0	0	0	0	0	0	0	0	0	1400	1409	1429	1434	1415	1403	1402	1396	1373	1375	1397	1405	1404	1412	1407	1397	1388	1383	1379	1386	1390	1386	1394	1400	1407	1407	1402	1393	1393	1391	1387	1375	1367	1372	1379	1394	1401	1409	1415	1404	1388	1371	1376	1394	1407	1406	1404	1403	1416	1435	0	0	0	0	0	0	0	0	0	0	0	0	0	0	0	0	0	0	0	0	0	0	0	1431	1412	1412	1436	1433	1451	1459	1457	1451	1419	1412	1409	1411	1406	1401	1406	1420	1430	1423	1402	1383	1387	1420	1432	1438	1439	1442	1438	1427	1428	1421	1420	1421	1426	1442	1441	1447	1445	1444	1435	1433	1429	1405	1395	1402	1413	1422	1424	1418	1412	1412	1429	1426	1420	1418	1421	1425	1417	1409	1398	1398	1389	1382	1384	1390	1392	1407	1415	1409	1400	1382	1382	1384	1381	1387	1398	1398	1399	1397	1403	1408	1407	1390	1371	1357	1348	0	0	0	0	0	0	0
0	0	1396	1406	1406	1407	1431	1430	1441	1448	1448	1458	1449	1454	1457	1437	1413	1413	1408	1413	1437	1449	1450	1441	1441	1434	1440	1448	0	0	0	0	0	0	0	0	0	0	0	0	0	0	0	0	0	0	0	0	0	0	0	0	0	0	0	0	0	0	0	0	0	0	0	0	0	0	0	0	0	0	0	0	0	0	0	0	0	0	0	0	0	0	0	0	0	0	0	0	0	1341	1338	1366	1374	1382	1387	1386	1386	1382	1385	1384	1383	1380	1387	1390	1387	1384	1385	1383	1373	1373	1372	1374	1371	1365	1369	1388	1391	1389	1382	1379	1387	1390	1390	1385	1363	1354	1361	1372	1377	1379	1369	1368	1362	1378	1414	1419	1423	1430	1435	1430	1432	1438	1454	1450	1447	1439	1441	1432	1445	1473	0	0	0	0	0	0	0	0	0	0	0	0	0	0	0	0	0	0	0	0	0	0	0	0	0	0	0	0	0	0	0	0	0	0	0	0	0	0	0	0	0	0	0	1426	1413	1376	1379	1392	1395	1415	1425	1431	1434	1425	1424	1420	1417	1418	1422	1411	1391	1390	1390	1404	1412	1413	1407	1401	1395	1394	1392	1401	1401	1390	1385	1373	1380	1388	1400	1399	1389	1384	1372	1362	1369	1368	1360	1328	1291	1255	1228	1209	1203	1209	1206	1198	1205	1205	1204	1204	1203	1210	1221	1220	1232	1229	1210	1178	1163	1156	1176	1197	1209	1206	1206	1188	1176	1188	1218	1239	1279	1313	1350	1389	1438	1488	1529	1560	1629	1658	1667	0	1687	1687	1711	0	1726	1669	1644	1648	1656	1686	1684	1688	1693	1701	1711	1698	1670	1650	1652	1657	1639	1636	1622	1670	1689	1708	1722	1735	1736	1727	1700	1667	1643	1635	1643	1668	1688	1717	1726	1719	1679	1657	1645	1640	1625	1625	0	1536	1476	1441	1425	1417	1419	1416	1397	1395	1396	1400	1405	1414	1420	1420	1414	1406	1404	1406	1424	1435	1433	1408	1392	1397	1393	1385	1379	1374	1375	1388	1400	1402	1402	1409	1413	1417	1407	1397	1389	1383	1383	1385	1383	1383	1385	1386	1388	1399	1398	1391	1380	1400	1503	1597	1641	1648	1650	1655	1663	1704	1702	1683	1675	1664	1650	1596	1602	1610	1620	1620	1611	1587	1577	1561	1520	1477	1431	1355	1341	1302	1251	1265	1288	1284	1260	1243	1237	1226	1224	1212	1182	1154	1142	1151	1158	1163	1168	1166	1169	1169	1174	1178	1173	1192	1203	1209	1217	1222	1214	1222	1255	1336	1341	1356	1364	1363	1379	1429	1478	1480	1494	0	0	0	0	0	0	1549	1548	0	0	0	0	0	0	0	0	0	0	0	0	0	0	1396	1398	1404	1430	1444	1404	1385	1385	1392	1382	1390	1403	1411	1419	1417	1410	1408	1403	1388	1381	1386	1387	1389	1394	1397	1397	1399	1397	1396	1398	1395	1390	1381	1376	1380	1384	1389	1389	1394	1403	1394	1374	1357	1363	1393	1404	1411	1404	1414	1425	1430	1456	0	0	0	0	0	0	0	0	0	0	0	0	0	0	0	0	0	1440	1441	0	0	1421	1408	1391	1388	1417	1434	1444	1455	1456	1438	1417	1407	1409	1409	1410	1410	1411	1423	1430	1414	1393	1376	1381	1417	1435	1433	1429	1427	1418	1414	1414	1415	1416	1413	1422	1420	1420	1430	1435	1431	1429	1429	1417	1397	1390	1391	1403	1415	1418	1417	1418	1441	1444	1439	1428	1422	1424	1412	1411	1403	1403	1393	1386	1387	1382	1381	1384	1391	1404	1408	1403	1396	1382	1379	1377	1388	1397	1397	1395	1394	1401	1406	1405	1396	1373	1360	1354	0	0	0	0	0	0	0
0	0	1379	1406	1419	1426	1433	1434	1439	1446	1453	1453	1453	1454	1448	1433	1427	1427	1420	1416	1429	1436	1436	1431	1429	1429	1431	1429	0	0	0	0	0	0	0	0	0	0	0	0	0	0	0	0	0	0	0	0	0	0	0	0	0	0	0	0	0	0	0	0	0	0	0	0	0	0	0	0	0	0	0	0	0	0	0	0	0	0	0	0	0	0	0	0	0	0	0	0	0	1372	1390	1407	1405	1397	1392	1392	1392	1390	1395	1394	1391	1393	1399	1401	1393	1389	1386	1376	1376	1371	1374	1368	1364	1360	1367	1380	1385	1385	1383	1380	1385	1395	1394	1387	1357	1346	1350	1363	1370	1375	1362	1359	1349	1359	1394	1411	1423	1430	1434	1434	1432	1441	1448	1453	1457	1452	1439	1439	1445	1458	0	0	0	0	0	0	0	0	0	0	0	0	0	0	0	0	0	0	0	0	0	0	0	0	0	0	0	0	0	0	0	0	0	0	0	0	0	0	0	0	0	0	1454	1440	1435	1374	1369	1375	1392	1401	1412	1416	1428	1430	1424	1414	1415	1418	1424	1414	1378	1375	1386	1397	1401	1403	1398	1396	1387	1384	1384	1390	1387	1383	1379	1383	1384	1398	1407	1399	1382	1360	1342	1303	1282	1266	1220	1201	1208	1201	1188	1178	1172	1180	1180	1177	1175	1180	1182	1189	1189	1195	1189	1187	1175	1166	1153	1144	1138	1138	1154	1156	1161	1159	1159	1161	1155	1137	1124	1130	1172	1204	1231	1263	1317	1394	1424	1444	1473	1507	1530	1533	1531	1612	1622	1692	1663	1602	1590	1594	1587	1593	1585	1559	1567	1611	1668	1668	1641	1612	1588	1540	1541	1535	1527	1560	1613	1638	1645	1670	1685	1668	1621	1602	1591	1579	1573	1561	1576	1638	1674	1663	1629	1597	1588	1579	1573	1553	1525	1492	1434	1432	1417	1416	1416	1410	1404	1399	1400	1404	1408	1416	1416	1415	1411	1404	1399	1405	1420	1432	1437	1419	1382	1385	1389	1385	1377	1373	1378	1396	1408	1406	1408	1411	1412	1411	1406	1397	1393	1390	1391	1387	1386	1387	1388	1390	1394	1402	1398	1397	1389	1413	1482	1517	1597	1603	1600	1568	1553	1609	1643	1619	1599	1379	1381	1403	1447	1489	1511	1518	1496	1458	1438	1418	1426	1387	1346	1292	1263	1215	1191	1188	1211	1219	1208	1206	1202	1202	1194	1184	1147	1123	1112	1114	1125	1134	1138	1133	1138	1143	1145	1143	1137	1134	1141	1152	1157	1148	1129	1121	1118	1130	1143	1144	1167	1190	1208	1220	1238	1258	1288	1336	1389	1433	1465	1485	1473	1458	1458	1478	1493	1518	1531	1522	1499	1488	1480	1456	1437	1417	1407	1398	1391	1395	1404	1419	1424	1421	1400	1370	1372	1390	1401	1409	1411	1420	1420	1416	1413	1413	1412	1399	1385	1373	1373	1376	1391	1394	1393	1393	1400	1406	1403	1401	1392	1388	1392	1397	1398	1395	1397	1401	1401	1391	1371	1360	1370	1390	1404	1395	1400	1423	1421	1428	1432	1479	1503	1505	1499	1469	1443	1434	1431	1424	1416	1433	1452	1451	1422	1409	1414	1428	1436	1426	1411	1400	1396	1385	1375	1380	1408	1420	1429	1434	1434	1420	1408	1403	1410	1420	1426	1430	1433	1440	1434	1420	1403	1397	1410	1427	1435	1435	1430	1421	1417	1408	1404	1407	1409	1412	1421	1419	1415	1411	1424	1422	1428	1427	1413	1396	1390	1387	1392	1409	1415	1420	1439	1449	1451	1437	1431	1419	1407	1404	1402	1400	1400	1392	1389	1388	1385	1380	1372	1374	1383	1396	1407	1414	1398	1381	1381	1387	1387	1387	1389	1393	1396	1402	1401	1389	1373	1360	1358	0	0	0	0	0	0	0
0	0	1368	1400	1426	1420	1444	1436	1430	1439	1447	1447	1448	1441	1435	1433	1433	1433	1439	1434	1432	1421	1431	1432	1434	1434	1435	1426	1420	0	0	0	0	0	0	0	0	0	0	0	0	0	0	0	0	0	0	0	0	0	0	0	0	0	0	0	0	0	0	0	0	0	0	0	0	0	0	0	0	0	0	0	0	0	0	0	0	0	0	0	0	0	0	0	0	0	0	0	0	1407	1415	1432	1431	1413	1402	1398	1397	1395	1398	1404	1404	1399	1411	1420	1405	1391	1381	1375	1373	1376	1380	1377	1367	1361	1370	1375	1385	1389	1387	1390	1391	1396	1398	1391	1368	1348	1349	1355	1364	1365	1361	1352	1358	1371	1386	1387	1400	1408	1426	1416	1427	1438	1451	1455	1461	1461	1447	1453	1452	1456	1449	1431	1412	1413	1430	1438	1461	0	0	0	0	0	1483	1474	1476	1468	1465	1468	1474	1474	1471	1466	1452	1446	1449	1493	1510	1529	1548	1565	1538	1511	1492	1489	1488	1506	1524	1527	1500	1469	1445	1447	1457	1450	1452	1389	1375	1378	1398	1409	1408	1411	1407	1415	1411	1412	1415	1412	1415	1410	1400	1387	1411	1414	1407	1396	1391	1389	1388	1387	1383	1378	1372	1376	1382	1393	1397	1398	1388	1382	1346	1307	1285	1231	1192	1171	1156	1151	1167	1168	1171	1163	1158	1159	1161	1158	1156	1158	1166	1166	1170	1170	1155	1144	1143	1143	1145	1150	1148	1152	1151	1144	1131	1127	1142	1153	1153	1132	1117	1110	1128	1153	1172	1202	1239	1316	1367	1412	1419	1433	1452	1471	1466	1457	1441	1486	1517	1525	1524	1517	1504	1466	1432	1428	1440	1453	1500	1547	1554	1517	1487	1465	1470	1453	1436	1429	1433	1452	1470	1491	1499	1498	1476	1454	1455	1461	1470	1480	1479	1495	1505	1525	1525	1514	1500	1499	1490	1481	1474	1456	1436	1429	1409	1402	1397	1404	1399	1393	1394	1395	1406	1411	1407	1408	1402	1399	1391	1395	1407	1422	1429	1421	1397	1381	1385	1383	1376	1372	1382	1392	1402	1406	1411	1410	1413	1412	1410	1400	1395	1391	1398	1394	1393	1391	1393	1392	1405	1416	1415	1405	1396	1428	1460	1479	1485	1488	1467	1459	1449	1448	1440	1435	1441	1425	1414	1420	1435	1459	1474	1470	1453	1438	1423	1408	1378	1344	1298	1266	1222	1191	1166	1171	1184	1189	1186	1185	1182	1182	1180	1158	1133	1109	1098	1108	1116	1126	1123	1121	1116	1118	1116	1115	1113	1113	1117	1129	1129	1124	1109	1095	1093	1093	1107	1114	1123	1139	1150	1157	1183	1217	1245	1279	1335	1370	1388	1396	1395	1410	1426	1441	1442	1443	1441	1454	1458	1453	1472	1469	1441	1412	1393	1380	1425	1425	1418	1425	1423	1419	1396	1371	1370	1387	1417	1417	1413	1407	1404	1397	1393	1392	1398	1392	1382	1362	1356	1362	1373	1409	1405	1406	1402	1401	1390	1393	1390	1401	1409	1433	1449	1457	1444	1427	1409	1397	1390	1385	1379	1382	1393	1405	1407	1421	1417	1420	1427	1420	1421	1419	1405	1415	1425	1447	1457	1448	1436	1426	1426	1440	1442	1427	1410	1411	1416	1418	1404	1393	1392	1387	1392	1402	1424	1423	1423	1423	1416	1408	1394	1402	1416	1425	1440	1447	1452	1447	1440	1436	1427	1426	1418	1430	1432	1433	1436	1431	1424	1408	1407	1408	1413	1417	1431	1430	1434	1442	1454	1455	1442	1422	1413	1404	1398	1395	1391	1416	1418	1433	1447	1454	1462	1466	1460	1439	1419	1406	1402	1406	1406	1418	1424	1416	1414	1406	1397	1389	1388	1398	1406	1406	1398	1390	1392	1379	1379	1370	1371	1379	1393	1398	1396	1388	1370	1364	1365	0	0	0	0	0	0	0
0	0	1361	1399	1420	1432	1432	1430	1419	1423	1432	1432	1434	1434	1423	1424	1438	1453	1453	1439	1424	1419	1423	1434	1447	1447	1448	1431	1414	1381	1362	0	0	0	0	0	0	0	0	1459	0	0	0	0	0	0	0	0	0	1431	1435	1435	1445	1452	1459	1463	1463	1459	1448	1443	1457	1464	1477	1478	1473	1448	1425	1424	1435	1469	1473	1467	1461	1456	1461	1470	1470	1455	1427	1412	1432	1476	1476	1488	1460	1445	1446	0	1437	1421	1419	1434	1431	1417	1404	1401	1401	1399	1405	1407	1411	1415	1428	1428	1412	1395	1385	1374	1374	1381	1383	1383	1374	1362	1376	1378	1385	1392	1396	1396	1396	1396	1394	1396	1383	1366	1360	1355	1363	1364	1363	1370	1374	1374	1370	1362	1375	1402	1415	1419	1428	1447	1453	1466	1471	1469	1456	1453	1448	1436	1403	1394	1400	1416	1440	1478	1499	1512	1508	1493	1471	1442	1434	1446	1468	1477	1464	1463	1459	1456	1455	1445	1427	1413	1403	1413	1412	1419	1427	1427	1415	1410	1429	1448	1459	1455	1442	1437	1445	1462	1472	1463	1444	1444	1462	1408	1391	1393	1410	1420	1415	1413	1406	1416	1407	1389	1382	1385	1399	1409	1417	1437	1428	1421	1408	1401	1399	1392	1386	1373	1374	1366	1367	1364	1383	1393	1396	1380	1362	1299	1260	1242	1230	1199	1169	1148	1134	1135	1153	1166	1166	1162	1159	1158	1146	1139	1129	1135	1141	1146	1152	1153	1140	1135	1134	1135	1143	1153	1165	1168	1162	1137	1123	1116	1132	1145	1151	1142	1135	1130	1136	1152	0	0	1202	1310	1396	1419	1428	1436	1446	1459	1461	1457	1442	1442	1447	1437	1439	1443	1458	1468	1457	1450	1446	1446	1454	1464	1465	1459	1451	1451	1450	1452	1445	1441	1436	1423	1412	1424	1445	1463	1458	1453	1445	1441	1436	1429	1432	1431	1432	1443	1458	1473	1482	1481	1476	1471	1476	1481	1451	1436	1405	1383	1378	1391	1402	1400	1406	1404	1396	1392	1389	1396	1403	1404	1389	1385	1390	1402	1400	1406	1401	1399	1396	1386	1376	1374	1380	1386	1400	1423	1426	1418	1414	1414	1410	1402	1398	1399	1395	1397	1399	1402	1410	1418	1424	1429	1432	1398	1398	1424	1450	1477	1462	1442	1428	1419	1423	1437	1440	1448	1448	1430	1415	1415	1432	1450	1451	1448	1445	1430	1423	1408	1370	0	0	0	0	1173	1157	1160	1170	0	0	1152	1151	1160	1159	1145	1120	1110	1107	1116	1120	1105	1096	1095	1097	1091	1091	1091	1095	1098	1104	1117	1112	1101	1090	1086	1085	1089	1096	1095	1102	1104	1111	1117	1156	1173	1193	1212	1277	1349	1373	1383	1389	1403	1420	1435	1436	1437	1434	1434	1436	1441	1465	1462	1441	1415	1426	1435	1445	1444	1436	1431	1440	1434	1417	1388	1376	1383	1381	1385	1387	1398	1400	1395	1385	1388	1402	1398	1392	1380	1372	1369	1380	1389	1386	1385	1389	1408	1413	1418	1418	1416	1424	1432	1442	1448	1446	1429	1411	1414	1419	1419	1405	1401	1401	1400	1398	1412	1410	1403	1410	1410	1404	1409	1410	1403	1417	1433	1453	1450	1427	1414	1416	1429	1432	1425	1409	1410	1413	1415	1400	1397	1396	1405	1420	1434	1452	1442	1432	1425	1418	1406	1400	1410	1420	1425	1440	1440	1451	1446	1442	1444	1442	1443	1437	1431	1426	1430	1439	1451	1450	1423	1412	1412	1413	1425	1431	1440	1441	1441	1450	1454	1432	1415	1409	1403	1400	1388	1393	1404	1421	1435	1447	1456	1468	1471	1467	1456	1436	1415	1405	1410	1410	1419	1428	1432	1425	1416	1417	1412	1413	1414	1408	1405	1397	1390	1374	1363	1363	1358	1366	1392	1402	1407	1411	1399	1382	1369	1364	1364	0	0	0	0	0	0
0	0	1385	1406	1432	1422	1427	1425	1420	1420	1422	1422	1424	1418	1423	1423	1434	1441	1441	1444	1425	1427	1427	1435	1447	1447	1451	1436	1412	1389	1366	1350	1349	1352	1352	1383	1413	1423	1432	1427	1426	1435	1436	1422	1422	1417	1415	1428	1421	1413	1418	1418	1422	1441	1458	1459	1441	1441	1432	1428	1441	1454	1462	1448	1436	1431	1423	1444	1461	1475	1470	1460	1451	1441	1435	1436	1430	1429	1419	1432	1447	1465	1465	1458	1432	1421	1439	1455	1442	1418	1396	1404	1413	1411	1399	1399	1399	1408	1413	1425	1422	1423	1431	1420	1402	1390	1383	1380	1383	1382	1391	1390	1369	1368	1373	1384	1393	1402	1409	1404	1399	1388	1390	1392	1392	1373	1352	1355	1355	1360	1379	1385	1375	1373	1361	1357	1372	1405	1422	1432	1443	1445	1451	1446	1435	1433	1434	1436	1433	1418	1403	1409	1409	1420	1433	1452	1473	1479	1451	1422	1425	1428	1442	1449	1458	1461	1454	1448	1446	1440	1441	1426	1419	1409	1409	1418	1415	1406	1407	1407	1403	1395	1415	1430	1444	1439	1432	1434	1445	1466	1470	1456	1439	1423	1439	1422	1408	1408	1415	1422	1422	1423	1421	1420	1420	1402	1393	1394	1407	1436	1460	1460	1437	1429	1422	1421	1425	1426	1422	1415	1398	1380	1365	1360	1358	1351	1330	1293	1261	1226	1224	1209	1200	1181	1154	1134	1136	1148	1157	1169	1166	1166	1168	1155	1132	1115	1102	1109	1108	1114	1136	1136	1131	1129	1126	1125	1138	1146	1165	1163	1154	1140	1125	1123	1135	1140	1150	1152	1157	1161	0	0	0	0	1229	1310	1406	1426	1436	1442	1447	1461	1464	1464	1454	1450	1453	1447	1441	1440	1438	1440	1440	1439	1444	1445	1445	1446	1448	1448	1445	1445	1449	1449	1443	1444	1442	1432	1425	1432	1449	1457	1453	1449	1437	1440	1444	1437	1429	1427	1425	1424	1439	1453	1467	1469	1467	1459	1459	1474	1472	1446	1410	1389	1386	1396	1404	1420	1431	1435	1431	1434	1424	1414	1417	1409	1400	1385	1391	1391	1395	1393	1396	1402	1401	1386	1379	1424	1412	1412	1429	1440	1446	1434	1427	1426	1428	1420	1412	1407	1409	1407	1415	1429	1439	1441	1449	1447	1445	1414	1400	1422	1464	1472	1452	1442	1430	1433	1441	1452	1461	1472	1455	1432	1414	1412	1423	1440	1442	1445	1428	1428	1420	1405	1360	0	0	0	0	0	1160	1156	0	0	0	1117	1123	1123	1125	1128	1121	1113	1124	1126	1114	1085	1073	1075	1072	1072	1071	1079	1080	1084	1091	1096	1098	1093	1087	1089	1093	1096	1092	1089	1080	1080	1080	1109	1133	1147	1152	1161	1162	1195	1250	1335	1364	1384	1403	1417	1428	1436	1444	1440	1433	1448	1451	1431	1427	1424	1433	1454	1466	1462	1447	1444	1454	1458	1439	1407	1391	1389	1387	1385	1387	1405	1412	1396	1387	1389	1404	1409	1407	1397	1381	1383	1387	1391	1383	1398	1407	1415	1423	1430	1424	1419	1419	1423	1441	1441	1433	1430	1430	1434	1437	1441	1427	1423	1413	1410	1404	1402	1405	1403	1399	1400	1405	1410	1414	1399	1410	1426	1440	1437	1423	1413	1411	1418	1420	1406	1404	1406	1407	1410	1398	1392	1400	1417	1433	1456	1461	1453	1439	1440	1433	1417	1352	1350	1419	1419	1429	1435	1433	1434	1433	1436	1443	1451	1446	1441	1431	1428	1435	1444	1450	1439	1423	1416	1414	1421	1427	1433	1438	1440	1444	1442	1430	1414	1407	1405	1399	1389	1400	1408	1420	1437	1447	1457	1470	1465	1467	1463	1450	1430	1414	1414	1412	1416	1423	1431	1436	1429	1431	1435	1435	1434	1426	1420	1408	1404	1392	1384	1361	1356	1372	1388	1416	1433	1446	1445	1403	1373	1357	1357	0	0	0	0	0	0
0	0	1409	1415	1422	1404	1409	1421	1434	1418	1415	1415	1413	1409	1416	1424	1434	1432	1432	1425	1433	1426	1436	1438	1440	1440	1433	1418	1409	1388	1377	1367	1346	1346	1346	1359	1383	1406	1411	1412	1413	1423	1434	1436	1436	1437	1435	1420	1404	1394	1405	1411	1406	1413	1432	1439	1432	1432	1423	1420	1420	1429	1436	1439	1448	1437	1430	1437	1444	1438	1436	1443	1444	1441	1430	1429	1427	1429	1418	1431	1447	1457	1443	1443	1420	1412	1427	1448	1438	1411	1375	1377	1385	1386	1386	1389	1392	1405	1421	1426	1424	1422	1412	1397	1387	1389	1394	1398	1392	1401	1402	1385	1377	1380	1385	1397	1417	1418	1418	1410	1403	1395	1388	1396	1397	1379	1353	1340	1341	1366	1381	1379	1376	1372	1370	1373	1387	1414	1439	1446	1446	1445	1427	1418	1424	1423	1427	1436	1439	1422	1406	1401	1403	1419	1433	1441	1444	1427	1410	1399	1398	1417	1432	1448	1460	1464	1452	1446	1438	1435	1437	1422	1416	1403	1414	1412	1407	1404	1410	1404	1400	1405	1418	1421	1429	1432	1420	1421	1439	1457	1462	1453	1428	1416	1419	1420	1420	1422	1431	1430	1433	1433	1432	1434	1426	1421	1415	1417	1422	1424	1440	1431	1434	1429	1429	1426	1432	1438	1440	1433	1412	1385	1365	1341	1317	1300	1278	1245	1221	1200	1189	1183	1177	1161	1144	1137	1144	1154	1168	1169	1161	1167	1163	1154	1125	1102	1098	1099	1099	1106	1114	1118	1116	1117	1111	1111	1121	1130	1140	1144	1144	1139	1127	1128	1132	1133	1140	1153	0	0	0	0	0	0	0	1350	1411	1429	1436	1442	1448	1458	1470	1467	1456	1455	1458	1451	1437	1434	1422	1431	1430	1431	1435	1437	1436	1430	1432	1441	1449	1454	1450	1448	1440	1440	1442	1435	1436	1443	1458	1453	1452	1441	1437	1438	1445	1436	1428	1419	1410	1408	1423	1440	1447	1449	1448	1441	1432	1437	1434	1431	1423	1413	1407	1407	1421	1434	1443	1445	1443	1443	1432	1424	1422	1426	1430	1448	1435	1420	1419	1441	1440	1440	1439	1424	1413	1426	1418	1422	1434	1445	1447	1440	1426	1425	1429	1428	1431	1425	1420	1419	1418	1431	1441	1450	1457	1456	1460	1461	1452	1451	1439	1445	1450	1450	1435	1439	1442	1451	1477	1477	1457	1428	1401	1392	1409	1422	1436	1442	1441	1440	1439	1425	1372	0	0	0	0	0	0	1151	1141	0	1094	1091	1105	1113	1114	1118	1118	1122	1123	1123	1109	1082	1069	1062	1062	1062	1067	1068	1068	1070	1070	1080	1087	1087	1083	1087	1094	1100	1095	1084	1074	1066	1062	1086	1100	1113	1121	1135	1136	1136	1134	1145	1169	1231	1333	1374	1404	1429	1449	1446	1439	1415	1417	1416	1418	1419	1430	1447	1461	1455	1449	1446	1457	1460	1445	1430	1407	1400	1396	1402	1409	1420	1412	1403	1393	1397	1422	1435	1439	1432	1414	1404	1409	1408	1400	1408	1420	1423	1431	1431	1439	1431	1433	1437	1433	1428	1425	1422	1439	1442	1444	1442	1436	1434	1427	1417	1409	1401	1398	1400	1397	1399	1407	1417	1419	1397	1398	1409	1419	1423	1421	1426	1427	1420	1415	1405	1402	1406	1403	1405	1394	1394	1401	1413	1441	1446	1455	1446	1437	1444	1439	1405	1359	1355	1392	1415	1426	1422	1419	1419	1422	1430	1451	1462	1454	1449	1439	1428	1426	1426	1426	1425	1423	1414	1415	1415	1425	1432	1432	1442	1442	1444	1429	1416	1412	1409	1412	1400	1403	1412	1429	1437	1443	1438	1428	1427	1449	1456	1455	1439	1423	1423	1406	1402	1415	1430	1433	1433	1431	1435	1452	1451	1445	1436	1434	1433	1420	1406	1406	1370	1380	1389	1405	1442	1471	1474	1425	1377	1364	1364	0	0	0	0	0	0
0	0	1406	1408	1404	1389	1397	1416	1430	1425	1412	1412	1402	1406	1412	1423	1423	1424	1424	1424	1427	1436	1433	1427	1421	1421	1416	1411	1410	1397	1393	1382	1354	1354	1354	1355	1384	1400	1409	1410	1413	1423	1438	1439	1439	1433	1427	1417	1401	1397	1402	1411	1410	1417	1421	1428	1424	1424	1418	1413	1419	1426	1434	1446	1456	1445	1436	1438	1434	1426	1426	1436	1452	1449	1438	1432	1432	1438	1436	1444	1450	1450	1442	1419	1419	1418	1425	1432	1419	1407	1392	1391	1398	1408	1396	1388	1396	1392	1403	1407	1410	1408	1409	1408	1414	1420	1418	1407	1407	1414	1409	1397	1385	1379	1387	1396	1412	1410	1408	1401	1395	1389	1382	1375	1382	1383	1371	1352	1350	1361	1378	1383	1371	1382	1391	1399	1410	1435	1462	1467	1459	1434	1414	1420	1425	1427	1435	1447	1453	1430	1409	1405	1410	1425	1439	1441	1438	1416	1391	1380	1381	1396	1427	1449	1460	1461	1449	1443	1433	1441	1439	1423	1418	1412	1413	1418	1422	1416	1418	1419	1418	1416	1428	1428	1419	1423	1417	1419	1433	1449	1448	1438	1427	1417	1419	1411	1420	1442	1451	1448	1430	1431	1434	1439	1438	1424	1422	1425	1428	1433	1435	1438	1436	1437	1452	1451	1450	1453	1448	1421	1407	1386	1346	1293	1273	1242	1216	1203	1193	1185	1183	1176	1165	1151	1142	1140	1149	1155	1158	1155	1149	1152	1144	1129	1105	1093	1094	1096	1096	1091	1099	1101	1100	1096	1099	1097	1098	1105	1108	1115	1125	1127	1125	1125	1128	1126	1135	0	0	0	0	0	0	0	1322	1395	1423	1422	1433	1437	1442	1442	1448	1456	1453	1453	1457	1454	1438	1434	1429	1423	1427	1427	1428	1427	1427	1425	1425	1438	1454	1461	1459	1448	1437	1425	1428	1433	1448	1455	1463	1451	1437	1429	1430	1437	1439	1433	1426	1419	1410	1412	1421	1439	1447	1445	1435	1431	1425	1424	1424	1416	1421	1428	1438	1447	1459	1475	1476	1466	1462	1460	1456	1445	1436	1430	1430	1422	1434	1425	1428	1436	1448	1452	1451	1441	1436	1428	1436	1431	1433	1432	1431	1423	1419	1421	1421	1429	1436	1434	1431	1437	1448	1455	1447	1447	1448	1453	1458	1453	1443	1433	1438	1437	1447	1453	1451	1448	1452	1438	1439	1449	1439	1419	1403	1398	1407	1421	1430	1445	1454	1462	1463	1463	1433	0	0	0	0	0	0	0	1145	1114	1079	1083	1096	1107	1111	1106	1103	1107	1115	1110	1096	1089	1076	1063	1060	1053	1059	1061	1055	1057	1059	1074	1086	1084	1080	1081	1091	1096	1090	1079	1072	1066	1054	1062	1082	1093	1107	1116	1118	1113	1107	1105	1114	1142	1200	1285	1380	1417	1414	1425	1418	1407	1413	1417	1416	1415	1421	1431	1447	1449	1448	1444	1447	1436	1430	1426	1425	1426	1415	1416	1416	1419	1415	1414	1401	1416	1427	1442	1446	1435	1423	1420	1418	1415	1407	1415	1421	1424	1427	1425	1429	1435	1433	1436	1431	1423	1422	1416	1437	1433	1431	1422	1415	1422	1413	1419	1413	1406	1401	1402	1406	1407	1419	1426	1424	1399	1388	1390	1403	1413	1417	1433	1439	1446	1434	1411	1406	1409	1413	1407	1407	1397	1405	1412	1420	1434	1439	1440	1438	1445	1445	1455	1388	1383	1413	1409	1418	1417	1414	1414	1414	1421	1450	1460	1454	1449	1443	1433	1420	1415	1413	1413	1419	1425	1422	1420	1428	1431	1429	1432	1441	1441	1434	1427	1426	1430	1430	1425	1415	1418	1435	1441	1440	1439	1431	1421	1421	1424	1424	1419	1415	1415	1401	1396	1396	1422	1433	1422	1422	1422	1420	1431	1443	1448	1453	1445	1432	1432	1418	1406	1404	1393	1403	1419	1425	1419	1401	1391	1385	1385	0	0	0	0	0	0
0	0	1404	1397	1389	1395	1389	1401	1418	1425	1415	1409	1409	1413	1412	1421	1422	1425	1425	1420	1429	1432	1428	1417	1409	1408	1408	1414	1415	1413	1408	1395	1369	1360	1360	1367	1386	1410	1419	1421	1428	1438	1446	1440	1436	1425	1418	1409	1409	1406	1408	1416	1413	1418	1419	1413	1411	1413	1413	1417	1421	1427	1433	1452	1459	1450	1439	1436	1434	1425	1425	1433	1454	1458	1453	1447	1448	1447	1447	1448	1443	1451	1451	1433	1416	1416	1418	1413	1407	1404	1401	1417	1422	1426	1426	1422	1403	1403	1395	1397	1404	1415	1420	1427	1422	1416	1408	1395	1405	1419	1413	1412	1399	1390	1387	1400	1412	1408	1404	1401	1403	1394	1382	1380	1385	1396	1407	1399	1384	1378	1392	1392	1377	1383	1407	1427	1446	1461	1491	1487	1461	1431	1427	1431	1441	1441	1443	1452	1455	1451	1413	1423	1433	1443	1448	1453	1439	1419	1394	1377	1377	1398	1424	1450	1460	1459	1451	1444	1440	1442	1443	1429	1412	1406	1417	1430	1435	1438	1442	1439	1425	1420	1432	1429	1425	1415	1405	1415	1419	1435	1435	1416	1413	1418	1418	1414	1423	1440	1450	1436	1415	1412	1424	1434	1432	1429	1418	1424	1424	1430	1442	1438	1428	1423	1416	1411	1397	1410	1404	1394	1383	1357	1286	1247	1210	1194	1176	1172	1167	1174	1178	1168	1154	1141	1144	1148	1147	1153	1142	1130	1125	1119	1120	1102	1083	1081	1088	1098	1096	1097	1090	1091	1094	1091	1089	1086	1087	1085	1087	1099	1118	1125	0	0	0	0	0	0	0	0	0	0	0	0	1361	1417	1425	1426	1430	1436	1437	1428	1432	1433	1438	1436	1443	1447	1434	1433	1437	1431	1435	1435	1432	1432	1422	1425	1428	1438	1451	1461	1466	1461	1445	1427	1418	1427	1442	1446	1452	1446	1441	1425	1424	1419	1420	1426	1429	1444	1445	1443	1449	1458	1459	1447	1446	1431	1422	1410	1416	1420	1428	1440	1450	1452	1455	1458	1465	1467	1455	1458	1454	1440	1434	1431	1436	1424	1426	1417	1421	1430	1441	1438	1445	1446	1441	1455	1457	1459	1455	1435	1430	1422	1427	1438	1443	1442	1437	1432	1433	1434	1446	1454	1460	1455	1446	1443	1442	1444	1434	1439	1451	1461	1470	1462	1452	1451	1461	1454	1447	1445	1445	1434	1422	1421	1422	1429	1435	1443	1452	1452	1456	1466	1462	1439	0	0	0	0	0	0	1162	1119	1092	1088	1091	1105	1100	0	0	0	0	0	1093	1097	1088	1074	1067	1062	1061	1056	1051	1049	1061	1079	1092	1089	1081	1080	1081	1089	1083	1074	1061	1062	1063	1056	1068	1078	1092	1102	1100	1093	1088	1080	1075	1086	1108	1126	1115	1138	1172	1324	1360	1397	1403	1414	1415	1411	1410	1419	1435	1442	1443	1438	1430	1423	1418	1426	1432	1438	1433	1426	1424	1428	1424	1423	1425	1427	1435	1445	1444	1437	1431	1422	1421	1420	1419	1414	1418	1418	1416	1420	1427	1435	1436	1437	1423	1416	1409	1412	1416	1426	1422	1417	1404	1406	1401	1420	1416	1411	1408	1407	1423	1426	1442	1443	1439	1396	1383	1378	1385	1405	1425	1437	1443	1446	1441	1426	1421	1423	1428	1422	1417	1409	1408	1410	1406	1412	1434	1437	1441	1444	1452	1460	1457	1442	1401	1400	1404	1412	1412	1412	1411	1421	1443	1454	1453	1442	1434	1425	1419	1413	1413	1413	1417	1420	1421	1420	1427	1433	1428	1420	1433	1437	1437	1434	1444	1443	1439	1431	1427	1426	1436	1435	1447	1444	1435	1424	1415	1418	1420	1422	1422	1418	1407	1406	1404	1420	1435	1420	1417	1409	1413	1421	1445	1452	1449	1443	1425	1425	1414	1408	1409	1420	1420	1427	1431	1424	1414	1405	1403	1403	0	0	0	0	0	0
0	0	1408	1395	1395	1395	1395	1394	1402	1413	1415	1415	1415	1413	1411	1413	1417	1407	1407	1412	1426	1429	1417	1417	1403	1400	1400	1412	1417	1421	1420	1405	1386	1381	1381	1381	1393	1412	1426	1440	1454	1463	1458	1430	1411	1411	1396	1399	1403	1401	1407	1419	1417	1413	1401	1403	1399	1409	1409	1420	1427	1436	1433	1439	1457	1456	1438	1444	1446	1434	1432	1429	1440	1447	1454	1452	1466	1466	1447	1442	1440	1450	1453	1437	1425	1425	1405	1402	1410	1409	1414	1418	1428	1437	1438	1440	1438	1425	1413	1406	1403	1419	1429	1422	1413	1402	1395	1395	1410	1422	1431	1425	1417	1407	1402	1407	1413	1416	1415	1412	1407	1397	1386	1384	1389	1409	1417	1403	1395	1394	1411	1405	1396	1398	1414	1429	1445	1472	1493	1488	1453	1433	1436	1439	1445	1441	1444	1446	1449	1443	1431	1434	1436	1441	1447	1451	1440	1426	1406	1391	1397	1423	1436	1439	1450	1461	1454	1445	1445	1450	1449	1436	1418	1409	1416	1428	1438	1453	1456	1450	1438	1417	1421	1425	1418	1414	1400	1396	1404	1413	1404	1395	1400	1413	1414	1413	1424	1439	1439	1424	1406	1397	1407	1414	1424	1429	1430	1424	1424	1433	1443	1444	1414	1404	1391	1375	1365	1342	1293	1366	1277	1204	1179	1168	1163	1153	1151	1151	1151	1162	1174	1159	1143	1137	1141	1149	1150	1143	1130	1111	1099	1085	1081	1074	1067	1072	1083	1095	1097	1092	1086	1083	1097	1098	1097	1089	1086	1084	1083	1101	1114	1121	0	0	0	0	0	0	0	0	0	0	0	1356	1414	1435	1426	1425	1431	1433	1434	1430	1417	1418	1416	1424	1433	1444	1434	1421	1432	1441	1451	1455	1451	1444	1437	1431	1427	1433	1439	1458	1468	1461	1447	1428	1418	1421	1435	1444	1446	1447	1444	1427	1416	1419	1420	1431	1440	1447	1454	1455	1460	1461	1455	1448	1443	1433	1426	1416	1415	1425	1433	1447	1457	1463	1464	1451	1455	1444	1438	1438	1440	1436	1437	1435	1423	1430	1437	1429	1424	1435	1436	1433	1442	1439	1433	1451	1450	1452	1453	1438	1431	1439	1439	1443	1441	1439	1434	1425	1419	1419	1441	1452	1457	1455	1451	1437	1428	1423	1420	1435	1452	1462	1457	1450	1436	1453	1468	1464	1456	1449	1444	1440	1429	1436	1436	1442	1445	1450	1447	1445	1443	1449	1461	1452	0	0	0	0	0	0	0	1132	1101	1084	1090	1088	1085	0	0	0	0	0	1089	1093	1098	1103	1089	1073	1058	1052	1048	1048	1065	1082	1095	1094	1085	1081	1081	1085	1078	1064	1055	1061	1077	1074	1067	1068	1070	1078	1075	1079	1080	1072	1061	1057	1074	1084	1089	1094	1106	1125	1246	1362	1389	1401	1404	1406	1403	1415	1433	1445	1443	1435	1422	1412	1412	1421	1428	1434	1434	1433	1430	1424	1428	1433	1439	1442	1439	1432	1429	1431	1428	1432	1421	1422	1424	1420	1424	1422	1411	1419	1434	1441	1445	1436	1411	1401	1402	1401	1408	1415	1419	1412	1408	1402	1407	1415	1418	1411	1403	1416	1421	1437	1451	1460	1442	1403	1388	1377	1371	1389	1409	1426	1433	1447	1443	1440	1432	1433	1438	1431	1416	1411	1411	1405	1405	1411	1430	1441	1442	1446	1445	1439	1414	1401	1390	1396	1400	1412	1418	1422	1417	1422	1429	1443	1446	1442	1435	1423	1421	1418	1416	1416	1415	1418	1414	1426	1435	1441	1430	1422	1424	1426	1429	1433	1443	1451	1442	1430	1425	1427	1436	1437	1449	1448	1439	1430	1417	1417	1427	1427	1427	1427	1427	1416	1417	1422	1427	1422	1410	1400	1401	1415	1435	1445	1442	1427	1416	1416	1408	1409	1412	1420	1431	1438	1439	1431	1422	1415	1415	1421	0	0	0	0	0	0
0	0	1405	1405	1398	1412	1412	1413	1408	1414	1415	1409	1409	1408	1407	1408	1404	1402	1411	1411	1416	1418	1425	1421	1408	1397	1397	1395	1399	1411	1421	1420	1412	1409	1402	1402	1398	1415	1440	1453	1468	1460	1436	1418	1392	1392	1383	1386	1391	1401	1408	1413	1412	1410	1398	1396	1401	1410	1410	1422	1434	1430	1426	1427	1421	1432	1431	1443	1441	1438	1437	1424	1426	1430	1440	1451	1464	1465	1452	1441	1430	1447	1454	1442	1411	1397	1397	1407	1416	1414	1426	1419	1421	1432	1436	1437	1437	1439	1432	1426	1426	1427	1422	1418	1405	1394	1387	1394	1411	1421	1434	1437	1439	1431	1426	1434	1435	1433	1428	1426	1414	1400	1389	1386	1401	1416	1431	1418	1409	1406	1421	1420	1415	1415	1418	1423	1435	1457	1481	1471	1443	1430	1433	1447	1446	1438	1428	1429	1432	1433	1432	1449	1442	1435	1434	1437	1437	1426	1421	1418	1425	1439	1430	1431	1442	1455	1455	1450	1455	1458	1457	1441	1425	1418	1416	1429	1438	1456	1464	1457	1432	1420	1409	1411	1409	1402	1386	1378	1393	1403	1407	1406	1408	1409	1412	1415	1425	1433	1438	1422	1402	1387	1389	1398	1410	1434	1445	1439	1434	1434	1434	1431	1397	1385	1343	1262	1193	1158	1141	1150	1147	1162	1142	1136	1124	1137	1142	1137	1138	1144	1151	1138	1132	1130	1137	1146	1148	1143	1131	1109	1093	1077	1070	1064	1064	1069	1077	1086	1090	1081	1080	1080	1085	1106	1107	1103	1096	1094	1096	1108	1119	1120	0	0	0	0	0	0	0	0	0	0	1350	1424	1450	1454	1429	1426	1429	1435	1435	1437	1430	1418	1412	1416	1429	1447	1438	1424	1434	1444	1461	1468	1458	1450	1443	1443	1436	1433	1429	1452	1466	1464	1446	1434	1418	1421	1434	1445	1452	1450	1445	1432	1418	1421	1431	1442	1454	1459	1457	1455	1450	1447	1442	1442	1438	1436	1432	1425	1428	1433	1441	1444	1460	1463	1461	1449	1456	1441	1434	1434	1436	1437	1436	1440	1438	1435	1446	1436	1429	1416	1425	1431	1423	1422	1429	1439	1440	1447	1452	1454	1452	1450	1453	1451	1446	1438	1430	1423	1408	1412	1437	1448	1453	1451	1451	1441	1427	1419	1424	1432	1445	1445	1439	1427	1424	1449	1467	1471	1466	1456	1446	1441	1440	1447	1453	1459	1456	1450	1442	1434	1437	1441	1448	1460	1426	0	0	0	0	0	0	0	0	1092	1082	1082	1083	0	0	0	0	1091	1082	1086	1103	1097	1089	1072	1068	1061	1046	1049	1061	1076	1080	1079	1072	1081	1083	1085	1075	1058	1049	1058	1081	1074	1058	1056	1055	1052	1055	1064	1068	1076	1078	1079	1082	1076	1069	1067	1068	1081	1111	1153	1301	1341	1359	1384	1396	1417	1431	1445	1442	1427	1422	1417	1418	1423	1419	1421	1431	1430	1421	1409	1418	1436	1443	1439	1428	1421	1422	1427	1425	1426	1430	1420	1433	1426	1428	1425	1421	1422	1445	1461	1456	1438	1399	1390	1385	1395	1398	1410	1416	1411	1413	1417	1423	1432	1424	1416	1410	1413	1423	1437	1458	1462	1441	1403	1383	1374	1369	1380	1404	1413	1415	1422	1430	1436	1436	1434	1443	1429	1413	1404	1399	1401	1399	1410	1429	1433	1435	1434	1441	1421	1415	1399	1391	1399	1412	1418	1428	1428	1426	1418	1418	1430	1439	1444	1442	1436	1431	1423	1417	1418	1420	1416	1415	1426	1453	1452	1442	1421	1412	1421	1425	1431	1440	1446	1445	1433	1427	1424	1428	1434	1443	1450	1442	1435	1429	1432	1433	1428	1428	1426	1432	1425	1431	1427	1418	1416	1407	1401	1401	1411	1426	1435	1430	1420	1415	1415	1415	1412	1414	1415	1415	1423	1438	1433	1432	1429	1429	1425	0	0	0	0	0	0
0	0	1405	1408	1409	1434	1434	1432	1424	1411	1409	1406	1406	1407	1399	1398	1406	1420	1412	1412	1410	1424	1434	1435	1423	1393	1393	1389	1391	1403	1425	1431	1425	1419	1407	1407	1403	1411	1435	1449	1450	1421	1423	1412	1399	1399	1392	1390	1395	1406	1407	1408	1406	1402	1396	1397	1397	1403	1403	1413	1416	1418	1419	1415	1410	1415	1429	1434	1430	1433	1426	1418	1410	1416	1429	1438	1452	1450	1443	1432	1430	1442	1443	1426	1407	1408	1416	1432	1432	1436	1435	1432	1422	1426	1429	1432	1434	1435	1427	1434	1426	1423	1420	1417	1413	1404	1404	1408	1420	1432	1440	1440	1449	1443	1439	1442	1446	1440	1440	1434	1424	1410	1405	1403	1406	1426	1433	1422	1416	1416	1428	1426	1423	1422	1420	1420	1429	1441	1463	1455	1429	1422	1429	1441	1445	1440	1414	1411	1419	1422	1426	1441	1435	1426	1425	1428	1422	1420	1420	1427	1436	1438	1432	1431	1433	1446	1454	1452	1460	1460	1456	1440	1430	1422	1420	1419	1436	1456	1465	1455	1435	1416	1406	1405	1410	1405	1389	1379	1395	1409	1421	1423	1420	1418	1414	1418	1425	1428	1428	1427	1407	1385	1373	1381	1398	1425	1440	1440	1426	1409	1409	1406	1391	1280	1198	1130	1099	1099	1109	1118	1121	1104	1087	1108	1107	1121	1125	1122	1117	1105	1116	1119	1120	1119	1126	1138	1148	1146	1135	1121	1106	1087	1078	1074	1068	1072	1074	1078	1074	1070	1068	1072	1079	1100	1105	1106	1106	1103	1104	1112	1118	1124	0	0	0	0	0	0	0	0	0	1316	1417	1449	1474	1474	1450	1435	1432	1439	1441	1447	1441	1430	1415	1412	1426	1447	1453	1449	1434	1445	1457	1460	1455	1457	1453	1451	1442	1434	1434	1446	1458	1461	1448	1438	1427	1428	1436	1449	1458	1451	1447	1433	1427	1423	1431	1446	1462	1464	1461	1449	1438	1436	1437	1437	1438	1441	1441	1440	1439	1439	1437	1433	1431	1461	1461	1456	1442	1438	1432	1433	1435	1438	1439	1443	1443	1450	1446	1440	1428	1432	1440	1435	1425	1421	1432	1436	1442	1447	1449	1454	1457	1459	1459	1455	1450	1442	1435	1423	1410	1410	1443	1447	1437	1433	1424	1425	1431	1438	1433	1435	1433	1429	1422	1416	1419	1441	1455	1458	1448	1436	1427	1430	1438	1438	1444	1441	1439	1427	1422	1429	1443	1456	1457	1452	1414	1369	0	0	0	0	0	0	0	0	1082	1075	1082	1084	0	0	1089	1098	1090	1099	1101	1092	1079	1070	1064	1062	1049	1042	1050	1057	1063	1061	1062	1067	1075	1076	1063	1050	1043	1048	1066	1076	1056	1046	1048	1040	1059	1067	1068	1070	1083	1080	1082	1075	1056	1043	1049	1056	1072	1082	1103	1173	1249	1289	1327	1379	1409	1423	1427	1416	1418	1420	1424	1420	1411	1412	1421	1430	1411	1402	1411	1432	1442	1437	1429	1427	1426	1425	1421	1421	1426	1428	1423	1419	1425	1432	1431	1428	1455	1460	1451	1425	1385	1378	1375	1383	1387	1406	1414	1416	1425	1425	1435	1440	1434	1419	1409	1413	1425	1441	1448	1442	1428	1406	1399	1386	1382	1386	1400	1412	1411	1411	1420	1426	1430	1437	1437	1416	1400	1391	1393	1400	1404	1410	1410	1414	1420	1431	1446	1432	1421	1405	1404	1411	1424	1427	1432	1435	1431	1423	1415	1419	1435	1448	1456	1450	1444	1431	1416	1410	1419	1418	1416	1421	1453	1452	1455	1435	1419	1425	1427	1425	1428	1432	1430	1432	1423	1421	1413	1424	1435	1444	1444	1435	1435	1432	1428	1428	1424	1420	1416	1423	1416	1412	1415	1408	1408	1406	1396	1397	1405	1418	1421	1420	1420	1423	1428	1417	1411	1407	1410	1416	1430	1426	1424	1427	1427	1434	0	0	0	0	0	0
0	0	1403	1411	1427	1443	1443	1440	1417	1401	1406	1414	1414	1414	1418	1413	1416	1414	1412	1412	1416	1424	1440	1447	1434	1405	1405	1393	1396	1402	1419	1433	1431	1418	1404	1404	1402	1411	1422	1427	1429	1415	1419	1414	1413	1413	1415	1415	1415	1413	1412	1404	1399	1392	1386	1386	1386	1389	1396	1396	1402	1407	1413	1408	1403	1410	1417	1429	1423	1418	1414	1406	1410	1412	1422	1430	1429	1428	1424	1425	1430	1434	1445	1434	1419	1422	1428	1439	1448	1448	1446	1441	1431	1431	1428	1433	1435	1436	1442	1440	1432	1422	1415	1416	1427	1430	1430	1429	1435	1441	1454	1452	1446	1444	1436	1440	1437	1427	1427	1426	1425	1436	1428	1412	1417	1421	1417	1408	1410	1420	1426	1417	1417	1421	1422	1419	1424	1432	1431	1423	1417	1415	1424	1440	1446	1423	1409	1406	1404	1409	1415	1435	1432	1425	1420	1415	1421	1417	1409	1416	1430	1437	1431	1426	1430	1439	1452	1459	1460	1455	1443	1437	1428	1423	1418	1416	1424	1436	1456	1457	1447	1437	1416	1416	1417	1413	1401	1395	1409	1425	1437	1433	1422	1419	1420	1419	1429	1430	1427	1422	1417	1392	1373	1373	1386	1403	1421	1417	1399	1384	1356	1238	1210	1167	1137	1104	1078	1066	1074	1087	1084	1075	1065	1058	1060	1096	1097	1097	1083	1076	1076	1094	1102	1100	1103	1109	1130	1135	1132	1125	1116	1100	1095	1088	1084	1075	1071	1068	1073	1068	1069	1065	1071	0	0	0	0	1096	1097	1107	1124	0	0	0	0	0	0	0	0	0	1334	1409	1431	1459	1484	1481	1465	1441	1435	1431	1435	1444	1448	1440	1427	1425	1433	1449	1455	1444	1436	1444	1449	1450	1451	1454	1460	1457	1450	1436	1433	1443	1453	1458	1459	1454	1459	1444	1451	1458	1457	1448	1441	1432	1426	1419	1420	1438	1454	1460	1460	1450	1441	1436	1436	1436	1441	1452	1455	1449	1446	1446	1435	1429	1424	1437	1457	1451	1438	1434	1432	1436	1431	1440	1452	1445	1446	1445	1448	1440	1443	1441	1449	1444	1442	1442	1441	1449	1446	1449	1449	1447	1436	1431	1436	1445	1454	1459	1457	1455	1453	1455	1452	1443	1436	1429	1420	1420	1422	1426	1436	1440	1439	1435	1433	1421	1412	1424	1448	1451	1444	1433	1426	1434	1444	1440	1442	1437	1434	1424	1424	1432	1446	1459	1459	1451	1432	1383	1308	0	0	0	0	0	0	0	0	0	0	0	1069	1064	1072	1107	1118	1107	1096	1081	1070	1063	1059	1053	1049	1044	1043	1045	1053	1053	1058	1061	1059	1049	1045	1043	1048	1073	1073	1073	1057	1040	1036	1039	1051	1060	1063	1060	1063	1069	1073	1067	1054	1044	1036	1037	1048	1062	1065	1088	1111	1165	1205	1314	1387	1400	1399	1400	1399	1409	1415	1416	1406	1403	1415	1421	1414	1414	1418	1436	1438	1436	1438	1442	1436	1427	1415	1414	1426	1424	1419	1419	1428	1432	1430	1438	1440	1451	1441	1417	1397	1383	1381	1386	1398	1401	1423	1424	1428	1431	1434	1434	1431	1421	1414	1408	1418	1432	1433	1424	1404	1408	1406	1405	1402	1407	1412	1419	1419	1421	1425	1421	1428	1431	1427	1425	1391	1380	1391	1399	1408	1414	1404	1399	1408	1428	1438	1441	1428	1428	1430	1437	1432	1436	1433	1433	1430	1426	1417	1420	1430	1441	1455	1452	1445	1434	1414	1408	1415	1417	1414	1413	1447	1456	1449	1445	1439	1434	1431	1419	1414	1419	1423	1427	1421	1417	1410	1415	1421	1428	1434	1435	1433	1430	1424	1424	1418	1410	1412	1405	1398	1402	1414	1412	1408	1402	1390	1389	1386	1397	1418	1429	1429	1436	1429	1417	1402	1400	1405	1412	1416	1418	1415	1414	1414	1422	0	0	0	0	0	0
0	0	1415	1419	1437	1437	1437	1429	1401	1393	1391	1419	1425	1425	1429	1418	1415	1415	1410	1410	1411	1424	1439	1453	1439	1423	1412	1412	1405	1410	1421	1425	1424	1409	1392	1392	1388	1395	1406	1415	1411	1413	1415	1423	1429	1435	1435	1432	1423	1418	1417	1403	1396	1385	1371	1377	1380	1381	1389	1389	1402	1410	1411	1409	1406	1417	1428	1429	1419	1411	1413	1416	1415	1425	1427	1420	1420	1425	1425	1425	1431	1441	1444	1443	1435	1429	1433	1443	1448	1449	1449	1438	1428	1420	1422	1426	1438	1449	1450	1439	1431	1424	1424	1435	1460	1466	1449	1435	1436	1450	1458	1447	1437	1418	1427	1432	1426	1422	1419	1419	1428	1425	1419	1409	1412	1415	1412	1408	1410	1411	1418	1418	1414	1410	1409	1412	1420	1422	1419	1421	1413	1415	1420	1425	1441	1437	1421	1411	1411	1399	1409	1437	1433	1427	1418	1421	1432	1432	1414	1423	1430	1441	1443	1437	1435	1439	1442	1449	1456	1453	1443	1435	1435	1427	1418	1417	1414	1425	1442	1454	1459	1457	1437	1429	1421	1419	1412	1414	1423	1433	1439	1433	1417	1410	1409	1413	1420	1422	1431	1432	1421	1397	1375	1365	1370	1376	1394	1361	1305	1258	1118	1100	1097	1111	1100	1090	1069	1051	1052	1062	1068	1060	1049	1048	1051	1045	1038	1032	1050	1047	1058	1081	1083	1081	1082	1100	1112	1121	1121	1120	1112	1106	1104	1098	1095	1087	1078	1083	1078	1075	1076	1085	1082	0	0	0	0	0	1085	1095	0	0	0	0	0	0	0	0	0	1369	1429	1423	1439	1459	1471	1471	1457	1447	1432	1428	1422	1433	1446	1445	1441	1434	1442	1447	1452	1442	1438	1442	1451	1447	1451	1452	1458	1454	1447	1434	1433	1433	1441	1447	1449	1458	1461	1464	1463	1461	1444	1445	1437	1431	1424	1415	1412	1423	1440	1452	1458	1448	1443	1439	1438	1436	1440	1439	1448	1455	1452	1452	1449	1436	1424	1428	1437	1438	1433	1431	1430	1431	1430	1442	1457	1468	1449	1446	1449	1447	1447	1455	1455	1452	1447	1441	1441	1449	1454	1454	1453	1440	1428	1416	1423	1421	1439	1450	1450	1445	1443	1443	1446	1448	1444	1422	1421	1412	1416	1427	1437	1444	1446	1449	1439	1430	1426	1421	1441	1439	1418	1419	1432	1442	1445	1444	1439	1422	1412	1409	1416	1428	1441	1459	1457	1438	1427	1406	1370	0	0	0	0	0	0	0	0	0	0	0	0	1043	1084	1106	1109	1096	1084	1073	1067	1053	1044	1042	1037	1043	1037	1037	1038	1046	1048	1049	1038	1035	1029	1039	1057	1086	1091	1086	1069	1066	1057	1055	1054	1055	1046	1044	1046	1058	1067	1071	1060	1039	1024	1025	1032	1045	1041	1051	1067	1091	1123	1163	1262	1357	1364	1371	1376	1388	1396	1402	1394	1396	1410	1417	1426	1433	1432	1453	1458	1454	1458	1461	1456	1439	1421	1434	1434	1423	1424	1434	1442	1446	1443	1431	1438	1426	1417	1409	1416	1411	1412	1403	1406	1419	1436	1443	1444	1435	1428	1421	1420	1417	1414	1402	1418	1426	1427	1412	1404	1408	1412	1423	1422	1430	1431	1431	1433	1433	1436	1429	1416	1418	1412	1406	1402	1389	1399	1418	1428	1425	1407	1399	1408	1431	1443	1447	1439	1439	1448	1451	1445	1436	1428	1428	1429	1431	1424	1428	1432	1439	1438	1440	1436	1434	1428	1428	1414	1412	1404	1403	1440	1442	1436	1440	1445	1444	1434	1416	1408	1411	1416	1429	1428	1411	1417	1411	1413	1414	1420	1420	1425	1425	1425	1421	1411	1405	1397	1390	1389	1403	1413	1413	1406	1394	1388	1385	1385	1395	1406	1431	1431	1437	1430	1418	1408	1404	1402	1403	1406	1403	1405	1405	1401	1409	0	0	0	0	0	0
0	0	1415	1422	1436	1427	1414	1414	1394	1379	1386	1404	1425	1425	1427	1425	1414	1406	1396	1396	1401	1417	1436	1447	1442	1438	1428	1428	1429	1428	1429	1419	1413	1401	1393	1382	1382	1381	1391	1403	1406	1407	1410	1424	1437	1433	1433	1428	1418	1413	1412	1408	1401	1383	1375	1364	1372	1390	1411	1411	1421	1426	1427	1419	1412	1419	1438	1437	1430	1412	1410	1423	1437	1440	1439	1432	1420	1424	1431	1438	1438	1439	1451	1451	1443	1432	1435	1441	1440	1441	1435	1423	1414	1423	1433	1437	1442	1444	1433	1428	1421	1419	1426	1438	1453	1452	1421	1413	1422	1438	1446	1440	1424	1410	1412	1430	1424	1425	1428	1424	1430	1425	1414	1415	1416	1424	1421	1415	1414	1413	1410	1413	1417	1413	1413	1417	1417	1412	1404	1409	1414	1418	1417	1429	1444	1445	1438	1427	1423	1434	1450	1464	1453	1438	1423	1429	1435	1452	1456	1439	1444	1453	1455	1453	1442	1439	1434	1433	1430	1427	1437	1440	1449	1438	1426	1412	1411	1420	1433	1452	1464	1454	1447	1433	1413	1402	1408	1429	1440	1442	1442	1426	1420	1407	1410	1419	1417	1411	1422	1432	1421	1397	1376	1352	1333	1330	1286	1141	1105	1092	1087	1088	1086	1085	1083	1072	1054	1043	1048	1056	1055	1045	1047	1046	1049	1046	1031	1026	1028	1036	1047	1061	1071	1065	1068	1078	1099	1109	1113	1109	1104	1107	1109	1100	1097	1090	1095	1099	1102	1102	1110	0	0	0	0	0	0	0	0	0	0	0	0	0	0	0	0	0	1334	1427	1436	1432	1442	1453	1458	1452	1445	1444	1441	1432	1429	1436	1445	1441	1439	1440	1440	1450	1442	1431	1427	1443	1457	1458	1451	1448	1448	1443	1437	1435	1430	1426	1429	1438	1451	1445	1444	1440	1441	1444	1432	1423	1427	1427	1433	1425	1420	1422	1432	1446	1451	1450	1439	1439	1438	1434	1423	1435	1447	1457	1451	1450	1448	1444	1431	1422	1429	1431	1428	1430	1429	1434	1440	1454	1463	1478	1470	1469	1479	1485	1437	1433	1444	1455	1451	1446	1440	1445	1451	1455	1442	1390	1395	1415	1413	1423	1436	1434	1431	1420	1416	1427	1438	1457	1461	1434	1415	1413	1418	1426	1434	1448	1453	1448	1444	1432	1419	1421	1429	1413	1420	1418	1445	1457	1447	1440	1431	1415	1393	1382	1378	1393	1407	1428	1446	1441	1435	1423	1395	1371	0	0	0	0	0	0	0	0	0	0	0	1028	1068	1086	1087	1073	1068	1061	1049	1032	1020	1022	1032	1035	1027	1014	1017	1019	1027	1030	1027	1025	1024	1031	1056	1088	1094	1073	1067	1062	1060	1063	1066	1056	1043	1040	1051	1065	1078	1077	1062	1036	1011	1014	1027	1039	1034	1040	1053	1066	1089	1117	1144	1204	1267	1307	1345	1367	1377	1377	1385	1388	1401	1414	1426	1437	1447	1460	1463	1468	1469	1467	1467	1445	1439	1443	1435	1424	1434	1453	1465	1462	1451	1437	1423	1415	1411	1415	1426	1432	1431	1423	1434	1446	1457	1464	1462	1444	1426	1419	1414	1406	1404	1402	1405	1426	1424	1420	1402	1406	1408	1424	1430	1442	1432	1425	1422	1421	1417	1407	1387	1382	1387	1390	1396	1417	1437	1459	1458	1436	1417	1426	1437	1453	1456	1457	1448	1438	1437	1442	1444	1431	1428	1428	1434	1440	1434	1432	1434	1429	1430	1428	1427	1432	1436	1432	1426	1404	1393	1403	1437	1437	1436	1436	1443	1447	1435	1414	1404	1408	1423	1433	1431	1426	1417	1416	1411	1408	1412	1409	1422	1424	1424	1421	1406	1395	1392	1379	1382	1404	1417	1414	1405	1398	1390	1386	1392	1401	1415	1415	1428	1432	1432	1430	1433	1419	1407	1403	1395	1393	1383	1393	1393	1396	0	0	0	0	0	0
0	0	1410	1418	1424	1413	1403	1403	1391	1380	1381	1385	1407	1407	1419	1415	1408	1389	1385	1396	1396	1414	1435	1440	1439	1440	1441	1441	1440	1432	1422	1410	1405	1396	1394	1389	1389	1392	1417	1416	1404	1398	1413	1425	1429	1431	1431	1422	1408	1402	1405	1411	1407	1405	1374	1362	1372	1405	1424	1431	1431	1437	1430	1429	1422	1432	1441	1439	1429	1426	1415	1424	1436	1446	1446	1433	1433	1431	1440	1442	1441	1442	1438	1435	1438	1438	1439	1441	1437	1448	1434	1415	1414	1424	1447	1449	1440	1424	1424	1421	1423	1423	1445	1453	1454	1441	1414	1405	1415	1418	1425	1420	1415	1408	1419	1422	1430	1441	1449	1446	1430	1429	1424	1430	1437	1438	1425	1419	1412	1411	1419	1424	1435	1428	1419	1417	1407	1403	1397	1392	1403	1406	1418	1422	1438	1447	1440	1425	1430	1458	1471	1472	1447	1434	1424	1428	1432	1448	1459	1463	1480	1480	1474	1457	1445	1427	1417	1414	1404	1403	1419	1435	1456	1444	1434	1415	1410	1419	1433	1446	1459	1462	1449	1432	1412	1397	1411	1439	1462	1473	1455	1432	1416	1400	1413	1413	1400	1392	1397	1401	1378	1344	1333	1322	1235	1150	1080	1077	1074	1069	1066	1070	1069	1064	1069	1059	1047	1044	1049	1054	1052	1044	1045	1053	1044	1038	1035	1030	1036	1039	1043	1050	1068	1065	1063	1072	1088	1096	1098	1093	1093	1092	1085	1084	1088	1092	1110	1121	1124	1124	1122	0	0	0	0	0	0	0	0	0	0	0	0	0	0	0	0	1314	1421	1448	1450	1445	1444	1452	1444	1437	1431	1438	1449	1446	1448	1449	1457	1453	1440	1429	1432	1441	1441	1432	1425	1424	1454	1457	1449	1430	1424	1439	1436	1427	1428	1424	1422	1433	1436	1434	1425	1418	1413	1426	1431	1426	1424	1428	1434	1443	1442	1444	1444	1445	1452	1447	1439	1432	1435	1432	1419	1426	1451	1449	1446	1444	1448	1445	1438	1422	1422	1428	1428	1426	1422	1427	1436	1447	1462	1465	1451	1462	1469	1431	1424	1434	1449	1484	1462	1443	1441	1441	1464	1472	1412	1401	1425	1426	1440	1445	1445	1443	1410	1425	1415	1430	1443	1457	1463	1461	1424	1418	1418	1424	1434	1444	1448	1449	1435	1429	1435	1439	1437	1420	1422	1411	1401	1394	1419	1438	1432	1426	1414	1399	1394	1409	1422	1423	1411	1442	1440	1435	1422	1388	1395	0	0	0	0	0	0	0	0	0	0	1035	1059	1074	1074	1061	1058	1044	1031	1013	1002	1011	1020	1021	1003	986	984	995	1002	1007	1011	1019	1022	1017	1056	1027	1025	1027	1038	1041	1047	1061	1064	1055	1042	1038	1052	1068	1078	1080	1058	1026	1002	1018	1031	1034	1037	1035	1035	1037	1054	1077	1103	1126	1149	1168	1207	1276	1348	1357	1368	1381	1398	1417	1425	1435	1452	1460	1463	1463	1456	1457	1456	1450	1447	1444	1434	1424	1434	1458	1472	1474	1455	1435	1413	1413	1409	1414	1413	1425	1436	1437	1454	1462	1465	1458	1447	1433	1424	1418	1419	1417	1415	1415	1427	1433	1432	1424	1382	1384	1395	1408	1420	1435	1441	1443	1429	1423	1417	1396	1383	1373	1380	1382	1392	1417	1448	1463	1461	1436	1416	1429	1449	1463	1460	1449	1445	1437	1436	1442	1455	1434	1422	1429	1432	1436	1434	1420	1424	1420	1419	1420	1417	1426	1438	1422	1413	1397	1400	1424	1437	1440	1437	1439	1439	1439	1429	1416	1404	1411	1427	1436	1437	1425	1411	1402	1410	1412	1417	1419	1425	1423	1423	1420	1407	1396	1391	1389	1387	1403	1415	1411	1401	1397	1394	1395	1399	1414	1417	1417	1423	1426	1437	1451	1466	1453	1427	1412	1397	1391	1380	1380	1378	1389	0	0	0	0	0	0
0	0	1402	1405	1410	1400	1398	1398	1398	1392	1387	1394	1405	1405	1418	1403	1389	1374	1372	1389	1389	1414	1432	1438	1435	1439	1439	1439	1434	1418	1405	1398	1397	1395	1407	1405	1405	1413	1422	1419	1400	1395	1408	1426	1430	1423	1423	1422	1419	1407	1411	1408	1413	1406	1379	1372	1391	1419	1433	1435	1435	1428	1417	1415	1424	1432	1439	1435	1426	1419	1411	1418	1429	1439	1441	1435	1433	1434	1442	1449	1439	1427	1420	1420	1424	1431	1443	1444	1445	1450	1440	1423	1409	1412	1434	1436	1431	1416	1417	1423	1428	1441	1450	1468	1468	1454	1427	1411	1407	1413	1414	1409	1405	1401	1411	1423	1447	1465	1473	1462	1447	1435	1437	1457	1450	1443	1427	1421	1418	1417	1431	1445	1456	1459	1441	1422	1411	1402	1391	1389	1408	1402	1410	1408	1430	1440	1446	1446	1438	1460	1468	1467	1443	1424	1418	1415	1420	1432	1436	1435	1436	1443	1444	1436	1433	1425	1419	1415	1397	1397	1414	1443	1460	1453	1438	1427	1417	1414	1424	1433	1447	1460	1466	1427	1406	1399	1421	1451	1472	1480	1466	1443	1423	1414	1418	1409	1383	1368	1351	1329	1297	1259	1208	1088	1054	1043	1042	1044	1048	1051	1045	1039	1038	1041	1054	1045	1039	1035	1034	1031	1032	1037	1043	1046	1043	1042	1039	1040	1038	1035	1029	1034	1057	1063	1065	1070	1078	1082	1077	1074	1070	1065	1065	1057	1064	1083	1110	1119	1125	1131	1124	0	1077	1061	0	0	0	0	0	0	0	0	0	0	0	0	1330	1412	1441	1458	1462	1463	1453	1441	1445	1443	1449	1459	1466	1460	1466	1477	1479	1466	1443	1427	1422	1427	1432	1427	1423	1423	1453	1453	1444	1434	1437	1439	1444	1442	1430	1433	1426	1423	1426	1420	1417	1408	1416	1430	1433	1444	1436	1428	1426	1431	1436	1441	1446	1452	1450	1434	1421	1416	1421	1430	1438	1439	1444	1447	1446	1453	1455	1451	1440	1424	1414	1420	1424	1423	1421	1424	1426	1441	1448	1442	1443	1452	1461	1426	1430	1447	1456	1481	1487	1453	1450	1468	1490	1453	1412	1403	1404	1448	1468	1471	1453	1418	1416	1420	1432	1445	1456	1464	1473	1442	1428	1421	1417	1424	1431	1437	1446	1447	1438	1450	1455	1442	1444	1446	1451	1445	1396	1385	1389	1429	1450	1457	1450	1430	1423	1422	1425	1403	1399	1385	1440	1439	1426	1407	1385	0	0	0	0	0	0	0	0	0	0	1038	1059	1063	1058	1055	1046	1033	1011	999	996	997	999	998	986	976	972	980	988	994	1004	1012	1008	997	1010	1016	1014	1011	1010	1007	1026	1043	1044	1033	1019	1014	1027	1053	1067	1070	1048	1015	997	1016	1029	1043	1044	1033	1019	1013	1029	1048	1071	1091	1099	1112	1130	1159	1225	1310	1342	1362	1380	1401	1414	1429	1441	1453	1452	1450	1434	1435	1436	1437	1445	1441	1430	1430	1435	1451	1467	1473	1457	1432	1423	1415	1417	1413	1414	1414	1419	1454	1466	1466	1456	1445	1428	1394	1399	1421	1436	1434	1425	1432	1442	1439	1436	1435	1420	1428	1416	1405	1417	1431	1443	1446	1442	1431	1419	1410	1400	1386	1384	1391	1396	1413	1445	1466	1465	1436	1408	1424	1443	1456	1456	1451	1437	1433	1439	1448	1452	1424	1418	1424	1429	1427	1427	1422	1418	1422	1424	1414	1401	1423	1401	1396	1404	1406	1408	1432	1437	1430	1425	1421	1428	1427	1422	1414	1413	1414	1424	1428	1422	1414	1401	1397	1403	1411	1427	1435	1431	1431	1428	1417	1405	1404	1405	1408	1405	1411	1419	1422	1402	1395	1386	1395	1411	1423	1424	1424	1427	1424	1446	1459	1463	1452	1436	1427	1411	1399	1388	1388	1376	1384	0	0	0	0	0	0
0	0	1395	1392	1396	1393	1394	1394	1400	1407	1404	1414	1421	1421	1424	1397	1370	1375	1397	1418	1418	1429	1438	1439	1426	1430	1429	1423	1423	1406	1392	1385	1390	1402	1408	1415	1415	1406	1410	1410	1404	1401	1407	1427	1432	1424	1422	1422	1414	1414	1416	1413	1407	1402	1392	1394	1410	1421	1430	1425	1425	1410	1402	1400	1414	1424	1428	1425	1418	1412	1401	1409	1424	1429	1432	1432	1428	1430	1444	1446	1436	1425	1418	1421	1420	1425	1436	1434	1445	1451	1441	1420	1405	1401	1415	1419	1417	1405	1407	1415	1435	1433	1446	1457	1476	1473	1461	1432	1412	1406	1403	1404	1394	1390	1404	1422	1448	1477	1479	1471	1456	1450	1456	1458	1451	1439	1421	1421	1419	1425	1438	1461	1478	1471	1452	1436	1413	1412	1417	1421	1412	1406	1399	1393	1412	1433	1440	1444	1437	1447	1449	1451	1426	1414	1407	1397	1404	1408	1410	1404	1410	1422	1426	1427	1423	1423	1433	1425	1413	1409	1426	1453	1467	1460	1448	1435	1423	1413	1411	1417	1435	1454	1459	1433	1415	1420	1435	1460	1466	1474	1468	1456	1434	1419	1414	1393	1371	1337	1271	1212	1165	1103	1068	1049	1034	1023	1017	1016	1026	1029	1022	1016	1007	1010	1024	1022	1020	1015	1010	1004	1004	1011	1025	1032	1032	1034	1038	1038	1034	1021	1014	1020	1026	1046	1047	1043	1064	1060	1051	1049	1048	1048	1044	1037	1049	1060	1074	1090	1099	1106	1096	1077	1055	1050	0	0	0	0	0	0	0	0	0	0	0	1318	1406	1414	1423	1450	1469	1467	1456	1445	1435	1449	1462	1474	1478	1472	1480	1489	1488	1473	1463	1439	1426	1423	1415	1430	1438	1444	1444	1446	1442	1441	1444	1453	1467	1466	1458	1449	1439	1432	1423	1414	1407	1415	1425	1435	1445	1443	1441	1427	1416	1418	1426	1437	1459	1473	1459	1430	1418	1410	1416	1427	1433	1434	1435	1439	1448	1458	1454	1445	1438	1436	1429	1426	1429	1430	1423	1419	1415	1417	1437	1428	1427	1445	1440	1437	1438	1438	1451	1476	1480	1453	1452	1457	1471	1470	1407	1403	1411	1451	1470	1472	1461	1422	1419	1430	1434	1439	1437	1438	1439	1439	1436	1430	1420	1424	1423	1423	1430	1446	1445	1462	1471	1457	1456	1459	1440	1437	1437	1401	1408	1433	1458	1475	1460	1426	1415	1402	1407	1390	1376	1372	1426	1423	1409	1402	1416	1403	0	0	0	0	0	0	0	0	0	0	1048	1044	1037	1026	1027	1021	1004	997	993	991	993	990	980	977	980	986	987	985	991	975	980	984	1005	1012	1009	1002	995	994	1004	1023	1024	1014	997	984	987	1011	1039	1042	1028	1008	995	1007	1021	1028	1033	1018	1004	990	1002	1018	1042	1053	1057	1064	1076	1101	1110	1151	1232	1269	1312	1351	1380	1402	1426	1441	1446	1438	1420	1418	1420	1437	1442	1441	1438	1438	1439	1442	1457	1464	1456	1435	1426	1423	1414	1409	1410	1407	1419	1449	1469	1466	1449	1425	1396	1397	1411	1437	1441	1431	1429	1434	1443	1438	1444	1446	1447	1433	1430	1425	1421	1429	1439	1441	1437	1424	1415	1406	1407	1406	1401	1405	1409	1414	1429	1443	1446	1417	1402	1414	1429	1437	1429	1425	1421	1433	1439	1441	1430	1410	1411	1420	1425	1429	1425	1423	1422	1422	1422	1418	1422	1427	1428	1427	1416	1428	1430	1434	1438	1426	1420	1420	1417	1427	1431	1429	1421	1421	1413	1408	1404	1405	1400	1397	1400	1416	1428	1435	1433	1433	1428	1413	1408	1411	1420	1425	1418	1415	1422	1419	1410	1392	1392	1403	1413	1421	1429	1429	1434	1435	1444	1447	1442	1441	1435	1429	1417	1407	1407	1392	1390	1384	0	0	0	0	0	0
0	1401	1401	1394	1389	1399	1401	1401	1407	1414	1417	1424	1439	1431	1431	0	1371	1374	1398	1416	1416	1427	1448	1434	1429	1424	1422	1415	1415	1403	1399	1390	1388	1392	1395	1404	1406	1390	1395	1405	1407	1402	1413	1423	1423	1421	1421	1421	1421	1423	1422	1414	1405	1398	1402	1410	1419	1428	1433	1421	1408	1408	1400	1394	1403	1408	1415	1417	1417	1406	1396	1407	1418	1426	1431	1431	1429	1436	1441	1438	1426	1427	1430	1432	1432	1439	1437	1435	1444	1444	1437	1424	1406	1396	1400	1408	1407	1411	1406	1418	1418	1423	1420	1436	1462	1468	1462	1445	1424	1405	1402	1400	1393	1384	1405	1427	1452	1466	1455	1450	1443	1444	1446	1453	1448	1435	1431	1427	1426	1430	1438	1450	1458	1464	1450	1441	1423	1424	1432	1441	1431	1406	1385	1390	1406	1428	1433	1435	1423	1426	1436	1439	1425	1406	1393	1391	1395	1399	1396	1396	1403	1412	1420	1422	1422	1426	1433	1428	1427	1431	1451	1466	1475	1466	1452	1443	1437	1426	1415	1412	1428	1443	1456	1440	1433	1437	1445	1458	1460	1457	1455	1448	1443	1414	1373	1333	1295	1230	1139	1087	1075	1052	1031	1017	1013	1003	993	1000	1012	1016	1006	997	989	983	986	993	995	997	988	981	978	988	1006	1018	1023	1026	1032	1038	1029	1019	1008	1013	1017	1024	1023	1016	1012	1013	1032	1033	1038	1041	1041	1043	1041	1042	1039	1043	1059	1062	1063	1048	0	0	0	0	0	0	0	0	0	0	0	0	1290	1395	1413	1412	1414	1435	1457	1458	1448	1435	1442	1442	1458	1460	1470	1468	1473	1481	1490	1479	1470	1449	1436	1432	1438	1458	1464	1457	1443	1432	1437	1446	1449	1461	1472	1472	1468	1455	1446	1444	1437	1424	1417	1415	1430	1441	1450	1448	1446	1438	1426	1421	1425	1440	1464	1480	1467	1450	1438	1442	1444	1440	1434	1432	1429	1429	1438	1444	1441	1432	1436	1439	1437	1435	1439	1442	1427	1421	1417	1420	1439	1416	1413	1449	1438	1439	1440	1461	1449	1460	1458	1454	1457	1459	1453	1445	1454	1410	1409	1441	1465	1461	1447	1414	1410	1427	1432	1440	1435	1431	1434	1435	1435	1430	1426	1424	1415	1419	1433	1441	1450	1461	1482	1487	1476	1438	1432	1427	1434	1409	1415	1434	1455	1480	1461	1420	1413	1408	1400	1364	1368	1368	1415	1412	1399	1398	1406	1451	1446	0	0	0	0	0	0	0	0	0	0	1017	987	972	978	977	989	983	983	986	991	997	998	996	1001	1000	992	966	968	972	980	984	1000	1008	993	989	982	986	1004	1010	1011	1003	981	963	963	976	992	1006	1008	995	983	993	1009	1012	1014	1013	991	981	985	995	1016	1025	1024	1020	1030	1037	1050	1081	1125	1179	1220	1266	1307	1349	1381	1400	1411	1405	1410	1412	1420	1435	1455	1454	1452	1451	1445	1432	1439	1446	1451	1443	1433	1420	1411	1407	1394	1406	1426	1444	1463	1467	1448	1425	1411	1417	1426	1437	1430	1416	1419	1432	1431	1438	1433	1441	1438	1431	1425	1431	1425	1428	1437	1437	1425	1402	1394	1399	1406	1402	1412	1409	1414	1410	1416	1432	1423	1413	1410	1404	1416	1416	1422	1412	1412	1422	1427	1427	1404	1400	1404	1417	1421	1421	1424	1424	1423	1422	1422	1424	1424	1417	1434	1427	1431	1425	1432	1435	1430	1419	1419	1423	1436	1449	1456	1451	1435	1411	1396	1393	1396	1399	1417	1422	1417	1421	1426	1435	1435	1436	1430	1425	1417	1422	1432	1435	1424	1419	1416	1408	1404	1388	1389	1399	1410	1423	1423	1434	1444	1439	1430	1424	1425	1424	1429	1425	1426	1409	1409	1398	1392	1385	0	0	0	0	0	0
0	1413	1413	1407	1402	1412	1408	1414	1414	1411	1411	1428	1434	1411	1411	0	1375	1385	1398	1406	1409	1409	1411	1432	1435	1431	1425	1425	1425	1406	1402	1387	1386	1389	1394	1394	1385	1385	1390	1405	1407	1408	1409	1415	1423	1425	1422	1422	1423	1417	1415	1406	1399	1399	1402	1417	1425	1429	1440	1431	1424	1424	1412	1404	1396	1393	1399	1405	1424	1418	1415	1418	1422	1429	1439	1442	1442	1446	1432	1420	1416	1425	1426	1446	1445	1437	1429	1430	1438	1434	1440	1429	1413	1400	1399	1409	1425	1425	1420	1423	1420	1413	1408	1418	1436	1440	1443	1439	1421	1406	1395	1393	1385	1387	1402	1425	1439	1445	1452	1446	1437	1441	1443	1444	1444	1446	1439	1435	1425	1423	1432	1428	1432	1444	1441	1435	1435	1440	1450	1453	1441	1421	1401	1404	1414	1429	1437	1427	1408	1404	1415	1428	1430	1405	1388	1388	1387	1396	1396	1392	1399	1409	1420	1432	1455	1461	1443	1415	1417	1430	1449	1459	1448	1434	1439	1444	1447	1444	1439	1430	1435	1444	1444	1446	1446	1446	1448	1447	1444	1434	1430	1425	1397	1340	1299	1247	1186	1105	1063	1030	1025	1012	998	990	989	983	981	989	999	1004	994	981	969	965	963	971	974	977	977	978	981	988	1005	1012	1016	1027	1029	1039	1026	1019	1019	1014	1010	1015	1016	1013	1009	1008	1013	1022	1030	1039	1046	1053	1052	1042	1025	1020	1026	1034	1036	0	0	0	0	0	0	0	0	0	0	0	0	1276	1393	1421	1417	1414	1411	1421	1433	1445	1438	1432	1432	1433	1441	1451	1455	1457	1456	1465	1474	1466	1457	1448	1442	1444	1454	1463	1469	1454	1428	1426	1428	1437	1441	1458	1464	1457	1453	1445	1444	1443	1452	1436	1421	1416	1422	1433	1431	1441	1441	1434	1438	1437	1444	1454	1467	1481	1475	1460	1455	1453	1450	1436	1435	1428	1427	1425	1427	1427	1427	1429	1429	1431	1434	1437	1440	1448	1436	1432	1432	1446	1446	1400	1398	1423	1463	1467	1455	1431	1425	1436	1442	1459	1464	1454	1442	1446	1446	1422	1419	1440	1463	1460	1422	1395	1394	1427	1437	1444	1439	1432	1411	1426	1433	1428	1428	1432	1425	1428	1432	1432	1438	1442	1450	1453	1439	1433	1435	1417	1401	1408	1418	1436	1461	1476	1464	1424	1422	1413	1410	1369	1379	1385	1422	1410	1400	1398	1410	1434	1467	0	0	0	0	0	0	0	0	0	0	0	956	936	940	952	954	958	966	989	1004	1012	1012	1011	1008	988	971	971	975	983	986	982	987	996	983	974	972	988	999	1004	1000	993	971	952	951	955	959	969	973	968	962	973	987	997	1006	1005	990	985	979	984	995	1000	996	992	988	995	1021	1043	1062	1090	1133	1161	1207	1253	1306	1346	1369	1383	1392	1403	1427	1444	1459	1464	1466	1457	1446	1427	1428	1439	1452	1447	1434	1404	1389	1386	1382	1399	1429	1449	1466	1460	1442	1425	1421	1427	1437	1424	1410	1402	1407	1422	1433	1431	1423	1434	1423	1418	1428	1432	1435	1436	1435	1435	1411	1392	1381	1385	1404	1406	1411	1413	1417	1413	1418	1414	1407	1417	1417	1396	1395	1408	1407	1412	1412	1409	1410	1412	1401	1398	1403	1405	1420	1420	1422	1428	1420	1420	1427	1420	1409	1404	1409	1412	1422	1424	1418	1429	1427	1421	1421	1426	1428	1446	1449	1443	1422	1408	1389	1373	1388	1403	1406	1415	1419	1417	1421	1437	1437	1438	1430	1430	1435	1442	1443	1446	1431	1412	1403	1401	1400	1384	1391	1406	1412	1419	1419	1426	1437	1434	1421	1414	1412	1419	1422	1424	1429	1416	1416	1408	1403	1402	0	0	0	0	0	0
0	1411	1411	1422	1415	1419	1412	1408	1408	1403	1393	1409	1418	1402	1402	1390	1385	1384	1387	1391	1393	1393	1407	1435	1442	1437	1432	1425	1425	1410	1390	1389	1387	1391	1388	1392	1388	1388	1392	1396	1403	1401	1403	1418	1427	1422	1425	1421	1421	1410	1401	1396	1395	1401	1408	1415	1425	1437	1447	1453	1450	1435	1435	1422	1403	1391	1391	1404	1429	1438	1433	1429	1433	1436	1440	1449	1446	1440	1419	1408	1395	1404	1417	1430	1432	1424	1424	1421	1428	1435	1436	1433	1425	1407	1404	1418	1437	1443	1438	1431	1417	1406	1411	1420	1432	1436	1432	1429	1420	1403	1398	1393	1387	1386	1409	1422	1429	1437	1443	1443	1443	1443	1447	1452	1452	1457	1457	1450	1444	1447	1439	1426	1425	1429	1436	1439	1438	1442	1451	1462	1448	1441	1424	1420	1425	1432	1433	1426	1411	1395	1404	1416	1425	1407	1388	1394	1407	1412	1407	1405	1406	1417	1425	1443	1459	1456	1443	1420	1419	1432	1444	1443	1435	1423	1430	1437	1440	1430	1413	1428	1438	1440	1441	1446	1447	1440	1431	1421	1410	1395	1396	1338	1282	1228	1158	1124	1060	1024	1005	991	989	980	973	966	971	969	967	974	985	984	976	966	955	955	960	958	958	962	974	988	999	1003	1007	1011	1020	1031	1042	1042	1030	1028	1023	1017	1010	1007	1022	1021	1009	1005	1018	1037	1040	1043	1052	1069	1069	1054	1029	1023	0	0	0	0	0	0	0	0	0	0	0	0	0	0	1306	1411	1419	1415	1418	1418	1417	1415	1424	1426	1430	1421	1425	1418	1426	1435	1438	1437	1441	1448	1455	1458	1446	1433	1440	1444	1453	1456	1454	1437	1423	1418	1423	1424	1431	1437	1445	1444	1435	1428	1425	1436	1446	1448	1440	1429	1422	1419	1421	1424	1433	1438	1442	1452	1467	1464	1474	1483	1476	1475	1473	1459	1453	1441	1432	1433	1430	1431	1430	1431	1432	1426	1429	1428	1430	1424	1430	1451	1446	1447	1456	1470	1453	1392	1391	1399	1419	1427	1419	1415	1415	1420	1428	1465	1460	1458	1441	1444	1444	1430	1434	1459	1487	1482	1433	1380	1382	1423	1437	1440	1437	1418	1415	1407	1426	1435	1441	1437	1441	1432	1424	1422	1423	1433	1442	1454	1447	1435	1434	1429	1395	1390	1405	1434	1449	1470	1475	1450	1424	1425	1394	1396	1391	1404	1436	1419	1408	1407	1418	1424	1430	1409	0	0	0	0	0	0	0	0	0	0	0	933	933	937	942	943	949	970	996	1018	1007	1013	996	980	972	976	981	989	989	984	988	993	980	972	971	982	989	993	986	979	969	949	949	943	936	941	948	942	947	958	978	994	1001	1007	997	988	983	979	983	986	991	985	976	979	998	1013	1019	1033	1047	1075	1113	1156	1205	1251	1302	1333	1358	1388	1417	1445	1451	1455	1452	1456	1447	1439	1447	1468	1478	1474	1450	1423	1398	1382	1380	1390	1430	1449	1464	1465	1456	1440	1432	1440	1437	1424	1405	1401	1404	1421	1431	1423	1419	1429	1417	1412	1423	1427	1432	1441	1439	1430	1405	1384	1375	1386	1406	1417	1418	1421	1412	1412	1406	1412	1413	1417	1420	1384	1382	1395	1411	1408	1406	1413	1420	1413	1402	1401	1405	1407	1420	1435	1431	1429	1428	1431	1432	1420	1402	1388	1392	1404	1414	1422	1431	1431	1428	1421	1423	1416	1413	1410	1419	1428	1420	1408	1399	1389	1396	1402	1411	1413	1417	1421	1422	1422	1426	1423	1423	1435	1447	1446	1445	1437	1416	1399	1397	1398	1392	1396	1406	1415	1419	1417	1417	1415	1424	1419	1418	1416	1416	1420	1421	1425	1424	1427	1427	1421	1408	1405	0	0	0	0	0	0
0	1404	1404	1425	1429	1417	1402	1396	1396	1377	1378	1382	1414	1420	1420	1418	1411	1396	1387	1385	1389	1389	1412	1437	1448	1446	1429	1419	1409	1409	1390	1390	1389	1393	1403	1416	1402	1402	1390	1388	1390	1397	1403	1412	1420	1429	1425	1415	1415	1405	1397	1394	1399	1404	1406	1401	1419	1436	1460	1470	1471	1449	1449	1433	1419	1402	1400	1410	1424	1433	1439	1436	1433	1431	1440	1441	1442	1430	1404	1397	1398	1395	1409	1416	1421	1416	1415	1411	1411	1417	1437	1442	1434	1418	1404	1412	1429	1439	1442	1428	1416	1407	1424	1442	1452	1441	1430	1420	1423	1412	1419	1404	1389	1398	1414	1434	1442	1452	1461	1460	1458	1455	1457	1464	1462	1466	1467	1463	1463	1465	1448	1441	1426	1429	1428	1433	1431	1435	1450	1460	1453	1448	1434	1421	1416	1420	1428	1422	1413	1402	1405	1419	1431	1415	1410	1412	1429	1441	1436	1424	1419	1418	1423	1440	1450	1454	1445	1428	1429	1437	1447	1436	1429	1423	1424	1431	1431	1417	1406	1412	1429	1443	1443	1446	1431	1420	1390	1379	1353	1318	1257	1184	1149	1108	1057	1015	995	979	970	961	966	961	946	940	941	946	954	962	972	974	965	962	959	960	964	953	951	959	977	992	1004	999	998	1006	1019	1040	1046	1044	1033	1029	1014	1017	1009	1010	1035	1030	1020	1020	1043	1047	1044	1042	1040	1042	1073	1054	1044	0	0	0	0	0	0	0	0	0	0	0	0	0	0	1336	1446	1432	1420	1412	1411	1408	1406	1413	1417	1413	1424	1419	1418	1414	1421	1428	1429	1421	1426	1435	1443	1451	1442	1431	1435	1444	1447	1447	1442	1430	1421	1420	1420	1416	1419	1423	1441	1448	1439	1422	1419	1425	1437	1448	1444	1440	1428	1424	1420	1426	1427	1426	1436	1445	1454	1467	1479	1490	1488	1483	1469	1458	1448	1440	1432	1437	1439	1451	1462	1465	1454	1445	1445	1433	1423	1417	1421	1439	1459	1462	1474	1482	1459	1404	1401	1406	1418	1418	1413	1409	1412	1413	1416	1432	1456	1452	1449	1453	1442	1440	1442	1474	1499	1491	1470	1424	1422	1406	1430	1418	1426	1404	1388	1391	1414	1434	1444	1451	1455	1429	1411	1404	1410	1426	1439	1447	1451	1441	1437	1437	1424	1414	1435	1428	1430	1436	1436	1438	1440	1446	1436	1402	1396	1406	1436	1443	1422	1418	1414	1418	1399	1396	1367	0	0	0	0	0	0	0	0	0	0	0	944	934	932	930	932	944	945	969	986	996	986	977	970	971	977	980	972	975	982	994	988	978	967	968	969	968	968	961	954	949	948	936	932	929	938	939	942	953	976	990	995	996	993	985	983	979	982	990	993	995	989	987	993	988	991	993	997	1013	1034	1059	1093	1149	1205	1264	1315	1348	1383	1421	1438	1427	1408	1418	1436	1450	1466	1481	1495	1488	1471	1442	1424	1407	1400	1404	1433	1445	1466	1468	1471	1455	1451	1447	1444	1433	1419	1414	1419	1427	1431	1433	1432	1433	1428	1420	1416	1419	1425	1431	1435	1429	1392	1377	1373	1383	1409	1415	1424	1424	1415	1411	1412	1407	1418	1419	1416	1386	1382	1401	1402	1400	1404	1414	1421	1418	1411	1414	1416	1425	1434	1437	1438	1427	1422	1430	1426	1423	1407	1400	1396	1399	1407	1416	1435	1446	1443	1433	1423	1422	1418	1414	1419	1424	1428	1419	1413	1410	1411	1413	1416	1420	1425	1427	1427	1427	1421	1416	1420	1428	1445	1444	1442	1423	1404	1400	1410	1409	1411	1410	1415	1424	1429	1429	1426	1420	1412	1404	1411	1417	1424	1416	1416	1415	1413	1413	1420	1414	1408	1401	0	0	0	0	0	0
