0	0	0	1417	1427	1421	1420	1416	1416	1414	1419	1422	1427	1429	1422	1422	1402	1398	1406	1418	1419	1423	1423	1420	1416	1418	1426	1433	1437	1410	1410	1414	1409	1418	1417	1409	1417	1427	1437	1448	1448	1434	1449	1456	1446	1437	1418	1417	1428	1440	1449	1458	1458	1468	1474	1467	1464	1452	1440	1437	1445	1453	1458	1460	1458	1458	1453	1453	1463	1467	1451	1450	1446	1451	1451	1445	1451	1458	1468	1474	1485	1482	1475	1468	1458	1442	1428	1426	1429	1422	1401	1400	1400	1404	1401	1405	1419	1423	1414	1414	1417	1419	1412	1417	1427	1419	1418	1420	1424	1422	1420	1419	1415	1415	1404	1391	1395	1405	1418	1430	1430	1429	1421	1416	1411	1424	1439	1436	1424	1405	1397	1395	1403	1444	1445	1430	0	0	0	0	0	0	0	0	0	0	0	0	0	0	0	0	0	0	0	0	0	0	0	0	0	0	0	0	1636	1655	1669	1686	1700	1697	1693	1701	1716	0	0	0	0	0	0	0	0	0	0	1461	1436	1410	1412	1414	1420	1416	1414	1408	1413	1427	1431	1444	1452	1460	1453	1450	1429	1422	1429	1438	1438	1436	1426	1428	1440	1450	1459	1459	1446	1428	1407	1405	1407	1413	1422	1438	1445	1449	1439	1411	1419	1432	1455	1467	1469	1472	1464	1446	1435	1421	1434	1450	1466	1462	1456	1450	1453	1445	1446	1442	1440	1443	1456	1472	1475	1477	1474	1476	1470	1460	1444	1428	1425	1426	1444	1457	1460	1452	1449	1444	1445	1454	1461	1467	1455	1443	1440	1439	1439	1443	1454	1464	1464	1466	1474	1476	1468	1459	1445	1438	1441	1444	1453	1463	1451	1441	1434	1431	1435	1438	1439	1443	1446	1446	1442	1435	1445	1441	1438	1439	1437	1438	1449	1459	1458	1457	1469	1471	1483	1477	1465	1453	1438	1430	1423	1424	1432	1437	1441	1442	1437	1438	1445	1444	1444	1438	1417	1418	1433	1468	1471	1470	1470	1470	1472	1467	1462	1465	1459	1453	1449	1452	1451	1450	1451	1452	1453	1457	1458	1472	1481	1482	1474	1463	1451	1439	1434	1438	1459	1467	1473	1477	1481	1485	1479	1468	1458	1458	1468	1473	1468	1459	1454	1455	1464	1468	1465	1450	1438	1443	1436	1443	1449	1454	1449	1445	1438	1434	1440	1443	1438	1440	1441	1439	1438	1436	1448	1456	1467	1468	1470	1470	1471	1473	1467	1467	1472	1477	1470	1451	1453	1452	1470	1490	1489	1480	1472	1460	1459	1455	1453	1453	1454	1460	1463	1460	1462	1459	1469	1472	1471	1461	1460	1462	1463	1459	1453	1451	1448	1426	1431	1446	1467	1480	1487	1482	1483	1477	1477	1494	1496	1489	1469	1447	1439	1448	1467	1482	1489	1482	1470	1458	1446	1440	1444	1454	1473	1473	1462	1461	1465	1474	1479	1475	1484	1482	1496	0	0	0	0	0	0	0	0	0	0	0	0	0	0	0	0	0	0	0	0	0	0	0	0	1584	1569	1554	1548	1526	1543	1541	1530	1544	1543	1527	1529	1517	1515	1516	1508	1518	1535	1531	1513	1506	1517	1533	1528	1511	1493	1509	1516	1519	1528	1520	0	0	0	0	0	0	0	0	0	0	0	0	0	0	0	0	0	0	1532	1519	1493	1472	1485	1495	1496	1499	1503	1491	1478	1472	1476	1480	1481	1484	1487	1498	1503	1497	1485	1475	1474	1475	1480	1485	1492	1489	1496	1510	1507	1480	1468	1467	1466	1478	1488	1495	1496	1495	1495	1485	1486	1470	1472	1471	1471	1473	1478	1489	1502	1515	1512	1511	1500	1487	1486	1486	1493	1503	1494	1498	1488	1482	1467	1461	1454	1447	1456	1459	1464	1473	1473	1482	1480	1468	1455	1449	1453	0	0	0	0	0	0	0
0	0	0	1424	1427	1413	1412	1415	1415	1414	1412	1417	1421	1424	1424	1417	1405	1398	1406	1416	1427	1430	1430	1425	1422	1431	1442	1454	1448	1433	1433	1417	1423	1406	1411	1407	1416	1423	1430	1418	1418	1418	1442	1455	1445	1432	1414	1414	1430	1434	1439	1448	1448	1453	1468	1470	1463	1449	1440	1437	1450	1458	1462	1461	1462	1458	1453	1458	1455	1442	1439	1442	1445	1445	1447	1447	1447	1445	1455	1465	1477	1487	1478	1466	1451	1440	1441	1443	1432	1421	1408	1406	1412	1417	1422	1420	1413	1409	1406	1412	1417	1420	1429	1433	1437	1430	1434	1439	1430	1421	1413	1410	1404	1410	1407	1396	1400	1412	1420	1428	1435	1434	1431	1421	1421	1426	1446	1447	1435	1418	1400	1396	1401	1430	1436	1438	0	0	0	0	0	0	0	0	0	0	0	0	0	0	0	0	0	0	0	0	0	0	0	0	0	0	0	0	1640	1661	1667	1671	1677	1681	1674	1678	1695	0	0	0	0	0	0	0	0	0	0	1462	1443	1418	1415	1419	1419	1416	1408	1412	1422	1428	1437	1438	1449	1449	1445	1439	1431	1428	1441	1444	1444	1436	1412	1417	1436	1444	1451	1449	1442	1432	1418	1417	1415	1422	1429	1445	1454	1457	1445	1430	1426	1438	1454	1466	1470	1468	1439	1421	1406	1407	1425	1448	1462	1464	1463	1463	1461	1452	1448	1443	1447	1449	1457	1467	1473	1472	1464	1467	1477	1468	1450	1433	1431	1437	1450	1469	1467	1463	1461	1448	1455	1457	1458	1464	1458	1448	1445	1447	1450	1454	1465	1471	1462	1461	1468	1474	1478	1468	1453	1446	1443	1444	1456	1462	1456	1445	1439	1441	1442	1441	1440	1445	1441	1443	1436	1435	1439	1432	1426	1424	1427	1433	1440	1447	1443	1450	1455	1469	1482	1476	1464	1451	1441	1424	1420	1424	1426	1430	1436	1436	1435	1440	1452	1455	1449	1442	1427	1435	1448	1464	1460	1451	1452	1459	1466	1464	1465	1468	1464	1458	1453	1457	1451	1453	1457	1457	1456	1456	1466	1469	1466	1469	1469	1460	1448	1436	1425	1437	1446	1460	1477	1486	1490	1485	1472	1465	1458	1461	1464	1467	1458	1453	1447	1454	1462	1466	1464	1453	1445	1441	1441	1451	1457	1464	1453	1439	1432	1429	1436	1439	1437	1438	1438	1436	1428	1425	1439	1461	1470	1476	1475	1475	1481	1483	1475	1471	1479	1485	1482	1466	1465	1469	1486	1490	1484	1476	1451	1448	1450	1455	1457	1458	1461	1453	1450	1452	1450	1453	1459	1465	1468	1465	1469	1471	1468	1463	1462	1464	1462	1464	1471	1478	1462	1474	1474	1476	1473	1466	1469	1481	1493	1490	1472	1459	1450	1457	1470	1488	1494	1486	1478	1469	1460	1450	1454	1461	1465	1464	1456	1457	1464	1478	1484	1487	1483	1491	1509	0	0	0	0	0	0	0	0	0	0	0	0	0	0	0	0	0	0	0	0	0	0	0	1605	1582	1559	1554	1538	1524	1538	1541	1545	1549	1537	1523	1529	1531	1526	1525	1509	1503	1514	1511	1502	1503	1514	1523	1527	1530	1532	1547	1537	1530	1529	1528	0	0	0	0	0	0	0	0	0	0	0	0	0	0	0	0	0	0	1544	1525	1511	1504	1490	1495	1495	1489	1493	1486	1484	1481	1483	1486	1492	1496	1497	1502	1506	1498	1484	1476	1474	1472	1479	1485	1488	1489	1487	1495	1506	1502	1503	1489	1484	1491	1496	1497	1496	1495	1505	1511	1513	1508	1496	1490	1489	1481	1477	1482	1491	1494	1507	1509	1504	1491	1484	1484	1491	1480	1482	1486	1487	1481	1471	1466	1457	1455	1455	1464	1473	1480	1480	1483	1478	1466	1457	1453	1472	0	0	0	0	0	0	0
0	0	0	1418	1418	1413	1421	1418	1418	1417	1396	1406	1407	1410	1410	1408	1396	1398	1396	1416	1415	1415	1415	1418	1427	1438	1451	1453	1443	1434	1434	1434	1424	1418	1412	1411	1416	1417	1431	1431	1426	1430	1444	1448	1437	1430	1413	1420	1431	1437	1439	1442	1442	1452	1461	1460	1459	1450	1437	1442	1448	1456	1467	1466	1466	1462	1458	1455	1445	1434	1430	1434	1438	1438	1439	1436	1436	1430	1435	1457	1476	1487	1476	1467	1449	1441	1453	1458	1441	1421	1412	1415	1425	1429	1431	1430	1420	1406	1406	1410	1417	1421	1424	1433	1443	1448	1450	1446	1439	1425	1412	1403	1403	1405	1405	1408	1414	1417	1417	1423	1431	1436	1438	1426	1422	1424	1436	1446	1443	1430	1413	1411	1407	1417	1431	1438	1442	0	0	0	0	0	0	0	0	0	0	0	0	0	0	0	0	0	0	0	0	0	0	0	0	0	0	0	1637	1654	1659	1666	1669	1664	1667	1662	1681	0	0	0	0	0	0	0	0	0	0	1443	1428	1427	1424	1426	1421	1418	1415	1420	1422	1428	1433	1439	1443	1444	1441	1441	1440	1443	1449	1457	1454	1439	1412	1417	1433	1444	1450	1451	1447	1448	1443	1441	1436	1437	1440	1449	1458	1466	1453	1433	1431	1434	1445	1437	1445	1440	1431	1415	1404	1412	1422	1434	1450	1456	1465	1468	1470	1460	1453	1451	1449	1448	1454	1461	1464	1455	1457	1471	1480	1472	1451	1432	1432	1442	1454	1468	1464	1458	1456	1450	1448	1445	1453	1456	1451	1446	1442	1445	1451	1460	1466	1466	1446	1447	1465	1479	1477	1469	1458	1454	1452	1458	1460	1458	1450	1445	1436	1437	1440	1441	1440	1444	1445	1439	1433	1438	1440	1430	1420	1414	1421	1432	1434	1441	1437	1442	1450	1465	1477	1472	1457	1438	1429	1431	1428	1427	1427	1427	1435	1441	1453	1466	1467	1459	1447	1443	1442	1441	1445	1458	1460	1449	1452	1460	1463	1463	1471	1471	1471	1465	1458	1452	1452	1454	1459	1459	1454	1452	1458	1463	1456	1458	1463	1460	1448	1438	1426	1437	1456	1467	1473	1486	1489	1476	1460	1447	1448	1457	1468	1462	1450	1444	1449	1460	1469	1469	1459	1445	1436	1438	1447	1459	1467	1468	1455	1448	1440	1432	1433	1443	1442	1443	1440	1436	1426	1419	1438	1457	1475	1481	1480	1472	1479	1485	1482	1477	1477	1476	1478	1468	1467	1470	1473	1482	1473	1464	1446	1445	1449	1470	1474	1477	1469	1452	1448	1445	1451	1445	1461	1469	1468	1466	1471	1477	1473	1466	1463	1469	1475	1486	1496	1501	1491	1476	1462	1463	1457	1462	1455	1465	1472	1480	1472	1461	1457	1461	1472	1486	1497	1494	1489	1482	1467	1463	1466	1469	1466	1460	1459	1456	1463	1476	1483	1484	1482	1488	1505	0	0	0	0	0	0	0	0	0	0	0	0	0	0	0	0	0	0	0	0	0	0	0	1595	1581	1571	1552	1542	1517	1529	1543	1557	1566	1562	1540	1545	1545	1549	1546	1530	1514	1514	1514	1512	1517	1527	1542	1537	1533	1536	1543	1546	1549	1547	1568	0	0	0	0	0	0	0	0	0	0	0	0	0	0	0	0	0	0	1547	1527	1522	1515	1496	1498	1493	1489	1493	1490	1489	1487	1487	1493	1495	1500	1508	1506	1504	1493	1490	1481	1475	1475	1478	1488	1491	1492	1490	1483	1492	1504	1500	1487	1481	1482	1493	1486	1488	1490	1502	1510	1526	1523	1518	1505	1496	1483	1477	1480	1485	1474	1468	1476	1485	1490	1483	1483	1485	1475	1480	1486	1486	1481	1474	1470	1462	1450	1448	1459	1472	1478	1478	1484	1478	1471	1468	1466	1493	0	0	0	0	0	0	0
0	0	0	1426	1423	1422	1429	1426	1426	1407	1383	1382	1390	1395	1395	1394	1393	1396	1402	1406	1410	1410	1406	1406	1418	1434	1444	1443	1433	1432	1432	1431	1425	1419	1414	1421	1423	1437	1450	1437	1440	1426	1430	1439	1435	1427	1424	1425	1440	1451	1449	1449	1449	1453	1453	1458	1457	1449	1434	1447	1449	1460	1464	1460	1450	1450	1460	1456	1456	1451	1443	1438	1435	1435	1427	1422	1422	1426	1431	1445	1457	1476	1474	1470	1456	1446	1458	1455	1443	1427	1421	1425	1427	1428	1432	1431	1421	1407	1405	1412	1414	1411	1408	1416	1431	1443	1450	1447	1444	1431	1414	1400	1394	1396	1407	1414	1419	1414	1411	1411	1417	1429	1434	1431	1422	1416	1426	1436	1441	1443	1435	1428	1418	1415	1430	1448	1460	0	0	0	0	0	0	0	0	0	0	0	0	0	0	0	0	0	0	0	0	0	0	0	0	0	0	0	1610	1639	1649	1658	1662	1666	1661	1653	0	0	0	0	0	0	0	0	0	0	1443	1430	1429	1430	1438	1433	1428	1424	1426	1425	1424	1420	1422	1435	1447	1452	1454	1449	1452	1457	1457	1460	1458	1429	1415	1419	1422	1439	1449	1455	1461	1462	1464	1457	1452	1448	1449	1451	1455	1455	1451	1433	1417	1416	1419	1427	1436	1437	1430	1419	1419	1419	1420	1419	1428	1445	1462	1470	1479	1473	1459	1449	1450	1448	1449	1446	1442	1450	1457	1463	1471	1466	1443	1431	1428	1438	1454	1459	1455	1448	1439	1445	1442	1451	1439	1440	1441	1439	1436	1437	1444	1456	1454	1439	1431	1440	1463	1480	1470	1470	1457	1456	1456	1464	1467	1456	1451	1435	1427	1428	1432	1436	1442	1445	1444	1438	1439	1443	1444	1439	1422	1424	1426	1429	1433	1435	1438	1446	1457	1477	1477	1465	1451	1432	1425	1430	1429	1421	1418	1427	1435	1446	1465	1475	1473	1458	1439	1430	1440	1439	1448	1454	1455	1468	1471	1471	1463	1462	1460	1463	1475	1471	1469	1469	1471	1473	1463	1454	1449	1451	1469	1479	1485	1481	1467	1455	1439	1435	1432	1439	1458	1474	1485	1489	1488	1491	1476	1462	1452	1457	1453	1447	1437	1437	1450	1460	1464	1453	1430	1415	1413	1411	1419	1424	1441	1447	1454	1448	1448	1446	1442	1452	1470	1489	1490	1463	1451	1433	1449	1467	1480	1474	1464	1461	1464	1476	1480	1482	1480	1474	1477	1463	1464	1474	1470	1470	1471	1460	1448	1459	1470	1480	1482	1486	1486	1486	1472	1460	1456	1456	1458	1464	1466	1461	1469	1472	1473	1469	1463	1466	1479	1487	1496	1493	1484	1466	1467	1459	1460	1461	1454	1446	1451	1459	1464	1460	1461	1465	1476	1489	1491	1499	1507	1504	1494	1475	1466	1462	1465	1464	1461	1458	1463	1466	1480	1479	1485	1493	1510	0	0	0	0	0	0	0	0	0	0	0	0	0	0	0	0	0	0	0	0	0	0	0	0	1577	1561	1550	1549	1529	1537	1540	1532	1540	1543	1550	1550	1544	1541	1528	1523	1524	1524	1518	1522	1522	1523	1536	1538	1529	1515	1536	1536	1544	1554	1596	0	0	0	0	0	0	0	0	0	0	0	0	0	0	0	0	0	0	1556	1536	1538	1525	1498	1495	1491	1491	1498	1495	1491	1479	1481	1484	1490	1499	1509	1514	1508	1500	1492	1500	1491	1489	1490	1491	1495	1494	1484	1473	1472	1484	1490	1491	1484	1474	1473	1476	1470	1469	1477	1473	1509	1524	1524	1509	1500	1490	1490	1490	1494	1484	1463	1464	1486	1503	1495	1495	1486	1490	1497	1492	1489	1484	1483	1479	1468	1445	1443	1453	1470	1484	1484	1487	1483	1476	1468	1487	1497	0	0	0	0	0	0	0
0	0	0	1425	1425	1436	1444	1433	1433	1402	1385	1371	1378	1382	1382	1392	1408	1410	1418	1418	1408	1408	1403	1395	1416	1425	1433	1427	1420	1414	1414	1414	1417	1420	1421	1429	1439	1450	1453	1453	1460	1461	1429	1427	1430	1422	1420	1429	1445	1458	1463	1457	1457	1453	1449	1450	1450	1449	1437	1440	1448	1455	1451	1451	1442	1441	1454	1461	1461	1456	1451	1449	1446	1446	1429	1422	1419	1427	1428	1441	1445	1463	1467	1466	1460	1457	1466	1459	1443	1432	1429	1432	1431	1425	1422	1422	1415	1407	1411	1415	1416	1407	1401	1402	1411	1427	1436	1439	1441	1427	1410	1393	1386	1393	1410	1423	1425	1416	1409	1407	1411	1420	1428	1428	1426	1416	1416	1427	1438	1437	1434	1436	1431	1418	1422	1437	1460	0	0	0	0	0	0	0	0	0	0	0	0	0	0	0	0	0	0	0	0	0	0	0	0	0	0	0	1589	1620	1643	1654	1665	1672	1665	1664	0	0	0	0	0	0	1505	1486	1462	1450	1426	1432	1439	1442	1444	1433	1430	1429	1433	1430	1425	1420	1420	1441	1446	1453	1454	1453	1452	1453	1461	1461	1459	1440	1414	1422	1421	1424	1431	1451	1459	1476	1470	1464	1448	1440	1447	1444	1444	1430	1426	1420	1415	1415	1418	1424	1432	1439	1440	1440	1446	1439	1424	1415	1417	1430	1447	1476	1476	1472	1460	1436	1448	1452	1457	1452	1432	1429	1438	1442	1454	1453	1446	1434	1433	1435	1445	1444	1440	1437	1427	1426	1437	1446	1437	1431	1431	1429	1434	1444	1442	1428	1423	1433	1421	1437	1458	1470	1472	1451	1439	1438	1446	1455	1462	1464	1451	1438	1425	1420	1425	1431	1433	1440	1445	1447	1447	1449	1451	1445	1445	1441	1442	1446	1445	1437	1436	1453	1474	1481	1476	1464	1445	1431	1426	1422	1421	1420	1419	1424	1437	1445	1463	1473	1470	1458	1432	1433	1421	1434	1435	1445	1445	1455	1457	1458	1455	1449	1448	1457	1462	1474	1473	1468	1471	1468	1463	1456	1448	1458	1474	1486	1485	1479	1465	1453	1437	1430	1426	1435	1454	1475	1486	1490	1493	1493	1486	1468	1459	1456	1456	1451	1447	1441	1447	1451	1451	1443	1429	1420	1421	1432	1438	1435	1439	1439	1444	1448	1457	1461	1465	1466	1476	1483	1482	1480	1474	1471	1473	1484	1487	1478	1474	1481	1477	1475	1474	1474	1483	1485	1480	1478	1475	1469	1478	1489	1481	1449	1422	1417	1437	1447	1455	1452	1450	1454	1465	1474	1474	1476	1466	1470	1478	1471	1464	1451	1437	1422	1421	1427	1445	1450	1442	1434	1440	1456	1476	1484	1477	1460	1459	1455	1453	1455	1451	1461	1471	1476	1471	1467	1466	1478	1500	1511	1496	1485	1464	1446	1437	1447	1466	1472	1476	1483	1487	1495	1495	1501	1518	0	0	0	0	0	0	0	0	0	0	0	0	0	0	0	0	1613	1601	0	0	0	0	0	0	1575	1566	1556	1545	1523	1538	1535	1535	1538	1541	1545	1549	1540	1533	1529	1528	1521	1523	1528	1529	1533	1526	1522	1529	1542	1558	1566	1545	1535	1560	1572	0	0	0	0	0	0	0	0	0	0	0	0	0	0	0	0	0	0	0	1552	1556	1535	1493	1478	1476	1491	1502	1496	1485	1476	1472	1478	1482	1492	1498	1517	1524	1513	1508	1515	1513	1507	1501	1500	1498	1492	1477	1469	1469	1470	1475	1480	1485	1474	1464	1462	1445	1435	1437	1451	1474	1515	1522	1514	1507	1503	1500	1503	1509	1496	1478	1472	1484	1504	1488	1488	1486	1499	1503	1511	1505	1507	1501	1489	1473	1452	1444	1453	1471	1482	1482	1486	1487	1487	1482	1481	1480	0	0	0	0	0	0	0
0	0	0	1424	1428	1437	1439	1434	1434	1411	1390	1375	1383	1392	1392	1407	1423	1430	1424	1422	1412	1412	1400	1402	1410	1414	1418	1417	1412	1412	1409	1402	1405	1412	1418	1430	1434	1450	1458	1458	1461	1458	1423	1416	1416	1431	1424	1431	1437	1443	1452	1452	1446	1445	1447	1450	1450	1453	1449	1441	1439	1435	1438	1439	1438	1442	1452	1462	1466	1461	1458	1456	1456	1455	1441	1428	1425	1430	1436	1433	1441	1454	1462	1464	1460	1462	1465	1460	1444	1434	1431	1445	1431	1416	1411	1407	1403	1407	1411	1417	1421	1414	1409	1405	1404	1414	1426	1428	1426	1417	1406	1392	1389	1396	1416	1433	1434	1426	1414	1411	1408	1418	1428	1438	1429	1414	1414	1424	1430	1434	1433	1438	1443	1424	1429	1445	1455	1442	0	0	0	0	0	0	0	0	0	0	0	0	0	0	0	0	0	0	0	0	0	0	0	0	0	0	1571	1608	1639	1649	1666	1675	1684	1678	0	0	0	0	0	1470	1443	1439	1435	1426	1427	1436	1447	1451	1447	1438	1430	1431	1436	1441	1427	1438	1440	1436	1441	1446	1443	1443	1444	1447	1458	1465	1458	1448	1424	1425	1422	1419	1416	1427	1456	1467	1465	1454	1441	1414	1408	1415	1423	1430	1432	1428	1427	1421	1425	1430	1432	1438	1434	1439	1445	1449	1440	1430	1425	1426	1432	1460	1462	1465	1452	1448	1461	1466	1458	1444	1433	1433	1430	1441	1450	1456	1459	1447	1431	1427	1427	1431	1433	1426	1423	1438	1441	1447	1430	1419	1414	1428	1437	1444	1437	1433	1428	1438	1441	1452	1469	1458	1448	1438	1424	1420	1427	1442	1441	1450	1447	1439	1430	1425	1422	1412	1407	1429	1444	1451	1450	1451	1457	1457	1451	1441	1437	1439	1444	1448	1445	1456	1458	1465	1471	1464	1455	1445	1434	1427	1428	1440	1441	1432	1431	1437	1450	1443	1444	1425	1410	1419	1421	1482	1482	1463	1449	1444	1451	1450	1441	1442	1443	1454	1456	1465	1468	1472	1473	1471	1459	1452	1454	1465	1478	1489	1483	1473	1463	1455	1438	1432	1420	1427	1438	1437	1449	1468	1479	1485	1478	1473	1465	1462	1465	1468	1466	1457	1445	1447	1445	1438	1430	1422	1428	1442	1452	1451	1444	1444	1444	1452	1470	1481	1476	1473	1468	1460	1465	1473	1468	1476	1491	1489	1479	1475	1472	1478	1469	1474	1477	1473	1477	1481	1470	1478	1466	1461	1468	1485	1481	1445	1419	1410	1420	1436	1443	1437	1441	1461	1470	1475	1476	1486	1482	1473	1486	1478	1468	1449	1436	1422	1417	1424	1444	1452	1445	1440	1445	1460	1475	1486	1479	1465	1458	1459	1473	1472	1464	1458	1464	1469	1468	1456	1456	1469	1487	1501	1508	1497	1461	1444	1445	1456	1467	1475	1480	1483	1487	1490	1501	1510	1521	1541	0	0	0	0	0	0	0	0	0	0	0	0	0	0	0	0	0	1620	0	0	0	0	0	1572	1570	1555	1534	1515	1537	1539	1540	1537	1536	1535	1545	1537	1527	1524	1524	1528	1520	1523	1532	1524	1523	1517	1524	1537	1559	1574	1563	1544	1538	1548	0	0	0	0	0	0	0	0	0	0	0	0	0	0	0	0	0	0	1539	1542	1550	1540	1484	1466	1466	1481	1500	1494	1483	1468	1466	1469	1483	1490	1492	1501	1518	1519	1512	1519	1523	1515	1501	1499	1495	1486	1475	1474	1478	1476	1465	1465	1470	1465	1453	1450	1440	1429	1435	1442	1467	1509	1519	1518	1508	1507	1501	1505	1511	1497	1478	1475	1480	1486	1481	1481	1486	1498	1506	1515	1524	1534	1533	1506	1481	1465	1461	1469	1478	1482	1483	1483	1486	1489	1482	1474	1464	0	0	0	0	0	0	0
0	0	0	1420	1427	1424	1437	1437	1437	1418	1406	1405	1404	1418	1418	1428	1436	1427	1422	1412	1411	1411	1408	1410	1411	1410	1414	1413	1414	1414	1402	1397	1401	1409	1412	1411	1423	1443	1450	1450	1455	1453	1414	1405	1406	1420	1420	1421	1422	1430	1432	1432	1430	1433	1434	1443	1452	1459	1455	1446	1439	1429	1428	1430	1433	1436	1447	1460	1468	1465	1464	1460	1460	1447	1431	1431	1431	1440	1441	1441	1445	1458	1455	1457	1450	1453	1467	1460	1439	1429	1434	1438	1424	1413	1407	1406	1408	1405	1416	1418	1425	1425	1419	1412	1408	1402	1409	1425	1420	1417	1409	1399	1399	1410	1438	1445	1445	1436	1426	1421	1425	1428	1432	1436	1431	1419	1419	1427	1431	1433	1434	1445	1452	1448	1464	1460	1461	1441	0	0	0	0	0	0	0	0	0	0	0	0	0	0	0	0	0	0	0	0	0	0	0	0	0	0	1573	1614	1636	1645	1655	1667	1674	1684	1681	0	0	0	0	1420	1420	1408	1401	1394	1400	1419	1440	1449	1453	1438	1433	1429	1430	1439	1448	1451	1454	1442	1432	1431	1430	1437	1446	1461	1462	1463	1463	1456	1436	1428	1424	1417	1409	1416	1437	1436	1428	1415	1414	1405	1403	1425	1434	1439	1438	1437	1431	1430	1433	1439	1440	1442	1433	1431	1432	1438	1434	1429	1417	1418	1429	1440	1452	1450	1453	1455	1460	1459	1449	1434	1432	1436	1435	1438	1451	1465	1466	1459	1440	1431	1421	1424	1425	1425	1424	1436	1446	1435	1424	1413	1419	1433	1439	1442	1444	1444	1441	1443	1448	1457	1456	1451	1445	1440	1428	1428	1431	1438	1442	1437	1438	1435	1434	1433	1415	1412	1420	1433	1449	1449	1446	1446	1450	1451	1452	1445	1440	1439	1446	1448	1452	1456	1459	1471	1479	1475	1465	1456	1446	1445	1447	1444	1441	1436	1438	1441	1445	1444	1441	1426	1438	1474	0	0	0	1473	1443	1437	1443	1440	1438	1442	1440	1448	1451	1459	1464	1466	1471	1466	1455	1452	1457	1467	1477	1481	1473	1465	1457	1450	1443	1435	1421	1416	1420	1415	1432	1449	1452	1470	1473	1466	1462	1461	1469	1474	1465	1459	1451	1451	1453	1447	1438	1434	1437	1451	1459	1461	1460	1460	1458	1465	1466	1471	1470	1466	1460	1451	1447	1462	1477	1492	1493	1487	1476	1466	1458	1451	1451	1452	1465	1474	1473	1466	1476	1476	1468	1459	1458	1462	1463	1453	1439	1437	1433	1434	1435	1437	1442	1460	1467	1466	1479	1485	1488	1476	1486	1479	1471	1459	1448	1435	1430	1434	1446	1458	1456	1457	1455	1459	1468	1469	1468	1461	1460	1468	1492	1487	1471	1462	1455	1461	1472	1475	1472	1472	1476	1497	1509	1500	1461	1441	1443	1457	1470	1478	1471	1478	1487	1485	1495	1499	1514	1514	1537	0	0	0	0	0	0	0	0	0	0	0	0	0	0	0	0	1634	0	0	0	0	1564	1565	1557	1547	1525	1502	1526	1541	1538	1528	1524	1527	1534	1528	1524	1521	1517	1519	1521	1527	1528	1528	1523	1518	1524	1538	1555	1570	1560	1539	1517	1533	0	0	0	0	0	0	0	0	0	0	0	0	0	0	0	0	0	0	1528	1525	1532	1509	1464	1459	1463	1479	1501	1496	1479	1470	1468	1472	1481	1488	1489	1494	1503	1509	1501	1500	1496	1500	1503	1497	1498	1489	1487	1482	1490	1471	1476	1463	1467	1461	1455	1447	1453	1454	1453	1454	1469	1491	1507	1511	1499	1494	1497	1509	1518	1506	1493	1484	1485	1488	1484	1484	1487	1492	1500	1516	1541	1546	1539	1522	1491	1476	1484	1489	1490	1488	1489	1489	1488	1487	1481	1476	1464	0	0	0	0	0	0	0
0	0	0	1416	1417	1424	1433	1433	1438	1432	1420	1421	1422	1440	1440	1451	1445	1433	1420	1408	1398	1398	1411	1415	1412	1413	1412	1413	1409	1409	1400	1396	1399	1407	1403	1410	1429	1445	1461	1461	1461	1438	1411	1402	1404	1408	1420	1420	1412	1420	1427	1426	1429	1432	1435	1438	1448	1462	1466	1461	1452	1436	1432	1429	1432	1432	1442	1458	1472	1473	1465	1454	1454	1439	1430	1431	1434	1444	1447	1451	1456	1461	1459	1458	1456	1463	1470	1455	1431	1428	1432	1430	1427	1415	1409	1407	1408	1408	1412	1419	1418	1424	1426	1424	1421	1406	1415	1419	1422	1421	1414	1416	1422	1452	1454	1454	1452	1441	1433	1430	1429	1434	1437	1442	1433	1424	1424	1435	1433	1432	1436	1450	1468	1469	1472	1468	1462	1439	0	0	0	0	0	0	0	0	0	0	0	0	0	0	0	0	0	0	0	0	0	0	0	0	0	0	1590	1615	1631	1644	1652	1662	1671	1686	1683	0	0	0	1437	1411	1409	1408	1404	1399	1390	1402	1421	1438	1447	1448	1428	1417	1421	1434	1443	1451	1452	1437	1423	1421	1427	1432	1439	1461	1462	1462	1461	1453	1444	1440	1439	1426	1415	1410	1419	1418	1412	1406	1406	1414	1415	1433	1439	1440	1437	1435	1435	1434	1441	1446	1439	1439	1434	1430	1427	1430	1427	1422	1421	1419	1418	1425	1439	1446	1448	1450	1451	1441	1427	1425	1429	1435	1433	1435	1442	1454	1458	1460	1450	1442	1431	1427	1426	1432	1437	1439	1435	1425	1413	1419	1433	1443	1441	1444	1445	1448	1446	1438	1441	1448	1453	1444	1432	1426	1425	1439	1446	1444	1436	1432	1434	1434	1437	1435	1425	1420	1432	1435	1446	1445	1442	1442	1447	1447	1439	1433	1436	1438	1442	1451	1458	1455	1459	1467	1479	1477	1473	1467	1457	1454	1451	1448	1442	1441	1448	1449	1446	1445	1447	1451	1442	0	0	0	0	1465	1441	1441	1443	1443	1444	1442	1441	1444	1452	1455	1460	1457	1455	1451	1444	1448	1456	1468	1477	1474	1470	1464	1457	1453	1443	1434	1419	1416	1422	1427	1437	1441	1450	1464	1465	1461	1456	1461	1463	1468	1462	1454	1445	1451	1453	1452	1450	1445	1446	1461	1465	1472	1472	1473	1469	1467	1465	1462	1458	1457	1453	1448	1449	1449	1463	1476	1483	1475	1473	1462	1457	1454	1439	1441	1445	1458	1463	1468	1476	1480	1480	1471	1468	1460	1456	1448	1445	1450	1446	1443	1440	1437	1438	1444	1454	1464	1471	1475	1479	1475	1467	1465	1480	1476	1466	1456	1447	1445	1452	1462	1471	1465	1458	1453	1455	1461	1463	1460	1466	1479	1502	1494	1475	1460	1450	1457	1463	1477	1481	1479	1474	1478	1477	1478	1458	1439	1442	1458	1461	1465	1471	1473	1479	1484	1491	1500	1507	1509	1513	0	0	0	0	0	0	0	0	0	0	0	0	0	0	0	0	0	0	0	0	1567	1584	1575	1560	1542	1523	1494	1518	1534	1531	1530	1529	1528	1524	1525	1525	1521	1528	1524	1533	1535	1538	1535	1529	1522	1526	1534	1542	1545	1553	1531	1505	1527	0	0	0	0	0	0	0	0	0	0	0	0	0	0	0	0	0	1511	1511	1514	1514	1463	1456	1460	1467	1479	1493	1483	1473	1464	1470	1477	1484	1490	1484	1487	1491	1491	1483	1484	1482	1486	1495	1504	1506	1501	1503	1497	1497	1467	1478	1478	1463	1463	1463	1454	1452	1457	1460	1469	1473	1475	1490	1496	1488	1476	1487	1510	1534	1519	1508	1499	1493	1490	1484	1490	1490	1491	1496	1511	1535	1541	1514	1505	1489	1485	1492	1497	1497	1497	1498	1498	1494	1484	1484	1478	1479	0	0	0	0	0	0	0
0	0	0	1408	1411	1421	1428	1428	1434	1429	1427	1425	1435	1451	1451	1457	1451	1431	1416	1405	1407	1407	1417	1417	1424	1421	1413	1408	1403	1403	1400	1401	1405	1406	1409	1414	1428	1452	1465	1465	1455	1436	1417	1403	1404	1412	1423	1421	1420	1429	1434	1434	1449	1452	1446	1439	1449	1461	1467	1477	1462	1449	1442	1435	1431	1435	1442	1460	1477	1481	1468	1451	1451	1437	1434	1435	1446	1450	1456	1460	1465	1466	1471	1477	1476	1472	1473	1454	1421	1411	1408	1418	1417	1413	1412	1411	1408	1407	1408	1412	1415	1416	1422	1424	1421	1407	1414	1416	1430	1436	1433	1441	1458	1463	1458	1447	1442	1430	1415	1425	1429	1432	1437	1439	1436	1430	1431	1435	1436	1433	1435	1457	1462	1471	1471	1467	1453	0	0	0	0	0	0	0	0	0	0	0	0	0	0	0	0	0	0	0	0	0	0	0	0	0	0	0	1610	1629	1647	1647	1649	1648	1656	1662	1673	0	0	0	1417	1416	1419	1420	1412	1405	1397	1400	1414	1429	1443	1450	1435	1421	1422	1435	1436	1445	1449	1437	1429	1420	1420	1421	1423	1439	1450	1447	1449	1453	1446	1442	1440	1429	1416	1403	1404	1402	1402	1402	1406	1419	1427	1433	1434	1439	1425	1426	1433	1436	1437	1436	1440	1435	1428	1423	1423	1426	1423	1426	1427	1427	1420	1420	1430	1434	1437	1440	1432	1420	1417	1415	1425	1432	1433	1429	1428	1429	1437	1444	1454	1451	1446	1444	1442	1452	1455	1450	1432	1421	1418	1431	1446	1449	1442	1439	1438	1443	1452	1439	1433	1439	1442	1440	1431	1421	1426	1436	1458	1448	1439	1431	1440	1441	1439	1436	1439	1439	1441	1449	1448	1445	1444	1447	1447	1437	1428	1423	1427	1434	1442	1456	1458	1459	1455	1454	1465	1471	1469	1465	1462	1462	1449	1445	1442	1444	1454	1453	1455	1453	1455	1472	0	0	0	0	0	1449	1434	1444	1453	1451	1448	1446	1443	1441	1442	1454	1457	1455	1454	1447	1444	1453	1460	1468	1464	1462	1459	1455	1449	1442	1432	1430	1419	1423	1432	1444	1446	1450	1454	1455	1460	1456	1454	1461	1461	1464	1456	1444	1440	1445	1447	1450	1453	1457	1462	1466	1479	1484	1482	1477	1473	1469	1462	1454	1447	1454	1455	1453	1446	1446	1449	1460	1463	1472	1471	1465	1459	1452	1438	1431	1431	1434	1454	1469	1476	1486	1497	1485	1471	1456	1448	1444	1451	1459	1463	1458	1452	1444	1442	1446	1453	1459	1465	1466	1460	1453	1460	1467	1483	1491	1492	1480	1463	1454	1452	1459	1463	1465	1453	1439	1444	1452	1452	1456	1463	1472	1504	1493	1474	1459	1448	1449	1455	1470	1477	1481	1468	1475	1488	1487	1475	1464	1465	1472	1472	1470	1466	1467	1474	1478	1483	1492	1494	1498	1500	0	0	0	0	0	0	0	0	0	0	0	0	0	0	0	0	0	0	0	1596	1594	1599	1598	1575	1552	1537	1510	1521	1533	1536	1541	1547	1538	1528	1529	1529	1530	1535	1538	1541	1549	1544	1544	1535	1527	1527	1534	1537	1537	1535	1530	1509	1537	0	0	0	0	0	0	0	0	0	0	0	0	0	0	0	0	1519	1509	1512	1524	1519	1469	1466	1471	1478	1487	1484	1471	1464	1461	1465	1483	1494	1492	1484	1480	1485	1493	1490	1481	1475	1474	1481	1502	1506	1507	1502	1494	1472	1474	1480	1486	1482	1469	1464	1456	1460	1467	1470	1475	1476	1475	1490	1487	1469	1465	1487	1514	1538	1534	1518	1504	1484	1478	1480	1494	1494	1496	1491	1489	1497	1502	1500	1500	1488	1485	1491	1499	1508	1506	1492	1492	1481	1475	1473	1486	1499	0	0	0	0	0	0	0
0	0	0	1407	1405	1415	1425	1425	1428	1430	1430	1429	1432	1443	1443	1444	1444	1425	1423	1414	1417	1417	1424	1433	1437	1427	1411	1398	1399	1399	1401	1407	1411	1421	1424	1426	1430	1449	1452	1452	1442	1424	1412	1408	1409	1413	1423	1427	1428	1440	1444	1444	1445	1447	1445	1447	1450	1454	1458	1468	1473	1461	1454	1446	1436	1435	1443	1461	1473	1476	1455	1444	1444	1441	1440	1448	1455	1459	1464	1462	1472	1468	1479	1486	1495	1493	1476	1454	1428	1401	1393	1398	1400	1399	1407	1407	1407	1410	1412	1418	1414	1416	1422	1422	1412	1409	1413	1424	1441	1453	1459	1458	1462	1457	1444	1433	1428	1419	1414	1409	1415	1426	1431	1435	1431	1427	1427	1427	1427	1425	1430	1446	1459	1476	1473	1465	1449	0	0	0	0	0	0	0	0	0	0	0	0	0	0	0	0	0	0	0	0	0	0	0	0	0	0	0	1641	1651	1653	1655	1650	1651	1654	1659	1670	0	0	0	1418	1439	1436	1426	1416	1415	1413	1406	1413	1424	1438	1450	1445	1436	1435	1443	1440	1434	1443	1444	1435	1443	1435	1420	1414	1420	1435	1444	1442	1443	1451	1454	1438	1427	1416	1403	1396	1397	1401	1407	1413	1416	1420	1430	1436	1432	1409	1414	1432	1432	1435	1432	1427	1421	1418	1426	1428	1429	1420	1426	1425	1428	1424	1426	1423	1427	1429	1426	1416	1403	1404	1408	1426	1434	1432	1429	1421	1416	1421	1431	1442	1447	1451	1453	1464	1470	1465	1454	1446	1434	1432	1446	1458	1460	1442	1437	1435	1441	1448	1438	1434	1432	1431	1435	1433	1423	1431	1441	1433	1437	1423	1425	1425	1432	1432	1432	1436	1442	1454	1457	1457	1451	1448	1445	1441	1436	1424	1420	1417	1424	1440	1449	1451	1453	1445	1452	1451	1461	1461	1465	1463	1456	1446	1445	1445	1448	1453	1454	1456	1460	1471	1481	0	0	0	0	0	1448	1438	1453	1457	1451	1449	1450	1449	1444	1444	1452	1454	1451	1452	1449	1453	1462	1467	1463	1460	1456	1444	1448	1443	1437	1422	1419	1419	1428	1442	1454	1452	1457	1452	1449	1448	1445	1448	1457	1457	1458	1452	1445	1441	1439	1444	1450	1458	1460	1464	1468	1473	1475	1473	1466	1467	1468	1460	1448	1445	1449	1459	1459	1449	1443	1440	1448	1454	1467	1466	1468	1458	1445	1431	1423	1420	1427	1448	1463	1476	1488	1491	1485	1464	1456	1446	1439	1450	1465	1475	1472	1465	1462	1456	1451	1452	1449	1452	1449	1442	1446	1455	1464	1489	1503	1505	1494	1476	1460	1456	1458	1462	1458	1448	1437	1432	1439	1447	1451	1455	1461	1471	1475	1459	1450	1447	1447	1452	1463	1481	1480	1467	1470	1480	1494	1490	1476	1471	1483	1487	1483	1477	1481	1480	1475	1469	1466	1484	1496	0	0	0	0	0	0	0	0	0	0	0	0	0	0	0	0	0	0	0	1609	1597	1602	1615	1616	1602	1579	1561	1538	1538	1541	1547	1542	1555	1554	1542	1536	1543	1550	1551	1553	1554	1551	1550	1550	1541	1537	1536	1534	1533	1533	1535	1513	1515	1547	0	0	0	0	0	0	0	0	0	0	0	0	0	0	0	0	1520	1523	1531	1532	1528	1483	1476	1483	1491	1499	1495	1475	1460	1457	1461	1481	1489	1487	1478	1480	1491	1498	1498	1490	1477	1478	1490	1496	1503	1501	1498	1485	1477	1479	1490	1493	1493	1476	1475	1478	1487	1497	1495	1484	1486	1485	1480	1474	1469	1470	1484	1495	1504	1514	1512	1494	1478	1485	1492	1505	1505	1504	1500	1493	1489	1493	1499	1494	1490	1486	1490	1503	1514	1506	1481	1481	1471	1455	1461	1473	1492	0	0	0	0	0	0	0
0	0	0	1410	1411	1406	1416	1416	1425	1437	1427	1422	1422	1425	1425	1429	1426	1424	1421	1418	1419	1419	1422	1428	1431	1425	1408	1401	1403	1403	1416	1418	1420	1431	1427	1425	1425	1431	1432	1432	1425	1414	1410	1415	1416	1419	1435	1436	1442	1448	1445	1445	1440	1438	1438	1443	1450	1451	1450	1452	1442	1439	1444	1449	1446	1443	1455	1466	1474	1467	1460	1460	1455	1447	1456	1461	1467	1459	1460	1471	1478	1470	1467	1474	1478	1485	1474	1446	1414	1390	1377	1379	1386	1394	1399	1405	1405	1410	1416	1423	1426	1421	1419	1410	1406	1407	1416	1431	1457	1467	1460	1462	1470	1440	1432	1422	1410	1410	1411	1406	1410	1418	1425	1429	1422	1419	1417	1415	1419	1421	1423	1440	1476	1475	1458	1444	1453	0	0	0	0	0	0	0	0	0	0	0	0	0	0	0	0	0	0	0	0	0	0	0	0	0	0	0	1655	1681	1669	1664	1661	1658	1656	1652	1655	0	0	0	0	1456	1454	1432	1419	1416	1419	1417	1418	1425	1441	1450	1449	1445	1440	1444	1432	1423	1426	1436	1444	1448	1439	1427	1423	1431	1444	1448	1446	1448	1454	1448	1441	1432	1417	1413	1405	1405	1405	1410	1404	1411	1418	1432	1434	1429	1409	1412	1427	1438	1435	1431	1422	1417	1411	1425	1430	1426	1416	1411	1411	1418	1424	1428	1429	1434	1424	1414	1403	1398	1396	1405	1422	1440	1440	1434	1423	1410	1409	1415	1424	1438	1448	1450	1454	1463	1460	1447	1445	1448	1455	1456	1460	1450	1428	1418	1430	1439	1449	1438	1429	1432	1435	1436	1429	1419	1422	1425	1422	1423	1414	1415	1414	1417	1422	1426	1436	1448	1461	1469	1472	1468	1465	1457	1450	1437	1422	1417	1418	1421	1438	1440	1443	1442	1440	1450	1453	1450	1450	1457	1460	1453	1443	1441	1443	1449	1454	1454	1457	1464	1489	1497	1488	0	0	0	0	1447	1448	1448	1451	1447	1447	1446	1449	1440	1443	1447	1452	1458	1452	1452	1455	1464	1467	1462	1455	1452	1451	1452	1443	1429	1421	1416	1418	1424	1438	1448	1452	1448	1452	1444	1442	1439	1445	1458	1459	1456	1443	1440	1439	1441	1452	1457	1459	1461	1462	1462	1463	1466	1461	1456	1447	1447	1451	1443	1444	1455	1465	1469	1459	1443	1436	1443	1450	1450	1450	1456	1452	1437	1423	1417	1420	1431	1447	1458	1462	1465	1465	1463	1452	1445	1440	1439	1446	1461	1466	1475	1477	1472	1469	1454	1447	1443	1440	1440	1441	1441	1461	1471	1484	1495	1499	1485	1471	1462	1455	1458	1449	1443	1436	1427	1425	1433	1440	1446	1437	1436	1438	1449	1448	1443	1449	1448	1454	1467	1479	1470	1458	1457	1474	1492	1495	1493	1484	1485	1488	1488	1485	1485	1484	1484	1478	1481	1497	0	0	0	0	0	0	0	0	0	0	0	0	0	0	0	0	0	0	0	0	1601	1598	1604	1617	1618	1619	1604	1588	1562	1541	1534	1548	1551	1554	1558	1546	1549	1554	1555	1558	1560	1559	1555	1555	1552	1549	1538	1537	1539	1537	1536	1521	1508	1523	1559	0	0	0	0	0	0	0	0	0	0	0	0	0	0	0	0	0	1531	1533	1534	1528	1489	1492	1502	1508	1506	1496	1487	1470	1459	1459	1469	1469	1471	1469	1472	1484	1493	1502	1504	1501	1502	1499	1493	1492	1495	1488	1484	1478	1488	1502	1498	1491	1486	1481	1485	1490	1495	1494	1488	1488	1493	1493	1486	1484	1471	1478	1476	1499	1508	1502	1496	1491	1492	1499	1504	1504	1501	1486	1483	1481	1487	1488	1495	1489	1492	1494	1504	1502	1495	1469	1469	1453	1443	1447	1459	1482	0	0	0	0	0	0	0
0	0	0	1408	1409	1412	1412	1412	1424	1435	1425	1418	1416	1410	1410	1416	1420	1425	1424	1421	1425	1425	1429	1433	1438	1424	1415	1409	1415	1415	1421	1424	1431	1434	1430	1419	1417	1419	1421	1421	1420	1409	1416	1415	1412	1420	1433	1442	1451	1449	1440	1440	1437	1436	1438	1443	1445	1448	1438	1430	1427	1431	1439	1450	1446	1446	1450	1444	1445	1446	1460	1460	1463	1455	1465	1462	1464	1463	1466	1473	1470	1467	1465	1467	1467	1471	1464	1433	1398	1379	1365	1376	1384	1390	1395	1406	1413	1418	1420	1427	1432	1427	1417	1413	1407	1402	1424	1446	1455	1461	1463	1462	1466	1457	1428	1413	1407	1408	1410	1411	1412	1416	1424	1422	1417	1412	1412	1415	1424	1427	1424	1433	1461	1456	1450	1427	1438	0	0	0	0	0	0	0	0	0	0	0	0	0	0	0	0	0	0	0	0	0	0	0	0	0	0	0	1659	1683	1666	1663	1669	1667	1662	1648	1640	0	0	0	0	1471	1449	1431	1420	1424	1443	1437	1433	1435	1433	1432	1431	1429	1439	1439	1432	1424	1420	1435	1444	1442	1435	1418	1421	1436	1456	1451	1448	1460	1455	1451	1439	1430	1423	1421	1426	1429	1418	1406	1403	1405	1421	1447	1444	1432	1410	1416	1435	1446	1447	1440	1430	1413	1408	1423	1424	1417	1406	1396	1399	1410	1421	1428	1432	1435	1421	1408	1398	1391	1391	1403	1419	1440	1440	1430	1417	1412	1406	1407	1412	1426	1434	1439	1440	1442	1446	1442	1439	1446	1445	1449	1445	1438	1417	1415	1417	1433	1441	1437	1428	1427	1432	1435	1433	1416	1407	1407	1414	1425	1425	1414	1406	1405	1414	1422	1432	1447	1458	1465	1465	1464	1467	1465	1460	1448	1422	1411	1411	1417	1434	1440	1443	1449	1453	1451	1443	1438	1440	1445	1453	1446	1440	1432	1433	1446	1449	1449	1452	1461	1486	1498	1496	1503	0	0	1494	1445	1451	1453	1445	1437	1445	1452	1453	1444	1447	1453	1459	1467	1459	1452	1456	1459	1462	1457	1456	1458	1456	1452	1441	1434	1430	1426	1423	1429	1437	1440	1440	1439	1441	1446	1438	1442	1448	1458	1461	1451	1442	1447	1444	1454	1466	1467	1464	1460	1459	1452	1451	1450	1444	1439	1437	1440	1439	1439	1444	1458	1480	1486	1468	1447	1438	1441	1448	1450	1445	1451	1451	1442	1429	1424	1425	1438	1435	1454	1454	1459	1454	1453	1448	1436	1425	1412	1417	1436	1448	1471	1475	1479	1474	1460	1453	1447	1448	1451	1456	1460	1466	1467	1470	1478	1460	1460	1453	1456	1454	1450	1437	1428	1422	1418	1421	1427	1436	1440	1427	1423	1425	1427	1432	1442	1449	1449	1459	1465	1472	1466	1462	1457	1471	1486	1490	1487	1474	1475	1486	1489	1488	1486	1493	1490	1491	1486	1524	0	0	0	0	0	0	0	0	0	0	0	0	0	0	0	0	0	0	0	0	1592	1598	1605	1604	1614	1617	1615	1601	1561	1543	1532	1539	1547	1548	1553	1552	1553	1555	1559	1561	1562	1562	1565	1561	1559	1550	1546	1540	1540	1538	1532	1523	1515	1544	1567	0	0	0	0	0	0	0	0	0	0	0	0	0	0	0	0	0	1529	1530	1530	1518	1487	1494	1500	1509	1519	1510	1497	1477	1458	1457	1460	1459	1455	1456	1463	1476	1491	1499	1505	1510	1509	1506	1503	1495	1492	1494	1490	1491	1504	1514	1515	1499	1495	1491	1492	1494	1495	1489	1476	1490	1504	1506	1495	1485	1482	1481	1478	1484	1500	1502	1497	1492	1488	1493	1490	1490	1488	1481	1478	1476	1478	1488	1500	1505	1499	1501	1497	1494	1482	1468	1468	1455	1446	1450	1463	1476	0	0	0	0	0	0	0
0	0	0	1405	1421	1418	1421	1421	1424	1425	1427	1422	1423	1421	1421	1420	1423	1422	1422	1427	1428	1428	1431	1438	1442	1438	1429	1422	1427	1427	1423	1430	1430	1427	1427	1419	1417	1414	1414	1422	1425	1426	1434	1432	1427	1427	1425	1440	1444	1448	1447	1447	1443	1443	1447	1447	1447	1443	1437	1430	1429	1436	1445	1457	1454	1445	1439	1433	1431	1441	1459	1459	1466	1458	1452	1445	1451	1462	1462	1463	1463	1470	1469	1469	1464	1468	1451	1421	1399	1382	1374	1386	1395	1398	1408	1415	1420	1421	1426	1431	1439	1427	1415	1408	1410	1415	1429	1439	1447	1450	1442	1449	1452	1464	1437	1422	1416	1408	1415	1418	1417	1418	1422	1421	1419	1417	1417	1422	1434	1441	1436	1426	1448	1439	1432	1417	1420	0	0	0	0	0	0	0	0	0	0	0	0	0	0	0	0	0	0	0	0	0	0	0	0	0	0	0	1667	1657	1655	1658	1667	1671	1674	1681	1670	0	0	0	0	1452	1417	1419	1434	1444	1447	1443	1440	1436	1427	1416	1415	1424	1436	1447	1436	1421	1414	1426	1439	1438	1424	1412	1409	1429	1446	1448	1440	1438	1451	1445	1437	1427	1423	1432	1439	1433	1416	1407	1403	1410	1433	1449	1455	1438	1420	1427	1441	1454	1452	1451	1438	1418	1419	1419	1419	1408	1399	1393	1397	1411	1419	1426	1437	1438	1416	1406	1399	1388	1387	1397	1414	1428	1436	1427	1417	1415	1407	1400	1412	1419	1429	1430	1430	1435	1435	1445	1440	1429	1426	1433	1435	1431	1414	1410	1425	1435	1440	1439	1427	1426	1428	1430	1433	1425	1408	1411	1418	1430	1433	1421	1410	1405	1410	1415	1427	1436	1444	1445	1437	1449	1457	1465	1461	1448	1419	1402	1403	1414	1427	1442	1453	1460	1467	1455	1438	1433	1436	1439	1444	1446	1441	1436	1440	1443	1447	1444	1444	1460	1483	1494	1501	1508	1514	1507	1504	1447	1454	1454	1449	1430	1432	1443	1445	1453	1457	1459	1469	1465	1451	1436	1423	1416	1420	1429	1439	1444	1442	1447	1445	1447	1443	1442	1437	1442	1442	1441	1438	1436	1435	1438	1441	1432	1442	1453	1456	1448	1439	1439	1453	1463	1476	1473	1465	1457	1446	1446	1444	1445	1431	1425	1420	1427	1427	1429	1435	1453	1498	1499	1478	1455	1443	1443	1454	1453	1449	1453	1454	1448	1436	1426	1427	1435	1443	1452	1452	1454	1452	1450	1442	1430	1412	1402	1412	1427	1441	1446	1467	1472	1475	1471	1468	1469	1471	1476	1479	1483	1469	1460	1452	1436	1426	1429	1438	1449	1451	1451	1434	1428	1415	1416	1417	1430	1436	1434	1429	1418	1413	1416	1421	1426	1428	1441	1458	1461	1463	1473	1473	1466	1468	1477	1481	1478	1460	1453	1467	1480	1483	1485	1484	1483	1488	1502	0	0	0	0	0	0	0	0	0	0	0	0	0	0	0	0	0	0	0	0	0	1598	1596	1590	1587	1599	1606	1594	1596	1550	1529	1529	1540	1550	1557	1558	1551	1549	1551	1557	1556	1559	1560	1567	1570	1561	1546	1540	1543	1541	1542	1537	1519	1556	1549	1561	0	0	0	0	0	0	0	0	0	0	0	0	0	0	0	0	0	1538	1527	1526	1515	1493	1498	1493	1501	1514	1508	1500	1480	1472	1468	1467	1468	1463	1457	1463	1476	1491	1500	1500	1505	1504	1509	1513	1513	1514	1510	1503	1505	1489	1502	1501	1505	1512	1519	1515	1505	1483	1467	1468	1477	1494	1495	1490	1489	1489	1488	1489	1491	1496	1514	1507	1492	1484	1478	1481	1481	1482	1479	1478	1480	1483	1496	1514	1521	1511	1499	1492	1489	1488	1481	1481	1473	1460	1458	1464	1479	0	0	0	0	0	0	0
0	0	0	1407	1416	1421	1421	1421	1422	1419	1419	1431	1427	1424	1424	1425	1428	1420	1420	1421	1432	1432	1437	1439	1447	1451	1445	1438	1427	1427	1423	1424	1423	1424	1418	1418	1421	1426	1426	1434	1447	1462	1459	1453	1439	1445	1448	1451	1445	1447	1453	1453	1449	1443	1448	1454	1455	1446	1441	1440	1441	1451	1467	1467	1455	1443	1440	1432	1432	1437	1455	1455	1459	1453	1444	1443	1454	1464	1465	1465	1470	1471	1477	1483	1483	1475	1438	1405	1403	1398	1402	1411	1426	1433	1433	1426	1422	1418	1427	1433	1432	1424	1413	1408	1415	1428	1419	1424	1433	1433	1439	1444	1450	1464	1441	1437	1430	1423	1428	1420	1417	1425	1422	1419	1419	1425	1428	1434	1444	1453	1449	1433	1429	1427	1425	1425	0	0	0	0	0	0	0	0	0	0	0	0	0	0	0	0	0	0	0	0	0	0	0	0	0	0	0	0	1683	1662	1645	1646	1653	1661	1669	1671	1700	0	0	0	0	0	1447	1425	1426	1430	1433	1434	1441	1435	1416	1399	1393	1400	1440	1447	1443	1422	1414	1416	1431	1427	1416	1403	1404	1421	1433	1439	1434	1441	1443	1439	1433	1422	1422	1429	1427	1423	1410	1404	1409	1425	1434	1449	1454	1442	1422	1428	1446	1455	1456	1443	1431	1416	1416	1415	1419	1419	1407	1402	1423	1422	1429	1429	1438	1429	1408	1402	1395	1389	1388	1392	1403	1417	1427	1431	1423	1415	1420	1420	1423	1431	1432	1428	1426	1426	1433	1441	1438	1420	1413	1420	1433	1432	1420	1417	1419	1436	1440	1441	1433	1428	1427	1435	1436	1431	1416	1422	1442	1443	1433	1427	1420	1416	1412	1415	1420	1427	1436	1423	1419	1432	1441	1455	1454	1445	1427	1405	1397	1407	1428	1445	1457	1464	1465	1455	1439	1433	1436	1443	1445	1452	1451	1449	1444	1444	1441	1441	1443	1455	1478	1484	1507	1518	1508	1505	1497	1451	1456	1453	1449	1433	1434	1431	1445	1452	1459	1468	1472	1464	1454	1438	1423	1417	1418	1428	1441	1431	1440	1442	1446	1452	1451	1449	1448	1445	1443	1446	1442	1434	1430	1433	1446	1444	1442	1442	1438	1436	1431	1438	1452	1470	1483	1479	1464	1448	1442	1447	1449	1447	1429	1422	1426	1422	1423	1421	1429	1451	1496	1499	1478	1459	1445	1445	1453	1463	1454	1449	1459	1454	1437	1422	1423	1432	1443	1450	1450	1451	1440	1444	1445	1427	1412	1408	1415	1435	1443	1447	1463	1465	1475	1489	1498	1498	1502	1500	1503	1493	1462	1436	1430	1410	1410	1413	1432	1444	1452	1452	1443	1429	1421	1420	1428	1437	1438	1432	1422	1413	1412	1415	1415	1413	1418	1433	1457	1456	1466	1465	1461	1458	1463	1462	1470	1471	1460	1430	1445	1459	1470	1475	1472	1472	1472	1477	0	0	0	0	0	0	0	0	0	0	0	0	0	0	0	0	0	0	0	0	0	0	1612	1596	1591	1597	1593	1581	1558	1551	1540	1549	1554	1550	1561	1583	1535	1536	1535	1537	1562	1575	1569	1558	1541	1544	1543	1537	1544	1568	1572	1561	1554	1549	1535	1539	0	0	0	0	0	0	0	0	0	0	0	0	0	0	0	0	0	1544	1536	1526	1517	1514	1506	1501	1489	1498	1504	1496	1485	1477	1486	1508	1506	1495	1475	1471	1486	1509	1505	1490	1496	1507	1521	1528	1526	1515	1504	1500	1487	1492	1478	1493	1505	1511	1516	1508	1492	1469	1460	1471	1483	1496	1490	1484	1490	1495	1504	1501	1501	1505	1520	1520	1495	1469	1465	1474	1474	1487	1486	1490	1491	1491	1509	1524	1529	1516	1497	1486	1487	1487	1488	1488	1487	1473	1465	1463	1474	0	0	0	0	0	0	0
0	0	0	1408	1410	1413	1420	1420	1418	1428	1428	1428	1424	1418	1418	1421	1425	1422	1419	1413	1425	1425	1433	1444	1447	1449	1448	1437	1422	1422	1421	1418	1412	1410	1411	1416	1427	1439	1439	1452	1471	1470	1465	1450	1452	1462	1473	1470	1451	1451	1450	1450	1445	1444	1448	1456	1458	1454	1443	1447	1461	1471	1474	1469	1458	1447	1440	1439	1433	1446	1453	1453	1455	1452	1451	1444	1454	1461	1475	1480	1479	1478	1480	1483	1491	1484	1450	1414	1402	1399	1396	1408	1425	1428	1426	1418	1411	1408	1410	1415	1420	1419	1417	1420	1427	1431	1414	1409	1419	1423	1433	1446	1447	1438	1432	1430	1431	1425	1434	1425	1405	1403	1404	1405	1413	1423	1437	1447	1457	1458	1451	1433	1404	1400	1400	1406	0	0	0	0	0	0	0	0	0	0	0	0	0	0	0	0	0	0	0	0	0	0	0	0	0	0	0	0	1687	1654	1641	1648	1657	1658	1667	1673	1713	0	0	0	0	0	1454	1436	1428	1419	1424	1431	1443	1440	1412	1389	1378	1393	1444	1460	1462	1437	1423	1417	1417	1426	1418	1408	1408	1408	1408	1410	1424	1438	1446	1442	1430	1425	1421	1424	1420	1414	1405	1405	1410	1421	1428	1442	1453	1447	1421	1421	1436	1446	1447	1440	1428	1414	1413	1411	1419	1421	1413	1425	1428	1432	1439	1435	1436	1434	1408	1394	1390	1387	1385	1382	1388	1406	1425	1430	1425	1430	1425	1433	1427	1440	1443	1443	1433	1427	1428	1433	1435	1423	1422	1426	1424	1428	1423	1422	1423	1431	1434	1438	1440	1437	1443	1444	1446	1440	1440	1446	1448	1446	1435	1425	1427	1427	1422	1421	1422	1424	1428	1425	1419	1422	1438	1447	1447	1441	1427	1409	1404	1414	1432	1447	1449	1447	1443	1438	1435	1438	1448	1455	1459	1457	1457	1457	1451	1448	1444	1437	1434	1446	1469	1487	1496	1499	1489	1488	1489	1448	1450	1447	1443	1431	1430	1436	1436	1447	1463	1475	1477	1477	1474	1458	1435	1427	1423	1435	1445	1436	1436	1442	1445	1450	1445	1439	1442	1443	1444	1439	1440	1437	1431	1434	1442	1451	1440	1433	1425	1426	1426	1431	1449	1468	1476	1473	1454	1443	1438	1448	1456	1449	1436	1427	1421	1423	1428	1421	1433	1468	1492	1496	1478	1466	1451	1456	1461	1461	1457	1454	1455	1454	1440	1417	1413	1420	1436	1440	1440	1442	1442	1449	1440	1431	1416	1411	1423	1444	1454	1452	1451	1458	1472	1490	1502	1509	1509	1509	1501	1491	1452	1435	1422	1406	1409	1420	1427	1441	1449	1452	1449	1438	1433	1427	1430	1437	1442	1434	1418	1405	1403	1409	1408	1413	1425	1434	1452	1462	1466	1467	1450	1450	1452	1449	1462	1475	1462	1424	1427	1446	1461	1470	1471	1469	1461	1468	0	0	0	0	0	0	0	0	0	0	0	0	0	0	0	0	0	0	0	0	0	0	0	1623	1611	1603	1584	1566	1554	1558	1562	1558	1555	1556	1561	1578	1556	1543	1540	1540	1549	1557	1553	1538	1511	1509	1517	1548	1586	1610	1596	1580	1542	1536	1541	1549	0	0	0	0	0	0	0	0	0	0	0	0	0	0	0	0	0	1548	1544	1529	1515	1517	1516	1511	1496	1477	1486	1478	1487	1500	1510	1523	1522	1504	1468	1468	1483	1500	1496	1496	1495	1505	1516	1515	1510	1498	1495	1483	1476	1481	1472	1482	1501	1510	1496	1484	1481	1470	1475	1478	1499	1503	1495	1492	1487	1499	1514	1510	1504	1498	1501	1503	1488	1468	1462	1473	1473	1481	1488	1497	1502	1502	1506	1517	1524	1510	1495	1481	1479	1481	1486	1486	1483	1482	1471	1466	1470	0	0	0	0	0	0	0
0	0	0	1403	1396	1389	1395	1395	1422	1433	1435	1433	1411	1411	1405	1411	1416	1422	1422	1418	1415	1415	1431	1434	1438	1436	1431	1428	1416	1416	1408	1406	1403	1401	1404	1413	1432	1451	1451	1460	1474	1471	1449	1445	1451	1471	1480	1479	1451	1440	1438	1438	1439	1444	1445	1450	1453	1448	1443	1454	1472	1483	1479	1468	1452	1448	1441	1441	1444	1448	1458	1458	1456	1462	1452	1455	1456	1457	1471	1481	1484	1478	1478	1482	1490	1487	1459	1425	1406	1398	1391	1400	1419	1420	1418	1407	1403	1406	1409	1414	1420	1422	1427	1433	1436	1425	1406	1411	1425	1434	1435	1440	1439	1434	1426	1421	1416	1418	1418	1411	1406	1400	1403	1406	1411	1416	1426	1440	1456	1455	1446	1426	1399	1400	1398	1398	1383	0	0	0	0	0	0	0	0	0	0	0	0	0	0	0	0	0	0	0	0	0	0	0	0	0	0	0	1658	1650	1655	1661	1663	1672	1673	1712	1681	0	0	0	0	0	1430	1439	1420	1414	1418	1432	1444	1437	1416	1390	1387	1393	1443	1466	1465	1454	1430	1421	1423	1427	1429	1426	1415	1405	1393	1394	1404	1431	1447	1455	1449	1432	1418	1416	1417	1409	1405	1405	1411	1423	1434	1443	1448	1449	1418	1411	1413	1433	1432	1427	1420	1418	1423	1426	1433	1421	1415	1425	1426	1429	1434	1436	1441	1439	1405	1395	1384	1380	1376	1373	1383	1397	1424	1432	1437	1433	1441	1435	1429	1432	1440	1443	1436	1427	1426	1429	1436	1435	1429	1426	1428	1424	1426	1433	1425	1425	1432	1443	1449	1450	1456	1457	1458	1453	1453	1457	1453	1437	1420	1414	1424	1432	1423	1419	1420	1422	1424	1424	1419	1427	1444	1455	1448	1437	1428	1423	1419	1427	1442	1446	1442	1435	1430	1420	1425	1446	1470	1468	1462	1456	1458	1459	1450	1447	1444	1435	1430	1433	1457	1476	1490	1483	1477	1487	1478	1449	1443	1437	1428	1428	1435	1439	1439	1448	1459	1476	1467	1466	1459	1454	1441	1431	1424	1428	1433	1434	1440	1442	1448	1448	1441	1433	1441	1444	1437	1429	1437	1439	1433	1436	1438	1445	1439	1425	1420	1411	1418	1430	1445	1461	1462	1458	1445	1434	1440	1452	1460	1457	1444	1444	1439	1456	1454	1448	1455	1476	1481	1485	1479	1469	1450	1455	1458	1453	1446	1445	1449	1446	1440	1425	1416	1414	1422	1422	1430	1440	1438	1455	1454	1434	1408	1417	1432	1453	1464	1462	1448	1446	1462	1480	1486	1483	1483	1485	1476	1465	1440	1427	1423	1421	1416	1427	1426	1431	1438	1454	1452	1446	1432	1420	1413	1428	1434	1431	1421	1409	1402	1401	1405	1422	1435	1440	1449	1454	1458	1450	1433	1425	1425	1438	1461	1483	1476	1427	1419	1436	1454	1473	1484	1477	1466	0	0	0	0	0	0	0	0	0	0	0	0	0	0	0	0	0	0	0	0	0	0	0	0	1647	1617	1595	1565	1550	1549	1557	1560	1557	1548	1549	1551	1556	1557	1547	1530	1538	1545	1543	1538	1523	1508	1499	1508	1529	1567	1592	1593	1579	1537	1543	1545	1555	0	0	0	0	0	0	0	0	0	0	0	0	0	0	0	0	0	1558	1538	1524	1494	1506	1526	1527	1518	1502	1502	1494	1502	1518	1519	1518	1512	1488	1467	1467	1478	1496	1492	1493	1492	1493	1497	1494	1488	1486	1486	1481	1475	1468	1472	1478	1485	1492	1481	1469	1469	1477	1487	1500	1516	1514	1504	1492	1490	1491	1502	1502	1492	1489	1491	1492	1486	1470	1465	1467	1467	1477	1488	1496	1502	1503	1502	1506	1504	1497	1486	1475	1472	1469	1471	1471	1480	1476	1475	1473	1470	0	0	0	0	0	0	0
0	0	0	1408	1383	1371	1375	1375	1400	1422	1433	1428	1413	1413	1406	1399	1403	1417	1421	1413	1425	1425	1424	1430	1429	1427	1421	1414	1411	1411	1410	1405	1403	1402	1407	1417	1430	1446	1446	1454	1466	1459	1438	1434	1447	1463	1470	1469	1430	1421	1421	1432	1438	1441	1447	1447	1442	1441	1446	1456	1477	1477	1470	1458	1445	1435	1433	1435	1443	1445	1459	1459	1467	1465	1467	1467	1464	1456	1472	1471	1480	1476	1476	1480	1479	1485	1476	1440	1426	1410	1393	1397	1412	1416	1413	1412	1409	1415	1419	1420	1423	1425	1431	1434	1430	1419	1415	1411	1421	1427	1434	1442	1445	1439	1427	1423	1421	1420	1417	1412	1412	1412	1415	1414	1414	1417	1427	1434	1443	1448	1434	1418	1417	1408	1404	1393	1365	0	0	0	0	0	0	0	0	0	0	0	0	0	0	0	0	0	0	0	0	0	0	0	0	0	0	0	1636	1647	1662	1673	1685	1691	1701	1710	1690	0	0	0	0	0	1415	1427	1414	1405	1404	1424	1437	1449	1447	1436	1438	1437	1442	1449	1459	1459	1447	1433	1432	1440	1438	1439	1436	1425	1389	1387	1395	1439	1463	1467	1469	1464	1445	1424	1407	1400	1402	1408	1420	1433	1445	1441	1437	1442	1432	1414	1404	1412	1417	1419	1418	1418	1431	1433	1444	1446	1440	1425	1413	1408	1416	1424	1448	1452	1438	1417	1393	1377	1374	1371	1381	1396	1416	1430	1438	1441	1440	1432	1422	1419	1420	1429	1429	1430	1432	1433	1434	1429	1431	1428	1432	1434	1440	1445	1437	1425	1426	1446	1458	1463	1459	1464	1470	1471	1473	1472	1459	1430	1411	1408	1422	1434	1429	1417	1415	1421	1426	1427	1439	1463	1475	1469	1454	1432	1423	1418	1421	1424	1429	1439	1447	1435	1422	1415	1423	1445	1456	1460	1452	1449	1451	1454	1448	1446	1445	1443	1432	1444	1451	1464	1475	1484	1514	1469	1454	1448	1438	1429	1431	1435	1445	1448	1444	1445	1452	1464	1461	1455	1452	1447	1443	1432	1425	1426	1430	1435	1436	1434	1443	1442	1436	1439	1447	1443	1434	1430	1429	1430	1426	1429	1431	1438	1435	1428	1419	1417	1418	1425	1436	1449	1451	1446	1444	1437	1438	1445	1451	1449	1449	1456	1467	1462	1467	1455	1452	1460	1470	1477	1472	1467	1471	1468	1456	1451	1430	1430	1435	1440	1433	1421	1408	1407	1415	1415	1413	1422	1446	1461	1454	1437	1418	1409	1433	1452	1473	1471	1463	1461	1466	1474	1481	1466	1453	1462	1451	1439	1432	1441	1445	1447	1444	1444	1440	1440	1437	1450	1453	1442	1423	1408	1406	1413	1426	1431	1421	1406	1409	1410	1427	1447	1458	1465	1465	1458	1460	1448	1435	1425	1430	1439	1462	1482	1485	1443	1424	1427	1446	1488	1504	1489	1484	0	0	0	0	0	0	0	0	0	0	0	0	0	0	0	0	0	0	0	0	0	0	0	0	1654	1621	1588	1558	1542	1535	1559	1561	1553	1542	1546	1553	1559	1559	1537	1531	1532	1543	1554	1544	1534	1514	1497	1503	1527	1553	1582	1580	1573	1522	1519	1535	1558	0	0	0	0	0	0	0	0	0	0	0	0	0	0	0	0	0	1568	1547	1515	1498	1506	1524	1525	1523	1515	1510	1512	1522	1525	1521	1509	1492	1472	1470	1478	1482	1487	1489	1492	1493	1487	1483	1476	1476	1490	1491	1496	1484	1477	1471	1474	1477	1481	1470	1469	1470	1485	1493	1504	1516	1523	1514	1498	1485	1486	1491	1490	1485	1482	1484	1489	1487	1481	1467	1467	1471	1471	1481	1494	1506	1500	1497	1491	1491	1484	1476	1464	1459	1459	1464	1464	1472	1483	1485	1484	1478	0	0	0	0	0	0	0
0	0	0	1410	1392	1379	1374	1374	1393	1414	1425	1426	1420	1420	1403	1394	1397	1409	1420	1425	1422	1422	1418	1419	1419	1411	1408	1407	1409	1409	1412	1409	1410	1407	1409	1421	1426	1436	1436	1439	1454	1449	1438	1435	1442	1460	1460	1430	1405	1408	1408	1426	1439	1442	1441	1437	1435	1438	1448	1463	1475	1477	1468	1456	1445	1439	1436	1442	1445	1445	1453	1453	1462	1468	1470	1474	1464	1460	1459	1463	1470	1473	1475	1475	1478	1481	1477	1464	1441	1422	1403	1399	1408	1421	1416	1415	1417	1430	1429	1429	1427	1427	1424	1426	1424	1419	1413	1409	1412	1419	1428	1441	1440	1436	1428	1430	1431	1428	1424	1421	1417	1420	1425	1427	1425	1421	1426	1431	1437	1436	1426	1413	1406	1402	1405	1391	1367	0	0	0	0	0	0	0	0	0	0	0	0	0	0	0	0	0	0	0	0	0	0	0	0	0	0	0	1619	1650	1668	1685	1694	1693	1702	1701	1680	0	0	0	0	0	1415	1415	1402	1388	1391	1410	1430	1433	1437	1427	1428	1432	1439	1441	1451	1452	1440	1428	1428	1430	1434	1438	1435	1414	1389	1391	1404	1447	1461	1465	1457	1453	1446	1426	1409	1409	1409	1417	1430	1441	1448	1439	1437	1436	1433	1423	1416	1420	1427	1427	1423	1428	1426	1435	1450	1450	1438	1425	1408	1396	1405	1421	1439	1455	1435	1417	1394	1380	1378	1377	1384	1411	1428	1435	1433	1439	1435	1424	1411	1400	1400	1407	1409	1416	1421	1427	1428	1430	1435	1436	1438	1446	1457	1438	1430	1416	1421	1437	1454	1459	1455	1456	1468	1465	1462	1462	1461	1457	1451	1455	1436	1435	1433	1436	1445	1447	1445	1445	1457	1475	1483	1470	1449	1437	1429	1419	1418	1417	1421	1435	1439	1441	1438	1425	1422	1429	1441	1442	1434	1436	1441	1441	1441	1445	1451	1465	1466	1460	1449	1453	1462	1473	1517	1455	1445	1444	1433	1430	1438	1448	1452	1449	1450	1447	1447	1450	1446	1449	1449	1444	1440	1432	1427	1425	1428	1432	1432	1428	1440	1440	1442	1444	1442	1446	1433	1426	1423	1419	1412	1418	1429	1437	1437	1429	1436	1429	1422	1421	1433	1440	1449	1454	1450	1444	1436	1442	1439	1439	1444	1459	1468	1473	1461	1448	1436	1439	1456	1468	1469	1466	1463	1472	1462	1450	1429	1403	1415	1426	1431	1430	1413	1410	1414	1419	1408	1417	1424	1439	1449	1438	1416	1418	1435	1456	1475	1482	1476	1479	1480	1485	1487	1461	1458	1447	1444	1438	1445	1450	1450	1451	1445	1450	1456	1453	1452	1455	1449	1434	1421	1411	1409	1415	1424	1430	1420	1411	1418	1422	1436	1456	1466	1473	1466	1458	1456	1451	1438	1441	1440	1448	1455	1474	1472	1463	1414	1414	1440	1477	1509	1507	0	0	0	0	0	0	0	0	0	0	0	0	0	0	0	0	0	0	0	0	0	0	0	0	0	1638	1626	1601	1579	1553	1535	1547	1554	1555	1547	1550	1558	1557	1552	1542	1541	1541	1562	1563	1555	1548	1534	1512	1509	1521	1553	1575	1580	1566	1517	1509	1525	1558	0	0	0	0	0	0	0	0	0	0	0	0	0	0	0	0	0	1557	1547	1512	1508	1520	1513	1517	1517	1512	1506	1517	1515	1517	1501	1490	1475	1472	1480	1487	1494	1492	1487	1488	1491	1489	1487	1478	1482	1493	1505	1507	1498	1478	1473	1474	1477	1473	1468	1467	1470	1482	1490	1499	1507	1512	1507	1491	1479	1477	1486	1487	1488	1484	1476	1480	1480	1475	1468	1466	1470	1470	1477	1489	1501	1502	1492	1490	1486	1481	1470	1463	1456	1455	1461	1478	1478	1489	1499	1495	1484	0	0	0	0	0	0	0
0	0	0	1400	1397	1388	1388	1388	1402	1406	1420	1426	1419	1419	1411	1407	1403	1412	1422	1428	1428	1417	1411	1407	1410	1406	1403	1400	1407	1407	1416	1416	1420	1418	1421	1427	1428	1428	1428	1422	1440	1454	1442	1439	1439	1448	1441	1419	1398	1396	1396	1415	1439	1446	1434	1441	1434	1441	1454	1466	1470	1468	1464	1460	1450	1449	1453	1456	1456	1451	1451	1451	1459	1464	1467	1471	1464	1452	1452	1456	1463	1467	1470	1468	1470	1474	1468	1454	1442	1429	1407	1402	1412	1424	1424	1417	1422	1429	1436	1432	1435	1430	1425	1419	1418	1420	1418	1407	1408	1410	1419	1434	1443	1439	1428	1428	1428	1434	1431	1427	1429	1430	1434	1434	1427	1426	1427	1427	1423	1429	1422	1405	1401	1394	1408	1402	1392	0	0	0	0	0	0	0	0	0	0	0	0	0	0	0	0	0	0	0	0	0	0	0	0	0	0	0	1611	1639	1667	1683	1687	1684	1686	1679	1662	0	0	0	0	0	1419	1418	1402	1379	1382	1406	1417	1409	1410	1409	1406	1402	1429	1432	1427	1415	1406	1400	1398	1406	1424	1431	1423	1403	1387	1391	1412	1445	1446	1454	1440	1435	1432	1422	1422	1428	1433	1435	1433	1442	1440	1430	1425	1430	1442	1446	1447	1444	1443	1448	1447	1439	1440	1442	1425	1420	1409	1407	1401	1395	1401	1415	1428	1436	1428	1416	1400	1398	1389	1384	1399	1425	1449	1440	1440	1435	1426	1409	1404	1393	1387	1386	1396	1403	1412	1422	1424	1431	1437	1445	1445	1449	1453	1436	1428	1419	1422	1436	1444	1456	1446	1443	1447	1454	1452	1448	1454	1452	1465	1457	1440	1425	1421	1430	1434	1442	1442	1440	1449	1463	1476	1466	1451	1441	1433	1430	1437	1425	1422	1434	1442	1446	1443	1436	1430	1428	1444	1436	1426	1428	1426	1430	1430	1438	1447	1465	1471	1461	1449	1439	1437	1482	1508	1453	1450	1438	1436	1445	1447	1454	1446	1449	1444	1438	1428	1430	1436	1442	1448	1447	1445	1434	1429	1426	1424	1432	1432	1434	1438	1441	1434	1436	1441	1444	1436	1429	1420	1414	1415	1422	1436	1445	1448	1448	1450	1438	1436	1432	1434	1442	1450	1459	1456	1451	1442	1438	1438	1441	1445	1452	1454	1461	1449	1437	1424	1424	1431	1434	1440	1440	1457	1463	1469	1456	1433	1398	1408	1426	1440	1436	1423	1430	1434	1421	1413	1416	1422	1440	1449	1445	1439	1431	1445	1463	1473	1481	1477	1477	1487	1503	1502	1483	1462	1460	1459	1455	1430	1424	1425	1426	1432	1442	1459	1466	1465	1456	1450	1443	1440	1436	1437	1436	1441	1445	1440	1434	1435	1443	1453	1453	1460	1456	1455	1448	1457	1445	1434	1430	1436	1444	1450	1457	1463	1461	1443	1443	1452	1467	1493	1523	0	0	0	0	0	0	0	0	0	0	0	0	0	0	0	0	0	0	0	0	0	0	0	0	0	1631	1626	1607	1579	1554	1546	1552	1564	1550	1552	1553	1564	1572	1561	1551	1553	1558	1562	1577	1575	1559	1552	1550	1561	1576	1583	1577	1563	1562	1549	1546	1529	1589	0	0	0	0	0	0	0	0	0	0	0	0	0	0	0	0	0	1534	1531	1510	1513	1520	1513	1516	1515	1509	1518	1499	1496	1503	1499	1492	1482	1483	1495	1501	1505	1501	1493	1492	1495	1502	1499	1505	1501	1503	1504	1503	1492	1485	1477	1477	1480	1473	1465	1462	1465	1470	1475	1486	1492	1499	1494	1486	1479	1477	1485	1496	1494	1483	1472	1466	1467	1461	1466	1470	1471	1471	1475	1488	1495	1491	1488	1491	1487	1485	1477	1466	1458	1456	1458	1471	1471	1487	1491	1489	1483	0	0	0	0	0	0	0
0	0	0	1408	1408	1405	1404	1404	1405	1405	1413	1414	1412	1412	1417	1413	1409	1425	1428	1420	1420	1421	1410	1407	1407	1408	1402	1400	1404	1404	1412	1421	1426	1426	1430	1431	1431	1431	1431	1416	1420	1442	1431	1429	1434	1433	1418	1412	1405	1408	1408	1427	1444	1447	1449	1449	1451	1456	1465	1465	1466	1467	1466	1460	1458	1460	1468	1464	1459	1456	1456	1449	1448	1453	1455	1464	1464	1449	1449	1449	1458	1468	1470	1468	1469	1470	1461	1444	1436	1424	1414	1414	1420	1426	1428	1419	1417	1428	1436	1436	1440	1439	1433	1418	1417	1417	1423	1420	1415	1412	1416	1430	1439	1433	1426	1419	1421	1424	1431	1435	1442	1442	1444	1433	1422	1422	1419	1423	1419	1415	1407	1399	1404	1404	1421	1427	0	0	0	0	0	0	0	0	0	0	0	0	0	0	0	0	0	0	0	0	0	0	0	0	0	0	0	0	1621	1639	1658	1667	1668	1676	1667	1661	1644	0	0	0	0	0	1404	1411	1400	1381	1389	1413	1415	1416	1417	1419	1414	1404	1421	1431	1435	1427	1412	1403	1404	1406	1416	1422	1418	1400	1387	1398	1418	1446	1448	1451	1443	1441	1436	1438	1444	1447	1446	1439	1423	1409	1408	1412	1415	1438	1456	1463	1462	1455	1448	1458	1458	1452	1448	1444	1427	1415	1400	1394	1386	1385	1390	1406	1414	1420	1423	1420	1420	1419	1418	1406	1413	1448	1474	1475	1465	1444	1423	1411	1414	1420	1426	1417	1409	1414	1418	1428	1436	1451	1460	1456	1441	1421	1421	1429	1443	1446	1442	1451	1452	1445	1426	1411	1409	1417	1418	1412	1411	1416	1435	1446	1437	1423	1415	1412	1420	1430	1441	1446	1448	1458	1471	1462	1450	1437	1443	1447	1445	1436	1430	1440	1448	1457	1457	1464	1465	1450	1451	1438	1426	1421	1425	1426	1423	1434	1438	1447	1457	1456	1447	1432	1462	1526	1519	1489	1448	1438	1444	1452	1453	1447	1445	1445	1446	1444	1430	1422	1432	1435	1449	1449	1445	1437	1434	1432	1434	1433	1437	1438	1441	1442	1443	1440	1439	1434	1437	1427	1428	1425	1420	1428	1432	1433	1436	1441	1447	1456	1446	1441	1437	1436	1441	1451	1453	1444	1437	1438	1441	1446	1449	1453	1458	1455	1443	1432	1427	1433	1436	1438	1434	1436	1443	1452	1463	1463	1443	1413	1417	1431	1445	1453	1451	1448	1441	1426	1425	1422	1434	1448	1457	1457	1453	1459	1457	1467	1471	1465	1463	1466	1479	1498	1502	1490	1474	1469	1469	1464	1422	1419	1424	1427	1428	1436	1455	1467	1459	1445	1447	1449	1454	1448	1441	1441	1446	1448	1448	1449	1450	1445	1441	1442	1446	1444	1443	1449	1462	1443	1429	1430	1445	1454	1466	1477	1476	1468	1458	1459	1467	1467	1478	1522	0	0	0	0	0	0	0	0	0	0	0	0	0	0	0	0	0	0	0	0	0	0	0	0	0	1625	1610	1571	1564	1557	1551	1556	1569	1562	1552	1551	1553	1555	1551	1556	1561	1557	1555	1552	1555	1555	1543	1536	1546	1556	1563	1565	1567	1568	1567	1560	1568	1619	0	0	0	0	0	0	0	0	0	0	0	0	0	0	0	0	0	1522	1521	1505	1509	1521	1514	1515	1517	1505	1486	1470	1485	1494	1494	1491	1503	1502	1509	1506	1503	1503	1504	1503	1507	1510	1506	1510	1510	1512	1503	1492	1493	1489	1494	1486	1478	1475	1464	1461	1459	1460	1462	1471	1484	1488	1490	1483	1478	1479	1492	1494	1492	1474	1463	1460	1459	1463	1472	1480	1483	1483	1489	1487	1483	1478	1478	1485	1495	1497	1486	1478	1473	1460	1459	1470	1470	1479	1481	1473	1475	0	0	0	0	0	0	0
0	0	0	1425	1427	1423	1409	1409	1404	1401	1400	1398	1407	1407	1415	1418	1422	1428	1429	1432	1432	1421	1412	1414	1408	1408	1402	1402	1404	1404	1413	1426	1432	1431	1430	1430	1438	1427	1427	1414	1403	1410	1413	1415	1418	1410	1400	1412	1421	1439	1439	1446	1456	1445	1444	1446	1453	1457	1463	1469	1469	1460	1463	1461	1460	1461	1470	1467	1467	1464	1464	1457	1449	1448	1449	1451	1459	1451	1450	1456	1462	1475	1471	1469	1465	1466	1455	1432	1422	1420	1418	1426	1435	1438	1434	1420	1419	1419	1426	1431	1441	1441	1435	1419	1411	1412	1419	1425	1420	1415	1417	1428	1438	1431	1421	1416	1412	1418	1428	1443	1453	1460	1453	1434	1420	1416	1411	1412	1407	1402	1396	1414	1411	1427	1449	1443	0	0	0	0	0	0	0	0	0	0	0	0	0	0	0	0	0	0	0	0	0	0	0	0	0	0	0	0	1650	1644	1651	1664	1659	1670	1665	1656	1629	0	0	0	0	0	1392	1410	1405	1396	1413	1435	1430	1429	1431	1429	1423	1411	1433	1441	1442	1435	1422	1417	1413	1417	1429	1434	1425	1410	1401	1404	1418	1447	1454	1457	1447	1441	1442	1437	1444	1448	1453	1443	1430	1420	1410	1411	1419	1432	1443	1454	1449	1447	1443	1450	1454	1451	1445	1438	1430	1416	1408	1400	1390	1384	1392	1404	1411	1422	1425	1424	1423	1424	1422	1416	1415	1431	1462	1469	1454	1433	1420	1408	1413	1420	1424	1425	1420	1423	1428	1439	1447	1452	1461	1453	1436	1425	1423	1432	1453	1459	1450	1445	1444	1434	1411	1403	1400	1405	1410	1418	1420	1426	1439	1443	1447	1433	1420	1419	1425	1439	1450	1451	1451	1453	1460	1456	1448	1443	1450	1452	1447	1436	1430	1440	1448	1456	1461	1468	1464	1452	1448	1439	1429	1430	1433	1434	1435	1438	1440	1443	1447	1452	1443	1425	1435	0	0	1491	1463	1448	1455	1455	1446	1443	1445	1449	1454	1446	1431	1424	1429	1432	1441	1447	1441	1437	1434	1438	1438	1438	1437	1440	1444	1453	1453	1453	1453	1448	1442	1441	1435	1435	1434	1426	1424	1420	1426	1436	1453	1455	1452	1443	1435	1428	1431	1442	1447	1439	1435	1436	1447	1451	1449	1451	1456	1457	1447	1432	1427	1440	1444	1429	1420	1428	1437	1452	1460	1458	1453	1434	1437	1447	1458	1460	1459	1450	1442	1440	1439	1439	1453	1466	1468	1468	1472	1478	1472	1464	1466	1451	1449	1458	1473	1488	1497	1492	1477	1473	1468	1459	1427	1426	1429	1428	1430	1437	1452	1455	1442	1431	1445	1453	1460	1458	1467	1456	1456	1456	1457	1462	1457	1442	1434	1432	1434	1444	1454	1467	1465	1450	1429	1439	1452	1479	1489	1494	1489	1481	1477	1479	1473	1466	1466	1502	1580	0	0	0	0	0	0	0	0	0	0	0	0	0	0	0	0	0	0	0	0	0	0	0	1594	1600	1605	1593	1593	1556	1549	1551	1576	1561	1555	1553	1556	1556	1543	1538	1536	1543	1538	1546	1545	1546	1540	1532	1531	1528	1532	1537	1543	1546	1562	1563	1568	1629	0	0	0	0	0	0	0	0	0	0	0	0	0	0	0	0	0	1528	1520	1504	1509	1520	1511	1510	1513	1528	1489	1481	1496	1501	1501	1508	1510	1504	1495	1497	1498	1507	1509	1511	1510	1512	1510	1506	1504	1503	1498	1498	1498	1500	1508	1504	1488	1479	1469	1460	1456	1450	1456	1471	1480	1488	1485	1484	1484	1487	1492	1501	1493	1478	1462	1465	1467	1480	1487	1497	1497	1497	1498	1493	1482	1473	1474	1485	1496	1497	1497	1487	1479	1471	1469	1472	1472	1470	1471	1468	1473	0	0	0	0	0	0	0
0	0	0	1443	1443	1439	1426	1426	1408	1394	1388	1389	1400	1400	1414	1417	1426	1429	1432	1427	1427	1429	1429	1429	1427	1425	1415	1408	1408	1408	1416	1425	1434	1433	1432	1428	1425	1419	1419	1412	1400	1406	1405	1404	1399	1391	1397	1407	1440	1459	1459	1463	1455	1436	1438	1443	1452	1459	1464	1470	1463	1454	1453	1459	1456	1456	1467	1476	1480	1475	1475	1463	1453	1438	1437	1445	1457	1457	1458	1466	1478	1488	1480	1473	1470	1467	1454	1435	1424	1422	1425	1438	1445	1452	1435	1421	1413	1411	1416	1420	1438	1440	1434	1423	1407	1403	1409	1424	1413	1406	1410	1433	1440	1437	1424	1414	1409	1411	1426	1442	1451	1454	1440	1430	1423	1420	1412	1401	1399	1400	1417	1428	1450	1448	1454	1439	0	0	0	0	0	0	0	0	0	0	0	0	0	0	0	0	0	0	0	0	0	0	0	0	0	0	0	0	1664	1667	1655	1661	1664	1669	1674	1668	1635	0	0	0	0	0	0	1404	1410	1413	1455	1459	1449	1437	1433	1432	1423	1420	1432	1445	1450	1441	1436	1429	1429	1430	1441	1443	1442	1427	1412	1408	1412	1446	1457	1458	1457	1451	1441	1434	1442	1444	1452	1451	1445	1428	1420	1416	1419	1427	1435	1441	1440	1433	1434	1440	1444	1437	1436	1434	1430	1427	1419	1402	1394	1397	1403	1408	1416	1423	1431	1427	1428	1431	1434	1438	1428	1446	1448	1448	1437	1425	1418	1413	1407	1412	1421	1427	1429	1435	1436	1446	1453	1452	1450	1441	1430	1426	1432	1441	1451	1458	1447	1442	1441	1425	1407	1399	1399	1413	1421	1424	1429	1431	1432	1440	1444	1439	1437	1429	1431	1443	1453	1454	1452	1448	1450	1456	1457	1461	1464	1454	1444	1434	1430	1433	1442	1445	1451	1454	1455	1456	1447	1438	1433	1439	1443	1448	1450	1449	1446	1449	1448	1457	1443	1424	1424	1465	1470	1484	1474	1458	1454	1455	1440	1443	1442	1448	1451	1451	1439	1426	1427	1432	1435	1432	1432	1434	1440	1444	1441	1436	1434	1443	1453	1456	1459	1460	1458	1455	1449	1445	1442	1444	1439	1429	1418	1409	1423	1429	1441	1454	1445	1437	1427	1426	1425	1436	1444	1441	1440	1436	1444	1449	1449	1448	1457	1456	1450	1437	1433	1440	1443	1427	1418	1419	1441	1457	1468	1467	1455	1442	1446	1454	1464	1464	1458	1452	1447	1451	1453	1457	1468	1479	1482	1484	1482	1482	1475	1467	1451	1448	1450	1465	1473	1490	1491	1488	1473	1469	1463	1451	1427	1427	1436	1435	1430	1441	1455	1463	1444	1439	1447	1457	1471	1474	1467	1463	1459	1464	1464	1466	1458	1439	1432	1428	1432	1438	1456	1469	1479	1467	1442	1445	1463	1499	1509	1513	1507	1496	1488	1485	1477	1466	1459	1512	1588	0	0	0	0	0	0	0	0	0	0	0	0	0	0	0	0	0	0	0	0	0	0	0	1566	1594	1592	1594	1590	1593	1544	1559	1567	1565	1553	1553	1553	1554	1540	1538	1540	1544	1548	1551	1555	1554	1549	1540	1539	1537	1538	1538	1536	1540	1550	1557	1560	1568	0	0	0	0	0	0	0	0	0	0	0	0	0	0	0	0	0	1551	1533	1508	1513	1514	1505	1496	1496	1492	1492	1509	1514	1518	1521	1522	1507	1496	1484	1488	1494	1507	1517	1511	1507	1506	1506	1499	1492	1501	1504	1497	1496	1500	1511	1507	1496	1486	1473	1465	1461	1459	1458	1476	1490	1495	1496	1488	1489	1491	1502	1500	1509	1491	1472	1466	1477	1484	1490	1496	1496	1496	1490	1489	1481	1474	1474	1483	1491	1493	1496	1499	1494	1479	1471	1473	1473	1480	1481	1475	1502	0	0	0	0	0	0	0
0	0	0	1444	1439	1443	1441	1441	1428	1406	1392	1399	1403	1403	1411	1418	1424	1426	1431	1436	1436	1435	1443	1445	1444	1438	1432	1426	1426	1423	1426	1429	1431	1433	1433	1429	1428	1420	1420	1419	1411	1402	1402	1401	1395	1390	1397	1412	1439	1461	1461	1461	1446	1434	1429	1434	1446	1453	1463	1466	1465	1457	1454	1461	1462	1465	1467	1468	1478	1478	1478	1465	1448	1438	1432	1445	1450	1456	1458	1469	1482	1490	1489	1480	1478	1475	1471	1448	1435	1428	1433	1442	1448	1439	1432	1421	1411	1409	1409	1414	1431	1437	1436	1419	1406	1401	1408	1421	1417	1410	1417	1432	1445	1440	1427	1420	1414	1413	1422	1432	1428	1431	1424	1427	1432	1426	1407	1402	1400	1406	1427	1465	1465	1434	1440	1435	0	0	0	0	0	0	0	0	0	0	0	0	0	0	0	0	0	0	0	0	0	0	0	0	0	0	0	0	1665	1680	1667	1660	1666	1672	1684	1675	1659	0	0	0	0	0	0	1395	1415	1433	1458	1467	1459	1435	1425	1419	1420	1420	1433	1443	1451	1448	1443	1442	1446	1446	1451	1451	1445	1429	1419	1406	1406	1443	1451	1451	1447	1448	1443	1432	1434	1437	1450	1456	1450	1439	1423	1416	1415	1431	1442	1442	1429	1427	1426	1433	1434	1431	1428	1426	1418	1421	1415	1410	1406	1415	1420	1422	1425	1431	1437	1433	1427	1429	1436	1450	1454	1452	1448	1435	1427	1419	1418	1410	1408	1410	1418	1421	1431	1437	1441	1447	1447	1441	1434	1426	1421	1429	1437	1443	1451	1447	1440	1437	1430	1417	1407	1400	1405	1419	1426	1429	1436	1439	1432	1433	1435	1442	1448	1439	1440	1445	1454	1455	1451	1447	1449	1461	1468	1471	1462	1454	1431	1420	1413	1415	1428	1432	1441	1450	1454	1450	1449	1447	1451	1454	1457	1464	1461	1460	1456	1455	1454	1455	1452	1430	1410	1412	1432	1462	1475	1466	1459	1457	1456	1447	1450	1449	1451	1451	1443	1438	1442	1438	1437	1428	1430	1431	1434	1442	1439	1435	1437	1446	1456	1455	1458	1462	1462	1456	1454	1446	1442	1444	1441	1432	1421	1422	1423	1431	1435	1445	1450	1431	1421	1422	1424	1432	1445	1445	1448	1447	1450	1455	1455	1458	1460	1463	1458	1446	1437	1442	1442	1433	1413	1430	1449	1467	1477	1477	1467	1447	1446	1455	1461	1466	1458	1446	1445	1447	1452	1468	1478	1486	1494	1489	1485	1482	1467	1458	1452	1445	1457	1464	1478	1493	1495	1484	1474	1463	1457	1444	1427	1431	1434	1436	1437	1446	1457	1472	1464	1460	1458	1461	1469	1473	1470	1468	1464	1466	1466	1464	1459	1446	1442	1434	1431	1428	1451	1470	1477	1469	1459	1469	1484	1506	1520	1524	1515	1511	1491	1480	1467	1458	1459	1515	1593	0	0	0	0	0	0	0	0	0	0	0	0	0	0	0	0	0	0	0	0	0	0	0	1558	1588	1597	1593	1588	1556	1537	1556	1560	1559	1551	1551	1556	1555	1544	1548	1553	1560	1561	1558	1559	1557	1550	1543	1543	1545	1545	1545	1542	1539	1542	1550	1562	1567	0	0	0	0	0	0	0	0	0	0	0	0	0	0	0	0	0	1553	1538	1517	1504	1481	1479	1495	1490	1491	1503	1521	1513	1516	1518	1517	1507	1493	1494	1490	1505	1517	1518	1511	1510	1508	1502	1490	1485	1493	1500	1498	1493	1507	1510	1508	1502	1487	1480	1480	1472	1471	1461	1477	1494	1496	1496	1490	1492	1496	1503	1518	1528	1530	1498	1485	1486	1482	1489	1489	1490	1490	1482	1483	1478	1480	1479	1482	1483	1485	1494	1496	1495	1484	1465	1470	1470	1474	1488	1502	1488	0	0	0	0	0	0	0
0	0	0	1432	1427	1436	1445	1445	1434	1427	1416	1411	1415	1415	1417	1420	1422	1426	1424	1430	1430	1443	1451	1458	1458	1455	1442	1441	1441	1436	1434	1435	1434	1435	1432	1428	1431	1432	1432	1427	1409	1395	1395	1399	1391	1393	1402	1423	1440	1455	1455	1455	1438	1435	1426	1426	1441	1452	1461	1468	1466	1461	1460	1469	1471	1467	1461	1462	1469	1465	1465	1464	1453	1442	1443	1443	1451	1454	1458	1468	1481	1490	1490	1485	1482	1486	1483	1464	1450	1443	1445	1444	1441	1433	1417	1413	1407	1402	1406	1421	1431	1438	1437	1420	1410	1407	1417	1429	1418	1411	1422	1430	1434	1432	1426	1425	1425	1420	1420	1425	1425	1420	1415	1417	1425	1420	1407	1395	1398	1408	1425	1452	1444	1420	1425	1440	0	0	0	0	0	0	0	0	0	0	0	0	0	0	0	0	0	0	0	0	0	0	0	0	0	0	0	0	1665	1681	1676	1666	1664	1674	1687	1691	1680	0	0	0	0	0	0	1390	1419	1434	1458	1460	1454	1435	1415	1412	1412	1411	1422	1431	1449	1447	1447	1449	1452	1454	1454	1449	1439	1420	1405	1394	1394	1429	1442	1442	1444	1446	1446	1432	1419	1427	1446	1455	1450	1438	1424	1416	1421	1441	1452	1449	1437	1434	1437	1441	1441	1439	1437	1427	1415	1411	1416	1418	1430	1437	1439	1436	1435	1434	1433	1431	1423	1430	1442	1460	1468	1467	1450	1429	1422	1421	1417	1417	1414	1418	1419	1425	1426	1431	1441	1446	1447	1435	1423	1421	1421	1426	1437	1440	1444	1438	1432	1425	1426	1421	1413	1412	1418	1434	1436	1444	1448	1449	1436	1428	1432	1439	1447	1447	1439	1446	1438	1437	1441	1441	1444	1458	1465	1471	1465	1451	1431	1412	1405	1408	1417	1422	1431	1440	1449	1453	1452	1457	1470	1477	1482	1478	1466	1456	1453	1450	1448	1452	1452	1447	1406	1405	1417	1430	1460	1462	1467	1467	1462	1462	1458	1455	1455	1456	1451	1445	1448	1441	1432	1427	1421	1423	1431	1442	1449	1451	1456	1461	1461	1457	1449	1445	1453	1454	1457	1449	1443	1442	1449	1444	1435	1434	1433	1436	1439	1452	1443	1430	1422	1430	1428	1435	1446	1453	1458	1459	1458	1462	1462	1468	1474	1477	1472	1456	1448	1444	1450	1435	1434	1442	1459	1473	1490	1494	1488	1453	1437	1445	1458	1464	1454	1440	1440	1439	1448	1460	1469	1481	1489	1488	1482	1473	1465	1454	1447	1452	1454	1463	1473	1485	1490	1481	1462	1455	1454	1451	1428	1427	1429	1436	1440	1454	1465	1465	1457	1451	1454	1458	1465	1465	1462	1460	1463	1469	1466	1463	1465	1457	1455	1450	1436	1427	1433	1452	1458	1460	1464	1477	1493	1505	1505	1506	1515	1509	1491	1475	1457	1443	1450	1536	1585	0	0	0	0	0	0	0	0	0	0	0	0	0	0	0	0	0	0	0	0	0	0	0	1531	1560	1592	1596	1591	1554	1540	1535	1556	1552	1546	1548	1551	1550	1545	1553	1564	1575	1572	1565	1558	1550	1544	1544	1546	1551	1553	1555	1547	1542	1540	1553	1584	1601	0	0	0	0	0	0	0	0	0	0	0	0	0	0	0	0	0	1543	1526	1511	1509	1478	1476	1485	1490	1487	1496	1499	1498	1497	1499	1508	1513	1502	1504	1510	1512	1518	1515	1510	1515	1510	1504	1490	1481	1485	1492	1489	1493	1501	1507	1509	1496	1486	1483	1479	1480	1486	1486	1487	1487	1492	1492	1486	1488	1494	1508	1527	1534	1534	1524	1499	1478	1470	1475	1479	1480	1480	1482	1483	1489	1495	1487	1486	1482	1483	1485	1503	1500	1487	1472	1467	1467	1472	1486	1490	1478	0	0	0	0	0	0	0
0	0	0	1419	1414	1424	1429	1429	1439	1441	1441	1446	1431	1431	1420	1406	1420	1422	1417	1418	1418	1432	1445	1459	1462	1466	1451	1445	1445	1438	1429	1424	1422	1423	1427	1427	1430	1427	1427	1429	1414	1395	1395	0	1391	1400	1425	1438	1448	1450	1450	1454	1443	1434	1421	1425	1435	1448	1457	1462	1466	1467	1471	1476	1474	1467	1457	1458	1457	1460	1460	1459	1461	1460	1450	1448	1456	1458	1463	1473	1477	1483	1484	1483	1478	1483	1486	1475	1459	1448	1446	1444	1430	1409	1403	1408	1405	1405	1408	1423	1434	1437	1435	1421	1412	1408	1424	1435	1423	1418	1425	1425	1425	1421	1423	1427	1429	1426	1426	1429	1431	1426	1414	1414	1418	1418	1404	1388	1391	1399	1419	1439	1426	1412	1452	0	0	0	0	0	0	0	0	0	0	0	0	0	0	0	0	0	0	0	0	0	0	0	0	0	0	0	0	0	1667	1675	1669	1665	1665	1671	1682	1703	1695	0	0	0	0	0	0	1386	1405	1417	1440	1441	1444	1429	1420	1414	1408	1398	1415	1429	1439	1437	1440	1446	1448	1448	1447	1439	1434	1413	1393	1388	1393	1430	1426	1426	1441	1448	1447	1438	1428	1435	1453	1460	1445	1415	1418	1421	1425	1449	1455	1441	1438	1443	1448	1457	1459	1455	1446	1433	1419	1412	1419	1429	1439	1449	1460	1456	1449	1440	1437	1427	1423	1426	1442	1461	1473	1472	1456	1433	1426	1428	1427	1423	1422	1422	1426	1426	1425	1432	1441	1448	1451	1440	1427	1423	1421	1422	1431	1440	1438	1431	1428	1425	1429	1430	1429	1438	1441	1452	1462	1471	1468	1459	1445	1432	1429	1439	1445	1448	1451	1447	1439	1430	1422	1429	1433	1447	1458	1467	1459	1452	1433	1417	1412	1415	1420	1424	1425	1437	1451	1456	1460	1471	1484	1493	1490	1484	1468	1452	1445	1444	1441	1444	1448	1449	1427	1414	1419	1428	1458	1465	1462	1474	1472	1464	1463	1460	1463	1460	1461	1451	1450	1443	1427	1419	1415	1424	1435	1455	1471	1473	1477	1479	1471	1460	1448	1442	1445	1449	1458	1455	1451	1453	1457	1454	1447	1442	1440	1440	1444	1440	1435	1433	1434	1432	1427	1439	1447	1460	1465	1467	1464	1465	1466	1474	1476	1479	1478	1460	1458	1458	1462	1464	1459	1460	1459	1475	1487	1487	1482	1461	1445	1448	1456	1462	1454	1436	1433	1436	1440	1446	1448	1473	1484	1483	1473	1466	1468	1462	1460	1462	1460	1460	1466	1479	1480	1471	1457	1456	1460	1445	1428	1429	1430	1437	1445	1455	1456	1457	1446	1441	1446	1455	1463	1460	1454	1460	1463	1462	1468	1463	1469	1465	1466	1455	1443	1430	1428	1429	1435	1440	1453	1475	1480	1481	1480	1491	1493	1495	1484	1463	1455	1438	1443	1531	0	0	0	0	0	0	0	0	0	0	0	0	0	0	0	0	0	0	0	0	0	0	0	0	1554	1569	1585	1593	1585	1545	1539	1534	1540	1542	1543	1542	1548	1544	1541	1549	1565	1575	1576	1560	1541	1526	1529	1537	1543	1549	1552	1554	1552	1550	1536	1556	1581	1617	0	0	0	0	0	0	0	0	0	0	0	0	0	0	0	0	1511	1512	1504	1498	1505	1478	1478	1480	1489	1492	1495	1493	1478	1475	1481	1495	1503	1513	1516	1516	1517	1519	1511	1504	1503	1509	1503	1488	1484	1486	1490	1492	1490	1496	1497	1499	1495	1485	1482	1480	1483	1488	1491	1490	1484	1477	1478	1477	1484	1485	1503	1534	1534	1526	1513	1496	1475	1462	1463	1470	1480	1480	1487	1484	1492	1502	1496	1485	1478	1480	1497	1507	1510	1493	1472	1466	1466	1471	1486	1483	1467	0	0	0	0	0	0	0
0	0	0	1416	1412	1410	1420	1420	1431	1449	1459	1456	1435	1435	1419	1412	1410	1420	1415	1407	1407	1409	1411	1428	1447	1452	1450	1444	1444	1433	1419	1407	1404	1417	1425	1430	1430	1430	1430	1428	1419	1408	0	0	1410	1410	1433	1440	1452	1451	1451	1447	1442	1435	1429	1429	1436	1445	1449	1453	1463	1464	1467	1471	1469	1465	1461	1461	1460	1457	1457	1457	1460	1459	1456	1459	1472	1480	1472	1474	1475	1471	1470	1470	1463	1469	1478	1471	1459	1449	1450	1452	1429	1408	1405	1408	1404	1403	1409	1426	1433	1429	1418	1410	1403	1407	1412	1425	1425	1427	1429	1420	1412	1413	1419	1429	1435	1432	1430	1436	1437	1425	1415	1413	1416	1418	1408	1388	1381	1396	1414	1420	1417	1422	1468	0	0	0	0	0	0	0	0	0	0	0	0	0	0	0	0	0	0	0	0	0	0	0	0	0	0	0	0	1607	1656	1668	1662	1657	1659	1676	1690	1715	1705	0	0	0	0	0	0	1396	1407	1407	1428	1433	1430	1433	1427	1425	1415	1397	1406	1418	1434	1432	1430	1433	1435	1444	1446	1446	1433	1412	1396	1393	1397	1427	1426	1418	1423	1442	1446	1446	1448	1454	1455	1454	1432	1410	1421	1426	1429	1433	1448	1448	1444	1447	1457	1468	1471	1462	1448	1430	1418	1413	1421	1433	1446	1459	1472	1475	1466	1459	1442	1433	1426	1430	1446	1453	1461	1460	1454	1440	1432	1432	1434	1434	1434	1426	1423	1421	1426	1430	1442	1451	1451	1444	1431	1428	1423	1421	1420	1435	1440	1433	1433	1437	1443	1455	1454	1454	1462	1476	1487	1486	1482	1472	1452	1441	1436	1442	1446	1446	1447	1448	1440	1425	1418	1418	1427	1437	1448	1456	1460	1460	1444	1432	1425	1426	1431	1430	1431	1439	1447	1455	1458	1463	1475	1483	1487	1481	1475	1460	1446	1435	1438	1439	1443	1444	1434	1424	1420	1452	1468	1462	1465	1463	1475	1470	1468	1471	1470	1468	1465	1466	1457	1443	1424	1413	1415	1428	1445	1461	1478	1481	1474	1477	1474	1458	1456	1450	1445	1449	1462	1462	1462	1460	1465	1467	1463	1460	1454	1451	1451	1450	1440	1448	1446	1449	1431	1432	1443	1461	1464	1470	1462	1460	1461	1464	1463	1468	1465	1466	1461	1463	1476	1477	1472	1459	1460	1463	1472	1473	1474	1471	1450	1446	1454	1452	1443	1435	1428	1437	1441	1444	1454	1466	1480	1481	1472	1470	1471	1473	1475	1478	1466	1460	1460	1466	1465	1446	1446	1451	1449	1447	1430	1428	1434	1439	1447	1452	1458	1458	1451	1447	1452	1460	1466	1456	1449	1456	1465	1467	1469	1469	1474	1486	1480	1466	1453	1437	1426	1424	1424	1428	1434	1464	1471	1470	1470	1476	1482	1485	1470	1466	1465	1462	1457	1513	0	0	0	0	0	0	0	0	0	0	0	0	0	0	0	0	0	0	0	0	0	0	0	0	0	1576	1583	1577	1550	1539	1534	1535	1525	1538	1542	1540	1539	1540	1535	1544	1553	1563	1561	1549	1537	1524	1531	1536	1543	1548	1551	1552	1556	1557	1547	1560	1573	1592	0	0	0	0	0	0	0	0	0	0	0	0	0	0	0	1501	1497	1497	1488	1491	1485	1487	1482	1510	1482	1519	1495	1489	1474	1471	1479	1496	1510	1512	1515	1510	1505	1499	1500	1497	1503	1505	1502	1491	1495	1498	1493	1492	1488	1492	1488	1491	1488	1485	1484	1484	1484	1487	1490	1491	1482	1477	1474	1479	1496	1494	1508	1527	1526	1512	1503	1489	1471	1452	1451	1462	1477	1477	1484	1497	1495	1506	1496	1497	1489	1491	1518	1522	1505	1498	1477	1466	1466	1470	1472	1476	1475	0	0	0	0	0	0	0
0	0	0	1425	1415	1409	1416	1416	1428	1441	1451	1447	1433	1433	1417	1418	1429	1432	1418	1410	1410	1396	1405	1416	1426	1435	1432	1435	1435	1414	1399	1391	1393	1411	1431	1435	1433	1434	1434	1435	1433	1432	0	0	1420	1421	1428	1441	1442	1438	1438	1438	1442	1439	1438	1439	1439	1439	1445	1460	1465	1465	1461	1459	1461	1460	1460	1457	1453	1446	1446	1453	1463	1470	1464	1470	1476	1486	1484	1479	1471	1462	1454	1448	1449	1455	1466	1465	1453	1454	1458	1463	1440	1418	1408	1408	1404	1401	1407	1417	1422	1414	1411	1403	1401	1407	1409	1416	1418	1425	1429	1420	1412	1411	1422	1431	1433	1434	1436	1440	1437	1427	1413	1414	1417	1420	1407	1395	1389	1405	1408	1407	1411	1424	1457	0	0	0	0	0	0	0	0	0	0	0	0	0	0	0	0	0	0	0	0	0	0	0	0	0	0	0	0	1625	1653	1659	1652	1656	1661	1667	1679	1701	1694	0	0	0	0	0	0	1422	1417	1411	1423	1426	1425	1433	1435	1434	1427	1416	1402	1423	1425	1430	1432	1437	1436	1440	1449	1448	1439	1422	1413	1409	1412	1432	1425	1410	1412	1421	1441	1450	1459	1457	1452	1441	1419	1414	1420	1427	1434	1446	1444	1442	1441	1444	1459	1474	1474	1462	1447	1430	1415	1406	1413	1428	1445	1465	1480	1484	1480	1475	1445	1435	1430	1435	1439	1440	1442	1443	1440	1439	1435	1431	1432	1436	1438	1434	1426	1424	1423	1435	1444	1452	1448	1444	1443	1432	1422	1416	1417	1423	1424	1432	1445	1455	1465	1471	1480	1476	1477	1484	1494	1499	1488	1476	1467	1451	1451	1448	1450	1447	1444	1441	1433	1430	1429	1433	1425	1438	1448	1461	1473	1468	1460	1452	1448	1451	1450	1448	1444	1442	1445	1448	1438	1442	1442	1458	1472	1478	1480	1473	1452	1434	1432	1437	1444	1455	1466	1432	1435	1445	1458	1457	1460	1473	1479	1478	1478	1478	1479	1477	1472	1465	1458	1443	1431	1420	1423	1435	1448	1459	1464	1473	1467	1467	1458	1459	1459	1454	1461	1466	1465	1460	1462	1467	1474	1474	1474	1470	1465	1455	1458	1455	1457	1456	1455	1450	1450	1445	1448	1457	1467	1470	1457	1443	1447	1454	1455	1457	1452	1448	1456	1464	1481	1485	1473	1460	1453	1452	1462	1465	1470	1473	1461	1451	1448	1439	1430	1436	1438	1448	1444	1445	1450	1465	1481	1484	1477	1478	1484	1487	1491	1490	1483	1469	1459	1457	1448	1446	1442	1447	1449	1447	1435	1436	1436	1442	1445	1451	1459	1463	1457	1456	1462	1472	1473	1457	1449	1454	1468	1477	1481	1478	1475	1490	1486	1474	1457	1447	1436	1429	1425	1435	1435	1455	1471	1472	1475	1484	1485	1480	1470	1472	1480	1484	1474	1500	0	0	0	0	0	0	0	0	0	0	0	0	0	0	0	0	0	0	0	0	0	0	0	0	0	1592	1563	1554	1537	1538	1537	1533	1519	1534	1534	1534	1532	1531	1531	1545	1550	1549	1545	1534	1531	1530	1533	1538	1542	1541	1545	1555	1563	1563	1554	1558	1558	1561	0	0	0	0	0	0	0	0	0	0	0	0	0	0	0	1507	1509	1500	1504	1490	1489	1530	1490	1511	1520	1496	1490	1477	1474	1492	1507	1519	1521	1522	1512	1504	1486	1484	1488	1496	1503	1508	1503	1500	1507	1505	1497	1486	1480	1478	1480	1484	1483	1486	1485	1490	1481	1490	1495	1487	1481	1481	1491	1500	1509	1517	1520	1513	1512	1503	1498	1491	1479	1447	1442	1447	1467	1467	1480	1489	1494	1503	1500	1500	1493	1510	1514	1514	1506	1498	1472	1470	1470	1467	1475	1477	1477	0	0	0	0	0	0	0
0	0	0	1433	1419	1415	1416	1416	1427	1430	1434	1430	1428	1428	1418	1415	1439	1451	1444	1423	1423	1415	1405	1417	1418	1421	1419	1409	1409	1410	1397	1380	1378	1397	1423	1434	1438	1440	1440	1443	1438	1445	0	0	1427	1420	1426	1433	1438	1429	1429	1428	1440	1448	1448	1446	1444	1448	1457	1464	1469	1470	1462	1455	1456	1458	1466	1458	1446	1440	1440	1451	1458	1460	1463	1470	1483	1486	1490	1490	1477	1464	1448	1442	1449	1464	1474	1468	1460	1452	1467	1468	1442	1427	1416	1405	1402	1402	1408	1411	1416	1414	1407	1399	1408	1407	1408	1408	1415	1427	1433	1424	1415	1414	1421	1431	1434	1435	1435	1443	1439	1423	1413	1410	1417	1418	1409	1404	1407	1412	1408	1403	1403	1427	1446	0	0	0	0	0	0	0	0	0	0	0	0	0	0	0	0	0	0	0	0	0	0	0	0	0	0	0	0	0	1642	1648	1648	1651	1656	1659	1661	1669	1664	0	0	0	0	0	0	1440	1415	1418	1426	1429	1430	1434	1435	1436	1433	1427	1426	1434	1440	1439	1437	1434	1431	1440	1444	1448	1449	1443	1434	1428	1419	1437	1431	1416	1405	1413	1423	1447	1458	1462	1456	1444	1434	1427	1427	1441	1437	1456	1451	1446	1437	1441	1450	1464	1473	1459	1445	1428	1411	1404	1408	1417	1442	1469	1482	1482	1483	1474	1446	1434	1430	1436	1443	1441	1439	1437	1439	1439	1429	1431	1426	1428	1431	1444	1443	1440	1432	1436	1434	1441	1447	1446	1450	1443	1421	1419	1418	1422	1423	1445	1462	1465	1467	1480	1485	1482	1475	1481	1490	1495	1489	1474	1464	1464	1472	1477	1463	1449	1441	1433	1431	1435	1440	1439	1433	1436	1449	1468	1481	1483	1478	1473	1472	1475	1467	1466	1461	1456	1450	1444	1428	1416	1409	1424	1461	1475	1476	1476	1457	1441	1429	1431	1439	1451	1484	1440	1438	1451	1466	1471	1474	1479	1491	1493	1493	1482	1480	1477	1472	1465	1458	1444	1438	1435	1437	1443	1452	1459	1466	1466	1463	1459	1457	1460	1473	1473	1474	1471	1457	1454	1461	1464	1477	1482	1478	1471	1468	1460	1457	1466	1469	1473	1466	1461	1455	1449	1451	1460	1468	1469	1459	1446	1445	1450	1455	1456	1448	1449	1451	1463	1479	1484	1469	1455	1450	1453	1462	1463	1471	1481	1471	1451	1447	1447	1440	1445	1452	1464	1464	1446	1454	1470	1488	1494	1499	1499	1495	1494	1498	1502	1500	1490	1481	1472	1459	1438	1437	1440	1444	1446	1446	1445	1438	1443	1444	1460	1465	1475	1473	1466	1473	1481	1479	1460	1452	1458	1473	1492	1489	1482	1485	1495	1491	1477	1464	1458	1448	1448	1451	1454	1464	1471	1479	1491	1496	1501	1492	1485	1478	1482	1494	1494	1483	1472	1527	0	0	0	0	0	0	0	0	0	0	0	0	0	0	0	0	0	0	0	0	0	0	0	0	1623	1562	1547	1542	1549	1543	1526	1519	1533	1528	1525	1525	1523	1524	1536	1548	1547	1538	1530	1533	1536	1533	1532	1535	1533	1537	1553	1566	1574	1570	1568	1537	1537	0	0	0	0	0	0	0	0	0	0	0	0	0	0	0	1539	1539	1533	1529	1515	1498	1512	1531	1520	1496	1475	1469	1469	1483	1502	1534	1543	1539	1527	1510	1496	1487	1488	1486	1495	1504	1509	1514	1510	1511	1511	1505	1494	1484	1476	1479	1482	1477	1483	1492	1503	1505	1501	1489	1487	1486	1492	1501	1509	1525	1526	1515	1506	1494	1486	1496	1492	1478	1455	1440	1449	1458	1458	1466	1469	1480	1482	1479	1471	1487	1493	1495	1489	1485	1480	1473	1464	1464	1467	1472	1473	1483	0	0	0	0	0	0	0
0	0	0	1437	1426	1421	1422	1422	1427	1421	1424	1420	1422	1422	1427	1437	1439	1459	1450	1435	1435	1417	1417	1415	1418	1413	1409	1414	1414	1412	1414	1390	1379	1386	1409	1423	1436	1438	1438	1446	1423	1416	0	0	0	1422	1439	1448	1453	1434	1434	1424	1436	1449	1454	1461	1466	1461	1465	1462	1469	1474	1469	1450	1456	1463	1463	1453	1440	1429	1429	1449	1457	1459	1469	1474	1481	1484	1489	1488	1481	1471	1453	1449	1458	1473	1474	1467	1457	1449	1456	1471	1453	1431	1415	1408	1399	1401	1407	1415	1419	1417	1414	1410	1403	1406	1407	1408	1417	1429	1434	1426	1416	1413	1418	1431	1436	1434	1436	1443	1442	1429	1417	1411	1417	1419	1414	1412	1424	1432	1419	1407	1405	1427	1447	0	0	0	0	0	0	0	0	0	0	0	0	0	0	0	0	0	0	0	0	0	0	0	0	0	0	0	0	0	1640	1642	1647	1646	1648	1659	1664	1658	0	0	0	0	0	0	0	1465	1417	1421	1430	1433	1429	1435	1433	1442	1442	1438	1440	1442	1456	1455	1447	1437	1440	1445	1450	1453	1453	1454	1454	1447	1435	1425	1426	1415	1410	1413	1421	1445	1456	1463	1453	1445	1438	1436	1431	1433	1439	1446	1448	1441	1436	1443	1448	1453	1460	1452	1442	1431	1420	1412	1410	1417	1442	1466	1482	1479	1472	1469	1449	1438	1442	1443	1445	1443	1445	1448	1442	1435	1426	1422	1422	1422	1429	1443	1446	1446	1434	1427	1429	1435	1441	1452	1459	1459	1434	1424	1427	1434	1444	1470	1475	1476	1470	1466	1463	1468	1461	1462	1478	1483	1481	1474	1466	1461	1469	1478	1461	1448	1434	1431	1432	1439	1446	1443	1436	1437	1462	1473	1489	1495	1492	1489	1483	1480	1471	1467	1472	1467	1460	1448	1431	1406	1394	1419	1449	1473	1474	1475	1465	1444	1432	1432	1435	1453	1503	1459	1454	1456	1467	1481	1481	1483	1490	1492	1488	1487	1486	1484	1476	1466	1451	1451	1464	1470	1470	1468	1481	1489	1487	1472	1463	1460	1464	1471	1470	1455	1454	1460	1457	1455	1464	1474	1484	1485	1487	1483	1473	1472	1478	1483	1494	1496	1494	1486	1484	1481	1488	1496	1495	1488	1469	1451	1447	1459	1500	1517	1504	1472	1459	1466	1480	1477	1474	1467	1468	1467	1459	1467	1477	1483	1484	1482	1481	1469	1461	1477	1490	1495	1477	1469	1474	1491	1501	1506	1503	1510	1506	1490	1487	1489	1504	1510	1500	1493	1493	1478	1451	1437	1434	1439	1459	1456	1458	1456	1463	1489	1498	1497	1492	1479	1477	1479	1473	1456	1461	1471	1490	1502	1503	1496	1490	1498	1495	1493	1499	1496	1498	1505	1500	1500	1493	1497	1493	1497	1509	1508	1505	1492	1486	1497	1503	1500	1485	1478	1537	1557	0	0	0	0	0	0	0	0	0	0	0	0	0	0	0	0	0	0	0	0	0	0	0	1631	1573	1552	1552	1559	1556	1539	1535	1539	1530	1526	1526	1529	1527	1536	1543	1542	1536	1532	1530	1532	1529	1527	1529	1532	1540	1551	1559	1577	1578	1567	1541	1529	0	0	0	0	0	0	0	0	0	0	1550	1552	1564	1560	1566	1561	1561	1558	1542	1523	1515	1507	1522	1511	1483	1465	1472	1485	1502	1526	1537	1543	1534	1521	1513	1507	1508	1506	1508	1505	1505	1506	1502	1504	1505	1506	1505	1501	1493	1491	1481	1486	1485	1498	1502	1499	1504	1502	1504	1497	1502	1519	1517	1518	1521	1532	1526	1516	1498	1493	1494	1494	1488	1487	1482	1481	1473	1473	1467	1460	1453	1445	1437	1450	1473	1478	1482	1471	1462	1472	1474	1468	1468	1467	1463	1465	1477	0	0	0	0	0	0	0
0	0	0	1444	1423	1413	1411	1411	1409	1415	1421	1430	1438	1438	1435	1430	1432	1438	1437	1427	1427	1418	1423	1435	1441	1434	1426	1425	1425	1421	1418	1404	1397	1392	1405	1415	1432	1439	1439	1419	1411	1396	0	0	0	1428	1450	1464	1465	1457	1457	1425	1426	1438	1453	1463	1472	1477	1457	1448	1443	1440	1454	1464	1460	1460	1457	1444	1431	1437	1437	1451	1467	1471	1467	1466	1466	1463	1462	1462	1454	1458	1456	1454	1463	1467	1466	1459	1446	1430	1438	1454	1454	1441	1421	1409	1408	1419	1430	1430	1426	1422	1413	1404	1392	1385	1391	1410	1415	1419	1412	1409	1411	1414	1427	1429	1437	1444	1450	1446	1432	1416	1415	1427	1439	1429	1421	1428	1455	1463	1461	1418	1428	1469	1457	0	0	0	0	0	0	0	0	0	0	0	0	0	0	0	0	0	0	0	0	0	0	0	0	0	0	0	0	0	0	1633	1621	1620	0	0	0	0	0	0	0	0	0	0	0	1472	1434	1422	1428	1433	1431	1440	1448	1444	1450	1451	1438	1440	1453	1461	1462	1460	1463	1460	1459	1454	1456	1458	1459	1453	1442	1472	1461	1446	1446	1449	1449	1452	1458	1459	1454	1450	1447	1437	1432	1425	1429	1447	1451	1445	1442	1445	1440	1441	1434	1431	1439	1448	1449	1439	1430	1432	1449	1471	1475	1477	1473	1466	1460	1464	1455	1443	1443	1452	1459	1460	1453	1441	1426	1418	1417	1423	1434	1435	1439	1439	1429	1425	1425	1436	1446	1461	1468	1466	1456	1455	1461	1457	1459	1484	1495	1492	1477	1459	1454	1444	1449	1460	1473	1479	1481	1473	1460	1456	1463	1472	1467	1446	1437	1437	1441	1447	1449	1436	1432	1438	1466	1478	1486	1497	1491	1493	1487	1475	1466	1465	1472	1469	1469	1460	1440	1411	1400	1408	1444	1462	1476	1478	1470	1446	1440	1441	1444	1464	1499	1527	1471	1466	1468	1483	1478	1481	1488	1484	1483	1488	1488	1485	1480	1467	1451	1455	1465	1478	1474	1476	1485	1490	1487	1474	1464	1457	1461	1473	1467	1451	1451	1464	1459	1456	1468	1476	1482	1490	1495	1498	1495	1492	1490	1494	1499	1499	1500	1497	1496	1493	1491	1501	1499	1494	1482	1459	1449	1461	1505	1520	1507	1477	1465	1468	1479	1477	1473	1477	1477	1476	1467	1471	1481	1494	1503	1498	1491	1477	1471	1480	1488	1496	1488	1485	1487	1497	1504	1505	1512	1510	1504	1498	1494	1492	1508	1509	1502	1498	1500	1490	1465	1448	1437	1439	1465	1468	1472	1468	1474	1496	1506	1502	1502	1490	1477	1468	1461	1458	1465	1478	1494	1498	1502	1502	1499	1510	1517	1521	1522	1519	1517	1516	1513	1513	1509	1507	1509	1509	1516	1521	1522	1509	1491	1504	1508	1500	1489	1494	1522	1567	1580	1577	1568	0	0	0	0	0	0	0	0	0	0	0	0	0	0	0	0	0	0	0	0	1636	1583	1579	1565	1585	1579	1557	1554	1555	1547	1540	1541	1535	1531	1532	1539	1535	1529	1528	1533	1532	1519	1522	1527	1528	1541	1549	1560	1570	1572	1553	1542	1540	0	0	0	0	0	0	1543	1556	1548	1553	1550	1538	1514	1512	1523	1553	1560	1562	1550	1541	1534	1538	1521	1504	1490	1484	1493	1508	1527	1539	1542	1546	1538	1528	1526	1530	1531	1530	1530	1515	1502	1495	1495	1492	1495	1501	1508	1506	1498	1497	1495	1489	1496	1504	1502	1497	1500	1514	1518	1520	1541	1545	1529	1529	1535	1548	1545	1535	1518	1504	1505	1512	1511	1505	1497	1493	1471	1471	1461	1449	1437	1433	1437	1449	1464	1478	1472	1475	1469	1472	1478	1480	1480	1469	1458	1456	1469	0	0	0	0	0	0	0
0	0	0	0	1416	1409	1412	1412	1419	1434	1428	1431	1441	1441	1438	1429	1416	1421	1427	1430	1430	1433	1445	1454	1453	1441	1428	1420	1420	1414	1415	1399	1391	1384	1393	1416	1439	1457	1457	1447	1421	1402	0	0	0	1425	1451	1456	1455	1434	1434	1424	1418	1423	1424	1429	1427	1418	1405	1397	1400	1423	1440	1460	1457	1441	1433	1430	1425	1430	1430	1442	1455	1459	1455	1442	1430	1426	1419	1415	1424	1429	1442	1455	1453	1459	1459	1454	1439	1428	1427	1444	1448	1435	1417	1412	1420	1433	1430	1421	1404	1398	1403	1399	1413	1425	1442	1432	1417	1413	1410	1409	1420	1429	1431	1428	1422	1413	1422	1454	1467	1479	1475	1480	1482	1464	1444	1445	1493	1510	1521	1483	1478	1466	0	0	0	0	0	0	0	0	0	0	0	0	0	0	0	0	0	0	0	0	0	0	0	0	0	0	0	0	0	0	0	1633	1622	1622	0	0	0	0	0	0	0	0	0	0	1500	1473	1448	1440	1440	1436	1445	1460	1473	1479	1474	1465	1438	1435	1441	1454	1463	1469	1476	1476	1472	1462	1459	1457	1463	1466	1482	1490	1484	1468	1455	1457	1448	1449	1454	1452	1454	1461	1453	1444	1431	1426	1430	1449	1453	1458	1466	1462	1451	1440	1438	1440	1449	1456	1454	1450	1441	1456	1465	1471	1471	1465	1458	1459	1469	1472	1466	1453	1450	1454	1462	1468	1465	1455	1433	1426	1427	1437	1440	1433	1434	1436	1427	1426	1426	1436	1452	1467	1474	1466	1465	1462	1468	1475	1475	1491	1498	1496	1486	1468	1454	1450	1455	1458	1464	1461	1474	1469	1461	1449	1451	1457	1455	1447	1445	1446	1449	1449	1435	1422	1414	1432	1451	1474	1481	1482	1483	1484	1490	1479	1467	1461	1456	1475	1493	1505	1498	1472	1448	1446	1451	1463	1478	1474	1459	1455	1450	1456	1465	1479	1499	1495	1506	1509	1508	1506	1510	1502	1507	1504	1506	1514	1512	1514	1498	1486	1472	1470	1479	1492	1489	1475	1469	1497	1501	1483	1482	1475	1479	1485	1486	1470	1481	1497	1499	1501	1494	1506	1508	1500	1502	1519	1518	1509	1498	1498	1491	1483	1477	1479	1491	1501	1508	1504	1503	1493	1491	1487	1479	1487	1493	1497	1495	1499	1498	1499	1500	1498	1496	1505	1512	1517	1519	1517	1512	1539	1545	1540	1528	1506	1490	1479	1478	1480	1479	1482	1489	1488	1500	1509	1516	1521	1527	1531	1514	1509	1516	1516	1509	1515	1521	1513	1501	1487	1475	1482	1487	1489	1492	1483	1485	1485	1486	1482	1488	1489	1488	1488	1497	1503	1512	1516	1525	1528	1521	1516	1509	1524	1539	1550	1545	1532	1507	1505	1508	1517	1526	1521	1519	1526	1534	1540	1539	1530	1513	1507	1504	1498	1502	1504	1534	1552	1544	1530	1528	1567	0	0	0	0	0	0	0	0	0	0	0	0	0	0	0	0	0	0	0	1639	1589	1575	1579	1589	1592	1567	1552	1573	1569	1572	1569	1569	1550	1526	1503	1495	1493	1521	1531	1529	1517	1517	1530	1543	1550	1556	1557	1564	1559	1553	1529	1543	1552	0	0	1524	1520	1531	1529	1519	1501	1517	1525	1528	1522	1510	1506	1534	1554	1559	1565	1558	1562	1555	1545	1527	1511	1503	1518	1533	1540	1555	1561	1551	1536	1532	1543	1540	1547	1545	1537	1522	1501	1499	1499	1499	1500	1506	1509	1498	1492	1495	1494	1496	1501	1510	1510	1498	1501	1512	1526	1533	1546	1547	1534	1524	1536	1549	1554	1545	1518	1504	1510	1520	1520	1517	1504	1486	1473	1473	1460	1451	1435	1439	1455	1463	1468	1468	1469	1469	1469	1468	1481	1485	1485	1484	1473	1471	1476	0	0	0	0	0	0	0
0	0	0	0	0	0	0	0	0	1441	1427	1424	1438	1438	1440	1432	1425	1439	1458	1452	1452	1453	1452	1444	1440	1431	1416	1410	1410	1408	1402	1398	1384	1381	1391	1416	1440	1458	1458	1455	1432	1411	1406	1409	1428	1440	1445	1441	1433	1421	1421	1418	1419	1425	1431	1426	1418	1402	1390	1389	1399	1416	1442	1457	1463	1447	1440	1440	1437	1433	1433	1433	1438	1446	1443	1433	1425	1422	1416	1410	1413	1432	1443	1448	1452	1460	1453	1445	1428	1413	1425	1436	1441	1433	1421	1417	1419	1421	1418	1411	1400	1398	1403	1410	1420	1433	1450	1443	1430	1425	1417	1417	1424	1431	1433	1424	1414	1408	1413	1453	1469	1476	1478	1476	1475	1466	1466	1463	1494	1519	0	1493	1469	1465	0	0	0	0	0	0	0	0	0	0	0	0	0	0	0	0	0	0	0	0	0	0	0	0	0	0	0	0	1614	1621	1631	1634	1636	1629	1643	1641	1641	1643	1636	0	0	0	0	1499	1486	1466	1454	1455	1458	1448	1449	1466	1483	1489	1488	1472	1436	1433	1438	1452	1463	1475	1482	1484	1481	1469	1465	1465	1474	1480	1497	1509	1497	1482	1465	1444	1446	1452	1451	1450	1451	1461	1458	1448	1440	1437	1460	1446	1456	1471	1482	1481	1457	1447	1450	1452	1463	1470	1469	1471	1475	1483	1492	1486	1473	1453	1444	1452	1474	1479	1472	1460	1458	1453	1449	1449	1458	1469	1467	1463	1468	1468	1458	1450	1447	1456	1466	1473	1473	1461	1459	1464	1471	1477	1478	1487	1499	1505	1496	1469	1488	1498	1502	1499	1487	1488	1495	1488	1471	1463	1462	1465	1462	1465	1470	1482	1490	1479	1467	1458	1455	1456	1465	1468	1468	1465	1459	1452	1453	1449	1448	1456	1478	1479	1458	1461	1477	1487	1493	1499	1504	1507	1487	1472	1470	1480	1470	1471	1472	1478	1477	1470	1466	1475	1493	1500	1500	1506	1510	1516	1526	1518	1507	1487	1489	1494	1486	1483	1485	1481	1486	1488	1471	1484	1489	1493	1485	1486	1489	1478	1468	1482	1488	1490	1480	1471	1469	1478	1490	1494	1488	1484	1483	1480	1485	1501	1503	1493	1472	1473	1479	1482	1484	1500	1515	1516	1506	1493	1489	1489	1482	1497	1504	1504	1505	1504	1504	1508	1512	1501	1494	1490	1488	1499	1512	1525	1529	1523	1516	1526	1546	1546	1537	1510	1493	1483	1470	1471	1474	1482	1486	1499	1506	1510	1516	1524	1528	1534	1531	1515	1509	1505	1509	1513	1513	1510	1503	1493	1483	1480	1487	1494	1494	1494	1490	1484	1473	1481	1487	1497	1500	1499	1504	1509	1520	1525	1530	1534	1528	1525	1518	1515	1529	1536	1529	1513	1501	1498	1506	1517	1522	1529	1531	1540	1533	1525	1518	1514	1523	1520	1515	1510	1511	1513	1527	1529	1531	1520	1514	1533	1584	0	0	0	0	0	0	0	0	0	0	0	0	0	0	0	0	0	0	0	1601	1591	1602	1599	1587	1562	1547	1540	1537	1519	1528	1519	1552	1541	1533	1531	1537	1531	1524	1507	1495	1482	1507	1521	1532	1528	1515	1502	1510	1517	1521	1538	1545	1542	1528	1531	1536	1535	1527	1510	1509	1532	1535	1536	1518	1507	1515	1530	1539	1534	1535	1541	1550	1562	1556	1543	1534	1528	1531	1537	1536	1545	1548	1543	1539	1540	1547	1545	1548	1546	1542	1527	1514	1504	1502	1504	1501	1496	1490	1494	1507	1501	1496	1495	1512	1518	1507	1505	1503	1517	1531	1531	1530	1525	1507	1494	1484	1503	1521	1522	1504	1492	1492	1505	1512	1501	1484	1475	1468	1468	1460	1454	1453	1482	1494	1487	1474	1455	1440	1436	1455	1464	1483	1490	1490	1494	1485	1482	1487	0	0	0	0	0	0	0
