0	0	0	1371	1371	1381	1412	1416	1416	1415	1409	1411	1401	1405	1405	1402	1405	1407	1405	1397	1380	1373	1373	1389	1396	1404	1392	1395	1386	1383	1383	1377	1383	1370	1376	1369	1374	1377	1384	1377	1377	1383	1398	1403	1400	1396	1390	1384	1376	1390	1390	1387	1387	1376	1379	1365	1359	1370	1378	1411	1439	1456	1443	1426	1405	1402	1401	1406	1403	1388	1390	1385	1387	1387	1397	1408	1417	1415	1421	1434	1445	1446	1434	1416	1411	1411	1411	1412	1408	1405	1405	1420	1438	1451	1449	1444	1442	1443	1446	1442	1443	1441	1414	1406	1397	1370	1376	1393	1401	1403	1396	1391	1387	1385	1377	1368	1360	1355	1346	1343	1345	1360	1372	1376	1374	1372	1372	1368	1361	1360	1363	1382	1382	1383	1379	1379	1379	1374	1369	1354	1352	1349	1354	1366	1378	1394	1385	1384	1372	1366	1365	1362	1410	0	0	0	0	0	0	0	0	0	0	0	0	0	0	0	0	0	0	0	0	0	0	0	0	0	0	0	0	0	0	1602	1626	1638	1635	1639	1656	1663	1665	0	0	0	0	0	0	0	0	1358	1354	1370	1376	1367	1361	1360	1366	1370	1373	1364	1356	1353	1355	1364	1377	1384	1375	1369	1375	1385	1387	1386	1374	1359	1356	1362	1370	1378	1391	1399	1389	1379	1368	1359	1362	1373	1380	1380	1371	1364	1360	1360	1357	1354	1361	1363	1361	1352	1344	1340	1336	1342	1360	1363	1363	1360	1359	1360	1362	1370	1363	1356	1355	1349	1361	1364	1360	1354	1341	1337	1344	1359	1367	1369	1368	1360	1360	1361	1361	1361	1362	1365	1362	1363	1360	1356	1356	1355	1354	1355	1355	1355	1356	1358	1365	1370	1371	1361	1342	1339	1347	1353	1361	1369	1373	1375	1371	1371	1360	1357	1361	1375	1387	1380	1375	1374	1375	1375	1372	1370	1371	1367	1359	1350	1350	1353	1364	1375	1376	1372	1369	1372	1369	1366	1365	1365	1368	1372	1377	1379	1380	1372	1357	1351	1357	1361	1360	1371	1384	1384	1381	1377	1382	1378	1379	1383	1382	1373	1314	1340	1347	1361	1364	1373	1386	1386	1380	1374	1367	1365	1354	1345	1343	1348	1350	1354	1360	1369	1374	1368	1368	1358	1356	1354	1338	1331	1320	1314	1314	1320	1333	1346	1356	1368	1379	1384	1376	1372	1372	1379	1375	1375	1368	1360	1356	1359	1369	1372	1369	1362	1335	1326	1327	1330	1332	1338	1349	1355	1355	1351	1340	1343	1358	1370	1378	1386	1392	1396	1396	1389	1370	1350	1344	1348	1346	1344	1346	1347	1349	1339	1329	1328	1336	1347	1344	1343	1347	1348	1356	1366	1371	1376	1379	1377	1370	1358	1346	1352	1355	1353	1345	1349	1353	1360	1359	1351	1347	1341	1341	1344	1357	1358	1358	1361	1365	1371	1370	1367	1362	1351	1337	1340	1338	1358	1373	1373	1348	1351	1352	1351	1346	1345	1342	1352	1358	1347	1344	1337	1337	1337	1340	1338	1330	1326	1334	1347	1361	1372	1375	1372	1372	1367	1365	1372	1375	1376	1382	1394	1425	0	0	0	0	0	0	0	0	0	0	0	0	0	0	0	1541	1534	1533	1544	0	0	0	0	0	0	0	1491	1475	1470	1451	1453	1452	1430	1411	1405	1398	1406	1414	1428	1441	1447	1447	1439	1433	1430	1428	1426	1429	1438	1441	1442	1439	1438	1433	1429	1426	1421	1420	1410	1404	1394	1412	0	0	0	0	0	0	0	0	0	1397	1403	1405	1429	1453	1461	1449	1429	1426	1438	1449	1434	1413	1404	1414	1404	1375	1362	1361	1360	1377	1377	1383	1369	1369	1373	1372	1371	1374	1373	1362	1359	1358	1363	1368	1358	1358	1350	1335	1336	1343	1350	1365	0	0	0	0	0	0	0
0	0	0	1355	1355	1364	1419	1414	1414	1408	1390	1399	1401	1410	1410	1405	1403	1403	1396	1397	1379	1373	1373	1379	1393	1396	1398	1388	1378	1373	1373	1374	1369	1370	1372	1385	1390	1380	1384	1384	1389	1397	1403	1402	1394	1384	1378	1376	1373	1379	1385	1385	1385	1384	1374	1360	1354	1353	1365	1410	1430	1440	1430	1420	1403	1399	1400	1399	1394	1395	1392	1394	1395	1395	1408	1416	1423	1415	1413	1430	1437	1446	1431	1419	1411	1404	1402	1404	1402	1407	1417	1429	1447	1456	1456	1458	1454	1449	1446	1437	1435	1432	1408	1395	1388	1375	1383	1391	1398	1392	1383	1379	1376	1370	1358	1358	1362	1359	1346	1342	1346	1357	1373	1374	1370	1365	1357	1353	1351	1353	1357	1374	1378	1378	1378	1376	1377	1374	1365	1356	1360	1362	1364	1372	1383	1395	1399	1402	1380	1380	1379	1386	1418	0	0	0	0	0	0	0	0	0	0	0	0	0	0	0	0	0	0	0	0	0	0	0	0	0	0	0	0	0	0	1613	1632	1636	1637	1641	1652	1659	1657	1605	0	0	0	0	0	0	0	1368	1371	1380	1374	1367	1362	1362	1371	1372	1371	1367	1360	1355	1361	1375	1386	1388	1379	1373	1378	1389	1393	1384	1370	1359	1359	1360	1364	1355	1367	1376	1380	1375	1365	1365	1365	1379	1387	1381	1375	1368	1367	1366	1366	1371	1374	1374	1371	1362	1351	1334	1335	1349	1367	1374	1368	1365	1362	1367	1370	1373	1365	1353	1347	1338	1343	1348	1360	1348	1341	1341	1352	1359	1368	1377	1383	1386	1371	1369	1373	1377	1375	1376	1370	1368	1365	1362	1356	1356	1362	1365	1363	1358	1359	1361	1364	1376	1372	1357	1346	1343	1347	1353	1355	1361	1364	1365	1364	1360	1352	1348	1360	1374	1381	1383	1374	1369	1374	1383	1381	1372	1358	1360	1351	1345	1353	1357	1361	1367	1369	1366	1365	1368	1375	1373	1370	1373	1379	1379	1380	1383	1392	1388	1375	1369	1369	1369	1374	1380	1386	1388	1384	1384	1378	1375	1375	1363	1328	1344	1354	1308	1336	1350	1364	1371	1374	1377	1376	1366	1363	1357	1348	1341	1342	1342	1349	1351	1361	1368	1372	1375	1373	1364	1358	1357	1353	1342	1331	1324	1319	1328	1338	1347	1357	1369	1382	1382	1371	1366	1368	1374	1370	1366	1366	1362	1360	1366	1370	1374	1369	1365	1347	1335	1333	1330	1335	1339	1341	1351	1353	1350	1345	1349	1357	1370	1377	1388	1394	1400	1395	1385	1368	1344	1351	1351	1346	1343	1346	1352	1351	1344	1334	1338	1344	1358	1354	1349	1343	1339	1336	1341	1348	1355	1356	1358	1356	1358	1358	1360	1350	1340	1338	1341	1347	1344	1331	1322	1320	1336	1351	1358	1347	1335	1329	1329	1334	1342	1350	1357	1368	1372	1364	1363	1352	1347	1354	1356	1360	1360	1355	1345	1345	1347	1352	1349	1338	1324	1321	1324	1327	1341	1345	1335	1328	1328	1335	1344	1361	1365	1365	1362	1369	1362	1364	1366	1374	1379	1396	1403	1416	1423	0	0	0	0	0	0	0	0	0	0	0	0	0	0	0	1544	1551	0	0	0	0	0	0	0	0	0	1495	1483	1473	1461	1448	1447	1424	1406	1403	1405	1419	1436	1448	1450	1451	1445	1441	1434	1434	1433	1433	1432	1431	1434	1436	1435	1431	1430	1427	1420	1414	1412	1406	1396	1425	0	0	0	0	0	0	0	0	1395	1399	1404	1425	1432	1449	1463	1446	1427	1428	1447	1453	1440	1409	1395	1388	1382	1373	1360	1360	1368	1382	1382	1387	1379	1385	1386	1376	1371	1368	1368	1369	1368	1369	1373	1376	1359	1359	1355	1341	1339	1346	1346	1360	0	0	0	0	0	0	0
0	0	0	1364	1348	1348	1404	1397	1397	1385	1381	1388	1390	1389	1389	1386	1381	1386	1385	1385	1390	1390	1391	1383	1384	1384	1383	1379	1372	1364	1364	1365	1366	1365	1370	1393	1407	1408	1413	1392	1394	1403	1417	1404	1387	1377	1372	1374	1380	1383	1385	1389	1389	1390	1386	1385	1364	1354	1356	1403	1418	1426	1416	1412	1395	1394	1401	1400	1412	1413	1414	1411	1406	1406	1413	1420	1422	1408	1401	1415	1427	1431	1432	1429	1418	1403	1401	1401	1403	1402	1415	1431	1443	1447	1451	1454	1451	1448	1443	1437	1434	1417	1394	1383	1374	1368	1377	1389	1392	1384	1376	1374	1375	1367	1351	1357	1359	1360	1354	1348	1345	1362	1382	1379	1368	1354	1349	1349	1345	1349	1362	1379	1376	1375	1380	1386	1384	1369	1365	1366	1371	1373	1375	1373	1382	1388	1393	1389	1376	1378	1385	1390	1425	0	0	0	0	0	0	0	0	0	0	0	0	0	0	0	0	0	0	0	0	0	0	0	0	0	0	0	0	0	0	1635	1629	1628	1638	1637	1645	1657	1662	1583	1565	1535	1495	1484	1508	1495	1390	1382	1383	1381	1375	1364	1363	1358	1370	1366	1354	1358	1353	1351	1361	1374	1383	1381	1375	1370	1378	1383	1381	1369	1354	1350	1335	1339	1348	1352	1362	1367	1370	1366	1364	1361	1362	1369	1374	1378	1376	1379	1385	1384	1378	1375	1377	1372	1361	1347	1338	1341	1344	1356	1373	1378	1374	1375	1380	1381	1375	1373	1367	1356	1344	1340	1339	1356	1360	1365	1372	1365	1364	1367	1375	1387	1394	1390	1377	1377	1378	1374	1360	1369	1364	1360	1363	1358	1358	1354	1371	1374	1364	1358	1352	1355	1362	1364	1363	1356	1357	1359	1364	1367	1361	1358	1353	1350	1341	1340	1354	1372	1385	1396	1389	1385	1372	1355	1354	1360	1359	1344	1332	1340	1345	1363	1361	1358	1357	1357	1352	1347	1349	1363	1377	1382	1372	1377	1371	1367	1366	1367	1374	1370	1375	1377	1386	1392	1380	1383	1385	1381	1372	1394	1390	1371	1343	1351	1362	1377	1345	1316	1332	1339	1352	1356	1368	1375	1370	1368	1362	1355	1345	1339	1337	1340	1348	1357	1368	1370	1372	1376	1374	1373	1364	1352	1346	1344	1344	1340	1339	1344	1357	1365	1372	1380	1383	1380	1374	1364	1361	1352	1348	1346	1353	1362	1370	1376	1374	1375	1372	1360	1349	1340	1342	1339	1351	1357	1341	1334	1343	1350	1350	1351	1350	1352	1356	1364	1364	1367	1366	1360	1348	1344	1354	1358	1339	1325	1326	1338	1345	1342	1343	1351	1359	1356	1348	1346	1337	1333	1340	1347	1350	1344	1354	1355	1357	1356	1356	1350	1345	1336	1333	1340	1345	1345	1339	1332	1337	1340	1353	1353	1353	1339	1340	1342	1345	1344	1353	1359	1362	1361	1357	1347	1341	1346	1350	1351	1362	1361	1355	1347	1338	1339	1340	1343	1338	1334	1335	1338	1338	1338	1351	1347	1339	1337	1335	1337	1346	1346	1358	1362	1354	1351	1348	1345	1341	1376	1396	1402	1397	1412	1405	0	0	0	0	0	0	0	0	0	0	0	0	0	0	0	0	0	0	0	0	0	0	0	0	1520	1511	1499	1479	1468	1448	1454	1441	1418	1408	1411	1420	1441	1449	1454	1448	1445	1444	1444	1444	1442	1440	1431	1427	1426	1431	1437	1436	1432	1430	1429	1417	1416	1408	1395	1433	1462	0	0	0	0	0	0	0	1394	1404	1420	1431	1432	1433	1426	1417	1409	1416	1427	1440	1415	1398	1389	1366	1365	1373	1367	1370	1380	1395	1395	1395	1395	1397	1388	1373	1368	1359	1363	1373	1377	1383	1381	1385	1376	1376	1358	1352	1348	1341	1363	1368	0	0	0	0	0	0	0
0	0	0	1376	1354	1346	1384	1379	1379	1371	1368	1378	1380	1367	1367	1367	1374	1376	1384	1392	1398	1398	1404	1398	1397	1381	1372	1369	1363	1361	1361	1364	1360	1361	1374	1395	1413	1423	1418	1418	1420	1424	1423	1414	1387	1377	1373	1380	1387	1398	1397	1396	1396	1396	1399	1404	1397	1373	1367	1395	1409	1412	1409	1411	1398	1400	1413	1427	1443	1438	1426	1415	1416	1416	1420	1422	1413	1398	1391	1405	1415	1425	1436	1431	1421	1404	1402	1401	1405	1407	1417	1425	1441	1435	1434	1441	1445	1447	1446	1438	1431	1409	1385	1382	1375	1362	1365	1377	1379	1371	1372	1378	1380	1366	1356	1353	1360	1364	1360	1354	1359	1370	1383	1378	1367	1349	1341	1343	1347	1355	1373	1387	1378	1379	1380	1381	1372	1370	1369	1384	1395	1391	1384	1376	1377	1383	1374	1377	1350	1367	1379	1392	1414	0	0	0	0	0	0	0	0	0	0	0	0	0	0	0	0	0	0	0	0	0	0	0	0	0	0	0	0	0	0	1654	1626	1626	1629	1637	1651	1654	1638	1580	1562	1454	1387	1396	1402	1406	1393	1388	1387	1384	1369	1357	1357	1358	1363	1360	1343	1335	1328	1342	1349	1368	1371	1373	1362	1361	1370	1370	1363	1340	1336	1324	1324	1327	1339	1349	1356	1359	1357	1353	1355	1357	1357	1365	1373	1375	1369	1382	1386	1384	1376	1370	1371	1356	1345	1340	1333	1339	1347	1354	1362	1369	1374	1378	1382	1383	1379	1376	1369	1364	1346	1340	1342	1357	1364	1373	1377	1371	1370	1371	1379	1383	1387	1375	1370	1370	1369	1354	1354	1349	1350	1353	1347	1345	1338	1351	1363	1368	1363	1352	1346	1350	1354	1361	1365	1365	1363	1368	1369	1368	1365	1365	1362	1356	1346	1344	1348	1369	1383	1389	1392	1386	1374	1362	1352	1355	1361	1353	1342	1343	1357	1363	1361	1356	1354	1358	1352	1354	1359	1366	1378	1376	1363	1364	1360	1365	1373	1373	1368	1366	1362	1379	1389	1392	1379	1371	1369	1369	1376	1389	1340	1340	1343	0	0	1382	1350	1325	1339	1339	1340	1342	1351	1365	1369	1368	1366	1361	1349	1347	1341	1340	1349	1360	1368	1368	1368	1368	1370	1368	1362	1352	1345	1345	1350	1352	1353	1352	1355	1372	1383	1388	1383	1376	1365	1362	1360	1354	1343	1344	1355	1366	1374	1377	1372	1364	1354	1346	1345	1342	1346	1355	1363	1359	1353	1341	1334	1341	1345	1342	1348	1353	1362	1365	1363	1361	1360	1358	1350	1350	1356	1358	1342	1327	1330	1336	1341	1341	1346	1351	1358	1355	1352	1351	1345	1341	1346	1350	1349	1348	1355	1356	1343	1336	1336	1340	1344	1339	1331	1331	1336	1346	1355	1357	1350	1355	1355	1353	1347	1344	1348	1348	1346	1346	1353	1359	1362	1359	1356	1333	1336	1343	1347	1346	1348	1357	1356	1355	1343	1338	1339	1345	1347	1350	1351	1349	1342	1343	1343	1351	1351	1351	1348	1344	1342	1348	1341	1340	1348	1356	1354	1345	1341	1370	1388	1395	1387	1377	1390	0	0	0	0	0	0	0	0	0	0	0	0	0	0	0	0	0	0	0	0	0	0	0	0	1507	1492	1486	1485	1470	1455	1441	1430	1417	1410	1416	1432	1443	1442	1443	1444	1445	1445	1450	1447	1444	1439	1428	1420	1420	1425	1431	1436	1438	1435	1437	1434	1424	1409	1400	1435	1458	0	0	0	0	0	0	0	1392	1408	1427	1438	1429	1423	1402	1388	1390	1392	1410	1409	1391	1385	1377	1358	1358	1370	1369	1373	1379	1385	1385	1398	1401	1398	1387	1370	1356	1353	1363	1372	1375	1382	1384	1387	1376	1376	1362	1349	1352	1365	1373	1380	0	0	0	0	0	0	0
0	0	0	1364	1338	1340	1364	1366	1366	1364	1372	1371	1368	1361	1361	1371	1377	1382	1387	1396	1402	1402	1410	1416	1410	1394	1378	1367	1372	1372	1376	1373	1369	1366	1375	1399	1406	1424	1421	1421	1418	1418	1418	1413	1394	1380	1378	1384	1394	1403	1408	1408	1402	1399	1409	1421	1425	1403	1388	1389	1400	1402	1412	1415	1411	1412	1420	1434	1451	1447	1438	1426	1426	1424	1425	1418	1403	1390	1389	1397	1417	1427	1438	1435	1417	1404	1402	1403	1411	1421	1428	1437	1436	1418	1419	1425	1432	1432	1435	1434	1427	1411	1397	1395	1390	1366	1362	1366	1365	1367	1373	1383	1386	1372	1363	1361	1364	1371	1369	1360	1361	1369	1384	1390	1373	1357	1346	1352	1354	1365	1377	1383	1378	1383	1384	1381	1371	1368	1377	1393	1406	1402	1385	1378	1375	1376	1370	1365	1341	1347	1357	1384	1390	0	0	0	0	0	0	0	0	0	0	0	0	0	0	0	0	0	0	0	0	0	0	0	0	0	0	0	0	0	0	1632	1629	1634	1642	1645	1651	1650	1629	1590	1460	1380	1379	1369	1360	1359	1356	1375	1378	1369	1361	1354	1353	1355	1360	1354	1335	1327	1322	1327	1345	1357	1360	1356	1353	1347	1355	1351	1344	1347	1346	1342	1322	1321	1336	1347	1352	1352	1346	1336	1342	1352	1359	1369	1372	1372	1363	1374	1376	1381	1377	1382	1376	1362	1346	1339	1342	1349	1350	1357	1362	1367	1374	1382	1379	1376	1375	1374	1373	1363	1354	1350	1349	1364	1366	1375	1373	1376	1372	1372	1373	1373	1372	1355	1352	1357	1358	1342	1340	1352	1349	1349	1343	1338	1325	1334	1348	1357	1354	1344	1342	1341	1343	1352	1354	1358	1361	1361	1367	1368	1365	1364	1361	1355	1354	1352	1352	1366	1374	1381	1385	1386	1378	1364	1351	1354	1359	1358	1355	1353	1359	1361	1358	1350	1354	1355	1357	1363	1361	1372	1375	1364	1362	1351	1358	1373	1379	1378	1368	1361	1354	1369	1376	1379	1367	1364	1365	1368	1369	1333	1335	0	0	0	0	1390	1355	1354	1341	1343	1345	1344	1351	1357	1362	1368	1364	1369	1367	1361	1356	1354	1360	1367	1367	1365	1360	1362	1359	1357	1359	1354	1350	1348	1352	1355	1351	1351	1356	1372	1382	1382	1375	1367	1358	1359	1358	1350	1351	1346	1355	1367	1374	1373	1361	1357	1344	1343	1343	1345	1340	1357	1364	1363	1357	1348	1335	1319	1318	1330	1339	1350	1360	1360	1361	1365	1366	1353	1345	1348	1355	1348	1344	1336	1336	1340	1344	1340	1341	1344	1351	1352	1356	1359	1359	1352	1351	1352	1351	1355	1358	1358	1347	1340	1339	1345	1355	1363	1346	1336	1338	1344	1354	1361	1368	1365	1356	1346	1344	1349	1354	1349	1340	1336	1345	1353	1360	1359	1349	1340	1337	1343	1349	1345	1348	1350	1361	1365	1354	1347	1342	1344	1348	1351	1352	1349	1341	1337	1343	1357	1362	1365	1360	1356	1354	1347	1341	1337	1348	1358	1363	1355	1345	1347	1376	1380	1370	1356	1379	0	0	0	0	0	0	0	0	0	0	0	0	0	0	0	0	0	0	0	1512	0	0	1504	1505	1474	1468	1483	1479	1465	1450	1424	1409	1410	1409	1412	1422	1435	1434	1434	1439	1442	1443	1449	1444	1436	1428	1416	1409	1410	1419	1422	1431	1437	1443	1450	1441	1430	1410	1407	1440	1455	0	0	0	0	0	0	0	0	1410	1426	1435	1426	1422	1401	1395	1387	1386	1386	1375	1369	1366	1369	1360	1360	1365	1366	1363	1375	1382	1382	1390	1393	1390	1383	1367	1362	1363	1364	1368	1373	1378	1385	1379	1357	1349	1349	1352	1367	1377	1383	1390	0	0	0	0	0	0	0
0	0	0	1330	1330	1333	1359	1366	1366	1374	1384	1382	1365	1369	1369	1379	1382	1387	1394	1395	1401	1401	1408	1424	1419	1406	1388	1379	1386	1386	1390	1389	1386	1381	1384	1394	1407	1414	1410	1410	1410	1410	1417	1415	1397	1380	1374	1380	1392	1399	1412	1412	1408	1409	1413	1437	1449	1433	1405	1405	1409	1408	1412	1415	1414	1410	1418	1431	1437	1436	1432	1423	1423	1418	1411	1411	1404	1406	1403	1408	1417	1432	1441	1433	1408	1389	1395	1400	1416	1427	1442	1437	1428	1420	1417	1418	1421	1418	1428	1428	1420	1410	1408	1416	1411	1372	1363	1367	1361	1361	1370	1375	1370	1366	1363	1366	1373	1383	1379	1370	1367	1373	1388	1396	1386	1372	1358	1361	1363	1365	1374	1382	1383	1388	1396	1386	1376	1374	1384	1399	1402	1395	1384	1376	1370	1377	1374	1372	1350	1346	1350	1370	1375	1375	0	0	0	0	0	0	0	0	0	0	0	0	0	0	0	0	0	0	0	0	0	0	0	0	0	0	0	0	0	1629	1637	1653	1659	1653	1647	1638	1641	1599	1464	1380	1368	1361	1354	1351	1345	1361	1371	1379	1368	1358	1355	1353	1350	1345	1339	1335	1328	1333	1341	1350	1347	1351	1353	1344	1341	1346	1345	1355	1367	1360	1342	1327	1334	1346	1348	1345	1339	1333	1336	1347	1356	1364	1358	1360	1358	1360	1370	1371	1380	1385	1385	1375	1361	1352	1352	1358	1359	1360	1361	1370	1381	1388	1381	1374	1365	1372	1371	1366	1355	1351	1354	1360	1367	1375	1375	1379	1374	1367	1362	1362	1356	1336	1337	1338	1331	1332	1342	1358	1357	1357	1348	1339	1329	1324	1328	1336	1335	1338	1331	1336	1341	1343	1348	1352	1356	1357	1356	1357	1355	1356	1352	1352	1353	1351	1355	1368	1374	1382	1382	1378	1372	1360	1348	1346	1349	1351	1348	1346	1352	1357	1358	1359	1361	1364	1368	1371	1376	1380	1375	1371	1356	1347	1358	1369	1384	1383	1364	1355	1343	1348	1355	1361	1363	1362	1363	1367	1361	1330	0	0	0	0	0	1381	1353	1356	1347	1348	1348	1341	1354	1355	1348	1357	1363	1370	1372	1368	1367	1367	1365	1370	1366	1364	1358	1356	1350	1346	1345	1357	1359	1356	1357	1352	1348	1350	1350	1357	1361	1367	1360	1351	1343	1349	1356	1360	1351	1347	1355	1366	1369	1362	1356	1342	1349	1349	1355	1348	1356	1363	1365	1367	1360	1350	1341	1326	1322	1325	1334	1341	1347	1351	1354	1362	1359	1346	1340	1336	1344	1333	1338	1336	1337	1342	1343	1339	1341	1343	1346	1352	1360	1359	1359	1355	1352	1347	1347	1349	1350	1352	1353	1347	1345	1348	1360	1367	1364	1350	1340	1351	1350	1364	1372	1371	1362	1345	1342	1345	1349	1349	1335	1341	1344	1350	1354	1356	1351	1343	1338	1343	1349	1344	1352	1355	1364	1371	1369	1359	1349	1344	1344	1349	1347	1338	1336	1337	1341	1353	1356	1363	1373	1370	1364	1349	1338	1338	1344	1361	1368	1360	1347	1347	1356	1357	1343	1353	0	0	0	0	0	0	0	0	0	0	0	0	0	0	0	0	0	0	0	0	1512	1516	1521	1516	1510	1473	1468	1457	1465	1448	1448	1422	1402	1408	1415	1415	1414	1420	1423	1428	1436	1441	1445	1444	1436	1430	1420	1407	1401	1401	1406	1417	1428	1438	1447	1450	1437	1425	1411	1418	1456	1464	0	0	0	0	0	0	0	0	0	1418	1424	1422	1416	1411	1399	1384	1371	1361	1357	1356	1358	1361	1363	1369	1359	1356	1357	1364	1370	1370	1376	1383	1384	1380	1376	1375	1376	1372	1368	1363	1344	1348	1349	1348	1347	1347	1366	1379	1389	1399	1402	0	0	0	0	0	0	0
0	0	0	1326	1332	1336	1350	1350	1363	1372	1381	1374	1368	1377	1377	1387	1387	1390	1398	1392	1390	1390	1404	1414	1416	1413	1397	1390	1396	1396	1397	1397	1398	1391	1392	1400	1408	1400	1391	1391	1395	1404	1416	1420	1404	1379	1372	1379	1387	1399	1402	1409	1408	1411	1423	1442	1442	1432	1419	1420	1437	1432	1425	1410	1408	1413	1417	1424	1432	1430	1425	1421	1421	1410	1405	1401	1411	1418	1420	1421	1420	1434	1436	1435	1409	1391	1392	1404	1414	1433	1445	1437	1430	1423	1414	1412	1409	1414	1424	1426	1417	1414	1420	1421	1416	1386	1375	1369	1367	1368	1368	1367	1365	1363	1366	1374	1387	1388	1384	1370	1366	1374	1389	1399	1395	1377	1369	1369	1363	1366	1366	1386	1397	1396	1404	1395	1390	1380	1385	1392	1392	1385	1381	1382	1375	1379	1385	1389	1361	1354	1352	1345	1359	1376	0	0	0	0	0	0	0	0	0	0	0	0	0	0	0	0	0	0	0	0	0	0	0	0	0	0	0	0	0	1628	1644	1664	1676	1664	1626	1625	1644	1562	1465	1377	1370	1353	1346	1340	1351	1358	1365	1379	1362	1356	1351	1346	1341	1340	1338	1347	1352	1356	1361	1355	1353	1354	1355	1350	1340	1342	1347	1359	1371	1364	1349	1341	1342	1344	1340	1342	1344	1344	1341	1348	1355	1349	1349	1357	1354	1358	1362	1369	1372	1387	1391	1386	1372	1365	1364	1366	1367	1367	1366	1373	1380	1387	1385	1373	1363	1360	1360	1362	1354	1352	1358	1369	1373	1372	1375	1368	1362	1359	1355	1355	1336	1322	1322	1324	1329	1326	1341	1354	1357	1363	1362	1350	1335	1326	1323	1328	1335	1342	1337	1331	1338	1335	1340	1348	1353	1350	1347	1347	1345	1342	1340	1343	1344	1343	1354	1365	1377	1375	1373	1368	1360	1349	1340	1337	1340	1342	1339	1342	1345	1350	1357	1359	1364	1366	1370	1373	1382	1385	1381	1374	1362	1350	1358	1374	1389	1382	1369	1357	1348	1344	1350	1349	1354	1357	1358	1362	1358	1346	0	0	0	0	0	1389	1353	1359	1352	1351	1354	1354	1354	1350	1342	1347	1356	1362	1366	1367	1368	1369	1370	1366	1360	1361	1356	1352	1352	1347	1344	1359	1366	1366	1354	1346	1341	1341	1347	1344	1349	1351	1348	1342	1342	1344	1351	1355	1353	1351	1358	1362	1364	1362	1350	1350	1352	1355	1358	1364	1366	1362	1364	1367	1362	1355	1345	1335	1329	1332	1333	1334	1335	1334	1341	1346	1341	1339	1331	1325	1324	1332	1325	1323	1334	1340	1339	1338	1337	1342	1351	1354	1355	1354	1345	1345	1344	1344	1342	1342	1339	1345	1351	1353	1351	1354	1358	1366	1369	1370	1368	1373	1369	1369	1368	1373	1371	1356	1343	1337	1342	1346	1345	1341	1343	1346	1353	1358	1360	1352	1348	1346	1342	1343	1352	1346	1348	1362	1370	1366	1353	1343	1339	1339	1337	1332	1331	1337	1347	1350	1349	1361	1373	1375	1362	1352	1336	1335	1348	1360	1365	1364	1352	1340	1338	1342	1354	1410	0	0	0	0	0	0	0	0	0	0	0	0	0	0	0	0	0	0	0	0	1521	1527	1541	1548	1519	1481	1465	1467	1453	1436	1441	1429	1408	1414	1420	1412	1411	1416	1427	1433	1439	1437	1436	1435	1433	1427	1422	1412	1403	1400	1402	1419	1425	1431	1435	1435	1428	1414	1407	1421	1452	1461	0	0	0	0	0	0	0	0	0	0	0	1420	1412	1406	1407	1391	1366	1353	1349	1352	1362	1363	1377	1381	1359	1355	1357	1361	1363	1364	1364	1372	1377	1377	1376	1378	1383	1386	1373	1349	1346	1342	1343	1347	1354	1354	1372	1390	1401	1401	1403	0	0	0	0	0	0	0
0	0	0	1337	1334	1342	1346	1346	1357	1369	1374	1376	1374	1386	1386	1391	1398	1399	1399	1390	1394	1394	1399	1402	1406	1409	1401	1397	1397	1397	1403	1402	1401	1404	1404	1409	1408	1395	1384	1384	1386	1395	1414	1421	1414	1390	1381	1386	1395	1400	1398	1398	1401	1407	1414	1434	1429	1420	1418	1435	1454	1463	1457	1411	1405	1412	1423	1432	1436	1436	1427	1415	1415	1409	1403	1403	1416	1427	1431	1428	1430	1432	1434	1431	1418	1393	1393	1401	1412	1424	1435	1435	1422	1417	1415	1409	1411	1414	1428	1431	1420	1410	1416	1416	1400	1392	1386	1381	1383	1380	1375	1369	1364	1369	1372	1384	1392	1385	1375	1372	1369	1374	1382	1392	1390	1385	1373	1369	1364	1360	1362	1384	1391	1397	1399	1399	1398	1391	1391	1385	1379	1373	1372	1381	1384	1388	1395	1404	1368	1363	1347	1337	1364	1372	0	0	0	0	0	0	0	0	0	0	0	0	0	0	0	0	0	0	0	0	0	0	0	0	0	0	0	0	0	1640	1647	1659	1667	1658	1626	1622	1638	1566	1476	1368	1367	1356	1349	1347	1358	1358	1358	1349	1355	1351	1343	1340	1342	1349	1352	1359	1360	1365	1370	1362	1358	1353	1353	1352	1342	1338	1341	1356	1363	1355	1352	1349	1343	1345	1351	1347	1349	1350	1347	1348	1342	1340	1345	1355	1357	1357	1360	1362	1367	1379	1381	1376	1372	1365	1371	1373	1375	1376	1374	1370	1373	1382	1385	1374	1362	1354	1353	1351	1353	1358	1357	1372	1373	1370	1362	1360	1352	1354	1356	1357	1336	1320	1318	1324	1338	1345	1352	1356	1359	1357	1367	1360	1349	1336	1334	1338	1346	1355	1351	1341	1331	1328	1331	1345	1354	1354	1348	1343	1341	1335	1333	1337	1338	1345	1354	1372	1378	1368	1367	1358	1347	1336	1332	1332	1337	1339	1342	1339	1344	1347	1349	1350	1353	1360	1364	1371	1371	1377	1375	1368	1360	1347	1361	1377	1383	1383	1370	1359	1353	1351	1357	1360	1361	1355	1357	1362	1372	1378	0	0	0	0	0	1388	1375	1365	1360	1355	1354	1350	1350	1349	1345	1344	1350	1350	1352	1358	1361	1366	1362	1359	1357	1361	1361	1361	1358	1353	1356	1364	1377	1375	1360	1345	1337	1339	1343	1340	1340	1344	1345	1346	1339	1351	1352	1357	1356	1356	1361	1358	1358	1354	1348	1351	1352	1360	1369	1371	1369	1361	1364	1360	1356	1351	1351	1349	1351	1344	1338	1335	1333	1332	1337	1341	1338	1332	1323	1319	1316	1326	1328	1324	1329	1337	1340	1338	1343	1346	1354	1356	1348	1339	1330	1324	1332	1342	1341	1336	1331	1335	1340	1343	1351	1352	1352	1362	1371	1375	1371	1377	1368	1367	1363	1364	1359	1354	1338	1319	1325	1340	1349	1349	1346	1343	1348	1364	1369	1368	1360	1351	1343	1339	1355	1351	1346	1351	1364	1360	1354	1342	1328	1323	1329	1329	1337	1346	1349	1349	1345	1353	1366	1373	1360	1341	1331	1335	1343	1357	1363	1359	1354	1335	1333	1349	1391	1454	0	0	0	0	0	0	0	0	0	0	0	0	0	0	0	0	0	0	0	0	1533	1537	1546	1545	1503	1477	1471	1459	1449	1436	1446	1438	1415	1419	1419	1425	1428	1435	1438	1440	1439	1438	1430	1424	1429	1430	1424	1419	1410	1402	1407	1417	1425	1430	1431	1424	1421	1409	1398	1412	1433	1447	0	0	0	0	0	0	0	0	0	0	0	0	0	0	0	0	1378	1361	1363	1365	1375	1383	1392	1390	1372	1367	1366	1367	1356	1356	1356	1365	1365	1366	1370	1371	1381	1388	1382	1366	1362	1363	1355	1353	1356	1356	1372	1389	1393	1396	1400	0	0	0	0	0	0	0
0	0	0	1349	1347	1342	1344	1344	1354	1367	1377	1378	1386	1390	1390	1404	1404	1405	1407	1398	1398	1398	1400	1398	1401	1399	1397	1398	1403	1403	1404	1404	1404	1406	1416	1424	1418	1401	1384	1384	1384	1388	1404	1418	1409	1398	1399	1405	1409	1407	1403	1403	1395	1396	1416	1429	1425	1412	1417	1433	1461	1479	1475	1415	1402	1410	1425	1432	1435	1431	1414	1412	1412	1403	1402	1411	1427	1435	1434	1430	1436	1434	1439	1435	1421	1403	1398	1402	1419	1426	1430	1425	1420	1413	1413	1414	1414	1423	1437	1439	1435	1410	1409	1400	1387	1390	1395	1405	1405	1404	1390	1376	1369	1371	1381	1392	1389	1381	1381	1379	1375	1375	1378	1380	1383	1377	1375	1373	1360	1355	1361	1380	1385	1389	1391	1397	1396	1396	1393	1381	1366	1363	1372	1377	1386	1390	1402	1409	1369	1356	1339	1342	1366	1377	0	0	0	0	0	0	0	0	0	0	0	0	0	0	0	0	0	0	0	0	0	0	0	0	0	0	0	0	0	1648	1636	1637	1649	1657	1638	1631	1634	1575	1522	1382	1373	1375	1361	1376	1372	1359	1347	1345	1347	1345	1344	1354	1365	1379	1367	1362	1359	1365	1365	1363	1359	1358	1355	1349	1340	1336	1338	1349	1348	1347	1349	1346	1349	1352	1351	1351	1354	1354	1344	1335	1325	1325	1331	1351	1358	1358	1346	1346	1354	1371	1366	1359	1357	1354	1364	1374	1369	1379	1379	1366	1366	1366	1374	1372	1359	1350	1349	1350	1352	1350	1357	1364	1367	1361	1351	1348	1343	1349	1358	1360	1333	1321	1326	1335	1347	1356	1362	1361	1362	1366	1363	1371	1350	1345	1340	1349	1362	1364	1360	1345	1331	1323	1328	1341	1351	1350	1347	1346	1348	1351	1340	1339	1345	1345	1349	1362	1362	1372	1360	1358	1350	1341	1334	1337	1343	1352	1350	1349	1347	1342	1336	1335	1337	1343	1355	1362	1360	1360	1362	1363	1356	1352	1356	1364	1372	1372	1361	1358	1359	1363	1359	1357	1359	1358	1360	1373	1395	1401	0	0	0	0	0	1375	1379	1371	1361	1351	1351	1351	1345	1347	1346	1347	1347	1341	1342	1348	1352	1359	1364	1363	1366	1375	1378	1375	1371	1364	1364	1368	1372	1372	1355	1336	1332	1338	1341	1343	1342	1342	1346	1348	1347	1353	1359	1360	1361	1371	1360	1356	1354	1348	1346	1348	1350	1358	1367	1369	1368	1360	1353	1346	1344	1348	1350	1351	1351	1346	1342	1335	1331	1335	1338	1344	1344	1334	1325	1317	1314	1323	1331	1341	1355	1366	1362	1352	1344	1344	1349	1350	1342	1333	1326	1327	1333	1346	1350	1340	1333	1331	1326	1334	1344	1342	1347	1353	1364	1370	1368	1368	1355	1347	1345	1351	1350	1336	1319	1320	1328	1345	1359	1361	1352	1347	1351	1370	1387	1387	1371	1354	1340	1339	1353	1348	1342	1347	1351	1364	1362	1346	1335	1321	1321	1322	1329	1344	1352	1345	1344	1356	1368	1364	1354	1337	1327	1331	1345	1356	1360	1351	1348	1331	1327	1341	1397	0	0	0	0	0	0	0	0	0	0	0	0	0	0	0	0	0	0	0	0	0	1535	1539	1530	1520	1487	1461	1464	1465	1453	1451	1453	1432	1422	1419	1422	1429	1435	1438	1439	1443	1440	1436	1425	1420	1422	1427	1427	1424	1414	1402	1409	1416	1425	1433	1436	1429	1422	1408	1400	1407	1421	0	0	0	0	0	0	0	0	0	0	0	0	0	0	0	0	0	0	1394	1376	1379	1384	1390	1406	1402	1382	1374	1371	1372	1370	1375	1375	1386	1389	1386	1377	1375	1381	1387	1381	1372	1372	1376	1374	1366	1360	1360	1374	1376	1378	1371	1374	0	0	0	0	0	0	0
0	0	0	1349	1350	1350	1344	1344	1354	1368	1381	1384	1389	1398	1398	1408	1409	1415	1407	1399	1396	1396	1385	1386	1390	1389	1393	1394	1400	1400	1408	1406	1410	1414	1421	1423	1417	1407	1401	1401	1390	1391	1403	1411	1400	1399	1408	1419	1424	1422	1413	1413	1404	1397	1413	1426	1420	1413	1413	1428	1443	1449	1452	1430	1408	1400	1421	1433	1436	1426	1413	1413	1406	1392	1403	1422	1434	1433	1434	1438	1442	1438	1438	1439	1426	1407	1398	1403	1420	1430	1431	1422	1422	1424	1423	1427	1427	1428	1437	1445	1445	1422	1410	1394	1388	1391	1402	1411	1417	1412	1395	1387	1377	1369	1376	1382	1383	1379	1387	1382	1371	1364	1365	1365	1364	1374	1377	1370	1359	1361	1369	1383	1378	1375	1370	1371	1382	1389	1391	1375	1370	1367	1379	1384	1389	1384	1392	1406	1349	1340	1334	1338	1370	1406	0	0	0	0	0	0	0	0	0	0	0	0	0	0	0	0	0	0	0	0	0	0	0	0	0	0	0	0	0	1638	1626	1631	1647	1653	1638	1636	1617	1583	1548	1459	1362	1360	1367	1372	1373	1358	1349	1351	1345	1346	1348	1367	1377	1381	1374	1363	1354	1355	1354	1355	1357	1360	1352	1349	1344	1337	1339	1342	1343	1343	1345	1347	1348	1351	1355	1358	1356	1355	1341	1319	1308	1304	1320	1343	1350	1345	1329	1328	1348	1357	1353	1348	1343	1342	1351	1361	1361	1369	1371	1361	1356	1352	1357	1371	1364	1357	1350	1354	1360	1352	1357	1358	1361	1349	1343	1339	1327	1336	1356	1361	1342	1330	1330	1343	1354	1362	1363	1358	1360	1359	1357	1360	1352	1351	1345	1350	1363	1366	1362	1352	1338	1330	1334	1343	1355	1350	1348	1348	1347	1355	1357	1362	1360	1346	1341	1343	1348	1363	1364	1360	1353	1351	1347	1347	1354	1359	1356	1356	1352	1341	1329	1322	1324	1335	1338	1348	1350	1347	1354	1359	1362	1352	1352	1352	1354	1345	1348	1344	1354	1355	1353	1352	1352	1352	1354	1368	1397	1412	1420	0	0	0	0	1386	1379	1374	1359	1348	1347	1348	1344	1342	1348	1346	1347	1341	1337	1340	1348	1358	1359	1370	1380	1388	1394	1390	1382	1375	1367	1365	1370	1368	1355	1341	1322	1326	1341	1346	1343	1345	1345	1349	1348	1354	1359	1363	1364	1363	1352	1354	1353	1353	1350	1349	1356	1359	1361	1360	1353	1349	1344	1339	1337	1345	1353	1356	1349	1344	1331	1331	1330	1333	1342	1344	1343	1335	1332	1327	1324	1318	1337	1355	1372	1376	1375	1357	1341	1341	1342	1340	1329	1327	1333	1344	1347	1355	1358	1348	1332	1328	1328	1337	1342	1339	1338	1344	1355	1362	1358	1343	1332	1326	1328	1335	1336	1330	1318	1313	1328	1336	1345	1347	1346	1343	1348	1368	1382	1384	1372	1355	1337	1344	1368	1366	1339	1340	1347	1359	1362	1355	1333	1325	1319	1316	1323	1335	1343	1346	1344	1350	1365	1364	1352	1331	1322	1328	1333	1344	1354	1350	1341	1334	1327	1334	1371	0	0	0	0	0	0	0	0	0	0	0	0	0	0	0	0	0	0	0	0	0	1534	1532	1504	1480	1454	1438	1447	1456	1464	1470	1472	1433	1430	1420	1423	1428	1432	1430	1435	1444	1442	1431	1420	1421	1422	1437	1437	1432	1409	1399	1406	1415	1431	1442	1441	1440	1430	1410	1405	1402	1418	0	0	0	0	0	0	0	0	0	0	0	0	0	0	0	0	0	0	1410	1400	1396	1400	1418	1428	1407	1375	1374	1373	1374	1379	1390	1390	1401	1404	1402	1395	1389	1386	1380	1374	1359	1357	1378	1381	1376	1367	1367	1366	1367	1363	1355	1359	0	0	0	0	0	0	0
0	0	0	1367	1363	1358	1353	1353	1358	1374	1379	1388	1391	1397	1397	1401	1412	1411	1403	1392	1382	1382	1383	1389	1387	1386	1386	1390	1406	1406	1408	1410	1408	1412	1414	1414	1413	1414	1409	1409	1402	1395	1401	1399	1401	1406	1409	1418	1427	1434	1429	1429	1416	1404	1394	1407	1403	1401	1410	1419	1430	1435	1436	1420	1407	1391	1400	1415	1422	1425	1420	1420	1404	1390	1404	1416	1435	1444	1440	1440	1434	1439	1445	1441	1431	1414	1404	1407	1421	1427	1425	1424	1426	1430	1435	1436	1431	1430	1432	1439	1446	1443	1421	1413	1402	1388	1391	1400	1402	1400	1391	1381	1373	1363	1362	1363	1372	1375	1381	1374	1361	1357	1351	1351	1358	1367	1377	1371	1361	1369	1381	1381	1369	1363	1360	1350	1353	1371	1380	1382	1389	1388	1394	1395	1386	1366	1376	1383	1340	1347	1337	1345	1382	0	0	0	0	0	0	0	0	0	0	0	0	0	0	0	0	0	0	0	0	0	0	0	0	0	0	0	0	0	0	1601	1621	1638	1655	1669	1677	1660	1636	1568	1528	1483	1366	1341	1353	1362	1363	1355	1348	1352	1353	1342	1352	1379	1381	1379	1369	1356	1348	1344	1344	1351	1358	1360	1359	1350	1348	1346	1346	1347	1345	1344	1350	1341	1340	1349	1351	1351	1354	1354	1336	1315	1299	1294	1314	1329	1338	1333	1319	1317	1341	1349	1348	1344	1336	1335	1342	1357	1355	1352	1349	1350	1349	1350	1355	1369	1367	1361	1357	1359	1364	1359	1359	1357	1355	1350	1339	1334	1320	1333	1352	1362	1337	1331	1334	1345	1356	1361	1361	1353	1351	1349	1350	1356	1357	1349	1347	1350	1356	1364	1357	1352	1345	1340	1338	1347	1353	1350	1349	1349	1344	1356	1367	1372	1370	1346	1333	1334	1343	1350	1357	1361	1360	1356	1349	1351	1360	1355	1353	1355	1350	1345	1335	1326	1324	1332	1336	1343	1339	1341	1347	1354	1366	1363	1352	1347	1341	1339	1338	1337	1346	1346	1345	1352	1351	1351	1353	1357	1386	1395	1408	1414	1444	1439	1425	1400	1381	1369	1353	1342	1342	1346	1346	1340	1340	1348	1347	1344	1339	1340	1351	1362	1372	1361	1344	1341	1344	1348	1382	1381	1373	1367	1363	1362	1352	1339	1328	1329	1339	1340	1343	1341	1341	1347	1347	1348	1357	1362	1362	1356	1346	1348	1356	1359	1360	1360	1349	1350	1342	1349	1346	1347	1348	1346	1346	1347	1353	1352	1349	1345	1328	1330	1328	1333	1339	1341	1341	1337	1332	1330	1326	1323	1346	1360	1371	1381	1374	1351	1341	1338	1340	1334	1324	1327	1344	1352	1354	1353	1359	1352	1335	1337	1339	1346	1349	1340	1340	1338	1348	1350	1346	1329	1318	1313	1322	1330	1329	1328	1312	1310	1317	1328	1332	1332	1336	1328	1333	1347	1367	1374	1366	1358	1348	1349	1374	1372	1357	1350	1350	1358	1362	1365	1357	1343	1333	1313	1319	1332	1331	1341	1340	1349	1361	1365	1351	1336	1325	1323	1328	1333	1344	1349	1347	1339	1332	1339	1388	0	0	0	0	0	0	0	0	0	0	0	0	0	0	0	0	0	0	0	0	0	1531	1515	1496	1469	1440	1425	1435	1447	1470	1475	1477	1429	1424	1421	1418	1414	1419	1425	1439	1446	1456	1447	1432	1419	1419	1437	1449	1436	1414	1396	1394	1420	1435	1445	1451	1446	1436	1422	1405	1422	1417	0	0	0	0	0	0	0	0	0	0	0	0	0	0	0	0	1401	1406	1406	1413	1428	1429	1428	1413	1389	1366	1367	1370	1371	1378	1397	1397	1404	1408	1408	1398	1390	1383	1378	1372	1357	1349	1363	1378	1380	1375	1375	1373	1362	1355	1348	1349	0	0	0	0	0	0	0
0	0	0	1390	1387	1364	1354	1354	1358	1363	1382	1392	1393	1388	1388	1399	1407	1400	1386	1377	1373	1373	1372	1383	1386	1383	1384	1390	1406	1406	1406	1412	1408	1407	1407	1408	1417	1420	1420	1421	1413	1407	1407	1407	1407	1407	1403	1407	1416	1430	1432	1432	1424	1408	1391	1388	1382	1388	1403	1415	1417	1424	1419	1412	1402	1395	1403	1411	1420	1426	1419	1419	1411	1395	1398	1405	1430	1450	1451	1436	1425	1427	1442	1444	1432	1421	1405	1414	1419	1421	1426	1424	1425	1429	1435	1434	1431	1427	1426	1437	1445	1452	1431	1417	1407	1396	1384	1388	1391	1386	1380	1377	1365	1362	1354	1355	1367	1367	1375	1367	1364	1363	1358	1355	1354	1367	1381	1386	1381	1376	1383	1378	1363	1353	1349	1336	1336	1363	1379	1390	1397	1397	1396	1387	1382	1351	1357	1352	1342	1350	1363	1370	1410	0	0	0	0	0	0	0	0	0	0	0	0	0	0	0	0	0	0	0	0	0	0	0	0	0	0	0	0	0	0	1637	1638	1647	1658	1674	1696	1678	1674	1640	1519	1465	1366	1340	1349	1362	1364	1359	1352	1351	1350	1344	1344	1361	1372	1371	1363	1349	1347	1348	1348	1342	1349	1355	1351	1347	1346	1353	1355	1356	1351	1351	1345	1333	1336	1348	1354	1352	1356	1353	1342	1323	1303	1298	1309	1328	1331	1327	1323	1325	1346	1352	1346	1333	1328	1330	1340	1350	1355	1345	1340	1346	1349	1347	1358	1365	1369	1362	1358	1360	1363	1364	1357	1356	1361	1358	1347	1338	1327	1336	1358	1361	1338	1334	1339	1346	1354	1358	1358	1352	1340	1345	1348	1351	1353	1351	1350	1347	1350	1345	1345	1342	1342	1339	1336	1350	1358	1359	1351	1349	1342	1348	1363	1369	1353	1334	1326	1329	1332	1342	1354	1362	1363	1355	1344	1343	1356	1357	1361	1356	1355	1353	1348	1343	1343	1349	1341	1340	1336	1336	1341	1352	1362	1365	1359	1348	1336	1335	1334	1337	1341	1341	1347	1351	1353	1352	1355	1358	1376	1384	1395	1398	1406	1401	1415	1412	1379	1363	1347	1337	1345	1348	1348	1345	1346	1349	1347	1337	1340	1341	1352	1365	1376	1357	1346	1337	1345	1349	1343	1375	1368	1361	1356	1355	1347	1336	1325	1326	1329	1329	1334	1339	1345	1343	1345	1349	1357	1360	1363	1354	1344	1348	1355	1360	1357	1355	1347	1344	1346	1347	1344	1351	1354	1352	1349	1351	1353	1351	1358	1348	1338	1322	1331	1337	1339	1338	1338	1334	1330	1328	1329	1329	1351	1360	1368	1373	1359	1350	1347	1347	1341	1335	1325	1336	1347	1353	1352	1352	1354	1349	1345	1340	1349	1350	1350	1337	1319	1318	1335	1342	1337	1326	1315	1314	1319	1328	1332	1328	1318	1313	1314	1319	1325	1324	1321	1310	1314	1330	1342	1360	1362	1354	1350	1348	1355	1364	1355	1345	1346	1349	1357	1352	1363	1355	1344	1334	1332	1333	1325	1321	1322	1331	1350	1361	1365	1364	1340	1325	1312	1313	1336	1348	1354	1343	1335	1354	0	0	0	0	0	0	0	0	0	0	0	0	0	0	0	0	0	0	0	0	0	0	0	1524	1505	1474	1451	1429	1420	1432	1467	1473	1468	1422	1418	1422	1450	1453	1446	1454	1464	1449	1436	1426	1415	1400	1400	1428	1450	1460	1436	1409	1396	1393	1406	1409	1411	1412	1421	1428	1428	1425	1427	0	0	0	0	0	0	0	0	0	0	1412	1417	1428	1432	1433	1423	1407	1403	1402	1416	1427	1426	1419	1400	1372	1360	1368	1361	1359	1368	1395	1395	1402	1402	1396	1392	1380	1381	1376	1372	1364	1360	1364	1369	1379	1383	1383	1383	1372	1356	1349	1346	0	0	0	0	0	0	0
0	0	0	1413	1397	1375	1351	1351	1350	1353	1378	1396	1398	1388	1388	1395	1397	1394	1380	1367	1362	1362	1367	1385	1392	1392	1397	1402	1412	1412	1411	1415	1406	1403	1399	1410	1422	1427	1427	1431	1422	1416	1418	1422	1418	1412	1403	1399	1408	1423	1428	1428	1421	1408	1398	1386	1369	1382	1396	1411	1412	1417	1418	1409	1402	1401	1403	1407	1417	1421	1417	1417	1403	1397	1388	1400	1427	1438	1438	1428	1422	1417	1420	1427	1429	1431	1411	1407	1413	1415	1417	1418	1424	1432	1434	1431	1430	1423	1424	1436	1445	1452	1428	1419	1404	1397	1371	1380	1387	1381	1382	1375	1371	1365	1353	1361	1368	1364	1373	1371	1373	1383	1372	1359	1357	1370	1386	1396	1393	1383	1386	1379	1363	1360	1354	1352	1352	1374	1390	1399	1404	1398	1391	1382	1367	1348	1346	1357	1368	1377	1371	1397	0	0	0	0	0	0	0	0	0	0	0	0	0	0	0	0	0	0	0	0	0	0	0	0	0	0	0	0	0	0	0	1665	1654	1657	1661	1669	1679	1665	1668	1648	1529	1493	1406	1358	1358	1363	1367	1364	1363	1364	1365	1360	1358	1366	1364	1360	1350	1341	1344	1353	1354	1352	1347	1350	1349	1347	1337	1348	1366	1370	1351	1350	1345	1333	1333	1345	1350	1347	1353	1356	1352	1339	1313	1304	1325	1329	1329	1327	1329	1333	1350	1349	1341	1329	1326	1332	1340	1349	1348	1347	1342	1339	1352	1360	1365	1365	1364	1356	1352	1346	1350	1354	1357	1353	1356	1360	1357	1348	1345	1346	1345	1340	1337	1340	1351	1357	1361	1362	1352	1343	1333	1339	1353	1353	1351	1352	1354	1349	1342	1336	1332	1332	1338	1332	1341	1362	1369	1366	1360	1352	1349	1347	1348	1339	1328	1317	1319	1324	1333	1342	1355	1367	1361	1347	1333	1334	1349	1362	1365	1361	1358	1359	1358	1361	1364	1366	1360	1347	1336	1335	1340	1351	1361	1364	1358	1350	1347	1333	1336	1336	1337	1333	1343	1349	1352	1354	1357	1358	1367	1379	1387	1375	1369	1383	1406	1404	1376	1356	1344	1335	1346	1356	1352	1353	1352	1354	1355	1346	1347	1352	1354	1364	1371	1365	1362	1337	1337	1342	1361	1359	1350	1350	1351	1352	1343	1333	1329	1323	1320	1321	1325	1338	1345	1348	1351	1355	1357	1362	1358	1351	1344	1343	1354	1354	1346	1343	1341	1342	1347	1349	1351	1355	1353	1352	1351	1347	1348	1351	1349	1347	1338	1333	1345	1344	1341	1339	1340	1337	1332	1327	1332	1336	1357	1362	1371	1358	1354	1354	1355	1353	1345	1337	1333	1334	1346	1353	1355	1353	1353	1346	1337	1339	1356	1354	1347	1324	1308	1301	1329	1339	1338	1318	1306	1308	1320	1333	1337	1341	1337	1323	1319	1314	1316	1316	1315	1311	1311	1321	1338	1348	1353	1353	1339	1338	1341	1353	1344	1332	1329	1338	1342	1343	1352	1357	1344	1330	1331	1335	1329	1317	1320	1330	1339	1354	1367	1370	1364	1346	1319	1325	1338	1356	1364	1356	1332	0	0	0	0	0	0	0	0	0	0	0	0	0	0	0	0	0	0	0	0	0	0	0	0	1540	1513	1488	1458	1435	1427	1434	1468	1467	1463	1416	1423	1434	1449	1445	1441	1453	1464	1468	1434	1423	1412	1399	1411	1431	1452	1469	1490	1471	1439	1424	1406	1401	1400	1395	1414	1420	1432	1432	1431	0	0	0	0	0	0	0	0	0	0	1416	1426	1446	1460	1458	1435	1416	1398	1402	1410	1414	1413	1398	1395	1378	1359	1368	1358	1351	1366	1392	1392	1395	1391	1388	1380	1376	1377	1379	1382	1379	1373	1372	1373	1375	1389	1389	1391	1376	1361	1346	1342	0	0	0	0	0	0	0
0	0	0	1407	1390	1371	1348	1348	1341	1356	1374	1398	1408	1395	1395	1392	1394	1385	1375	1360	1364	1364	1376	1407	1404	1404	1408	1416	1419	1419	1419	1417	1408	1398	1394	1403	1413	1425	1425	1430	1422	1420	1420	1421	1416	1412	1405	1403	1405	1417	1415	1415	1415	1408	1402	1391	1378	1390	1399	1409	1415	1417	1418	1411	1412	1408	1402	1406	1413	1421	1419	1419	1408	1404	1401	1403	1422	1434	1443	1436	1423	1412	1407	1411	1416	1420	1414	1410	1408	1416	1417	1421	1422	1428	1426	1425	1426	1432	1441	1446	1446	1433	1404	1391	1371	1359	1373	1382	1395	1391	1380	1373	1368	1370	1365	1367	1369	1363	1369	1374	1385	1387	1394	1392	1392	1393	1398	1393	1388	1388	1400	1390	1378	1371	1375	1385	1401	1397	1389	1389	1402	1400	1392	1381	1369	1361	1358	1384	1408	1404	1394	1405	0	0	0	0	0	0	0	0	0	0	0	0	0	0	0	0	0	0	0	0	0	0	0	0	0	0	0	0	0	0	0	1679	1673	1669	1661	1657	1657	1647	1651	1591	0	0	1436	1375	1359	1365	1369	1370	1371	1376	1380	1372	1366	1362	1358	1350	1337	1336	1341	1358	1368	1372	1363	1358	1351	1342	1333	1341	1367	1371	1352	1345	1344	1338	1340	1364	1359	1351	1353	1353	1355	1348	1325	1326	1324	1326	1328	1327	1332	1340	1356	1351	1339	1331	1329	1333	1340	1344	1347	1340	1339	1347	1350	1367	1360	1366	1362	1351	1341	1331	1333	1338	1349	1352	1359	1362	1360	1359	1352	1348	1338	1334	1338	1347	1364	1374	1373	1363	1352	1342	1340	1344	1357	1355	1359	1366	1373	1357	1343	1334	1332	1327	1326	1334	1348	1362	1372	1369	1360	1355	1349	1346	1340	1332	1316	1310	1311	1318	1324	1345	1359	1369	1361	1343	1335	1329	1345	1354	1361	1360	1359	1358	1363	1374	1380	1378	1368	1352	1340	1337	1346	1360	1368	1366	1355	1347	1341	1342	1332	1335	1340	1333	1337	1340	1351	1356	1355	1353	1358	1366	1351	1361	1356	1380	1379	1391	1376	1365	1356	1342	1355	1357	1352	1353	1355	1357	1357	1352	1346	1350	1351	1356	1358	1355	1358	1358	1360	1359	1347	1347	1337	1336	1338	1338	1343	1336	1330	1324	1325	1317	1323	1349	1354	1357	1353	1358	1364	1369	1366	1363	1357	1348	1352	1349	1334	1325	1327	1336	1350	1352	1354	1357	1346	1338	1331	1336	1346	1355	1356	1355	1347	1347	1347	1346	1341	1339	1339	1336	1331	1327	1329	1339	1355	1365	1357	1347	1348	1353	1354	1356	1345	1339	1330	1332	1342	1348	1353	1356	1353	1342	1329	1330	1347	1351	1337	1319	1303	1304	1326	1349	1347	1337	1318	1318	1324	1332	1341	1358	1363	1332	1311	1294	1299	1312	1323	1329	1333	1328	1333	1340	1341	1332	1327	1322	1327	1334	1323	1314	1308	1305	1316	1329	1339	1340	1333	1321	1325	1343	1356	1355	1346	1335	1327	1339	1354	1364	1357	1341	1327	1323	1339	1355	1369	1360	1341	0	0	0	0	0	0	0	0	0	0	0	0	0	0	0	0	0	0	0	0	0	0	0	0	0	0	1524	1493	1454	1458	1481	1480	1473	1465	1437	1435	1426	1406	1415	1427	1428	1431	1434	1429	1423	1418	1416	1438	1442	1448	1460	1486	1473	1450	1433	1419	1402	1408	1422	1429	1436	1434	1432	1424	1431	0	0	0	0	0	0	0	0	1404	1408	1421	1451	1469	1457	1438	1404	1398	1405	1417	1415	1400	1391	1395	1385	1375	1359	1363	1363	1345	1388	1388	1390	1385	1379	1373	1373	1377	1386	1394	1388	1382	1374	1376	1378	1387	1387	1390	1382	1365	1347	1342	0	0	0	0	0	0	0
0	0	0	1380	1374	1367	1346	1346	1355	1359	1387	1403	1398	1398	1386	1381	1380	1384	1374	1363	1355	1355	1384	1398	1403	1403	1404	1421	1421	1421	1416	1409	1397	1393	1387	1390	1398	1407	1407	1408	1405	1405	1408	1407	1406	1404	1401	1405	1408	1411	1410	1410	1406	1403	1408	1401	1404	1409	1419	1419	1421	1416	1417	1412	1412	1412	1406	1411	1424	1430	1426	1426	1414	1415	1409	1414	1423	1429	1438	1434	1423	1412	1415	1422	1425	1422	1415	1416	1412	1416	1417	1419	1419	1416	1411	1412	1419	1434	1443	1446	1443	1426	1400	1387	1365	1352	1360	1374	1388	1391	1378	1372	1370	1380	1376	1377	1372	1376	1374	1371	1379	1390	1401	1411	1406	1396	1389	1385	1382	1384	1390	1382	1375	1371	1384	1399	1398	1387	1378	1384	1393	1396	1387	1375	1362	1357	1354	1362	1394	1418	1415	1406	0	0	0	0	0	0	0	0	0	0	0	0	0	0	0	0	0	0	0	0	0	0	0	0	0	0	0	0	0	0	0	1680	1674	1674	1664	1644	1647	1649	1641	1606	0	0	1446	1392	1368	1366	1366	1370	1370	1373	1379	1369	1358	1353	1350	1345	1334	1327	1340	1360	1383	1378	1368	1360	1352	1348	1346	1353	1362	1368	1356	1349	1349	1359	1364	1366	1362	1354	1350	1353	1354	1350	1331	1333	1330	1324	1322	1328	1330	1333	1352	1369	1361	1347	1342	1340	1350	1347	1350	1344	1340	1342	1360	1358	1359	1350	1345	1331	1326	1316	1319	1324	1334	1349	1357	1361	1353	1346	1352	1346	1328	1329	1342	1357	1375	1378	1377	1366	1352	1343	1353	1374	1375	1375	1370	1373	1382	1382	1360	1339	1330	1322	1326	1334	1347	1360	1369	1371	1362	1357	1352	1352	1346	1332	1321	1312	1310	1315	1327	1339	1362	1367	1356	1348	1338	1336	1345	1353	1353	1349	1351	1357	1366	1376	1380	1378	1363	1345	1334	1334	1348	1364	1371	1366	1351	1348	1345	1341	1344	1345	1349	1347	1335	1339	1349	1355	1358	1354	1354	1345	1349	1359	1375	1379	1385	1375	1370	1362	1364	1355	1355	1348	1348	1352	1358	1363	1362	1354	1349	1348	1348	1339	1346	1347	1350	1352	1355	1354	1351	1340	1334	1331	1338	1341	1340	1345	1341	1349	1342	1347	1353	1361	1360	1356	1355	1358	1368	1371	1373	1373	1365	1350	1350	1337	1333	1329	1337	1340	1341	1348	1353	1352	1335	1331	1339	1338	1340	1359	1368	1368	1362	1356	1349	1342	1341	1340	1334	1321	1320	1335	1337	1338	1346	1351	1344	1340	1339	1351	1346	1345	1343	1338	1336	1334	1337	1344	1344	1352	1351	1338	1325	1320	1327	1339	1327	1315	1306	1313	1335	1353	1360	1349	1332	1329	1325	1329	1343	1360	1374	1341	1312	1301	1305	1320	1329	1335	1337	1331	1334	1340	1344	1340	1328	1328	1332	1344	1331	1318	1302	1299	1311	1325	1335	1338	1334	1330	1323	1344	1355	1356	1347	1333	1326	1337	1348	1363	1356	1335	1326	1330	1338	1353	1362	1348	1353	0	0	0	0	0	0	0	0	0	0	0	0	0	0	0	0	0	0	0	0	0	0	0	0	0	0	1539	1526	1495	1490	1499	1483	1472	1458	1448	1433	1421	1401	1407	1419	1420	1428	1429	1432	1424	1417	1415	1436	1442	1442	1446	1461	1463	1449	1428	1425	1429	1428	1433	1436	1433	1429	1428	1427	1430	0	0	0	0	0	0	0	0	1394	1396	1417	1442	1452	1443	1432	1408	1402	1421	1430	1429	1407	1396	1404	1399	1365	1364	1367	1359	1365	1392	1392	1389	1384	1375	1376	1382	1392	1400	1402	1395	1382	1377	1377	1380	1382	1382	1386	1379	1367	1358	1349	0	0	0	0	0	0	0
0	0	0	1363	1362	1364	1354	1354	1360	1370	1382	1397	1390	1390	1377	1372	1370	1371	1367	1354	1367	1367	1374	1389	1392	1395	1394	1407	1412	1412	1409	1398	1392	1387	1385	1388	1392	1393	1393	1393	1390	1385	1391	1395	1393	1390	1396	1405	1408	1408	1408	1409	1401	1393	1399	1420	1425	1437	1441	1447	1444	1435	1419	1414	1414	1413	1410	1415	1430	1427	1428	1428	1426	1426	1419	1420	1417	1419	1439	1426	1425	1418	1423	1432	1435	1432	1427	1423	1423	1420	1416	1418	1420	1409	1402	1401	1402	1426	1441	1444	1440	1433	1411	1394	1375	1358	1362	1362	1379	1382	1379	1378	1379	1386	1387	1383	1385	1382	1377	1373	1378	1387	1402	1404	1399	1388	1380	1379	1377	1380	1385	1378	1375	1375	1386	1393	1391	1379	1375	1383	1390	1390	1374	1365	1356	1350	1349	1363	1378	1390	1404	1416	0	0	0	0	0	0	0	0	0	0	0	0	0	0	0	0	0	0	0	0	0	0	0	0	0	0	0	0	0	0	0	1667	1675	1672	1665	1639	1637	1637	1632	0	0	0	1425	1377	1373	1374	1382	1374	1373	1367	1358	1352	1344	1336	1338	1341	1354	1358	1356	1363	1364	1353	1351	1351	1356	1358	1350	1346	1356	1362	1366	1364	1363	1363	1358	1352	1347	1335	1331	1326	1330	1334	1345	1348	1346	1332	1323	1326	1332	1331	1361	1367	1362	1351	1345	1346	1350	1350	1349	1346	1339	1339	1344	1357	1361	1354	1343	1335	1331	1336	1330	1320	1309	1308	1310	1313	1329	1334	1335	1345	1351	1355	1349	1354	1360	1367	1370	1370	1358	1349	1349	1363	1374	1373	1374	1375	1375	1367	1361	1348	1341	1346	1354	1357	1360	1368	1370	1357	1339	1329	1338	1348	1347	1329	1313	1312	1329	1342	1351	1361	1361	1357	1347	1340	1338	1333	1338	1338	1341	1344	1351	1349	1349	1347	1348	1355	1352	1339	1328	1330	1351	1366	1370	1360	1354	1359	1363	1367	1361	1360	1357	1355	1348	1347	1355	1354	1359	1361	1369	1366	1353	1365	1377	1374	1380	1361	1359	1344	1349	1346	1347	1347	1347	1351	1358	1363	1365	1353	1345	1340	1341	1344	1341	1343	1339	1341	1344	1350	1348	1342	1342	1343	1344	1338	1343	1351	1358	1356	1361	1359	1357	1363	1364	1362	1356	1362	1371	1375	1372	1374	1366	1351	1347	1342	1333	1340	1341	1341	1349	1342	1331	1329	1336	1339	1342	1342	1345	1342	1361	1370	1373	1365	1354	1347	1343	1342	1342	1323	1321	1342	1344	1341	1335	1327	1327	1333	1341	1343	1337	1333	1333	1342	1347	1344	1338	1333	1340	1349	1349	1341	1333	1328	1336	1329	1317	1314	1318	1330	1349	1362	1373	1367	1348	1332	1321	1324	1337	1352	1372	1367	1350	1339	1336	1340	1337	1333	1328	1331	1337	1339	1343	1334	1325	1323	1326	1362	1349	1333	1303	1293	1306	1315	1326	1327	1332	1335	1336	1339	1340	1325	1320	1324	1328	1339	1352	1358	1354	1348	1341	1345	1344	1360	1360	1345	1361	0	0	0	0	0	0	0	0	0	0	0	0	0	0	0	0	0	0	0	0	0	0	0	0	0	0	0	1524	1498	1493	1498	1489	1470	1447	1450	1436	1427	1403	1408	1418	1423	1423	1426	1427	1420	1413	1415	1425	1437	1438	1439	1439	1445	1431	1430	1431	1432	1430	1425	1421	1416	1421	1425	1430	0	0	0	0	0	0	0	0	0	0	1405	1415	1426	1428	1428	1432	1428	1431	1452	1460	1453	1424	1405	1412	1400	1369	1374	1376	1395	1398	1395	1395	1395	1384	1379	1380	1388	1401	1406	1405	1391	1382	1376	1375	1378	1379	1379	1378	1371	1365	1358	1357	0	0	0	0	0	0	0
0	0	0	1356	1359	1364	1354	1354	1364	1381	1390	1389	1386	1386	1378	1362	1353	1356	1359	1361	1361	1361	1371	1382	1385	1384	1380	1389	1400	1400	1403	1393	1391	1391	1393	1396	1394	1394	1394	1385	1378	1374	1377	1384	1384	1384	1391	1397	1402	1407	1407	1406	1404	1394	1391	1425	1440	1445	1450	1467	1458	1449	1425	1420	1421	1415	1415	1417	1426	1421	1418	1418	1421	1424	1417	1414	1404	1413	1421	1425	1422	1421	1430	1439	1445	1440	1434	1439	1431	1420	1420	1420	1424	1416	1406	1393	1395	1408	1431	1438	1439	1437	1416	1404	1383	1370	1371	1358	1365	1382	1386	1386	1388	1390	1384	1384	1381	1378	1373	1371	1378	1389	1398	1398	1385	1375	1371	1369	1375	1375	1380	1379	1376	1373	1384	1386	1380	1379	1378	1386	1385	1382	1369	1364	1364	1363	1360	1362	1376	1387	1384	1420	1405	0	0	0	0	0	0	0	0	0	0	0	0	0	0	0	0	0	0	0	0	0	0	0	0	0	0	0	0	0	0	1662	1675	1678	1668	1648	1638	1634	1623	0	0	0	1415	1377	1369	1380	1389	1384	1368	1352	1339	1334	1326	1333	1340	1352	1355	1357	1361	1363	1360	1350	1342	1350	1363	1367	1356	1342	1346	1356	1365	1369	1367	1365	1361	1353	1345	1331	1323	1325	1331	1332	1346	1358	1353	1339	1330	1336	1333	1341	1361	1373	1362	1353	1345	1348	1353	1355	1354	1345	1339	1334	1337	1349	1356	1350	1349	1340	1340	1345	1338	1322	1313	1309	1309	1312	1317	1327	1334	1345	1362	1363	1352	1352	1354	1358	1363	1362	1356	1345	1344	1358	1371	1382	1372	1375	1366	1365	1355	1345	1343	1347	1351	1359	1366	1372	1373	1356	1337	1329	1337	1349	1350	1332	1313	1321	1332	1350	1361	1364	1358	1347	1338	1332	1326	1327	1330	1334	1342	1349	1351	1352	1347	1339	1338	1345	1344	1331	1322	1327	1340	1357	1362	1352	1353	1366	1373	1374	1372	1371	1361	1358	1353	1358	1357	1355	1358	1365	1382	1386	1373	1390	1373	1376	1387	1373	1339	1333	1328	1347	1349	1351	1351	1349	1350	1360	1365	1351	1339	1332	1339	1346	1346	1343	1341	1336	1333	1341	1339	1338	1345	1350	1345	1341	1344	1352	1359	1359	1360	1359	1346	1345	1357	1361	1354	1360	1361	1364	1362	1366	1361	1345	1339	1336	1337	1348	1348	1353	1352	1341	1325	1326	1324	1334	1341	1341	1330	1336	1352	1367	1371	1365	1358	1349	1351	1346	1338	1325	1334	1337	1341	1340	1327	1324	1324	1334	1343	1345	1337	1335	1340	1349	1354	1350	1338	1334	1340	1346	1346	1348	1346	1344	1350	1331	1325	1317	1315	1326	1342	1357	1363	1359	1342	1331	1325	1327	1335	1348	1360	1374	1367	1356	1354	1347	1341	1339	1333	1333	1333	1335	1335	1327	1319	1316	1315	1355	1347	1336	1317	1310	1312	1319	1325	1325	1328	1333	1337	1343	1335	1319	1318	1326	1332	1349	1350	1350	1350	1345	1342	1350	1357	1363	1365	1348	1352	0	0	0	0	0	0	0	0	0	0	0	0	0	0	0	0	0	0	0	0	0	0	0	0	0	0	1528	1503	1485	1490	1495	1483	1468	1443	1440	1442	1434	1420	1401	1390	1395	1414	1424	1425	1400	1396	1409	1427	1429	1419	1413	1410	1408	1417	1413	1414	1409	1398	1392	1412	1436	1448	1431	1440	0	0	0	0	0	0	0	0	0	0	0	1432	1435	1426	1424	1431	1450	1474	1494	1492	1477	1438	1415	1432	1419	1393	1388	1391	1385	1402	1387	1389	1389	1386	1383	1386	1389	1393	1397	1394	1384	1371	1366	1367	1367	1364	1366	1366	1353	1356	1356	1360	0	0	0	0	0	0	0
0	0	0	1350	1363	1364	1353	1353	1355	1376	1395	1394	1387	1387	1387	1378	1366	1359	1360	1367	1367	1367	1377	1387	1393	1386	1377	1380	1386	1386	1392	1393	1395	1391	1396	1402	1401	1397	1397	1385	1375	1374	1381	1382	1384	1384	1382	1389	1395	1399	1399	1399	1405	1396	1381	1420	1438	1438	1437	1443	1451	1440	1420	1419	1420	1417	1414	1420	1418	1406	1406	1404	1408	1414	1413	1407	1406	1408	1421	1429	1423	1427	1435	1445	1443	1439	1433	1433	1428	1424	1423	1424	1435	1428	1412	1395	1392	1403	1422	1430	1432	1423	1409	1397	1383	1378	1378	1358	1363	1379	1390	1396	1393	1391	1378	1372	1369	1363	1361	1368	1380	1393	1395	1387	1377	1367	1365	1370	1369	1375	1382	1377	1369	1370	1375	1379	1381	1381	1381	1384	1372	1366	1360	1360	1363	1366	1362	1370	1375	1380	1377	1401	0	0	0	0	0	0	0	0	0	0	0	0	0	0	0	0	0	0	0	0	0	0	0	0	0	0	0	0	0	0	0	1653	1675	1674	1668	1649	1645	1639	1623	0	0	0	1431	1370	1371	1375	1387	1381	1358	1341	1330	1327	1328	1339	1341	1361	1368	1377	1367	1352	1344	1341	1345	1347	1340	1331	1319	1316	1323	1340	1358	1357	1363	1367	1375	1378	1366	1354	1340	1334	1328	1338	1342	1350	1355	1347	1348	1354	1362	1366	1377	1384	1375	1363	1359	1354	1357	1355	1354	1352	1352	1351	1350	1350	1354	1354	1356	1359	1362	1360	1354	1349	1339	1336	1341	1355	1361	1356	1351	1348	1346	1344	1343	1345	1336	1336	1333	1322	1322	1334	1344	1357	1366	1357	1351	1349	1353	1360	1353	1337	1326	1332	1340	1348	1361	1370	1371	1357	1342	1339	1346	1354	1355	1337	1323	1332	1343	1362	1379	1380	1370	1347	1336	1326	1315	1317	1314	1326	1341	1358	1354	1343	1331	1322	1321	1322	1324	1326	1332	1334	1339	1343	1341	1344	1356	1375	1374	1375	1366	1365	1362	1362	1359	1360	1358	1361	1359	1365	1376	1395	1392	0	0	1365	1378	1377	1333	1326	1334	1349	1353	1353	1352	1347	1343	1349	1355	1352	1338	1330	1334	1336	1347	1348	1342	1334	1328	1326	1324	1332	1342	1343	1343	1341	1346	1350	1349	1352	1353	1348	1342	1342	1352	1360	1359	1349	1354	1351	1353	1356	1355	1347	1344	1339	1342	1344	1345	1350	1353	1337	1325	1323	1321	1330	1336	1331	1324	1324	1346	1363	1368	1365	1353	1349	1347	1348	1342	1335	1333	1335	1339	1334	1328	1324	1327	1334	1344	1344	1344	1343	1350	1351	1354	1347	1342	1339	1343	1349	1350	1355	1357	1359	1356	1331	1321	1314	1313	1316	1332	1341	1353	1349	1338	1332	1329	1336	1342	1349	1357	1366	1369	1364	1357	1353	1351	1345	1344	1341	1333	1328	1329	1326	1318	1313	1322	1347	1349	1341	1327	1319	1324	1328	1332	1331	1329	1335	1340	1344	1336	1319	1322	1331	1340	1342	1341	1345	1344	1347	1346	1343	1360	1368	1360	1350	1367	0	0	0	0	0	0	0	0	0	0	0	0	0	0	0	0	0	0	0	0	0	0	0	0	0	0	1521	1501	1482	1496	1497	1477	1461	1447	1438	1437	1437	1442	1439	1425	1418	1429	1432	1428	1413	1406	1411	1430	1443	1442	1428	1417	1414	1414	1408	1408	1411	1414	1417	1421	1428	1450	1451	1455	1458	0	0	0	0	0	0	0	0	0	0	1464	1456	1439	1430	1426	1453	1492	1523	1535	1511	1462	1427	1428	1413	1396	1401	1394	1394	1381	1374	1378	1378	1382	1379	1378	1382	1381	1384	1380	1366	1357	1360	1360	1360	1348	1341	1341	1339	1342	1354	1363	0	0	0	0	0	0	0
0	0	0	1394	1391	1372	1350	1350	1351	1376	1391	1397	1396	1396	1398	1395	1383	1387	1376	1369	1369	1380	1393	1400	1403	1398	1396	1388	1388	1388	1388	1386	1380	1384	1397	1402	1406	1393	1393	1381	1373	1374	1381	1390	1397	1387	1381	1392	1399	1399	1399	1398	1402	1397	1389	1412	1426	1431	1431	1428	1428	1420	1415	1418	1428	1430	1425	1415	1409	1398	1398	1391	1396	1407	1411	1416	1421	1419	1427	1425	1421	1424	1429	1436	1436	1434	1434	1431	1432	1424	1422	1428	1436	1433	1421	1405	1396	1407	1422	1430	1426	1405	1390	1380	1376	1374	1373	1356	1361	1372	1384	1393	1393	1385	1366	1357	1350	1345	1346	1361	1383	1391	1395	1385	1371	1365	1363	1371	1374	1374	1379	1378	1369	1369	1375	1383	1382	1374	1374	1365	1357	1358	1357	1358	1361	1365	1363	1365	1371	1374	1359	1381	0	0	0	0	0	0	0	0	0	0	0	0	0	0	0	0	0	0	0	0	0	0	0	0	0	0	0	0	0	0	1595	1646	1663	1666	1654	1654	1658	1653	1639	0	0	0	0	1384	1373	1378	1387	1374	1357	1342	1334	1330	1332	1344	1352	1363	1375	1380	1371	1357	1347	1343	1351	1355	1350	1335	1323	1318	1318	1341	1349	1357	1363	1373	1374	1384	1372	1354	1338	1333	1331	1342	1351	1355	1351	1340	1329	1338	1350	1361	1378	1377	1366	1352	1350	1340	1345	1353	1356	1353	1349	1353	1352	1352	1356	1354	1355	1355	1361	1360	1354	1350	1346	1345	1354	1367	1367	1360	1351	1347	1343	1343	1346	1349	1348	1338	1326	1317	1312	1322	1340	1348	1351	1346	1349	1354	1358	1360	1353	1341	1330	1331	1337	1345	1358	1367	1365	1350	1343	1340	1349	1355	1343	1329	1319	1326	1339	1356	1370	1382	1377	1354	1346	1334	1325	1325	1336	1343	1343	1348	1343	1329	1322	1315	1318	1322	1326	1332	1337	1338	1339	1338	1335	1342	1356	1369	1372	1369	1366	1366	1362	1361	1364	1359	1357	1351	1362	1365	1376	1382	1398	0	1391	1369	1396	1379	1349	1332	1342	1346	1354	1351	1352	1353	1361	1367	1353	1341	1335	1326	1325	1341	1348	1348	1338	1333	1326	1325	1323	1330	1337	1338	1340	1341	1351	1351	1351	1346	1342	1340	1340	1343	1347	1355	1357	1352	1348	1348	1354	1354	1351	1351	1346	1344	1340	1347	1352	1355	1353	1337	1332	1326	1333	1333	1336	1331	1315	1323	1333	1361	1366	1357	1347	1342	1339	1342	1337	1336	1336	1337	1338	1337	1328	1330	1331	1338	1341	1348	1348	1352	1345	1349	1350	1344	1344	1345	1344	1343	1350	1356	1359	1362	1361	1337	1328	1321	1324	1323	1323	1335	1343	1337	1334	1335	1337	1341	1348	1356	1356	1359	1360	1358	1355	1351	1353	1355	1358	1350	1331	1321	1322	1323	1320	1323	1328	1355	1357	1349	1338	1330	1332	1340	1343	1339	1335	1339	1343	1345	1343	1332	1328	1333	1338	1343	1339	1339	1340	1344	1344	1339	1356	1359	1356	1348	1380	0	0	0	0	0	0	0	0	0	0	0	0	0	0	0	0	0	0	0	0	0	0	0	0	0	0	1522	1508	1490	1493	1494	1485	1464	1446	1442	1433	1433	1438	1436	1425	1421	1427	1436	1435	1426	1414	1413	1419	1440	1445	1440	1432	1407	1404	1394	1405	1421	1433	1429	1425	1425	1417	1446	1477	1478	0	0	0	0	0	0	0	0	0	0	1469	1470	1453	1427	1411	1421	1457	1520	1522	1511	1471	1438	1410	1399	1399	1398	1398	1381	1383	1367	1365	1365	1372	1375	1373	1370	1369	1371	1365	1351	1341	1343	1350	1346	1336	1322	1322	1320	1333	1344	1357	0	0	0	0	0	0	0
0	0	0	1396	1394	1381	1355	1355	1353	1368	1381	1390	1392	1392	1397	1402	1401	1400	1386	1380	1380	1387	1401	1414	1413	1407	1400	1405	1407	1407	1400	1383	1376	1373	1388	1393	1400	1387	1387	1380	1375	1376	1389	1406	1408	1395	1383	1396	1405	1411	1411	1402	1401	1397	1376	1409	1426	1434	1433	1426	1423	1412	1416	1418	1433	1436	1436	1419	1410	1399	1399	1392	1396	1410	1421	1424	1427	1418	1415	1418	1412	1418	1421	1429	1431	1435	1435	1432	1428	1420	1421	1433	1443	1438	1432	1413	1413	1417	1426	1427	1418	1401	1370	1360	1357	1367	1371	1356	1355	1370	1382	1388	1391	1376	1367	1357	1347	1343	1343	1362	1378	1390	1387	1375	1368	1368	1367	1368	1369	1374	1381	1377	1370	1368	1376	1381	1380	1369	1366	1362	1357	1362	1357	1357	1361	1369	1360	1369	1377	1369	1349	1372	0	0	0	0	0	0	0	0	0	0	0	0	0	0	0	0	0	0	0	0	0	0	0	0	0	0	0	0	0	0	1590	1646	1655	1655	1655	1660	1669	1669	1680	0	0	0	0	1429	1399	1390	1396	1380	1362	1342	1330	1333	1338	1350	1361	1369	1364	1360	1365	1349	1343	1345	1356	1364	1358	1348	1334	1327	1326	1337	1341	1349	1360	1374	1377	1383	1371	1353	1336	1330	1335	1341	1352	1357	1353	1340	1334	1339	1353	1368	1383	1372	1359	1350	1343	1335	1334	1347	1357	1354	1350	1348	1350	1348	1348	1350	1347	1350	1350	1351	1351	1350	1346	1349	1360	1364	1365	1365	1355	1345	1344	1349	1351	1352	1349	1342	1326	1317	1314	1321	1334	1346	1346	1344	1352	1355	1365	1364	1358	1348	1342	1346	1345	1343	1352	1360	1357	1356	1350	1351	1362	1359	1343	1324	1316	1326	1331	1348	1361	1372	1371	1358	1351	1345	1341	1346	1349	1351	1344	1339	1331	1321	1312	1316	1317	1324	1332	1335	1345	1344	1338	1335	1338	1347	1356	1361	1364	1364	1363	1362	1361	1357	1364	1361	1353	1345	1356	1363	1371	1378	1396	1361	1359	1367	1400	1372	1348	1349	1352	1353	1352	1353	1353	1356	1362	1360	1349	1337	1341	1341	1353	1343	1348	1349	1341	1336	1332	1330	1329	1328	1332	1335	1340	1346	1352	1353	1352	1348	1342	1336	1330	1336	1337	1332	1338	1350	1354	1354	1355	1353	1349	1348	1345	1343	1344	1345	1350	1352	1347	1346	1337	1336	1344	1349	1348	1344	1322	1325	1333	1351	1366	1356	1343	1336	1334	1333	1333	1337	1342	1344	1342	1341	1332	1340	1338	1343	1343	1344	1348	1346	1346	1338	1344	1344	1349	1351	1360	1352	1347	1350	1354	1360	1361	1350	1344	1335	1332	1337	1340	1336	1335	1333	1334	1345	1336	1347	1349	1352	1351	1351	1348	1346	1346	1344	1356	1362	1363	1350	1331	1319	1317	1323	1329	1334	1340	1366	1372	1362	1349	1342	1343	1346	1347	1345	1345	1344	1349	1349	1351	1342	1338	1340	1342	1348	1342	1337	1339	1347	1349	1343	1341	1350	1347	1342	1399	0	0	0	0	0	0	0	0	0	0	0	0	0	0	0	0	0	0	0	0	0	0	0	0	0	0	1527	1507	1487	1482	1485	1464	1441	1442	1449	1433	1437	1431	1428	1427	1424	1430	1436	1441	1438	1423	1416	1423	1424	1425	1423	1422	1417	1421	1426	1436	1442	1443	1432	1426	1425	1420	1437	1484	0	0	0	0	0	0	0	1450	1443	1447	1450	1460	1469	1456	1423	1388	1392	1422	1460	1485	1472	1441	1414	1401	1389	1371	1385	1378	1379	1370	1368	1365	1365	1371	1371	1367	1367	1366	1368	1354	1339	1328	1325	1333	1331	1320	1314	1314	1315	1331	1337	1348	0	0	0	0	0	0	0
0	0	0	1386	1387	1381	1366	1366	1365	1370	1375	1375	1378	1378	1392	1402	1403	1400	1389	1376	1376	1385	1402	1411	1418	1415	1419	1423	1423	1427	1420	1392	1382	1375	1385	1386	1387	1381	1381	1382	1384	1388	1404	1412	1405	1389	1391	1395	1412	1414	1414	1410	1404	1399	1384	1407	1428	1433	1429	1431	1419	1407	1411	1419	1430	1432	1437	1428	1421	1417	1417	1417	1418	1424	1426	1426	1420	1414	1406	1402	1399	1406	1416	1428	1436	1438	1438	1436	1429	1421	1416	1436	1449	1452	1438	1426	1424	1434	1434	1430	1426	1402	1370	1363	1354	1357	1359	1354	1353	1366	1372	1384	1390	1387	1377	1369	1362	1355	1349	1358	1369	1370	1367	1360	1360	1373	1372	1370	1367	1374	1383	1381	1374	1377	1374	1372	1369	1363	1360	1362	1369	1372	1368	1367	1371	1373	1374	1376	1383	1361	1339	1353	0	0	0	0	0	0	0	0	0	0	0	0	0	0	0	0	0	0	0	0	0	0	0	0	0	0	0	0	0	0	1611	1648	1654	1654	1649	1660	1666	1679	1696	0	0	0	0	1475	1424	1392	1387	1377	1362	1334	1334	1336	1336	1349	1360	1362	1358	1349	1336	1337	1338	1341	1350	1362	1369	1357	1350	1343	1341	1333	1335	1341	1353	1365	1374	1373	1362	1349	1332	1331	1336	1349	1354	1345	1338	1342	1341	1349	1365	1377	1384	1376	1360	1356	1349	1346	1338	1362	1359	1352	1347	1348	1348	1347	1340	1342	1345	1347	1345	1347	1350	1350	1346	1344	1345	1355	1363	1363	1356	1350	1348	1349	1352	1357	1361	1353	1336	1326	1321	1333	1342	1345	1347	1348	1353	1364	1367	1363	1356	1354	1351	1352	1350	1345	1344	1354	1361	1364	1368	1369	1372	1367	1348	1331	1322	1331	1338	1346	1358	1362	1363	1369	1363	1364	1361	1362	1360	1357	1350	1343	1327	1321	1311	1322	1319	1330	1339	1344	1357	1355	1347	1339	1338	1354	1348	1354	1354	1358	1362	1359	1350	1350	1360	1357	1344	1328	1331	1353	1369	1375	1398	1358	1353	1352	1381	1359	1342	1348	1349	1349	1348	1351	1359	1360	1355	1347	1337	1332	1341	1347	1354	1354	1351	1347	1345	1341	1337	1333	1331	1329	1340	1337	1344	1353	1355	1353	1352	1347	1344	1336	1332	1333	1332	1326	1331	1340	1353	1358	1359	1353	1344	1346	1348	1348	1352	1350	1349	1350	1351	1350	1350	1347	1351	1363	1363	1362	1346	1335	1344	1356	1358	1354	1342	1340	1335	1335	1329	1336	1341	1345	1349	1342	1338	1345	1350	1349	1341	1336	1331	1333	1341	1341	1340	1345	1354	1361	1363	1352	1344	1343	1350	1353	1354	1352	1344	1337	1341	1341	1341	1337	1340	1344	1343	1346	1344	1351	1357	1356	1353	1351	1345	1347	1345	1343	1351	1359	1358	1341	1329	1323	1319	1326	1330	1339	1347	1366	1372	1365	1348	1344	1345	1350	1348	1352	1354	1355	1358	1358	1353	1344	1339	1340	1345	1351	1346	1343	1340	1346	1345	1341	1336	1338	1341	1339	1404	0	0	0	0	0	0	0	0	0	0	0	0	0	0	0	0	0	0	0	0	0	0	0	0	0	0	1517	1509	1489	1479	1477	1432	1428	1423	1450	1439	1442	1429	1423	1421	1422	1428	1438	1444	1441	1433	1426	1424	1424	1423	1422	1419	1418	1417	1430	1439	1446	1443	1429	1422	1424	1422	1436	1489	0	0	0	0	0	0	1476	1461	1452	1451	1453	1463	1462	1449	1417	1384	1385	1410	1438	1450	1428	1406	1385	1383	1374	1361	1355	1363	1380	1374	1370	1370	1370	1374	1372	1371	1366	1371	1368	1356	1340	1323	1335	1337	1332	1323	1322	1322	1327	1332	1336	1351	0	0	0	0	0	0	0
0	0	0	1373	1376	1378	1375	1375	1372	1367	1368	1367	1367	1367	1380	1397	1402	1392	1387	1388	1388	1394	1400	1405	1414	1422	1426	1435	1435	1438	1430	1409	1393	1388	1390	1385	1387	1389	1389	1393	1393	1400	1405	1408	1394	1393	1401	1407	1414	1416	1416	1418	1412	1416	1403	1407	1426	1426	1431	1431	1426	1417	1422	1427	1435	1434	1434	1430	1436	1440	1440	1437	1429	1420	1416	1408	1406	1408	1399	1400	1396	1403	1413	1426	1435	1442	1449	1444	1435	1428	1429	1445	1453	1450	1432	1431	1429	1438	1439	1436	1435	1418	1390	1378	1365	1365	1364	1352	1359	1373	1378	1385	1386	1386	1381	1376	1372	1370	1365	1364	1359	1352	1342	1345	1362	1372	1369	1369	1371	1370	1383	1391	1387	1385	1381	1374	1359	1355	1358	1366	1374	1377	1383	1379	1380	1386	1388	1392	1378	1354	1331	1358	0	0	0	0	0	0	0	0	0	0	0	0	0	0	0	0	0	0	0	0	0	0	0	0	0	0	0	0	0	0	1632	1651	1666	1660	1651	1640	1634	1667	1693	0	0	0	0	1497	1450	1390	1384	1369	1345	1335	1334	1333	1337	1355	1361	1365	1354	1342	1332	1333	1335	1334	1343	1353	1360	1363	1360	1358	1358	1344	1341	1340	1345	1357	1362	1362	1357	1346	1334	1332	1340	1344	1340	1333	1333	1343	1349	1363	1376	1389	1391	1376	1367	1364	1360	1358	1357	1356	1363	1353	1346	1344	1344	1338	1339	1343	1350	1351	1352	1353	1352	1356	1347	1338	1339	1348	1355	1357	1356	1355	1356	1358	1357	1361	1367	1358	1350	1341	1338	1349	1351	1350	1354	1354	1361	1370	1366	1352	1345	1344	1347	1350	1353	1346	1347	1355	1370	1379	1377	1373	1371	1369	1357	1340	1334	1335	1346	1352	1361	1366	1369	1374	1382	1385	1383	1373	1364	1361	1347	1344	1335	1325	1325	1328	1331	1337	1339	1349	1366	1371	1359	1350	1349	1353	1355	1350	1355	1361	1361	1359	1350	1350	1356	1357	1347	1329	1327	1340	1358	1374	1393	1366	1360	1346	1361	1347	1347	1344	1340	1345	1348	1359	1363	1365	1356	1350	1341	1338	1340	1344	1342	1349	1354	1344	1342	1341	1332	1331	1327	1329	1335	1339	1348	1354	1355	1351	1345	1344	1345	1340	1337	1336	1331	1331	1324	1337	1346	1350	1350	1347	1343	1346	1354	1358	1364	1365	1356	1352	1351	1350	1353	1353	1357	1361	1369	1365	1351	1343	1349	1360	1362	1355	1349	1342	1340	1338	1338	1340	1340	1345	1349	1351	1344	1349	1350	1350	1341	1333	1332	1336	1346	1347	1343	1346	1358	1368	1368	1358	1349	1343	1345	1349	1352	1350	1346	1339	1341	1339	1341	1337	1341	1350	1358	1365	1361	1361	1361	1365	1360	1358	1355	1352	1344	1346	1351	1354	1352	1342	1335	1328	1328	1328	1335	1338	1343	1358	1361	1348	1331	1331	1340	1346	1355	1360	1360	1363	1364	1365	1355	1339	1330	1334	1341	1348	1351	1347	1348	1350	1346	1339	1333	1337	1345	1348	1426	0	0	0	0	0	0	0	0	0	0	0	0	0	0	0	0	0	0	0	0	0	0	0	0	0	0	1497	1506	1488	1482	1464	1422	1416	1417	1450	1444	1444	1429	1420	1417	1419	1431	1442	1451	1443	1437	1430	1427	1432	1427	1423	1424	1421	1421	1428	1436	1443	1436	1417	1420	1421	1421	1431	1475	1489	0	0	0	0	1503	1481	1474	1466	1465	1465	1463	1462	1425	1410	1390	1391	1402	1425	1420	1402	1382	1372	1369	1364	1351	1356	1363	1380	1378	1376	1377	1377	1382	1378	1374	1379	1383	1375	1363	1348	1350	1348	1341	1335	1325	1331	1331	1337	1346	1354	1350	0	0	0	0	0	0	0
0	0	0	1373	1369	1377	1387	1387	1387	1382	1374	1372	1375	1375	1380	1389	1385	1383	1381	1389	1389	1397	1402	1407	1412	1424	1430	1440	1440	1436	1420	1411	1404	1402	1401	1393	1388	1390	1390	1390	1391	1393	1392	1397	1389	1395	1403	1413	1416	1418	1418	1425	1423	1430	1426	1428	1423	1424	1427	1433	1426	1427	1429	1434	1432	1429	1424	1429	1443	1452	1452	1444	1424	1411	1392	1389	1396	1400	1407	1412	1409	1413	1418	1425	1439	1449	1452	1451	1439	1439	1444	1452	1457	1450	1431	1421	1427	1430	1437	1441	1441	1431	1422	1410	1388	1380	1378	1363	1361	1374	1382	1378	1377	1376	1377	1375	1384	1389	1383	1372	1357	1341	1334	1337	1349	1364	1368	1365	1367	1372	1381	1395	1399	1397	1388	1374	1358	1354	1360	1369	1369	1373	1387	1391	1395	1396	1399	1396	1374	1358	1347	0	0	0	0	0	0	0	0	0	0	0	0	0	0	0	0	0	0	0	0	0	0	0	0	0	0	0	0	0	0	0	1653	1658	1669	1665	1654	1621	1625	1629	1693	1643	0	0	0	1472	1425	1382	1372	1366	1346	1336	1331	1329	1333	1351	1364	1367	1372	1373	1368	1349	1340	1341	1345	1350	1355	1361	1361	1361	1366	1355	1350	1345	1343	1350	1356	1358	1359	1353	1344	1340	1335	1331	1327	1323	1336	1346	1354	1367	1382	1395	1388	1382	1376	1374	1368	1360	1358	1359	1361	1353	1346	1341	1334	1332	1335	1343	1357	1368	1362	1363	1364	1363	1357	1346	1346	1351	1354	1353	1352	1355	1364	1361	1363	1365	1366	1365	1358	1351	1352	1358	1363	1363	1361	1367	1369	1370	1362	1344	1339	1329	1333	1346	1344	1344	1346	1359	1372	1379	1371	1361	1361	1361	1364	1353	1348	1346	1349	1357	1366	1372	1372	1378	1386	1393	1386	1377	1369	1363	1352	1349	1345	1338	1337	1339	1345	1352	1350	1371	1381	1377	1366	1353	1350	1354	1352	1358	1362	1368	1367	1366	1358	1355	1359	1357	1347	1335	1335	1347	1356	1360	1387	1386	1383	1369	1359	1355	1346	1344	1344	1347	1359	1365	1369	1369	1366	1360	1353	1348	1345	1342	1343	1357	1346	1340	1336	1343	1340	1339	1338	1337	1337	1338	1339	1341	1342	1346	1344	1344	1345	1341	1340	1341	1342	1336	1333	1331	1337	1341	1348	1351	1348	1352	1356	1370	1378	1376	1371	1357	1355	1349	1351	1355	1358	1357	1358	1350	1343	1342	1352	1358	1363	1360	1353	1348	1347	1340	1343	1345	1333	1334	1344	1355	1346	1344	1348	1351	1348	1344	1344	1355	1354	1356	1350	1353	1363	1371	1367	1357	1352	1351	1350	1344	1348	1345	1343	1339	1338	1334	1340	1339	1342	1350	1360	1367	1366	1362	1364	1362	1364	1363	1360	1356	1350	1348	1355	1357	1354	1352	1341	1338	1336	1335	1339	1339	1339	1346	1347	1340	1323	1315	1322	1342	1355	1360	1360	1364	1363	1362	1359	1338	1328	1327	1333	1339	1346	1350	1356	1356	1353	1345	1339	1352	1360	1360	1411	0	0	0	0	0	0	0	0	0	0	0	0	0	0	0	0	0	0	0	0	0	0	0	0	0	0	1476	1502	1491	1486	1479	1428	1418	1420	1448	1438	1435	1427	1420	1412	1420	1435	1447	1451	1443	1432	1424	1428	1433	1437	1436	1430	1421	1423	1424	1431	1436	1413	1410	1421	1425	1422	1426	1463	1477	0	0	0	0	1507	1493	1475	1467	1470	1476	1474	1463	1429	1407	1403	1400	1401	1403	1399	1395	1384	1380	1365	1360	1375	1341	1363	1374	1377	1375	1385	1385	1386	1379	1383	1399	1395	1386	1380	1364	1354	1361	1351	1341	1339	1342	1342	1351	1360	1360	1355	0	0	0	0	0	0	0
0	0	0	1381	1380	1397	1406	1406	1400	1399	1389	1389	1385	1385	1388	1377	1380	1370	1377	1396	1396	1405	1409	1413	1412	1422	1428	1426	1426	1424	1411	1404	1413	1426	1414	1407	1392	1386	1386	1384	1385	1389	1390	1387	1385	1395	1405	1407	1404	1412	1412	1425	1432	1440	1437	1440	1435	1430	1429	1432	1433	1431	1442	1447	1436	1424	1412	1418	1430	1440	1440	1433	1417	1397	1383	1379	1398	1408	1415	1424	1426	1424	1424	1425	1432	1446	1457	1453	1437	1433	1436	1447	1449	1441	1428	1417	1420	1424	1430	1441	1447	1445	1434	1423	1405	1395	1395	1378	1368	1366	1374	1373	1373	1369	1368	1372	1385	1396	1394	1377	1362	1348	1340	1341	1347	1354	1356	1360	1362	1368	1379	1403	1403	1399	1387	1374	1361	1359	1363	1373	1372	1371	1381	1385	1391	1393	1398	1385	1383	1365	1361	0	0	0	0	0	0	0	0	0	0	0	0	0	0	0	0	0	0	0	0	0	0	0	0	0	0	0	0	0	0	0	1649	1654	1661	1665	1658	1639	1621	1616	1651	1670	0	0	0	1433	1382	1370	1369	1370	1358	1340	1329	1326	1326	1348	1350	1363	1380	1381	1379	1373	1363	1359	1357	1356	1355	1342	1353	1356	1361	1364	1357	1339	1339	1347	1354	1361	1365	1360	1357	1348	1339	1330	1330	1332	1339	1344	1357	1372	1384	1393	1393	1387	1381	1376	1369	1357	1355	1359	1362	1357	1348	1335	1328	1327	1330	1342	1355	1363	1368	1375	1375	1374	1369	1364	1357	1359	1350	1343	1341	1346	1358	1360	1361	1366	1367	1362	1358	1363	1363	1368	1370	1374	1372	1374	1374	1368	1355	1346	1336	1334	1339	1343	1343	1343	1343	1357	1363	1365	1355	1346	1341	1359	1368	1364	1358	1358	1358	1364	1366	1374	1375	1378	1382	1388	1378	1367	1361	1357	1354	1350	1349	1347	1346	1348	1360	1368	1375	1378	1378	1371	1365	1353	1341	1353	1361	1363	1368	1374	1377	1369	1366	1361	1359	1353	1347	1342	1345	1355	1354	1358	1366	1385	1382	1377	1364	1352	1348	1349	1354	1355	1363	1366	1367	1368	1370	1368	1362	1352	1347	1341	1348	1346	1340	1331	1333	1341	1343	1349	1352	1352	1353	1345	1338	1337	1335	1338	1342	1346	1347	1340	1346	1351	1352	1354	1344	1340	1340	1347	1354	1356	1352	1360	1364	1377	1383	1381	1377	1364	1355	1350	1349	1354	1345	1350	1342	1336	1331	1334	1347	1352	1359	1358	1357	1352	1347	1349	1349	1348	1338	1334	1347	1352	1348	1347	1349	1354	1352	1349	1349	1354	1357	1354	1356	1356	1368	1369	1362	1353	1346	1351	1350	1344	1348	1344	1346	1339	1337	1337	1338	1339	1340	1341	1352	1363	1361	1360	1363	1366	1363	1362	1358	1349	1351	1346	1354	1358	1361	1360	1357	1353	1355	1349	1342	1340	1338	1348	1346	1340	1334	1319	1330	1340	1355	1365	1361	1353	1353	1354	1361	1344	1340	1334	1332	1337	1339	1347	1357	1358	1355	1350	1353	1372	1376	1375	1382	0	0	0	0	0	0	0	0	0	0	0	0	0	0	0	0	0	0	0	0	0	0	0	0	0	0	1455	1497	1494	1507	1505	1442	1428	1424	1436	1422	1420	1414	1408	1405	1411	1435	1445	1446	1440	1428	1422	1421	1425	1430	1433	1428	1426	1427	1427	1433	1436	1417	1409	1413	1420	1422	1423	1453	1480	0	0	0	0	0	1499	1493	1470	1472	1478	1475	1463	1441	1418	1407	1400	1387	1378	1390	1386	1392	1400	1381	1378	1380	1373	1379	1378	1378	1366	1377	1377	1378	1372	1381	1392	1390	1380	1372	1364	1364	1362	1365	1357	1349	1348	1348	1359	1366	1362	1349	0	0	0	0	0	0	0
0	0	0	1387	1390	1404	1410	1410	1406	1406	1408	1399	1396	1396	1402	1392	1376	1370	1378	1393	1393	1408	1408	1410	1410	1407	1413	1422	1422	1417	1406	1412	1418	1430	1415	1406	1399	1391	1391	1391	1391	1391	1395	1394	1390	1398	1403	1401	1403	1413	1413	1417	1425	1437	1442	1451	1443	1441	1430	1429	1431	1437	1437	1440	1448	1423	1406	1409	1414	1422	1422	1422	1415	1395	1395	1403	1416	1418	1418	1422	1428	1430	1427	1423	1426	1442	1455	1450	1439	1427	1429	1436	1443	1435	1427	1419	1419	1420	1426	1437	1444	1443	1424	1410	1395	1392	1398	1387	1383	1382	1383	1378	1371	1363	1360	1370	1383	1392	1391	1382	1370	1355	1349	1348	1348	1352	1355	1356	1356	1367	1377	1395	1395	1394	1385	1375	1364	1364	1370	1375	1376	1376	1378	1384	1383	1383	1381	1373	1392	1391	1377	0	0	0	0	0	0	0	0	0	0	0	0	0	0	0	0	0	0	0	0	0	0	0	0	0	0	0	0	0	0	0	1638	1647	1651	1657	1655	1654	1638	1639	1671	1647	1607	0	0	1406	1373	1366	1373	1378	1364	1342	1329	1321	1325	1343	1356	1364	1371	1377	1380	1384	1385	1381	1357	1361	1351	1340	1346	1351	1350	1352	1355	1355	1355	1360	1365	1367	1367	1366	1361	1354	1342	1335	1334	1344	1351	1358	1365	1379	1393	1395	1392	1390	1386	1380	1370	1354	1350	1355	1362	1360	1348	1336	1327	1325	1332	1332	1338	1352	1370	1379	1384	1381	1377	1376	1372	1370	1357	1340	1328	1331	1341	1356	1354	1355	1357	1359	1360	1364	1367	1370	1373	1376	1378	1374	1367	1363	1355	1348	1344	1340	1346	1351	1352	1343	1342	1349	1352	1352	1341	1334	1339	1357	1366	1365	1361	1357	1361	1360	1367	1369	1370	1375	1379	1376	1367	1360	1360	1363	1365	1363	1361	1351	1353	1353	1364	1377	1379	1370	1357	1362	1363	1350	1345	1342	1361	1365	1372	1374	1377	1376	1372	1368	1359	1349	1345	1345	1351	1358	1359	1356	1355	1372	1366	1360	1360	1343	1349	1355	1354	1357	1364	1363	1363	1362	1366	1369	1366	1360	1357	1355	1357	1355	1341	1336	1334	1348	1344	1346	1352	1359	1355	1355	1347	1344	1340	1340	1342	1344	1349	1351	1361	1364	1371	1369	1361	1354	1356	1363	1375	1371	1361	1366	1365	1370	1379	1378	1371	1363	1349	1345	1345	1343	1342	1336	1328	1327	1323	1327	1337	1344	1346	1353	1348	1346	1341	1343	1344	1339	1339	1340	1339	1345	1354	1358	1355	1354	1354	1346	1345	1345	1344	1349	1356	1361	1365	1365	1355	1344	1342	1345	1350	1346	1349	1353	1347	1344	1340	1339	1341	1341	1343	1343	1348	1356	1359	1361	1364	1366	1364	1359	1351	1349	1347	1344	1343	1349	1359	1358	1366	1373	1369	1365	1356	1345	1345	1364	1362	1360	1348	1341	1340	1348	1359	1364	1360	1347	1351	1353	1368	1355	1349	1340	1339	1334	1333	1341	1348	1355	1356	1359	1366	1372	1383	1384	1360	0	0	0	0	0	0	0	0	0	0	0	0	0	0	0	0	0	0	0	0	0	0	0	0	0	0	0	1490	1491	1501	1508	1460	1440	1424	1422	1412	1412	1408	1410	1412	1412	1429	1440	1441	1431	1423	1422	1424	1425	1423	1425	1429	1425	1430	1433	1438	1438	1429	1420	1415	1419	1422	1421	1456	1501	0	0	0	0	0	1521	1498	1484	1471	1477	1468	1459	1441	1427	1413	1407	1389	1375	1387	1390	1405	1413	1400	1390	1376	1388	1386	1396	1376	1365	1370	1370	1373	1381	1378	1381	1376	1378	1375	1369	1378	1382	1372	1371	1356	1353	1353	1358	1362	1362	1365	0	0	0	0	0	0	0
0	0	0	1391	1395	1403	1400	1400	1403	1403	1408	1404	1408	1408	1414	1412	1393	1381	1380	1393	1393	1400	1403	1394	1386	1385	1401	1409	1409	1399	1399	1411	1417	1424	1414	1408	1403	1404	1404	1403	1394	1395	1400	1402	1400	1401	1403	1404	1407	1415	1415	1420	1425	1436	1432	1438	1443	1437	1434	1441	1438	1432	1427	1434	1443	1431	1408	1395	1399	1406	1406	1417	1422	1418	1417	1425	1427	1422	1412	1414	1421	1422	1420	1414	1416	1433	1442	1441	1434	1429	1428	1430	1434	1420	1421	1422	1424	1425	1426	1428	1438	1427	1398	1385	1375	1377	1384	1392	1391	1393	1391	1384	1370	1357	1357	1368	1372	1374	1373	1372	1372	1372	1362	1355	1349	1347	1353	1360	1358	1364	1366	1380	1385	1386	1379	1371	1363	1365	1368	1372	1373	1380	1386	1382	1381	1379	1376	1373	1400	1406	1392	0	0	0	0	0	0	0	0	0	0	0	0	0	0	0	0	0	0	0	0	0	0	0	0	0	0	0	0	0	0	0	1627	1630	1640	1646	1656	1650	1642	1626	1646	1637	1585	0	0	1413	1389	1381	1383	1378	1366	1346	1333	1329	1329	1346	1358	1358	1361	1361	1370	1384	1395	1387	1359	1352	1344	1347	1346	1345	1351	1357	1354	1361	1369	1371	1371	1367	1367	1362	1361	1356	1346	1332	1335	1350	1365	1369	1376	1383	1394	1395	1386	1390	1386	1376	1366	1355	1356	1359	1359	1358	1349	1339	1333	1331	1329	1330	1334	1347	1363	1376	1385	1384	1379	1379	1375	1372	1360	1339	1325	1323	1329	1344	1344	1345	1350	1360	1373	1380	1376	1371	1370	1374	1375	1370	1361	1353	1349	1346	1344	1349	1358	1363	1362	1352	1348	1352	1345	1342	1336	1332	1337	1356	1363	1363	1357	1358	1361	1366	1362	1361	1364	1371	1367	1369	1362	1360	1366	1374	1383	1383	1376	1363	1354	1356	1368	1382	1382	1368	1362	1349	1355	1350	1344	1355	1366	1370	1370	1365	1370	1373	1370	1360	1351	1344	1344	1348	1355	1362	1365	1359	1350	1355	1350	1354	1341	1340	1346	1349	1362	1364	1362	1359	1361	1363	1367	1369	1370	1366	1365	1361	1365	1359	1351	1342	1342	1352	1358	1357	1361	1363	1361	1359	1351	1345	1345	1345	1346	1346	1349	1362	1379	1381	1389	1386	1378	1373	1375	1383	1387	1380	1371	1366	1360	1355	1355	1363	1361	1357	1347	1342	1326	1327	1326	1325	1325	1325	1323	1328	1333	1335	1337	1343	1343	1337	1332	1333	1335	1340	1338	1343	1340	1341	1356	1363	1358	1354	1351	1347	1341	1335	1334	1337	1350	1365	1366	1361	1355	1347	1340	1341	1348	1352	1354	1356	1354	1347	1339	1342	1341	1346	1349	1355	1351	1349	1355	1360	1367	1372	1369	1361	1351	1352	1343	1341	1340	1347	1361	1369	1380	1384	1381	1379	1367	1358	1360	1370	1381	1373	1361	1346	1340	1346	1355	1360	1353	1344	1354	1372	1384	1368	1356	1341	1338	1332	1330	1334	1341	1348	1354	1363	1370	1370	1374	1377	1353	0	0	0	0	0	0	0	0	0	0	0	0	0	0	0	0	0	0	0	0	0	0	0	0	0	0	0	1480	1469	1477	1470	1458	1444	1431	1416	1417	1416	1418	1420	1422	1427	1429	1433	1432	1421	1421	1423	1422	1419	1416	1421	1428	1432	1438	1439	1434	1433	1427	1424	1420	1421	1423	1431	1455	1513	0	0	0	0	0	0	1513	1491	1477	1461	1450	1446	1431	1423	1420	1409	1403	1390	1388	1403	1411	1407	1411	1395	1377	1385	1391	1395	1380	1376	1375	1375	1371	1375	1375	1380	1377	1378	1374	1386	1386	1392	1389	1381	1360	1360	1360	1361	1364	1367	1371	0	0	0	0	0	0	0
0	0	0	1398	1399	1401	1402	1402	1394	1405	1410	1423	1414	1414	1414	1414	1407	1392	1390	1396	1396	1398	1388	1380	1370	1378	1389	1390	1390	1390	1396	1402	1415	1415	1408	1403	1400	1402	1402	1405	1406	1403	1407	1408	1404	1405	1406	1409	1414	1416	1416	1418	1421	1430	1420	1419	1435	1430	1435	1434	1446	1429	1421	1423	1430	1427	1418	1399	1396	1410	1410	1426	1434	1427	1426	1431	1430	1417	1405	1409	1412	1416	1411	1408	1415	1423	1432	1429	1425	1428	1429	1424	1419	1421	1421	1430	1432	1426	1424	1418	1428	1408	1379	1358	1359	1363	1373	1389	1393	1395	1399	1389	1377	1367	1359	1360	1361	1358	1358	1363	1371	1375	1368	1359	1349	1346	1358	1365	1366	1360	1351	1364	1378	1381	1380	1374	1368	1361	1360	1365	1372	1382	1390	1390	1378	1374	1374	1394	1391	1408	1394	0	0	0	0	0	0	0	0	0	0	0	0	0	0	0	0	0	0	0	0	0	0	0	0	0	0	0	0	0	0	0	1618	1613	1621	1641	1647	1652	1644	1637	1624	1587	0	0	0	1418	1400	1388	1381	1375	1371	1357	1346	1344	1347	1365	1363	1353	1347	1348	1362	1379	1395	1393	1375	1358	1350	1354	1354	1356	1357	1365	1363	1367	1370	1372	1367	1365	1368	1366	1363	1356	1342	1334	1335	1353	1372	1380	1380	1380	1388	1390	1380	1383	1381	1374	1370	1360	1367	1365	1364	1357	1343	1341	1338	1334	1333	1336	1341	1357	1360	1369	1374	1379	1379	1375	1372	1368	1355	1341	1327	1322	1327	1337	1337	1334	1344	1362	1385	1399	1390	1378	1367	1368	1368	1365	1351	1339	1337	1341	1345	1355	1368	1376	1372	1362	1352	1351	1343	1341	1333	1333	1342	1356	1365	1370	1364	1360	1359	1364	1361	1358	1356	1362	1360	1357	1352	1354	1377	1387	1392	1396	1391	1378	1360	1364	1371	1375	1377	1360	1351	1354	1359	1357	1356	1359	1369	1369	1363	1359	1360	1362	1359	1350	1347	1344	1347	1352	1358	1366	1372	1368	1364	1355	1348	1347	1359	1344	1348	1349	1360	1364	1363	1360	1362	1362	1364	1368	1372	1370	1373	1367	1365	1364	1361	1360	1362	1365	1368	1359	1361	1363	1360	1359	1353	1347	1345	1348	1352	1358	1362	1374	1383	1387	1395	1397	1387	1382	1387	1388	1390	1384	1382	1371	1359	1348	1345	1357	1361	1362	1353	1340	1328	1311	1318	1322	1341	1347	1340	1342	1339	1340	1341	1343	1339	1333	1332	1327	1329	1331	1339	1338	1333	1334	1354	1358	1355	1350	1347	1343	1343	1337	1336	1335	1350	1364	1368	1359	1348	1343	1338	1341	1345	1359	1363	1358	1354	1350	1349	1345	1350	1356	1365	1360	1354	1351	1352	1363	1374	1382	1380	1371	1359	1352	1351	1352	1357	1366	1368	1369	1384	1392	1395	1391	1386	1378	1375	1380	1384	1381	1360	1349	1348	1349	1352	1353	1351	1354	1365	1384	1393	1380	1371	1353	1340	1335	1335	1343	1342	1346	1356	1364	1369	1368	1367	1369	1346	0	0	0	0	0	0	0	0	0	0	0	0	0	0	0	0	0	0	0	0	0	0	0	0	0	0	0	1474	1449	1449	1442	1441	1441	1428	1413	1435	1432	1432	1432	1430	1434	1431	1427	1426	1416	1416	1421	1424	1421	1423	1425	1434	1435	1443	1441	1435	1427	1420	1422	1420	1425	1434	1441	1455	1503	0	0	0	0	0	1531	1505	1489	1476	1453	1433	1421	1414	1413	1424	1422	1408	1403	1396	1398	1396	1397	1410	1404	1388	1385	1398	1395	1388	1395	1382	1382	1370	1369	1375	1378	1380	1375	1384	1383	1388	1387	1387	1374	1365	1363	1363	1365	1366	1368	1378	0	0	0	0	0	0	0
0	0	0	1402	1404	1407	1408	1408	1412	1418	1422	1426	1421	1421	1429	1429	1406	1404	1399	1398	1398	1398	1386	1365	1361	1369	1382	1397	1397	1396	1394	1399	1412	1416	1404	1398	1400	1401	1401	1402	1402	1401	1406	1407	1409	1402	1402	1407	1416	1416	1416	1417	1421	1421	1410	1403	1427	1416	1420	1426	1440	1446	1426	1411	1418	1424	1416	1407	1406	1405	1405	1424	1432	1430	1429	1427	1421	1411	1401	1402	1406	1411	1402	1401	1408	1416	1420	1421	1420	1423	1423	1420	1427	1433	1443	1454	1445	1434	1420	1426	1428	1404	1378	1363	1355	1368	1371	1385	1389	1393	1393	1387	1376	1373	1371	1367	1354	1344	1348	1361	1370	1376	1377	1365	1357	1352	1361	1373	1371	1365	1350	1353	1375	1382	1383	1382	1371	1358	1352	1357	1367	1378	1389	1390	1382	1372	1372	1396	1408	1406	1403	0	0	0	0	0	0	0	0	0	0	0	0	0	0	0	0	0	0	0	0	0	0	0	0	0	0	0	0	0	0	0	1623	1610	1594	1615	1628	1650	1644	1638	1590	0	0	0	0	1432	1388	1385	1382	1378	1367	1360	1357	1356	1361	1368	1362	1355	1347	1347	1357	1375	1390	1388	1372	1359	1354	1360	1364	1366	1374	1373	1367	1369	1367	1376	1380	1385	1383	1375	1370	1362	1347	1340	1341	1361	1372	1375	1373	1370	1370	1374	1374	1374	1374	1370	1369	1365	1369	1370	1363	1353	1346	1342	1342	1339	1339	1345	1355	1364	1358	1361	1367	1377	1373	1366	1361	1359	1348	1340	1332	1328	1338	1336	1331	1334	1361	1392	1404	1407	1394	1374	1369	1363	1369	1372	1367	1341	1330	1334	1344	1359	1373	1379	1370	1362	1356	1358	1354	1351	1362	1348	1352	1361	1369	1377	1378	1368	1366	1366	1362	1358	1353	1355	1355	1349	1348	1367	1380	1393	1395	1398	1403	1406	1405	1399	1389	1384	1373	1362	1352	1356	1357	1358	1358	1360	1366	1365	1354	1354	1354	1353	1346	1346	1349	1350	1354	1356	1363	1369	1374	1377	1376	1366	1368	1365	1379	1371	1373	1381	1392	1396	1392	1382	1373	1365	1361	1362	1370	1387	1400	1401	1384	1378	1372	1364	1364	1365	1370	1364	1360	1363	1358	1357	1343	1337	1344	1358	1371	1378	1379	1375	1374	1376	1376	1376	1376	1382	1387	1392	1391	1389	1388	1381	1375	1374	1368	1363	1362	1368	1362	1353	1338	1340	1358	1387	1398	1397	1396	1395	1399	1384	1372	1347	1338	1340	1341	1350	1357	1355	1344	1333	1326	1329	1361	1369	1364	1357	1360	1369	1373	1370	1360	1355	1360	1371	1376	1360	1348	1336	1335	1345	1362	1376	1376	1357	1347	1348	1350	1352	1359	1369	1372	1369	1357	1354	1358	1370	1389	1407	1407	1393	1367	1361	1366	1370	1374	1378	1377	1378	1382	1394	1404	1407	1402	1397	1386	1380	1380	1369	1371	1368	1364	1369	1365	1360	1357	1361	1376	1396	1405	1382	1378	1365	1360	1354	1356	1357	1358	1361	1365	1365	1364	1364	1368	1372	1372	1361	0	0	0	0	0	0	0	0	0	0	0	0	0	0	0	0	0	0	0	0	0	0	0	0	0	0	1479	1448	1440	1441	1433	1442	1434	1407	1433	1438	1441	1434	1433	1435	1439	1438	1428	1417	1418	1426	1429	1431	1425	1426	1425	1431	1443	1442	1432	1418	1412	1413	1417	1423	1434	1455	1465	1488	1480	0	1459	1468	1481	1507	1501	1496	1469	1442	1422	1406	1397	1392	1392	1407	1414	1409	1398	1396	1388	1396	1422	1433	1426	1392	1399	1407	1405	1404	1402	1402	1391	1384	1387	1387	1390	1389	1390	1389	1392	1381	1374	1378	1381	1381	1381	1373	1376	1380	1381	0	0	0	0	0	0	0
0	0	0	1414	0	0	0	0	1432	1433	1424	1428	1425	1425	1430	1429	1417	1404	1399	1400	1400	1394	1382	1363	1357	1368	1389	1410	1410	1423	1422	1402	1410	1419	1416	1407	1405	1400	1400	1398	1399	1401	1391	1396	1392	1395	1408	1423	1423	1421	1421	1415	1417	1409	1399	1397	1403	1404	1406	1416	1426	1430	1423	1406	1407	1404	1408	1412	1410	1410	1410	1421	1430	1431	1421	1419	1409	1404	1397	1401	1409	1417	1416	1407	1405	1403	1410	1411	1408	1406	1424	1452	1461	1460	1461	1454	1448	1441	1437	1448	1443	1420	1397	1379	1371	1372	1374	1378	1380	1376	1358	1361	1377	1383	1378	1370	1360	1355	1362	1366	1372	1381	1383	1377	1369	1367	1365	1369	1373	1367	1353	1360	1374	1381	1387	1394	1389	1369	1355	1353	1366	1378	1373	1373	1375	1384	1388	1402	1390	1422	1428	0	0	0	0	0	0	0	0	0	0	0	0	0	0	0	0	0	0	0	0	0	0	0	0	0	0	0	0	0	0	0	0	1611	1602	1610	1633	1650	0	0	0	0	0	0	0	1454	1386	1386	1385	1376	1366	1365	1359	1361	1363	1370	1369	1364	1356	1352	1360	1374	1387	1393	1385	1379	1377	1372	1372	1378	1388	1396	1385	1385	1392	1400	1400	1400	1404	1407	1397	1386	1370	1362	1362	1366	1370	1371	1367	1365	1366	1363	1372	1380	1379	1368	1367	1371	1383	1382	1369	1363	1362	1367	1362	1359	1372	1374	1367	1367	1361	1357	1364	1375	1375	1368	1353	1346	1347	1354	1363	1369	1375	1384	1379	1386	1394	1404	1414	1412	1406	1397	1383	1378	1380	1383	1392	1382	1364	1355	1360	1367	1374	1371	1364	1357	1361	1373	1379	1386	1395	1389	1372	1373	1377	1382	1385	1380	1377	1371	1363	1360	1353	1353	1355	1357	1363	1373	1380	1384	1388	1396	1410	1415	1420	1420	1406	1399	1380	1361	1358	1355	1355	1360	1359	1362	1363	1354	1347	1348	1351	1343	1342	1352	1357	1360	1361	1368	1370	1374	1378	1385	1387	1384	1380	1377	1375	1372	1376	1386	1395	1400	1395	1384	1375	1368	1361	1364	1369	1388	1399	1402	1386	1379	1375	1368	1366	1364	1371	1362	1354	1356	1349	1350	1344	1343	1352	1361	1373	1374	1372	1371	1372	1369	1373	1375	1377	1383	1390	1394	1392	1388	1391	1379	1378	1376	1373	1367	1366	1365	1360	1356	1352	1363	1383	1402	1412	1409	1409	1404	1402	1393	1379	1351	1342	1348	1357	1358	1368	1368	1356	1338	1327	1334	1367	1378	1368	1357	1359	1374	1384	1376	1377	1371	1375	1377	1376	1366	1353	1341	1337	1344	1361	1380	1377	1357	1348	1346	1349	1356	1362	1369	1368	1366	1362	1360	1368	1378	1398	1416	1424	1402	1372	1375	1382	1391	1393	1389	1383	1380	1382	1393	1406	1409	1407	1399	1396	1384	1379	1376	1376	1373	1377	1389	1383	1376	1376	1376	1380	1402	1405	1386	1380	1372	1374	1372	1373	1376	1379	1377	1375	1365	1360	1365	1370	1378	1396	1407	1428	1450	1464	1483	0	0	0	0	0	0	0	0	0	0	0	0	0	0	0	0	0	0	0	0	0	0	1486	1453	1444	1443	1437	1434	1433	1399	1404	1437	1439	1437	1439	1442	1447	1446	1441	1436	1425	1426	1428	1439	1436	1438	1435	1434	1438	1427	1411	1399	1394	1393	1396	1416	1437	1448	1474	1477	1472	1459	1455	1452	1460	1453	1456	1477	1478	1456	1433	1429	1420	1419	1422	1414	1404	1405	1406	1398	1402	1414	1432	1443	1446	1443	1434	1425	1415	1415	1408	1408	1398	1399	1397	1401	1398	1396	1403	1402	1396	1387	1380	1388	1393	1391	1391	1382	1380	1377	1376	0	0	0	0	0	0	0
0	0	0	0	0	0	0	0	0	0	1423	1417	1419	1419	1425	1417	1405	1401	1393	1389	1389	1376	1375	1384	1398	1394	1402	1404	1404	1408	1407	1403	1404	1415	1433	1441	1436	1420	1420	1409	1403	1400	1384	1371	1381	1407	1441	1449	1437	1425	1425	1421	1416	1406	1390	1387	1387	1387	1382	1391	1399	1406	1407	1401	1388	1387	1395	1405	1408	1397	1397	1389	1392	1388	1406	1417	1411	1403	1401	1410	1424	1439	1446	1432	1417	1418	1398	1381	1373	1381	1406	1435	1453	1469	1462	1454	1438	1440	1445	1449	1442	1429	1414	1407	1398	1401	1391	1372	1358	1351	1341	1336	1350	1359	1370	1374	1382	1391	1401	1406	1400	1393	1394	1392	1389	1379	1362	1351	1351	1348	1356	1375	1382	1392	1399	1401	1404	1395	1388	1382	1377	1373	1388	1406	1421	1426	1427	1425	1430	1445	1454	0	0	0	0	0	0	0	0	0	0	0	0	0	0	0	0	0	0	0	0	0	0	0	0	0	0	0	0	0	0	0	1611	1604	1603	1625	1650	1654	0	0	0	0	0	0	1483	1456	1406	1389	1389	1390	1384	1372	1370	1375	1383	1376	1379	1373	1368	1363	1361	1376	1394	1401	1401	1403	1393	1387	1387	1402	1424	1412	1406	1408	1417	1417	1411	1409	1415	1416	1414	1407	1395	1387	1369	1373	1376	1382	1380	1372	1362	1356	1381	1389	1388	1378	1374	1376	1385	1387	1380	1377	1375	1379	1377	1376	1381	1377	1370	1374	1361	1360	1364	1378	1379	1375	1362	1357	1358	1362	1375	1378	1383	1388	1389	1392	1406	1414	1424	1423	1418	1401	1396	1388	1395	1401	1405	1397	1378	1370	1368	1372	1377	1370	1361	1358	1364	1382	1389	1402	1408	1408	1386	1380	1379	1383	1387	1386	1382	1377	1368	1361	1359	1361	1361	1363	1370	1375	1379	1382	1389	1389	1406	1423	1431	1432	1423	1406	1377	1365	1379	1382	1384	1383	1378	1369	1364	1350	1347	1346	1344	1345	1345	1349	1360	1360	1367	1375	1377	1377	1376	1393	1394	1386	1383	1373	1371	1371	1371	1379	1393	1401	1404	1409	1406	1396	1389	1385	1385	1384	1374	1375	1385	1400	1414	1421	1409	1402	1394	1400	1395	1387	1388	1389	1425	1433	1427	1416	1398	1382	1372	1378	1392	1403	1417	1416	1418	1417	1404	1386	1367	1364	1372	1376	1379	1388	1395	1394	1389	1382	1372	1380	1384	1397	1421	1413	1430	1437	1430	1418	1400	1380	1359	1360	1374	1379	1383	1392	1403	1407	1401	1388	1380	1380	1394	1399	1397	1388	1387	1388	1391	1398	1404	1405	1404	1398	1392	1386	1372	1365	1361	1363	1369	1378	1372	1364	1360	1356	1344	1350	1359	1367	1366	1363	1371	1385	1396	1404	1407	1406	1398	1382	1388	1405	1414	1415	1408	1392	1373	1378	1387	1395	1410	1415	1406	1401	1394	1390	1381	1373	1369	1380	1389	1396	1398	1397	1392	1390	1391	1391	1398	1400	1397	1395	1378	1384	1382	1388	1392	1389	1387	1383	1378	1387	1380	1385	1406	1412	1419	1450	1464	1473	1489	0	0	0	0	0	0	0	0	0	0	0	0	0	0	0	0	0	0	0	0	0	1496	1462	1451	1451	1435	1433	1431	1399	1412	1420	1430	1428	1422	1416	1420	1427	1428	1429	1426	1428	1430	1436	1436	1419	1405	1407	1421	1413	1403	1391	1402	1408	1407	1420	1430	1470	1486	1491	1479	1475	1468	1464	1456	1436	1420	1424	1438	1451	1454	1452	1450	1442	1425	1410	1394	1392	1392	1399	1413	1427	1435	1445	1447	1446	1437	1435	1433	1426	1417	1417	1414	1415	1406	1405	1414	1410	1407	1396	1391	1379	1383	1393	1398	1394	1394	1392	1377	1373	1372	0	0	0	0	0	0	0
0	0	0	0	0	0	0	0	0	0	1406	1410	1414	1414	1415	1400	1386	1388	1385	1372	1372	1367	1373	1388	1400	1395	1391	1391	1391	1396	1390	1389	1395	1407	1418	1433	1438	1428	1428	1416	1403	1396	1379	1375	1387	1407	1440	1447	1460	1463	1463	1455	1421	1383	1371	1377	1383	1380	1369	1371	1379	1390	1395	1397	1398	1390	1401	1403	1395	1377	1377	1364	1364	1376	1395	1421	1404	1395	1398	1404	1420	1438	1441	1431	1426	1412	1391	1373	1362	1368	1388	1412	1441	1454	1455	1452	1437	1439	1436	1430	1427	1418	1404	1390	1388	1386	1383	1363	1361	1358	1359	1361	1359	1358	1362	1372	1373	1382	1385	1398	1395	1388	1392	1384	1384	1373	1365	1344	1343	1347	1355	1362	1369	1378	1388	1398	1406	1429	1444	1440	1420	1412	1414	1422	1437	1446	1440	1434	1452	1468	1470	0	0	0	0	0	0	0	0	0	0	0	0	0	0	0	0	0	0	0	0	0	0	0	1585	1601	0	1652	1646	1630	1611	1600	1596	1603	1607	1630	1659	1667	1677	1666	0	0	1588	1534	1491	1461	1414	1395	1393	1394	1384	1376	1377	1382	1388	1383	1384	1381	1377	1371	1371	1378	1395	1404	1415	1418	1410	1398	1397	1410	1427	1414	1411	1415	1420	1417	1403	1400	1417	1421	1423	1423	1423	1415	1402	1387	1388	1392	1392	1386	1375	1367	1383	1400	1396	1378	1382	1388	1393	1385	1384	1382	1376	1382	1386	1387	1389	1382	1390	1391	1401	1398	1392	1390	1391	1393	1393	1384	1374	1379	1382	1390	1386	1375	1379	1387	1403	1421	1426	1426	1419	1411	1404	1405	1404	1414	1419	1413	1401	1394	1402	1405	1413	1417	1405	1384	1387	1393	1406	1411	1409	1408	1399	1388	1376	1365	1361	1368	1375	1384	1390	1386	1382	1390	1401	1405	1404	1400	1396	1407	1410	1405	1402	1397	1399	1412	1414	1389	1381	1388	1395	1393	1389	1389	1387	1383	1386	1386	1383	1381	1384	1377	1373	1367	1377	1389	1406	1412	1409	1394	1381	1374	1387	1381	1379	1386	1392	1397	1394	1392	1396	1398	1393	1394	1391	1388	1388	1384	1383	1382	1379	1380	1365	1382	1381	1386	1400	1402	1408	1405	1388	1392	1396	1398	1394	1403	1399	1401	1398	1391	1388	1385	1384	1378	1372	1375	1384	1392	1393	1382	1377	1384	1393	1368	1365	1368	1382	1384	1381	1369	1368	1384	1403	1417	1405	1409	1414	1423	1419	1406	1385	1370	1362	1360	1371	1371	1374	1379	1394	1403	1403	1392	1385	1383	1393	1397	1395	1390	1387	1389	1389	1405	1407	1403	1395	1383	1373	1368	1368	1365	1366	1370	1370	1373	1368	1361	1361	1362	1358	1357	1365	1367	1368	1372	1376	1392	1404	1409	1389	1377	1368	1369	1385	1401	1415	1417	1410	1373	1369	1370	1384	1391	1395	1397	1400	1395	1398	1395	1380	1367	1360	1373	1381	1397	1403	1405	1401	1392	1387	1389	1394	1407	1405	1396	1386	1383	1387	1396	1398	1395	1396	1397	1399	1399	1400	1397	1391	1390	1400	1415	1468	1486	1488	0	0	0	0	0	0	0	0	0	0	0	0	0	0	0	0	0	0	0	0	0	0	1482	1420	1394	1394	1405	1418	1401	1408	1411	1422	1420	1425	1428	1424	1429	1429	1429	1433	1430	1451	1457	1443	1416	1395	1383	1391	1408	1406	1390	1384	1393	1405	1422	1444	1470	1493	1500	1496	1490	1490	1475	1459	1430	1416	1426	1433	1437	1444	1440	1431	1429	1424	1407	1402	1401	1402	1403	1410	1425	1435	1437	1427	1421	1413	1419	1431	1429	1425	1425	1424	1422	1409	1408	1407	1398	1386	1375	1370	1369	1364	1369	1384	1390	1390	1392	1385	1383	1392	0	0	0	0	0	0	0
0	0	0	0	0	0	0	0	0	1414	1403	1401	1410	1410	1400	1377	1380	1375	1369	1363	1363	1354	1361	1388	1402	1391	1381	1375	1375	1377	1380	1378	1383	1388	1407	1420	1422	1429	1429	1417	1407	1387	1381	1375	1384	1404	1428	1439	1453	1462	1462	1446	1414	1371	1358	1364	1376	1377	1369	1375	1382	1390	1386	1391	1403	1402	1402	1392	1376	1362	1362	1358	1362	1379	1387	1419	1398	1387	1385	1391	1405	1423	1431	1425	1416	1404	1385	1376	1363	1367	1370	1390	1417	1434	1439	1425	1428	1426	1424	1413	1406	1401	1385	1373	1356	1353	1357	1351	1359	1367	1378	1377	1371	1367	1365	1366	1373	1376	1374	1385	1390	1383	1386	1386	1374	1349	1341	1343	1353	1360	1365	1358	1365	1379	1393	1406	1429	1450	1446	1442	1432	1426	1438	1442	1450	1448	1439	1441	1465	1479	1477	1473	1459	1452	1450	1464	1484	1501	1507	1508	1503	1507	1549	1567	1568	1573	1561	1555	1579	1588	1599	1596	1588	1586	1601	1623	1665	1667	1660	1644	1630	1615	1612	1615	1617	1625	1658	1669	1675	1665	1656	1628	1580	1512	1487	1449	1424	1390	1372	1378	1387	1384	1384	1381	1384	1393	1399	1394	1398	1392	1387	1389	1393	1400	1410	1412	1410	1405	1415	1429	1430	1409	1407	1411	1412	1408	1387	1380	1385	1397	1416	1431	1438	1434	1414	1402	1406	1408	1412	1405	1395	1403	1397	1396	1398	1401	1405	1406	1407	1406	1387	1377	1372	1378	1385	1394	1402	1402	1417	1423	1422	1409	1405	1396	1398	1392	1384	1379	1375	1389	1393	1392	1388	1373	1371	1386	1401	1418	1425	1418	1408	1391	1381	1379	1383	1385	1392	1399	1400	1400	1399	1406	1416	1419	1408	1387	1378	1381	1392	1400	1408	1411	1403	1394	1385	1387	1406	1415	1413	1408	1408	1403	1405	1397	1408	1412	1413	1407	1401	1402	1404	1407	1408	1410	1421	1423	1417	1401	1388	1401	1401	1398	1389	1401	1398	1391	1393	1398	1407	1405	1378	1391	1379	1389	1399	1410	1410	1408	1398	1378	1375	1375	1372	1380	1383	1390	1398	1397	1397	1394	1397	1395	1395	1392	1391	1388	1383	1382	1385	1367	1377	1379	1368	1361	1372	1381	1393	1398	1401	1379	1378	1389	1397	1398	1389	1391	1388	1388	1389	1391	1393	1387	1378	1379	1376	1372	1377	1385	1387	1386	1385	1388	1390	1377	1373	1377	1390	1390	1381	1364	1361	1374	1391	1403	1402	1402	1400	1388	1381	1380	1371	1362	1353	1354	1366	1373	1369	1372	1385	1396	1399	1391	1384	1381	1393	1394	1397	1389	1387	1389	1395	1409	1404	1397	1387	1379	1372	1371	1367	1371	1370	1373	1377	1378	1374	1364	1362	1361	1364	1364	1364	1369	1368	1371	1380	1390	1399	1391	1382	1376	1364	1370	1384	1395	1410	1413	1390	1371	1367	1369	1380	1392	1394	1389	1388	1391	1396	1393	1382	1371	1364	1368	1384	1399	1406	1409	1403	1392	1388	1388	1394	1408	1409	1407	1399	1395	1396	1398	1400	1402	1400	1402	1399	1397	1402	1396	1383	1380	1387	1411	1497	1514	1510	0	0	0	0	0	0	0	0	0	0	0	0	0	0	0	0	0	0	0	0	0	0	0	1460	1412	1399	1397	1399	1406	1407	1415	1423	1417	1426	1431	1430	1429	1428	1429	1428	1445	1462	1459	1449	1429	1409	1375	1385	1396	1419	1407	1390	1393	1402	1422	1439	1466	1475	1494	1506	1509	1497	1483	1452	1417	1423	1427	1434	1430	1427	1421	1423	1421	1417	1406	1412	1415	1411	1412	1414	1422	1422	1421	1412	1409	1407	1412	1416	1424	1427	1427	1429	1424	1419	1401	1393	1383	1377	1367	1361	1361	1360	1366	1378	1390	1390	1394	1401	1407	1407	0	0	0	0	0	0	0
