0	0	1350	1353	1353	1362	1372	1376	1376	1379	1379	1374	1393	1405	1412	1410	1405	1400	1394	1388	1378	1380	1381	1392	1392	1400	1397	1383	1365	1360	1362	1372	1372	1382	1385	1376	1379	1398	1415	1410	1394	1378	1378	1369	1365	1356	1342	1335	1337	1348	1357	1363	1360	1332	1341	1341	1349	1351	1342	1340	1331	1332	1347	1353	1350	1349	1360	1372	1378	1379	1376	1376	1375	1368	1375	1362	1365	1362	1359	1360	1360	1353	1344	1342	1342	1349	1366	1380	1390	1391	1372	1367	1364	1373	1363	1361	0	0	0	0	0	0	0	0	0	0	0	0	0	0	0	0	0	0	0	0	0	0	0	0	0	0	0	0	0	0	1548	1554	1561	1586	1606	1625	1617	1605	1591	0	0	0	0	0	0	0	0	0	0	1476	1404	1382	1394	1405	1398	1378	1381	1377	1375	1374	1362	1359	1363	1378	1394	1399	1398	1395	1396	1404	1407	1405	1400	1397	1389	1380	1374	1378	1388	1404	1407	1401	1402	1385	1384	1380	1369	1360	1358	1376	1386	1392	1393	1392	1391	1388	1388	1392	1393	1397	1406	1422	1427	1414	1398	1399	1403	1410	1412	1395	1376	1363	1367	1400	1406	1398	1389	1382	1383	1389	1393	1399	1395	1397	1400	1401	1387	1370	1363	1364	1384	1385	1386	1387	1381	1387	1398	1407	1405	1403	1404	1412	1426	1430	1425	1420	1412	1406	1404	1401	1402	1407	1421	1424	1414	1407	1412	1410	1417	1414	1415	1415	1425	1434	1431	1415	1415	1414	1424	1432	1426	1426	1425	1408	1401	1397	1398	1399	1400	1398	1404	1413	1424	1428	1426	1424	1412	1412	1415	1417	1415	1410	1405	1400	1399	1397	1400	1401	1415	1427	1444	1454	1454	1454	1481	1530	1526	1503	1411	1420	1425	1429	1429	1427	1425	1415	1404	1406	1411	1417	1422	1424	1424	1421	1420	1423	1422	1417	1412	1420	1431	1440	1428	1417	1410	1401	1415	1423	1432	1432	1424	1414	1419	1428	1436	1431	1420	1415	1408	1425	1426	1424	1425	1430	1431	1436	1441	1441	1441	1431	1420	1417	1416	1420	1424	1433	1439	1448	1452	1448	1446	1439	1427	1423	1423	1427	1427	1423	1422	1437	1441	1443	1447	1452	1449	1454	1461	1457	1449	1431	1425	1419	1420	1431	1433	1440	1436	1438	1443	1445	1453	1457	1460	1458	1463	1467	1459	1440	1442	1453	1469	1468	1464	1456	1452	1444	1435	1438	1448	1456	1448	1447	1450	1457	1461	1463	1454	1455	1457	1454	1451	1451	1451	1447	1446	1458	1474	1495	1503	1502	1489	1475	1453	1436	1438	1455	1472	1482	1483	1479	1474	1478	1478	1477	1531	1618	0	0	0	0	0	0	0	0	0	0	0	0	0	0	0	0	0	0	0	0	0	1658	1635	1614	1586	1567	1557	1565	1568	1563	1568	1559	1548	1550	1552	1551	1541	1532	1542	1562	1569	1552	1541	1545	1567	1558	1541	1525	1523	1533	1536	1561	0	0	0	0	0	0	0	0	0	0	0	0	0	0	0	0	1519	1488	1492	1496	1515	1504	1505	1504	1506	1534	1561	1554	1546	1536	1522	1512	1516	1523	1520	1509	1498	1490	1504	1524	1524	1515	1516	1514	1517	1512	1507	1496	1515	1543	1566	1553	1535	1507	1495	1493	1508	1515	1516	1500	1496	1510	1531	1550	1543	1537	1529	1525	1529	1532	1536	1536	1538	1533	1532	1535	1527	1524	1509	1493	1480	1469	1482	1492	1499	1487	1494	1495	1524	1520	1510	1507	1510	1526	1527	1528	1535	1528	1520	1511	1494	1488	1491	1491	1501	1500	1498	1483	1470	1459	1476	1484	1489	1484	1486	1506	1500	1488	1485	1485	1489	1488	1486	1497	1509	1501	1485	1463	1458	0	0	0	0	0	0	0
0	0	1352	1351	1351	1357	1375	1385	1387	1389	1389	1376	1376	1391	1400	1406	1401	1401	1404	1389	1377	1372	1375	1383	1383	1393	1392	1375	1353	1356	1364	1376	1376	1383	1383	1381	1386	1396	1410	1404	1390	1377	1377	1359	1351	1332	1324	1331	1346	1348	1352	1358	1354	1346	1348	1348	1357	1356	1354	1345	1344	1345	1354	1357	1357	1352	1354	1366	1372	1373	1375	1376	1375	1374	1366	1368	1368	1365	1360	1353	1353	1344	1338	1332	1337	1350	1364	1375	1387	1376	1367	1360	1354	1365	1364	1373	0	0	0	0	0	0	0	0	0	0	0	0	0	0	0	0	0	0	0	0	0	0	0	0	0	0	0	0	0	0	1535	1545	1561	1587	1611	1622	1614	1605	1586	0	0	0	0	0	0	0	0	0	0	0	1398	1384	1398	1405	1394	1386	1384	1396	1389	1381	1366	1365	1364	1374	1387	1396	1394	1394	1394	1401	1406	1406	1401	1397	1391	1383	1374	1377	1389	1412	1419	1408	1399	1397	1389	1383	1372	1361	1362	1371	1385	1389	1391	1398	1400	1404	1408	1401	1393	1392	1399	1412	1409	1402	1400	1404	1416	1425	1427	1402	1383	1366	1368	1397	1403	1405	1393	1393	1389	1389	1393	1393	1393	1393	1392	1394	1382	1369	1358	1363	1386	1394	1392	1392	1386	1389	1397	1399	1392	1390	1395	1409	1429	1427	1425	1424	1420	1414	1409	1400	1399	1412	1419	1420	1412	1407	1410	1408	1407	1405	1412	1412	1419	1425	1418	1410	1407	1415	1423	1424	1422	1405	1401	1398	1403	1405	1416	1413	1414	1406	1404	1415	1425	1430	1431	1431	1424	1422	1420	1415	1410	1401	1397	1396	1398	1398	1398	1400	1412	1428	1440	1441	1448	1447	1492	1524	1511	1480	1406	1419	1419	1424	1424	1422	1418	1411	1401	1402	1411	1421	1424	1425	1432	1436	1439	1441	1436	1428	1421	1427	1433	1435	1425	1417	1412	1402	1393	1402	1425	1430	1426	1420	1425	1433	1438	1432	1413	1406	1413	1420	1422	1422	1421	1426	1434	1439	1446	1438	1435	1431	1420	1416	1424	1432	1433	1419	1419	1434	1442	1441	1441	1438	1426	1422	1424	1429	1430	1431	1432	1445	1444	1445	1447	1453	1450	1449	1449	1447	1443	1437	1430	1431	1431	1438	1444	1443	1447	1449	1442	1439	1445	1454	1456	1458	1464	1471	1470	1456	1446	1458	1466	1468	1468	1460	1452	1435	1431	1433	1445	1459	1446	1450	1446	1454	1453	1449	1448	1456	1465	1464	1460	1455	1462	1462	1457	1451	1471	1486	1500	1495	1486	1476	1466	1452	1445	1458	1473	1484	1489	1482	1466	1469	1466	1466	1532	0	0	0	0	0	0	0	0	0	0	0	0	0	0	0	0	0	0	0	0	0	0	1632	1612	1598	1594	1571	1563	1569	1572	1556	1538	1541	1562	1557	1558	1566	1560	1553	1564	1561	1560	1554	1561	1572	1566	1576	1573	1553	1547	1543	1532	1532	0	0	0	0	0	0	0	0	0	0	0	0	0	0	0	0	1500	1490	1490	1504	1510	1512	1513	1511	1521	1540	1550	1518	1518	1509	1508	1512	1524	1540	1532	1513	1493	1479	1488	1504	1509	1511	1516	1517	1516	1518	1511	1504	1522	1544	1560	1550	1526	1505	1494	1493	1504	1512	1499	1487	1475	1485	1514	1529	1531	1529	1513	1514	1513	1517	1521	1529	1539	1534	1534	1518	1509	1498	1485	1488	1474	1471	1480	1493	1483	1472	1467	1484	1498	1514	1511	1509	1518	1533	1543	1541	1537	1527	1515	1500	1491	1497	1509	1509	1531	1528	1512	1494	1475	1461	1472	1482	1485	1474	1478	1499	1491	1487	1482	1482	1487	1481	1479	1476	1484	1481	1477	1465	1466	0	0	0	0	0	0	0
0	0	1359	1364	1364	1363	1376	1378	1383	1381	1381	1375	1369	1380	1390	1394	1394	1396	1402	1391	1377	1377	1381	1384	1384	1395	1391	1377	1365	1360	1366	1377	1377	1384	1387	1384	1390	1390	1409	1407	1398	1384	1384	1363	1344	1328	1329	1331	1345	1343	1348	1352	1359	1359	1365	1365	1369	1365	1361	1346	1351	1353	1359	1360	1361	1370	1376	1369	1364	1365	1366	1366	1375	1367	1360	1365	1371	1369	1359	1359	1348	1338	1325	1321	1328	1342	1358	1366	1376	1364	1362	1362	1356	1347	1371	1393	0	0	0	0	0	0	0	0	0	0	0	0	0	0	0	0	0	0	0	0	0	0	0	0	0	0	0	0	0	0	0	1546	1573	1595	1608	1619	1609	1603	1591	0	0	0	0	0	0	0	0	0	0	0	1395	1380	1384	1405	1394	1386	1391	1399	1399	1385	1376	1363	1362	1370	1385	1393	1388	1380	1389	1395	1396	1387	1388	1379	1379	1373	1370	1373	1390	1406	1404	1396	1393	1396	1395	1388	1382	1370	1365	1367	1373	1378	1385	1392	1402	1406	1413	1396	1388	1384	1389	1397	1397	1388	1395	1410	1422	1436	1434	1411	1392	1379	1375	1388	1392	1395	1404	1407	1400	1393	1391	1390	1386	1390	1401	1400	1386	1372	1370	1367	1401	1402	1398	1401	1397	1395	1396	1393	1387	1389	1396	1408	1418	1420	1424	1425	1427	1424	1415	1397	1388	1407	1410	1404	1398	1403	1405	1406	1399	1397	1395	1402	1401	1407	1400	1398	1394	1403	1411	1417	1408	1401	1399	1401	1410	1422	1426	1431	1427	1428	1424	1419	1426	1432	1434	1433	1440	1429	1421	1413	1405	1401	1401	1400	1404	1403	1401	1396	1400	1413	1425	1437	1441	1438	1492	1518	1522	1447	1411	1420	1420	1419	1421	1421	1418	1411	1403	1409	1420	1429	1430	1434	1441	1450	1449	1450	1445	1436	1428	1427	1439	1442	1426	1423	1427	1430	1417	1414	1418	1429	1429	1428	1429	1432	1431	1428	1408	1407	1407	1415	1422	1426	1425	1424	1424	1429	1439	1437	1443	1434	1427	1426	1436	1444	1443	1420	1411	1424	1435	1446	1445	1440	1428	1423	1425	1434	1435	1435	1437	1444	1447	1450	1450	1459	1452	1444	1438	1437	1444	1440	1445	1441	1437	1445	1453	1449	1453	1455	1448	1435	1441	1445	1452	1454	1466	1474	1473	1472	1468	1473	1466	1463	1456	1454	1454	1442	1439	1440	1439	1444	1441	1444	1450	1454	1452	1445	1448	1457	1471	1474	1464	1457	1455	1468	1452	1439	1452	1466	1485	1485	1479	1475	1474	1466	1466	1473	1485	1490	1486	1473	1458	1456	1448	1457	1532	0	0	0	0	0	0	0	0	0	0	0	0	0	0	0	0	0	0	0	0	0	0	1606	1594	1601	1600	1592	1571	1574	1546	1531	1543	1548	1557	1547	1549	1572	1578	1580	1578	1579	1578	1577	1567	1561	1578	1587	1587	1545	1548	1541	1529	1521	0	0	0	0	0	0	0	0	0	0	0	0	0	0	0	0	1492	1488	1492	1497	1509	1520	1520	1522	1522	1529	1527	1505	1496	1502	1508	1520	1531	1540	1537	1514	1488	1478	1488	1493	1503	1504	1510	1512	1520	1520	1521	1524	1531	1541	1555	1547	1526	1517	1510	1518	1510	1503	1488	1470	1463	1460	1471	1493	1516	1515	1505	1499	1490	1502	1500	1512	1528	1534	1524	1507	1487	1477	1472	1485	1496	1516	1516	1511	1495	1486	1486	1477	1490	1510	1502	1509	1518	1538	1545	1542	1535	1514	1507	1508	1508	1529	1537	1537	1547	1543	1514	1492	1474	1462	1471	1483	1484	1476	1466	1478	1481	1479	1477	1477	1478	1473	1473	1472	1471	1471	1468	1474	1480	0	0	0	0	0	0	0
0	0	1383	1380	1380	1372	1375	1372	1376	1377	1377	1384	1380	1381	1387	1390	1390	1389	1381	1386	1386	1385	1384	1386	1386	1386	1388	1368	1361	1364	1379	1394	1394	1390	1393	1390	1392	1397	1406	1407	1404	1393	1393	1373	1354	1337	1336	1347	1341	1337	1344	1349	1362	1367	1366	1366	1370	1370	1368	1355	1355	1360	1364	1364	1362	1381	1383	1372	1359	1354	1355	1362	1357	1363	1355	1357	1366	1367	1356	1356	1347	1337	1329	1322	1329	1341	1360	1365	1361	1361	1360	1365	1361	1354	1380	1399	0	0	0	0	0	0	0	0	0	0	0	0	0	0	0	0	0	0	0	0	0	0	0	0	0	0	0	0	0	0	0	1583	1591	1597	1604	1604	1606	1614	1608	0	0	0	0	0	0	0	0	0	0	0	1415	1375	1382	1395	1393	1380	1384	1392	1397	1390	1384	1371	1371	1378	1386	1389	1385	1371	1375	1377	1375	1371	1368	1378	1378	1374	1373	1379	1392	1400	1402	1391	1387	1397	1398	1388	1388	1378	1373	1367	1369	1372	1376	1384	1393	1402	1403	1396	1387	1381	1382	1382	1375	1371	1384	1404	1416	1427	1429	1422	1404	1392	1382	1380	1385	1396	1409	1415	1420	1414	1403	1398	1394	1399	1417	1415	1395	1379	1380	1390	1416	1409	1408	1406	1398	1396	1394	1389	1385	1388	1393	1405	1412	1417	1420	1428	1433	1435	1423	1401	1390	1401	1398	1390	1386	1391	1390	1394	1390	1384	1394	1393	1396	1390	1390	1386	1386	1391	1397	1405	1400	1404	1398	1405	1409	1421	1428	1436	1439	1436	1431	1423	1421	1427	1428	1433	1431	1413	1418	1428	1413	1407	1403	1414	1418	1412	1404	1397	1399	1406	1420	1434	1437	1425	1457	1473	1470	1420	1413	1420	1417	1416	1421	1423	1422	1422	1418	1408	1443	1453	1459	1467	1455	1458	1464	1459	1447	1438	1421	1427	1438	1445	1446	1437	1438	1433	1426	1418	1412	1425	1426	1429	1428	1426	1422	1415	1414	1408	1410	1410	1431	1431	1431	1422	1423	1419	1430	1436	1448	1443	1439	1441	1452	1458	1453	1437	1427	1427	1437	1445	1451	1449	1435	1428	1428	1430	1429	1431	1427	1439	1448	1453	1463	1465	1455	1443	1439	1435	1439	1452	1449	1442	1442	1458	1472	1470	1467	1464	1453	1432	1434	1435	1441	1445	1465	1475	1481	1483	1483	1479	1467	1456	1445	1443	1441	1442	1444	1445	1441	1431	1430	1441	1455	1458	1454	1447	1449	1459	1477	1481	1471	1463	1454	1461	1454	1438	1432	1445	1466	1473	1471	1471	1472	1473	1482	1490	1493	1492	1480	1466	1455	1437	1440	1455	1475	0	0	0	0	0	0	0	0	0	0	0	0	0	0	0	0	0	0	0	0	0	0	1582	1587	1601	1612	1608	1572	1549	1539	1543	1549	1559	1558	1551	1550	1552	1560	1575	1590	1583	1579	1559	1554	1551	1572	1569	1563	1548	1547	1539	1535	1534	0	0	0	0	0	0	0	0	0	0	0	0	0	0	0	0	1490	1489	1492	1501	1504	1515	1523	1527	1514	1515	1513	1505	1497	1504	1515	1516	1529	1531	1529	1512	1500	1489	1487	1494	1503	1510	1515	1524	1528	1524	1521	1533	1526	1528	1536	1539	1535	1528	1523	1522	1513	1498	1482	1476	1473	1467	1467	1477	1483	1489	1503	1494	1499	1498	1500	1507	1521	1529	1513	1506	1488	1477	1478	1493	1516	1540	1549	1537	1534	1523	1516	1506	1503	1500	1495	1492	1507	1516	1524	1523	1523	1522	1514	1524	1534	1546	1550	1550	1546	1537	1512	1488	1474	1472	1467	1475	1481	1479	1472	1478	1477	1473	1470	1468	1468	1463	1462	1462	1467	1472	1477	1480	1487	0	0	0	0	0	0	0
0	0	1397	1386	1386	1368	1369	1371	1379	1385	1385	1399	1402	1393	1393	1387	1387	1378	1369	1365	1379	1382	1381	1381	1379	1378	1375	1363	1360	1371	1391	1402	1402	1406	1395	1394	1398	1400	1408	1402	1409	1396	1396	1380	1365	1358	1355	1355	1344	1341	1342	1343	1351	1349	1352	1352	1358	1362	1365	1361	1361	1361	1364	1362	1368	1380	1382	1364	1350	1341	1344	1349	1357	1359	1350	1346	1355	1352	1352	1349	1345	1340	1337	1333	1334	1343	1362	1371	1369	1372	1377	1384	1380	1362	1384	1396	1382	0	0	0	0	0	0	0	0	0	0	0	0	0	0	0	0	0	0	0	0	0	0	0	0	0	0	0	0	0	0	1602	1613	1612	1607	1588	1598	1625	1629	0	0	0	0	0	0	0	0	0	0	0	1429	1409	1389	1391	1385	1374	1376	1384	1389	1388	1388	1382	1376	1374	1377	1382	1387	1389	1379	1375	1368	1373	1378	1379	1379	1385	1379	1380	1376	1394	1392	1383	1394	1404	1410	1407	1401	1392	1382	1373	1372	1368	1367	1366	1370	1392	1400	1390	1388	1382	1380	1372	1356	1358	1372	1392	1406	1414	1418	1419	1408	1409	1390	1379	1377	1389	1401	1413	1410	1408	1403	1402	1406	1413	1420	1405	1392	1380	1384	1404	1420	1418	1413	1401	1389	1388	1387	1389	1389	1388	1397	1402	1407	1415	1419	1427	1429	1431	1414	1403	1388	1402	1397	1389	1385	1386	1380	1379	1379	1384	1387	1390	1388	1386	1390	1391	1385	1382	1388	1397	1402	1405	1399	1402	1407	1413	1424	1429	1429	1426	1420	1413	1412	1420	1410	1403	1398	1409	1422	1421	1429	1429	1424	1430	1430	1414	1403	1396	1406	1413	1423	1439	1436	1400	1423	1432	1428	1413	1414	1422	1425	1424	1427	1429	1433	1432	1435	1427	1429	1434	1445	1446	1446	1445	1462	1458	1446	1429	1418	1422	1431	1445	1463	1469	1469	1446	1434	1420	1415	1421	1416	1415	1414	1409	1409	1411	1418	1418	1417	1419	1429	1440	1441	1436	1429	1428	1438	1443	1450	1451	1452	1451	1462	1464	1462	1447	1441	1435	1436	1438	1444	1450	1438	1430	1418	1421	1424	1429	1423	1423	1432	1446	1453	1457	1453	1444	1439	1437	1439	1444	1436	1436	1442	1463	1470	1474	1473	1468	1461	1435	1425	1422	1427	1437	1465	1475	1481	1484	1480	1470	1463	1450	1439	1436	1431	1437	1444	1438	1440	1430	1428	1446	1461	1465	1456	1444	1450	1465	1480	1483	1479	1474	1466	1451	1438	1433	1431	1441	1454	1462	1463	1464	1465	1471	1482	1496	1497	1488	1477	1462	1457	1450	1449	1448	1470	0	0	0	0	0	0	0	0	0	0	0	0	0	0	0	0	0	0	0	0	0	0	1564	1576	1590	1607	1611	1573	1551	1541	1545	1554	1559	1559	1552	1549	1557	1568	1574	1576	1574	1564	1564	1561	1564	1569	1568	1564	1556	1547	1540	1534	1549	0	0	0	0	0	0	0	0	0	0	0	0	0	0	0	0	0	1544	1532	1525	1504	1503	1517	1520	1513	1518	1514	1508	1514	1511	1518	1515	1515	1515	1515	1511	1510	1505	1499	1497	1497	1503	1522	1530	1535	1534	1531	1528	1523	1523	1527	1534	1538	1541	1536	1531	1518	1505	1504	1495	1492	1485	1488	1491	1497	1507	1502	1504	1506	1505	1517	1525	1515	1505	1498	1498	1495	1485	1487	1498	1518	1539	1547	1542	1521	1517	1505	1493	1491	1498	1497	1499	1503	1506	1501	1510	1511	1520	1523	1533	1541	1548	1552	1536	1536	1527	1505	1486	1475	1467	1467	1463	1469	1481	1482	1479	1471	1474	1477	1468	1468	1460	1454	1458	1470	1476	1479	1482	1486	0	0	0	0	0	0	0
0	0	1405	1405	1387	1364	1370	1379	1387	1387	1399	1403	1404	1391	1384	1379	1379	1376	1373	1362	1368	1374	1369	1369	1373	1383	1376	1372	1366	1380	1392	1402	1402	1402	1392	1391	1398	1404	1403	1405	1397	1397	1391	1372	1366	1366	1368	1357	1346	1338	1333	1336	1340	1342	1342	1342	1344	1352	1359	1366	1365	1364	1363	1364	1366	1380	1377	1363	1347	1344	1346	1350	1354	1350	1342	1338	1339	1346	1346	1351	1348	1351	1350	1344	1346	1353	1363	1374	1372	1378	1383	1384	1384	1381	1377	1397	1371	0	0	0	0	0	0	0	0	0	0	0	0	0	0	0	0	0	0	0	0	0	0	0	0	0	0	0	0	0	0	1595	1617	1618	1609	1593	1604	1633	1646	0	0	0	0	0	0	0	0	0	0	0	1415	1403	1388	1385	1383	1373	1363	1370	1380	1375	1380	1364	1357	1357	1357	1375	1388	1397	1384	1375	1367	1376	1383	1387	1392	1394	1397	1384	1384	1376	1378	1371	1383	1400	1408	1414	1412	1405	1392	1381	1377	1365	1362	1364	1374	1398	1401	1392	1389	1383	1372	1363	1349	1339	1350	1370	1393	1399	1407	1406	1408	1407	1401	1385	1380	1384	1391	1396	1392	1393	1391	1395	1396	1401	1399	1385	1382	1379	1387	1399	1413	1421	1412	1393	1379	1378	1382	1387	1389	1392	1398	1403	1410	1414	1421	1423	1421	1407	1399	1384	1387	1397	1403	1393	1389	1385	1381	1380	1379	1385	1386	1388	1390	1385	1393	1390	1384	1379	1379	1386	1407	1410	1401	1402	1404	1412	1418	1416	1413	1407	1405	1407	1413	1418	1400	1389	1389	1408	1420	1428	1431	1435	1441	1428	1427	1416	1402	1400	1412	1424	1441	1441	1418	1383	1396	1399	1394	1421	1427	1432	1430	1428	1429	1433	1446	1435	1452	1420	1423	1432	1445	1442	1432	1437	1435	1448	1437	1419	1424	1420	1435	1443	1467	1475	1468	1464	1445	1439	1430	1419	1410	1408	1398	1390	1396	1411	1425	1429	1426	1428	1441	1447	1451	1450	1441	1438	1439	1448	1455	1458	1466	1459	1458	1458	1451	1449	1442	1441	1435	1438	1441	1435	1426	1424	1414	1417	1418	1428	1438	1436	1430	1436	1439	1442	1449	1445	1444	1441	1447	1445	1437	1429	1432	1443	1459	1457	1465	1465	1461	1454	1430	1424	1423	1435	1459	1475	1477	1478	1471	1471	1462	1446	1432	1431	1426	1434	1449	1448	1431	1424	1430	1440	1451	1463	1458	1453	1454	1467	1484	1487	1487	1494	1499	1480	1438	1427	1430	1442	1453	1464	1463	1454	1450	1464	1480	1491	1493	1486	1475	1465	1456	1465	1461	1453	1465	0	0	0	0	0	0	0	0	0	0	0	0	0	0	0	0	0	0	0	0	0	0	1560	1570	1578	1594	1609	1579	1557	1550	1549	1549	1552	1555	1548	1551	1559	1572	1576	1573	1570	1570	1569	1569	1576	1574	1575	1570	1554	1551	1537	1533	1570	0	0	0	0	0	0	0	0	0	0	0	0	0	0	0	0	1569	1560	1539	1528	1506	1489	1502	1504	1509	1506	1513	1528	1530	1525	1515	1516	1522	1514	1518	1518	1518	1523	1517	1511	1507	1510	1523	1531	1535	1534	1527	1519	1516	1517	1523	1532	1542	1549	1549	1539	1529	1525	1520	1506	1488	1481	1490	1506	1523	1534	1525	1525	1517	1509	1519	1525	1515	1503	1502	1506	1499	1494	1490	1501	1513	1531	1537	1525	1524	1507	1485	1475	1478	1492	1509	1512	1512	1505	1486	1483	1493	1514	1513	1518	1528	1538	1535	1526	1526	1513	1498	1495	1481	1468	1460	1454	1465	1483	1487	1483	1472	1486	1482	1473	1473	1459	1457	1460	1477	1483	1483	1474	1472	0	0	0	0	0	0	0
0	0	1396	1396	1379	1368	1372	1385	1394	1394	1397	1397	1393	1384	1381	1378	1378	1383	1378	1369	1359	1360	1357	1357	1373	1376	1376	1373	1370	1377	1382	1382	1377	1378	1377	1386	1398	1406	1404	1401	1388	1388	1375	1366	1364	1364	1368	1361	1347	1335	1333	1335	1340	1341	1341	1339	1338	1347	1359	1363	1365	1359	1359	1362	1369	1379	1373	1364	1358	1357	1362	1357	1347	1343	1328	1328	1336	1336	1348	1355	1357	1361	1370	1363	1354	1363	1368	1374	1374	1377	1384	1387	1389	1395	1381	1398	1388	0	0	0	0	0	0	0	0	0	0	0	0	0	0	0	0	0	0	0	0	0	0	0	0	0	0	0	0	0	0	1575	1593	1611	1604	1605	1606	1615	1656	0	0	0	0	0	0	0	0	0	0	0	1368	1371	1388	1393	1386	1379	1361	1362	1361	1358	1350	1342	1346	1341	1347	1364	1385	1393	1387	1367	1362	1371	1383	1394	1402	1404	1399	1389	1381	1375	1369	1364	1370	1380	1399	1410	1414	1407	1397	1380	1376	1366	1359	1363	1376	1402	1411	1396	1382	1374	1364	1356	1341	1338	1349	1369	1381	1385	1392	1392	1399	1398	1402	1392	1385	1391	1386	1384	1382	1381	1383	1388	1386	1376	1376	1376	1373	1380	1386	1401	1414	1416	1407	1391	1378	1379	1385	1391	1394	1400	1407	1412	1415	1420	1422	1419	1401	1385	1376	1370	1382	1397	1406	1399	1392	1386	1381	1381	1384	1386	1388	1388	1387	1395	1399	1394	1386	1376	1378	1387	1405	1413	1415	1410	1411	1415	1408	1403	1401	1396	1400	1407	1417	1426	1403	1389	1387	1394	1417	1431	1435	1432	1435	1423	1421	1415	1407	1407	1420	1438	1439	1431	1413	1382	1389	1391	1393	1416	1433	1433	1432	1430	1430	1435	1442	1452	1436	1447	1434	1429	1408	1425	1421	1423	1428	1434	1429	1420	1421	1423	1431	1458	1463	1463	1449	1439	1436	1436	1426	1419	1408	1414	1392	1384	1400	1418	1436	1441	1440	1443	1447	1455	1457	1453	1442	1434	1436	1445	1453	1461	1458	1461	1451	1442	1437	1435	1436	1439	1438	1442	1448	1441	1430	1414	1408	1410	1418	1432	1447	1445	1445	1432	1433	1437	1450	1454	1450	1449	1448	1439	1432	1423	1419	1429	1433	1437	1444	1450	1453	1447	1437	1434	1439	1447	1461	1475	1478	1476	1470	1472	1465	1451	1436	1432	1427	1440	1458	1457	1441	1429	1438	1447	1453	1467	1475	1462	1466	1474	1485	1492	1490	1499	1506	1491	1439	1434	1432	1450	1461	1469	1469	1458	1454	1468	1466	1481	1485	1482	1475	1471	1471	1474	1474	1473	1501	0	0	0	0	0	0	0	0	0	0	0	0	0	0	0	0	0	0	0	0	0	0	1576	1590	1585	1593	1600	1575	1569	1552	1547	1545	1548	1550	1553	1556	1563	1572	1569	1564	1568	1570	1573	1573	1577	1578	1576	1572	1562	1561	1539	1528	1569	0	0	0	0	0	0	0	0	0	0	0	0	0	0	0	0	1564	1542	1524	1514	1488	1490	1503	1500	1508	1507	1508	1514	1525	1520	1510	1500	1504	1512	1507	1515	1528	1541	1545	1529	1504	1512	1515	1527	1535	1538	1533	1514	1516	1516	1513	1517	1521	1535	1540	1535	1530	1532	1534	1516	1497	1495	1497	1510	1521	1533	1545	1538	1530	1528	1525	1527	1518	1514	1501	1502	1505	1500	1498	1504	1507	1518	1525	1519	1514	1498	1483	1470	1468	1483	1507	1523	1521	1502	1476	1460	1467	1484	1485	1494	1503	1515	1519	1510	1510	1506	1499	1502	1500	1475	1461	1457	1472	1489	1493	1487	1473	1498	1494	1480	1480	1467	1463	1468	1478	1489	1477	1464	1456	0	0	0	0	0	0	0
0	0	1384	1384	1382	1383	1388	1393	1389	1389	1386	1369	1362	1377	1359	1371	1371	1389	1391	1387	1377	1363	1347	1347	1357	1366	1371	1369	1373	1364	1353	1353	1347	1357	1366	1377	1394	1400	1395	1395	1380	1380	1365	1361	1358	1364	1370	1365	1346	1333	1335	1344	1352	1353	1353	1349	1338	1344	1363	1365	1361	1354	1353	1363	1372	1373	1370	1362	1363	1366	1366	1358	1341	1339	1339	1341	1342	1342	1352	1360	1367	1377	1377	1368	1355	1359	1366	1370	1376	1375	1385	1396	1400	1403	1387	1381	1408	0	0	0	0	0	0	0	0	0	0	0	0	0	0	0	0	0	0	0	0	0	0	0	0	0	0	0	0	0	0	1539	1562	1588	1605	1623	1618	1616	1619	1646	0	0	0	0	0	0	0	0	0	0	1378	1381	1403	1404	1402	1389	1358	1347	1347	1347	1340	1329	1335	1333	1342	1359	1375	1387	1378	1364	1357	1373	1383	1391	1403	1403	1392	1385	1381	1374	1366	1363	1361	1368	1381	1389	1385	1385	1394	1386	1376	1364	1362	1368	1387	1408	1408	1393	1373	1361	1356	1358	1351	1348	1356	1373	1376	1379	1383	1384	1394	1400	1398	1393	1392	1400	1400	1381	1376	1379	1384	1384	1381	1378	1373	1372	1374	1378	1388	1404	1413	1409	1399	1392	1389	1393	1397	1401	1404	1402	1413	1418	1417	1416	1416	1408	1394	1385	1380	1370	1390	1403	1410	1401	1388	1384	1383	1385	1388	1389	1404	1397	1399	1399	1399	1394	1388	1380	1380	1388	1403	1413	1417	1416	1411	1405	1400	1399	1402	1398	1402	1409	1418	1424	1411	1396	1389	1396	1410	1424	1432	1429	1416	1410	1409	1411	1409	1409	1418	1428	1433	1426	1412	1394	1395	1397	1404	1425	1436	1436	1432	1431	1429	1430	1430	1428	1433	1431	1423	1425	1433	1429	1419	1417	1419	1425	1422	1420	1419	1430	1455	1464	1458	1430	1403	1424	1424	1422	1419	1417	1404	1414	1406	1398	1407	1428	1442	1447	1450	1448	1451	1455	1459	1450	1432	1428	1429	1436	1447	1451	1447	1441	1436	1429	1419	1426	1432	1433	1441	1443	1447	1441	1430	1425	1420	1419	1429	1444	1450	1459	1452	1440	1433	1443	1450	1443	1451	1444	1442	1437	1431	1426	1423	1428	1426	1425	1430	1435	1443	1445	1446	1445	1438	1450	1457	1471	1477	1475	1468	1462	1457	1460	1448	1442	1441	1456	1468	1463	1456	1447	1442	1450	1455	1460	1467	1465	1465	1473	1489	1488	1492	1492	1487	1473	1439	1440	1446	1465	1475	1480	1479	1471	1471	1467	1470	1471	1475	1477	1473	1472	1474	1479	1489	1491	1507	0	0	0	0	0	0	0	0	0	0	0	0	0	0	0	0	0	0	0	0	0	0	1600	1606	1607	1607	1585	1578	1568	1548	1545	1542	1545	1554	1556	1557	1565	1566	1558	1556	1559	1565	1569	1572	1568	1570	1575	1575	1576	1572	1545	1535	1580	0	0	0	0	0	0	0	0	0	0	0	0	0	0	0	0	1564	1529	1512	1498	1487	1498	1501	1508	1512	1512	1508	1516	1522	1513	1498	1484	1488	1491	1499	1515	1530	1543	1546	1537	1518	1512	1515	1526	1539	1544	1536	1511	1507	1511	1510	1507	1503	1500	1518	1514	1524	1536	1544	1531	1510	1502	1495	1502	1529	1548	1561	1554	1538	1526	1515	1526	1527	1528	1524	1512	1506	1502	1495	1497	1503	1507	1507	1504	1494	1501	1496	1487	1482	1488	1500	1516	1514	1506	1485	1459	1466	1476	1485	1482	1484	1502	1508	1506	1506	1502	1498	1503	1505	1496	1482	1478	1487	1497	1495	1489	1476	1498	1498	1490	1490	1484	1477	1478	1475	1477	1471	1457	1440	0	0	0	0	0	0	0
0	0	1365	1365	1375	1377	1390	1389	1385	1385	1378	1368	1357	1355	1363	1376	1376	1391	1392	1390	1390	1376	1352	1352	1358	1359	1362	1364	1376	1370	1351	1351	1351	1352	1371	1385	1397	1393	1389	1387	1385	1385	1378	1377	1370	1373	1375	1364	1345	1332	1338	1348	1359	1365	1365	1360	1347	1354	1365	1362	1357	1351	1355	1368	1374	1375	1367	1364	1362	1370	1366	1359	1347	1342	1346	1352	1357	1357	1358	1370	1379	1384	1378	1363	1353	1352	1361	1368	1369	1369	1390	1392	1390	1398	1403	1374	1421	0	0	0	0	0	0	0	0	0	0	0	0	0	0	0	0	0	0	0	0	0	0	0	0	0	0	0	0	0	0	1547	1570	1584	1599	1622	1622	1621	1662	0	0	0	0	0	0	0	0	0	0	0	0	1395	1395	1402	1400	1389	1356	1347	1347	1351	1347	1341	1336	1338	1339	1349	1367	1380	1382	1384	1388	1386	1388	1389	1393	1387	1383	1379	1378	1382	1383	1388	1373	1367	1364	1363	1358	1359	1375	1377	1372	1367	1371	1377	1389	1407	1396	1380	1363	1354	1349	1361	1364	1372	1386	1396	1406	1381	1384	1387	1390	1393	1391	1393	1398	1410	1404	1395	1380	1378	1383	1382	1377	1383	1390	1390	1381	1382	1390	1408	1409	1407	1401	1401	1401	1401	1405	1406	1408	1411	1413	1417	1411	1409	1404	1401	1396	1393	1390	1389	1398	1408	1404	1400	1388	1379	1384	1391	1408	1416	1411	1404	1401	1396	1395	1388	1382	1387	1392	1391	1401	1417	1414	1406	1398	1393	1391	1399	1403	1402	1406	1410	1416	1426	1417	1399	1387	1388	1403	1414	1421	1418	1416	1409	1405	1408	1418	1417	1418	1413	1425	1426	1424	1420	1424	1421	1425	1447	1448	1432	1435	1437	1434	1427	1426	1427	1430	1436	1436	1439	1441	1432	1421	1415	1412	1422	1425	1427	1429	1433	1449	1460	1429	1397	1384	1402	1408	1412	1416	1415	1407	1405	1412	1414	1419	1434	1448	1445	1444	1444	1447	1447	1457	1445	1430	1426	1423	1423	1430	1438	1442	1433	1426	1425	1425	1424	1430	1427	1431	1436	1437	1428	1431	1432	1432	1438	1449	1461	1460	1457	1449	1439	1438	1439	1438	1438	1442	1439	1440	1437	1437	1439	1436	1429	1421	1417	1425	1432	1436	1441	1440	1448	1448	1452	1457	1472	1478	1472	1455	1448	1453	1460	1461	1464	1463	1468	1461	1455	1458	1449	1443	1439	1447	1458	1479	1483	1472	1470	1483	1490	1483	1471	1457	1445	1434	1439	1468	1479	1475	1469	1463	1464	1468	1463	1458	1457	1464	1469	1465	1456	1460	1477	1483	1494	1514	1582	0	0	0	0	0	0	0	0	0	0	0	0	0	0	0	0	0	0	0	0	0	1607	1623	1620	1620	1561	1562	1564	1548	1546	1548	1552	1558	1561	1563	1564	1552	1549	1548	1551	1559	1559	1563	1563	1562	1566	1567	1571	1573	1553	1548	1594	0	0	0	0	0	0	0	0	0	0	0	0	0	0	0	0	1554	1535	1502	1492	1489	1508	1511	1514	1516	1504	1505	1519	1523	1509	1485	1474	1480	1497	1508	1517	1531	1537	1542	1532	1525	1513	1517	1529	1544	1549	1538	1513	1506	1510	1513	1503	1493	1487	1493	1496	1513	1528	1534	1522	1511	1504	1499	1500	1532	1556	1567	1552	1530	1521	1513	1516	1519	1529	1528	1529	1509	1497	1493	1494	1499	1498	1491	1485	1493	1509	1507	1503	1491	1490	1500	1500	1509	1500	1491	1486	1488	1489	1490	1489	1491	1498	1504	1504	1502	1502	1506	1503	1498	1496	1492	1493	1499	1499	1495	1487	1481	1501	1503	1494	1486	1486	1481	1474	1474	1466	1460	1444	1439	0	0	0	0	0	0	0
0	0	1346	1346	1349	1374	1383	1387	1385	1385	1372	1369	1364	1361	1371	1371	1378	1384	1384	1385	1387	1387	1378	1358	1349	1359	1364	1370	1375	1378	1372	1372	1366	1369	1382	1401	1403	1396	1384	1382	1391	1391	1406	1395	1384	1384	1374	1360	1343	1334	1340	1349	1359	1359	1357	1359	1358	1364	1366	1360	1351	1348	1364	1378	1387	1378	1370	1364	1364	1369	1367	1358	1347	1350	1356	1363	1363	1371	1366	1373	1378	1381	1372	1358	1355	1354	1361	1366	1366	1366	1377	1385	1372	1374	1379	1364	1414	0	0	0	0	0	0	0	0	0	0	0	0	0	0	0	0	0	0	0	0	0	0	0	0	0	0	0	0	0	0	1563	1577	1581	1595	1614	1608	1605	1647	0	0	0	0	0	0	0	0	0	0	0	0	1388	1371	1382	1383	1373	1360	1358	1351	1366	1365	1361	1351	1342	1338	1343	1362	1380	1384	1398	1402	1402	1388	1386	1381	1378	1377	1379	1383	1379	1380	1384	1373	1368	1356	1347	1354	1354	1371	1376	1380	1381	1378	1384	1397	1404	1384	1374	1370	1359	1361	1363	1375	1386	1396	1405	1405	1408	1387	1386	1383	1383	1382	1381	1388	1398	1396	1397	1400	1395	1385	1375	1370	1379	1400	1419	1409	1403	1394	1391	1395	1398	1395	1397	1398	1396	1399	1406	1406	1405	1401	1403	1406	1408	1408	1409	1407	1403	1400	1400	1399	1403	1402	1400	1392	1393	1395	1405	1417	1419	1414	1405	1394	1398	1395	1385	1382	1391	1390	1392	1403	1407	1404	1393	1387	1381	1387	1395	1406	1414	1410	1412	1412	1415	1411	1399	1389	1385	1393	1405	1412	1416	1419	1413	1407	1412	1419	1416	1411	1402	1413	1417	1422	1436	1442	1444	1449	1460	1449	1431	1432	1432	1436	1429	1426	1427	1434	1434	1435	1439	1445	1434	1420	1410	1413	1419	1426	1426	1434	1439	1454	1451	1438	1413	1394	1400	1409	1410	1412	1412	1416	1412	1407	1413	1425	1437	1438	1443	1441	1445	1443	1437	1433	1435	1428	1424	1419	1415	1415	1422	1428	1432	1428	1435	1435	1429	1427	1415	1414	1417	1419	1424	1429	1437	1446	1455	1465	1468	1461	1450	1439	1439	1440	1441	1435	1434	1431	1436	1436	1436	1441	1449	1447	1435	1423	1420	1430	1434	1438	1441	1442	1456	1463	1457	1459	1470	1469	1465	1456	1449	1451	1463	1472	1470	1465	1464	1459	1461	1463	1460	1443	1444	1447	1451	1454	1468	1472	1471	1478	1481	1476	1468	1451	1435	1428	1453	1478	1482	1469	1454	1457	1457	1462	1452	1446	1445	1446	1457	1460	1455	1449	1463	1468	1485	1496	0	0	0	0	0	0	0	0	0	0	0	0	0	0	0	0	0	0	0	0	0	0	1625	1628	1626	1604	1543	1550	1551	1547	1548	1552	1555	1568	1564	1562	1559	1554	1545	1542	1548	1551	1553	1557	1560	1560	1559	1564	1568	1567	1555	1564	1619	0	0	0	0	0	0	0	0	0	0	0	0	0	0	0	0	1541	1531	1506	1482	1491	1513	1516	1512	1508	1499	1511	1528	1525	1509	1493	1483	1488	1504	1514	1530	1535	1538	1528	1524	1522	1522	1522	1521	1534	1541	1532	1513	1508	1516	1518	1510	1495	1481	1480	1493	1506	1520	1526	1518	1503	1501	1499	1499	1528	1550	1560	1540	1520	1510	1513	1508	1512	1521	1525	1520	1503	1494	1489	1495	1496	1493	1484	1484	1503	1514	1516	1510	1497	1482	1489	1492	1499	1497	1499	1495	1501	1504	1504	1503	1499	1497	1493	1502	1504	1504	1518	1510	1497	1489	1490	1493	1504	1498	1497	1487	1477	1484	1490	1492	1479	1479	1477	1475	1468	1460	1461	1459	1445	0	0	0	0	0	0	0
0	0	1334	1334	1346	1357	1376	1381	1382	1382	1371	1375	1372	1370	1371	1371	1373	1378	1375	1379	1387	1384	1382	1382	1366	1369	1362	1370	1376	1388	1387	1387	1392	1392	1393	1406	1403	1394	1386	1380	1395	1395	1420	1404	1389	1374	1363	1357	1348	1345	1346	1347	1346	1346	1343	1348	1353	1354	1358	1355	1345	1351	1371	1381	1385	1381	1370	1360	1352	1354	1357	1354	1346	1352	1357	1369	1369	1375	1372	1370	1371	1369	1361	1356	1356	1357	1364	1370	1371	1367	1367	1373	1367	1374	1353	1351	1408	0	0	0	0	0	0	0	0	0	0	0	0	0	0	0	0	0	0	0	0	0	0	0	0	0	0	0	0	0	0	1584	1587	1588	1584	1599	1594	1591	1610	0	0	0	0	0	0	0	0	0	0	0	1377	1388	1354	1363	1374	1380	1380	1373	1379	1383	1374	1366	1360	1353	1354	1353	1358	1381	1390	1408	1427	1424	1403	1379	1368	1373	1384	1395	1387	1375	1377	1381	1387	1375	1359	1351	1356	1348	1346	1355	1368	1374	1381	1387	1393	1398	1374	1365	1371	1371	1368	1367	1369	1383	1396	1403	1411	1408	1384	1380	1373	1378	1377	1378	1377	1390	1389	1385	1393	1389	1383	1368	1366	1381	1400	1418	1416	1402	1393	1397	1399	1395	1394	1389	1395	1398	1402	1402	1404	1401	1397	1398	1403	1408	1413	1417	1412	1413	1409	1401	1399	1403	1404	1403	1408	1404	1413	1421	1428	1430	1426	1421	1416	1416	1414	1413	1405	1398	1392	1395	1401	1402	1399	1388	1383	1381	1390	1401	1413	1418	1420	1418	1406	1405	1397	1394	1390	1387	1386	1394	1403	1416	1421	1427	1417	1413	1406	1406	1405	1402	1404	1406	1417	1438	1446	1441	1444	1452	1442	1423	1425	1431	1433	1431	1429	1428	1431	1437	1430	1425	1424	1416	1416	1411	1413	1419	1422	1425	1432	1436	1435	1438	1432	1418	1403	1405	1410	1414	1414	1419	1419	1412	1406	1407	1419	1425	1431	1433	1441	1444	1435	1434	1432	1435	1433	1429	1422	1427	1425	1430	1432	1431	1424	1421	1418	1414	1405	1406	1411	1422	1422	1429	1434	1446	1452	1447	1451	1452	1451	1445	1435	1445	1450	1441	1434	1428	1422	1435	1436	1437	1439	1444	1444	1439	1436	1437	1447	1458	1464	1462	1468	1481	1467	1449	1445	1456	1467	1471	1469	1459	1450	1463	1467	1467	1463	1465	1471	1473	1475	1470	1456	1450	1448	1451	1449	1442	1436	1447	1452	1464	1480	1482	1483	1466	1451	1475	1480	1479	1462	1441	1426	1426	1424	1427	1429	1440	1452	1468	1469	1470	1465	1453	1461	1467	1488	0	0	0	0	0	0	0	0	0	0	0	0	0	0	0	0	0	0	0	0	0	0	1646	1638	1625	1605	1547	1548	1546	1549	1547	1549	1560	1568	1562	1557	1554	1551	1549	1544	1547	1545	1545	1548	1557	1562	1557	1564	1561	1565	1560	1585	1632	0	0	0	0	0	0	0	0	0	0	0	0	0	0	0	0	1516	1519	1493	1477	1497	1515	1520	1517	1509	1507	1521	1529	1520	1505	1495	1495	1500	1512	1522	1536	1539	1542	1526	1519	1518	1518	1516	1515	1519	1520	1524	1519	1521	1523	1533	1527	1503	1490	1490	1498	1510	1523	1523	1514	1506	1503	1501	1506	1516	1533	1539	1531	1512	1508	1511	1520	1517	1512	1510	1506	1516	1508	1507	1510	1507	1502	1492	1494	1507	1515	1516	1507	1493	1478	1476	1488	1487	1493	1497	1507	1514	1522	1526	1519	1505	1495	1494	1497	1503	1503	1508	1503	1488	1478	1478	1484	1502	1506	1504	1485	1477	1482	1482	1472	1465	1465	1468	1472	1461	1460	1473	1477	1477	0	0	0	0	0	0	0
0	0	1315	1315	1334	1351	1370	1379	1374	1374	1375	1376	1376	1381	1381	1381	1369	1368	1377	1382	1383	1382	1382	1379	1375	1370	1359	1368	1381	1388	1398	1398	1401	1400	1397	1406	1406	1398	1389	1385	1385	1398	1419	1398	1373	1351	1346	1354	1351	1352	1351	1346	1342	1342	1339	1337	1346	1350	1352	1350	1351	1360	1372	1377	1380	1376	1365	1351	1348	1347	1348	1352	1353	1351	1361	1361	1368	1373	1370	1369	1372	1366	1367	1367	1365	1366	1370	1369	1370	1368	1376	1390	1387	1364	1350	1356	1404	0	0	0	0	0	0	0	0	0	0	0	0	0	0	0	0	0	0	0	0	0	0	0	0	0	0	0	0	0	0	1605	1603	1594	1584	1591	1586	1578	1581	0	0	0	0	0	0	0	0	0	0	0	1397	1382	1350	1371	1384	1394	1390	1387	1380	1372	1372	1364	1364	1362	1365	1368	1375	1382	1397	1416	1421	1423	1406	1382	1371	1378	1391	1397	1386	1383	1382	1388	1398	1397	1386	1382	1368	1362	1343	1342	1343	1365	1377	1381	1382	1392	1372	1362	1366	1373	1375	1372	1373	1379	1388	1383	1388	1386	1386	1377	1371	1371	1374	1380	1398	1409	1398	1388	1379	1369	1371	1375	1385	1399	1412	1408	1394	1374	1377	1398	1410	1415	1407	1395	1391	1395	1399	1404	1408	1409	1397	1389	1391	1396	1401	1399	1406	1418	1418	1395	1387	1403	1407	1405	1407	1407	1412	1423	1430	1430	1428	1426	1422	1418	1417	1414	1405	1399	1394	1394	1395	1396	1394	1393	1391	1396	1405	1409	1414	1417	1423	1419	1411	1404	1393	1392	1393	1389	1400	1407	1417	1422	1428	1420	1411	1407	1408	1411	1416	1409	1410	1400	1402	1431	1444	1437	1431	1434	1427	1421	1421	1422	1428	1429	1429	1434	1434	1433	1423	1415	1415	1419	1418	1415	1418	1428	1425	1423	1418	1428	1428	1424	1422	1414	1407	1405	1410	1417	1420	1421	1422	1416	1412	1413	1417	1424	1426	1430	1436	1437	1431	1430	1426	1428	1432	1430	1435	1436	1438	1437	1437	1426	1418	1415	1418	1412	1411	1413	1419	1428	1435	1443	1447	1449	1446	1438	1436	1440	1441	1439	1443	1448	1450	1445	1439	1431	1425	1435	1440	1438	1436	1437	1440	1446	1445	1443	1452	1464	1468	1472	1475	1477	1460	1438	1434	1452	1455	1461	1462	1455	1452	1456	1463	1468	1467	1474	1480	1485	1478	1469	1459	1460	1459	1462	1457	1448	1442	1448	1455	1457	1464	1460	1474	1460	1452	1490	1490	1488	1464	1448	1432	1427	1425	1428	1430	1444	1457	1475	1477	1481	1472	1461	1454	1461	1499	0	0	0	0	0	0	0	0	0	0	0	0	0	0	0	0	0	0	0	0	0	0	1636	1634	1619	1599	1561	1573	1564	1550	1547	1547	1559	1569	1557	1550	1549	1552	1555	1554	1545	1541	1544	1561	1569	1563	1557	1556	1563	1565	1567	1582	1625	0	0	0	0	0	0	0	0	0	0	0	0	0	0	0	0	1504	1502	1477	1478	1505	1524	1526	1521	1510	1503	1514	1529	1514	1503	1499	1505	1510	1515	1520	1534	1541	1541	1527	1513	1509	1505	1510	1507	1505	1498	1509	1519	1532	1541	1547	1537	1519	1506	1498	1503	1510	1515	1516	1513	1506	1504	1500	1499	1505	1513	1521	1528	1521	1514	1516	1516	1514	1506	1493	1505	1519	1524	1527	1529	1527	1521	1514	1513	1515	1519	1520	1512	1506	1498	1482	1473	1482	1487	1496	1505	1519	1527	1533	1525	1505	1492	1489	1496	1494	1494	1496	1487	1479	1469	1467	1471	1502	1516	1518	1507	1478	1479	1477	1470	1463	1463	1467	1473	1474	1479	1489	1499	1504	0	0	0	0	0	0	0
0	0	1312	1312	1333	1351	1369	1383	1379	1379	1379	1377	1379	1375	1374	1374	1367	1362	1369	1382	1384	1379	1379	1377	1374	1365	1358	1363	1373	1382	1393	1393	1393	1392	1394	1396	1401	1396	1391	1394	1394	1412	1416	1386	1352	1334	1334	1347	1352	1352	1353	1346	1340	1340	1339	1340	1343	1343	1346	1350	1366	1370	1371	1376	1374	1369	1357	1348	1337	1339	1348	1353	1358	1364	1365	1365	1366	1364	1359	1364	1370	1371	1376	1378	1380	1380	1379	1378	1374	1368	1379	1385	1379	1368	1363	1364	1407	0	0	0	0	0	0	0	0	0	0	0	0	0	0	0	0	0	0	0	0	0	0	0	0	0	0	0	0	0	0	1606	1617	1592	1585	1590	1582	1581	1575	1578	0	0	0	0	0	0	0	0	0	0	0	1382	1359	1390	1401	1404	1394	1388	1384	1381	1374	1366	1364	1368	1371	1382	1388	1392	1394	1407	1411	1407	1389	1379	1376	1380	1389	1388	1383	1382	1387	1401	1401	1400	1393	1381	1375	1366	1355	1352	1352	1353	1368	1379	1385	1395	1387	1378	1374	1379	1379	1377	1380	1385	1390	1398	1397	1393	1390	1387	1381	1378	1383	1390	1410	1420	1414	1404	1383	1381	1381	1383	1388	1399	1405	1398	1388	1370	1365	1381	1398	1409	1401	1392	1390	1390	1397	1405	1412	1410	1401	1389	1394	1382	1376	1390	1400	1406	1409	1397	1391	1394	1392	1402	1405	1413	1414	1420	1422	1426	1426	1426	1420	1414	1410	1407	1409	1400	1395	1388	1388	1385	1392	1396	1397	1401	1408	1413	1418	1419	1421	1414	1408	1406	1404	1401	1421	1414	1416	1425	1426	1428	1424	1418	1413	1410	1419	1425	1427	1424	1419	1407	1407	1419	1440	1435	1429	1434	1425	1423	1414	1414	1420	1428	1432	1437	1437	1430	1418	1409	1411	1414	1417	1416	1423	1432	1430	1424	1422	1422	1420	1416	1406	1399	1399	1403	1411	1426	1428	1425	1419	1411	1414	1422	1422	1425	1422	1415	1419	1421	1418	1419	1413	1411	1422	1435	1434	1444	1442	1438	1433	1425	1419	1421	1417	1411	1410	1413	1429	1440	1447	1452	1452	1451	1436	1437	1438	1440	1438	1434	1436	1436	1447	1452	1450	1442	1440	1440	1448	1447	1435	1437	1444	1450	1451	1454	1460	1471	1473	1473	1475	1474	1455	1445	1437	1442	1455	1455	1456	1452	1453	1456	1462	1465	1470	1472	1477	1483	1479	1474	1470	1468	1473	1475	1463	1455	1448	1447	1462	1465	1467	1455	1437	1423	1441	1483	1486	1483	1469	1448	1430	1427	1434	1442	1447	1453	1459	1471	1477	1487	1480	1465	1448	1459	1484	0	0	0	0	0	0	0	0	0	0	0	0	0	0	0	0	0	0	0	0	0	0	1615	1615	1613	1602	1575	1581	1583	1575	1559	1557	1558	1562	1558	1549	1548	1553	1559	1562	1559	1553	1561	1578	1586	1580	1567	1560	1569	1567	1562	1560	1597	0	0	0	0	0	0	0	0	0	0	0	0	0	0	0	0	1488	1490	1485	1492	1530	1544	1532	1532	1516	1494	1500	1513	1502	1493	1496	1504	1511	1513	1516	1531	1532	1527	1517	1511	1506	1503	1509	1508	1500	1488	1484	1527	1544	1552	1551	1528	1515	1506	1499	1499	1499	1506	1504	1504	1503	1498	1495	1499	1499	1506	1518	1521	1525	1516	1518	1518	1514	1502	1494	1494	1511	1525	1527	1538	1535	1539	1537	1538	1534	1530	1524	1522	1520	1514	1492	1483	1487	1495	1499	1502	1511	1526	1537	1529	1512	1497	1496	1494	1495	1489	1489	1487	1476	1468	1460	1464	1498	1525	1525	1513	1471	1473	1467	1464	1459	1459	1462	1475	1487	1497	1514	1513	1509	0	0	0	0	0	0	0
0	0	0	1329	1341	1356	1368	1384	1384	1387	1385	1383	1382	1380	1371	1371	1368	1366	1375	1382	1378	1382	1382	1383	1378	1370	1366	1369	1369	1377	1377	1381	1378	1381	1384	1390	1388	1385	1389	1397	1397	1412	1403	1377	1349	1332	1336	1347	1347	1347	1349	1341	1340	1340	1341	1346	1350	1349	1347	1353	1372	1376	1368	1364	1363	1359	1348	1349	1351	1358	1357	1359	1363	1365	1365	1365	1362	1357	1359	1369	1377	1379	1381	1383	1389	1391	1385	1380	1372	1373	1376	1383	1372	1365	1362	1372	1416	0	0	0	0	0	0	0	0	0	0	0	0	0	0	0	0	0	0	0	0	0	0	0	0	0	0	0	0	0	0	1606	1623	1600	1593	1592	1589	1589	1591	1594	0	0	0	0	0	0	0	0	0	0	0	1371	1377	1405	1415	1416	1402	1396	1397	1391	1378	1364	1361	1367	1375	1384	1390	1394	1393	1392	1385	1379	1379	1371	1368	1362	1365	1365	1365	1371	1384	1400	1405	1401	1400	1387	1383	1377	1371	1362	1358	1355	1356	1374	1398	1409	1409	1400	1392	1387	1384	1378	1374	1384	1395	1406	1405	1401	1396	1394	1386	1389	1387	1394	1403	1412	1420	1408	1398	1385	1387	1391	1399	1397	1392	1390	1385	1372	1366	1377	1396	1401	1399	1393	1390	1388	1398	1405	1412	1408	1404	1402	1401	1396	1391	1389	1397	1405	1403	1396	1390	1387	1384	1394	1400	1401	1411	1406	1410	1412	1419	1416	1415	1410	1403	1405	1405	1405	1401	1393	1380	1380	1393	1400	1404	1406	1415	1418	1419	1415	1413	1408	1409	1410	1425	1404	1430	1424	1431	1431	1430	1429	1422	1417	1414	1416	1421	1428	1429	1427	1421	1417	1412	1416	1425	1432	1425	1441	1436	1420	1407	1408	1415	1425	1431	1437	1437	1432	1421	1416	1413	1413	1411	1417	1431	1444	1443	1433	1425	1429	1429	1413	1396	1396	1383	1391	1417	1431	1442	1431	1420	1410	1413	1420	1430	1431	1423	1417	1417	1416	1416	1410	1410	1412	1427	1431	1439	1438	1441	1438	1432	1428	1427	1425	1421	1415	1409	1421	1435	1447	1455	1456	1455	1447	1438	1444	1443	1439	1440	1436	1433	1435	1443	1451	1454	1452	1452	1453	1460	1453	1441	1441	1445	1455	1460	1460	1467	1467	1466	1468	1466	1464	1459	1452	1447	1463	1465	1465	1465	1464	1462	1462	1460	1455	1471	1474	1470	1466	1461	1468	1476	1476	1473	1471	1467	1463	1460	1469	1470	1485	1480	1465	1441	1429	1422	1466	1485	1485	1469	1443	1431	1432	1445	1452	1463	1455	1453	1460	1476	1483	1480	1471	1445	1458	0	0	0	0	0	0	0	0	0	0	0	0	0	0	0	0	0	0	0	0	0	0	0	1587	1600	1598	1602	1571	1574	1579	1579	1567	1562	1567	1569	1546	1530	1528	1574	1593	1592	1590	1583	1588	1604	1610	1604	1589	1585	1577	1548	1543	1559	1568	0	0	0	0	0	0	0	0	0	0	0	0	0	0	0	0	1499	1499	1509	1506	1541	1562	1552	1546	1528	1501	1491	1507	1487	1482	1488	1503	1516	1523	1521	1520	1524	1518	1513	1506	1502	1500	1502	1501	1497	1484	1481	1519	1538	1544	1534	1513	1498	1496	1491	1489	1481	1484	1488	1495	1499	1501	1504	1502	1506	1516	1525	1528	1527	1524	1518	1516	1512	1504	1493	1499	1505	1520	1529	1530	1546	1546	1544	1546	1539	1534	1530	1531	1530	1528	1516	1508	1511	1507	1508	1506	1512	1520	1532	1531	1514	1506	1500	1499	1496	1492	1492	1489	1477	1465	1463	1466	1495	1520	1527	1521	1475	1456	1458	1451	1452	1452	1461	1468	1483	1498	1505	1505	1496	0	0	0	0	0	0	0
0	0	0	1356	1359	1368	1367	1377	1377	1388	1389	1390	1394	1387	1371	1371	1366	1369	1374	1383	1382	1387	1387	1389	1384	1378	1373	1378	1382	1374	1374	1370	1365	1371	1383	1387	1386	1382	1385	1386	1386	1398	1393	1367	1357	1347	1351	1347	1345	1344	1339	1333	1334	1334	1340	1353	1363	1359	1356	1367	1372	1373	1366	1360	1351	1348	1348	1349	1356	1364	1367	1370	1369	1371	1371	1366	1359	1357	1367	1378	1389	1385	1382	1386	1386	1391	1384	1378	1371	1373	1384	1391	1380	1370	1372	1372	1413	0	0	0	0	0	0	0	0	0	0	0	0	0	0	0	0	0	0	0	0	0	0	0	0	0	0	0	0	0	0	1601	1621	1598	1597	1602	1602	1598	1610	1612	0	0	0	0	0	0	0	0	0	0	0	1368	1391	1414	1431	1420	1412	1407	1403	1395	1379	1361	1357	1366	1376	1375	1380	1397	1397	1388	1376	1365	1368	1371	1368	1375	1376	1370	1363	1364	1377	1396	1402	1402	1400	1394	1392	1389	1382	1374	1365	1356	1362	1379	1403	1417	1428	1422	1412	1407	1389	1374	1372	1376	1391	1400	1407	1403	1399	1397	1393	1386	1389	1392	1401	1405	1405	1408	1401	1400	1401	1407	1409	1394	1390	1387	1383	1376	1365	1378	1389	1398	1400	1395	1390	1389	1399	1409	1412	1407	1404	1406	1407	1407	1402	1400	1405	1406	1403	1395	1388	1384	1388	1396	1398	1396	1397	1396	1400	1405	1413	1407	1407	1406	1404	1404	1403	1410	1406	1400	1397	1393	1402	1409	1417	1419	1421	1423	1423	1419	1417	1419	1418	1422	1423	1432	1431	1430	1433	1438	1433	1427	1421	1418	1419	1419	1423	1424	1425	1425	1421	1419	1418	1417	1415	1422	1424	1443	1434	1415	1409	1412	1419	1425	1424	1425	1433	1431	1433	1429	1420	1412	1412	1421	1439	1454	1452	1443	1437	1436	1433	1423	1407	1397	1387	1393	1413	1440	1444	1436	1421	1408	1413	1422	1429	1429	1424	1404	1415	1421	1427	1424	1422	1427	1429	1437	1438	1438	1438	1434	1432	1434	1432	1432	1425	1415	1412	1426	1441	1450	1456	1452	1444	1444	1448	1449	1450	1450	1437	1438	1433	1431	1435	1449	1457	1462	1461	1465	1459	1452	1444	1443	1448	1461	1466	1468	1464	1462	1462	1460	1460	1457	1453	1461	1458	1473	1479	1476	1474	1474	1467	1466	1464	1457	1467	1469	1467	1461	1467	1470	1475	1478	1474	1462	1463	1466	1470	1480	1496	1502	1496	1487	1474	1457	1440	1441	1482	1492	1477	1450	1437	1441	1456	1465	1471	1458	1449	1441	1450	1463	1474	1467	1448	1458	0	0	0	0	0	0	0	0	0	0	0	0	0	0	0	0	0	0	0	0	0	0	0	1564	1584	1592	1596	1569	1562	1568	1567	1555	1543	1539	1538	1539	1534	1536	1560	1578	1586	1585	1568	1558	1580	1611	1606	1598	1577	1564	1564	1559	1557	1565	0	0	0	0	0	0	0	0	0	0	0	0	0	0	0	0	1518	1525	1540	1541	1545	1559	1557	1557	1544	1522	1509	1505	1497	1482	1489	1507	1522	1527	1526	1522	1523	1513	1507	1502	1496	1491	1498	1496	1493	1485	1482	1504	1523	1532	1517	1499	1482	1482	1481	1476	1466	1472	1474	1484	1494	1502	1514	1514	1516	1520	1528	1535	1535	1525	1520	1520	1519	1510	1501	1498	1500	1508	1519	1529	1541	1550	1541	1538	1538	1536	1531	1530	1533	1524	1515	1514	1519	1514	1510	1499	1498	1518	1521	1513	1504	1504	1504	1503	1497	1494	1494	1491	1485	1466	1472	1475	1497	1519	1523	1521	1474	1452	1449	1452	1450	1458	1458	1466	1474	1482	1488	1486	1488	0	0	0	0	0	0	0
0	0	0	1394	1387	1376	1378	1374	1374	1379	1379	1391	1398	1389	1379	1379	1376	1382	1384	1386	1380	1386	1386	1393	1390	1385	1386	1384	1384	1371	1371	1356	1355	1366	1384	1390	1392	1383	1379	1385	1385	1384	1381	1372	1371	1381	1370	1355	1346	1339	1339	1332	1332	1331	1339	1358	1373	1375	1369	1368	1369	1364	1356	1345	1343	1347	1359	1355	1361	1362	1372	1379	1375	1373	1373	1361	1359	1361	1377	1392	1394	1384	1378	1374	1377	1374	1372	1367	1362	1367	1373	1390	1392	1381	1367	1381	1383	0	0	0	0	0	0	0	0	0	0	0	0	0	0	0	0	0	0	0	0	0	0	0	0	0	0	0	0	0	0	1607	1625	1607	1606	1622	1623	1623	1627	1627	0	0	0	0	0	0	0	0	0	0	0	1386	1391	1412	1415	1400	1406	1413	1411	1400	1382	1362	1363	1359	1368	1374	1371	1397	1404	1396	1382	1371	1372	1375	1382	1388	1386	1380	1366	1368	1380	1393	1384	1383	1392	1384	1389	1393	1386	1372	1361	1362	1374	1392	1408	1428	1432	1431	1431	1420	1396	1376	1369	1373	1381	1391	1395	1399	1401	1400	1401	1388	1387	1394	1400	1402	1398	1398	1397	1399	1411	1415	1416	1404	1390	1387	1384	1380	1377	1384	1392	1404	1404	1400	1395	1395	1403	1410	1406	1407	1403	1412	1416	1411	1403	1401	1403	1408	1402	1389	1381	1380	1395	1403	1402	1395	1394	1394	1399	1403	1408	1405	1399	1403	1407	1410	1413	1416	1414	1415	1410	1404	1411	1417	1425	1424	1424	1424	1424	1423	1425	1436	1440	1443	1444	1442	1440	1437	1431	1436	1431	1422	1414	1410	1417	1423	1422	1422	1426	1427	1432	1428	1415	1414	1407	1416	1426	1443	1428	1422	1416	1420	1429	1426	1419	1417	1425	1431	1442	1438	1426	1412	1415	1424	1444	1458	1451	1437	1435	1433	1436	1422	1409	1405	1393	1406	1421	1436	1444	1437	1413	1407	1410	1418	1427	1430	1426	1424	1413	1431	1437	1445	1444	1440	1442	1438	1445	1440	1436	1435	1434	1435	1433	1435	1432	1423	1427	1429	1447	1443	1449	1444	1438	1445	1450	1462	1467	1457	1441	1440	1433	1424	1428	1441	1456	1465	1459	1452	1454	1446	1446	1441	1449	1460	1472	1466	1458	1450	1454	1454	1453	1454	1450	1459	1460	1466	1475	1482	1478	1474	1475	1469	1461	1452	1462	1466	1471	1466	1470	1468	1470	1475	1466	1463	1463	1467	1472	1482	1487	1492	1496	1486	1484	1473	1463	1452	1472	1478	1466	1456	1456	1458	1473	1481	1472	1454	1445	1442	1452	1464	1468	1459	1456	1452	1465	0	0	0	0	0	0	0	0	0	0	0	0	0	0	0	0	0	0	0	0	0	0	1573	1579	1593	1606	1570	1554	1556	1566	1554	1544	1539	1542	1535	1528	1523	1555	1576	1583	1573	1553	1556	1590	1622	1620	1595	1574	1548	1551	1560	1557	1560	0	0	0	0	0	0	0	0	0	0	0	0	0	0	0	0	0	1538	1553	1557	1549	1556	1555	1552	1548	1537	1540	1524	1514	1500	1496	1499	1518	1527	1527	1522	1520	1511	1503	1494	1490	1490	1497	1495	1490	1491	1487	1494	1506	1509	1502	1486	1475	1478	1478	1469	1461	1459	1461	1475	1493	1516	1522	1520	1526	1528	1539	1536	1530	1526	1524	1523	1519	1511	1500	1497	1497	1507	1511	1523	1538	1544	1536	1529	1532	1539	1541	1532	1527	1511	1505	1502	1506	1499	1482	1482	1481	1494	1502	1494	1494	1501	1505	1503	1507	1507	1507	1496	1485	1471	1475	1482	1499	1509	1517	1510	1454	1445	1448	1450	1456	1462	1462	1468	1473	1472	1467	1477	1477	0	0	0	0	0	0	0
0	0	0	1405	1398	1385	1373	1375	1375	1373	1381	1392	1400	1398	1383	1383	1381	1388	1395	1392	1384	1385	1385	1386	1392	1393	1391	1393	1404	1391	1391	1366	1353	1363	1375	1389	1393	1388	1379	1376	1376	1365	1367	1376	1391	1392	1361	1353	1350	1340	1337	1327	1327	1336	1344	1356	1371	1378	1372	1369	1363	1355	1344	1334	1340	1351	1363	1366	1368	1366	1373	1376	1379	1366	1366	1359	1359	1366	1383	1394	1389	1384	1365	1366	1363	1366	1366	1357	1354	1360	1369	1382	1381	1374	1376	1354	1336	0	0	0	0	0	0	0	0	0	0	0	0	0	0	0	0	0	0	0	0	0	0	0	0	0	0	0	0	0	0	1614	1627	1630	1620	1637	1640	1637	1630	1621	0	0	0	0	0	0	0	0	0	0	1412	1405	1393	1397	1393	1386	1399	1406	1411	1406	1396	1373	1369	1367	1370	1373	1381	1396	1401	1399	1391	1383	1381	1386	1398	1400	1394	1381	1377	1368	1382	1380	1374	1366	1374	1382	1385	1391	1391	1386	1375	1380	1387	1392	1404	1422	1428	1430	1431	1420	1400	1380	1380	1380	1380	1386	1384	1389	1407	1410	1401	1391	1383	1388	1391	1397	1391	1391	1393	1397	1404	1411	1415	1411	1400	1394	1393	1394	1393	1399	1406	1419	1418	1407	1402	1402	1408	1412	1405	1406	1411	1411	1409	1400	1394	1393	1400	1401	1394	1385	1376	1380	1395	1408	1418	1411	1404	1402	1404	1405	1397	1402	1402	1401	1411	1420	1422	1425	1423	1418	1420	1415	1410	1410	1418	1421	1422	1422	1423	1426	1442	1449	1454	1446	1450	1444	1443	1438	1431	1427	1429	1418	1414	1416	1420	1424	1425	1427	1426	1428	1430	1431	1422	1426	1413	1415	1433	1433	1426	1425	1434	1433	1437	1429	1412	1413	1427	1435	1445	1443	1434	1425	1422	1429	1446	1455	1444	1434	1431	1428	1428	1414	1407	1408	1410	1423	1434	1438	1425	1416	1412	1409	1414	1420	1426	1431	1431	1429	1433	1438	1451	1457	1459	1455	1447	1439	1441	1443	1438	1433	1435	1431	1429	1437	1437	1432	1434	1438	1442	1446	1446	1448	1442	1454	1458	1470	1472	1463	1451	1442	1429	1420	1419	1426	1438	1457	1449	1443	1444	1434	1437	1443	1451	1460	1463	1458	1449	1447	1453	1454	1456	1452	1451	1460	1454	1454	1466	1468	1471	1468	1473	1464	1459	1449	1461	1468	1471	1471	1472	1472	1476	1472	1466	1466	1467	1472	1475	1476	1487	1493	1495	1491	1485	1484	1475	1466	1459	1454	1453	1456	1457	1450	1458	1457	1464	1449	1433	1441	1458	1467	1471	1466	1459	1457	1490	0	0	0	0	0	0	0	0	0	0	0	0	0	0	0	0	0	0	0	0	0	0	1587	1592	1600	1604	1570	1557	1560	1561	1554	1540	1538	1540	1541	1516	1512	1533	1564	1575	1573	1555	1561	1594	1636	1627	1594	1565	1536	1541	1550	1555	1555	0	0	0	0	0	0	0	0	0	0	0	0	0	0	0	0	0	1545	1550	1526	1536	1536	1536	1529	1541	1534	1545	1536	1532	1523	1507	1500	1500	1508	1510	1510	1509	1503	1494	1488	1488	1497	1505	1501	1510	1519	1512	1504	1515	1517	1515	1511	1519	1526	1501	1487	1473	1467	1464	1478	1499	1523	1529	1535	1541	1545	1543	1534	1526	1526	1523	1523	1522	1511	1500	1495	1501	1505	1516	1529	1540	1528	1521	1513	1521	1546	1547	1541	1526	1506	1495	1488	1493	1483	1474	1469	1472	1487	1488	1492	1498	1506	1511	1515	1520	1517	1517	1509	1503	1491	1486	1482	1484	1491	1498	1498	1467	1455	1452	1454	1461	1473	1473	1486	1479	1467	1468	1469	1466	0	0	0	0	0	0	0
0	0	0	1412	1408	1385	1377	1373	1373	1379	1389	1401	1403	1394	1386	1386	1376	1394	1411	1417	1395	1380	1380	1380	1385	1388	1385	1391	1400	1387	1387	1375	1361	1360	1378	1385	1390	1390	1379	1370	1370	1351	1360	1360	1378	1353	1349	1355	1351	1330	1323	1325	1325	1335	1340	1345	1360	1367	1371	1369	1365	1359	1349	1343	1347	1364	1371	1369	1369	1367	1370	1374	1377	1361	1361	1349	1352	1358	1363	1369	1378	1370	1358	1355	1357	1358	1361	1356	1354	1355	1368	1380	1370	1369	1372	1344	1322	1306	0	0	0	0	0	0	0	0	0	0	0	0	0	0	0	0	0	0	0	0	0	0	0	0	0	0	0	0	0	1632	1654	1640	1626	1633	1643	1643	1637	1603	0	0	0	0	0	0	0	0	0	0	1391	1379	1396	1394	1387	1383	1389	1394	1401	1404	1396	1387	1379	1382	1384	1379	1376	1389	1395	1394	1385	1383	1388	1390	1395	1396	1391	1378	1371	1369	1364	1373	1364	1358	1358	1372	1375	1384	1394	1398	1398	1397	1395	1397	1398	1414	1421	1426	1426	1421	1395	1389	1384	1393	1397	1399	1398	1405	1413	1420	1405	1394	1383	1387	1388	1390	1391	1394	1395	1396	1393	1395	1411	1420	1411	1406	1407	1401	1407	1414	1428	1434	1430	1416	1405	1405	1413	1414	1412	1402	1405	1402	1400	1393	1389	1389	1397	1399	1394	1382	1378	1386	1398	1417	1426	1427	1415	1411	1408	1405	1405	1403	1405	1411	1420	1430	1431	1426	1421	1424	1423	1425	1405	1394	1401	1405	1412	1416	1419	1424	1438	1450	1455	1454	1446	1450	1443	1437	1434	1425	1415	1416	1416	1421	1422	1425	1428	1427	1424	1423	1425	1430	1434	1443	1444	1440	1435	1427	1422	1425	1435	1441	1440	1434	1427	1423	1441	1447	1451	1446	1442	1437	1436	1439	1445	1443	1436	1431	1427	1425	1416	1406	1406	1415	1430	1439	1444	1443	1430	1420	1418	1421	1427	1430	1430	1434	1432	1436	1444	1449	1452	1459	1462	1455	1443	1441	1438	1443	1440	1435	1432	1427	1427	1434	1442	1436	1440	1435	1435	1434	1439	1448	1448	1458	1467	1468	1468	1459	1447	1439	1432	1427	1421	1423	1429	1432	1433	1442	1428	1429	1435	1444	1451	1455	1458	1451	1449	1451	1457	1465	1463	1454	1451	1451	1457	1449	1452	1457	1464	1466	1465	1458	1453	1454	1461	1467	1467	1464	1467	1470	1475	1472	1463	1460	1467	1467	1472	1477	1490	1492	1488	1491	1485	1478	1470	1458	1447	1446	1448	1448	1456	1457	1459	1453	1444	1440	1438	1434	1448	1465	1466	1463	1462	1466	0	0	0	0	0	0	0	0	0	0	0	0	0	0	0	0	0	0	0	0	0	0	0	1600	1597	1602	1588	1551	1565	1555	1559	1552	1544	1536	1538	1543	1512	1506	1520	1552	1564	1563	1564	1568	1599	1636	1629	1600	1548	1525	1520	1540	1553	1551	0	0	0	0	0	0	0	0	0	0	0	0	0	0	0	0	1543	1537	1520	1509	1522	1531	1523	1523	1532	1523	1519	1534	1540	1540	1530	1503	1496	1497	1503	1504	1504	1502	1498	1485	1495	1505	1523	1537	1547	1550	1524	1508	1515	1511	1518	1526	1538	1544	1524	1513	1496	1489	1485	1493	1520	1531	1544	1546	1556	1557	1551	1536	1528	1531	1529	1523	1520	1512	1510	1507	1511	1517	1520	1524	1531	1525	1512	1508	1517	1536	1543	1536	1525	1508	1507	1509	1496	1484	1471	1476	1482	1492	1496	1506	1520	1530	1527	1524	1522	1532	1523	1523	1525	1517	1500	1493	1476	1477	1480	1496	1479	1461	1458	1459	1467	1485	1485	1494	1486	1470	1466	1471	1474	0	0	0	0	0	0	0
0	0	0	1426	1414	1388	1374	1375	1375	1382	1392	1398	1390	1389	1389	1382	1385	1395	1408	1421	1409	1388	1388	1383	1381	1386	1387	1396	1392	1388	1388	1370	1369	1369	1391	1387	1389	1387	1378	1366	1366	1357	1362	1360	1354	1349	1349	1351	1353	1334	1324	1325	1325	1327	1341	1343	1352	1360	1366	1371	1373	1368	1367	1368	1366	1370	1372	1369	1366	1358	1365	1372	1368	1368	1357	1355	1349	1350	1356	1361	1360	1364	1355	1352	1352	1356	1360	1361	1359	1360	1376	1375	1376	1367	1366	1361	1341	1316	0	0	0	0	0	0	0	0	0	0	0	0	0	0	0	0	0	0	0	0	0	0	0	0	0	0	0	0	0	0	0	1688	1616	1628	1641	1643	1636	1612	0	0	0	0	0	0	0	0	0	0	1375	1374	1401	1401	1387	1378	1375	1383	1385	1388	1394	1394	1393	1392	1391	1380	1378	1386	1385	1380	1379	1379	1383	1386	1383	1383	1386	1376	1374	1369	1361	1371	1370	1370	1375	1379	1369	1376	1384	1404	1409	1401	1398	1394	1392	1409	1422	1425	1423	1404	1393	1384	1389	1402	1411	1418	1413	1410	1416	1417	1401	1391	1389	1385	1382	1383	1389	1396	1401	1399	1393	1389	1402	1420	1417	1416	1412	1410	1408	1414	1432	1443	1440	1423	1406	1404	1407	1409	1405	1403	1402	1396	1392	1386	1384	1389	1393	1396	1396	1392	1390	1401	1409	1425	1421	1424	1426	1414	1406	1404	1405	1407	1409	1418	1424	1433	1434	1416	1417	1421	1427	1431	1410	1396	1393	1402	1406	1411	1416	1422	1437	1445	1446	1446	1447	1441	1442	1436	1425	1413	1418	1424	1427	1430	1426	1426	1430	1426	1426	1424	1426	1431	1429	1450	1463	1457	1433	1419	1417	1417	1423	1437	1433	1434	1429	1433	1443	1450	1448	1444	1447	1445	1446	1441	1440	1432	1428	1421	1420	1417	1411	1408	1410	1419	1436	1458	1458	1453	1437	1426	1426	1433	1438	1439	1438	1436	1438	1448	1457	1461	1448	1448	1451	1444	1442	1438	1444	1444	1439	1438	1433	1424	1425	1433	1433	1439	1437	1437	1438	1430	1434	1445	1448	1458	1462	1462	1454	1444	1433	1436	1438	1437	1428	1421	1428	1432	1437	1439	1426	1432	1445	1459	1465	1460	1455	1452	1452	1474	1477	1476	1471	1463	1453	1450	1447	1450	1443	1448	1463	1464	1461	1456	1449	1455	1458	1461	1457	1456	1462	1468	1473	1471	1459	1452	1455	1464	1477	1488	1497	1490	1482	1470	1465	1464	1459	1454	1445	1447	1447	1452	1458	1459	1457	1450	1447	1446	1442	1443	1443	1450	1457	1462	1462	1487	0	0	0	0	0	0	0	0	0	0	0	0	0	0	0	0	0	0	0	0	0	0	0	1612	1604	1584	1558	1537	1555	1556	1548	1555	1535	1544	1547	1542	1498	1504	1508	1526	1543	1556	1559	1567	1578	1584	1593	1581	1544	1511	1502	1518	1544	1560	0	0	0	0	0	0	0	0	0	0	0	0	0	0	0	0	1546	1529	1507	1496	1516	1521	1523	1525	1527	1514	1509	1523	1540	1555	1548	1529	1516	1504	1501	1506	1517	1519	1510	1498	1502	1513	1521	1534	1535	1552	1543	1517	1517	1511	1510	1526	1538	1544	1553	1541	1528	1504	1497	1505	1525	1536	1543	1552	1557	1561	1549	1537	1534	1529	1534	1525	1523	1518	1516	1520	1529	1524	1530	1529	1526	1523	1521	1516	1520	1519	1530	1523	1515	1515	1520	1527	1513	1493	1484	1487	1496	1501	1506	1519	1532	1546	1541	1526	1522	1530	1536	1536	1543	1532	1530	1507	1476	1475	1478	1497	1485	1476	1465	1471	1477	1484	1484	1483	1471	1461	1462	1471	1483	0	0	0	0	0	0	0
0	0	0	1427	1415	1388	1373	1365	1365	1375	1379	1387	1377	1376	1376	1373	1378	1385	1399	1416	1403	1394	1394	1383	1385	1391	1391	1394	1386	1385	1385	1376	1365	1376	1393	1396	1391	1379	1379	1379	1375	1378	1377	1373	1361	1348	1340	1344	1346	1338	1334	1333	1333	1337	1343	1342	1350	1356	1361	1372	1375	1378	1379	1378	1373	1364	1358	1355	1346	1352	1364	1370	1365	1365	1361	1357	1352	1342	1339	1353	1363	1365	1357	1357	1357	1358	1360	1364	1367	1373	1377	1375	1379	1373	1368	1370	1363	1360	0	0	0	0	0	0	0	0	0	0	0	0	0	0	0	0	0	0	0	0	0	0	0	0	0	0	0	0	0	0	0	1914	1612	1613	1637	1651	1650	1648	0	0	0	0	0	0	0	0	0	0	1365	1376	1402	1398	1379	1370	1371	1367	1372	1374	1383	1394	1400	1402	1396	1382	1381	1386	1383	1379	1371	1370	1375	1373	1373	1373	1379	1385	1383	1381	1370	1378	1387	1385	1388	1387	1379	1370	1380	1387	1392	1394	1395	1395	1392	1405	1411	1420	1414	1400	1384	1379	1382	1393	1413	1423	1421	1412	1410	1412	1407	1401	1398	1392	1387	1386	1389	1397	1406	1408	1405	1400	1404	1414	1416	1415	1410	1404	1401	1404	1418	1412	1411	1409	1409	1408	1411	1412	1409	1404	1404	1394	1390	1382	1379	1385	1392	1400	1398	1401	1403	1414	1421	1414	1412	1419	1422	1414	1397	1394	1401	1413	1417	1422	1430	1435	1431	1413	1408	1413	1433	1437	1416	1401	1399	1405	1412	1417	1419	1427	1440	1444	1453	1451	1449	1444	1444	1433	1422	1417	1418	1426	1434	1434	1427	1424	1426	1426	1422	1429	1430	1435	1436	1452	1466	1464	1449	1410	1403	1406	1410	1422	1422	1418	1414	1415	1419	1434	1441	1437	1440	1453	1450	1447	1436	1421	1417	1415	1415	1418	1422	1424	1427	1429	1441	1456	1466	1463	1444	1432	1435	1446	1451	1451	1447	1442	1448	1458	1464	1463	1454	1438	1437	1437	1439	1438	1437	1443	1445	1448	1449	1441	1427	1426	1424	1435	1443	1453	1452	1445	1437	1436	1443	1447	1453	1455	1452	1437	1429	1435	1444	1444	1433	1424	1423	1429	1439	1445	1445	1448	1460	1476	1476	1468	1456	1450	1463	1483	1490	1493	1479	1466	1454	1450	1446	1442	1442	1462	1471	1466	1456	1448	1443	1449	1456	1457	1452	1445	1451	1460	1463	1463	1454	1446	1450	1466	1477	1493	1495	1489	1477	1462	1457	1455	1454	1445	1448	1453	1458	1456	1455	1458	1453	1453	1451	1459	1456	1457	1460	1459	1455	1458	1506	1524	0	0	0	0	0	0	0	0	0	0	0	0	0	0	0	0	0	0	0	0	0	0	1616	1603	1596	1576	1553	1537	1557	1554	1544	1545	1540	1532	1535	1533	1538	1553	1556	1549	1537	1537	1554	1569	1580	1574	1573	1573	1564	1554	1545	1550	1538	1581	0	0	0	0	0	0	0	0	0	0	0	0	0	0	0	0	0	1540	1514	1505	1521	1524	1522	1528	1533	1520	1513	1520	1543	1561	1558	1548	1529	1517	1514	1515	1517	1524	1522	1519	1515	1507	1515	1516	1529	1540	1545	1526	1511	1501	1500	1505	1525	1540	1558	1558	1544	1521	1513	1509	1522	1531	1537	1537	1537	1545	1551	1540	1532	1531	1535	1536	1521	1521	1527	1538	1541	1538	1533	1524	1515	1511	1508	1511	1511	1501	1503	1502	1504	1516	1528	1527	1519	1504	1499	1501	1505	1508	1512	1520	1537	1546	1539	1522	1522	1538	1538	1538	1545	1539	1550	1529	1479	1479	1481	1503	1493	1481	1477	1478	1481	1478	1478	1475	1462	1452	1456	1467	1494	0	0	0	0	0	0	0
0	0	0	1420	1403	1383	1379	1366	1366	1368	1372	1370	1371	1372	1372	1372	1369	1378	1388	1394	1401	1401	1397	1387	1388	1394	1394	1390	1387	1382	1382	1377	1372	1376	1385	1395	1393	1388	1388	1380	1377	1378	1383	1380	1370	1350	1340	1343	1345	1345	1341	1342	1342	1349	1351	1355	1353	1354	1348	1366	1375	1386	1380	1372	1357	1344	1345	1338	1347	1360	1371	1372	1365	1365	1361	1363	1351	1339	1332	1349	1359	1369	1371	1371	1365	1366	1370	1378	1381	1386	1383	1383	1389	1379	1374	1367	1372	1385	0	0	0	0	0	0	0	0	0	0	0	0	0	0	0	0	0	0	0	0	0	0	0	0	0	0	0	0	0	0	0	1920	1619	1613	1640	1655	1678	0	0	0	0	0	0	0	0	0	0	1382	1380	1380	1389	1384	1374	1370	1372	1368	1370	1369	1374	1384	1395	1395	1399	1393	1395	1394	1388	1378	1368	1365	1366	1367	1366	1365	1376	1398	1396	1394	1396	1390	1404	1401	1398	1394	1382	1379	1379	1378	1383	1385	1387	1396	1395	1399	1407	1412	1404	1394	1384	1382	1381	1389	1406	1421	1418	1405	1400	1398	1409	1402	1389	1394	1388	1390	1394	1400	1411	1416	1420	1419	1414	1416	1411	1405	1400	1396	1400	1394	1389	1384	1389	1396	1405	1400	1399	1399	1404	1406	1409	1401	1384	1370	1372	1384	1394	1399	1403	1402	1410	1410	1410	1409	1409	1405	1407	1398	1389	1389	1397	1413	1423	1430	1432	1438	1426	1411	1398	1413	1421	1437	1430	1418	1428	1432	1436	1426	1431	1440	1443	1448	1460	1462	1453	1455	1450	1435	1422	1416	1420	1424	1438	1429	1420	1418	1420	1424	1424	1436	1440	1444	1456	1459	1464	1455	1443	1436	1422	1412	1414	1423	1432	1431	1433	1434	1431	1432	1426	1422	1428	1443	1442	1432	1411	1406	1407	1413	1420	1420	1416	1414	1415	1416	1424	1436	1444	1445	1438	1454	1461	1466	1466	1458	1454	1451	1455	1451	1453	1451	1439	1425	1422	1427	1435	1444	1457	1469	1475	1472	1456	1440	1425	1419	1418	1429	1448	1457	1459	1453	1440	1432	1427	1433	1439	1455	1455	1444	1440	1451	1455	1451	1449	1451	1438	1432	1436	1438	1445	1456	1474	1487	1487	1470	1459	1454	1460	1475	1487	1495	1486	1471	1457	1443	1439	1439	1451	1460	1458	1459	1450	1439	1438	1448	1462	1468	1463	1442	1444	1458	1452	1453	1454	1449	1456	1468	1480	1487	1492	1486	1468	1459	1455	1457	1462	1468	1467	1475	1471	1463	1457	1455	1454	1455	1456	1460	1473	1465	1456	1440	1427	1460	1503	1561	0	0	0	0	0	0	0	0	0	0	0	0	0	0	0	0	0	0	0	0	0	0	1621	1605	1592	1576	1567	1554	1558	1552	1565	1543	1522	1530	1545	1555	1555	1553	1553	1553	1555	1559	1565	1583	1582	1581	1576	1578	1568	1551	1553	1545	1556	1597	0	0	0	0	0	0	0	0	0	0	0	0	0	0	0	0	0	1540	1527	1527	1534	1523	1522	1526	1538	1532	1523	1524	1533	1550	1544	1555	1542	1535	1528	1522	1522	1531	1529	1525	1520	1505	1505	1506	1511	1523	1524	1508	1501	1491	1483	1495	1508	1531	1550	1559	1550	1535	1520	1522	1520	1525	1526	1516	1513	1519	1525	1515	1518	1522	1533	1538	1530	1527	1534	1531	1530	1525	1515	1511	1503	1499	1498	1498	1499	1493	1492	1503	1510	1521	1531	1527	1516	1508	1509	1515	1514	1509	1514	1520	1528	1534	1528	1526	1525	1539	1538	1538	1540	1536	1535	1521	1486	1486	1488	1503	1497	1488	1484	1482	1485	1478	1478	1464	1454	1447	1440	1470	1487	0	0	0	0	0	0	0
0	0	0	1403	1389	1386	1387	1380	1380	1376	1370	1367	1379	1374	1374	1376	1378	1386	1393	1402	1404	1404	1395	1385	1392	1389	1384	1381	1385	1387	1387	1380	1378	1378	1380	1386	1389	1395	1386	1386	1383	1376	1383	1375	1359	1348	1336	1344	1347	1351	1349	1349	1349	1351	1360	1359	1354	1346	1339	1359	1374	1383	1377	1365	1347	1342	1341	1342	1345	1356	1364	1368	1367	1367	1364	1354	1346	1332	1333	1351	1362	1375	1381	1382	1378	1380	1385	1391	1394	1394	1387	1380	1392	1391	1375	1371	1378	1403	0	0	0	0	0	0	0	0	0	0	0	0	0	0	0	0	0	0	0	0	0	0	0	0	0	0	0	0	0	0	1887	1683	1632	1627	1640	1662	1917	0	0	0	0	0	1400	1408	1429	1438	1430	1395	1363	1351	1366	1370	1370	1376	1378	1388	1380	1375	1368	1370	1379	1392	1397	1402	1401	1397	1393	1382	1368	1358	1364	1366	1364	1364	1375	1395	1394	1398	1400	1398	1402	1399	1394	1397	1395	1386	1381	1380	1383	1376	1387	1397	1398	1388	1398	1403	1402	1392	1388	1391	1388	1388	1398	1407	1409	1405	1398	1399	1403	1402	1385	1374	1370	1386	1398	1416	1414	1424	1418	1417	1422	1417	1414	1402	1406	1411	1410	1396	1386	1377	1377	1389	1396	1389	1389	1392	1392	1399	1411	1408	1387	1386	1386	1395	1397	1396	1406	1401	1400	1405	1395	1399	1399	1397	1390	1381	1379	1389	1400	1414	1425	1427	1430	1437	1424	1406	1396	1411	1418	1430	1436	1439	1447	1452	1452	1446	1443	1424	1426	1433	1445	1442	1453	1449	1436	1429	1420	1416	1419	1435	1438	1425	1415	1411	1413	1422	1435	1453	1465	1467	1464	1461	1425	1382	1423	1436	1433	1433	1437	1444	1439	1440	1443	1441	1444	1443	1435	1426	1426	1428	1433	1421	1403	1397	1411	1418	1423	1420	1411	1409	1409	1418	1426	1437	1440	1435	1430	1443	1458	1460	1460	1452	1452	1452	1447	1449	1448	1443	1431	1427	1428	1435	1438	1448	1459	1467	1462	1457	1446	1435	1429	1434	1439	1446	1446	1443	1451	1452	1449	1444	1438	1436	1441	1456	1458	1469	1468	1459	1454	1455	1461	1466	1439	1415	1412	1418	1435	1448	1454	1454	1450	1442	1441	1449	1454	1463	1469	1465	1453	1444	1439	1438	1454	1458	1462	1453	1449	1446	1451	1455	1464	1467	1468	1468	1462	1454	1444	1440	1443	1452	1476	1492	1502	1492	1480	1464	1461	1459	1462	1465	1455	1458	1470	1480	1472	1471	1474	1480	1486	1476	1464	1453	1458	1465	1471	1469	1458	1452	1433	1446	1481	1508	1533	0	0	0	0	0	0	0	0	0	0	0	0	0	0	0	0	0	0	0	0	0	1625	1603	1589	1576	1572	1568	1555	1574	1565	1532	1526	1535	1544	1554	1561	1561	1561	1564	1564	1563	1566	1570	1567	1574	1572	1578	1572	1567	1554	1537	1551	1601	0	0	0	0	0	0	0	0	0	0	0	0	0	0	0	0	0	1535	1541	1544	1528	1518	1519	1527	1533	1538	1531	1522	1519	1529	1538	1535	1536	1544	1541	1531	1527	1526	1522	1514	1516	1516	1502	1496	1505	1510	1509	1491	1498	1490	1491	1494	1509	1526	1540	1549	1543	1535	1527	1524	1519	1517	1511	1496	1492	1498	1510	1515	1523	1523	1522	1532	1540	1541	1533	1526	1512	1504	1498	1504	1504	1495	1487	1485	1495	1495	1503	1513	1521	1531	1531	1525	1515	1514	1522	1534	1532	1518	1516	1521	1529	1527	1522	1520	1525	1532	1527	1527	1524	1519	1507	1500	1485	1485	1489	1499	1498	1497	1491	1482	1479	1477	1477	1465	1470	1465	1464	1472	1481	0	0	0	0	0	0	0
0	0	0	1379	1376	1378	1389	1393	1393	1378	1375	1374	1385	1383	1383	1385	1392	1393	1402	1405	1407	1407	1400	1393	1385	1388	1384	1379	1383	1383	1393	1390	1390	1383	1377	1375	1374	1391	1392	1392	1385	1368	1361	1360	1356	1350	1344	1349	1354	1353	1347	1347	1346	1351	1357	1359	1349	1337	1341	1355	1365	1368	1364	1357	1350	1349	1346	1347	1348	1354	1359	1364	1364	1368	1362	1351	1338	1335	1343	1352	1360	1370	1384	1391	1390	1394	1396	1398	1396	1393	1386	1385	1381	1386	1378	1377	1386	1408	0	0	0	0	0	0	0	0	0	0	0	0	0	0	0	0	0	0	0	0	0	0	0	0	0	0	0	0	0	1607	1645	1656	1654	1637	1640	1658	1671	0	0	0	0	1396	1369	1375	1373	1386	1379	1357	1343	1343	1355	1361	1373	1382	1386	1390	1386	1378	1365	1364	1371	1383	1397	1407	1410	1397	1394	1381	1369	1356	1366	1366	1371	1380	1386	1390	1384	1386	1390	1399	1390	1387	1386	1394	1407	1402	1400	1399	1392	1393	1390	1390	1396	1393	1384	1394	1399	1402	1405	1405	1397	1398	1399	1410	1417	1417	1410	1405	1405	1398	1375	1366	1363	1371	1396	1411	1412	1404	1398	1394	1405	1404	1395	1397	1406	1421	1419	1404	1393	1381	1384	1397	1399	1389	1385	1398	1407	1418	1423	1423	1407	1399	1390	1396	1403	1413	1411	1407	1402	1405	1405	1400	1404	1409	1399	1387	1384	1390	1399	1410	1418	1425	1434	1434	1425	1412	1403	1411	1413	1418	1421	1431	1439	1449	1450	1450	1437	1403	1400	1416	1433	1427	1426	1427	1419	1421	1416	1423	1426	1438	1432	1426	1410	1409	1413	1419	1426	1443	1441	1445	1442	1419	1372	1374	1382	1430	1434	1435	1445	1453	1446	1443	1436	1439	1449	1451	1442	1429	1420	1423	1427	1423	1416	1414	1418	1425	1428	1413	1413	1410	1413	1425	1428	1442	1436	1425	1429	1429	1446	1447	1437	1433	1440	1448	1438	1443	1438	1435	1434	1434	1438	1439	1446	1450	1457	1463	1456	1438	1430	1425	1431	1437	1441	1444	1441	1435	1442	1452	1450	1445	1436	1437	1443	1453	1464	1469	1472	1462	1456	1459	1462	1468	1441	1408	1410	1421	1438	1451	1453	1455	1445	1442	1451	1466	1466	1468	1465	1459	1448	1438	1430	1438	1456	1458	1458	1453	1448	1447	1446	1462	1466	1466	1461	1464	1457	1459	1447	1438	1438	1455	1472	1482	1489	1489	1471	1461	1464	1477	1492	1501	1486	1465	1459	1468	1466	1451	1463	1471	1484	1478	1468	1458	1460	1462	1467	1464	1460	1464	1468	1486	1483	1477	1495	1501	0	0	0	0	0	0	0	0	0	0	0	0	0	0	0	0	0	0	0	0	1624	1600	1586	1575	1574	1567	1554	1574	1564	1549	1545	1543	1553	1556	1562	1559	1563	1567	1568	1565	1566	1572	1572	1576	1574	1571	1567	1559	1558	1542	1556	1599	0	0	0	0	0	0	0	0	0	0	0	0	0	0	0	0	0	1547	1548	1552	1539	1527	1528	1523	1526	1529	1525	1522	1519	1520	1527	1526	1532	1538	1542	1527	1523	1520	1517	1516	1521	1521	1521	1518	1510	1503	1495	1483	1495	1504	1505	1502	1513	1523	1525	1538	1541	1536	1523	1519	1520	1513	1504	1485	1483	1490	1506	1510	1509	1503	1514	1537	1543	1544	1529	1512	1494	1493	1498	1516	1515	1508	1490	1482	1488	1502	1508	1518	1528	1535	1536	1524	1518	1521	1540	1548	1546	1529	1519	1527	1530	1528	1525	1517	1517	1520	1515	1515	1509	1501	1492	1491	1487	1485	1492	1494	1497	1505	1498	1489	1476	1469	1473	1473	1476	1476	1473	1479	1481	0	0	0	0	0	0	0
0	0	0	1369	1370	1374	1383	1379	1379	1379	1384	1382	1380	1387	1387	1389	1397	1400	1409	1413	1415	1415	1408	1395	1386	1388	1397	1390	1397	1397	1394	1399	1401	1388	1372	1359	1370	1387	1390	1390	1385	1370	1363	1361	1359	1351	1354	1358	1357	1352	1345	1345	1338	1344	1353	1355	1347	1343	1346	1351	1361	1360	1358	1352	1349	1353	1351	1354	1351	1356	1362	1364	1364	1365	1360	1356	1346	1348	1351	1357	1357	1372	1386	1393	1393	1393	1401	1398	1390	1384	1385	1379	1375	1381	1389	1388	1389	1399	0	0	0	0	0	0	0	0	0	0	0	0	0	0	0	0	0	0	0	0	0	0	0	0	0	0	0	0	0	1587	1630	1642	1648	1641	1634	1634	1654	1665	0	0	0	1386	1347	1355	1374	1384	1376	1372	1354	1344	1359	1367	1382	1394	1395	1388	1378	1378	1370	1370	1371	1379	1396	1410	1404	1397	1391	1381	1369	1363	1365	1370	1376	1386	1397	1392	1382	1376	1372	1387	1384	1381	1384	1392	1397	1403	1402	1410	1413	1404	1396	1392	1391	1389	1386	1387	1394	1402	1406	1407	1393	1396	1402	1417	1422	1419	1411	1415	1408	1396	1386	1374	1366	1370	1386	1395	1394	1397	1400	1391	1396	1400	1393	1396	1416	1422	1419	1408	1400	1394	1394	1401	1399	1389	1388	1406	1419	1435	1433	1434	1423	1409	1391	1389	1406	1423	1419	1408	1404	1406	1409	1411	1417	1419	1407	1400	1394	1396	1404	1412	1416	1426	1433	1435	1426	1410	1408	1405	1413	1419	1418	1424	1434	1442	1450	1450	1442	1406	1401	1410	1413	1417	1422	1426	1418	1418	1418	1425	1433	1436	1432	1427	1416	1412	1406	1412	1420	1432	1443	1439	0	0	0	1386	1393	1409	1431	1441	1447	1435	1428	1433	1433	1447	1456	1457	1445	1431	1422	1421	1424	1422	1417	1416	1424	1426	1426	1423	1424	1420	1424	1428	1435	1439	1437	1429	1415	1412	1421	1425	1424	1422	1420	1427	1425	1432	1435	1441	1447	1445	1444	1445	1448	1451	1457	1454	1446	1434	1424	1417	1419	1432	1440	1440	1434	1425	1446	1453	1439	1430	1414	1419	1433	1451	1462	1460	1455	1451	1451	1456	1461	1455	1434	1419	1420	1430	1441	1445	1447	1450	1446	1452	1454	1466	1471	1474	1474	1462	1445	1441	1439	1445	1448	1444	1452	1459	1461	1455	1455	1459	1464	1454	1451	1454	1464	1460	1443	1436	1436	1449	1478	1491	1493	1476	1464	1460	1468	1488	1505	1519	1505	1476	1459	1450	1448	1440	1450	1460	1468	1473	1471	1466	1466	1466	1465	1462	1462	1470	1481	1490	1491	1485	1470	1478	0	0	0	0	0	0	0	0	0	0	0	0	0	0	0	0	0	0	0	0	1625	1600	1578	1577	1573	1561	1548	1568	1566	1563	1557	1556	1558	1558	1563	1560	1562	1561	1560	1562	1564	1569	1574	1577	1572	1564	1552	1547	1546	1544	1554	1577	0	0	0	0	0	0	0	0	0	0	0	0	0	0	0	0	0	1561	1557	1550	1541	1542	1526	1524	1520	1524	1518	1510	1486	1483	1493	1515	1511	1521	1523	1517	1517	1519	1516	1508	1523	1543	1549	1534	1521	1500	1498	1501	1505	1520	1534	1529	1518	1517	1517	1525	1528	1529	1523	1519	1523	1516	1505	1484	1477	1484	1504	1512	1517	1515	1522	1530	1527	1533	1524	1513	1504	1500	1513	1534	1529	1519	1510	1491	1492	1499	1501	1513	1529	1529	1532	1527	1522	1529	1545	1558	1550	1536	1527	1523	1528	1522	1520	1517	1509	1508	1507	1507	1502	1497	1491	1491	1494	1493	1490	1490	1496	1499	1487	1476	1460	1458	1462	1462	1477	1484	1485	1491	1492	0	0	0	0	0	0	0
0	0	0	1374	1375	1377	1374	1374	1370	1373	1378	1378	1376	1388	1388	1390	1401	1408	1410	1412	1410	1410	1415	1397	1389	1394	1402	1409	1411	1411	1407	1411	1404	1391	1368	1357	1366	1379	1386	1386	1384	1373	1369	1365	1352	1347	1348	1356	1359	1340	1329	1338	1326	1330	1336	1347	1345	1348	1354	1360	1366	1362	1357	1354	1357	1358	1354	1356	1358	1357	1364	1365	1365	1368	1367	1356	1354	1358	1361	1366	1368	1375	1384	1388	1385	1385	1393	1391	1385	1383	1380	1376	1383	1387	1396	1393	1389	1382	0	0	0	0	0	0	0	0	0	0	0	0	0	0	0	0	0	0	0	0	0	0	0	0	0	0	0	0	0	0	1608	1625	1635	1626	1636	1630	1625	1614	0	0	0	1386	1352	1363	1376	1385	1382	1382	1379	1373	1367	1371	1383	1389	1385	1372	1364	1369	1375	1376	1376	1372	1384	1396	1388	1373	1372	1371	1366	1368	1371	1381	1382	1397	1401	1395	1375	1366	1377	1382	1382	1381	1383	1394	1392	1395	1403	1410	1420	1417	1395	1386	1390	1378	1370	1367	1375	1378	1389	1387	1396	1396	1402	1416	1405	1405	1404	1411	1412	1406	1405	1393	1386	1382	1386	1390	1393	1395	1393	1393	1386	1395	1395	1394	1412	1413	1415	1414	1412	1406	1393	1398	1395	1394	1394	1409	1425	1430	1434	1433	1419	1402	1390	1391	1401	1426	1423	1409	1404	1408	1412	1411	1417	1421	1417	1407	1403	1406	1412	1418	1421	1423	1428	1429	1421	1409	1401	1403	1415	1419	1420	1420	1426	1437	1445	1448	1423	1408	1407	1412	1419	1418	1419	1419	1410	1414	1421	1420	1420	1420	1427	1427	1421	1419	1410	1409	1422	1433	1448	0	0	0	0	0	1397	1387	1422	1435	1435	1419	1416	1423	1439	1449	1456	1455	1439	1429	1421	1419	1415	1417	1418	1423	1429	1430	1426	1421	1426	1431	1430	1431	1436	1442	1442	1434	1418	1410	1414	1418	1418	1416	1411	1417	1428	1435	1449	1450	1453	1451	1439	1438	1443	1446	1452	1456	1449	1437	1429	1423	1419	1432	1435	1440	1439	1443	1451	1452	1438	1422	1412	1413	1426	1444	1452	1451	1443	1437	1429	1440	1448	1451	1446	1436	1431	1438	1441	1444	1444	1443	1443	1448	1455	1462	1476	1480	1478	1471	1461	1445	1443	1446	1449	1454	1467	1475	1476	1472	1456	1455	1449	1444	1437	1449	1460	1458	1450	1444	1447	1456	1473	1483	1476	1463	1452	1457	1474	1495	1503	1508	1500	1479	1458	1436	1432	1436	1441	1454	1473	1478	1475	1474	1471	1471	1470	1465	1462	1469	1479	1489	1491	1493	1475	1481	0	0	0	0	0	0	0	0	0	0	0	0	0	0	0	0	1654	0	0	0	1635	1602	1596	1582	1569	1552	1551	1566	1567	1566	1562	1562	1563	1560	1563	1548	1542	1544	1549	1558	1561	1567	1569	1574	1572	1556	1547	1539	1547	1559	1559	1589	0	0	0	0	0	0	0	0	0	0	0	0	0	0	0	0	1572	1553	1547	1547	1538	1537	1525	1516	1513	1517	1514	1504	1481	1471	1481	1505	1516	1514	1508	1506	1509	1517	1517	1520	1529	1544	1559	1555	1538	1507	1497	1520	1532	1557	1567	1560	1551	1525	1521	1514	1516	1513	1515	1522	1527	1517	1507	1492	1481	1484	1506	1531	1549	1530	1524	1520	1511	1522	1527	1522	1514	1512	1530	1547	1541	1532	1524	1517	1495	1492	1502	1507	1519	1527	1532	1532	1532	1532	1543	1551	1552	1535	1526	1518	1524	1516	1512	1508	1502	1498	1505	1501	1501	1496	1496	1498	1498	1498	1498	1489	1486	1485	1490	1481	1461	1456	1461	1461	1472	1486	1502	1510	1507	0	0	0	0	0	0	0
0	0	0	1388	1383	1384	1374	1374	1375	1375	1378	1387	1387	1386	1386	1385	1390	1404	1405	1403	1406	1406	1408	1397	1391	1395	1408	1418	1426	1426	1424	1416	1398	1383	1370	1361	1367	1373	1383	1383	1383	1377	1376	1368	1352	1348	1345	1351	1341	1337	1331	1331	1332	1323	1321	1334	1344	1349	1355	1365	1367	1366	1365	1358	1359	1358	1361	1363	1366	1370	1366	1366	1366	1365	1368	1366	1368	1369	1372	1371	1373	1374	1373	1377	1374	1366	1379	1382	1375	1372	1372	1384	1392	1388	1395	1399	1384	1368	0	0	0	0	0	0	0	0	0	0	0	0	0	0	0	0	0	0	0	0	0	0	0	0	0	0	0	0	0	0	1595	1608	1618	1624	1625	1624	1609	1583	0	0	0	1395	1371	1378	1381	1383	1387	1388	1389	1391	1373	1374	1385	1384	1369	1355	1353	1360	1374	1377	1369	1366	1364	1369	1361	1360	1365	1370	1376	1376	1380	1389	1391	1395	1401	1387	1366	1361	1372	1380	1381	1384	1391	1396	1393	1395	1400	1408	1419	1415	1397	1387	1384	1367	1354	1355	1365	1370	1378	1383	1402	1404	1397	1394	1395	1387	1396	1410	1419	1419	1412	1405	1392	1382	1385	1388	1394	1393	1386	1385	1383	1387	1392	1400	1399	1401	1405	1413	1411	1405	1403	1390	1387	1390	1397	1408	1415	1427	1426	1421	1414	1402	1397	1396	1401	1415	1416	1406	1406	1407	1410	1408	1413	1414	1412	1410	1408	1413	1418	1419	1421	1424	1423	1426	1420	1411	1396	1402	1411	1421	1420	1416	1417	1426	1436	1439	1428	1414	1408	1411	1419	1426	1424	1417	1407	1403	1416	1418	1416	1412	1422	1426	1427	1424	1423	1424	1429	1450	1461	0	0	0	0	0	1400	1379	1408	1424	1425	1415	1413	1429	1443	1445	1454	1445	1435	1425	1421	1420	1415	1414	1426	1433	1442	1439	1430	1421	1423	1431	1433	1436	1434	1446	1447	1437	1422	1406	1413	1415	1412	1408	1407	1418	1430	1447	1457	1467	1466	1449	1435	1429	1434	1444	1446	1451	1446	1438	1430	1428	1427	1430	1429	1432	1434	1444	1451	1454	1443	1429	1419	1416	1428	1438	1440	1440	1434	1424	1418	1426	1438	1444	1448	1446	1445	1440	1444	1445	1449	1449	1449	1445	1445	1457	1462	1476	1485	1483	1469	1459	1450	1452	1455	1469	1481	1481	1485	1479	1465	1457	1454	1445	1440	1445	1452	1455	1461	1456	1457	1461	1471	1472	1460	1451	1446	1463	1479	1489	1485	1482	1482	1472	1450	1426	1413	1430	1446	1463	1476	1480	1482	1477	1472	1468	1471	1470	1467	1470	1476	1480	1486	1482	1488	1499	0	0	0	0	0	0	0	0	0	0	0	0	0	0	0	0	1667	1645	1645	1667	1651	1611	1602	1593	1578	1556	1560	1572	1566	1566	1563	1561	1561	1555	1557	1553	1550	1539	1543	1545	1555	1557	1552	1556	1561	1557	1549	1552	1555	1565	1567	1600	0	0	0	0	0	0	0	0	0	0	0	0	0	0	0	1556	1550	1549	1537	1538	1524	1522	1509	1508	1503	1508	1507	1504	1479	1481	1488	1512	1518	1517	1516	1512	1521	1525	1525	1522	1526	1535	1554	1565	1560	1538	1512	1526	1545	1574	1582	1585	1574	1548	1525	1516	1516	1515	1514	1517	1525	1522	1513	1491	1483	1490	1505	1535	1545	1536	1524	1513	1512	1517	1521	1520	1516	1523	1535	1546	1538	1535	1529	1528	1524	1504	1509	1507	1512	1520	1523	1522	1528	1528	1532	1546	1546	1538	1532	1527	1521	1511	1502	1497	1492	1497	1501	1502	1502	1497	1494	1492	1495	1498	1496	1489	1479	1489	1492	1484	1471	1461	1463	1463	1475	1492	1507	1511	1512	0	0	0	0	0	0	0
0	0	0	1395	1394	1393	1382	1382	1378	1382	1393	1399	1393	1381	1381	1378	1377	1390	1396	1400	1405	1405	1403	1394	1386	1388	1403	1418	1428	1428	1420	1399	1389	1380	1378	1379	1378	1384	1387	1387	1386	1375	1375	1374	1363	1353	1347	1341	1341	1336	1340	1340	1335	1328	1321	1322	1337	1346	1357	1370	1372	1372	1369	1362	1353	1355	1353	1365	1373	1382	1354	1352	1352	1359	1365	1370	1376	1376	1374	1372	1368	1368	1371	1368	1365	1366	1371	1373	1375	1367	1370	1383	1392	1375	1383	1386	1357	1355	0	0	0	0	0	0	0	0	0	0	0	0	0	0	0	0	0	0	0	0	0	0	0	0	0	0	0	0	0	1553	1595	1602	1607	1619	1626	1630	1609	1568	0	0	0	1433	1412	1388	1385	1378	1381	1383	1384	1386	1378	1377	1382	1383	1361	1341	1343	1342	1357	1363	1353	1352	1355	1357	1356	1362	1370	1376	1381	1384	1392	1393	1396	1394	1388	1370	1348	1348	1376	1379	1378	1378	1382	1389	1393	1393	1394	1393	1404	1408	1404	1394	1381	1363	1357	1359	1370	1381	1380	1400	1404	1399	1387	1380	1380	1382	1388	1409	1418	1426	1415	1409	1396	1392	1387	1393	1396	1391	1382	1375	1374	1382	1389	1391	1381	1383	1400	1407	1412	1411	1397	1385	1381	1387	1392	1397	1399	1411	1409	1411	1407	1408	1398	1392	1393	1396	1394	1396	1403	1403	1405	1403	1397	1402	1403	1405	1407	1413	1417	1418	1419	1417	1422	1426	1422	1407	1401	1398	1410	1417	1413	1411	1411	1415	1426	1433	1422	1413	1411	1406	1410	1421	1423	1410	1406	1404	1404	1415	1407	1415	1418	1424	1428	1426	1428	1433	1448	1467	1464	0	0	0	0	0	1396	1385	1393	1404	1419	1411	1409	1421	1428	1443	1436	1433	1426	1428	1428	1422	1419	1424	1435	1446	1451	1450	1437	1425	1419	1419	1431	1439	1441	1444	1443	1436	1424	1411	1410	1410	1410	1412	1414	1422	1439	1455	1462	1462	1462	1449	1433	1429	1428	1435	1439	1440	1428	1430	1434	1445	1443	1437	1425	1417	1428	1441	1448	1450	1444	1435	1432	1431	1433	1433	1428	1430	1427	1421	1418	1419	1427	1442	1451	1451	1448	1443	1441	1447	1447	1446	1446	1443	1441	1443	1447	1461	1477	1488	1481	1468	1462	1462	1468	1489	1487	1483	1479	1477	1470	1466	1460	1456	1452	1445	1449	1459	1462	1464	1464	1458	1449	1447	1442	1437	1444	1458	1465	1470	1460	1455	1461	1462	1441	1416	1404	1431	1447	1461	1474	1479	1479	1474	1467	1467	1471	1476	1473	1470	1473	1473	1469	1474	1494	0	0	0	0	0	0	0	0	0	0	0	0	0	0	0	0	0	0	1654	1634	1636	1631	1599	1595	1592	1590	1581	1572	1569	1568	1571	1567	1565	1561	1555	1552	1550	1546	1553	1548	1554	1552	1547	1544	1539	1550	1551	1552	1556	1561	1559	1572	1600	0	0	0	0	0	0	0	0	0	0	0	0	0	0	0	1538	1536	1542	1537	1523	1511	1510	1505	1506	1507	1505	1505	1511	1500	1487	1508	1518	1518	1523	1523	1524	1528	1529	1529	1517	1512	1522	1532	1558	1565	1551	1526	1522	1542	1547	1538	1544	1546	1546	1547	1540	1532	1515	1508	1511	1533	1525	1519	1509	1497	1491	1506	1510	1526	1526	1529	1530	1523	1522	1524	1513	1512	1522	1535	1539	1539	1538	1534	1536	1535	1531	1528	1525	1516	1511	1511	1507	1508	1511	1522	1543	1546	1545	1540	1532	1519	1509	1500	1488	1481	1521	1530	1538	1538	1521	1510	1502	1494	1491	1493	1487	1476	1479	1481	1484	1479	1475	1469	1469	1483	1494	1499	1488	1481	0	0	0	0	0	0	0
0	0	0	1387	1395	1388	1381	1381	1376	1388	1390	1396	1394	1375	1375	1364	1368	1384	1399	1402	1405	1405	1391	1390	1378	1381	1390	1407	1410	1410	1405	1391	1386	1388	1389	1390	1389	1393	1391	1391	1386	1381	1390	1391	1376	1354	1335	1330	1338	1341	1343	1343	1345	1342	1324	1327	1339	1355	1365	1379	1380	1377	1371	1363	1354	1348	1354	1366	1384	1380	1369	1369	1356	1351	1366	1373	1376	1368	1366	1367	1364	1354	1355	1358	1359	1362	1365	1370	1370	1366	1369	1377	1388	1373	1368	1375	1353	1352	0	0	0	0	0	0	0	0	0	0	0	0	0	0	0	0	0	0	0	0	0	0	0	0	0	0	0	0	0	1544	1594	1605	1606	1606	1624	1621	1592	1559	0	0	0	0	1417	1406	1384	1369	1373	1370	1373	1372	1371	1373	1385	1389	1376	1365	1344	1342	1345	1344	1344	1351	1360	1362	1375	1388	1387	1379	1381	1384	1393	1393	1392	1384	1371	1357	1346	1349	1377	1380	1370	1367	1373	1380	1382	1379	1378	1379	1388	1394	1397	1398	1375	1365	1369	1377	1383	1386	1385	1395	1400	1388	1376	1370	1365	1376	1381	1396	1405	1407	1414	1417	1412	1404	1399	1401	1395	1382	1369	1367	1367	1372	1375	1375	1369	1375	1389	1403	1418	1413	1402	1389	1379	1380	1384	1384	1390	1391	1396	1402	1405	1405	1401	1394	1381	1380	1377	1389	1396	1397	1399	1400	1389	1388	1393	1398	1402	1404	1410	1416	1423	1424	1419	1422	1424	1413	1409	1405	1415	1414	1414	1407	1393	1391	1411	1421	1428	1419	1409	1410	1415	1416	1416	1407	1409	1409	1412	1414	1411	1416	1416	1424	1432	1433	1437	1441	1456	1469	1463	0	0	0	0	1398	1373	1387	1391	1402	1417	1406	1401	1406	1413	1430	1428	1422	1423	1433	1435	1431	1424	1425	1440	1452	1456	1454	1441	1424	1415	1417	1418	1426	1436	1439	1442	1435	1423	1413	1412	1411	1412	1413	1423	1429	1443	1449	1452	1457	1447	1435	1423	1422	1425	1427	1430	1429	1427	1432	1438	1449	1449	1441	1427	1415	1430	1441	1451	1446	1445	1442	1448	1455	1450	1432	1419	1417	1416	1417	1414	1414	1431	1443	1446	1448	1448	1442	1443	1451	1451	1452	1436	1430	1432	1426	1429	1446	1468	1488	1497	1481	1466	1467	1478	1483	1478	1476	1472	1469	1470	1461	1462	1454	1446	1444	1448	1458	1461	1469	1464	1454	1444	1433	1433	1432	1430	1445	1449	1438	1437	1439	1446	1452	1436	1415	1410	1418	1450	1463	1465	1467	1469	1465	1466	1467	1468	1472	1465	1465	1472	1473	1466	1480	0	0	0	0	0	0	0	0	0	0	0	0	0	0	0	0	0	0	0	1659	1631	1626	1620	1596	1588	1587	1587	1584	1561	1558	1563	1572	1576	1576	1568	1563	1563	1561	1555	1556	1560	1555	1546	1541	1529	1542	1546	1552	1554	1556	1553	1544	1560	1590	0	0	0	0	0	0	0	0	0	0	0	0	0	0	0	1527	1542	1550	1550	1522	1512	1515	1515	1512	1514	1512	1516	1521	1506	1501	1514	1527	1526	1524	1527	1531	1527	1532	1524	1517	1503	1509	1521	1530	1540	1539	1520	1498	1494	1510	1517	1525	1532	1541	1556	1563	1555	1526	1512	1528	1541	1548	1536	1525	1510	1504	1508	1513	1525	1529	1533	1538	1538	1529	1514	1499	1505	1516	1531	1533	1537	1538	1549	1545	1542	1545	1542	1537	1525	1508	1504	1502	1497	1502	1520	1535	1547	1545	1547	1539	1535	1526	1514	1506	1506	1521	1547	1553	1553	1526	1508	1502	1497	1496	1496	1490	1475	1478	1481	1488	1493	1495	1480	1480	1487	1490	1484	1462	1455	0	0	0	0	0	0	0
0	0	0	1378	1388	1389	1376	1376	1373	1378	1386	1392	1388	1373	1373	1360	1366	1390	1404	1403	1398	1398	1402	1396	1386	1377	1380	1384	1394	1394	1387	1390	1394	1399	1400	1402	1396	1397	1398	1398	1392	1389	1401	1394	1386	1363	1324	1326	1336	1343	1348	1348	1351	1347	1332	1332	1343	1357	1385	1391	1386	1380	1372	1366	1359	1350	1351	1359	1374	1380	1379	1379	1366	1353	1365	1359	1364	1362	1360	1358	1352	1348	1352	1360	1357	1362	1367	1372	1373	1363	1367	1374	1387	1376	1380	1373	1360	1366	0	0	0	0	0	0	0	0	0	0	0	0	0	0	0	0	0	0	0	0	0	0	0	0	0	0	0	0	0	1548	1590	1604	1600	1597	1602	1612	1598	1553	0	0	0	0	1396	1406	1395	1366	1364	1362	1358	1348	1356	1372	1391	1393	1385	1376	1356	1347	1343	1341	1344	1349	1360	1378	1409	1403	1397	1382	1376	1379	1383	1391	1386	1374	1367	1357	1352	1353	1374	1376	1370	1366	1367	1374	1373	1359	1354	1358	1366	1370	1380	1393	1377	1365	1369	1376	1381	1382	1382	1387	1387	1378	1365	1363	1363	1361	1375	1396	1389	1396	1401	1411	1409	1405	1400	1401	1388	1371	1363	1360	1361	1360	1357	1356	1362	1372	1389	1401	1409	1412	1405	1387	1377	1375	1374	1377	1382	1384	1390	1395	1399	1402	1402	1398	1381	1374	1376	1382	1386	1393	1393	1396	1384	1376	1377	1388	1395	1397	1403	1410	1417	1417	1417	1419	1425	1426	1422	1423	1422	1426	1425	1415	1392	1388	1396	1413	1423	1418	1414	1414	1421	1424	1417	1409	1408	1413	1418	1421	1424	1422	1424	1427	1436	1449	1446	1447	1453	1459	1442	1440	0	0	0	1399	1384	1399	1402	1407	1419	1404	1395	1397	1411	1420	1423	1421	1427	1434	1438	1436	1429	1419	1423	1442	1448	1452	1444	1426	1418	1415	1414	1421	1426	1433	1440	1433	1424	1419	1413	1417	1420	1423	1424	1429	1439	1443	1443	1444	1433	1424	1422	1418	1423	1421	1425	1429	1427	1426	1430	1436	1447	1443	1438	1436	1438	1450	1450	1442	1436	1446	1455	1464	1456	1439	1423	1413	1419	1433	1426	1424	1434	1433	1434	1439	1446	1448	1443	1444	1445	1441	1432	1426	1424	1417	1416	1430	1454	1493	1503	1489	1470	1465	1467	1477	1481	1475	1471	1472	1472	1464	1448	1441	1427	1439	1446	1459	1469	1475	1472	1452	1441	1426	1425	1430	1428	1438	1427	1424	1426	1435	1440	1440	1422	1416	1429	1434	1454	1459	1460	1465	1462	1457	1459	1463	1463	1460	1458	1464	1473	1473	1471	1471	0	0	0	0	0	0	0	0	0	0	0	0	0	0	0	0	0	0	0	1654	1623	1627	1629	1607	1592	1588	1592	1592	1553	1542	1553	1571	1581	1580	1576	1569	1571	1575	1575	1576	1572	1569	1562	1562	1559	1559	1564	1550	1551	1555	1546	1532	1559	1580	0	0	0	0	0	0	0	0	0	0	0	0	0	0	0	0	1554	1564	1558	1537	1524	1532	1526	1524	1517	1517	1518	1530	1523	1514	1517	1520	1524	1523	1527	1528	1529	1526	1531	1518	1509	1500	1515	1525	1529	1523	1515	1492	1491	1500	1506	1510	1510	1524	1549	1564	1572	1555	1539	1541	1550	1541	1540	1533	1522	1508	1503	1509	1515	1521	1533	1533	1534	1529	1518	1499	1499	1508	1520	1529	1535	1551	1565	1562	1557	1554	1547	1540	1531	1517	1501	1502	1506	1518	1522	1531	1536	1540	1539	1540	1535	1533	1520	1513	1507	1512	1535	1540	1540	1526	1515	1504	1504	1505	1503	1499	1484	1481	1486	1500	1506	1507	1499	1499	1491	1482	1473	1460	1444	0	0	0	0	0	0	0
0	0	0	1375	1393	1390	1369	1369	1364	1371	1384	1398	1395	1381	1381	1367	1370	1377	1387	1394	1397	1397	1400	1403	1395	1382	1375	1378	1390	1390	1386	1394	1400	1403	1403	1403	1403	1397	1397	1398	1401	1399	1404	1400	1387	1370	1330	1326	1332	1343	1352	1352	1352	1341	1336	1335	1346	1363	1379	1389	1388	1381	1371	1368	1366	1363	1365	1365	1372	1381	1381	1381	1371	1356	1346	1334	1338	1351	1363	1374	1374	1373	1361	1363	1360	1366	1365	1379	1384	1378	1376	1383	1391	1389	1384	1368	1359	0	0	0	0	0	0	0	0	0	0	0	0	0	0	0	0	0	0	0	0	0	0	0	0	0	0	0	0	0	0	1556	1581	1598	1607	1599	1604	1603	1602	1558	0	0	0	0	1357	1366	1383	1367	1361	1357	1349	1338	1344	1358	1393	1391	1389	1380	1363	1356	1363	1369	1367	1363	1369	1379	1409	1409	1393	1370	1362	1363	1378	1384	1383	1371	1369	1362	1357	1357	1380	1394	1395	1389	1396	1394	1384	1368	1361	1355	1364	1366	1375	1390	1384	1375	1373	1375	1374	1375	1377	1380	1378	1370	1359	1354	1355	1355	1362	1378	1385	1388	1398	1397	1396	1392	1390	1388	1374	1363	1358	1356	1353	1347	1347	1348	1364	1373	1383	1390	1396	1400	1402	1388	1378	1376	1377	1379	1383	1382	1388	1395	1395	1401	1406	1405	1389	1386	1384	1381	1380	1391	1392	1390	1390	1378	1375	1384	1387	1382	1391	1395	1398	1400	1400	1410	1423	1433	1429	1424	1426	1428	1435	1427	1405	1399	1406	1413	1419	1421	1417	1419	1420	1424	1419	1417	1412	1417	1417	1420	1427	1430	1429	1435	1445	1448	1448	1447	1445	1444	1426	1435	1438	0	0	1397	1404	1410	1418	1421	1419	1410	1394	1398	1406	1421	1424	1423	1415	1411	1422	1428	1431	1423	1423	1417	1417	1455	1450	1435	1427	1422	1415	1416	1416	1422	1430	1430	1426	1422	1415	1415	1408	1411	1414	1424	1427	1433	1434	1431	1424	1418	1420	1424	1423	1424	1428	1429	1431	1429	1422	1423	1428	1434	1439	1443	1446	1456	1452	1437	1432	1434	1442	1444	1451	1442	1423	1419	1430	1436	1441	1437	1438	1426	1414	1419	1434	1443	1441	1441	1432	1425	1422	1419	1416	1409	1409	1416	1441	1475	1485	1480	1466	1456	1461	1465	1484	1484	1475	1467	1464	1458	1449	1437	1431	1431	1439	1459	1469	1472	1470	1461	1443	1428	1440	1438	1436	1425	1424	1424	1432	1443	1449	1446	1434	1432	1446	1453	1461	1464	1461	1459	1454	1455	1459	1465	1458	1450	1448	1466	1470	1467	1463	1484	0	0	0	0	0	0	0	0	0	0	0	0	0	0	0	0	0	0	0	0	1628	1634	1637	1620	1598	1590	1588	1579	1539	1539	1540	1557	1569	1578	1579	1576	1576	1582	1574	1560	1557	1564	1563	1559	1579	1597	1597	1582	1570	1556	1545	1578	1614	0	0	0	0	0	0	0	0	0	0	0	0	0	0	0	0	0	0	1570	1564	1541	1544	1538	1520	1508	1515	1516	1514	1518	1516	1516	1514	1519	1528	1526	1528	1528	1524	1536	1534	1526	1513	1505	1504	1519	1524	1517	1506	1491	1490	1496	1499	1499	1493	1500	1525	1548	1561	1561	1550	1545	1537	1532	1536	1530	1527	1511	1504	1498	1501	1495	1499	1510	1521	1527	1526	1523	1515	1513	1521	1523	1540	1521	1529	1529	1536	1542	1550	1546	1533	1522	1513	1506	1505	1514	1512	1517	1527	1528	1531	1531	1535	1534	1533	1519	1504	1508	1515	1521	1521	1518	1518	1510	1515	1511	1514	1516	1501	1496	1495	1501	1507	1501	1495	1495	1487	1485	1475	1463	1453	0	0	0	0	0	0	0
0	0	0	1391	1397	1395	1373	1373	1362	1361	1383	1402	1402	1388	1388	1378	1375	1377	1382	1381	1388	1388	1399	1400	1400	1388	1381	1383	1385	1385	1385	1389	1390	1396	1398	1398	1398	1401	1401	1405	1404	1404	1400	1392	1380	1371	1344	1338	1340	1350	1353	1353	1350	1343	1341	1342	1347	1359	1373	1381	1382	1377	1365	1370	1377	1374	1373	1364	1367	1371	1375	1375	1372	1360	1341	1334	1343	1357	1370	1381	1391	1385	1379	1376	1369	1374	1372	1384	1399	1397	1391	1390	1389	1403	1399	1374	1368	0	0	0	0	0	0	0	0	0	0	0	0	0	0	0	0	0	0	0	0	0	0	0	0	0	0	0	0	0	0	1567	1588	1606	1625	1612	1612	1616	1608	1583	0	0	0	0	0	1364	1381	1380	1360	1358	1350	1340	1350	1358	1385	1392	1388	1382	1375	1371	1367	1363	1361	1350	1351	1347	1371	1372	1366	1357	1350	1355	1377	1397	1387	1377	1371	1362	1361	1361	1386	1398	1408	1408	1408	1408	1394	1374	1361	1360	1357	1357	1354	1376	1381	1376	1373	1372	1368	1368	1373	1374	1374	1369	1368	1365	1365	1367	1372	1390	1392	1389	1391	1390	1380	1377	1375	1372	1362	1360	1355	1357	1345	1344	1348	1351	1367	1377	1387	1384	1381	1383	1386	1378	1373	1372	1381	1386	1381	1380	1399	1396	1394	1397	1406	1409	1391	1393	1395	1395	1394	1395	1392	1391	1391	1388	1378	1373	1383	1386	1384	1386	1381	1375	1383	1396	1413	1427	1422	1412	1406	1423	1435	1436	1427	1416	1413	1418	1423	1423	1422	1418	1420	1421	1422	1420	1411	1414	1416	1412	1418	1425	1431	1439	1445	1447	1443	1443	1446	1433	1430	1435	1430	0	0	1400	1431	1427	1423	1424	1420	1409	1395	1402	1412	1430	1438	1432	1420	1403	1415	1424	1427	1426	1428	1430	1427	1431	1450	1435	1427	1427	1426	1422	1412	1415	1424	1430	1431	1422	1411	1403	1408	1400	1408	1410	1410	1414	1423	1420	1419	1420	1423	1427	1427	1431	1432	1435	1433	1431	1425	1424	1425	1430	1432	1432	1434	1444	1442	1437	1428	1426	1435	1440	1442	1440	1424	1420	1429	1439	1450	1453	1442	1426	1399	1405	1423	1438	1445	1443	1436	1431	1429	1423	1418	1411	1406	1415	1430	1445	1453	1458	1454	1452	1447	1452	1468	1467	1470	1466	1458	1454	1452	1449	1437	1432	1434	1450	1453	1462	1468	1456	1452	1447	1443	1445	1439	1433	1437	1436	1452	1464	1466	1452	1447	1440	1456	1460	1465	1462	1469	1453	1449	1450	1456	1460	1455	1448	1451	1454	1463	1462	1458	0	0	0	0	0	0	0	0	0	0	0	0	0	0	0	0	0	0	0	0	0	1639	1653	1662	1636	1596	1582	1573	1571	1542	1538	1549	1574	1576	1562	1564	1571	1565	1556	1541	1523	1519	1523	1524	1526	1564	1579	1576	1561	1540	1540	1538	1594	1621	0	0	0	0	0	0	0	0	0	0	0	0	0	0	0	0	0	0	1529	1509	1516	1508	1500	1501	1512	1511	1513	1513	1505	1508	1518	1523	1518	1524	1530	1532	1539	1536	1539	1526	1516	1505	1503	1510	1521	1518	1518	1505	1494	1504	1508	1506	1495	1483	1488	1508	1533	1544	1545	1544	1539	1525	1520	1526	1528	1527	1522	1515	1510	1505	1492	1494	1498	1525	1533	1535	1535	1527	1518	1512	1519	1508	1512	1501	1509	1512	1532	1546	1549	1541	1535	1522	1514	1516	1510	1506	1502	1509	1513	1516	1523	1532	1539	1535	1522	1508	1505	1509	1509	1509	1516	1524	1536	1522	1515	1521	1526	1516	1512	1503	1503	1502	1494	1489	1489	1482	1480	1481	1471	1460	0	0	0	0	0	0	0
0	0	0	1387	1400	1394	1382	1382	1367	1367	1381	1394	1400	1394	1394	1390	1388	1386	1389	1387	1393	1393	1388	1402	1396	1391	1380	1377	1374	1374	1372	1370	1375	1386	1391	1396	1395	1398	1398	1408	1413	1400	1386	1372	1365	1361	1356	1358	1354	1354	1354	1354	1349	1346	1344	1347	1345	1355	1360	1369	1370	1362	1354	1362	1374	1377	1375	1371	1363	1370	1374	1374	1372	1360	1349	1337	1350	1366	1385	1396	1393	1386	1377	1366	1364	1372	1380	1389	1392	1393	1389	1382	1375	1393	1407	1396	1392	0	0	0	0	0	0	0	0	0	0	0	0	0	0	0	0	0	0	0	0	0	0	0	0	0	0	0	0	0	0	1567	1601	1624	1647	1655	1627	1633	1630	1608	0	0	0	0	0	1404	1411	1427	1422	1392	1376	1366	1374	1378	1368	1360	1355	1364	1362	1366	1354	1346	1342	1343	1343	1348	1358	1359	1359	1360	1355	1358	1378	1392	1400	1388	1376	1364	1358	1361	1377	1388	1405	1418	1427	1421	1406	1379	1369	1362	1359	1353	1351	1368	1382	1387	1385	1371	1366	1372	1372	1377	1377	1378	1381	1378	1372	1372	1381	1393	1394	1390	1385	1383	1374	1371	1368	1371	1366	1362	1355	1352	1342	1345	1351	1359	1370	1384	1392	1381	1373	1375	1378	1371	1366	1361	1376	1384	1381	1394	1396	1393	1392	1399	1406	1410	1396	1395	1408	1412	1407	1401	1394	1392	1394	1386	1374	1375	1369	1386	1380	1379	1368	1360	1366	1380	1401	1412	1414	1395	1404	1417	1426	1439	1432	1426	1421	1415	1419	1422	1420	1418	1420	1422	1421	1423	1418	1411	1398	1393	1396	1411	1427	1436	1434	1438	1439	1437	1435	1432	1431	1428	1449	0	0	1409	1434	1425	1421	1419	1410	1402	1394	1406	1419	1439	1444	1441	1434	1431	1428	1417	1420	1424	1435	1431	1429	1435	1431	1428	1423	1422	1423	1419	1412	1412	1421	1431	1436	1428	1415	1403	1400	1408	1402	1404	1408	1410	1417	1416	1419	1420	1420	1425	1428	1434	1437	1435	1435	1427	1425	1428	1428	1433	1433	1424	1422	1427	1435	1442	1440	1434	1430	1437	1440	1440	1428	1422	1427	1434	1452	1459	1449	1433	1409	1407	1421	1437	1443	1443	1447	1443	1432	1425	1422	1414	1410	1420	1428	1437	1437	1445	1451	1455	1448	1443	1458	1455	1457	1457	1454	1443	1443	1444	1442	1430	1426	1441	1447	1452	1455	1458	1459	1454	1452	1452	1452	1442	1441	1450	1465	1472	1469	1458	1448	1450	1456	1463	1460	1468	1468	1456	1451	1453	1458	1465	1456	1449	1442	1450	1452	1444	1493	0	0	0	0	0	0	0	0	0	0	0	0	0	0	0	0	0	0	0	0	0	0	1665	1660	1642	1595	1580	1566	1561	1556	1550	1570	1589	1580	1565	1562	1564	1570	1557	1538	1526	1526	1534	1552	1574	1560	1529	1547	1556	1566	1580	1584	1598	1611	0	0	0	0	0	0	0	0	0	0	0	0	0	0	0	0	0	1517	1503	1500	1505	1488	1493	1503	1492	1498	1514	1527	1525	1524	1528	1532	1532	1536	1542	1554	1547	1544	1532	1521	1521	1517	1508	1513	1520	1512	1520	1514	1515	1522	1523	1522	1518	1505	1491	1495	1507	1515	1523	1530	1533	1541	1542	1536	1534	1533	1526	1526	1530	1534	1511	1509	1518	1533	1538	1540	1534	1527	1524	1515	1504	1503	1506	1493	1494	1498	1519	1533	1550	1562	1562	1551	1531	1523	1511	1506	1506	1506	1506	1517	1524	1530	1528	1528	1515	1504	1501	1505	1505	1505	1510	1525	1542	1523	1516	1515	1526	1535	1518	1512	1502	1494	1488	1483	1483	1480	1478	1478	1473	1464	0	0	0	0	0	0	0
