0	0	0	0	0	0	0	0	0	0	0	0	0	0	0	0	0	0	0	0	0	0	0	0	0	0	0	0	0	0	0	0	0	0	0	0	0	0	0	0	0	0	0	0	0	0	0	0	0	0	0	0	0	0	0	0	0	0	0	0	0	0	0	0	0	0	0	0	0	0	0	0	0	0	0	0	0	0	0	0	0	0	0	0	0	0	0	0	0	0	0	0	0	0	0	0	0	0	0	0	0	0	0	0	0	0	0	0	0	0	0	0	0	0	0	0	0	0	0	0	0	0	0	0	0	0	0	0	0	0	0	0	0	0	0	0	0	0	0	0	0	0	0	0	0	0	0	0	0	0	0	0	0	0	0	0	0	0	0	0	0	0	0	0	0	0	0	0	0	0	0	0	0	0	0	0	0	0	0	0	0	0	0	0	0	0	0	0	0	0	0	0	0	0	0	0	0	0	0	1386	1362	1367	1362	1352	1347	1350	1351	1339	1344	1344	1345	1345	1346	1344	1340	1340	1331	1322	1327	1329	1332	1329	1326	1320	1317	1322	1328	1332	1332	1332	1325	1318	1313	1330	1350	1376	1381	1373	1364	1353	1342	1332	1332	1341	1345	1349	1344	1344	1347	1347	1341	1338	1335	1329	1327	1356	1363	1371	1360	1350	1338	1336	1340	1341	1340	1346	1344	1334	1332	1346	1358	1362	1353	1348	1339	1336	1345	1356	1360	1360	1355	1344	1345	1349	1345	1337	1332	1339	1345	1348	1340	1346	1342	1341	1336	1338	1339	1339	1342	1347	1345	1346	1346	1342	1345	1342	1341	1343	1341	1335	1325	1321	1326	1342	1356	1364	1357	1349	1346	1347	1352	1358	1352	1341	1337	1339	1348	1353	1361	1366	1376	1375	1363	1347	1341	1341	1349	1355	1352	1349	1350	1348	1352	1353	1354	1349	1346	1340	1338	1340	1349	1351	1355	1361	1348	1345	1381	1389	1381	1353	1344	1334	1330	1333	1331	1341	1360	1361	1351	1344	1346	1346	1333	1327	1340	1343	1339	1346	1351	1348	1327	1332	1332	1343	1351	1350	1348	1336	1332	1333	1342	1345	1351	1358	1358	1348	1338	1325	1316	1316	1309	1306	1316	1324	1326	1329	1334	1340	1355	1356	1342	1332	1326	1327	1329	1338	1342	1338	1328	1326	1321	1323	1335	1347	1346	1330	1318	1332	1330	1342	1339	1334	1332	1332	1330	1327	1322	1327	1339	1342	1342	1331	1333	1331	1338	1343	1338	1336	1330	1326	1324	1324	1328	1335	1328	1313	1307	1318	1333	1348	1350	1348	1344	1332	1329	1330	1350	1349	1336	1318	1315	1325	1329	1336	1344	1352	1354	1351	1347	1341	1340	1344	1345	1340	1345	1350	1355	1348	1342	1328	1319	1316	1317	1329	1348	1349	1344	1343	1340	1336	1335	1333	1325	1337	1335	1335	1339	1348	1353	1346	1338	1326	1327	1330	1330	1325	1310	1299	1341	1383	0	0	0	0	0	0	0	0	0	0	0	0	0	0	0	0	0	0	0	0	0	0	0	0	0	1437	1442	1441	1435	1450	1460	1439	1435	1438	1442	1457	1482	1488	1469	1429	1422	1423	1426	1420	1424	1426	1428	1434	1433	1423	1404	1390	1389	1418	1431	1435	1430	1427	1421	1398	1394	0	0	0	0	0	0	0	0	0	1396	1388	1391	1403	0	0	0	1420	1420	1412	1374	1349	1333	1331	1344	1362	1374	1379	1387	1389	1383	1370	1375	1376	1371	1363	1359	1359	1360	1353	1358	1368	1371	1371	1373	1386	1381	1359	1349	1349	1339	1349	1360	1359	0	0	0	0	0	0
0	0	0	0	0	0	0	0	0	0	0	0	0	0	0	0	0	0	0	0	0	0	0	0	0	0	0	0	0	0	0	0	0	0	0	0	0	0	0	0	0	0	0	0	0	0	0	0	0	0	0	0	0	0	0	0	0	0	0	0	0	0	0	0	0	0	0	0	0	0	0	0	0	0	0	0	0	0	0	0	0	0	0	0	0	0	0	0	0	0	0	0	0	0	0	0	0	0	0	0	0	0	0	0	0	0	0	0	0	0	0	0	0	0	0	0	0	0	0	0	0	0	0	0	0	0	0	0	0	0	0	0	0	0	0	0	0	0	0	0	0	0	0	0	0	0	0	0	0	0	0	0	0	0	0	0	0	0	0	0	0	0	0	0	0	0	0	0	0	0	0	0	0	0	0	0	0	0	0	0	0	0	0	0	0	0	0	0	0	0	0	0	0	0	0	0	0	0	0	1375	1365	1379	1372	1369	1359	1363	1363	1353	1351	1347	1345	1349	1352	1347	1350	1337	1327	1327	1332	1335	1338	1334	1329	1326	1324	1323	1330	1331	1331	1328	1325	1322	1334	1359	1359	1360	1349	1348	1351	1349	1346	1343	1327	1333	1339	1342	1339	1340	1347	1358	1360	1354	1341	1337	1333	1340	1347	1347	1336	1321	1318	1319	1329	1335	1337	1328	1314	1313	1306	1315	1334	1347	1352	1356	1352	1347	1352	1359	1365	1366	1359	1353	1353	1353	1348	1338	1344	1344	1344	1341	1336	1337	1343	1349	1347	1345	1345	1350	1356	1352	1350	1350	1352	1351	1350	1339	1336	1343	1340	1340	1334	1337	1336	1337	1338	1345	1349	1349	1349	1351	1351	1344	1331	1324	1318	1329	1347	1356	1356	1355	1354	1346	1337	1334	1334	1340	1349	1349	1343	1334	1328	1325	1336	1335	1336	1335	1331	1330	1331	1342	1352	1352	1359	1359	1351	1339	1367	1371	1408	1368	1350	1336	1333	1335	1328	1331	1342	1355	1353	1351	1329	1326	1324	1328	1348	1352	1347	1334	1343	1338	1327	1326	1335	1336	1333	1335	1334	1333	1330	1326	1338	1340	1342	1345	1354	1353	1347	1335	1321	1317	1316	1315	1320	1323	1330	1334	1338	1342	1357	1360	1350	1337	1332	1330	1336	1346	1349	1344	1333	1328	1320	1325	1335	1346	1347	1340	1335	1331	1335	1340	1332	1324	1318	1323	1326	1322	1322	1325	1332	1339	1342	1341	1328	1325	1336	1337	1335	1326	1321	1321	1318	1322	1326	1323	1323	1319	1316	1320	1325	1343	1348	1346	1342	1333	1326	1328	1349	1350	1341	1332	1328	1322	1335	1338	1343	1351	1354	1353	1348	1334	1330	1327	1319	1327	1341	1355	1356	1343	1335	1326	1325	1323	1324	1333	1345	1345	1343	1341	1342	1340	1334	1324	1320	1328	1337	1337	1334	1332	1338	1342	1343	1327	1326	1324	1321	1318	1303	1301	1335	1389	0	0	0	0	0	0	0	0	0	0	0	0	0	0	0	0	0	0	0	0	0	0	0	0	0	1435	1416	1419	1426	1435	1478	1453	1432	1423	1434	1442	1455	1450	1432	1414	1410	1420	1434	1439	1429	1425	1427	1431	1438	1432	1418	1398	1396	1409	1423	1427	1428	1428	1419	1385	0	0	0	0	0	0	0	0	0	0	0	1378	1382	1400	0	0	0	1411	1419	1419	1396	1373	1353	1342	1340	1348	1362	1366	1385	1391	1393	1380	1377	1378	1371	1365	1363	1363	1362	1359	1356	1365	1370	1377	1382	1392	1383	1361	1345	1345	1337	1349	1360	1364	0	0	0	0	0	0
0	0	0	0	0	0	0	0	0	0	0	0	0	0	0	0	0	0	0	0	0	0	0	0	0	0	0	0	0	0	0	0	0	0	0	0	0	0	0	0	0	0	0	0	0	0	0	0	0	0	0	0	0	0	0	0	0	0	0	0	0	0	0	0	0	0	0	0	0	0	0	0	0	0	0	0	0	0	0	0	0	0	0	0	0	0	0	0	0	0	0	0	0	0	0	0	0	0	0	0	0	0	0	0	0	0	0	0	0	0	0	0	0	0	0	0	0	0	0	0	0	0	0	0	0	0	0	0	0	0	0	0	0	0	0	0	0	0	0	0	0	0	0	0	0	0	0	0	0	0	0	0	0	0	0	0	0	0	0	0	0	0	0	0	0	0	0	0	0	0	0	0	0	0	0	0	0	0	0	0	0	0	0	0	0	0	0	0	0	0	0	0	0	0	0	0	0	0	0	1355	1359	1370	1389	1400	1392	1377	1380	1382	1374	1359	1359	1370	1356	1343	1353	1351	1340	1338	1343	1348	1349	1350	1338	1330	1326	1321	1331	1337	1333	1329	1323	1321	1347	1358	1359	1354	1342	1334	1342	1346	1352	1349	1338	1338	1343	1345	1341	1335	1347	1361	1365	1355	1344	1329	1325	1325	1337	1342	1333	1322	1309	1312	1321	1332	1337	1328	1310	1305	1301	1319	1338	1355	1354	1356	1353	1349	1347	1357	1365	1371	1365	1365	1359	1356	1343	1336	1338	1340	1342	1334	1338	1340	1344	1354	1355	1352	1343	1343	1351	1348	1345	1344	1350	1355	1345	1341	1337	1339	1345	1348	1349	1344	1337	1334	1336	1341	1347	1350	1351	1359	1364	1357	1347	1342	1343	1345	1356	1356	1349	1345	1343	1341	1339	1333	1333	1342	1347	1339	1339	1336	1330	1326	1340	1338	1334	1323	1321	1323	1327	1330	1343	1347	1353	1350	1354	1352	1365	1359	1355	1364	1355	1349	1339	1332	1326	1333	1339	1352	1349	1347	1342	1344	1351	1356	1354	1349	1327	1335	1340	1335	1336	1339	1342	1342	1330	1330	1328	1328	1328	1330	1335	1336	1336	1339	1348	1355	1350	1336	1331	1327	1324	1320	1317	1314	1317	1327	1336	1351	1362	1361	1354	1343	1337	1333	1342	1349	1352	1349	1340	1334	1332	1329	1334	1345	1349	1343	1341	1338	1338	1337	1325	1318	1314	1326	1328	1327	1327	1329	1334	1339	1347	1342	1331	1330	1331	1336	1330	1329	1324	1321	1322	1319	1324	1324	1326	1320	1318	1319	1320	1340	1348	1347	1344	1344	1343	1342	1346	1340	1335	1335	1337	1345	1344	1339	1335	1338	1343	1346	1341	1334	1328	1313	1306	1315	1324	1335	1344	1335	1329	1327	1332	1335	1337	1336	1337	1336	1335	1339	1340	1338	1333	1323	1315	1325	1337	1336	1323	1321	1328	1342	1353	1342	1334	1330	1317	1313	1307	1315	1342	1393	0	0	0	0	0	0	0	0	0	0	0	0	0	0	0	0	0	0	0	0	0	0	0	0	0	1425	1411	1405	1408	1440	1483	1461	1420	1417	1419	1426	1435	1441	1436	1428	1427	1425	1436	1443	1439	1421	1418	1419	1427	1425	1423	1406	1401	1412	1424	1431	1438	1431	1415	1390	0	0	0	0	0	0	0	0	0	0	0	1368	1382	0	0	0	0	1400	1400	1400	1395	1394	1377	1351	1338	1343	1355	1368	1385	1386	1380	1380	1375	1377	1372	1370	1369	1368	1368	1363	1362	1363	1368	1377	1377	1385	1375	1362	1343	1335	1335	1342	1351	1360	0	0	0	0	0	0
0	0	0	0	0	0	0	0	0	0	0	0	0	0	0	0	0	0	0	0	0	0	0	0	0	0	0	0	0	0	0	0	0	0	0	0	0	0	0	0	0	0	0	0	0	0	0	0	0	0	0	0	0	0	0	0	0	0	0	0	0	0	0	0	0	0	0	0	0	0	0	0	0	0	0	0	0	0	0	0	0	0	0	0	0	0	0	0	0	0	0	0	0	0	0	0	0	0	0	0	0	0	0	0	0	0	0	0	0	0	0	0	0	0	0	0	0	0	0	0	0	0	0	0	0	0	0	0	0	0	0	0	0	0	0	0	0	0	0	0	0	0	0	0	0	0	0	0	0	0	0	0	0	0	0	0	0	0	0	0	0	0	0	0	0	0	0	0	0	0	0	0	0	0	0	0	0	0	0	0	0	0	0	0	0	0	0	0	0	0	0	0	0	0	0	0	0	0	0	1351	1350	1370	1385	1398	1387	1372	1376	1373	1374	1357	1364	1364	1359	1342	1350	1346	1339	1341	1352	1354	1356	1356	1351	1338	1337	1337	1336	1333	1331	1337	1328	1336	1342	1355	1365	1369	1362	1352	1348	1345	1350	1356	1360	1370	1369	1365	1350	1336	1341	1354	1358	1356	1344	1328	1319	1323	1340	1347	1347	1331	1326	1327	1335	1339	1345	1344	1328	1317	1318	1341	1353	1360	1357	1351	1346	1344	1338	1340	1342	1344	1350	1354	1356	1349	1336	1324	1322	1326	1333	1345	1348	1349	1351	1355	1359	1355	1351	1349	1346	1344	1343	1340	1346	1349	1352	1347	1347	1342	1350	1359	1366	1359	1343	1330	1326	1328	1338	1341	1350	1362	1364	1363	1352	1346	1345	1345	1349	1346	1348	1339	1334	1333	1338	1333	1334	1336	1342	1337	1338	1338	1339	1345	1344	1338	1334	1326	1327	1329	1336	1335	1333	1346	1351	1345	1349	1361	1374	1369	1322	1332	1350	1354	1342	1330	1319	1335	1346	1345	1352	1344	1374	1377	1376	1372	1371	1368	1355	1346	1337	1336	1342	1346	1351	1352	1351	1335	1330	1325	1330	1332	1336	1339	1337	1338	1343	1352	1347	1336	1330	1328	1323	1310	1305	1312	1315	1327	1344	1357	1364	1361	1354	1351	1340	1329	1332	1338	1343	1352	1347	1344	1341	1335	1333	1340	1341	1339	1335	1336	1336	1333	1327	1317	1319	1331	1334	1334	1334	1340	1343	1346	1350	1357	1348	1341	1338	1339	1328	1325	1318	1323	1328	1333	1328	1327	1329	1312	1314	1315	1315	1328	1343	1347	1344	1342	1340	1330	1332	1326	1331	1335	1343	1350	1346	1338	1330	1329	1330	1331	1334	1335	1329	1324	1304	1305	1313	1321	1321	1326	1326	1331	1339	1340	1340	1336	1334	1327	1325	1331	1336	1332	1329	1324	1324	1334	1332	1336	1323	1318	1326	1341	1350	1354	1345	1336	1323	1306	1314	1323	1346	1375	0	0	0	0	0	0	0	0	0	0	0	0	0	0	0	0	0	0	0	0	0	0	0	0	0	1441	1423	1414	1417	1431	1447	1456	1425	1414	1415	1421	1433	1437	1441	1438	1426	1419	1434	1437	1430	1416	1409	1407	1414	1423	1420	1414	1413	1419	1418	1437	1443	1439	1425	1403	0	0	0	0	0	0	0	0	0	0	0	0	0	0	0	0	1395	1377	1387	1397	1397	1407	1403	1382	1360	1354	1362	1375	1385	1379	1376	1367	1369	1368	1369	1368	1368	1368	1368	1374	1372	1373	1370	1375	1366	1363	1357	1357	1333	1325	1325	1326	1334	1353	0	0	0	0	0	0
0	0	0	0	0	0	0	0	0	0	0	0	0	0	0	0	0	0	0	0	0	0	0	0	0	0	0	0	0	0	0	0	0	0	0	0	0	0	0	0	0	0	0	0	0	0	0	0	0	0	0	0	0	0	0	0	0	0	0	0	0	0	0	0	0	0	0	0	0	0	0	0	0	0	0	0	0	0	0	0	0	0	0	0	0	0	0	0	0	0	0	0	0	0	0	0	0	0	0	0	0	0	0	0	0	0	0	0	0	0	0	0	0	0	0	0	0	0	0	0	0	0	0	0	0	0	0	0	0	0	0	0	0	0	0	0	0	0	0	0	0	0	0	0	0	0	0	0	0	0	0	0	0	0	0	0	0	0	0	0	0	0	0	0	0	0	0	0	0	0	0	0	0	0	0	0	0	0	0	0	0	0	0	0	0	0	0	0	0	0	0	0	0	0	0	0	0	0	0	1345	1353	1350	1341	1346	1334	1335	1327	1331	1330	1336	1347	1359	1368	1342	1331	1323	1332	1345	1360	1369	1369	1367	1368	1363	1359	1354	1350	1342	1342	1339	1346	1339	1340	1351	1361	1373	1367	1357	1350	1349	1347	1350	1356	1368	1370	1363	1352	1349	1355	1361	1364	1359	1350	1337	1332	1337	1346	1342	1334	1332	1330	1333	1338	1343	1348	1350	1346	1333	1326	1336	1347	1360	1362	1358	1359	1349	1346	1341	1343	1345	1344	1346	1343	1346	1346	1339	1336	1341	1344	1352	1353	1340	1334	1341	1352	1355	1360	1363	1361	1361	1360	1354	1358	1357	1357	1362	1351	1338	1339	1358	1359	1363	1355	1337	1334	1332	1337	1342	1356	1362	1369	1365	1358	1351	1343	1334	1333	1337	1342	1336	1328	1326	1333	1336	1339	1341	1339	1340	1339	1340	1342	1345	1346	1341	1336	1327	1328	1334	1340	1342	1340	1348	1350	1345	1347	1360	1384	1376	1334	1329	1344	1353	1337	1337	1337	1337	1339	1340	1347	1363	1378	1374	1368	1360	1360	1359	1353	1345	1341	1339	1343	1350	1360	1363	1360	1346	1342	1338	1335	1343	1348	1346	1343	1343	1347	1350	1340	1333	1323	1323	1324	1318	1316	1320	1322	1334	1344	1355	1360	1360	1362	1358	1350	1341	1337	1327	1332	1340	1342	1353	1352	1348	1334	1334	1333	1331	1328	1332	1339	1334	1329	1323	1331	1339	1338	1338	1340	1350	1355	1356	1358	1360	1360	1355	1353	1343	1334	1325	1327	1332	1331	1333	1333	1332	1325	1318	1317	1315	1319	1327	1341	1347	1345	1340	1337	1328	1327	1320	1325	1338	1349	1357	1349	1341	1327	1319	1315	1319	1325	1333	1342	1332	1326	1317	1314	1311	1310	1319	1323	1330	1336	1337	1336	1336	1332	1323	1320	1328	1334	1332	1328	1333	1336	1337	1340	1334	1319	1326	1329	1336	1344	1350	1354	1344	1331	1322	1324	1333	1343	1359	0	0	0	0	0	0	0	0	0	0	0	0	0	0	0	0	0	0	0	0	0	0	0	0	0	1443	1431	1426	1429	1424	1426	1435	1425	1421	1417	1421	1427	1436	1441	1443	1437	1421	1413	1420	1419	1410	1403	1401	1406	1412	1418	1417	1416	1426	1438	1445	1447	1445	1434	1433	0	0	0	0	0	0	0	0	0	0	0	0	0	0	0	0	1387	1386	1396	1411	1411	1419	1420	1402	1377	1363	1372	1380	1388	1381	1370	1355	1361	1364	1366	1370	1367	1373	1373	1381	1383	1380	1378	1363	1358	1352	1356	1346	1335	1326	1326	1323	1330	1353	0	0	0	0	0	0
0	0	0	0	0	0	0	0	0	0	0	0	0	0	0	0	0	0	0	0	0	0	0	0	0	0	0	0	0	0	0	0	0	0	0	0	0	0	0	0	0	0	0	0	0	0	0	0	0	0	0	0	0	0	0	0	0	0	0	0	0	0	0	0	0	0	0	0	0	0	0	0	0	0	0	0	0	0	0	0	0	0	0	0	0	0	0	0	0	0	0	0	0	0	0	0	0	0	0	0	0	0	0	0	0	0	0	0	0	0	0	0	0	0	0	0	0	0	0	0	0	0	0	0	0	0	0	0	0	0	0	0	0	0	0	0	0	0	0	0	0	0	0	0	0	0	0	0	0	0	0	0	0	0	0	0	0	0	0	0	0	0	0	0	0	0	0	0	0	0	0	0	0	0	0	0	0	0	0	0	0	0	0	0	0	0	0	0	0	0	0	0	0	0	0	0	0	0	0	1356	1365	1360	1357	1347	1337	1334	1331	1334	1332	1340	1353	1363	1363	1340	1330	1329	1334	1347	1362	1364	1367	1363	1361	1362	1354	1355	1347	1346	1345	1341	1342	1346	1348	1354	1361	1367	1368	1361	1352	1346	1349	1354	1361	1364	1363	1359	1355	1356	1366	1368	1372	1365	1357	1338	1340	1341	1344	1345	1342	1335	1340	1340	1341	1342	1346	1349	1345	1334	1333	1337	1352	1363	1365	1368	1365	1361	1348	1346	1346	1348	1347	1349	1346	1343	1349	1352	1350	1347	1349	1353	1344	1338	1340	1348	1356	1366	1369	1372	1362	1357	1347	1350	1353	1353	1356	1359	1350	1349	1350	1356	1361	1364	1362	1352	1338	1336	1339	1342	1350	1363	1369	1367	1360	1348	1337	1325	1325	1329	1335	1332	1332	1332	1331	1338	1342	1342	1343	1341	1344	1347	1345	1347	1349	1346	1340	1328	1324	1333	1342	1344	1343	1348	1351	1346	1342	1358	1379	1378	1354	1340	1341	1347	1342	1342	1348	1349	1348	1341	1337	1358	1371	1367	1362	1353	1348	1348	1347	1344	1343	1341	1344	1344	1345	1356	1365	1368	1352	1345	1345	1347	1356	1352	1351	1349	1350	1353	1343	1334	1330	1326	1322	1327	1333	1333	1331	1333	1343	1347	1350	1354	1362	1361	1357	1343	1333	1328	1326	1334	1345	1361	1361	1355	1344	1325	1321	1328	1329	1333	1334	1334	1335	1335	1341	1341	1339	1334	1342	1351	1358	1354	1355	1357	1362	1361	1354	1348	1337	1333	1333	1331	1330	1327	1332	1330	1325	1324	1318	1319	1322	1329	1337	1341	1341	1337	1329	1334	1326	1325	1329	1342	1351	1362	1355	1347	1327	1317	1309	1313	1322	1332	1347	1347	1337	1324	1319	1313	1308	1317	1321	1330	1336	1340	1336	1335	1336	1324	1329	1332	1334	1343	1336	1341	1338	1344	1347	1340	1335	1331	1338	1337	1341	1349	1353	1343	1341	1335	1335	1338	1337	1334	1375	0	0	0	0	0	0	0	0	0	0	0	0	0	0	0	0	0	0	0	0	0	0	0	0	1434	1430	1431	1429	1409	1396	1400	1407	1411	1412	1419	1423	1434	1421	1412	1415	1417	1427	1434	1441	1440	1431	1422	1410	1409	1409	1405	1410	1417	1426	1438	1445	1449	1439	1422	1428	0	0	0	0	0	0	0	0	0	0	0	0	0	0	0	0	1401	1416	1419	1421	1421	1415	1404	1379	1370	1391	1398	1394	1383	1371	1351	1364	1365	1370	1371	1372	1377	1383	1383	1386	1384	1371	1364	1356	1361	1357	1349	1344	1333	1333	1333	1335	1354	0	0	0	0	0	0
0	0	0	0	0	0	0	0	0	0	0	0	0	0	0	0	0	0	0	0	0	0	0	0	0	0	0	0	0	0	0	0	0	0	0	0	0	0	0	0	0	0	0	0	0	0	0	0	0	0	0	0	0	0	0	0	0	0	0	0	0	0	0	0	0	0	0	0	0	0	0	0	0	0	0	0	0	0	0	0	0	0	0	0	0	0	0	0	0	0	0	0	0	0	0	0	0	0	0	0	0	0	0	0	0	0	0	0	1395	1388	0	0	1426	1410	1380	1365	1380	1391	1399	1395	1392	1394	1388	1370	1354	1342	1343	1347	1348	1351	1360	1370	1374	1378	1390	1390	1385	1365	1357	1372	1386	1388	1380	1377	1375	1376	1400	0	0	0	0	0	0	0	0	0	0	0	0	0	0	0	0	0	0	0	0	0	0	0	0	0	0	0	0	0	0	0	0	0	0	0	0	0	0	0	0	0	0	0	0	0	0	0	0	0	0	0	0	1372	1369	1370	1363	1362	1349	1336	1333	1334	1340	1347	1361	1367	1354	1343	1324	1331	1336	1347	1349	1357	1353	1352	1352	1356	1364	1360	1357	1358	1351	1340	1343	1350	1354	1363	1368	1372	1371	1358	1349	1350	1350	1353	1354	1365	1361	1355	1354	1362	1366	1367	1371	1366	1357	1345	1339	1342	1344	1347	1348	1347	1348	1349	1344	1340	1339	1350	1341	1333	1332	1336	1349	1361	1362	1364	1366	1356	1348	1344	1342	1343	1346	1344	1344	1347	1351	1356	1356	1348	1349	1352	1340	1342	1342	1352	1354	1363	1375	1371	1364	1355	1339	1344	1343	1350	1349	1349	1355	1356	1355	1353	1354	1353	1356	1349	1348	1344	1340	1343	1351	1355	1360	1362	1359	1348	1335	1323	1321	1329	1336	1337	1330	1328	1332	1337	1337	1340	1340	1341	1350	1354	1350	1346	1343	1349	1347	1332	1324	1328	1336	1341	1344	1339	1349	1344	1341	1350	1379	1379	1378	1352	1339	1339	1342	1347	1350	1355	1360	1354	1348	1353	1355	1357	1356	1346	1340	1342	1337	1347	1345	1342	1338	1333	1336	1345	1360	1371	1359	1349	1347	1349	1351	1352	1353	1354	1353	1355	1350	1343	1336	1336	1335	1343	1346	1344	1336	1329	1335	1334	1338	1345	1352	1359	1351	1340	1330	1325	1329	1337	1347	1358	1359	1357	1342	1328	1326	1328	1331	1335	1333	1332	1337	1341	1347	1342	1333	1333	1338	1347	1353	1354	1350	1351	1349	1350	1344	1340	1334	1333	1337	1337	1335	1328	1332	1336	1337	1329	1327	1326	1328	1330	1331	1334	1333	1327	1329	1331	1335	1335	1340	1345	1349	1352	1352	1348	1338	1325	1323	1323	1327	1329	1337	1351	1340	1333	1327	1320	1323	1323	1329	1338	1344	1346	1343	1341	1339	1337	1335	1340	1344	1348	1344	1348	1342	1351	1353	1351	1348	1345	1342	1343	1341	1340	1349	1348	1340	1335	1345	1345	1329	1334	1356	0	0	0	0	0	0	0	0	0	0	0	0	0	0	0	0	0	0	0	0	0	0	0	0	1424	1421	1416	1412	1405	1378	1372	1409	1413	1412	1412	1415	1420	1415	1402	1404	1409	1418	1425	1428	1429	1422	1420	1417	1418	1418	1412	1409	1410	1420	1430	1440	1446	1442	1425	1415	0	0	0	0	0	0	0	0	0	0	0	0	0	0	0	0	1406	1430	1434	1425	1425	1410	1383	1373	1379	1399	1404	1398	1391	1376	1356	1358	1370	1368	1368	1371	1375	1380	1380	1364	1368	1368	1368	1372	1364	1360	1350	1347	1346	1349	1349	1352	1358	0	0	0	0	0	0
0	0	0	0	0	0	0	0	0	0	0	0	0	0	0	0	0	0	0	0	0	0	0	0	0	0	0	0	0	0	0	0	0	0	0	0	0	0	0	0	0	0	0	0	0	0	0	0	0	0	0	0	0	0	0	0	0	0	0	0	0	0	0	0	0	0	0	0	0	0	0	0	0	0	0	0	0	0	0	0	0	0	0	0	0	0	0	0	0	0	0	0	0	0	0	0	0	0	0	0	0	0	1411	1396	1390	1398	1398	1388	1377	1382	1374	1382	1388	1380	1360	1359	1367	1379	1390	1390	1382	1369	1356	1349	1356	1363	1370	1365	1358	1352	1351	1348	1370	1384	1388	1382	1373	1365	1354	1358	1354	1354	1357	1362	1366	1373	1377	1399	0	0	0	0	0	0	0	0	0	0	0	0	0	0	0	0	0	0	0	0	0	0	0	0	0	0	0	0	0	0	0	0	0	0	0	0	0	0	0	0	0	0	0	0	0	0	0	0	0	0	1364	1366	1359	1360	1374	1366	1358	1345	1335	1337	1344	1358	1367	1374	1355	1337	1325	1328	1340	1347	1351	1346	1342	1340	1347	1359	1368	1371	1363	1362	1356	1338	1335	1343	1357	1368	1371	1371	1368	1361	1351	1348	1354	1357	1361	1366	1362	1356	1356	1364	1363	1360	1358	1357	1351	1340	1337	1335	1341	1353	1356	1360	1360	1358	1348	1343	1335	1337	1333	1327	1328	1334	1347	1359	1361	1362	1364	1357	1336	1330	1329	1334	1344	1341	1342	1342	1347	1355	1355	1351	1347	1345	1344	1345	1347	1352	1353	1369	1369	1364	1352	1354	1348	1342	1336	1330	1330	1342	1358	1361	1357	1350	1342	1346	1349	1350	1346	1347	1354	1351	1347	1350	1356	1367	1361	1347	1335	1331	1332	1347	1352	1351	1344	1335	1329	1331	1335	1337	1339	1342	1348	1356	1353	1348	1348	1354	1355	1347	1336	1333	1337	1340	1343	1342	1341	1344	1341	1345	1381	1376	1384	1368	1345	1337	1339	1345	1352	1354	1359	1359	1354	1349	1353	1355	1352	1345	1337	1341	1347	1346	1344	1337	1331	1329	1335	1341	1353	1361	1363	1348	1345	1345	1347	1348	1352	1355	1354	1351	1355	1355	1352	1345	1349	1350	1349	1344	1332	1325	1320	1322	1328	1332	1340	1344	1344	1338	1337	1328	1328	1332	1343	1349	1346	1339	1340	1332	1331	1332	1334	1339	1335	1333	1335	1349	1351	1345	1333	1335	1339	1344	1347	1351	1353	1352	1350	1342	1332	1328	1326	1328	1332	1338	1331	1328	1324	1331	1333	1330	1331	1330	1335	1333	1332	1327	1325	1324	1332	1342	1347	1344	1341	1347	1339	1344	1346	1348	1343	1341	1344	1343	1338	1333	1340	1351	1347	1337	1336	1337	1334	1334	1341	1348	1352	1358	1356	1348	1337	1333	1331	1343	1348	1349	1347	1341	1340	1343	1353	1359	1347	1343	1344	1345	1340	1345	1353	1351	1342	1338	1347	1345	1336	1333	1355	0	0	0	0	0	0	0	0	0	0	0	0	0	0	0	0	0	0	0	0	0	0	0	0	1433	1420	1419	1414	1403	1379	1390	1427	1420	1413	1410	1411	1415	1414	1399	1396	1410	1412	1425	1430	1432	1427	1426	1420	1424	1422	1415	1412	1415	1417	1424	1434	1444	1442	1434	1424	0	0	0	0	0	0	0	0	0	0	0	0	0	0	0	0	0	1435	1437	1430	1430	1401	1378	1359	1381	1395	1407	1400	1394	1383	1365	1373	1369	1368	1362	1362	1366	1371	1360	1365	1359	1362	1373	1382	1371	1360	1351	1347	1355	1364	1364	1370	1362	0	0	0	0	0	0
0	0	0	0	0	0	0	0	0	0	0	0	0	0	0	0	0	0	0	0	0	0	0	0	0	0	0	0	0	0	0	0	0	0	0	0	0	0	0	0	0	0	0	0	0	0	0	0	0	0	0	0	0	0	0	0	0	0	0	0	0	0	0	0	0	0	0	0	0	0	0	0	0	0	0	0	0	0	0	0	0	0	0	0	0	0	0	0	0	0	0	0	0	0	0	0	0	0	0	0	0	1410	1405	1391	1374	1359	1350	1350	1365	1374	1378	1380	1376	1362	1358	1360	1370	1373	1375	1379	1372	1369	1362	1361	1360	1366	1365	1365	1359	1346	1342	1346	1352	1367	1378	1377	1367	1365	1364	1359	1359	1357	1360	1364	1369	1373	1379	1385	1364	0	0	0	0	0	0	0	0	0	0	0	0	0	0	0	0	0	0	0	0	0	0	0	0	0	0	0	0	0	0	0	0	0	0	0	0	0	0	0	0	0	0	0	0	0	0	0	0	0	1359	1345	1350	1362	1368	1370	1365	1350	1336	1337	1349	1362	1371	1374	1358	1339	1332	1335	1342	1350	1358	1354	1347	1346	1349	1357	1367	1367	1365	1358	1353	1343	1335	1338	1345	1352	1362	1365	1365	1361	1360	1356	1355	1358	1363	1366	1363	1361	1360	1363	1358	1354	1349	1344	1343	1340	1335	1331	1341	1354	1361	1364	1365	1364	1347	1340	1334	1339	1333	1327	1327	1327	1350	1367	1367	1370	1364	1344	1332	1323	1318	1324	1333	1342	1345	1348	1352	1357	1360	1357	1346	1346	1348	1348	1347	1351	1352	1353	1349	1353	1355	1362	1363	1354	1343	1332	1330	1340	1356	1361	1356	1347	1342	1341	1342	1348	1348	1353	1359	1359	1350	1350	1361	1366	1359	1348	1338	1341	1349	1365	1368	1359	1346	1328	1328	1322	1328	1333	1337	1341	1345	1352	1352	1349	1353	1352	1362	1358	1347	1342	1341	1344	1349	1351	1353	1349	1343	1348	1390	1383	1383	1384	1347	1342	1343	1348	1356	1363	1363	1359	1349	1347	1346	1347	1341	1339	1338	1342	1348	1356	1347	1343	1334	1330	1333	1341	1347	1348	1351	1347	1341	1341	1344	1345	1349	1354	1351	1350	1352	1347	1357	1355	1350	1347	1344	1338	1329	1321	1316	1321	1322	1324	1328	1334	1338	1341	1341	1331	1327	1330	1337	1342	1343	1339	1341	1340	1330	1329	1339	1335	1333	1329	1341	1351	1351	1343	1337	1340	1343	1346	1350	1354	1355	1355	1351	1339	1331	1325	1317	1322	1327	1335	1332	1328	1318	1322	1329	1332	1333	1342	1345	1340	1334	1326	1325	1330	1329	1345	1350	1351	1344	1346	1342	1340	1347	1348	1346	1348	1357	1358	1356	1353	1350	1344	1342	1341	1344	1347	1350	1355	1355	1360	1363	1363	1362	1350	1342	1333	1328	1344	1345	1347	1346	1341	1333	1333	1338	1346	1335	1328	1336	1339	1342	1339	1350	1349	1344	1341	1337	1350	1350	1346	1361	0	0	0	0	0	0	0	0	0	0	0	0	0	0	0	0	0	0	0	0	0	0	0	0	1442	1436	1427	1415	1409	1395	1424	1435	1422	1416	1408	1414	1412	1418	1409	1410	1414	1418	1429	1435	1436	1429	1425	1423	1424	1423	1422	1420	1423	1422	1422	1422	1446	1451	1445	1439	0	0	0	0	0	0	0	0	0	0	0	0	0	0	0	0	0	1423	1426	1424	1402	1402	1375	1369	1388	1390	1396	1396	1390	1384	1380	1374	1366	1362	1357	1358	1357	1358	1360	1360	1355	1357	1372	1382	1377	1366	1351	1352	1358	1370	1370	1379	1374	0	0	0	0	0	0
0	0	0	0	0	0	0	0	0	0	0	0	0	0	0	0	0	0	0	0	0	0	0	0	0	0	0	0	0	0	0	0	0	0	0	0	0	0	0	0	0	0	0	0	0	0	0	0	0	0	0	0	0	0	0	0	0	0	0	0	0	0	0	0	0	0	0	0	0	0	0	0	0	0	0	0	0	0	0	0	0	0	0	0	0	0	0	0	0	0	0	0	0	0	0	0	0	0	0	0	1407	1409	1407	1389	1374	1362	1357	1366	1368	1368	1366	1368	1366	1364	1358	1366	1370	1371	1366	1365	1369	1368	1372	1365	1360	1363	1363	1365	1357	1354	1354	1342	1346	1348	1353	1353	1355	1362	1360	1359	1363	1361	1367	1363	1368	1370	1370	1376	1372	0	0	0	0	0	0	0	0	0	0	0	0	0	0	0	0	0	0	0	0	0	0	0	0	0	0	0	0	0	0	0	0	0	0	0	0	0	0	0	0	0	0	0	0	0	0	0	0	1353	1332	1345	1348	1351	1360	1368	1366	1356	1349	1346	1351	1360	1368	1369	1359	1352	1342	1338	1361	1363	1368	1363	1353	1349	1352	1350	1359	1366	1364	1357	1353	1351	1344	1338	1333	1340	1353	1354	1360	1364	1361	1354	1352	1354	1356	1357	1354	1356	1355	1354	1352	1350	1344	1342	1346	1345	1340	1338	1336	1348	1361	1366	1368	1362	1351	1348	1344	1344	1337	1334	1332	1343	1356	1373	1384	1379	1356	1341	1329	1321	1318	1319	1335	1345	1353	1354	1359	1360	1366	1366	1348	1348	1348	1345	1345	1348	1350	1346	1348	1352	1364	1369	1370	1363	1346	1335	1330	1343	1349	1354	1353	1350	1350	1348	1351	1352	1354	1360	1364	1365	1355	1351	1353	1353	1354	1345	1342	1348	1365	1375	1375	1363	1339	1327	1329	1327	1330	1337	1339	1343	1344	1347	1349	1362	1365	1367	1363	1363	1358	1352	1349	1350	1355	1357	1360	1358	1350	1352	1404	1401	1394	1385	1347	1345	1349	1355	1360	1364	1361	1356	1348	1342	1337	1336	1334	1333	1333	1344	1354	1357	1353	1340	1337	1331	1335	1342	1346	1344	1344	1348	1338	1334	1333	1339	1344	1350	1347	1337	1337	1341	1350	1350	1347	1342	1342	1340	1332	1325	1322	1323	1323	1323	1323	1330	1335	1341	1341	1339	1329	1331	1339	1337	1344	1335	1336	1333	1329	1333	1338	1344	1343	1335	1338	1344	1349	1350	1348	1353	1353	1354	1353	1357	1355	1353	1349	1338	1334	1329	1326	1323	1328	1335	1342	1331	1319	1323	1334	1338	1338	1343	1344	1341	1331	1327	1333	1341	1347	1351	1349	1349	1356	1346	1350	1348	1347	1354	1353	1350	1357	1364	1370	1367	1364	1346	1344	1343	1351	1355	1358	1360	1365	1365	1369	1366	1366	1355	1343	1340	1340	1348	1347	1347	1344	1337	1332	1324	1324	1325	1326	1329	1335	1339	1334	1335	1344	1350	1345	1340	1332	1353	1363	1359	1370	0	0	0	0	0	0	0	0	0	0	0	0	0	0	0	0	0	0	0	0	0	0	0	0	1445	1445	1427	1428	1433	1422	1438	1434	1432	1422	1416	1418	1421	1425	1425	1418	1415	1426	1438	1444	1437	1431	1424	1423	1421	1421	1423	1426	1430	1426	1418	1420	1449	1458	1448	1435	0	0	0	0	0	0	0	0	0	0	0	0	0	0	0	0	1422	1423	1423	1412	1394	1394	1379	1385	1396	1380	1387	1385	1379	1381	1368	1368	1362	1364	1363	1356	1361	1357	1360	1360	1352	1357	1364	1379	1377	1370	1361	1357	1364	1370	1375	1375	1371	0	0	0	0	0	0
0	0	0	0	0	0	0	0	0	0	0	0	0	0	0	0	0	0	0	0	0	0	0	0	0	1395	1395	1401	1406	1408	1420	1426	1425	1417	1398	1398	1389	1373	1381	1392	1393	1387	1385	1385	1398	1398	1398	1393	1395	1401	1394	1381	1373	1380	0	0	0	0	0	0	0	0	0	0	0	0	0	0	0	1418	1406	1417	1425	1428	1419	1415	1405	1412	1422	1423	1414	1382	1374	1383	1417	1450	1483	1490	1481	1462	1440	1425	1405	1405	1419	1447	1448	1441	1433	1425	1419	1416	1405	1390	1366	1364	1367	1378	1375	1363	1351	1349	1348	1352	1355	1361	1360	1353	1349	1358	1358	1359	1361	1367	1363	1364	1362	1368	1372	1366	1356	1338	1349	1354	1355	1348	1345	1347	1351	1347	1350	1365	1366	1367	1362	1364	1363	1369	1387	0	0	0	0	0	0	0	0	0	0	0	0	0	0	0	0	0	0	0	0	0	0	0	0	0	0	0	0	0	0	0	0	0	0	0	0	0	0	0	0	0	0	0	0	0	0	0	0	1342	1344	1342	1343	1358	1372	1372	1371	1367	1359	1352	1352	1357	1363	1365	1359	1357	1362	1364	1367	1372	1377	1368	1357	1345	1341	1345	1352	1364	1368	1362	1356	1364	1358	1349	1342	1342	1341	1345	1357	1358	1360	1353	1348	1343	1341	1340	1344	1344	1347	1349	1350	1351	1345	1342	1348	1345	1342	1344	1350	1358	1361	1358	1352	1352	1348	1351	1357	1356	1340	1335	1343	1354	1369	1382	1390	1372	1350	1337	1331	1328	1323	1325	1335	1350	1360	1366	1369	1372	1371	1352	1351	1352	1350	1345	1342	1340	1347	1351	1356	1364	1369	1374	1374	1369	1355	1345	1340	1341	1342	1350	1354	1358	1354	1357	1354	1356	1363	1367	1370	1363	1353	1340	1341	1344	1345	1340	1335	1345	1364	1375	1372	1356	1343	1339	1334	1338	1342	1352	1355	1350	1343	1346	1353	1366	1372	1367	1362	1361	1364	1360	1353	1354	1355	1362	1363	1367	1362	1358	1414	1412	1397	1367	1338	1342	1348	1357	1363	1369	1367	1360	1348	1337	1334	1336	1339	1332	1344	1349	1358	1357	1347	1338	1330	1330	1333	1347	1346	1345	1347	1345	1330	1325	1326	1332	1344	1349	1341	1340	1345	1346	1346	1346	1343	1340	1344	1343	1338	1333	1328	1323	1320	1319	1322	1322	1327	1333	1343	1346	1340	1339	1343	1340	1330	1328	1321	1320	1331	1338	1344	1346	1342	1337	1338	1345	1352	1358	1364	1365	1364	1360	1359	1357	1352	1355	1351	1349	1341	1340	1346	1343	1342	1338	1341	1330	1329	1336	1341	1341	1344	1352	1352	1343	1331	1328	1337	1351	1358	1361	1352	1353	1366	1367	1359	1355	1347	1348	1354	1349	1355	1365	1373	1378	1377	1356	1349	1347	1348	1349	1356	1362	1368	1372	1374	1371	1367	1358	1353	1346	1347	1346	1346	1346	1348	1340	1332	1324	1327	1325	1335	1340	1340	1350	1343	1337	1339	1350	1348	1343	1339	1361	1379	1381	1396	0	0	0	0	0	0	0	0	0	0	0	0	0	0	0	0	0	0	0	0	0	0	0	0	1439	1439	1426	1435	1449	1442	1437	1426	1429	1430	1434	1434	1441	1441	1436	1430	1425	1433	1447	1447	1443	1428	1422	1421	1421	1422	1426	1431	1431	1426	1421	1430	1447	1453	1440	1428	0	0	0	0	0	0	0	0	0	0	0	0	0	0	1412	1424	1425	1418	1423	1391	1387	1395	1395	1413	1409	1378	1376	1378	1375	1366	1350	1353	1357	1362	1364	1363	1366	1366	1364	1364	1356	1354	1357	1363	1372	1374	1369	1366	1366	1366	1364	1364	1360	0	0	0	0	0	0
0	0	0	0	0	0	0	0	0	0	0	1417	1417	1405	0	1377	1387	1413	1446	1446	1449	1425	1400	1367	1336	1335	1335	1355	1370	1398	1408	1414	1417	1407	1400	1400	1392	1379	1389	1411	1430	1439	1426	1421	1423	1423	1408	1403	1385	1387	1402	1405	1393	1368	1390	0	0	0	0	0	0	0	0	1440	1416	1412	1411	1411	1401	1378	1379	1385	1398	1417	1431	1441	1436	1426	1415	1407	1408	1401	1397	1393	1387	1390	1404	1428	1444	1447	1439	1428	1428	1419	1413	1410	1416	1431	1435	1422	1420	1405	1396	1375	1370	1369	1370	1373	1375	1357	1344	1342	1341	1343	1351	1353	1355	1353	1353	1354	1355	1355	1356	1362	1369	1365	1366	1364	1365	1364	1353	1329	1344	1359	1360	1355	1346	1344	1340	1338	1346	1360	1362	1363	1364	1362	1356	1357	1362	1373	0	0	0	0	0	0	0	0	0	0	0	0	0	0	0	0	0	0	0	0	0	0	0	0	0	0	0	0	0	0	0	0	0	0	0	0	0	0	0	0	0	0	0	0	0	0	0	1329	1312	1349	1358	1370	1375	1375	1375	1373	1366	1362	1355	1353	1368	1369	1362	1357	1355	1355	1362	1367	1369	1367	1359	1347	1338	1344	1357	1368	1370	1362	1361	1364	1365	1360	1352	1351	1347	1345	1353	1364	1360	1352	1345	1338	1337	1335	1334	1336	1341	1343	1353	1362	1356	1341	1347	1344	1343	1346	1354	1362	1358	1352	1339	1338	1340	1347	1358	1358	1341	1340	1347	1363	1378	1388	1380	1357	1347	1338	1338	1338	1333	1329	1332	1344	1364	1371	1375	1373	1365	1351	1352	1355	1353	1344	1336	1334	1344	1351	1360	1369	1373	1374	1373	1368	1363	1355	1347	1339	1337	1346	1357	1367	1365	1372	1356	1360	1365	1370	1365	1355	1345	1340	1335	1337	1337	1336	1334	1344	1360	1373	1364	1359	1361	1353	1344	1349	1356	1367	1363	1352	1351	1350	1358	1371	1373	1367	1359	1360	1361	1360	1355	1349	1347	1353	1366	1368	1365	1360	1415	1411	1385	1331	1332	1325	1337	1342	1351	1356	1364	1359	1348	1339	1341	1348	1350	1353	1363	1360	1357	1350	1340	1325	1319	1323	1320	1330	1326	1348	1350	1342	1331	1319	1325	1336	1352	1358	1354	1352	1355	1356	1349	1347	1345	1347	1346	1345	1337	1335	1330	1326	1318	1313	1313	1319	1320	1324	1338	1350	1349	1351	1354	1351	1342	1328	1325	1321	1328	1342	1345	1347	1348	1358	1356	1354	1355	1365	1375	1377	1375	1365	1353	1347	1353	1356	1351	1344	1347	1356	1363	1356	1357	1348	1343	1337	1335	1339	1338	1341	1353	1361	1355	1342	1330	1319	1333	1359	1375	1379	1362	1362	1368	1370	1368	1363	1358	1351	1356	1356	1363	1369	1375	1378	1385	1380	1357	1342	1341	1348	1354	1360	1371	1382	1372	1377	1374	1368	1355	1351	1354	1348	1347	1346	1347	1342	1334	1332	1330	1337	1344	1355	1359	1356	1349	1341	1342	1355	1353	1348	1357	1373	1380	1412	1432	0	0	0	0	0	0	0	0	0	0	0	0	0	0	0	0	0	0	0	0	0	0	0	0	1429	1431	1422	1433	1450	1450	1435	1424	1423	1428	1437	1448	1452	1453	1444	1434	1430	1435	1442	1445	1435	1426	1430	1435	1434	1429	1425	1429	1432	1426	1421	1431	1443	1423	1428	1409	0	0	0	0	0	0	0	0	0	0	0	0	0	0	0	1433	1424	1425	1399	1381	1385	1398	1398	1415	1408	1372	1374	1372	1369	1363	1341	1345	1350	1355	1356	1356	1366	1372	1367	1367	1356	1357	1358	1368	1370	1373	1374	1371	1367	1362	1360	1360	1356	0	0	0	0	0	0
0	0	0	0	0	0	0	0	0	0	1412	1404	1404	1390	1390	1389	1391	1406	1406	1412	1419	1409	1383	1356	1340	1339	1339	1362	1379	1401	1409	1404	1404	1402	1402	1405	1404	1394	1400	1413	1426	1436	1425	1420	1428	1428	1411	1392	1383	1389	1402	1411	1400	1385	1390	1414	0	0	0	0	0	0	1430	1406	1405	1403	1403	1409	1402	1401	1396	1398	1412	1426	1438	1439	1426	1406	1394	1379	1377	1393	1404	1405	1396	1394	1411	1429	1444	1444	1446	1439	1431	1424	1429	1423	1422	1428	1434	1417	1400	1388	1370	1370	1371	1369	1368	1373	1370	1360	1352	1344	1344	1344	1356	1355	1356	1360	1364	1361	1351	1345	1349	1358	1369	1370	1363	1357	1363	1362	1353	1334	1337	1352	1357	1357	1354	1345	1341	1343	1348	1350	1363	1364	1370	1366	1366	1361	1351	1372	0	0	0	0	0	0	0	0	0	0	0	0	0	0	0	0	0	0	0	0	0	0	0	0	0	0	0	0	0	0	0	0	0	0	0	0	0	0	0	0	0	0	0	0	0	0	0	1323	1326	1361	1365	1375	1373	1371	1371	1370	1369	1367	1360	1366	1366	1360	1358	1352	1344	1341	1350	1359	1366	1365	1359	1342	1336	1346	1364	1372	1367	1365	1362	1360	1364	1362	1356	1346	1342	1350	1347	1361	1366	1354	1346	1336	1337	1338	1337	1338	1337	1343	1353	1360	1364	1342	1346	1343	1346	1346	1353	1360	1360	1354	1338	1338	1335	1338	1344	1349	1345	1340	1351	1369	1381	1384	1373	1356	1341	1340	1345	1346	1336	1334	1338	1353	1370	1377	1375	1367	1345	1346	1351	1355	1352	1343	1335	1332	1336	1342	1356	1366	1376	1375	1373	1369	1367	1358	1348	1342	1337	1347	1363	1374	1370	1363	1354	1359	1366	1366	1360	1349	1338	1338	1336	1338	1337	1336	1337	1346	1359	1369	1371	1369	1367	1360	1355	1356	1360	1371	1370	1367	1357	1356	1359	1370	1372	1366	1360	1357	1357	1355	1352	1344	1342	1351	1360	1364	1364	1372	1401	1408	1400	1348	1316	1335	1343	1353	1361	1367	1369	1369	1366	1361	1353	1350	1348	1353	1359	1350	1349	1345	1347	1343	1347	1344	1338	1317	1307	1321	1342	1351	1348	1347	1351	1360	1367	1369	1364	1375	1380	1379	1372	1359	1353	1348	1340	1335	1330	1336	1342	1359	1355	1339	1322	1311	1316	1336	1345	1353	1362	1370	1363	1358	1349	1353	1341	1331	1335	1343	1346	1349	1376	1392	1390	1375	1365	1365	1359	1348	1336	1325	1326	1328	1333	1322	1305	1305	1323	1364	1381	1388	1380	1369	1351	1348	1347	1342	1339	1345	1355	1359	1348	1326	1315	1305	1304	1301	1301	1314	1325	1329	1366	1372	1393	1388	1380	1366	1367	1367	1368	1361	1356	1368	1378	1377	1361	1349	1334	1335	1345	1360	1381	1391	1378	1367	1357	1344	1352	1347	1339	1345	1343	1342	1347	1353	1353	1346	1338	1334	1327	1341	1349	1352	1343	1335	1325	1345	1358	1364	1359	1364	1375	1414	1451	0	0	0	0	0	0	0	0	0	0	0	0	0	0	0	0	0	0	0	0	0	0	0	0	1430	1428	1428	1430	1438	1446	1425	1422	1418	1420	1420	1421	1418	1421	1433	1425	1422	1416	1415	1403	1397	1398	1399	1395	1384	1376	1386	1414	1426	1421	1402	1401	1410	1422	1404	1404	0	0	0	0	0	0	0	0	0	1357	1376	1417	0	0	0	1432	1419	1401	1385	1376	1383	1394	1394	1406	1388	1367	1368	1370	1365	1358	1344	1347	1348	1344	1348	1359	1373	1376	1375	1376	1376	1376	1371	1368	1371	1374	1375	1373	1369	1364	1369	1369	1364	0	0	0	0	0	0
0	0	1406	1410	0	0	0	0	0	0	1404	1386	1386	1377	1390	1404	1413	1412	1412	1405	1394	1386	1380	1370	1361	1362	1362	1376	1392	1397	1398	1397	1402	1404	1404	1408	1403	1408	1397	1406	1402	1395	1380	1388	1388	1391	1381	1379	1378	1387	1399	1411	1411	1389	1399	1415	1414	1437	1437	1438	1445	1436	1408	1401	1402	1404	1409	1405	1408	1416	1420	1419	1424	1427	1425	1422	1416	1403	1392	1374	1369	1387	1398	1408	1406	1403	1413	1428	1428	1437	1440	1435	1429	1427	1424	1421	1412	1415	1433	1419	1393	1384	1378	1370	1377	1377	1367	1365	1360	1363	1358	1353	1353	1354	1361	1363	1363	1372	1382	1379	1351	1337	1346	1356	1371	1369	1362	1356	1360	1365	1364	1344	1332	1336	1351	1361	1360	1351	1345	1342	1350	1353	1360	1369	1376	1378	1374	1366	1353	1371	0	0	0	0	0	0	0	0	0	0	0	0	0	0	0	0	0	0	0	0	0	0	0	0	0	0	0	0	0	0	0	0	0	0	0	0	0	0	0	0	0	0	0	0	0	0	0	1333	1352	1373	1373	1373	1370	1372	1371	1375	1375	1372	1372	1369	1364	1346	1345	1344	1338	1338	1346	1355	1366	1369	1353	1347	1344	1357	1368	1370	1369	1368	1364	1359	1358	1361	1359	1347	1343	1339	1340	1354	1358	1353	1346	1342	1346	1350	1346	1345	1345	1346	1349	1358	1360	1345	1347	1346	1352	1354	1360	1360	1365	1357	1350	1345	1338	1336	1340	1344	1343	1343	1353	1363	1375	1373	1366	1354	1347	1341	1343	1347	1341	1341	1348	1357	1369	1372	1368	1357	1337	1338	1353	1361	1353	1345	1336	1327	1333	1343	1353	1361	1370	1373	1375	1371	1371	1364	1357	1347	1348	1356	1376	1373	1370	1357	1352	1347	1349	1349	1353	1345	1339	1342	1344	1343	1344	1344	1347	1354	1367	1371	1370	1369	1362	1355	1349	1351	1357	1369	1382	1372	1364	1360	1371	1372	1374	1371	1358	1351	1352	1349	1348	1343	1338	1341	1346	1354	1378	1384	1396	1419	1410	1346	1317	1341	1359	1365	1372	1375	1372	1373	1369	1366	1357	1348	1348	1350	1352	1352	1348	1346	1343	1340	1335	1342	1333	1317	1310	1322	1342	1370	1386	1388	1338	1325	1335	1346	1356	1361	1374	1382	1377	1373	1367	1358	1355	1348	1340	1341	1352	1376	1384	1370	1343	1315	1313	1326	1348	1369	1375	1380	1375	1368	1369	1379	1356	1330	1325	1335	1341	1331	1327	1323	1328	1343	1366	1390	1385	1362	1342	1325	1329	1335	1330	1318	1307	1305	1309	1335	1354	1357	1347	1359	1363	1362	1363	1369	1361	1356	1354	1348	1327	1311	1308	1308	1310	1309	1302	1306	1325	1325	1333	1340	1356	1394	1404	1390	1369	1353	1351	1349	1346	1340	1329	1323	1337	1338	1330	1328	1347	1376	1398	1396	1392	1376	1370	1361	1351	1342	1339	1331	1330	1333	1343	1350	1348	1340	1327	1323	1326	1334	1348	1350	1341	1330	1320	1343	1353	1358	1360	1357	1367	1398	1423	1440	0	0	0	0	0	0	0	0	0	0	0	0	0	0	0	0	0	0	0	0	0	0	0	1441	1430	1424	1422	1422	1426	1428	1425	1411	1405	1380	1394	1421	1426	1421	1425	1419	1410	1395	1398	1403	1401	1406	1413	1427	1437	1442	1453	1455	1426	1385	1370	1377	1390	1407	1408	1398	0	0	0	0	0	0	0	0	1373	1382	0	0	0	0	0	0	1391	1382	1379	1386	1391	1386	1386	1373	1362	1371	1369	1365	1357	1347	1350	1350	1349	1341	1346	1373	1377	1381	1383	1383	1381	1375	1376	1375	1377	1375	1374	1375	1375	1381	1381	1384	0	0	0	0	0	0
0	0	1395	1391	0	0	0	0	0	1395	1384	1384	1375	1376	1396	1411	1422	1413	1413	1402	1393	1386	1389	1386	1377	1377	1383	1387	1389	1387	1387	1388	1398	1403	1403	1403	1408	1401	1394	1384	1365	1366	1369	1372	1372	1373	1374	1375	1376	1385	1395	1408	1412	1392	1398	1414	1419	1423	1423	1429	1426	1426	1401	1399	1402	1403	1399	1406	1418	1428	1434	1433	1432	1423	1407	1407	1406	1404	1397	1383	1383	1396	1403	1412	1412	1413	1413	1414	1421	1431	1433	1436	1428	1421	1416	1404	1397	1411	1436	1417	1400	1384	1384	1382	1379	1369	1358	1350	1353	1359	1366	1363	1362	1364	1363	1367	1371	1378	1390	1387	1365	1349	1348	1353	1362	1372	1363	1361	1368	1379	1370	1355	1344	1344	1352	1362	1367	1361	1352	1347	1355	1362	1364	1367	1372	1378	1373	1368	1353	1369	0	0	0	0	0	0	0	0	0	0	0	0	0	0	0	0	0	0	0	0	0	0	0	0	0	0	0	0	0	0	0	0	0	0	0	0	0	0	0	0	0	0	0	0	0	0	0	1338	1358	1370	1377	1378	1375	1378	1385	1380	1375	1372	1372	1368	1356	1342	1342	1342	1335	1337	1343	1359	1367	1362	1356	1347	1355	1365	1369	1368	1367	1376	1366	1356	1362	1360	1357	1357	1347	1347	1347	1349	1351	1352	1354	1351	1349	1353	1353	1353	1355	1353	1352	1357	1361	1349	1347	1352	1362	1369	1370	1367	1364	1362	1361	1354	1354	1350	1348	1346	1339	1335	1344	1352	1367	1365	1359	1353	1350	1345	1348	1347	1349	1352	1355	1358	1365	1365	1357	1341	1332	1340	1359	1364	1364	1355	1345	1340	1340	1344	1353	1355	1357	1369	1370	1377	1381	1369	1359	1352	1358	1367	1369	1373	1367	1348	1341	1339	1337	1343	1345	1347	1343	1345	1344	1345	1347	1349	1354	1363	1366	1367	1363	1368	1364	1353	1344	1342	1352	1364	1379	1381	1378	1373	1377	1377	1373	1372	1364	1355	1344	1330	1325	1327	1331	1340	1350	1365	1374	1381	1408	1423	1420	1367	1343	1352	1365	1374	1378	1376	1372	1373	1372	1365	1354	1339	1333	1334	1340	1340	1337	1334	1326	1321	1326	1334	1344	1336	1336	1338	1335	1343	1347	1353	1346	1327	1333	1348	1354	1359	1365	1373	1379	1373	1370	1365	1354	1345	1337	1334	1342	1371	1379	1377	1347	1322	1321	1335	1358	1376	1384	1381	1377	1374	1375	1380	1359	1335	1329	1339	1347	1332	1323	1322	1323	1339	1364	1391	1392	1370	1343	1333	1333	1332	1334	1327	1317	1319	1324	1343	1356	1349	1335	1348	1356	1359	1368	1380	1374	1366	1353	1339	1320	1305	1304	1318	1321	1328	1327	1329	1327	1333	1337	1348	1359	1366	1375	1377	1369	1353	1351	1359	1352	1342	1329	1322	1340	1344	1339	1337	1347	1373	1395	1399	1394	1383	1375	1371	1358	1346	1335	1318	1317	1329	1337	1346	1342	1333	1322	1315	1321	1327	1340	1341	1334	1321	1315	1330	1346	1352	1349	1358	1367	1391	1412	1431	1477	0	0	0	0	0	0	0	0	0	0	0	0	0	0	0	0	0	0	0	0	0	0	1441	1426	1421	1419	1410	1416	1439	1423	1406	1376	1372	1392	1411	1425	1431	1425	1418	1401	1403	1406	1401	1403	1406	1422	1445	1451	1454	1447	1435	1423	1388	1380	1374	1397	1409	1414	1417	0	0	0	0	0	0	0	0	0	0	0	0	0	0	0	0	1392	1392	1393	1394	1395	1386	1386	1384	1379	1375	1375	1368	1352	1349	1350	1358	1357	1353	1357	1370	1376	1386	1385	1385	1385	1384	1379	1379	1373	1371	1370	1378	1384	1393	1393	1393	0	0	0	0	0	0
0	0	1397	1399	0	0	0	0	0	1373	1363	1363	1366	1367	1375	1403	1410	1405	1405	1396	1396	1395	1393	1395	1399	1399	1399	1394	1392	1386	1378	1383	1390	1396	1396	1404	1406	1404	1391	1375	1359	1363	1370	1372	1372	1366	1376	1375	1381	1383	1393	1400	1406	1387	1392	1409	1424	1424	1438	1448	1457	1433	1404	1392	1394	1391	1393	1408	1427	1438	1439	1436	1428	1412	1405	1409	1416	1415	1406	1399	1400	1406	1418	1424	1424	1424	1421	1418	1417	1426	1434	1436	1424	1416	1410	1401	1396	1405	1434	1416	1395	1387	1383	1381	1371	1357	1351	1349	1349	1352	1362	1364	1366	1366	1366	1371	1371	1382	1392	1393	1375	1355	1350	1354	1369	1370	1372	1370	1371	1378	1370	1380	1369	1361	1354	1366	1373	1372	1360	1356	1359	1365	1367	1363	1367	1370	1372	1369	1346	1356	0	0	0	0	0	0	0	0	0	0	0	0	0	0	0	0	0	0	0	0	0	0	0	0	0	0	0	0	0	0	0	0	0	0	0	0	0	0	0	0	0	0	0	0	0	0	0	1338	1354	1370	1380	1384	1382	1383	1383	1381	1372	1366	1354	1343	1340	1340	1341	1348	1350	1345	1347	1359	1366	1364	1364	1375	1375	1364	1363	1359	1368	1377	1377	1362	1366	1360	1358	1358	1355	1349	1344	1348	1353	1356	1351	1349	1346	1351	1351	1358	1361	1360	1361	1360	1358	1346	1343	1355	1370	1380	1379	1371	1362	1366	1368	1366	1364	1357	1352	1347	1331	1328	1327	1341	1361	1359	1354	1349	1348	1342	1351	1361	1378	1393	1385	1377	1363	1355	1347	1324	1324	1333	1355	1373	1378	1375	1360	1349	1341	1339	1338	1340	1348	1350	1352	1359	1364	1366	1358	1349	1344	1343	1340	1343	1342	1344	1344	1338	1338	1337	1344	1354	1358	1369	1366	1366	1359	1355	1351	1347	1343	1340	1351	1361	1359	1347	1337	1327	1327	1340	1358	1370	1372	1373	1382	1388	1392	1389	1391	1377	1355	1331	1332	1334	1348	1351	1349	1359	1364	1385	1436	1443	1428	1390	1352	1360	1369	1376	1384	1381	1373	1369	1369	1365	1350	1340	1333	1332	1333	1334	1334	1335	1330	1326	1333	1337	1343	1344	1340	1339	1339	1343	1345	1351	1351	1340	1340	1339	1339	1335	1326	1334	1339	1351	1354	1351	1345	1341	1329	1330	1340	1345	1362	1356	1350	1344	1355	1366	1369	1365	1355	1346	1346	1356	1360	1351	1345	1347	1352	1358	1361	1357	1348	1334	1328	1333	1335	1348	1364	1367	1366	1370	1373	1373	1368	1356	1357	1363	1375	1375	1352	1330	1323	1329	1340	1345	1348	1353	1347	1345	1341	1338	1325	1324	1332	1343	1345	1346	1340	1339	1337	1333	1334	1337	1338	1349	1352	1349	1340	1347	1361	1380	1381	1373	1360	1352	1376	1384	1372	1365	1358	1362	1386	1394	1389	1384	1374	1366	1352	1333	1323	1313	1315	1324	1340	1346	1347	1332	1323	1317	1319	1329	1337	1341	1339	1324	1322	1340	1354	1354	1355	1358	1370	1394	1416	1444	1521	0	0	0	0	0	0	0	0	0	0	0	0	0	0	0	0	0	0	0	0	0	0	1445	1434	1427	1423	1426	1428	1442	1417	1404	1376	1370	1382	1411	1434	1440	1429	1426	1409	1413	1417	1404	1400	1405	1420	1448	0	0	1429	1399	1391	1391	1389	1392	1405	1420	1424	0	0	0	0	0	0	0	0	0	0	0	0	0	0	0	0	0	0	1409	1412	1405	1400	1399	1399	1399	1412	1386	1372	1362	1348	1350	1354	1367	1366	1367	1363	1363	1370	1381	1383	1383	1376	1378	1379	1381	1373	1368	1368	1377	1382	1389	1386	1386	0	0	0	0	0	0
0	0	1421	1409	1417	1417	0	0	1365	1358	1364	1364	1380	1374	1363	1381	1389	1396	1396	1397	1400	1395	1399	1401	1414	1414	1419	1411	1402	1390	1383	1382	1388	1397	1397	1402	1401	1393	1382	1375	1370	1375	1379	1387	1387	1389	1391	1384	1385	1383	1385	1391	1397	1381	1377	1392	1421	1421	1439	1447	1450	1439	1420	1397	1388	1387	1396	1406	1424	1429	1427	1425	1412	1408	1409	1415	1423	1421	1417	1411	1412	1418	1425	1427	1427	1425	1424	1423	1422	1421	1426	1423	1417	1412	1402	1400	1405	1421	1432	1422	1378	1368	1372	1373	1358	1352	1349	1350	1357	1363	1364	1361	1359	1361	1364	1366	1372	1387	1393	1387	1368	1356	1351	1358	1371	1372	1376	1370	1368	1369	1369	1385	1392	1378	1359	1358	1364	1369	1365	1359	1363	1366	1370	1361	1364	1366	1355	1352	1331	1343	0	0	0	0	0	0	0	0	0	0	0	0	0	0	0	0	0	0	0	0	0	0	0	0	0	0	0	0	0	0	0	0	0	0	0	0	0	0	0	0	0	0	0	0	0	0	0	1335	1347	1362	1374	1381	1376	1366	1348	1350	1351	1347	1337	1333	1340	1346	1353	1364	1377	1377	1365	1364	1367	1362	1364	1362	1358	1350	1339	1336	1342	1357	1377	1379	1370	1362	1368	1375	1375	1353	1349	1346	1348	1347	1339	1338	1338	1342	1346	1348	1349	1357	1368	1367	1365	1354	1353	1356	1361	1366	1363	1375	1382	1392	1400	1392	1368	1358	1349	1339	1326	1325	1330	1348	1355	1350	1341	1344	1352	1362	1362	1379	1378	1376	1372	1371	1366	1361	1360	1341	1343	1350	1363	1369	1381	1381	1372	1364	1352	1352	1362	1367	1359	1354	1352	1357	1361	1354	1350	1341	1335	1331	1327	1325	1334	1340	1348	1347	1346	1346	1354	1370	1380	1386	1375	1368	1365	1359	1354	1350	1345	1346	1352	1357	1355	1343	1332	1326	1324	1335	1353	1367	1373	1373	1378	1380	1386	1390	1388	1374	1359	1335	1341	1342	1347	1351	1342	1331	1353	1364	1442	1478	1463	1407	1352	1361	1365	1375	1385	1386	1374	1366	1364	1364	1353	1346	1340	1336	1336	1339	1336	1336	1330	1333	1338	1343	1343	1343	1343	1343	1344	1345	1349	1352	1352	1343	1340	1340	1346	1342	1330	1335	1337	1339	1342	1336	1336	1341	1344	1341	1339	1339	1344	1345	1347	1348	1358	1368	1373	1364	1352	1345	1338	1345	1341	1335	1336	1343	1351	1356	1368	1364	1360	1354	1355	1353	1354	1366	1377	1382	1383	1374	1372	1364	1353	1346	1345	1351	1360	1360	1343	1327	1317	1332	1339	1345	1347	1339	1328	1318	1319	1324	1322	1332	1342	1344	1345	1341	1333	1344	1344	1340	1332	1329	1341	1343	1346	1338	1330	1338	1354	1364	1359	1358	1349	1346	1362	1371	1370	1363	1356	1357	1361	1378	1376	1372	1363	1341	1326	1328	1321	1319	1323	1331	1339	1348	1344	1333	1319	1314	1317	1328	1339	1342	1343	1338	1347	1351	1352	1363	1355	1359	1364	1404	1438	1484	0	0	0	0	0	0	0	0	0	0	0	0	0	0	0	0	0	0	0	0	0	0	0	1457	1456	1451	1461	1458	1448	1447	1406	1401	1381	1375	1386	1417	1441	1455	1445	1433	1421	1424	1421	1417	1410	1415	1431	1446	0	0	1406	1377	1375	1391	1401	1405	1414	1416	1421	0	0	0	0	0	0	0	0	0	0	0	0	0	0	0	0	0	1429	1418	1415	1416	1408	1406	1416	1416	1429	1386	1368	1361	1356	1358	1360	1365	1365	1359	1354	1351	1360	1368	1367	1367	1367	1374	1377	1377	1374	1367	1365	1368	1371	1374	1372	1372	0	0	0	0	0	0
0	0	1440	1408	1383	1383	0	0	1358	1350	1371	1371	1384	1377	1363	1359	1377	1391	1391	1401	1411	1406	1408	1408	1413	1413	1425	1430	1413	1406	1394	1389	1392	1392	1397	1399	1392	1374	1366	1372	1376	1386	1394	1394	1402	1406	1406	1407	1386	1383	1375	1378	1378	1376	1373	1390	1413	1413	1434	1451	1444	1436	1430	1411	1391	1394	1395	1407	1414	1413	1410	1409	1408	1412	1412	1418	1419	1413	1402	1399	1406	1415	1421	1425	1425	1422	1422	1423	1425	1421	1417	1420	1415	1408	1400	1405	1419	1431	1436	1419	1374	1361	1360	1363	1358	1350	1349	1350	1365	1370	1368	1360	1357	1357	1360	1362	1373	1386	1387	1379	1356	1348	1347	1351	1366	1369	1369	1373	1368	1364	1359	1385	1396	1387	1356	1342	1347	1357	1360	1358	1361	1362	1366	1367	1371	1369	1359	1353	1345	1341	0	0	0	0	0	0	0	0	0	0	0	0	0	0	0	0	0	0	0	0	0	0	0	0	0	0	0	0	0	0	0	0	0	0	0	0	0	0	0	0	0	0	0	0	0	0	0	0	1368	1374	1381	1384	1383	1374	1359	1355	1353	1354	1345	1343	1346	1352	1358	1375	1384	1382	1368	1362	1362	1364	1365	1361	1357	1351	1341	1346	1357	1380	1380	1374	1369	1364	1367	1378	1389	1386	1376	1374	1373	1365	1356	1351	1346	1351	1372	1378	1381	1375	1366	1357	1353	1349	1357	1368	1376	1364	1349	1352	1372	1392	1405	1404	1388	1373	1360	1352	1341	1338	1350	1354	1351	1346	1337	1331	1334	1346	1362	1365	1366	1370	1373	1371	1368	1360	1353	1349	1351	1357	1359	1370	1378	1381	1380	1374	1364	1370	1377	1381	1365	1367	1368	1365	1361	1360	1345	1338	1333	1325	1318	1323	1331	1344	1353	1363	1365	1366	1374	1382	1391	1382	1372	1374	1376	1367	1360	1352	1344	1345	1345	1355	1349	1340	1328	1324	1329	1328	1329	1347	1361	1372	1381	1380	1376	1375	1376	1373	1363	1359	1362	1364	1363	1361	1349	1334	1330	1366	1468	1500	1493	1379	1343	1355	1362	1370	1377	1374	1374	1368	1363	1366	1361	1344	1342	1341	1345	1343	1340	1335	1335	1336	1339	1340	1342	1341	1339	1337	1337	1344	1352	1352	1355	1350	1338	1341	1343	1349	1346	1340	1338	1336	1337	1329	1335	1339	1346	1346	1343	1338	1340	1344	1349	1353	1364	1369	1370	1362	1354	1352	1345	1346	1336	1331	1335	1340	1348	1352	1353	1358	1355	1361	1356	1351	1353	1358	1366	1375	1372	1364	1359	1358	1351	1339	1334	1342	1349	1350	1341	1332	1329	1337	1347	1350	1347	1338	1317	1303	1301	1310	1320	1334	1344	1344	1344	1338	1340	1348	1353	1352	1346	1339	1335	1337	1337	1330	1333	1341	1351	1355	1354	1340	1325	1322	1338	1354	1359	1359	1355	1351	1356	1362	1364	1358	1345	1330	1321	1321	1329	1330	1333	1335	1341	1346	1343	1332	1318	1314	1321	1340	1343	1347	1348	1353	1355	1359	1364	1362	1354	1352	1360	1413	1455	1530	0	0	0	0	0	0	0	0	0	0	0	0	0	0	0	0	0	0	0	0	0	0	0	1470	1478	1482	1492	1491	1478	1449	1402	1394	1384	1383	1399	1417	1435	1458	1463	1440	1434	1426	1432	1415	1416	1418	1424	1439	1452	1431	1398	1373	1377	1398	1411	1417	1418	1418	1415	0	0	0	0	0	0	0	0	0	0	0	0	0	0	0	0	0	1428	1430	1431	1433	1421	1409	1417	1414	1405	1382	1366	1359	1356	1371	1366	1362	1361	1356	1342	1342	1347	1352	1359	1367	1367	1366	1372	1368	1365	1359	1359	1362	1358	1356	1353	1353	0	0	0	0	0	0
0	0	1432	1402	1378	1378	1363	1361	1353	1359	1378	1378	1403	1397	1365	1363	1374	1374	1392	1404	1415	1417	1413	1412	1406	1406	1412	1422	1422	1416	1408	1404	1399	1399	1395	1389	1373	1360	1356	1362	1374	1392	1406	1406	1416	1414	1413	1411	1387	1374	1376	1370	1369	1373	1380	1392	1392	1415	1425	1441	1454	1451	1445	1416	1408	1414	1401	1406	1410	1401	1402	1401	1409	1418	1416	1410	1406	1398	1393	1396	1401	1411	1416	1416	1410	1414	1416	1420	1417	1417	1418	1417	1409	1408	1405	1412	1425	1433	1434	1416	1396	1366	1365	1364	1362	1360	1355	1354	1364	1371	1369	1367	1362	1361	1361	1357	1365	1379	1377	1366	1353	1342	1338	1344	1354	1362	1368	1371	1372	1363	1357	1377	1383	1376	1361	1335	1334	1345	1350	1363	1353	1362	1367	1376	1377	1381	1380	1376	1351	1364	0	0	0	0	0	0	0	0	0	0	0	0	0	0	0	0	0	0	0	0	0	0	0	0	0	0	0	0	0	0	0	0	0	0	0	0	0	0	0	0	0	0	0	0	0	0	0	0	1383	1385	1381	1380	1380	1375	1374	1370	1367	1360	1358	1353	1354	1357	1364	1372	1382	1374	1358	1358	1361	1367	1371	1359	1357	1353	1347	1354	1369	1387	1378	1368	1364	1361	1367	1375	1386	1388	1387	1384	1384	1373	1359	1354	1346	1358	1373	1385	1385	1379	1369	1351	1342	1340	1351	1370	1383	1374	1357	1359	1369	1393	1403	1403	1392	1379	1368	1360	1355	1355	1358	1354	1354	1347	1333	1331	1336	1345	1357	1363	1370	1375	1383	1378	1367	1353	1343	1348	1352	1354	1354	1351	1346	1353	1362	1369	1372	1375	1382	1387	1378	1379	1370	1359	1358	1358	1357	1347	1342	1333	1334	1342	1350	1361	1372	1372	1375	1372	1369	1370	1372	1372	1369	1364	1371	1365	1355	1346	1342	1343	1348	1351	1353	1338	1327	1333	1332	1326	1322	1336	1353	1365	1371	1371	1368	1368	1370	1361	1358	1359	1359	1361	1365	1363	1359	1346	1337	1389	1482	1498	1494	1348	1340	1349	1357	1358	1361	1363	1369	1368	1367	1366	1361	1350	1337	1339	1342	1343	1344	1341	1343	1344	1343	1343	1341	1339	1334	1336	1336	1344	1350	1355	1354	1351	1343	1342	1340	1350	1346	1347	1343	1337	1332	1332	1333	1340	1347	1349	1339	1342	1340	1346	1342	1349	1361	1365	1363	1364	1348	1352	1353	1347	1329	1323	1322	1334	1340	1342	1344	1346	1352	1352	1349	1344	1341	1345	1347	1356	1359	1358	1355	1353	1345	1338	1335	1339	1345	1346	1346	1340	1335	1349	1354	1354	1343	1335	1313	1303	1297	1298	1314	1337	1344	1343	1340	1338	1347	1354	1365	1369	1359	1346	1339	1335	1338	1336	1345	1352	1358	1360	1351	1336	1321	1316	1319	1331	1342	1347	1350	1347	1346	1356	1361	1353	1344	1330	1323	1327	1339	1345	1341	1332	1335	1337	1338	1331	1322	1324	1337	1345	1347	1348	1350	1358	1360	1364	1370	1363	1352	1346	1353	1396	1444	1540	0	0	0	0	0	0	0	0	0	0	0	0	0	0	0	0	0	0	0	0	0	0	0	1477	1483	1475	1478	1479	1465	1433	1402	1399	1385	1391	1403	1409	1426	1483	1459	1454	1442	1429	1437	1441	1440	1425	1423	1427	1419	1404	1391	1395	1406	1416	1426	1441	1444	1426	1407	0	0	0	0	0	0	0	0	0	0	0	0	0	0	0	0	0	1438	1442	1444	1441	1435	1425	1413	1413	1389	1371	1365	1361	1363	1371	1370	1365	1358	1350	1343	1345	1344	1352	1358	1365	1365	1370	1368	1366	1365	1363	1362	1360	1352	1344	1337	0	0	0	0	0	0	0
0	0	1419	1397	1397	1373	1360	1353	1362	1376	1394	1394	1410	1410	1382	1382	1375	1375	1395	1403	1413	1417	1415	1412	1401	1401	1409	1416	1422	1421	1418	1411	1402	1402	1390	1373	1363	1355	1357	1362	1374	1391	1399	1399	1412	1413	1404	1405	1388	1381	1382	1375	1368	1365	1375	1381	1381	1399	1426	1450	1470	1467	1456	1434	1412	1421	1425	1426	1411	1401	1394	1401	1412	1422	1424	1408	1402	1394	1392	1401	1410	1415	1415	1414	1414	1411	1416	1415	1416	1413	1419	1417	1412	1407	1404	1415	1422	1428	1424	1415	1402	1380	1382	1375	1368	1366	1365	1361	1366	1366	1370	1372	1366	1362	1362	1358	1359	1367	1364	1360	1351	1345	1342	1344	1347	1356	1365	1378	1375	1368	1357	1368	1370	1365	1355	1341	1336	1336	1342	1353	1370	1373	1380	1390	1397	1395	1402	1405	1371	1377	0	0	0	0	0	0	0	0	0	0	0	0	0	0	0	0	0	0	0	0	0	0	0	0	0	0	0	0	0	0	0	0	0	0	0	0	0	0	0	1630	0	0	0	0	0	0	0	0	1388	1384	1382	1375	1380	1379	1386	1389	1384	1373	1367	1359	1360	1363	1366	1368	1365	1353	1346	1343	1357	1374	1370	1362	1353	1349	1357	1358	1369	1383	1371	1358	1352	1351	1352	1362	1379	1391	1397	1402	1399	1377	1352	1348	1348	1357	1358	1368	1374	1368	1356	1338	1339	1351	1357	1364	1363	1359	1356	1367	1376	1386	1388	1374	1359	1351	1346	1351	1349	1351	1350	1354	1357	1358	1356	1358	1361	1362	1365	1366	1371	1374	1377	1372	1364	1341	1339	1350	1356	1352	1355	1344	1334	1336	1346	1363	1371	1378	1386	1392	1387	1376	1358	1351	1347	1352	1356	1355	1351	1345	1346	1356	1364	1369	1373	1368	1372	1373	1367	1361	1360	1354	1356	1357	1364	1361	1352	1345	1337	1341	1346	1351	1350	1346	1342	1342	1340	1328	1321	1330	1336	1359	1365	1362	1363	1363	1359	1357	1358	1358	1358	1357	1367	1365	1361	1351	1352	1393	1479	1490	1480	1343	1345	1352	1356	1352	1353	1354	1359	1364	1365	1366	1357	1347	1334	1329	1333	1333	1337	1345	1346	1348	1345	1340	1337	1336	1341	1338	1340	1343	1348	1349	1349	1350	1349	1345	1346	1347	1351	1353	1353	1337	1332	1333	1333	1342	1350	1356	1348	1345	1349	1348	1349	1345	1352	1353	1356	1354	1351	1344	1347	1345	1327	1321	1323	1334	1339	1332	1329	1333	1340	1345	1337	1333	1327	1327	1330	1341	1343	1348	1341	1350	1343	1341	1341	1345	1351	1356	1351	1346	1341	1341	1346	1351	1342	1327	1319	1308	1301	1299	1305	1330	1333	1326	1332	1343	1351	1359	1366	1379	1372	1356	1345	1336	1339	1353	1362	1365	1365	1359	1347	1332	1321	1316	1317	1325	1333	1338	1324	1322	1320	1339	1347	1352	1345	1344	1338	1339	1344	1351	1347	1344	1335	1335	1339	1332	1331	1336	1346	1353	1348	1346	1352	1357	1362	1360	1362	1354	1347	1342	1336	1368	1432	1519	0	0	0	0	0	0	0	0	0	0	0	0	0	0	0	0	0	0	0	0	0	0	0	1492	1474	1464	1456	1447	1425	1391	1398	1407	1415	1424	1426	1439	1449	1465	1474	1453	1443	1444	1448	1440	1430	1419	1405	1413	1432	1437	1427	1416	1414	1425	1433	1435	1433	1437	1393	0	0	0	0	0	0	0	0	0	0	0	0	0	0	0	0	0	1424	1430	1411	1420	1423	1417	1408	1385	1385	1372	1374	1372	1370	1369	1370	1368	1360	1347	1352	1354	1351	1352	1362	1374	1374	1374	1367	1371	1371	1375	1370	1360	1351	1339	1334	0	0	0	0	0	0	0
0	0	1405	1389	1389	1379	1364	1362	1371	1391	1391	1421	1424	1416	1408	1395	1397	1379	1396	1402	1406	1410	1413	1416	1416	1413	1416	1416	1416	1418	1417	1411	1400	1400	1383	1359	1353	1358	1370	1373	1381	1388	1398	1398	1401	1398	1396	1395	1395	1393	1390	1384	1372	1360	1366	1376	1376	1397	1429	1453	1469	1472	1462	1442	1415	1410	1420	1424	1419	1419	1420	1413	1418	1428	1426	1412	1400	1399	1407	1414	1419	1419	1419	1414	1410	1411	1415	1412	1411	1419	1421	1419	1419	1413	1406	1407	1411	1417	1418	1418	1408	1385	1389	1387	1376	1378	1373	1364	1366	1364	1371	1371	1365	1362	1359	1355	1358	1363	1361	1356	1352	1351	1347	1349	1353	1355	1367	1374	1378	1367	1358	1359	1357	1358	1361	1365	1356	1348	1350	1357	1374	1389	1398	1405	1410	1407	1408	1404	1392	1370	0	0	0	0	0	0	0	0	0	0	0	0	0	0	0	0	0	0	0	0	0	0	0	0	0	0	0	0	0	0	0	0	1564	1595	1591	1594	1611	1628	1639	1640	1627	0	0	0	0	0	0	0	1370	1374	1382	1379	1381	1383	1390	1391	1382	1371	1369	1362	1363	1367	1375	1374	1370	1355	1348	1350	1361	1380	1373	1359	1353	1353	1358	1364	1368	1375	1369	1360	1358	1350	1348	1352	1372	1397	1410	1406	1393	1375	1357	1360	1359	1359	1361	1370	1374	1368	1344	1343	1346	1350	1355	1361	1357	1356	1359	1368	1374	1379	1374	1366	1355	1346	1344	1347	1345	1341	1345	1346	1353	1356	1352	1350	1358	1366	1372	1367	1367	1369	1374	1365	1353	1335	1328	1344	1355	1360	1351	1340	1331	1328	1331	1345	1367	1379	1383	1388	1379	1373	1361	1347	1345	1348	1352	1355	1355	1350	1345	1354	1372	1373	1367	1366	1365	1366	1367	1359	1350	1352	1347	1353	1353	1356	1349	1344	1335	1339	1346	1348	1347	1348	1349	1350	1347	1331	1324	1330	1336	1353	1363	1359	1352	1352	1355	1356	1355	1355	1356	1361	1370	1373	1372	1365	1367	1398	1478	1481	1468	1346	1350	1354	1356	1353	1349	1350	1352	1358	1360	1356	1353	1337	1328	1325	1328	1334	1335	1338	1339	1339	1342	1339	1337	1337	1339	1340	1343	1348	1345	1338	1337	1339	1344	1344	1343	1350	1352	1354	1347	1341	1336	1328	1335	1345	1355	1359	1370	1364	1350	1351	1349	1346	1343	1346	1340	1340	1340	1343	1347	1349	1339	1324	1325	1335	1337	1337	1330	1329	1339	1333	1322	1312	1321	1326	1330	1334	1338	1338	1330	1336	1339	1340	1345	1349	1356	1358	1354	1347	1342	1339	1334	1335	1332	1326	1327	1326	1312	1309	1318	1334	1334	1323	1328	1337	1353	1361	1367	1373	1366	1352	1338	1339	1348	1354	1358	1372	1371	1361	1349	1336	1327	1325	1325	1333	1337	1339	1330	1318	1315	1321	1339	1355	1356	1351	1347	1346	1344	1350	1350	1347	1340	1340	1343	1339	1339	1345	1346	1348	1345	1347	1355	1361	1361	1356	1349	1351	1344	1336	1326	1345	1418	1515	0	0	0	0	0	0	0	0	0	0	0	0	0	0	0	0	0	0	0	0	0	0	0	1496	1482	1462	1446	1439	1407	1377	1383	1419	1422	1430	1438	1450	1458	1465	1443	1431	1430	1430	1435	1440	1439	1428	1426	1433	1452	1457	1446	1423	1424	1424	1427	1427	1437	1431	1405	0	0	0	0	0	0	0	0	0	0	0	0	0	0	0	0	0	1391	1387	1394	1404	1404	1405	1401	1385	1385	1379	1385	1386	1385	1366	1366	1372	1367	1356	1348	1351	1355	1360	1366	1367	1365	1365	1362	1369	1376	1380	1372	1364	1351	1345	1338	0	0	0	0	0	0	0
0	0	1386	1385	1385	1380	1379	1376	1386	1408	1408	1420	1429	1428	1420	1412	1405	1397	1388	1394	1397	1400	1402	1411	1411	1418	1419	1419	1415	1413	1411	1407	1398	1398	1377	1361	1355	1364	1377	1385	1383	1384	1388	1388	1388	1389	1382	1384	1389	1388	1391	1396	1391	1378	1368	1375	1375	1396	1415	1427	1450	1453	1461	1439	1410	1401	1411	1416	1420	1423	1427	1425	1426	1426	1425	1413	1408	1403	1412	1421	1423	1423	1417	1410	1405	1407	1410	1415	1418	1422	1425	1427	1422	1419	1411	1405	1409	1412	1416	1420	1416	1401	1382	1370	1368	1377	1375	1365	1367	1374	1372	1368	1361	1364	1361	1362	1364	1367	1365	1361	1353	1352	1355	1363	1359	1360	1366	1377	1372	1363	1356	1359	1359	1353	1365	1375	1379	1368	1363	1363	1374	1389	1400	1409	1409	1404	1401	1397	1386	1348	1360	0	0	0	0	0	0	0	0	0	0	0	0	0	0	0	0	0	0	0	0	0	0	0	0	0	0	0	0	0	0	0	1626	1603	1591	1609	1629	1647	1650	1637	1627	0	0	0	0	0	0	0	1354	1357	1379	1382	1379	1384	1383	1379	1372	1365	1365	1367	1366	1374	1378	1380	1375	1366	1356	1360	1382	1385	1375	1358	1353	1353	1363	1367	1366	1370	1359	1355	1354	1357	1353	1356	1370	1396	1413	1422	1405	1369	1359	1359	1358	1358	1366	1371	1376	1366	1347	1350	1354	1350	1347	1351	1342	1348	1362	1369	1373	1376	1373	1365	1353	1346	1347	1354	1342	1339	1337	1342	1346	1342	1344	1346	1353	1369	1380	1374	1367	1363	1358	1352	1335	1330	1332	1346	1350	1356	1346	1337	1334	1332	1346	1351	1353	1369	1378	1382	1378	1371	1357	1348	1345	1348	1351	1357	1357	1352	1342	1350	1364	1365	1360	1363	1361	1367	1365	1360	1351	1345	1342	1346	1350	1353	1351	1345	1339	1334	1336	1338	1344	1350	1355	1358	1353	1342	1338	1343	1353	1361	1363	1362	1346	1344	1337	1347	1350	1352	1359	1366	1381	1382	1382	1380	1379	1396	1473	1472	1452	1358	1354	1355	1357	1357	1355	1348	1345	1349	1354	1355	1347	1337	1330	1328	1332	1337	1339	1339	1340	1341	1341	1344	1345	1345	1338	1339	1331	1337	1342	1342	1323	1330	1340	1343	1347	1348	1352	1352	1345	1342	1338	1339	1346	1359	1371	1375	1386	1378	1362	1352	1348	1347	1341	1339	1340	1339	1336	1343	1350	1347	1341	1337	1335	1339	1345	1346	1345	1343	1326	1331	1324	1326	1327	1331	1341	1339	1338	1339	1335	1328	1331	1343	1346	1349	1352	1352	1353	1344	1335	1329	1323	1330	1333	1339	1342	1332	1321	1312	1328	1336	1337	1330	1327	1338	1355	1363	1365	1360	1354	1349	1342	1347	1354	1361	1362	1372	1369	1363	1353	1345	1341	1336	1324	1340	1344	1349	1340	1331	1324	1325	1335	1352	1354	1351	1347	1348	1352	1350	1349	1346	1345	1345	1336	1339	1336	1335	1334	1330	1335	1342	1353	1363	1362	1356	1350	1347	1336	1337	1326	1336	1426	0	0	0	0	0	0	0	0	0	0	0	0	0	0	0	0	0	0	0	0	0	0	0	0	1507	1504	1492	1480	1454	1427	1381	1415	1424	1425	1431	1438	1442	1445	1441	1433	1417	1416	1415	1420	1430	1446	1457	1459	1458	1445	1430	1423	1420	1417	1420	1423	1428	1432	1446	1424	0	0	0	0	0	0	0	0	0	0	0	0	0	0	1392	1391	1391	1392	1380	1386	1392	1400	1394	1379	1381	1381	1385	1395	1398	1398	1370	1363	1364	1370	1357	1343	1344	1347	1360	1363	1355	1357	1357	1359	1362	1371	1376	1368	1359	1355	1355	1349	0	0	0	0	0	0	0
0	0	1375	1382	1382	1382	1387	1385	1404	1416	1416	1417	1428	1425	1423	1419	1413	1405	1401	1397	1392	1393	1402	1405	1405	1411	1414	1406	1401	1406	1407	1405	1405	1393	1372	1359	1362	1372	1380	1388	1384	1385	1385	1388	1392	1395	1390	1380	1373	1382	1389	1403	1417	1394	1392	1392	1384	1388	1399	1407	1415	1432	1442	1423	1406	1404	1406	1414	1420	1426	1428	1426	1424	1413	1418	1406	1405	1406	1417	1423	1423	1419	1409	1401	1404	1409	1412	1408	1415	1419	1427	1432	1429	1424	1422	1419	1414	1421	1419	1420	1423	1409	1373	1357	1365	1379	1376	1372	1375	1377	1371	1372	1361	1367	1370	1373	1375	1380	1378	1375	1373	1363	1369	1377	1373	1368	1366	1372	1364	1365	1365	1368	1369	1365	1368	1375	1378	1375	1370	1373	1373	1381	1395	1400	1388	1390	1388	1378	1373	1340	1336	0	0	0	0	0	0	0	0	0	0	0	0	0	0	0	0	0	0	0	0	0	0	0	0	0	0	0	0	0	0	1603	1651	1634	1616	1627	1640	1658	1659	1642	1612	0	0	0	0	0	0	0	1339	1347	1360	1380	1378	1372	1373	1369	1360	1353	1354	1375	1381	1388	1384	1375	1368	1365	1360	1368	1379	1376	1362	1352	1352	1357	1364	1372	1367	1358	1355	1363	1361	1360	1354	1351	1367	1389	1408	1405	1392	1363	1350	1355	1360	1366	1376	1383	1383	1374	1359	1360	1358	1353	1347	1337	1337	1347	1355	1360	1368	1366	1363	1353	1349	1350	1351	1357	1352	1350	1338	1338	1340	1342	1340	1338	1342	1352	1374	1372	1362	1351	1343	1342	1339	1336	1336	1346	1347	1349	1345	1337	1336	1335	1348	1353	1347	1354	1364	1366	1368	1361	1352	1344	1347	1348	1350	1354	1354	1347	1341	1345	1348	1353	1356	1360	1367	1372	1371	1366	1355	1343	1340	1347	1351	1351	1348	1345	1341	1333	1328	1331	1342	1350	1362	1363	1357	1352	1355	1359	1366	1367	1373	1365	1349	1339	1332	1348	1353	1351	1361	1371	1380	1383	1383	1383	1385	1381	1427	1430	1420	1372	1353	1349	1348	1357	1359	1358	1351	1352	1354	1358	1361	1366	1364	1345	1335	1343	1343	1345	1344	1349	1352	1354	1355	1348	1342	1337	1338	1339	1344	1346	1328	1336	1340	1343	1347	1346	1346	1347	1342	1339	1338	1345	1351	1355	1371	1372	1376	1373	1365	1350	1347	1344	1343	1341	1335	1335	1340	1347	1352	1347	1344	1344	1349	1353	1355	1354	1355	1354	1327	1322	1324	1333	1338	1341	1348	1351	1349	1348	1350	1342	1347	1351	1352	1350	1350	1349	1343	1339	1333	1322	1324	1332	1342	1357	1358	1344	1336	1330	1332	1342	1344	1336	1338	1350	1364	1364	1361	1350	1338	1339	1346	1353	1357	1366	1366	1367	1367	1365	1359	1360	1356	1346	1336	1340	1349	1358	1358	1349	1330	1325	1331	1335	1344	1346	1344	1347	1356	1354	1345	1335	1335	1342	1335	1330	1334	1330	1324	1321	1326	1338	1348	1353	1357	1360	1356	1351	1353	1353	1342	1337	1416	0	0	0	0	0	0	0	0	0	0	0	0	0	0	0	0	0	0	0	0	0	0	0	0	1515	1514	1512	1513	1512	1469	1399	1425	1427	1429	1425	1425	1422	1422	1428	1425	1412	1409	1402	1398	1403	1428	1442	1451	1450	1423	1413	1413	1416	1420	1425	1434	1433	1435	1449	1441	0	0	0	0	0	0	0	0	0	0	0	0	0	1410	1384	1380	1388	1386	1390	1393	1396	1398	1384	1358	1362	1382	1382	1396	1401	1397	1373	1368	1369	1369	1360	1350	1347	1357	1367	1371	1364	1353	1353	1354	1359	1364	1363	1356	1352	1352	1353	1355	0	0	0	0	0	0	0
0	0	1374	1379	1379	1393	1397	1410	1417	1425	1425	1410	1412	1413	1409	1409	1414	1414	1415	1402	1396	1395	1395	1393	1393	1397	1399	1395	1387	1392	1390	1390	1390	1379	1368	1367	1371	1378	1381	1379	1384	1385	1385	1396	1407	1407	1404	1397	1394	1385	1398	1408	1422	1415	1401	1401	1395	1379	1380	1384	1400	1425	1436	1432	1419	1411	1400	1410	1418	1425	1428	1424	1406	1402	1396	1403	1404	1411	1418	1422	1420	1412	1406	1400	1403	1405	1410	1406	1408	1412	1424	1432	1429	1428	1425	1427	1422	1418	1415	1421	1419	1412	1396	1366	1368	1378	1377	1373	1377	1377	1374	1371	1368	1373	1379	1383	1390	1392	1386	1379	1380	1385	1392	1390	1386	1382	1370	1365	1369	1374	1384	1379	1376	1372	1369	1366	1371	1378	1377	1375	1376	1376	1386	1392	1381	1376	1376	1374	1372	1348	1341	1334	0	0	0	0	0	0	0	0	0	0	0	0	0	0	0	0	0	0	0	0	0	0	0	0	0	0	0	0	0	1589	1662	1648	1635	1640	1651	1651	1646	1625	1604	0	0	0	0	0	0	0	1339	1343	1366	1378	1372	1366	1367	1362	1357	1351	1349	1373	1386	1390	1377	1369	1357	1355	1360	1365	1368	1364	1353	1352	1354	1362	1369	1373	1360	1351	1347	1351	1352	1353	1348	1350	1354	1367	1375	1376	1377	1364	1360	1362	1367	1366	1374	1384	1392	1371	1369	1364	1358	1350	1351	1341	1335	1339	1353	1357	1355	1355	1348	1342	1345	1347	1352	1357	1359	1354	1349	1342	1346	1347	1344	1336	1339	1350	1358	1364	1364	1356	1351	1348	1347	1341	1344	1351	1351	1350	1346	1343	1337	1341	1350	1348	1343	1343	1350	1350	1359	1356	1347	1352	1351	1349	1352	1354	1347	1340	1333	1332	1332	1339	1349	1358	1367	1377	1375	1368	1360	1350	1345	1349	1353	1352	1351	1348	1340	1330	1318	1321	1335	1350	1357	1359	1358	1357	1360	1378	1394	1397	1386	1368	1354	1339	1347	1351	1351	1349	1355	1366	1373	1367	1373	1374	1370	1365	1371	1372	1381	1372	1357	1340	1339	1352	1357	1360	1360	1368	1363	1351	1360	1360	1354	1342	1334	1345	1348	1352	1355	1357	1359	1359	1358	1349	1347	1342	1340	1347	1343	1347	1346	1350	1347	1340	1341	1339	1339	1336	1332	1334	1334	1340	1349	1351	1352	1352	1351	1345	1337	1345	1345	1341	1344	1337	1333	1336	1345	1359	1355	1347	1340	1345	1356	1362	1363	1363	1365	1362	1356	1335	1342	1342	1346	1351	1351	1351	1359	1360	1366	1365	1360	1362	1363	1362	1358	1351	1344	1345	1334	1325	1326	1339	1350	1366	1362	1353	1344	1341	1346	1348	1346	1347	1354	1360	1366	1366	1352	1342	1329	1337	1350	1357	1359	1358	1358	1357	1358	1350	1356	1365	1367	1355	1334	1330	1349	1364	1371	1362	1337	1319	1327	1327	1338	1342	1344	1346	1343	1355	1347	1329	1336	1344	1346	1337	1326	1322	1320	1320	1331	1339	1349	1352	1357	1363	1366	1363	1358	1357	1344	1350	1414	0	0	0	0	0	0	0	0	0	0	0	0	0	0	0	0	0	0	0	0	0	0	0	0	1497	1507	1512	1523	1524	1491	1420	1437	1433	1431	1420	1420	1419	1415	1416	1419	1416	1408	1400	1396	1405	1420	1438	1437	1426	1407	1407	1410	1415	1423	1429	1437	1436	1434	1438	1452	0	0	0	0	0	0	0	0	0	0	0	0	1434	1413	1387	1382	1392	1396	1392	1402	1405	1405	1378	1344	1355	1378	1378	1390	1396	1391	1377	1376	1380	1375	1361	1346	1344	1363	1375	1375	1366	1358	1358	1354	1354	1355	1352	1348	1343	1345	1352	1359	0	0	0	0	0	0	0
0	0	1364	1389	1389	1400	1407	1408	1419	1423	1423	1425	1404	1400	1391	1390	1390	1403	1414	1407	1401	1397	1393	1382	1382	1379	1381	1382	1378	1381	1380	1376	1376	1374	1370	1373	1378	1376	1382	1382	1385	1397	1397	1408	1413	1415	1416	1401	1404	1398	1399	1405	1410	1418	1406	1406	1391	1377	1368	1379	1402	1424	1441	1447	1442	1418	1408	1412	1420	1431	1432	1408	1403	1395	1398	1405	1408	1412	1418	1418	1435	1425	1416	1401	1403	1406	1402	1397	1402	1410	1422	1428	1425	1421	1423	1422	1421	1414	1409	1417	1423	1420	1404	1383	1374	1383	1379	1376	1374	1378	1381	1383	1383	1382	1379	1387	1400	1395	1386	1382	1373	1387	1396	1403	1401	1389	1374	1365	1373	1375	1375	1383	1374	1363	1359	1357	1361	1375	1382	1383	1378	1368	1367	1369	1365	1355	1359	1369	1364	1359	1355	1355	0	0	0	0	0	0	0	0	0	0	0	0	0	0	0	0	0	0	0	0	0	0	0	0	0	0	0	0	0	0	1646	1645	1636	1639	1646	1649	1643	1624	1593	0	0	0	0	0	0	0	0	1360	1376	1384	1376	1366	1366	1359	1357	1353	1348	1364	1378	1381	1375	1359	1349	1352	1358	1359	1354	1353	1351	1355	1358	1363	1372	1364	1353	1345	1339	1347	1348	1347	1343	1342	1339	1344	1353	1354	1358	1362	1364	1366	1363	1359	1363	1369	1378	1378	1376	1365	1352	1349	1352	1352	1339	1339	1339	1348	1349	1348	1342	1343	1343	1354	1349	1351	1344	1343	1343	1347	1351	1349	1343	1340	1342	1348	1356	1363	1368	1366	1361	1358	1359	1344	1339	1345	1351	1353	1350	1347	1342	1347	1352	1350	1347	1341	1340	1346	1350	1348	1349	1353	1355	1354	1353	1356	1354	1342	1330	1322	1323	1331	1345	1357	1365	1370	1373	1368	1361	1355	1348	1349	1350	1350	1351	1347	1342	1329	1315	1318	1333	1345	1356	1357	1353	1356	1361	1374	1389	1389	1378	1370	1366	1368	1371	1363	1357	1352	1355	1355	1353	1349	1353	1360	1371	1363	1363	1368	1361	1356	1359	1346	1335	1341	1352	1362	1374	1386	1368	1351	1357	1358	1355	1348	1339	1344	1349	1352	1355	1357	1354	1346	1354	1349	1346	1336	1339	1343	1344	1349	1352	1351	1344	1335	1331	1334	1330	1327	1328	1329	1331	1336	1337	1342	1340	1337	1335	1333	1332	1327	1334	1337	1339	1332	1329	1336	1348	1360	1355	1341	1333	1335	1350	1361	1366	1365	1364	1365	1361	1349	1352	1357	1357	1353	1351	1352	1365	1367	1373	1369	1368	1364	1370	1373	1369	1356	1350	1344	1332	1333	1336	1343	1352	1361	1362	1362	1357	1353	1351	1355	1352	1353	1355	1369	1366	1358	1341	1331	1323	1337	1340	1345	1351	1346	1345	1345	1340	1342	1353	1368	1372	1357	1352	1340	1354	1364	1371	1360	1335	1319	1317	1324	1329	1337	1340	1339	1343	1344	1339	1337	1350	1354	1352	1345	1328	1312	1322	1332	1348	1359	1368	1360	1366	1363	1361	1363	1361	1356	1335	1356	1455	0	0	0	0	0	0	0	0	0	0	0	0	0	0	0	0	0	0	0	0	0	0	0	0	1471	1462	1465	1498	1498	1479	1429	1446	1438	1432	1423	1417	1417	1414	1414	1419	1420	1416	1408	1407	1412	1422	1426	1430	1422	1407	1403	1404	1416	1423	1427	1429	1426	1422	1422	1443	0	0	0	0	0	0	0	0	0	0	0	1437	1436	1415	1397	1393	1394	1402	1399	1404	1407	1405	1382	1336	1360	1372	1372	1371	1366	1376	1370	1383	1383	1374	1357	1350	1349	1363	1376	1373	1365	1357	1357	1357	1355	1353	1346	1338	1337	1342	1348	1354	0	0	0	0	0	0	0
0	0	1363	1380	1380	1408	1409	1403	1404	1418	1418	1413	1405	1383	1378	1385	1385	1389	1394	1401	1400	1400	1392	1382	1382	1372	1374	1380	1383	1383	1378	1378	1378	1380	1385	1384	1392	1388	1390	1387	1398	1407	1407	1415	1415	1415	1419	1416	1404	1396	1397	1396	1404	1418	1402	1402	1384	1379	1371	1386	1410	1432	1440	1443	1435	1431	1420	1416	1422	1427	1427	1414	1398	1406	1406	1407	1410	1415	1427	1427	1435	1431	1417	1410	1392	1380	1379	1386	1387	1399	1414	1418	1410	1410	1405	1408	1409	1407	1403	1406	1411	1411	1407	1380	1374	1371	1367	1362	1366	1372	1378	1381	1383	1374	1380	1389	1403	1402	1388	1378	1374	1382	1392	1397	1401	1399	1385	1374	1375	1367	1363	1375	1369	1362	1356	1351	1361	1375	1385	1383	1375	1360	1352	1349	1342	1343	1350	1374	1363	1355	1385	0	0	0	0	0	0	0	0	0	0	0	0	0	0	0	0	0	0	0	0	0	0	0	0	0	0	0	0	0	0	0	1607	1623	1626	1629	1636	1645	1636	1626	1602	0	0	0	0	0	0	0	0	1426	1398	1388	1376	1365	1366	1368	1363	1356	1347	1357	1370	1379	1369	1356	1352	1358	1366	1367	1359	1355	1361	1368	1364	1363	1370	1369	1349	1338	1343	1343	1345	1344	1341	1334	1332	1327	1328	1330	1339	1348	1356	1356	1354	1353	1360	1362	1369	1373	1370	1360	1349	1347	1346	1356	1349	1345	1346	1350	1354	1351	1353	1349	1354	1358	1363	1349	1334	1337	1342	1347	1347	1342	1340	1338	1341	1345	1353	1361	1367	1367	1366	1367	1362	1339	1317	1330	1340	1347	1341	1349	1351	1355	1355	1352	1350	1348	1348	1349	1352	1350	1349	1348	1348	1354	1357	1366	1361	1349	1335	1321	1322	1333	1347	1356	1361	1371	1369	1369	1363	1356	1352	1347	1342	1344	1345	1344	1339	1329	1320	1320	1335	1347	1356	1356	1356	1354	1355	1356	1361	1360	1364	1365	1366	1369	1373	1367	1362	1357	1358	1352	1348	1336	1344	1359	1369	1364	1378	1379	1367	1360	1362	1358	1357	1352	1348	1362	1375	1392	1368	1351	1351	1351	1354	1371	1361	1350	1349	1351	1351	1354	1344	1329	1337	1341	1331	1335	1328	1331	1343	1349	1350	1351	1341	1328	1326	1325	1327	1328	1328	1328	1330	1334	1335	1335	1332	1331	1331	1334	1335	1333	1324	1324	1332	1333	1336	1340	1352	1362	1352	1334	1323	1328	1344	1356	1367	1364	1362	1368	1366	1355	1360	1370	1364	1342	1349	1349	1361	1325	1363	1364	1361	1359	1368	1374	1369	1357	1342	1329	1331	1342	1333	1337	1346	1356	1359	1359	1357	1356	1358	1358	1356	1357	1362	1363	1361	1345	1336	1334	1333	1336	1335	1329	1336	1335	1335	1335	1331	1340	1351	1366	1377	1367	1356	1348	1350	1360	1363	1356	1342	1326	1325	1325	1334	1334	1336	1333	1335	1330	1334	1342	1353	1352	1356	1336	1322	1319	1325	1337	1349	1360	1362	1362	1354	1348	1342	1337	1338	1337	1327	1351	1468	0	0	0	0	0	0	0	0	0	0	0	0	0	0	0	0	0	0	0	0	0	0	0	0	1462	1453	1452	1465	1457	1445	1435	1449	1441	1429	1424	1420	1420	1420	1416	1418	1418	1416	1415	1416	1423	1432	1433	1426	1425	1422	1409	1412	1417	1424	1426	1423	1417	1394	1398	1395	1429	0	0	0	0	0	0	0	0	0	0	0	1437	1427	1410	1407	1398	1394	1388	1392	1405	1408	1398	1349	1351	1357	1357	1352	1350	1350	1353	1364	1379	1365	1354	1351	1358	1366	1370	1365	1359	1353	1351	1351	1352	1348	1337	1331	1330	1339	1349	1352	0	0	0	0	0	0	0
0	0	1357	1374	1374	1390	1407	1403	1407	1413	1413	1405	1395	1386	1389	1388	1388	1398	1392	1390	1396	1395	1393	1393	1385	1376	1371	1379	1387	1396	1400	1401	1401	1405	1400	1403	1402	1404	1403	1393	1404	1407	1407	1408	1411	1417	1423	1424	1418	1407	1392	1387	1396	1407	1406	1406	1391	1384	1385	1393	1416	1420	1428	1422	1419	1425	1424	1417	1417	1412	1413	1408	1403	1409	1411	1411	1413	1422	1422	1431	1437	1430	1414	1398	1382	1366	1375	1395	1402	1404	1406	1411	1400	1388	1397	1396	1406	1407	1401	1397	1396	1392	1404	1384	1365	1350	1347	1347	1350	1353	1357	1363	1355	1360	1371	1385	1400	1402	1391	1377	1371	1373	1380	1383	1395	1397	1395	1382	1379	1367	1356	1360	1370	1368	1363	1359	1366	1376	1390	1386	1373	1360	1345	1340	1341	1352	1373	1389	1373	1359	1405	0	0	0	0	0	0	0	0	0	0	0	0	0	0	0	0	0	0	0	0	0	0	0	0	0	0	0	0	0	0	0	1580	1614	1616	1629	1636	1636	1637	1630	1605	1590	0	0	0	0	0	0	0	1443	1408	1384	1373	1372	1369	1375	1370	1364	1354	1361	1370	1374	1367	1359	1358	1365	1373	1373	1368	1364	1369	1373	1371	1362	1369	1358	1347	1348	1348	1349	1349	1345	1337	1336	1333	1326	1325	1327	1328	1335	1337	1344	1347	1352	1354	1361	1362	1363	1357	1352	1349	1347	1345	1352	1354	1355	1360	1364	1368	1363	1357	1355	1350	1357	1363	1355	1339	1339	1339	1344	1341	1333	1332	1332	1335	1340	1347	1354	1361	1368	1363	1362	1356	1330	1314	1313	1336	1341	1340	1351	1360	1359	1354	1350	1353	1353	1353	1359	1361	1360	1358	1351	1348	1352	1362	1381	1380	1362	1343	1328	1328	1339	1349	1352	1350	1360	1359	1361	1356	1352	1350	1343	1340	1344	1346	1346	1336	1328	1332	1331	1342	1350	1356	1352	1349	1350	1349	1347	1350	1356	1365	1366	1360	1357	1355	1356	1358	1362	1361	1355	1347	1347	1362	1368	1364	1355	1380	1381	1379	1369	1366	1361	1363	1368	1382	1398	1409	1411	1393	1378	1373	1375	1374	1364	1361	1353	1351	1350	1342	1340	1327	1335	1337	1324	1320	1305	1307	1330	1336	1344	1347	1348	1346	1340	1325	1326	1328	1331	1336	1331	1331	1334	1337	1336	1334	1331	1333	1336	1334	1330	1322	1330	1334	1336	1343	1350	1356	1366	1356	1334	1322	1326	1341	1359	1364	1362	1362	1363	1364	1349	1361	1372	1375	1356	1315	1315	1312	1330	1351	1348	1347	1352	1359	1364	1360	1348	1337	1333	1337	1340	1338	1334	1342	1352	1362	1366	1363	1356	1355	1360	1358	1354	1354	1360	1359	1350	1344	1337	1344	1349	1347	1335	1333	1330	1329	1331	1340	1353	1355	1368	1362	1354	1348	1340	1334	1340	1346	1349	1349	1348	1350	1353	1351	1343	1333	1329	1337	1335	1332	1345	1349	1351	1345	1333	1334	1327	1333	1336	1347	1355	1355	1358	1351	1334	1332	1340	1355	1360	1361	1350	1419	0	0	0	0	0	0	0	0	0	0	0	0	0	0	0	0	0	0	0	0	0	0	0	0	1451	1455	1459	1459	1455	1439	1435	1445	1440	1426	1419	1416	1417	1415	1417	1414	1410	1409	1411	1423	1428	1435	1430	1426	1426	1424	1417	1415	1416	1422	1418	1408	1398	1391	1401	1396	1422	0	0	0	0	0	0	0	0	0	0	0	1445	1435	1422	1418	1417	1401	1387	1386	1396	1410	1406	1357	1349	1354	1347	1347	1349	1350	1353	1356	1360	1362	1355	1359	1366	1369	1364	1362	1358	1354	1348	1348	1346	1341	1332	1328	1327	1340	1351	1351	0	0	0	0	0	0	0
0	0	1364	1364	1372	1384	1407	1415	1410	1410	1410	1388	1392	1391	1397	1401	1401	1401	1395	1385	1381	1388	1391	1391	1390	1384	1376	1385	1391	1410	1418	1418	1418	1409	1406	1406	1409	1408	1401	1401	1402	1402	1401	1401	1405	1419	1427	1429	1423	1401	1387	1390	1402	1409	1409	1405	1394	1398	1401	1409	1415	1420	1408	1399	1402	1411	1424	1426	1419	1408	1405	1404	1409	1406	1407	1411	1417	1430	1430	1439	1436	1424	1411	1392	1380	1379	1388	1411	1414	1419	1416	1415	1400	1397	1402	1411	1415	1415	1410	1410	1399	1392	1403	1398	1358	1344	1343	1339	1342	1336	1332	1333	1336	1342	1364	1379	1392	1392	1381	1369	1367	1361	1373	1384	1394	1398	1393	1386	1377	1366	1357	1364	1375	1378	1381	1381	1375	1379	1384	1385	1383	1373	1360	1354	1358	1369	1387	1399	1395	1363	1373	0	0	0	0	0	0	0	0	0	0	0	0	0	0	0	0	0	0	0	0	0	0	0	0	0	0	0	0	0	0	0	1588	1615	1626	1636	1644	1638	1639	1634	1621	1588	0	0	0	0	0	0	0	1417	1388	1384	1385	1379	1382	1381	1376	1369	1369	1376	1381	1375	1366	1356	1359	1369	1372	1368	1362	1362	1367	1370	1365	1360	1364	1352	1347	1350	1353	1356	1352	1348	1343	1337	1339	1337	1333	1329	1325	1316	1313	1318	1338	1350	1357	1360	1351	1342	1343	1338	1341	1341	1343	1350	1356	1364	1371	1374	1374	1361	1344	1340	1341	1351	1355	1353	1353	1348	1342	1339	1335	1334	1332	1330	1332	1335	1341	1347	1352	1360	1363	1365	1361	1352	1331	1327	1337	1349	1358	1359	1370	1366	1357	1351	1354	1351	1358	1365	1370	1372	1368	1359	1354	1364	1369	1385	1385	1369	1351	1347	1346	1347	1347	1342	1337	1351	1354	1354	1354	1351	1345	1344	1344	1342	1357	1348	1346	1334	1341	1342	1348	1359	1353	1352	1350	1347	1342	1339	1337	1348	1362	1367	1361	1352	1346	1348	1353	1353	1355	1355	1352	1362	1369	1372	1350	1345	1372	1376	1376	1372	1362	1361	1361	1368	1381	1395	1406	1398	1386	1376	1364	1372	1360	1358	1360	1354	1350	1343	1341	1326	1329	1336	1344	1329	1308	1302	1324	1330	1334	1340	1348	1351	1348	1341	1332	1330	1341	1343	1342	1334	1335	1333	1334	1337	1338	1338	1335	1329	1324	1322	1320	1327	1335	1342	1342	1338	1352	1350	1354	1353	1344	1333	1329	1335	1342	1351	1353	1356	1357	1352	1360	1366	1366	1360	1331	1325	1324	1333	1333	1340	1340	1343	1345	1348	1345	1334	1327	1336	1341	1347	1343	1334	1334	1350	1364	1360	1355	1348	1349	1352	1352	1344	1348	1351	1357	1352	1346	1343	1347	1351	1348	1337	1333	1326	1328	1326	1337	1353	1366	1369	1364	1352	1339	1331	1322	1325	1330	1338	1351	1364	1372	1370	1356	1345	1334	1338	1342	1341	1336	1338	1340	1342	1344	1343	1343	1337	1339	1345	1348	1349	1353	1358	1350	1333	1332	1355	1377	1372	1370	1367	1411	0	0	0	0	0	0	0	0	0	0	0	0	0	0	0	0	0	0	0	0	0	0	0	0	1457	1461	1464	1471	1473	1447	1430	1442	1434	1428	1422	1415	1408	1413	1414	1416	1412	1412	1417	1421	1422	1428	1425	1428	1423	1414	1414	1412	1410	1405	1405	1400	1400	1406	1421	1406	1424	0	0	0	0	0	0	0	0	0	0	0	0	0	1439	1436	1431	1412	1394	1374	1384	1396	1397	1365	1359	1370	1362	1362	1360	1358	1359	1362	1365	1368	1372	1373	1373	1371	1369	1363	1358	1357	1349	1349	1344	1338	1335	1330	1330	1339	1348	1351	0	0	0	0	0	0	0
0	0	1385	1385	1393	1388	1389	1409	1404	1404	1405	1392	1393	1401	1404	1405	1405	1413	1409	1394	1397	1396	1390	1390	1393	1382	1379	1393	1403	1415	1421	1421	1412	1399	1401	1405	1408	1405	1397	1391	1387	1387	1388	1391	1402	1412	1424	1428	1414	1389	1384	1395	1410	1415	1415	1403	1397	1402	1412	1419	1432	1432	1415	1400	1398	1410	1425	1437	1434	1421	1418	1412	1405	1400	1395	1409	1427	1427	1436	1442	1439	1422	1410	1392	1386	1398	1411	1424	1425	1429	1429	1424	1409	1404	1407	1416	1416	1411	1415	1418	1424	1421	1403	1402	1389	1370	1356	1341	1322	1308	1311	1315	1329	1339	1353	1367	1381	1388	1379	1369	1368	1364	1381	1390	1392	1390	1387	1379	1371	1361	1354	1359	1371	1377	1381	1379	1376	1370	1365	1385	1385	1378	1375	1375	1368	1371	1382	1385	1386	1350	1353	1384	0	0	0	0	0	0	0	0	0	0	0	0	0	0	0	0	0	0	0	0	0	0	0	0	0	0	0	0	0	0	1596	1622	1631	1643	1653	1644	1634	1623	1613	1590	0	0	0	0	0	0	0	1391	1378	1382	1388	1395	1395	1388	1384	1369	1372	1378	1378	1377	1370	1358	1358	1359	1362	1359	1355	1347	1357	1363	1361	1357	1352	1341	1339	1341	1353	1363	1359	1349	1346	1343	1349	1345	1345	1333	1322	1313	1307	1313	1335	1359	1363	1358	1344	1334	1331	1329	1333	1339	1342	1350	1358	1367	1377	1376	1349	1347	1340	1340	1340	1340	1349	1356	1358	1354	1348	1341	1337	1340	1337	1340	1346	1346	1338	1339	1342	1355	1372	1378	1370	1358	1355	1357	1356	1359	1366	1369	1372	1370	1363	1366	1364	1361	1355	1358	1373	1372	1367	1360	1358	1369	1375	1362	1344	1333	1333	1341	1346	1352	1349	1346	1335	1329	1332	1348	1348	1345	1336	1334	1335	1346	1359	1362	1349	1348	1343	1342	1345	1352	1355	1357	1347	1341	1333	1334	1331	1341	1359	1365	1357	1352	1352	1351	1347	1343	1342	1341	1347	1361	1367	1370	1348	1337	1350	1357	1367	1366	1355	1355	1357	1368	1370	1372	1381	1381	1378	1366	1364	1367	1365	1360	1358	1354	1346	1339	1332	1329	1335	1345	1353	1347	1329	1317	1320	1328	1329	1341	1346	1349	1348	1342	1332	1328	1338	1356	1364	1359	1353	1346	1340	1335	1312	1297	1288	1309	1324	1327	1342	1367	1368	1364	1354	1346	1348	1351	1354	1356	1352	1337	1333	1337	1343	1351	1350	1350	1352	1350	1355	1357	1347	1335	1336	1335	1335	1337	1336	1343	1339	1340	1341	1340	1339	1337	1335	1344	1349	1353	1348	1337	1337	1348	1356	1354	1346	1341	1341	1345	1340	1337	1337	1348	1353	1351	1348	1343	1347	1347	1338	1336	1337	1335	1343	1327	1329	1334	1341	1359	1361	1356	1346	1340	1331	1330	1332	1326	1333	1329	1331	1329	1327	1331	1338	1354	1363	1360	1353	1339	1354	1358	1359	1349	1344	1340	1341	1343	1351	1346	1330	1333	1336	1329	1319	1333	1364	1368	1375	1390	1427	0	0	0	0	0	0	0	0	0	0	0	0	0	0	0	0	0	0	0	0	0	0	0	0	1438	1443	1445	1460	1456	1436	1436	1445	1448	1443	1439	1428	1422	1422	1424	1421	1421	1413	1414	1417	1425	1427	1422	1416	1411	1411	1412	1411	1408	1401	1400	1406	1410	1415	1419	1406	1416	0	0	0	0	0	0	0	0	0	0	0	0	0	1441	1429	1422	1413	1395	1375	1366	1375	1366	1366	1374	1393	1380	1380	1378	1372	1368	1367	1370	1368	1377	1377	1376	1368	1366	1363	1365	1360	1356	1356	1351	1344	1342	1339	1335	1339	1347	1356	0	0	0	0	0	0	0
0	0	1415	1415	1421	1417	1398	1396	1388	1388	1390	1385	1379	1394	1372	1381	1381	1402	1411	1421	1416	1402	1387	1387	1381	1381	1388	1414	1421	1420	1411	1411	1392	1388	1393	1395	1400	1403	1392	1386	1380	1380	1381	1383	1390	1403	1410	1414	1399	1381	1380	1388	1402	1415	1415	1405	1382	1387	1411	1432	1444	1437	1423	1401	1400	1420	1433	1445	1444	1436	1429	1422	1405	1402	1405	1417	1429	1429	1439	1438	1434	1420	1402	1392	1390	1408	1417	1422	1431	1433	1431	1428	1407	1403	1413	1421	1425	1420	1416	1419	1427	1428	1400	1395	1393	1367	1357	1346	1332	1323	1324	1338	1349	1352	1356	1366	1377	1379	1381	1383	1390	1404	1411	1413	1402	1386	1376	1368	1366	1369	1359	1345	1333	1337	1348	1355	1360	1362	1365	1373	1377	1377	1380	1374	1365	1365	1375	1397	1375	1349	1358	1381	0	0	0	0	0	0	0	0	0	0	0	0	0	0	0	0	0	0	0	0	0	0	0	0	0	0	0	0	0	0	1582	1615	1640	1652	1657	1644	1631	1616	1595	1584	0	0	0	0	0	0	0	1379	1372	1372	1386	1405	1403	1387	1380	1366	1356	1359	1367	1371	1371	1353	1346	1340	1347	1351	1347	1346	1342	1351	1354	1356	1359	1337	1330	1339	1346	1360	1364	1358	1353	1351	1355	1356	1361	1354	1329	1320	1314	1327	1347	1365	1363	1349	1339	1333	1330	1330	1333	1342	1347	1357	1361	1364	1359	1349	1343	1341	1338	1339	1335	1334	1341	1349	1362	1366	1358	1348	1338	1338	1338	1350	1355	1354	1353	1352	1346	1361	1373	1378	1376	1365	1354	1355	1357	1359	1360	1359	1364	1368	1367	1368	1366	1361	1354	1355	1356	1364	1359	1354	1356	1365	1365	1357	1339	1329	1327	1334	1342	1353	1354	1350	1335	1330	1327	1340	1346	1344	1337	1332	1332	1343	1358	1366	1359	1350	1343	1345	1344	1355	1359	1360	1355	1347	1331	1333	1337	1347	1356	1360	1354	1348	1354	1355	1345	1340	1334	1331	1339	1352	1362	1364	1362	1327	1339	1339	1363	1351	1353	1356	1358	1359	1364	1362	1365	1368	1369	1372	1371	1370	1369	1358	1351	1350	1341	1332	1330	1335	1343	1351	1367	1362	1344	1322	1320	1323	1330	1341	1346	1348	1348	1344	1340	1334	1330	1348	1350	1351	1344	1343	1340	1330	1323	1306	1317	1331	1338	1338	1346	1362	1367	1363	1361	1354	1351	1358	1359	1355	1360	1357	1353	1353	1356	1357	1359	1357	1350	1344	1342	1343	1336	1341	1343	1345	1345	1351	1354	1352	1349	1345	1347	1353	1356	1357	1353	1346	1347	1346	1344	1347	1350	1355	1356	1350	1342	1342	1341	1344	1336	1336	1339	1345	1352	1352	1343	1336	1332	1339	1343	1338	1341	1343	1353	1347	1342	1347	1343	1343	1341	1342	1334	1329	1328	1335	1336	1336	1333	1334	1330	1329	1328	1338	1351	1358	1366	1360	1349	1348	1359	1364	1363	1351	1345	1339	1337	1336	1343	1328	1325	1328	1335	1337	1340	1316	1319	1348	1387	1433	0	0	0	0	0	0	0	0	0	0	0	0	0	0	0	0	0	0	0	0	0	0	0	0	0	1436	1436	1440	1429	1420	1416	1438	1439	1444	1445	1441	1436	1434	1429	1421	1422	1421	1410	1410	1418	1426	1421	1418	1420	1414	1413	1414	1415	1411	1404	1407	1420	1422	1425	1418	1395	1399	0	0	0	0	0	0	0	0	0	0	0	0	1435	1425	1419	1412	1402	1399	1391	1379	1378	1364	1368	1390	1407	1396	1396	1389	1380	1374	1372	1370	1367	1370	1370	1369	1363	1359	1360	1361	1358	1354	1354	1354	1351	1350	1347	1344	1343	1349	1349	0	0	0	0	0	0	0
0	0	1461	1461	1447	1416	1398	1381	1381	1381	1392	1394	1380	1358	1355	1364	1364	1397	1416	1426	1420	1411	1382	1382	1375	1376	1389	1414	1429	1427	1404	1404	1390	1382	1384	1386	1393	1396	1390	1392	1384	1384	1380	1378	1386	1392	1396	1400	1395	1380	1382	1386	1399	1404	1404	1394	1378	1384	1408	1436	1448	1441	1426	1406	1410	1426	1440	1445	1445	1442	1432	1425	1413	1412	1415	1423	1437	1437	1441	1438	1424	1411	1403	1393	1401	1413	1420	1424	1421	1428	1432	1425	1408	1407	1412	1425	1427	1419	1418	1419	1433	1425	1397	1384	1389	1376	1368	1356	1349	1347	1348	1351	1353	1354	1354	1362	1375	1379	1379	1379	1390	1404	1411	1412	1410	1391	1370	1359	1357	1353	1352	1340	1336	1341	1347	1354	1357	1360	1365	1373	1379	1382	1382	1371	1362	1360	1390	1409	1394	1366	1368	1370	0	0	0	0	0	0	0	0	0	0	0	0	0	0	0	0	0	0	0	0	0	0	0	0	0	0	0	0	0	0	1587	1611	1637	1647	1655	1647	1637	1626	1603	1586	0	0	0	0	0	0	0	1396	1383	1373	1382	1396	1405	1381	1369	1352	1337	1349	1356	1370	1363	1354	1344	1338	1351	1358	1354	1347	1349	1351	1353	1359	1368	1373	1361	1348	1347	1354	1357	1351	1353	1355	1359	1365	1361	1358	1344	1332	1325	1333	1350	1360	1355	1349	1335	1335	1343	1350	1354	1358	1362	1360	1361	1365	1362	1352	1345	1341	1337	1334	1329	1326	1332	1342	1357	1371	1362	1351	1341	1339	1336	1335	1350	1354	1357	1355	1350	1355	1363	1369	1366	1355	1354	1353	1357	1357	1354	1348	1351	1359	1370	1373	1364	1348	1357	1357	1353	1359	1357	1358	1359	1370	1366	1352	1343	1339	1339	1341	1346	1350	1355	1357	1344	1336	1339	1346	1352	1348	1339	1333	1333	1344	1354	1357	1357	1351	1344	1340	1335	1351	1355	1362	1360	1351	1342	1347	1367	1375	1371	1360	1345	1330	1329	1341	1358	1361	1358	1345	1342	1342	1346	1345	1345	1320	1338	1336	1350	1344	1357	1357	1355	1353	1353	1351	1353	1351	1359	1364	1367	1364	1356	1347	1348	1342	1336	1333	1334	1343	1346	1362	1371	1365	1352	1337	1327	1323	1327	1338	1342	1344	1346	1347	1344	1339	1333	1344	1346	1345	1339	1343	1341	1336	1323	1312	1317	1337	1342	1355	1365	1361	1364	1360	1356	1353	1356	1354	1356	1357	1362	1360	1359	1356	1360	1362	1357	1347	1342	1343	1342	1336	1344	1353	1359	1356	1354	1357	1359	1355	1352	1344	1339	1343	1343	1338	1337	1346	1348	1350	1350	1349	1351	1356	1356	1354	1344	1345	1345	1339	1340	1341	1345	1344	1353	1354	1346	1337	1332	1336	1344	1344	1345	1348	1354	1359	1357	1350	1345	1342	1336	1331	1328	1325	1322	1337	1343	1340	1332	1341	1333	1330	1334	1344	1360	1367	1364	1357	1349	1343	1364	1366	1360	1356	1350	1340	1334	1328	1324	1326	1329	1330	1328	1339	1343	1318	1311	1316	1373	0	0	0	0	0	0	0	0	0	0	0	0	0	0	0	0	0	0	0	0	0	0	0	0	0	0	1435	1444	1443	1420	1410	1415	1437	1435	1436	1434	1430	1423	1416	1406	1387	1399	1397	1400	1399	1417	1414	1406	1406	1430	1443	1438	1432	1432	1431	1423	1413	1419	1430	1435	1405	1392	1399	0	0	0	0	0	0	0	0	0	0	0	1420	1409	1410	1411	1411	1409	1420	1412	1397	1382	1368	1373	1397	1405	1393	1388	1388	1381	1374	1371	1367	1359	1362	1369	1371	1366	1358	1353	1352	1345	1353	1355	1355	1357	1355	1354	1350	1348	1343	1347	0	0	0	0	0	0	0
0	0	1459	1459	1437	1415	1388	1372	1376	1376	1391	1402	1385	1361	1350	1350	1357	1388	1397	1411	1413	1409	1394	1383	1361	1374	1387	1406	1420	1414	1401	1401	1381	1374	1372	1375	1382	1385	1384	1385	1384	1384	1382	1381	1379	1386	1385	1386	1387	1388	1389	1390	1393	1393	1389	1386	1384	1396	1413	1429	1441	1437	1432	1414	1418	1431	1445	1444	1442	1436	1425	1422	1418	1420	1427	1429	1429	1436	1434	1425	1412	1404	1395	1394	1402	1412	1420	1421	1422	1428	1430	1421	1404	1405	1413	1426	1428	1428	1420	1424	1424	1430	1401	1386	1388	1380	1377	1369	1371	1361	1360	1354	1352	1351	1345	1360	1369	1377	1370	1371	1388	1399	1401	1400	1405	1393	1369	1342	1333	1331	1334	1348	1354	1353	1358	1356	1359	1360	1368	1377	1388	1395	1382	1367	1351	1359	1381	1372	1364	1354	1356	1357	1347	0	0	0	0	0	0	0	0	0	0	0	0	0	0	0	0	0	0	0	0	0	0	0	0	0	0	0	0	0	1602	1630	1647	1662	1665	1655	1649	1638	1624	1616	0	0	0	0	0	0	0	1408	1384	1372	1372	1399	1401	1357	1348	1329	1332	1341	1357	1370	1365	1359	1353	1353	1359	1361	1356	1348	1343	1349	1345	1359	1380	1382	1376	1357	1345	1343	1339	1341	1351	1357	1359	1365	1370	1369	1359	1345	1336	1332	1339	1348	1339	1333	1337	1344	1352	1356	1359	1368	1333	1344	1354	1361	1371	1372	1365	1363	1355	1336	1321	1319	1328	1348	1360	1362	1356	1351	1348	1350	1342	1332	1325	1327	1333	1342	1354	1369	1368	1365	1361	1362	1363	1366	1364	1359	1356	1348	1340	1341	1346	1347	1343	1339	1357	1369	1362	1354	1351	1360	1370	1371	1357	1344	1343	1348	1351	1354	1354	1352	1354	1350	1344	1344	1351	1354	1354	1349	1340	1329	1330	1339	1350	1352	1364	1362	1360	1351	1342	1343	1350	1358	1357	1344	1349	1355	1368	1375	1373	1367	1353	1343	1335	1348	1368	1367	1361	1357	1354	1348	1340	1334	1330	1326	1328	1330	1332	1342	1356	1361	1356	1349	1343	1343	1346	1348	1352	1359	1361	1356	1351	1346	1342	1339	1338	1336	1341	1352	1352	1359	1360	1357	1349	1340	1333	1330	1332	1337	1340	1338	1336	1338	1339	1340	1339	1342	1347	1340	1334	1345	1344	1337	1332	1326	1329	1330	1356	1352	1349	1353	1360	1359	1357	1351	1352	1358	1360	1359	1354	1356	1355	1357	1362	1354	1349	1343	1344	1343	1345	1346	1356	1362	1367	1359	1357	1357	1362	1360	1354	1349	1336	1335	1336	1335	1330	1344	1352	1352	1351	1348	1353	1357	1353	1353	1350	1349	1346	1340	1339	1344	1348	1347	1356	1359	1351	1337	1334	1337	1341	1343	1343	1350	1351	1355	1357	1356	1352	1348	1340	1332	1332	1326	1329	1337	1340	1340	1347	1349	1342	1337	1336	1348	1362	1373	1369	1360	1352	1348	1361	1363	1357	1354	1351	1341	1332	1330	1325	1328	1332	1335	1333	1335	1341	1324	1324	1318	1352	0	0	0	0	0	0	0	0	0	0	0	0	0	0	0	0	0	0	0	0	0	0	0	0	0	0	1432	1446	1440	1419	1407	1408	1435	1436	1431	1413	1414	1416	1411	1402	1398	1410	1415	1415	1404	1402	1408	1405	1397	1409	1468	1462	1442	1424	1409	1392	1364	1374	1399	1417	1417	1409	0	0	0	0	0	0	0	0	0	0	1449	1422	1398	1393	1402	1410	1419	1428	1432	1421	1399	1378	1367	1381	1390	1382	1371	1370	1370	1377	1371	1370	1365	1358	1357	1371	1375	1375	1368	1355	1347	1345	1355	1358	1358	1360	1359	1362	1353	1349	1349	1339	0	0	0	0	0	0	0
0	0	1429	1429	1415	1392	1367	1361	1374	1374	1399	1405	1390	1361	1352	1352	1356	1380	1388	1395	1405	1406	1394	1394	1367	1373	1386	1398	1402	1400	1382	1382	1372	1368	1361	1366	1373	1380	1382	1378	1376	1376	1377	1377	1377	1376	1380	1383	1388	1392	1400	1397	1388	1388	1382	1382	1384	1392	1403	1413	1425	1433	1432	1419	1426	1440	1452	1445	1433	1421	1409	1403	1410	1421	1427	1424	1424	1426	1424	1413	1404	1395	1392	1395	1402	1410	1418	1426	1430	1436	1432	1423	1414	1411	1418	1429	1434	1441	1436	1435	1424	1426	1408	1395	1390	1396	1394	1381	1367	1359	1352	1354	1354	1351	1349	1352	1361	1364	1357	1365	1380	1395	1395	1393	1395	1381	1360	1333	1326	1330	1322	1351	1365	1363	1359	1360	1363	1367	1375	1385	1398	1393	1381	1353	1340	1357	1375	1372	1369	1354	1361	1373	1344	0	0	0	0	0	0	0	0	0	0	0	0	0	0	0	0	0	0	0	0	0	0	0	0	0	0	0	0	0	1619	1665	1670	1667	1659	1643	1645	1641	1645	1649	0	0	0	0	0	0	0	1390	1384	1369	1381	1390	1346	1341	1338	1335	1337	1345	1353	1371	1376	1384	1388	1372	1364	1353	1344	1340	1336	1338	1344	1350	1364	1361	1358	1350	1348	1346	1338	1337	1340	1347	1355	1364	1373	1377	1373	1362	1350	1339	1346	1360	1361	1357	1360	1368	1365	1351	1325	1320	1326	1338	1346	1351	1367	1378	1370	1372	1363	1350	1335	1333	1344	1359	1364	1364	1357	1356	1355	1359	1352	1339	1332	1332	1344	1356	1361	1365	1363	1364	1366	1369	1369	1371	1364	1359	1350	1348	1339	1335	1335	1338	1341	1350	1360	1372	1367	1358	1353	1362	1368	1361	1346	1341	1343	1355	1367	1363	1358	1349	1348	1346	1342	1346	1355	1356	1357	1346	1332	1327	1329	1339	1347	1356	1362	1366	1367	1361	1351	1348	1352	1357	1357	1350	1351	1355	1365	1369	1374	1367	1363	1352	1346	1350	1361	1371	1365	1358	1353	1352	1346	1331	1335	1340	1335	1335	1331	1342	1360	1369	1359	1353	1348	1355	1353	1351	1352	1358	1358	1352	1348	1344	1342	1339	1332	1341	1349	1346	1346	1346	1342	1347	1342	1342	1341	1338	1340	1344	1344	1336	1334	1332	1337	1340	1344	1346	1358	1347	1344	1346	1347	1348	1352	1356	1361	1361	1357	1352	1347	1349	1357	1356	1350	1351	1347	1344	1338	1342	1349	1347	1347	1347	1343	1339	1338	1337	1342	1345	1345	1356	1361	1372	1374	1368	1359	1362	1362	1367	1363	1358	1350	1344	1338	1339	1340	1342	1354	1348	1345	1338	1353	1355	1351	1356	1358	1353	1340	1332	1331	1337	1347	1349	1349	1356	1351	1343	1337	1333	1337	1341	1344	1351	1352	1357	1363	1362	1352	1349	1347	1342	1339	1340	1340	1332	1334	1342	1349	1353	1349	1345	1340	1342	1351	1364	1369	1361	1363	1356	1356	1359	1364	1360	1354	1350	1344	1337	1334	1335	1338	1341	1336	1330	1320	1331	1335	1332	1347	0	0	0	0	0	0	0	0	0	0	0	0	0	0	0	0	0	0	0	0	0	0	0	0	0	0	1442	1459	1454	1444	1426	1424	1435	1435	1424	1414	1410	1407	1401	1402	1411	1420	1420	1420	1418	1414	1434	1430	1434	1440	1445	1451	1421	1385	1378	1374	1363	1365	1387	1418	1428	1440	0	0	0	0	0	0	0	0	0	0	1444	1416	1391	1381	1392	1408	1434	1443	1449	1441	1417	1379	1372	1375	1382	1379	1370	1365	1365	1371	1369	1369	1369	1364	1363	1366	1378	1378	1373	1366	1355	1350	1357	1365	1365	1369	1365	1360	1352	1355	1347	1350	0	0	0	0	0	0	0
0	0	1407	1407	1401	1384	1366	1362	1371	1371	1392	1398	1379	1364	1360	1360	1366	1387	1402	1405	1407	1402	1402	1387	1378	1380	1386	1395	1400	1386	1373	1373	1371	1375	1371	1375	1381	1388	1386	1378	1378	1374	1374	1369	1368	1365	1371	1382	1387	1396	1404	1398	1395	1395	1388	1387	1393	1393	1396	1405	1419	1432	1436	1427	1432	1448	1451	1446	1431	1416	1401	1393	1399	1408	1414	1414	1416	1414	1417	1418	1413	1403	1401	1400	1405	1411	1422	1433	1437	1443	1431	1428	1424	1416	1421	1426	1431	1441	1444	1436	1428	1431	1425	1413	1398	1393	1395	1388	1366	1349	1342	1344	1350	1351	1349	1348	1349	1351	1353	1362	1378	1388	1392	1385	1389	1370	1354	1342	1334	1333	1323	1357	1368	1365	1357	1358	1365	1374	1386	1388	1397	1391	1375	1343	1334	1342	1372	1369	1374	1366	1373	1384	0	0	0	0	0	0	0	0	0	0	0	0	0	0	0	0	0	0	0	0	0	0	0	0	0	0	0	0	0	0	1631	1695	1680	1678	1662	1639	1635	1632	1638	1661	0	0	0	0	0	0	0	1387	1378	1367	1374	1353	1355	1351	1349	1339	1338	1339	1354	1367	1380	1388	1389	1375	1367	1353	1348	1343	1342	1346	1349	1349	1356	1355	1347	1344	1336	1341	1345	1346	1348	1348	1357	1364	1367	1372	1375	1372	1355	1347	1351	1367	1375	1368	1364	1365	1352	1331	1324	1318	1326	1341	1347	1346	1347	1351	1356	1364	1363	1354	1344	1345	1357	1366	1364	1360	1357	1358	1363	1367	1365	1352	1344	1345	1358	1361	1361	1363	1362	1364	1365	1370	1376	1375	1369	1364	1360	1350	1338	1329	1329	1331	1340	1348	1363	1372	1369	1361	1355	1354	1354	1348	1342	1341	1346	1357	1368	1373	1361	1354	1345	1342	1340	1345	1359	1366	1358	1343	1330	1325	1329	1337	1342	1354	1364	1369	1372	1371	1368	1363	1361	1364	1360	1350	1352	1356	1361	1371	1376	1375	1369	1359	1351	1352	1358	1363	1357	1346	1349	1349	1346	1337	1341	1351	1354	1335	1337	1355	1370	1372	1367	1364	1368	1365	1360	1358	1356	1358	1357	1353	1352	1349	1343	1338	1339	1348	1351	1345	1341	1334	1332	1338	1344	1347	1350	1347	1344	1347	1350	1339	1334	1335	1339	1344	1346	1346	1357	1346	1336	1342	1342	1344	1351	1359	1362	1362	1359	1355	1352	1356	1359	1355	1350	1350	1349	1342	1334	1330	1336	1344	1348	1352	1345	1341	1341	1343	1340	1343	1339	1365	1373	1380	1375	1373	1369	1367	1366	1364	1364	1368	1362	1361	1349	1346	1343	1346	1351	1347	1343	1341	1333	1339	1346	1358	1363	1351	1332	1321	1325	1337	1347	1357	1363	1360	1350	1344	1332	1335	1337	1342	1348	1353	1357	1363	1367	1364	1360	1352	1349	1343	1346	1352	1349	1330	1333	1341	1353	1355	1356	1346	1338	1336	1344	1354	1363	1357	1356	1358	1349	1351	1360	1364	1364	1358	1352	1347	1342	1344	1348	1348	1340	1330	1321	1331	1342	1346	1357	0	0	0	0	0	0	0	0	0	0	0	0	0	0	0	0	0	0	0	0	0	0	0	0	0	0	1456	1473	1473	1467	1449	1442	1431	1435	1424	1409	1408	1407	1404	1409	1416	1422	1424	1426	1416	1428	1428	1432	1427	1423	1446	1446	1422	1386	1384	1385	1382	1380	1394	1419	1444	1457	0	0	0	0	0	0	0	0	0	0	1433	1417	1406	1396	1389	1409	1426	1445	1442	1434	1423	1395	1371	1363	1378	1384	1367	1364	1364	1370	1378	1377	1377	1370	1363	1365	1372	1380	1381	1373	1362	1357	1365	1374	1374	1376	1371	1361	1359	1356	1351	1353	0	0	0	0	0	0	0
