0	0	0	0	0	0	0	0	0	0	0	0	0	0	0	0	0	0	0	0	0	0	0	0	0	0	0	0	0	0	0	0	0	0	0	0	0	0	0	0	0	0	0	0	0	0	0	0	0	0	0	0	0	0	0	0	0	0	0	0	0	0	0	0	0	0	0	0	0	0	0	0	0	0	0	0	0	0	0	0	0	0	0	0	0	0	0	0	0	0	0	0	0	0	0	0	0	0	0	0	0	0	0	0	0	0	0	1086	1120	1152	0	0	0	0	0	0	0	0	0	0	0	0	0	0	0	0	0	0	0	1163	1187	1224	1271	1307	1335	1324	1306	1292	1301	1322	1374	1374	1441	1500	1519	1546	1555	1574	1597	1611	1635	1641	1646	1630	1630	1603	1584	1588	1605	1635	1662	1662	1677	1675	1646	1618	1613	1627	1669	1697	1699	1702	1699	1690	1685	1674	1666	1681	1702	1753	1762	1763	1743	1712	1695	1689	1682	1682	1656	1651	1658	1656	1648	1643	1648	1671	1670	1650	1644	1656	1656	1666	1679	1695	1709	1713	1710	1699	1686	1682	1678	1658	1622	1582	1584	1593	1606	1624	1637	1625	1623	1631	1655	1664	1654	1620	1595	1592	1608	1608	1622	1639	1642	1654	1646	1640	1650	1672	1705	1720	1709	1687	1654	1622	1610	1589	1577	1576	1570	1546	1530	1553	1589	1626	1650	1609	1605	1614	1624	1623	1618	1609	1602	1602	1601	1618	1651	1639	1636	1626	1604	1584	1596	1625	1642	1658	1665	1652	1632	1619	1636	1673	1706	1722	1719	1701	1681	1674	1667	1675	1700	1735	1744	1761	1761	1736	1690	1698	1741	1743	1739	1749	1799	1856	1884	1889	1876	1867	1867	1860	1875	1857	1842	1846	1836	1827	1842	1836	1823	1809	1805	1808	1814	1822	1834	1832	1824	1821	1831	1848	1854	1859	1808	1752	1706	1710	1731	1742	1721	1715	1698	1674	1670	1681	1700	1710	1702	1709	1718	1734	1733	1727	1707	1680	1668	1683	1702	1687	1670	1638	1616	1623	1640	1665	1688	1691	1663	1652	1651	1641	1632	1623	1629	1633	1657	1668	1672	1670	1668	1654	1638	1650	1646	1653	1642	1642	1644	1663	1676	1667	1663	1658	1673	1681	1671	1664	1652	1656	1655	1662	1658	1667	1667	1676	1667	1639	1611	1601	1608	1606	1598	1583	1576	1582	1586	1602	1596	1595	1598	1605	1615	1638	1652	1654	1669	1675	1673	1647	1618	1617	1631	1655	1688	1688	1685	1672	1632	1605	1588	1571	1565	1542	1534	1547	1602	1602	1673	1698	1684	1669	1666	1660	1644	1644	1649	1660	1654	1624	1581	1563	1586	1608	1627	1648	1644	1613	1563	1535	1536	1539	1539	1539	1548	1526	1500	1481	1478	1493	1480	1472	1456	1444	1441	1450	1467	1487	1499	1501	1492	1475	1475	1443	1383	1317	1271	1249	1263	1274	1303	1329	1328	1310	1280	1255	1239	1220	1220	1211	1224	1251	1264	1256	1259	1238	1219	1221	1237	1242	1222	1216	1216	1226	1230	1225	1175	1132	1119	1142	1174	1196	1193	1187	1187	1177	1174	1146	1117	1104	1112	1137	1156	1159	1151	1117	1117	1095	1068	1055	1077	1118	1137	1116	1075	1056	1056	1060	1058	1053	1045	1025	1015	1003	997	998	998	992	1014	959	901	876	896	919	919	944	973	992	994	989	992	0	0	0	0	0	0	0	0	0	0	0	0	0	0	0	0	0	0	0	0	0	0	0	0	0	0	0	0	0	0	0	0	0	0	0	0	0	0	0	0	0	0	0	0	0	0	0	0	0	0	0	0	0	0	0	0	0	0	0	0	0
0	0	0	0	0	0	0	0	0	0	0	0	0	0	0	0	0	0	0	0	0	0	0	0	0	0	0	0	0	0	0	0	0	0	0	0	0	0	0	0	0	0	0	0	0	0	0	0	0	0	0	0	0	0	0	0	0	0	0	0	0	0	0	0	0	0	0	0	0	0	0	0	0	0	0	0	0	0	0	0	0	0	0	0	0	0	0	0	0	0	0	0	0	0	0	0	0	0	0	0	0	0	0	0	0	0	1067	1067	1100	1126	0	0	0	0	0	0	0	0	0	0	0	0	0	0	0	0	0	0	0	0	1188	1253	1297	1326	1337	1338	1308	1282	1286	1295	1328	1408	1408	1469	1497	1508	1518	1530	1551	1579	1594	1601	1604	1610	1602	1584	1571	1587	1612	1613	1638	1638	1663	1665	1641	1615	1607	1630	1657	1682	1684	1682	1677	1657	1647	1636	1634	1669	1702	1753	1751	1729	1697	1679	1672	1665	1657	1657	1628	1611	1619	1613	1581	1563	1599	1629	1646	1647	1636	1631	1641	1643	1668	1700	1707	1699	1692	1681	1668	1656	1637	1613	1578	1574	1580	1601	1613	1614	1618	1617	1618	1642	1657	1653	1617	1558	1538	1549	1570	1581	1581	1602	1623	1641	1647	1632	1637	1625	1607	1590	1525	1490	1480	1495	1502	1529	1547	1542	1528	1511	1505	1528	1562	1585	1566	1563	1562	1579	1587	1605	1596	1598	1589	1570	1559	1577	1601	1601	1594	1592	1579	1578	1585	1605	1614	1633	1655	1671	1649	1634	1627	1654	1683	1711	1708	1697	1675	1673	1666	1683	1702	1727	1751	1766	1761	1713	1688	1688	1723	1736	1742	1758	1819	1872	1906	1909	1901	1882	1866	1859	1854	1845	1822	1823	1834	1839	1837	1828	1828	1818	1817	1816	1820	1830	1841	1846	1844	1844	1839	1839	1844	1862	1842	1757	1707	1710	1711	1714	1696	1691	1687	1685	1678	1682	1693	1693	1668	1670	1681	1703	1712	1715	1693	1682	1672	1685	1697	1673	1644	1618	1598	1612	1627	1652	1667	1664	1644	1637	1632	1630	1622	1620	1620	1634	1653	1659	1664	1658	1649	1637	1636	1652	1656	1650	1644	1644	1649	1660	1664	1648	1629	1624	1636	1632	1629	1626	1635	1647	1664	1653	1640	1623	1623	1625	1616	1604	1586	1569	1562	1554	1546	1546	1557	1562	1569	1573	1568	1577	1577	1587	1615	1627	1638	1641	1647	1642	1630	1605	1583	1574	1586	1606	1627	1660	1670	1652	1622	1600	1583	1549	1520	1487	1483	1522	1583	1583	1656	1694	1692	1687	1666	1652	1644	1644	1647	1648	1645	1612	1584	1576	1580	1594	1608	1623	1624	1607	1567	1550	1551	1557	1557	1557	1537	1510	1474	1471	1464	1472	1473	1454	1432	1428	1431	1449	1470	1491	1492	1481	1473	1448	1448	1426	1390	1347	1297	1290	1292	1315	1338	1351	1359	1331	1297	1264	1238	1229	1229	1231	1255	1271	1285	1264	1254	1239	1206	1208	1222	1227	1213	1218	1218	1224	1234	1225	1168	1109	1074	1074	1117	1145	1173	1183	1183	1188	1180	1166	1129	1108	1105	1130	1151	1144	1125	1094	1094	1082	1054	1039	1042	1066	1074	1052	1024	1009	1009	1014	1019	1019	1013	1003	978	965	959	997	998	992	994	963	908	881	884	892	892	921	937	954	971	980	987	979	967	967	957	924	886	0	0	0	0	0	0	0	904	887	876	878	878	876	894	893	0	0	0	0	0	0	0	0	0	0	0	0	0	0	0	0	0	0	0	0	0	0	0	0	0	0	0	0	0	0	0	0	0	0	0	0	0	0	0	0
0	0	0	0	0	0	0	0	0	0	0	0	0	0	0	0	0	0	0	0	0	0	0	0	0	0	0	0	0	0	0	0	0	0	0	0	0	0	0	0	0	0	0	0	0	0	0	0	0	0	0	0	0	0	0	0	0	0	0	0	0	0	0	0	0	0	0	0	0	0	0	0	0	0	0	0	0	0	0	0	0	0	0	0	0	0	0	0	0	0	0	0	0	0	0	0	0	0	0	0	0	0	0	0	0	0	0	0	0	0	0	0	0	0	0	0	0	0	0	0	0	0	0	0	0	0	0	0	0	0	0	1284	1319	1319	1316	1310	1278	1258	1265	1276	1326	1392	1392	1446	1471	1472	1486	1493	1509	1539	1561	1567	1571	1573	1580	1572	1572	1579	1598	1621	1627	1627	1644	1646	1628	1609	1604	1611	1632	1651	1661	1658	1645	1627	1618	1609	1609	1636	1685	1732	1751	1729	1663	1660	1662	1657	1638	1638	1607	1593	1595	1578	1542	1540	1555	1600	1607	1608	1605	1607	1633	1656	1676	1684	1679	1668	1661	1645	1625	1616	1604	1588	1583	1577	1604	1624	1624	1617	1598	1596	1607	1639	1651	1646	1594	1550	1539	1534	1547	1554	1554	1558	1565	1592	1601	1604	1620	1609	1585	1527	1490	1431	1424	1441	1459	1486	1507	1515	1509	1507	1525	1536	1530	1526	1517	1524	1537	1542	1544	1554	1568	1591	1598	1583	1570	1581	1586	1589	1585	1584	1577	1575	1575	1584	1606	1623	1656	1678	1660	1640	1623	1637	1645	1671	1681	1659	1631	1618	1637	1669	1697	1704	1711	1701	1686	1679	1681	1691	1704	1712	1721	1743	1798	1858	1908	1917	1900	1883	1861	1870	1848	1817	1814	1827	1832	1826	1824	1829	1833	1828	1834	1822	1828	1831	1844	1856	1870	1870	1859	1848	1848	1879	1860	1776	1735	1726	1723	1717	1696	1699	1708	1701	1702	1708	1699	1686	1658	1648	1665	1677	1685	1697	1676	1673	1670	1677	1692	1664	1635	1624	1611	1605	1610	1623	1643	1634	1606	1589	1596	1602	1592	1582	1586	1611	1628	1637	1631	1614	1601	1593	1600	1618	1640	1648	1641	1630	1638	1643	1649	1629	1605	1599	1599	1600	1597	1607	1623	1656	1665	1645	1613	1579	1579	1568	1561	1565	1559	1539	1526	1513	1515	1516	1534	1548	1564	1566	1566	1554	1543	1540	1534	1546	1566	1573	1570	1561	1545	1536	1519	1521	1541	1543	1570	1614	1624	1597	1574	1560	1552	1527	1496	1473	1466	1511	1577	1577	1624	1669	1684	1687	1666	1652	1650	1638	1636	1639	1628	1612	1601	1591	1576	1573	1585	1600	1610	1598	1568	1542	1537	1550	1550	1539	1511	1488	1455	1462	1477	1478	1449	1421	1395	1391	1407	1430	1464	1472	1471	1451	1430	1411	1411	1396	1383	1357	1327	1320	1324	1335	1347	1363	1366	1339	1301	1269	1263	1237	1237	1228	1257	1281	1291	1274	1250	1229	1218	1211	1211	1208	1196	1186	1186	1204	1215	1201	1155	1073	1025	1006	1044	1095	1145	1180	1180	1194	1189	1161	1134	1125	1127	1142	1154	1149	1096	1096	1055	1034	1018	1031	1030	1026	1011	1002	1006	1013	1013	1022	1037	1035	1022	1003	978	965	959	959	962	969	971	958	935	907	896	889	889	894	914	926	945	956	957	958	942	942	940	913	871	862	852	889	931	931	950	939	910	894	884	891	891	886	881	876	850	0	0	0	0	0	0	0	0	0	0	0	0	0	0	0	0	0	0	0	0	0	0	0	0	0	0	0	0	0	0	0	0	0	0	0	0	0	0	0
0	0	0	0	0	0	0	0	0	0	0	0	0	0	0	0	0	0	0	0	0	0	0	0	0	0	0	0	0	0	0	0	0	0	0	0	0	0	0	0	0	0	0	0	0	0	0	0	0	0	0	0	0	0	0	0	0	0	0	0	0	0	0	0	0	0	0	0	0	0	0	0	0	0	0	0	0	0	0	0	0	0	0	0	0	0	0	0	0	0	0	0	0	0	0	0	0	0	0	0	0	0	0	0	0	0	0	0	0	0	0	0	0	0	0	0	0	0	0	0	0	0	0	0	0	0	0	0	0	0	0	1278	1309	1252	1228	1204	1200	1201	1215	1264	1340	1400	1400	1439	1455	1466	1469	1474	1485	1518	1551	1548	1546	1559	1571	1565	1565	1568	1579	1602	1606	1606	1617	1621	1608	1593	1586	1597	1608	1625	1635	1636	1619	1591	1576	1573	1580	1609	1659	1692	1702	1678	1663	1660	1667	1675	1660	1660	1617	1598	1582	1568	1534	1534	1544	1549	1556	1571	1576	1598	1620	1642	1649	1644	1620	1605	1591	1578	1581	1587	1572	1571	1580	1597	1603	1601	1598	1576	1546	1545	1569	1602	1624	1612	1575	1551	1538	1533	1529	1529	1529	1536	1540	1544	1546	1563	1589	1596	1567	1504	1456	1424	1406	1429	1463	1481	1492	1480	1479	1499	1521	1532	1525	1523	1524	1521	1524	1523	1532	1536	1549	1582	1600	1603	1596	1607	1603	1607	1595	1595	1591	1583	1557	1553	1556	1575	1602	1639	1646	1616	1590	1580	1595	1632	1646	1622	1599	1585	1599	1636	1666	1676	1665	1639	1641	1656	1680	1691	1693	1688	1680	1697	1703	1790	1881	1901	1886	1862	1853	1864	1845	1822	1830	1830	1831	1824	1823	1824	1829	1847	1842	1835	1840	1834	1847	1868	1874	1885	1870	1863	1877	1886	1844	1790	1774	1749	1729	1715	1701	1717	1728	1732	1742	1738	1705	1681	1656	1659	1669	1669	1665	1664	1656	1641	1640	1649	1660	1647	1643	1626	1611	1597	1594	1590	1611	1606	1591	1582	1576	1575	1564	1553	1557	1576	1590	1600	1586	1580	1565	1567	1567	1590	1608	1619	1623	1621	1629	1639	1638	1628	1608	1583	1578	1593	1597	1609	1624	1643	1656	1627	1582	1582	1553	1539	1539	1547	1539	1526	1496	1485	1490	1512	1527	1537	1542	1552	1563	1552	1536	1525	1519	1529	1533	1524	1522	1506	1492	1488	1500	1511	1513	1520	1542	1572	1577	1559	1537	1517	1512	1500	1480	1458	1476	1512	1512	1558	1602	1669	1684	1679	1658	1631	1633	1630	1626	1613	1608	1605	1603	1589	1579	1574	1589	1614	1614	1584	1556	1527	1513	1506	1506	1493	1475	1450	1449	1458	1467	1460	1424	1390	1358	1347	1358	1393	1423	1443	1429	1414	1391	1378	1378	1370	1365	1354	1329	1335	1337	1341	1330	1338	1339	1327	1303	1279	1256	1233	1233	1227	1232	1242	1259	1253	1236	1226	1213	1192	1190	1170	1147	1144	1144	1159	1159	1140	1118	1047	992	973	996	1047	1129	1177	1177	1195	1183	1148	1134	1136	1138	1152	1154	1130	1065	1065	1003	973	985	1015	1007	988	976	976	997	1019	1019	1036	1037	1035	1022	1004	977	963	950	950	958	963	965	956	933	916	892	864	864	853	868	888	914	911	917	910	911	911	897	890	868	848	831	861	903	903	933	910	887	874	884	880	880	881	883	859	0	0	0	0	0	0	0	0	0	0	0	0	0	0	793	806	0	0	0	796	814	857	872	856	856	805	0	0	0	0	0	0	0	0	0	0	0	0	0	0
0	0	0	0	0	0	0	0	0	0	0	0	0	0	0	0	0	0	0	0	0	0	0	0	0	0	0	0	0	0	0	0	0	0	0	0	0	0	0	0	0	0	0	0	0	0	0	0	0	0	0	0	0	0	0	0	0	0	0	0	0	0	0	0	0	0	0	0	0	0	0	0	0	0	0	0	0	0	0	0	0	0	0	0	0	0	0	0	0	0	0	0	0	0	0	0	0	0	0	0	0	0	0	0	0	0	0	0	0	0	0	0	0	0	0	0	0	0	0	0	0	0	0	0	0	1032	1032	1028	1057	1113	1181	1242	1231	1180	1160	1162	1167	1187	1203	1261	1349	1401	1401	1441	1454	1469	1468	1478	1495	1525	1541	1549	1550	1556	1564	1557	1556	1547	1549	1554	1568	1576	1576	1581	1583	1577	1579	1586	1597	1611	1621	1624	1604	1584	1568	1557	1565	1592	1631	1660	1664	1653	1641	1645	1667	1675	1695	1695	1648	1606	1588	1557	1508	1501	1500	1509	1518	1545	1568	1588	1605	1619	1626	1605	1565	1528	1513	1538	1558	1557	1542	1547	1560	1576	1575	1565	1544	1532	1532	1528	1552	1575	1591	1586	1565	1545	1535	1531	1524	1521	1521	1520	1523	1528	1521	1536	1572	1587	1561	1509	1471	1448	1454	1470	1498	1502	1497	1479	1484	1514	1515	1525	1523	1523	1531	1530	1521	1518	1526	1534	1546	1569	1575	1570	1577	1602	1624	1634	1633	1625	1613	1579	1537	1517	1508	1534	1561	1582	1582	1572	1565	1564	1592	1617	1619	1606	1575	1562	1582	1617	1632	1627	1614	1608	1617	1630	1659	1675	1668	1657	1651	1656	1688	1780	1849	1850	1857	1842	1840	1858	1854	1832	1825	1822	1823	1827	1826	1818	1830	1842	1854	1842	1838	1844	1847	1855	1860	1867	1874	1869	1885	1856	1830	1785	1789	1745	1716	1699	1697	1722	1751	1773	1790	1773	1724	1686	1666	1676	1682	1669	1663	1649	1631	1615	1584	1612	1621	1630	1619	1615	1603	1585	1575	1576	1594	1603	1589	1585	1571	1565	1547	1549	1552	1569	1584	1577	1564	1549	1539	1540	1545	1550	1544	1540	1570	1584	1605	1628	1635	1626	1600	1585	1579	1585	1592	1595	1621	1633	1623	1595	1566	1566	1548	1531	1533	1536	1525	1508	1479	1466	1489	1509	1516	1528	1530	1540	1559	1556	1547	1531	1527	1535	1510	1493	1485	1473	1470	1477	1491	1492	1488	1477	1491	1547	1555	1538	1507	1481	1468	1469	1456	1446	1461	1490	1490	1558	1602	1648	1651	1636	1598	1594	1594	1598	1593	1586	1571	1564	1572	1566	1570	1581	1593	1620	1608	1569	1533	1498	1479	1469	1469	1456	1445	1424	1428	1437	1436	1417	1379	1345	1321	1304	1301	1324	1368	1380	1348	1317	1305	1305	1293	1290	1297	1316	1328	1317	1295	1288	1259	1257	1249	1237	1202	1168	1125	1088	1088	1108	1173	1175	1171	1174	1177	1171	1158	1137	1112	1093	1100	1089	1089	1085	1090	1078	1063	1046	1014	989	1004	1073	1136	1179	1179	1174	1160	1134	1126	1129	1128	1128	1126	1085	1023	1023	964	945	967	996	986	970	957	969	994	1019	1019	1036	1037	1033	1009	994	977	954	956	956	959	958	958	942	931	920	892	861	861	834	836	853	868	874	873	868	868	875	854	846	843	844	837	854	854	881	891	886	848	836	857	864	864	864	858	844	809	0	0	0	0	0	776	784	771	0	0	0	794	808	804	814	816	816	804	789	802	829	845	845	839	805	751	0	0	0	0	0	0	0	0	0	0	0	0	0
0	0	0	0	0	0	0	0	0	0	0	0	0	0	0	0	0	0	0	0	0	0	0	0	0	0	0	0	0	0	0	0	0	0	0	0	0	0	0	0	0	0	0	0	0	0	0	0	0	0	0	0	0	0	0	0	0	0	0	0	0	0	0	0	0	0	0	0	0	0	0	0	0	0	0	0	0	0	0	0	0	0	0	0	0	0	0	0	0	0	0	0	0	0	0	0	0	0	0	0	0	0	0	0	0	0	0	0	0	0	0	0	0	0	0	0	0	0	0	0	0	0	0	0	957	987	987	1016	1037	1092	1136	1184	1197	1178	1162	1163	1180	1201	1214	1260	1356	1422	1422	1449	1462	1465	1464	1468	1507	1524	1543	1545	1548	1558	1550	1548	1534	1525	1519	1526	1522	1538	1538	1553	1567	1577	1584	1592	1597	1598	1609	1609	1602	1585	1569	1559	1566	1582	1612	1640	1641	1639	1627	1639	1675	1696	1695	1648	1648	1611	1584	1553	1504	1464	1466	1472	1495	1534	1552	1580	1587	1600	1595	1580	1528	1490	1489	1510	1536	1533	1526	1529	1536	1543	1539	1527	1495	1489	1500	1519	1533	1551	1558	1554	1544	1518	1510	1515	1529	1527	1517	1517	1507	1499	1498	1513	1539	1551	1541	1516	1503	1500	1517	1530	1548	1530	1524	1501	1510	1528	1521	1539	1547	1542	1542	1536	1525	1524	1530	1538	1539	1535	1514	1517	1536	1571	1608	1637	1649	1642	1618	1544	1499	1489	1489	1521	1535	1550	1556	1550	1547	1547	1570	1585	1588	1574	1549	1556	1570	1607	1560	1591	1607	1601	1600	1609	1625	1644	1638	1633	1622	1638	1703	1784	1826	1826	1821	1821	1823	1850	1838	1819	1808	1796	1799	1806	1800	1819	1824	1833	1848	1854	1846	1841	1845	1844	1840	1844	1834	1856	1860	1844	1817	1770	1765	1710	1681	1671	1673	1705	1746	1782	1793	1774	1729	1688	1665	1679	1686	1666	1653	1640	1611	1589	1577	1592	1599	1597	1583	1570	1575	1597	1599	1599	1599	1588	1573	1569	1560	1562	1554	1554	1558	1555	1556	1550	1529	1518	1508	1517	1521	1531	1530	1522	1521	1553	1582	1605	1611	1601	1587	1567	1571	1580	1587	1590	1606	1606	1582	1575	1565	1565	1548	1527	1522	1515	1498	1475	1467	1475	1495	1505	1505	1509	1515	1526	1540	1556	1560	1541	1501	1478	1460	1434	1421	1417	1442	1472	1495	1493	1468	1448	1462	1490	1540	1524	1458	1439	1433	1439	1436	1434	1446	1490	1490	1538	1581	1608	1612	1592	1565	1554	1545	1544	1557	1535	1509	1496	1517	1550	1560	1568	1587	1590	1580	1545	1492	1459	1441	1441	1441	1425	1403	1385	1388	1389	1379	1350	1331	1310	1289	1258	1237	1226	1235	1252	1271	1279	1276	1276	1274	1274	1277	1285	1287	1283	1275	1271	1267	1257	1248	1232	1197	1159	1129	1129	1096	1082	1096	1122	1126	1134	1141	1126	1101	1065	1027	1020	1008	1008	997	1007	1020	1028	1041	1026	1011	991	1024	1084	1144	1170	1170	1157	1129	1103	1103	1091	1080	1080	1076	1047	997	997	936	921	947	963	962	970	957	969	994	994	1026	1044	1040	1022	995	984	963	952	946	946	949	938	941	927	932	926	904	868	868	847	842	839	840	840	827	834	834	829	827	830	829	823	836	844	844	854	865	848	836	816	833	834	834	826	827	805	782	768	0	0	0	787	809	820	804	793	793	795	797	810	804	818	805	805	784	770	779	801	811	811	816	816	751	0	0	0	0	0	0	0	0	0	0	0	0	0
0	0	0	0	0	0	0	0	0	0	0	0	0	0	0	0	0	0	0	0	0	0	0	0	0	0	0	0	0	0	0	0	0	0	0	0	0	0	0	0	0	0	0	0	0	0	0	0	0	0	0	0	0	0	0	0	0	0	0	0	0	0	0	0	0	0	0	0	0	0	0	0	0	0	0	0	0	0	0	0	0	0	0	0	0	1016	1015	1020	1020	1011	0	0	0	0	983	947	945	965	980	987	987	0	0	0	0	0	0	0	0	958	0	0	0	0	0	956	1010	1048	0	0	0	0	0	0	0	969	969	989	998	1054	1102	1148	1170	1175	1177	1181	1194	1211	1236	1293	1350	1411	1411	1454	1452	1438	1449	1463	1506	1526	1528	1535	1537	1545	1536	1536	1524	1518	1512	1513	1523	1527	1527	1541	1558	1571	1579	1590	1590	1595	1591	1582	1584	1591	1595	1592	1589	1594	1612	1635	1647	1645	1633	1642	1675	1686	1696	1666	1666	1611	1584	1558	1509	1478	1473	1471	1491	1521	1534	1550	1559	1558	1560	1549	1489	1468	1475	1501	1525	1525	1518	1513	1517	1518	1501	1487	1475	1454	1466	1484	1507	1486	1443	1446	1468	1469	1484	1513	1534	1532	1512	1512	1495	1480	1472	1476	1485	1502	1508	1496	1510	1507	1519	1544	1554	1538	1534	1519	1532	1550	1569	1573	1567	1561	1546	1530	1528	1544	1548	1544	1525	1503	1476	1467	1486	1530	1571	1595	1609	1621	1569	1515	1481	1478	1506	1534	1544	1549	1541	1532	1523	1521	1527	1546	1557	1548	1539	1549	1566	1558	1558	1556	1607	1604	1589	1580	1586	1613	1623	1628	1623	1645	1722	1789	1807	1788	1785	1796	1805	1832	1816	1796	1790	1784	1781	1790	1791	1802	1820	1830	1856	1848	1843	1844	1841	1826	1818	1809	1799	1816	1831	1833	1813	1759	1738	1689	1650	1643	1656	1672	1704	1737	1768	1753	1719	1681	1652	1656	1667	1665	1644	1622	1602	1589	1585	1578	1568	1559	1547	1546	1555	1579	1598	1612	1598	1576	1550	1551	1549	1546	1546	1553	1556	1549	1538	1519	1509	1504	1496	1496	1497	1506	1504	1505	1514	1529	1558	1536	1510	1497	1515	1533	1551	1567	1565	1579	1585	1571	1559	1560	1556	1556	1538	1516	1498	1492	1485	1476	1478	1489	1513	1522	1488	1440	1420	1406	1444	1463	1469	1454	1446	1440	1429	1408	1397	1392	1405	1432	1479	1489	1457	1418	1402	1415	1435	1448	1453	1438	1427	1429	1427	1434	1446	1480	1480	1510	1525	1534	1537	1531	1514	1504	1491	1475	1460	1470	1460	1448	1450	1474	1512	1542	1555	1548	1531	1490	1445	1409	1396	1391	1391	1394	1378	1365	1352	1346	1320	1302	1293	1279	1260	1241	1231	1224	1224	1234	1250	1266	1266	1266	1265	1250	1241	1238	1231	1240	1251	1276	1279	1280	1263	1242	1208	1169	1132	1132	1106	1092	1084	1086	1094	1097	1096	1072	1038	1011	983	967	963	963	956	950	961	988	1013	1003	989	985	1021	1073	1115	1147	1147	1131	1112	1084	1069	1052	1022	1014	1026	1010	995	995	977	969	947	963	962	953	946	948	992	992	1014	1028	1022	1009	990	964	947	935	938	938	933	914	907	906	914	909	908	883	883	871	863	849	842	825	806	799	799	800	818	828	819	817	819	836	836	852	870	858	845	828	816	810	810	797	797	785	769	748	756	756	768	784	805	814	824	823	823	832	848	836	808	784	764	764	750	751	761	801	811	811	816	816	783	739	0	0	0	0	0	0	0	0	0	0	0	0
0	0	0	0	0	0	0	0	0	0	0	0	0	0	0	0	0	0	0	0	0	0	0	0	0	0	0	0	0	0	0	0	0	0	0	0	0	0	0	0	0	0	0	0	0	0	0	0	0	0	0	0	0	0	0	0	0	0	0	0	0	0	0	0	0	0	0	0	0	0	0	0	0	0	0	0	0	0	0	0	0	0	0	0	0	1016	1015	1020	974	974	0	0	0	985	983	978	966	974	989	996	996	0	0	0	0	0	0	0	974	965	956	0	0	0	0	956	999	1028	1030	0	0	0	0	0	0	0	0	979	983	1011	1076	1113	1144	1141	1150	1175	1188	1217	1248	1311	1350	1378	1427	1427	1417	1408	1419	1451	1485	1505	1501	1509	1516	1529	1529	1524	1515	1509	1513	1527	1539	1540	1540	1548	1564	1571	1576	1591	1596	1584	1577	1574	1581	1605	1619	1631	1627	1639	1636	1643	1658	1650	1647	1651	1652	1664	1663	1649	1649	1600	1572	1558	1537	1510	1503	1505	1509	1513	1514	1514	1511	1512	1500	1473	1451	1440	1463	1488	1513	1518	1519	1508	1504	1501	1487	1460	1435	1429	1432	1442	1422	1397	1378	1384	1406	1434	1470	1525	1547	1529	1480	1480	1442	1420	1417	1419	1429	1448	1460	1481	1492	1487	1493	1501	1507	1510	1517	1526	1547	1563	1584	1586	1586	1572	1552	1540	1548	1563	1566	1551	1520	1491	1468	1468	1469	1501	1522	1545	1549	1543	1528	1490	1476	1488	1517	1551	1550	1541	1536	1523	1520	1504	1510	1521	1533	1531	1539	1552	1562	1557	1548	1581	1635	1620	1593	1563	1547	1584	1604	1625	1638	1664	1742	1790	1796	1769	1753	1774	1788	1810	1790	1781	1784	1782	1783	1793	1792	1796	1803	1820	1834	1835	1843	1847	1846	1838	1821	1799	1791	1792	1811	1820	1807	1748	1731	1685	1658	1644	1645	1660	1683	1695	1713	1719	1684	1658	1629	1617	1616	1621	1628	1623	1605	1590	1581	1564	1537	1515	1507	1512	1531	1557	1576	1590	1591	1561	1543	1534	1535	1528	1530	1547	1551	1553	1536	1519	1507	1508	1490	1480	1477	1480	1495	1504	1515	1514	1491	1458	1456	1469	1496	1513	1528	1543	1547	1550	1544	1541	1543	1541	1541	1542	1525	1492	1480	1477	1472	1463	1482	1509	1527	1526	1491	1447	1411	1398	1402	1405	1395	1385	1376	1372	1385	1367	1342	1310	1306	1324	1349	1377	1387	1366	1363	1382	1413	1434	1447	1446	1436	1429	1427	1430	1449	1462	1462	1476	1493	1513	1508	1502	1488	1459	1458	1445	1425	1425	1422	1426	1427	1439	1460	1490	1499	1489	1453	1413	1401	1381	1367	1367	1367	1360	1342	1325	1316	1311	1296	1290	1269	1255	1241	1234	1235	1231	1230	1232	1244	1254	1253	1253	1249	1226	1205	1187	1189	1208	1231	1285	1310	1309	1282	1251	1220	1194	1167	1167	1139	1092	1067	1065	1065	1062	1050	1015	989	965	941	930	934	934	923	916	916	915	925	945	949	963	991	1017	1033	1046	1046	1090	1095	1076	1063	1021	985	960	977	998	1024	995	977	969	963	952	956	958	952	953	975	975	995	1018	1026	1009	973	931	908	912	922	922	924	912	892	888	883	884	875	877	877	870	876	860	834	811	774	757	757	777	799	818	812	785	783	797	797	840	862	866	863	840	812	794	794	781	780	785	773	754	742	742	749	759	779	800	799	822	822	854	867	839	809	768	740	740	750	751	761	771	781	781	797	811	805	770	746	746	751	750	747	742	758	758	754	750	739	715
0	0	0	0	0	0	0	0	0	0	0	0	0	0	0	0	0	0	0	0	0	0	0	0	0	0	0	0	0	0	0	0	0	0	0	0	0	0	0	0	0	0	0	0	0	0	0	0	0	0	0	0	0	0	0	0	0	0	0	0	0	0	0	0	0	0	0	0	0	0	0	0	0	0	0	0	0	0	0	0	0	0	0	0	0	1008	1021	1005	974	974	0	900	932	965	989	1000	993	973	0	0	0	0	0	0	0	0	0	0	993	983	970	0	0	0	0	0	944	959	0	0	0	0	0	0	0	0	0	0	0	1007	1036	1081	1088	1084	1100	1129	1154	1169	1216	1310	1338	1339	1345	1345	1344	1352	1382	1422	1453	1477	1488	1494	1513	1518	1527	1516	1498	1502	1513	1534	1554	1551	1551	1555	1558	1573	1576	1578	1591	1585	1571	1562	1573	1604	1639	1644	1655	1656	1652	1646	1641	1636	1627	1630	1638	1628	1632	1615	1615	1593	1569	1562	1537	1510	1526	1533	1525	1516	1495	1487	1483	1457	1405	1403	1423	1442	1463	1482	1501	1514	1514	1510	1508	1495	1480	1446	1424	1410	1411	1398	1380	1368	1361	1369	1397	1422	1467	1518	1543	1512	1456	1417	1417	1411	1420	1413	1435	1435	1443	1457	1468	1470	1467	1464	1471	1476	1479	1514	1540	1555	1561	1579	1576	1561	1550	1546	1557	1568	1576	1558	1530	1505	1488	1480	1482	1483	1477	1481	1489	1495	1491	1482	1472	1489	1528	1551	1554	1538	1531	1531	1528	1521	1527	1523	1526	1528	1537	1552	1548	1557	1563	1631	1644	1635	1602	1577	1542	1552	1585	1629	1648	1659	1733	1778	1788	1776	1755	1761	1778	1775	1778	1768	1779	1785	1798	1803	1800	1801	1797	1804	1824	1841	1849	1841	1834	1833	1821	1807	1794	1792	1804	1801	1804	1745	1721	1697	1675	1660	1651	1658	1659	1677	1683	1677	1654	1636	1613	1607	1608	1614	1621	1618	1607	1589	1569	1549	1518	1480	1468	1469	1497	1519	1542	1551	1562	1555	1538	1544	1534	1519	1517	1541	1561	1568	1565	1548	1528	1514	1497	1476	1464	1468	1485	1496	1494	1493	1481	1469	1468	1486	1494	1507	1516	1499	1478	1479	1494	1502	1516	1505	1505	1497	1480	1456	1436	1432	1429	1427	1442	1486	1524	1502	1484	1459	1423	1402	1382	1381	1373	1337	1299	1283	1288	1293	1307	1314	1310	1316	1329	1355	1364	1361	1359	1375	1406	1429	1432	1446	1436	1428	1436	1448	1454	1454	1453	1451	1455	1481	1489	1496	1473	1455	1444	1428	1413	1416	1431	1434	1421	1414	1422	1437	1450	1426	1389	1387	1392	1383	1367	1367	1351	1337	1309	1290	1281	1289	1283	1274	1256	1243	1232	1222	1224	1214	1215	1214	1223	1231	1234	1234	1223	1210	1189	1167	1169	1175	1216	1266	1264	1250	1228	1209	1188	1168	1157	1157	1118	1075	1047	1028	1008	1003	1010	992	957	932	919	915	922	922	940	956	949	915	888	886	886	903	923	954	978	978	995	984	997	1009	1006	991	964	943	977	998	1024	1024	1025	1011	990	985	974	971	951	944	954	954	992	1012	1010	984	940	907	880	892	898	898	902	878	863	865	850	845	837	834	834	842	848	850	819	782	742	726	726	746	782	791	773	762	743	749	749	802	849	867	872	837	794	761	761	756	766	769	770	752	741	741	741	741	756	755	773	806	806	851	872	849	809	768	740	740	733	732	738	749	754	754	762	787	807	781	775	775	753	768	784	753	742	742	738	739	749	734
0	0	0	0	0	0	0	0	0	0	0	0	0	0	0	0	0	0	0	0	0	0	0	0	0	0	0	0	0	0	0	0	0	0	0	0	0	0	0	0	0	0	0	0	0	0	0	0	0	0	0	0	0	0	0	0	0	0	0	0	0	0	0	0	0	0	0	0	0	0	0	0	0	0	0	0	0	0	0	0	0	0	0	0	0	999	1017	996	952	952	902	900	932	965	988	1001	0	0	0	0	0	0	970	986	0	0	0	0	989	996	970	935	0	0	0	0	907	903	889	0	906	936	930	0	0	0	0	0	0	1022	1013	1009	1036	1047	1065	1088	1102	1131	1177	1273	1311	1309	1294	1294	1289	1314	1351	1389	1432	1450	1468	1491	1513	1517	1501	1474	1469	1462	1498	1534	1557	1560	1553	1553	1551	1555	1553	1563	1575	1562	1561	1549	1548	1569	1613	1626	1633	1625	1619	1606	1618	1605	1596	1597	1610	1623	1621	1592	1576	1576	1573	1560	1545	1526	1526	1533	1526	1512	1485	1470	1449	1415	1389	1384	1416	1452	1462	1478	1494	1506	1515	1517	1507	1486	1459	1446	1438	1428	1417	1397	1379	1372	1385	1393	1395	1422	1458	1495	1514	1503	1450	1419	1419	1424	1426	1427	1420	1426	1427	1446	1456	1460	1455	1457	1464	1466	1464	1490	1521	1551	1550	1547	1553	1553	1551	1554	1557	1567	1568	1557	1538	1510	1496	1483	1479	1453	1439	1440	1446	1454	1448	1441	1445	1471	1508	1532	1532	1519	1519	1524	1534	1541	1546	1531	1521	1514	1524	1536	1538	1549	1571	1608	1631	1626	1608	1586	1552	1558	1574	1624	1645	1664	1717	1755	1751	1771	1763	1770	1775	1781	1777	1771	1775	1786	1793	1802	1801	1794	1796	1801	1824	1841	1843	1828	1821	1807	1802	1796	1782	1783	1785	1794	1773	1715	1686	1685	1673	1671	1657	1638	1637	1668	1675	1681	1657	1635	1611	1596	1592	1603	1607	1617	1606	1585	1568	1540	1500	1459	1448	1468	1493	1513	1522	1522	1535	1550	1553	1556	1554	1554	1568	1588	1602	1588	1584	1575	1534	1503	1490	1477	1474	1483	1488	1493	1505	1507	1514	1512	1521	1509	1506	1492	1480	1465	1465	1465	1472	1470	1466	1464	1464	1452	1420	1390	1398	1401	1399	1402	1401	1443	1481	1480	1469	1462	1432	1399	1375	1374	1364	1332	1290	1288	1293	1299	1311	1354	1341	1335	1343	1367	1380	1373	1369	1373	1393	1429	1432	1432	1434	1436	1453	1457	1449	1449	1440	1425	1425	1442	1458	1471	1472	1454	1431	1423	1413	1417	1425	1419	1394	1373	1346	1341	1339	1348	1360	1375	1394	1396	1378	1378	1340	1295	1268	1249	1240	1248	1247	1245	1224	1207	1205	1208	1213	1209	1201	1192	1182	1204	1211	1211	1207	1199	1177	1165	1168	1183	1180	1160	1167	1173	1157	1129	1125	1101	1086	1086	1074	1043	1013	999	982	956	953	960	969	943	929	927	937	937	953	970	965	935	905	886	884	888	901	929	949	949	954	947	939	952	968	991	964	943	956	971	988	988	998	1011	1030	1019	995	974	944	929	938	938	970	993	986	956	912	885	869	875	877	877	878	856	848	839	834	817	800	800	794	797	795	799	787	760	731	720	720	745	759	765	743	726	707	716	716	767	820	865	849	815	770	741	741	732	738	746	759	739	741	741	735	729	735	746	766	797	806	851	872	849	812	768	731	731	718	715	733	738	736	736	752	759	781	769	760	760	742	757	761	728	719	719	720	740	751	771
0	0	0	0	0	0	0	0	0	0	0	0	0	0	0	0	0	0	0	0	0	0	0	0	0	0	0	0	0	0	0	0	0	0	0	0	0	0	0	0	0	0	0	0	0	0	0	0	0	0	0	0	0	0	0	0	0	0	0	0	0	0	0	0	0	0	0	0	0	0	0	0	0	0	0	968	957	957	0	0	0	0	0	0	0	0	0	974	941	941	912	905	931	964	988	1001	0	0	0	0	0	899	931	961	961	951	0	950	969	989	982	944	910	910	0	0	894	872	869	879	915	927	911	0	0	0	959	959	990	1016	999	992	1010	1041	1065	1067	1077	1095	1159	1231	1286	1297	1275	1275	1259	1270	1306	1350	1390	1420	1448	1471	1472	1470	1444	1432	1423	1433	1468	1509	1525	1535	1532	1532	1540	1532	1524	1526	1525	1526	1530	1520	1508	1513	1537	1586	1587	1581	1571	1565	1562	1570	1570	1575	1596	1606	1594	1567	1551	1551	1559	1558	1533	1525	1525	1530	1526	1512	1469	1444	1428	1407	1389	1388	1424	1446	1459	1462	1480	1480	1479	1501	1496	1467	1468	1458	1445	1434	1428	1411	1394	1384	1398	1407	1412	1422	1450	1465	1478	1466	1447	1434	1434	1440	1447	1432	1423	1416	1424	1415	1418	1421	1438	1460	1465	1462	1444	1460	1489	1517	1533	1527	1521	1526	1530	1546	1556	1568	1558	1540	1528	1497	1480	1467	1452	1392	1373	1389	1412	1417	1417	1406	1422	1453	1483	1495	1485	1482	1489	1514	1531	1543	1538	1528	1504	1508	1498	1513	1534	1555	1574	1586	1593	1591	1579	1572	1569	1573	1575	1612	1629	1653	1702	1743	1752	1764	1763	1763	1760	1757	1771	1770	1767	1761	1753	1767	1786	1778	1778	1786	1812	1839	1836	1817	1802	1788	1773	1765	1757	1771	1780	1776	1706	1673	1651	1647	1662	1667	1645	1624	1615	1645	1652	1650	1616	1591	1589	1579	1567	1569	1591	1598	1595	1581	1555	1509	1478	1453	1451	1465	1480	1495	1483	1476	1489	1536	1565	1571	1561	1553	1561	1585	1600	1613	1608	1584	1534	1509	1509	1507	1502	1496	1495	1497	1504	1523	1539	1548	1541	1524	1492	1467	1444	1449	1460	1466	1462	1462	1458	1458	1448	1428	1405	1388	1389	1377	1377	1381	1390	1391	1406	1432	1444	1436	1413	1393	1370	1364	1370	1378	1390	1400	1419	1428	1437	1433	1434	1438	1444	1429	1410	1399	1376	1362	1393	1405	1410	1406	1402	1409	1414	1418	1406	1406	1396	1397	1387	1400	1437	1448	1454	1447	1433	1422	1422	1415	1409	1395	1344	1306	1278	1252	1269	1301	1322	1351	1383	1383	1352	1352	1280	1232	1215	1208	1212	1214	1222	1208	1195	1175	1175	1195	1201	1196	1189	1173	1164	1148	1148	1149	1162	1178	1176	1161	1168	1162	1154	1143	1120	1100	1075	1059	1042	1021	1021	1021	1034	1010	996	985	974	948	946	947	953	957	948	943	956	956	966	973	965	945	913	896	886	883	895	910	930	930	931	936	927	952	968	951	938	941	951	959	959	971	963	968	967	992	980	947	923	905	923	923	938	949	951	929	899	878	871	872	872	871	860	853	847	845	837	822	795	795	784	781	768	765	761	753	746	736	736	781	781	754	714	708	714	723	723	763	803	837	822	779	718	718	707	716	717	727	724	727	737	737	740	728	735	746	766	797	797	845	869	861	823	785	785	750	733	731	748	754	747	747	712	685	709	732	742	742	736	723	705	694	685	685	693	723	759	792
0	0	0	0	0	0	0	0	0	0	0	0	0	0	0	0	0	0	0	0	0	0	0	0	0	0	0	0	0	0	0	0	0	0	0	0	0	0	0	0	0	0	0	0	0	0	0	0	0	0	0	0	0	0	0	0	0	0	0	0	0	0	0	0	0	0	0	0	0	0	0	0	0	914	921	937	933	936	928	928	910	0	0	0	0	0	0	947	929	929	917	907	923	948	987	1000	0	0	0	0	0	872	917	932	946	932	908	916	942	971	965	951	934	934	933	928	912	877	866	886	922	917	0	896	896	898	937	937	972	1003	997	1014	1044	1069	1085	1077	1069	1086	1135	1199	1252	1287	1272	1272	1235	1237	1283	1328	1364	1385	1412	1438	1441	1426	1398	1385	1391	1409	1450	1487	1493	1501	1509	1509	1511	1504	1491	1482	1467	1482	1483	1467	1464	1470	1487	1504	1533	1543	1542	1524	1530	1528	1536	1552	1585	1600	1590	1549	1529	1529	1545	1546	1515	1483	1487	1495	1490	1481	1469	1444	1426	1403	1390	1395	1417	1446	1450	1451	1455	1456	1451	1442	1438	1440	1449	1450	1436	1436	1432	1421	1420	1413	1395	1390	1400	1419	1428	1441	1437	1441	1444	1451	1452	1452	1446	1438	1437	1432	1421	1420	1408	1414	1425	1453	1468	1451	1428	1415	1412	1455	1498	1510	1501	1497	1509	1518	1532	1537	1527	1508	1477	1462	1450	1432	1410	1392	1367	1370	1392	1407	1412	1409	1416	1439	1457	1476	1479	1489	1499	1508	1520	1527	1519	1513	1501	1498	1490	1499	1525	1563	1572	1565	1526	1476	1484	1507	1541	1555	1577	1601	1616	1633	1666	1722	1743	1747	1755	1755	1751	1754	1758	1751	1730	1704	1700	1710	1726	1737	1732	1753	1779	1801	1815	1797	1782	1773	1747	1734	1723	1718	1697	1690	1674	1646	1613	1627	1638	1644	1634	1616	1591	1598	1600	1588	1569	1585	1585	1573	1549	1554	1571	1587	1583	1569	1537	1513	1483	1472	1465	1465	1475	1471	1462	1458	1480	1520	1562	1569	1561	1551	1549	1566	1581	1594	1588	1573	1537	1523	1520	1516	1509	1497	1487	1491	1491	1505	1523	1539	1522	1489	1447	1410	1399	1426	1445	1451	1452	1448	1452	1452	1444	1427	1401	1390	1382	1368	1354	1355	1348	1355	1365	1374	1379	1393	1392	1382	1368	1365	1370	1382	1407	1422	1432	1441	1441	1448	1468	1478	1481	1468	1437	1406	1376	1362	1361	1375	1371	1368	1360	1353	1331	1329	1334	1334	1346	1333	1337	1376	1403	1421	1420	1409	1414	1428	1416	1398	1378	1337	1305	1270	1251	1230	1217	1204	1238	1257	1259	1248	1233	1233	1208	1187	1180	1186	1187	1187	1189	1183	1163	1156	1163	1167	1164	1162	1165	1160	1156	1144	1144	1144	1144	1147	1144	1136	1130	1142	1135	1134	1112	1082	1057	1033	1015	1002	995	995	993	983	978	978	971	964	942	941	946	948	954	952	950	950	948	954	964	950	930	910	901	889	895	909	913	913	931	936	927	920	916	912	905	912	937	947	947	939	939	936	945	941	920	895	887	853	826	826	841	909	911	892	879	868	857	860	860	861	853	854	853	856	847	823	800	800	775	759	751	733	739	744	765	810	810	815	792	747	710	708	719	750	750	770	784	797	738	657	665	665	688	707	708	711	713	719	731	737	740	728	729	752	770	798	798	836	856	860	823	784	784	763	745	738	755	767	747	747	710	679	676	708	727	727	731	720	698	676	668	668	684	717	732	740
0	0	0	0	0	0	0	0	0	0	0	0	0	0	0	0	0	0	0	0	0	0	0	0	0	0	0	0	0	0	0	0	0	0	0	0	0	0	0	0	0	0	0	0	0	0	0	0	0	0	0	0	0	0	0	0	0	0	0	0	0	0	0	0	0	0	874	897	883	883	890	881	878	895	902	919	911	909	904	904	875	0	0	0	0	0	0	0	892	892	879	889	889	933	974	993	968	0	0	0	872	872	884	905	916	898	892	891	912	936	940	946	953	953	961	951	910	860	860	902	920	922	907	893	886	899	913	913	956	987	1010	1024	1062	1096	1102	1094	1061	1067	1099	1161	1228	1274	1269	1269	1237	1232	1262	1306	1348	1352	1377	1387	1394	1375	1352	1343	1361	1395	1450	1481	1460	1442	1441	1441	1461	1465	1450	1436	1430	1418	1394	1409	1414	1434	1441	1449	1448	1494	1515	1506	1487	1489	1503	1529	1569	1600	1591	1541	1519	1519	1528	1535	1505	1466	1440	1440	1460	1471	1464	1444	1426	1403	1395	1408	1425	1430	1429	1431	1435	1428	1421	1421	1421	1431	1438	1439	1423	1418	1412	1422	1436	1423	1392	1387	1399	1409	1422	1420	1419	1420	1445	1460	1455	1455	1442	1435	1435	1437	1428	1423	1420	1424	1433	1454	1451	1436	1412	1394	1404	1437	1485	1498	1496	1489	1484	1492	1503	1496	1490	1463	1448	1432	1432	1429	1416	1397	1378	1370	1388	1408	1415	1418	1421	1427	1447	1472	1487	1495	1512	1515	1510	1498	1494	1501	1501	1506	1493	1496	1528	1548	1535	1502	1468	1453	1459	1480	1506	1540	1557	1583	1598	1612	1638	1663	1688	1732	1752	1757	1744	1735	1735	1734	1721	1692	1675	1682	1697	1700	1697	1706	1704	1743	1757	1723	1717	1725	1723	1713	1699	1669	1659	1654	1643	1620	1608	1606	1606	1611	1604	1585	1569	1547	1525	1537	1555	1582	1591	1575	1542	1538	1545	1572	1576	1557	1539	1521	1513	1501	1488	1481	1474	1464	1451	1447	1473	1527	1557	1557	1556	1535	1526	1537	1541	1538	1543	1546	1535	1523	1514	1504	1494	1482	1470	1459	1458	1466	1469	1463	1456	1424	1391	1363	1362	1390	1411	1424	1424	1422	1425	1425	1426	1392	1374	1365	1359	1353	1338	1314	1308	1322	1336	1336	1337	1327	1313	1298	1296	1314	1339	1366	1398	1416	1423	1423	1426	1447	1469	1483	1473	1453	1437	1406	1376	1351	1329	1318	1317	1327	1316	1303	1289	1281	1281	1284	1291	1308	1321	1333	1355	1363	1358	1344	1333	1333	1327	1324	1309	1290	1268	1250	1242	1229	1206	1185	1161	1156	1177	1183	1183	1188	1175	1164	1161	1168	1174	1173	1171	1164	1151	1153	1152	1151	1128	1119	1137	1147	1151	1137	1137	1126	1123	1119	1105	1103	1098	1100	1102	1116	1108	1083	1062	1044	1022	1003	1003	992	977	973	963	963	931	938	955	954	945	940	936	926	926	920	926	939	949	944	932	926	919	911	899	909	913	913	905	876	857	843	850	863	877	887	886	901	901	907	914	917	924	922	893	837	811	829	820	820	823	840	860	872	869	849	833	821	821	804	788	777	796	812	823	801	785	785	765	740	707	704	701	717	759	798	798	818	787	739	709	690	713	731	731	721	696	0	0	0	0	0	0	0	0	0	713	719	731	731	725	728	727	743	768	768	788	822	845	842	805	793	793	767	0	0	0	741	740	740	713	690	688	704	728	728	715	699	689	672	685	685	708	728	749	772
0	0	0	0	0	0	0	0	0	0	0	0	0	0	0	0	0	0	0	0	0	0	0	0	0	0	0	0	0	0	0	0	0	0	0	0	0	0	0	0	0	0	0	0	0	0	0	0	0	0	0	0	0	0	0	0	0	0	0	0	0	0	826	829	833	835	850	844	858	858	879	898	897	889	898	913	895	876	866	866	0	0	0	0	0	0	0	879	872	872	848	818	835	905	947	951	931	891	849	848	856	856	884	905	916	885	868	871	889	918	925	936	956	956	943	926	876	830	842	866	900	908	907	897	880	889	907	907	939	955	999	1036	1069	1104	1111	1090	1062	1051	1084	1129	1181	1243	1258	1239	1239	1231	1252	1289	1324	1334	1342	1353	1353	1337	1321	1313	1340	1388	1437	1452	1423	1398	1398	1398	1405	1409	1416	1409	1391	1379	1378	1389	1406	1416	1418	1415	1415	1427	1452	1467	1462	1458	1474	1497	1533	1562	1556	1547	1511	1505	1505	1514	1502	1466	1459	1454	1454	1462	1461	1448	1425	1404	1395	1408	1408	1408	1410	1405	1405	1413	1412	1413	1416	1429	1440	1436	1412	1400	1402	1419	1432	1430	1407	1405	1405	1412	1413	1411	1406	1412	1433	1448	1455	1431	1431	1421	1423	1425	1422	1410	1418	1433	1448	1452	1444	1432	1409	1410	1431	1463	1486	1504	1506	1499	1494	1485	1485	1469	1461	1449	1454	1454	1453	1451	1442	1418	1389	1371	1376	1405	1435	1444	1438	1446	1455	1476	1500	1507	1513	1513	1489	1472	1470	1483	1496	1511	1516	1515	1512	1510	1504	1500	1480	1469	1470	1476	1514	1542	1563	1571	1575	1600	1610	1627	1650	1660	1682	1704	1708	1708	1702	1705	1684	1672	1664	1671	1676	1687	1681	1678	1665	1668	1663	1665	1676	1678	1674	1668	1660	1642	1635	1630	1625	1608	1599	1591	1579	1577	1564	1535	1468	1468	1515	1534	1557	1585	1594	1578	1533	1514	1514	1528	1529	1524	1517	1526	1528	1520	1507	1497	1485	1468	1443	1456	1487	1535	1554	1550	1513	1443	1425	1447	1467	1475	1477	1508	1520	1501	1443	1423	1427	1411	1407	1410	1424	1429	1419	1389	1373	1372	1365	1356	1358	1376	1392	1387	1382	1380	1380	1377	1361	1334	1326	1319	1312	1308	1300	1285	1278	1282	1307	1318	1319	1318	1306	1298	1296	1304	1331	1360	1386	1387	1388	1376	1372	1377	1396	1434	1473	1453	1426	1394	1368	1346	1317	1293	1299	1306	1306	1281	1267	1256	1256	1263	1285	1295	1306	1310	1320	1321	1309	1303	1294	1284	1269	1267	1261	1250	1226	1226	1231	1233	1216	1183	1152	1134	1137	1144	1144	1146	1149	1146	1152	1161	1165	1159	1160	1150	1149	1164	1153	1131	1108	1094	1112	1138	1142	1125	1125	1106	1102	1104	1091	1084	1078	1087	1097	1100	1098	1079	1079	1066	1055	1023	1023	1003	973	956	949	941	921	927	950	944	934	899	872	866	866	862	865	879	892	888	882	878	853	911	899	901	895	895	874	845	806	793	807	843	837	826	813	807	807	836	855	854	856	851	836	819	828	826	826	837	841	859	880	897	889	859	851	853	853	844	824	805	783	806	803	794	779	779	758	725	699	682	692	707	747	747	780	808	787	0	0	0	0	0	0	0	0	0	0	0	0	0	0	0	0	0	0	0	0	0	0	0	716	725	738	738	761	779	788	786	781	770	770	752	0	0	0	727	745	745	734	711	700	722	725	725	727	732	741	716	700	700	703	710	732	748
0	0	0	0	0	0	0	0	0	0	0	0	0	0	0	0	0	0	0	0	0	0	0	0	0	0	0	0	0	0	0	0	0	0	0	0	0	0	0	0	0	0	0	897	897	894	910	930	902	0	0	0	0	0	0	903	903	897	881	865	842	842	852	861	846	835	822	819	824	858	858	879	890	890	886	887	892	870	838	838	818	0	0	0	0	859	873	879	864	831	831	794	811	863	902	919	895	857	831	822	845	845	863	874	889	885	868	889	894	895	901	908	928	928	918	893	843	810	800	820	866	881	897	889	887	901	903	903	919	940	990	1024	1070	1096	1100	1074	1038	1036	1074	1106	1141	1193	1218	1227	1227	1222	1240	1259	1283	1306	1313	1323	1319	1307	1293	1301	1326	1377	1415	1412	1390	1373	1372	1386	1386	1387	1388	1382	1380	1380	1390	1404	1422	1421	1403	1397	1391	1398	1423	1435	1441	1442	1448	1469	1492	1519	1521	1516	1511	1492	1492	1481	1491	1484	1477	1461	1451	1453	1450	1427	1408	1384	1389	1397	1408	1359	1374	1388	1407	1414	1412	1411	1418	1432	1445	1443	1417	1395	1401	1413	1414	1409	1410	1418	1424	1422	1413	1400	1389	1393	1419	1429	1433	1410	1410	1392	1390	1396	1388	1390	1411	1432	1447	1438	1436	1423	1418	1436	1460	1486	1499	1505	1510	1504	1495	1491	1485	1469	1451	1451	1474	1491	1500	1492	1473	1444	1409	1379	1393	1425	1447	1453	1459	1458	1478	1484	1517	1536	1539	1517	1488	1467	1460	1471	1491	1518	1531	1540	1550	1538	1526	1517	1505	1501	1503	1537	1557	1564	1567	1572	1585	1604	1604	1612	1630	1637	1642	1651	1662	1665	1680	1676	1660	1649	1649	1664	1667	1675	1656	1659	1649	1637	1625	1623	1620	1612	1611	1606	1613	1617	1617	1617	1603	1599	1584	1571	1565	1553	1537	1500	1482	1480	1513	1533	1571	1611	1626	1591	1532	1511	1506	1503	1492	1491	1496	1516	1516	1507	1497	1491	1488	1469	1447	1451	1472	1515	1532	1514	1435	1414	1406	1392	1382	1389	1418	1469	1454	1391	1350	1329	1316	1333	1360	1381	1403	1395	1372	1339	1317	1320	1335	1333	1343	1354	1360	1359	1340	1319	1319	1315	1308	1300	1296	1285	1292	1282	1263	1254	1249	1263	1282	1298	1301	1306	1309	1316	1307	1307	1319	1344	1365	1358	1336	1308	1289	1285	1396	1434	1431	1413	1389	1373	1357	1339	1293	1278	1278	1297	1292	1276	1256	1248	1248	1254	1273	1279	1288	1281	1287	1297	1287	1270	1264	1260	1254	1246	1233	1213	1196	1192	1228	1242	1233	1206	1168	1142	1130	1140	1140	1158	1155	1149	1145	1149	1152	1149	1146	1148	1151	1161	1153	1131	1100	1082	1097	1117	1125	1118	1118	1101	1098	1117	1122	1119	1106	1088	1083	1078	1063	1069	1077	1091	1085	1065	1065	1027	975	952	927	898	861	860	884	882	892	901	879	848	848	856	861	879	893	897	882	878	853	814	807	811	812	812	809	801	783	796	815	834	837	824	822	839	839	838	852	855	858	859	849	826	837	829	829	837	843	854	881	894	891	853	851	852	852	846	824	803	781	746	733	730	716	716	699	664	0	0	0	0	0	0	0	0	0	0	0	0	0	0	0	0	0	0	0	0	0	0	0	0	0	0	0	0	0	0	0	0	703	735	739	739	738	0	738	745	742	745	745	717	668	650	653	678	678	725	726	725	748	766	774	774	764	758	741	732	728	728	737	727	722	721
0	0	0	0	0	0	0	0	0	0	0	0	0	0	0	0	0	0	0	930	942	948	948	950	0	0	0	0	0	0	0	0	0	0	0	0	0	0	0	0	0	920	905	896	896	893	910	920	914	899	867	0	0	891	876	877	883	882	876	867	857	857	863	867	867	841	813	800	801	831	831	846	858	859	867	881	882	870	847	847	809	802	0	0	0	845	870	889	863	824	824	797	808	842	887	894	864	834	812	818	838	838	868	871	898	912	888	889	894	895	901	909	903	893	893	882	846	818	795	792	822	884	904	902	900	903	908	908	908	944	972	1010	1043	1075	1094	1073	1034	1041	1074	1102	1122	1155	1169	1177	1177	1188	1200	1224	1242	1261	1281	1296	1298	1287	1289	1303	1329	1371	1397	1398	1386	1369	1368	1375	1375	1379	1378	1381	1394	1402	1414	1426	1439	1438	1407	1388	1377	1387	1403	1423	1423	1420	1429	1443	1463	1482	1494	1515	1513	1489	1489	1470	1468	1469	1461	1438	1412	1405	1379	1342	1309	1304	1307	1327	1343	1359	1374	1392	1409	1409	1403	1393	1389	1396	1426	1449	1427	1413	1413	1417	1405	1389	1388	1412	1434	1428	1407	1382	1376	1378	1388	1405	1403	1386	1386	1372	1354	1357	1370	1373	1399	1434	1405	1409	1402	1393	1397	1446	1491	1501	1504	1500	1491	1477	1474	1454	1397	1334	1312	1351	1414	1476	1512	1512	1489	1472	1451	1442	1451	1459	1456	1459	1463	1475	1497	1514	1534	1543	1536	1498	1463	1452	1447	1472	1495	1515	1543	1563	1573	1565	1545	1527	1523	1522	1554	1575	1584	1576	1572	1575	1584	1618	1628	1611	1603	1612	1618	1632	1645	1672	1670	1648	1633	1623	1626	1639	1641	1637	1632	1632	1636	1620	1606	1598	1591	1572	1564	1561	1570	1583	1595	1597	1595	1586	1571	1564	1552	1538	1526	1507	1497	1503	1515	1544	1590	1624	1651	1628	1584	1533	1512	1492	1469	1458	1466	1478	1478	1470	1455	1464	1462	1464	1452	1437	1451	1460	1456	1425	1399	1391	1385	1380	1370	1366	1384	1375	1313	1307	1284	1277	1293	1303	1327	1354	1375	1364	1342	1309	1284	1280	1289	1309	1310	1295	1278	1293	1295	1295	1286	1289	1289	1288	1281	1278	1266	1263	1250	1239	1234	1248	1266	1288	1293	1298	1305	1315	1314	1306	1303	1309	1297	1271	1233	1197	1289	1285	1322	1354	1373	1350	1317	1288	1291	1289	1269	1256	1263	1279	1277	1268	1247	1238	1238	1239	1251	1258	1247	1219	1144	1172	1209	1243	1254	1249	1241	1230	1214	1185	1169	1191	1235	1256	1257	1230	1198	1170	1158	1176	1176	1188	1186	1163	1137	1139	1135	1131	1132	1130	1138	1159	1162	1143	1115	1097	1097	1108	1113	1108	1108	1096	1106	1126	1146	1150	1124	1086	1064	1056	1047	1050	1032	1028	1016	990	990	975	948	917	900	902	904	901	890	883	889	891	875	843	843	854	864	881	893	897	890	886	851	814	805	806	806	810	814	800	793	818	837	849	850	845	846	871	871	881	893	896	893	889	890	885	887	881	881	859	823	830	859	893	935	920	906	904	904	898	848	809	772	738	712	705	702	702	695	667	0	0	0	0	0	0	0	0	0	0	0	0	685	685	673	710	0	0	0	0	0	0	0	0	0	0	0	0	0	660	641	656	708	759	774	774	782	789	773	746	709	671	671	688	695	697	698	700	700	701	711	714	717	744	757	757	756	750	736	727	728	728	738	728	718	709
0	0	0	0	0	0	0	0	0	0	0	0	0	0	0	0	0	0	882	944	943	936	936	936	935	925	0	0	0	0	0	933	941	905	876	0	875	875	892	920	926	920	905	896	892	885	880	883	882	880	901	910	910	882	863	858	853	856	858	849	849	849	848	863	869	834	798	783	790	813	813	837	827	835	843	856	865	868	859	859	822	817	800	0	792	820	854	860	848	805	805	779	792	832	874	893	869	821	803	804	837	837	880	917	950	948	938	915	905	902	901	909	917	897	897	878	866	850	830	818	841	881	899	905	892	886	886	902	902	940	971	1006	1032	1050	1058	1053	1066	1074	1090	1104	1119	1137	1145	1137	1137	1146	1169	1191	1209	1233	1257	1275	1285	1288	1299	1316	1339	1367	1388	1401	1391	1376	1362	1362	1362	1374	1380	1389	1407	1423	1429	1440	1444	1432	1405	1381	1386	1389	1403	1415	1418	1424	1430	1440	1446	1475	1494	1510	1518	1491	1491	1461	1431	1424	1412	1394	1372	1371	1368	1327	1299	1289	1293	1311	1327	1347	1368	1392	1409	1403	1377	1349	1334	1351	1389	1423	1438	1426	1422	1417	1399	1379	1374	1400	1429	1430	1401	1369	1359	1357	1359	1378	1400	1388	1369	1369	1355	1352	1369	1387	1390	1372	1376	1404	1402	1384	1377	1392	1440	1470	1479	1470	1442	1412	1372	1355	1343	1349	1355	1374	1405	1429	1471	1478	1467	1466	1454	1449	1445	1442	1433	1430	1444	1463	1491	1511	1511	1509	1496	1453	1445	1445	1469	1520	1510	1517	1540	1558	1570	1559	1529	1508	1495	1508	1531	1555	1569	1571	1561	1577	1589	1634	1622	1608	1573	1576	1588	1622	1637	1652	1651	1620	1603	1595	1597	1605	1603	1600	1605	1615	1624	1616	1591	1574	1568	1561	1547	1542	1543	1560	1578	1581	1570	1557	1563	1551	1537	1521	1514	1508	1514	1517	1526	1529	1566	1631	1649	1647	1595	1557	1522	1483	1451	1439	1445	1447	1434	1431	1420	1438	1452	1450	1444	1434	1438	1431	1405	1380	1364	1366	1373	1372	1350	1337	1282	1253	1256	1268	1264	1263	1274	1285	1307	1334	1348	1342	1310	1279	1258	1234	1233	1245	1239	1190	1152	1164	1219	1219	1251	1258	1265	1266	1275	1268	1251	1243	1234	1209	1207	1199	1205	1212	1204	1186	1175	1165	1147	1128	1108	1091	1085	1107	1094	1197	1158	1156	1178	1207	1227	1238	1235	1224	1190	1175	1163	1165	1158	1150	1149	1155	1181	1181	1205	1226	1245	1237	1193	1129	1121	1153	1196	1238	1272	1323	1329	1318	1311	1282	1270	1245	1271	1301	1294	1279	1256	1229	1225	1239	1239	1267	1222	1166	1133	1118	1125	1123	1120	1112	1110	1130	1145	1151	1133	1109	1103	1096	1094	1094	1087	1100	1114	1131	1153	1155	1117	1067	1026	1012	994	990	947	926	931	938	938	947	935	899	894	897	909	907	890	881	880	852	812	816	816	840	864	881	896	909	904	884	849	820	814	821	821	852	876	876	864	856	849	846	846	850	862	878	878	888	886	901	900	893	884	879	874	866	866	840	815	825	846	871	923	917	909	909	909	900	849	801	773	732	699	685	679	679	703	721	746	748	744	729	712	712	713	729	746	769	775	761	747	685	673	710	782	797	776	741	716	716	722	722	706	690	683	676	676	674	669	670	684	701	718	718	745	741	746	719	701	684	684	690	695	698	700	702	702	703	709	707	700	702	702	705	709	719	726	740	745	745	713	695	696	708
0	0	0	0	0	0	0	0	0	0	0	0	0	0	0	0	0	822	883	936	938	926	926	915	921	904	882	895	905	905	952	978	959	924	878	861	862	862	880	901	920	912	902	892	892	885	880	895	898	882	874	888	888	862	852	843	840	835	829	822	822	822	824	834	816	799	787	785	810	837	837	848	825	813	811	826	833	842	846	843	843	820	785	757	758	778	815	833	823	797	797	782	801	835	879	892	862	817	795	795	830	830	870	919	941	956	949	927	920	921	937	938	917	897	892	872	862	857	857	846	867	879	869	865	846	837	845	880	880	927	961	994	1020	1034	1042	1042	1043	1063	1082	1094	1107	1119	1121	1122	1122	1123	1141	1174	1199	1227	1248	1264	1277	1292	1297	1317	1334	1362	1382	1396	1369	1350	1341	1347	1347	1359	1371	1388	1396	1427	1435	1439	1436	1412	1391	1386	1411	1422	1424	1434	1433	1433	1446	1453	1458	1468	1481	1487	1484	1472	1451	1451	1408	1365	1334	1335	1361	1376	1370	1342	1299	1289	1290	1299	1322	1341	1373	1387	1398	1403	1377	1352	1326	1357	1358	1370	1377	1401	1416	1411	1403	1383	1382	1406	1413	1399	1386	1361	1339	1332	1313	1328	1315	1320	1322	1322	1310	1317	1330	1330	1329	1344	1364	1396	1401	1380	1379	1381	1397	1428	1442	1438	1420	1394	1373	1362	1370	1394	1396	1405	1418	1421	1422	1433	1438	1441	1431	1420	1413	1401	1378	1359	1393	1431	1460	1477	1477	1462	1442	1433	1436	1470	1523	1529	1523	1514	1522	1529	1534	1537	1515	1491	1476	1480	1497	1524	1534	1553	1549	1554	1577	1594	1582	1557	1543	1550	1564	1604	1633	1642	1620	1593	1566	1554	1552	1547	1549	1570	1583	1604	1609	1602	1572	1555	1553	1547	1539	1530	1525	1543	1561	1566	1552	1533	1534	1535	1521	1506	1501	1509	1516	1524	1526	1524	1537	1611	1654	1655	1600	1557	1522	1478	1450	1433	1437	1430	1418	1410	1426	1431	1440	1451	1453	1453	1446	1423	1395	1375	1370	1364	1370	1351	1301	1251	1240	1233	1252	1260	1259	1272	1272	1281	1277	1312	1314	1292	1236	1218	1204	1183	1168	1155	1126	1089	1086	1134	1161	1161	1168	1161	1157	1163	1166	1178	1167	1155	1104	1085	1081	1094	1110	1125	1130	1123	1101	1072	1057	1052	1053	1052	1051	1107	1094	1097	1096	1101	1112	1137	1141	1117	1108	1116	1121	1171	1188	1191	1176	1166	1162	1173	1189	1189	1214	1348	1357	1274	1180	1136	1146	1263	1334	1392	1409	1416	1461	1462	1428	1386	1336	1320	1335	1337	1333	1335	1317	1287	1260	1260	1245	1269	1218	1145	1112	1104	1121	1127	1118	1102	1087	1091	1106	1121	1104	1074	1049	1041	1049	1049	1056	1062	1065	1065	1060	1018	1018	1009	960	927	911	907	905	913	924	924	935	936	926	909	896	900	906	906	888	876	860	828	802	816	816	840	858	874	894	903	904	884	855	826	815	831	831	861	885	883	869	864	853	835	819	820	799	799	781	782	797	814	816	802	784	787	793	791	791	784	749	745	779	785	767	749	753	753	763	783	788	776	750	708	682	688	688	686	705	726	744	746	740	729	711	711	712	725	749	767	775	761	747	747	736	739	746	756	758	744	714	714	707	721	704	693	685	690	690	690	686	685	683	697	714	714	723	724	718	715	688	668	668	666	678	689	689	691	691	693	703	720	744	756	756	746	728	712	678	659	659	657	667	680	702	704
0	0	0	0	0	0	0	0	0	0	0	0	0	0	0	770	770	815	867	895	909	902	902	895	888	873	858	888	925	925	967	998	988	943	896	865	865	865	872	891	902	899	890	889	889	887	887	895	898	882	863	854	844	844	835	826	833	827	821	795	785	785	762	736	762	769	774	801	845	864	864	857	825	797	789	795	809	812	827	830	830	813	783	731	732	761	799	818	812	803	803	797	818	838	857	859	831	799	789	802	826	850	850	871	889	903	911	903	898	912	930	934	912	892	892	872	862	857	857	869	866	848	830	816	797	790	802	848	848	902	945	974	1002	1025	1026	1017	1020	1037	1052	1059	1072	1098	1121	1127	1130	1130	1140	1168	1202	1235	1250	1249	1256	1267	1271	1298	1322	1346	1358	1354	1332	1316	1314	1329	1350	1350	1374	1377	1375	1391	1410	1428	1422	1400	1385	1409	1455	1500	1495	1464	1453	1451	1455	1466	1470	1459	1454	1446	1437	1446	1433	1433	1407	1362	1340	1331	1344	1374	1384	1356	1318	1299	1291	1299	1322	1338	1364	1380	1394	1406	1384	1352	1326	1364	1363	1364	1369	1375	1381	1391	1390	1389	1401	1403	1398	1394	1385	1374	1338	1295	1246	1230	1230	1253	1253	1253	1250	1270	1299	1309	1309	1313	1341	1369	1382	1386	1382	1375	1382	1385	1393	1403	1392	1387	1385	1383	1391	1412	1419	1418	1415	1396	1384	1374	1392	1412	1401	1380	1334	1243	1246	1263	1298	1332	1380	1408	1414	1426	1423	1412	1423	1464	1505	1524	1519	1504	1491	1496	1508	1510	1498	1473	1461	1467	1482	1498	1516	1540	1540	1530	1527	1532	1529	1521	1537	1542	1546	1555	1594	1603	1589	1569	1540	1520	1514	1519	1532	1549	1572	1586	1594	1582	1562	1542	1535	1534	1530	1518	1519	1534	1560	1570	1546	1523	1520	1522	1518	1509	1511	1507	1520	1526	1525	1526	1578	1659	1721	1691	1612	1567	1538	1490	1467	1461	1466	1484	1460	1445	1450	1459	1526	1553	1573	1565	1486	1441	1413	1397	1388	1386	1388	1340	1246	1214	1219	1238	1264	1275	1280	1283	1284	1284	1280	1274	1258	1229	1225	1215	1206	1196	1182	1164	1149	1105	1107	1161	1161	1177	1172	1164	1168	1170	1173	1172	1168	1150	1117	1095	1084	1099	1112	1120	1128	1121	1101	1075	1058	1049	1051	1052	1051	1044	1085	1102	1103	1103	1113	1130	1138	1118	1114	1123	1127	1184	1233	1300	1308	1293	1269	1310	1341	1341	1397	1440	1444	1430	1370	1323	1318	1436	1496	1527	1494	1478	1479	1477	1453	1407	1355	1341	1349	1356	1359	1356	1339	1315	1274	1274	1228	1181	1127	1089	1077	1092	1086	1062	1039	1029	1014	996	976	959	953	932	909	908	919	919	945	952	949	942	903	885	882	881	879	864	858	851	840	823	808	808	796	785	790	786	776	743	748	775	803	807	787	828	802	802	814	832	844	855	859	855	829	805	798	782	777	780	780	789	780	761	752	748	760	758	753	751	744	744	736	769	783	801	805	793	781	783	793	797	797	787	745	745	771	778	767	746	744	744	749	770	768	763	740	710	689	688	688	692	711	715	729	721	710	688	687	687	701	725	749	767	773	760	745	745	731	729	742	751	761	760	760	710	695	699	727	752	768	741	741	709	667	654	662	709	713	713	729	715	714	707	695	687	687	658	634	624	642	670	670	681	684	702	731	749	749	747	720	694	685	666	666	660	670	680	702	704
0	0	0	0	0	0	0	0	0	0	0	0	0	0	801	795	795	815	853	858	875	869	863	863	839	828	831	865	913	974	974	986	963	928	893	872	872	872	890	891	899	890	894	896	898	898	888	894	901	873	863	854	844	832	828	830	844	828	798	764	738	738	733	723	733	761	773	806	835	851	851	834	800	779	773	777	788	793	807	812	812	799	760	729	717	751	807	823	815	796	796	797	791	773	797	812	814	807	797	802	815	831	831	824	826	830	842	838	841	855	873	869	839	837	837	841	843	857	857	855	839	820	792	778	768	770	790	828	828	888	933	962	993	1013	1011	994	989	1015	1034	1047	1062	1086	1116	1137	1155	1155	1160	1182	1218	1244	1229	1214	1209	1213	1218	1237	1291	1319	1333	1320	1299	1286	1297	1330	1359	1359	1376	1364	1343	1350	1384	1407	1405	1386	1386	1401	1453	1492	1507	1483	1459	1446	1447	1460	1461	1444	1432	1415	1407	1413	1419	1419	1386	1351	1326	1313	1316	1354	1387	1366	1315	1291	1280	1286	1308	1325	1324	1348	1381	1408	1400	1385	1375	1364	1359	1355	1370	1380	1379	1370	1365	1372	1369	1376	1377	1380	1383	1374	1330	1264	1237	1228	1238	1251	1253	1254	1254	1279	1302	1306	1293	1289	1289	1318	1353	1367	1368	1357	1347	1334	1334	1354	1365	1373	1391	1397	1400	1408	1410	1393	1382	1363	1348	1341	1354	1351	1331	1299	1226	1207	1208	1235	1252	1269	1280	1326	1366	1389	1404	1407	1410	1438	1468	1501	1502	1489	1473	1457	1478	1493	1479	1461	1460	1471	1483	1503	1524	1560	1570	1542	1500	1498	1507	1522	1540	1547	1534	1553	1577	1579	1567	1544	1525	1497	1497	1510	1521	1552	1581	1582	1570	1550	1540	1538	1537	1541	1553	1586	1603	1600	1619	1617	1604	1587	1580	1592	1631	1652	1652	1642	1657	1643	1659	1695	1729	1776	1781	1767	1739	1699	1687	1696	1710	1720	1703	1667	1635	1580	1544	1541	1555	1582	1597	1588	1514	1465	1438	1417	1408	1407	1353	1281	1200	1181	1179	1237	1274	1288	1278	1271	1284	1302	1310	1296	1273	1256	1246	1233	1226	1219	1206	1203	1205	1215	1220	1208	1208	1208	1196	1188	1183	1185	1181	1180	1170	1148	1111	1090	1087	1095	1115	1117	1123	1114	1094	1095	1170	1049	1051	1059	1058	1054	1091	1130	1181	1262	1296	1319	1308	1333	1356	1361	1404	1496	1504	1500	1479	1450	1428	1407	1407	1405	1445	1452	1465	1453	1390	1339	1336	1450	1517	1536	1512	1490	1477	1476	1452	1406	1365	1351	1351	1346	1359	1347	1321	1275	1216	1216	1165	1085	1022	968	953	982	914	895	879	873	871	866	864	859	846	823	805	809	810	810	810	799	793	788	790	830	839	842	853	853	855	854	843	826	806	806	799	786	793	788	775	733	739	768	797	807	787	781	757	757	750	783	809	821	820	799	784	787	790	779	773	773	773	784	779	756	744	748	758	759	756	754	749	749	732	755	758	785	807	824	827	827	824	820	820	811	806	810	797	797	784	774	761	761	741	759	753	732	707	705	698	689	689	680	697	710	720	714	701	689	687	687	701	707	708	729	749	744	730	730	710	698	724	749	749	732	732	715	699	705	730	760	757	735	735	707	675	646	656	692	702	702	710	716	709	700	703	703	692	663	634	615	649	672	672	671	675	682	705	723	723	727	707	694	686	666	666	660	670	682	690	690
0	0	0	0	0	0	0	0	0	0	0	0	0	863	825	820	820	832	845	845	843	843	815	815	792	771	777	0	0	897	897	926	904	866	845	852	881	881	893	911	894	874	873	880	893	893	889	870	873	859	838	827	832	832	828	830	846	827	782	742	706	706	704	738	781	795	796	794	798	789	789	781	750	745	752	779	790	796	785	801	801	801	785	759	772	803	821	817	791	781	767	767	767	742	761	784	797	806	804	804	807	806	806	788	761	768	779	784	784	799	804	788	788	806	806	816	824	833	850	855	839	756	742	745	750	767	804	848	884	884	904	935	960	954	940	934	966	992	1015	1042	1058	1081	1111	1146	1165	1165	1185	1202	1209	1209	1165	1150	1147	1150	1156	1172	1209	1247	1264	1267	1251	1252	1280	1324	1362	1362	1380	1359	1336	1338	1372	1390	1387	1379	1380	1394	1422	1448	1462	1459	1437	1426	1423	1426	1427	1420	1413	1396	1386	1381	1376	1376	1332	1311	1289	1276	1278	1283	1263	1236	1227	1237	1254	1263	1266	1269	1296	1331	1369	1385	1392	1398	1385	1369	1359	1355	1345	1358	1357	1353	1354	1350	1347	1342	1355	1362	1366	1349	1290	1259	1243	1242	1270	1278	1287	1286	1286	1303	1315	1308	1285	1262	1255	1267	1300	1309	1292	1281	1283	1281	1281	1304	1341	1371	1397	1391	1389	1382	1366	1345	1322	1325	1314	1319	1323	1292	1281	1271	1256	1245	1249	1257	1259	1267	1261	1269	1305	1357	1389	1396	1398	1413	1429	1454	1461	1458	1446	1425	1424	1443	1453	1452	1464	1485	1506	1532	1556	1656	1653	1611	1577	1493	1499	1533	1553	1557	1566	1601	1644	1705	1715	1700	1691	1674	1626	1620	1647	1691	1721	1754	1788	1810	1825	1825	1823	1818	1825	1821	1836	1823	1821	1840	1830	1811	1797	1806	1827	1854	1873	1878	1860	1831	1806	1782	1790	1803	1822	1797	1783	1749	1732	1730	1739	1743	1745	1719	1689	1634	1583	1548	1509	1480	1465	1448	1419	1405	1383	1362	1344	1327	1302	1195	1111	1093	1070	1068	1079	1088	1092	1097	1126	1210	1255	1280	1295	1285	1274	1258	1248	1237	1227	1224	1223	1226	1233	1233	1235	1233	1221	1205	1197	1191	1189	1171	1156	1119	1084	1062	1050	1062	1081	1099	1100	1090	1066	1077	1170	1217	1240	1250	1276	1300	1329	1340	1363	1374	1343	1305	1282	1315	1352	1367	1421	1502	1503	1495	1473	1444	1430	1414	1414	1401	1412	1430	1440	1421	1377	1347	1321	1281	1248	1206	1185	1185	1181	1128	1081	1068	1060	1021	1018	1025	1002	982	955	951	958	958	939	919	891	883	888	899	905	895	878	870	863	858	862	860	847	831	811	807	807	809	811	798	790	789	789	829	836	835	823	827	845	854	852	842	839	839	805	809	814	823	814	785	739	768	797	811	792	765	750	750	735	763	792	794	781	765	764	774	785	785	775	770	770	773	777	783	814	833	801	775	774	784	791	791	784	764	753	769	793	812	822	815	809	809	803	795	800	799	799	800	786	769	751	751	744	751	745	721	713	712	703	694	694	692	695	719	719	714	701	689	686	686	700	713	718	721	731	731	727	727	714	708	702	694	714	720	720	714	704	712	726	736	737	718	718	697	667	646	640	641	665	665	679	688	698	697	699	699	690	667	629	617	637	657	657	659	653	653	677	690	690	706	707	694	686	668	668	664	668	690	685	681
0	0	0	0	852	868	919	942	0	0	0	0	866	845	842	847	847	860	860	854	847	823	782	782	761	0	0	0	0	804	804	818	798	786	804	848	883	883	900	903	876	854	833	843	853	853	853	844	823	801	778	798	822	822	835	846	846	827	782	720	679	679	689	734	775	800	798	789	775	765	745	745	735	723	761	785	796	776	795	815	815	823	807	815	842	877	856	805	779	761	767	767	751	751	777	790	800	788	784	789	794	791	791	758	726	730	739	762	761	759	758	758	772	781	795	795	803	818	834	831	791	756	742	736	750	780	820	854	870	870	891	917	931	926	925	935	950	977	1011	1044	1073	1092	1112	1143	1177	1177	1192	1203	1183	1151	1130	1114	1107	1105	1090	1095	1142	1202	1223	1221	1223	1227	1254	1303	1351	1351	1377	1363	1345	1350	1369	1383	1373	1369	1374	1384	1384	1392	1422	1425	1416	1404	1399	1395	1394	1374	1371	1365	1362	1336	1298	1271	1271	1257	1246	1252	1263	1257	1238	1223	1216	1213	1227	1226	1228	1246	1283	1318	1347	1362	1370	1377	1362	1342	1331	1330	1345	1358	1349	1353	1356	1348	1335	1333	1341	1344	1330	1299	1267	1257	1255	1267	1286	1304	1312	1314	1321	1321	1329	1299	1258	1237	1246	1270	1294	1292	1262	1256	1262	1287	1303	1323	1350	1382	1391	1384	1375	1347	1321	1292	1279	1286	1291	1305	1314	1318	1313	1315	1314	1294	1301	1304	1296	1291	1288	1318	1343	1376	1401	1411	1403	1384	1392	1420	1445	1466	1470	1450	1435	1444	1451	1457	1479	1505	1560	1604	1743	1773	1764	1751	1685	1680	1714	1712	1747	1786	1821	1848	1872	1879	1877	1862	1847	1834	1787	1765	1729	1704	1718	1756	1813	1844	1875	1871	1879	1899	1907	1904	1891	1873	1863	1865	1872	1848	1832	1818	1836	1862	1887	1887	1874	1847	1824	1805	1807	1809	1826	1823	1792	1762	1711	1684	1574	1537	1528	1514	1493	1456	1422	1397	1371	1328	1316	1308	1303	1271	1242	1222	1207	1173	1096	1051	1031	1002	989	975	983	993	1017	1037	1089	1117	1173	1202	1229	1234	1218	1199	1184	1172	1153	1131	1104	1063	1057	1057	1060	1081	1106	1112	1121	1126	1134	1096	1069	1058	1032	1029	1016	1029	1046	1059	1060	1061	1066	1077	1155	1212	1242	1247	1278	1297	1321	1333	1358	1363	1338	1292	1226	1134	1131	1141	1143	1131	1114	1116	1134	1133	1059	1032	1032	1008	986	979	989	1010	1049	1080	1088	1094	1114	1108	1095	1075	1061	1061	1065	1064	1063	1016	1009	1007	989	970	942	941	941	944	927	920	893	883	885	891	882	873	865	838	837	859	900	904	890	889	887	889	889	892	884	877	847	832	856	867	878	873	860	851	844	834	830	811	789	789	794	805	814	830	814	785	759	771	795	820	801	795	786	786	774	779	780	795	772	751	748	754	767	764	762	762	768	768	772	790	811	835	801	775	768	778	784	784	768	752	737	746	772	798	807	802	784	784	760	766	759	768	761	770	773	761	739	739	735	738	732	716	701	697	698	698	698	702	715	719	719	710	684	678	678	688	713	723	718	720	706	710	710	706	711	705	696	687	702	710	710	712	702	703	703	704	698	698	687	675	655	643	627	617	617	627	639	655	672	677	690	690	679	647	621	606	618	623	623	622	622	625	643	690	690	706	697	681	674	671	671	678	669	672	673	679
0	0	0	0	852	868	919	942	900	865	865	840	832	836	843	860	860	867	868	873	859	843	815	815	795	0	0	0	0	783	783	791	773	777	808	848	883	883	880	859	844	832	814	825	830	830	820	810	784	754	738	748	774	774	823	835	835	820	770	720	679	684	684	723	762	789	796	785	777	762	745	745	737	733	749	767	777	791	803	825	825	816	809	820	847	868	869	837	781	768	784	784	794	801	799	805	809	778	771	775	782	778	778	748	715	718	733	747	752	757	762	762	767	775	787	787	802	813	809	796	765	744	753	736	750	780	798	837	872	872	901	934	957	955	951	948	955	971	1010	1067	1098	1105	1112	1139	1173	1173	1191	1173	1146	1119	1109	1106	1105	1102	1094	1095	1136	1182	1197	1194	1202	1218	1236	1278	1327	1327	1339	1346	1350	1367	1389	1391	1381	1378	1390	1389	1384	1385	1389	1408	1402	1385	1370	1360	1327	1304	1295	1313	1302	1290	1284	1271	1271	1251	1243	1245	1253	1262	1238	1221	1213	1211	1228	1231	1230	1262	1299	1330	1345	1358	1367	1367	1366	1346	1331	1317	1325	1336	1349	1353	1361	1349	1335	1330	1329	1309	1283	1248	1233	1244	1262	1283	1305	1315	1298	1270	1250	1250	1237	1206	1205	1220	1251	1282	1286	1277	1262	1260	1271	1292	1299	1303	1312	1331	1337	1343	1344	1334	1328	1312	1303	1304	1305	1315	1331	1341	1361	1374	1387	1380	1366	1354	1338	1324	1317	1336	1362	1390	1413	1419	1409	1402	1411	1439	1465	1491	1497	1520	1566	1622	1633	1649	1695	1808	1875	1860	1848	1838	1834	1834	1814	1837	1863	1897	1916	1883	1850	1863	1864	1871	1872	1871	1864	1827	1787	1751	1726	1702	1717	1756	1820	1867	1893	1893	1893	1908	1925	1936	1928	1911	1887	1880	1878	1857	1821	1798	1777	1768	1732	1708	1665	1616	1579	1531	1497	1504	1525	1512	1493	1457	1408	1345	1302	1289	1282	1282	1286	1273	1252	1220	1175	1146	1144	1149	1152	1123	1094	1056	1034	983	964	961	951	963	965	965	968	971	990	983	975	982	993	1009	997	987	979	982	991	1000	1006	1007	1010	1040	1037	1037	1036	1062	1094	1110	1106	1104	1107	1084	1059	1042	993	1000	995	1004	1014	1026	1060	1061	1041	1024	992	964	951	948	955	975	1040	1078	1107	1116	1096	1087	1089	1103	1121	1122	1126	1124	1113	1123	1133	1132	1054	1022	1022	999	977	970	980	999	1037	1069	1086	1098	1113	1102	1087	1064	1058	1056	1058	1065	1064	1059	1056	1047	1036	1032	1029	1028	1028	1009	990	955	962	976	960	929	898	868	850	848	861	875	889	895	888	882	880	871	871	866	858	855	830	828	845	861	870	870	855	848	844	843	841	830	830	808	797	809	814	830	822	796	772	759	782	792	792	786	773	773	773	774	777	774	774	745	744	735	732	731	746	746	761	764	770	768	781	800	789	765	737	723	716	716	709	718	720	728	745	772	778	744	709	709	697	714	745	755	744	726	714	714	702	702	687	686	679	665	668	671	674	682	698	702	715	726	723	703	679	666	666	689	706	719	703	691	680	680	680	694	700	707	701	702	696	697	697	700	695	684	670	658	648	648	635	640	648	646	628	613	613	608	616	635	655	666	663	663	654	623	601	597	601	601	597	584	622	625	643	668	668	685	688	673	669	676	676	675	670	662	657	683
0	838	812	827	827	874	920	924	900	865	865	804	807	815	836	849	849	849	858	860	858	856	850	850	819	801	774	769	774	780	780	787	772	764	789	814	842	842	829	800	794	804	812	814	812	812	791	772	739	715	706	707	733	733	773	812	828	809	768	712	683	684	684	723	743	759	766	771	767	760	748	748	740	732	725	721	736	783	805	823	803	803	775	781	796	818	847	829	797	793	794	794	805	814	812	810	810	776	764	776	782	774	774	750	731	722	743	752	761	765	780	779	779	777	784	784	799	808	791	780	764	786	788	769	755	758	798	837	897	897	940	974	983	984	990	995	1002	1016	1046	1081	1107	1108	1111	1124	1140	1158	1158	1156	1136	1120	1121	1132	1138	1135	1121	1123	1158	1189	1203	1202	1212	1229	1243	1273	1297	1311	1311	1328	1338	1353	1377	1396	1404	1411	1411	1403	1396	1385	1386	1390	1380	1368	1342	1305	1251	1210	1224	1256	1279	1288	1300	1327	1327	1353	1345	1332	1304	1292	1284	1287	1275	1297	1344	1371	1362	1351	1335	1353	1368	1380	1385	1397	1403	1390	1357	1341	1333	1335	1348	1358	1361	1282	1257	1245	1246	1214	1213	1216	1203	1206	1210	1208	1230	1240	1258	1252	1232	1210	1210	1190	1190	1209	1228	1263	1270	1265	1263	1265	1274	1294	1303	1295	1295	1302	1317	1320	1326	1333	1328	1321	1316	1313	1316	1314	1354	1363	1364	1390	1432	1442	1423	1397	1383	1391	1406	1438	1466	1494	1525	1574	1618	1663	1670	1657	1588	1524	1536	1550	1552	1612	1641	1655	1702	1812	1882	1870	1881	1881	1865	1870	1853	1865	1881	1896	1919	1902	1855	1842	1841	1849	1855	1862	1845	1807	1753	1703	1656	1656	1673	1673	1649	1611	1599	1593	1592	1538	1487	1463	1447	1424	1388	1332	1271	1256	1238	1214	1191	1169	1160	1164	1153	1132	1126	1120	1112	1107	1095	1089	1080	1073	1049	1021	1042	1081	1123	1161	1190	1203	1189	1122	1114	1112	1126	1139	1153	1117	1083	1050	1028	980	962	960	958	967	966	965	966	968	973	968	965	970	983	1008	1001	984	973	980	984	997	998	1001	1012	1007	1007	995	1000	1069	1160	1160	1149	1146	1144	1140	1134	1121	1109	1108	1112	1118	1014	1026	1037	1041	1034	1013	983	960	942	947	960	969	1045	1081	1108	1103	1086	1071	1084	1103	1109	1107	1106	1109	1114	1127	1132	1136	1132	1132	1117	1100	1099	1112	1127	1127	1128	1126	1117	1111	1107	1100	1087	1069	1068	1069	1071	1077	1073	1082	1070	1063	1062	1049	1039	1038	1038	1030	1014	991	980	969	955	931	902	868	848	849	860	871	874	867	863	866	866	843	843	799	803	807	823	831	839	850	856	855	854	846	851	861	852	824	824	811	797	809	820	842	833	812	771	755	749	753	762	762	762	760	760	773	770	752	735	743	733	722	703	723	741	741	759	757	756	749	748	743	741	745	730	721	721	709	706	717	731	735	751	766	758	724	693	693	682	714	739	743	738	720	713	709	697	697	694	693	688	665	674	672	674	682	682	684	695	698	700	680	671	668	668	675	678	674	652	632	627	654	654	671	688	705	700	704	699	696	696	684	678	669	650	630	620	620	638	663	676	657	635	625	625	612	616	633	648	654	654	654	639	614	597	587	589	601	597	584	587	609	634	656	656	686	690	666	658	668	668	672	663	655	659	672
828	795	785	811	811	851	887	884	859	812	812	804	807	815	818	819	818	818	804	819	829	844	838	838	828	810	790	773	781	779	779	786	779	764	766	777	791	804	804	796	790	788	789	793	791	791	772	741	715	695	686	704	722	722	758	792	809	807	811	787	758	733	733	722	743	759	751	752	751	753	747	747	747	734	697	699	730	756	750	730	709	709	678	693	720	765	789	792	799	798	794	794	804	801	801	796	775	761	759	768	787	773	760	760	744	738	738	764	803	835	841	809	775	759	766	766	780	787	788	779	792	805	799	765	732	738	792	852	897	897	983	1040	1071	1073	1050	1068	1102	1109	1123	1127	1115	1083	1063	1077	1095	1101	1101	1104	1115	1135	1161	1181	1184	1176	1167	1187	1217	1241	1254	1256	1255	1262	1267	1287	1315	1306	1306	1323	1336	1357	1388	1421	1492	1485	1471	1460	1440	1419	1405	1393	1370	1344	1317	1274	1219	1183	1200	1243	1290	1340	1403	1407	1386	1386	1361	1363	1365	1381	1399	1396	1382	1375	1390	1389	1395	1384	1356	1365	1380	1387	1402	1414	1410	1398	1376	1350	1331	1335	1347	1324	1306	1282	1257	1199	1181	1167	1169	1173	1174	1179	1190	1208	1217	1247	1257	1248	1213	1183	1183	1174	1181	1192	1199	1208	1219	1230	1247	1260	1273	1290	1300	1293	1296	1290	1289	1304	1316	1321	1323	1321	1317	1308	1288	1275	1350	1356	1353	1392	1442	1454	1423	1393	1369	1380	1400	1439	1459	1493	1527	1577	1625	1654	1654	1642	1581	1527	1530	1527	1519	1505	1505	1518	1541	1558	1580	1624	1611	1532	1416	1349	1352	1354	1349	1342	1317	1331	1349	1352	1345	1343	1339	1344	1345	1340	1319	1293	1257	1225	1215	1213	1208	1210	1218	1223	1230	1223	1210	1199	1213	1224	1234	1236	1227	1227	1219	1207	1190	1167	1156	1152	1142	1116	1112	1111	1107	1100	1086	1082	1068	1064	1040	1025	1045	1064	1100	1126	1151	1159	1153	1089	1085	1082	1062	1048	1049	1055	1063	1046	1013	1008	1020	1069	1114	1127	1129	1128	1114	1108	1099	1108	1113	1117	1122	1151	1168	1172	1172	1165	1159	1136	1122	1113	1117	1122	1122	1110	1097	1106	1123	1131	1130	1123	1124	1140	1148	1148	1129	1121	1121	1118	1114	1107	1116	1134	1140	1128	1121	1106	1085	1061	1050	1055	1071	1101	1112	1093	1082	1077	1089	1102	1105	1092	1092	1097	1105	1110	1107	1113	1124	1124	1107	1102	1108	1118	1132	1133	1139	1136	1123	1102	1090	1073	1059	1071	1078	1086	1095	1098	1108	1097	1081	1078	1078	1066	1047	1042	1042	1036	1019	990	964	947	938	926	905	876	847	843	840	842	832	824	814	813	820	816	816	796	774	770	772	774	788	812	817	824	827	834	842	842	828	804	824	811	802	818	831	826	814	794	775	750	734	733	746	751	751	747	748	750	747	730	721	717	708	700	708	722	743	743	753	747	734	715	709	712	723	726	719	714	714	703	709	725	738	749	761	768	756	724	696	696	690	702	726	734	732	716	700	696	696	699	698	705	684	665	674	672	676	676	668	669	682	683	664	649	652	660	660	675	677	663	636	622	621	623	623	633	654	676	683	694	698	692	692	680	667	665	657	642	643	643	660	673	686	681	665	651	651	641	638	623	616	606	611	611	619	620	597	587	589	589	582	572	568	585	614	640	640	667	677	662	645	654	654	662	658	656	641	641
798	782	768	785	785	824	858	854	810	779	779	775	784	803	818	819	818	789	763	769	783	798	804	804	801	805	802	811	812	803	803	793	786	772	755	760	759	754	754	770	789	784	763	747	761	761	750	730	708	698	700	705	716	748	748	777	801	813	819	806	790	765	765	738	729	738	751	752	751	712	714	714	696	671	0	0	0	0	0	0	688	688	671	689	732	755	785	798	806	797	789	789	785	778	781	774	754	739	747	769	762	750	731	731	713	723	762	780	813	832	829	814	792	770	753	753	744	755	768	777	795	794	766	731	713	734	795	853	917	983	983	1040	1087	1099	1117	1128	1125	1123	1124	1124	1114	1107	1078	1091	1101	1123	1123	1118	1113	1125	1166	1194	1211	1234	1257	1293	1333	1360	1393	1380	1376	1364	1349	1362	1395	1423	1423	1436	1440	1458	1500	1535	1545	1518	1494	1479	1466	1432	1400	1379	1360	1329	1305	1281	1226	1220	1267	1309	1345	1371	1423	1428	1395	1395	1374	1372	1383	1404	1426	1430	1420	1401	1381	1376	1382	1366	1327	1317	1319	1317	1322	1307	1311	1226	1155	1135	1119	1120	1158	1174	1191	1214	1213	1199	1181	1053	1041	1034	1038	1050	1044	1044	1070	1085	1124	1103	1097	1078	1078	1061	1022	989	982	1000	1036	1063	1087	1074	1055	1035	1031	1027	1035	1065	1064	1074	1088	1164	1192	1188	1192	1205	1211	1185	1161	1148	1152	1138	1129	1143	1169	1205	1243	1223	1177	1189	1206	1227	1234	1249	1256	1222	1170	1126	1097	1045	1032	1034	1065	1084	1117	1150	1220	1368	1481	1507	1501	1383	1324	1295	1260	1257	1300	1299	1290	1317	1347	1359	1360	1347	1338	1331	1329	1323	1317	1295	1269	1236	1221	1230	1209	1206	1222	1225	1232	1227	1208	1208	1218	1232	1239	1229	1222	1208	1197	1201	1203	1212	1222	1223	1218	1206	1199	1221	1247	1279	1298	1307	1311	1314	1319	1319	1323	1329	1335	1329	1325	1297	1270	1258	1249	1240	1233	1227	1213	1190	1158	1128	1120	1130	1138	1144	1145	1149	1145	1140	1128	1114	1108	1113	1115	1120	1142	1162	1165	1167	1163	1160	1151	1139	1124	1110	1111	1111	1114	1103	1098	1098	1111	1113	1106	1104	1119	1139	1158	1155	1134	1121	1121	1117	1115	1112	1119	1138	1139	1131	1123	1111	1088	1075	1068	1071	1094	1101	1099	1091	1080	1076	1096	1104	1094	1085	1072	1075	1080	1073	1064	1053	1053	1053	1080	1088	1110	1128	1143	1146	1068	1023	925	918	921	988	969	1039	1067	1093	1106	1105	1114	1104	1092	1093	1090	1062	1039	1039	1030	1010	972	937	911	900	891	875	857	844	814	803	809	807	796	788	791	801	805	805	790	773	763	772	766	762	760	769	789	807	816	830	834	836	828	804	804	790	797	795	769	750	737	736	745	735	717	715	727	735	735	736	738	740	729	711	702	704	697	692	710	728	747	747	746	735	709	692	685	689	697	699	706	714	714	702	713	727	738	747	760	765	754	757	778	778	771	751	744	736	725	705	687	689	689	694	698	705	684	682	679	679	668	668	664	661	669	670	660	645	644	662	662	677	678	661	644	629	621	617	617	625	638	643	654	675	700	696	696	678	663	647	642	633	632	632	648	664	671	668	663	657	657	649	646	634	621	606	606	611	619	620	616	605	593	593	576	561	563	578	601	601	625	645	658	649	625	625	622	632	645	643	642	642
796	774	749	760	760	796	828	813	774	747	747	758	775	792	796	797	789	789	763	726	720	747	762	780	780	795	805	814	823	812	798	798	789	789	775	761	734	0	0	0	757	762	732	697	698	723	723	742	737	741	715	0	0	721	721	749	790	797	813	818	802	777	777	759	743	760	768	761	745	712	714	693	691	0	0	0	0	0	0	0	0	0	0	703	753	798	803	814	814	804	785	758	758	757	760	752	744	736	733	731	714	708	697	697	725	769	786	793	806	807	815	799	787	769	746	734	734	740	747	747	737	727	729	730	720	728	779	853	933	1005	1005	1056	1087	1099	1115	1122	1133	1125	1122	1127	1136	1155	1187	1222	1232	1230	1230	1253	1259	1264	1243	1224	1222	1233	1271	1330	1378	1410	1438	1412	1390	1369	1371	1391	1417	1440	1447	1447	1464	1492	1538	1564	1548	1524	1501	1486	1459	1422	1387	1359	1344	1326	1300	1264	1221	1231	1285	1328	1354	1356	1356	1345	1333	1333	1313	1308	1312	1309	1286	1239	1203	1176	1159	1164	1184	1198	1184	1159	1143	1128	1122	1118	1019	988	924	919	924	994	1055	1067	1089	1109	1109	1101	1077	1053	1041	1016	1018	1027	1027	1034	1062	1075	1118	1091	1092	1078	1061	1061	1019	990	979	997	1031	1059	1076	1066	1046	1023	1018	1017	1026	1053	1052	1064	1077	1137	1156	1154	1165	1181	1175	1146	1133	1129	1145	1135	1123	1134	1163	1186	1215	1202	1169	1178	1196	1216	1229	1240	1251	1221	1171	1127	1090	1041	1025	1021	1061	1075	1119	1149	1230	1312	1348	1400	1405	1356	1315	1300	1277	1277	1312	1311	1305	1331	1360	1375	1374	1367	1333	1326	1317	1312	1297	1279	1280	1306	1306	1295	1281	1271	1258	1250	1258	1269	1283	1295	1316	1327	1319	1302	1295	1292	1278	1250	1241	1233	1243	1257	1251	1232	1216	1221	1233	1260	1280	1298	1310	1317	1326	1324	1318	1311	1316	1319	1305	1286	1267	1253	1245	1230	1215	1209	1209	1189	1164	1135	1127	1141	1150	1149	1140	1132	1133	1135	1128	1112	1102	1106	1117	1123	1136	1155	1154	1148	1135	1144	1137	1140	1120	1095	1075	1075	1080	1079	1078	1089	1091	1093	1081	1087	1107	1147	1174	1155	1134	1126	1131	1131	1125	1126	1134	1147	1133	1119	1109	1099	1084	1071	1070	1084	1093	1095	1091	1092	1087	1087	1091	1092	1082	1067	1065	1061	1058	1052	1041	1025	1025	1018	1044	1075	1101	1124	1142	1056	1018	878	790	771	878	924	963	972	1034	1062	1078	1071	1078	1091	1094	1083	1061	1046	1023	1023	988	948	932	909	877	851	842	840	831	772	757	788	794	804	799	796	788	782	788	788	779	772	769	775	751	734	741	753	770	786	800	812	834	836	821	800	800	783	775	758	750	724	714	705	689	675	673	689	705	721	721	725	720	710	702	697	694	695	691	695	711	728	728	733	725	708	693	676	673	681	680	686	694	705	705	712	708	711	717	715	712	716	736	738	738	704	715	713	706	705	697	686	686	686	689	694	703	700	689	681	682	682	661	661	649	652	659	669	657	637	645	660	660	681	679	666	651	633	621	613	613	596	583	598	603	627	665	665	654	643	625	618	610	599	614	614	634	650	656	646	652	661	661	664	652	637	621	606	606	606	604	611	611	600	590	590	598	606	610	621	610	610	606	612	622	634	621	621	612	615	629	636	642	642
781	766	741	710	710	721	763	784	787	786	786	781	781	781	776	775	769	769	741	726	720	747	740	753	753	785	810	828	834	0	0	0	0	0	0	0	0	0	0	0	0	0	0	0	0	0	0	0	0	0	0	0	0	0	0	0	0	762	782	782	775	779	779	790	786	779	768	759	731	710	693	691	691	0	727	747	755	733	698	698	727	727	755	749	747	759	781	782	783	778	762	744	744	737	722	701	685	668	670	685	698	726	747	747	785	805	810	782	782	782	787	784	769	758	742	743	743	750	747	742	735	730	727	729	723	714	741	802	937	1017	1017	1058	1080	1099	1115	1122	1126	1128	1125	1121	1134	1153	1188	1210	1222	1215	1238	1238	1251	1260	1240	1199	1170	1173	1161	1164	1159	1158	1116	1098	1079	1063	1092	1145	1199	1229	1234	1234	1237	1236	1245	1242	1236	1228	1205	1141	1117	1105	1108	1117	1093	1057	1045	1038	1036	1043	1044	1045	1076	1076	1062	1036	1040	1039	1039	1038	1035	1035	1043	1045	1046	1040	1020	1008	1015	1017	1012	1018	1019	1015	1005	984	979	987	914	908	919	987	1001	1022	1031	1056	1056	1005	1008	1031	1021	1016	1003	1012	1018	1046	1057	1058	1051	1059	1070	1079	1077	1077	1076	1076	1076	1073	1066	1072	1082	1095	1106	1114	1094	1096	1105	1113	1117	1124	1148	1180	1201	1201	1202	1200	1202	1205	1215	1227	1223	1222	1202	1201	1200	1200	1195	1196	1211	1224	1242	1244	1243	1255	1263	1264	1248	1236	1197	1127	1120	1120	1205	1276	1282	1287	1282	1294	1326	1355	1356	1316	1311	1310	1321	1325	1325	1335	1344	1357	1374	1384	1374	1364	1351	1330	1307	1296	1275	1267	1291	1302	1307	1307	1296	1287	1267	1254	1258	1253	1258	1277	1295	1307	1301	1294	1279	1275	1255	1238	1231	1239	1250	1259	1246	1229	1213	1209	1225	1249	1269	1283	1296	1309	1316	1315	1295	1288	1288	1291	1282	1269	1254	1248	1234	1205	1194	1192	1196	1187	1157	1151	1149	1161	1160	1142	1128	1109	1107	1111	1105	1096	1086	1085	1098	1108	1125	1135	1137	1119	1113	1107	1098	1092	1092	1090	1090	1066	1042	1040	1064	1087	1099	1093	1085	1088	1116	1147	1174	1163	1136	1123	1127	1140	1146	1142	1146	1138	1118	1100	1092	1083	1072	1065	1064	1073	1077	1071	1047	1083	1090	1088	1082	1078	1072	1061	1058	1059	1056	1050	1043	1030	1030	1023	1017	1044	1077	1121	1118	1058	1002	879	786	771	873	924	950	970	1007	1031	1055	1062	1048	1034	1024	1008	992	993	994	994	970	946	930	910	870	840	824	810	784	767	756	748	779	791	790	784	776	774	774	774	779	775	778	759	739	731	732	744	762	778	800	812	818	825	808	808	803	775	735	698	691	694	698	693	677	664	672	698	701	695	695	688	679	662	686	690	691	689	690	700	714	715	715	704	696	684	679	669	671	666	668	673	690	704	704	704	690	677	669	656	649	647	652	663	663	677	672	666	672	667	667	673	686	686	686	680	672	654	657	674	657	638	636	636	627	640	654	659	648	626	642	642	662	661	660	651	644	630	616	603	603	595	596	606	628	643	649	649	633	629	616	605	584	574	595	595	631	636	628	618	624	633	633	664	652	637	623	610	610	609	609	609	595	586	584	584	603	619	634	638	627	627	623	629	616	624	627	627	622	607	601	618	643	643
764	752	735	710	710	715	753	781	790	782	783	783	781	756	745	755	758	758	740	713	695	714	740	753	753	0	0	0	0	0	0	0	0	0	0	0	0	0	0	0	0	0	0	0	0	0	0	0	0	0	0	0	0	0	0	0	0	0	761	757	764	780	796	796	815	790	777	768	763	766	757	739	739	719	727	747	761	775	759	738	733	733	744	726	697	691	716	736	745	741	741	742	742	742	734	700	682	678	683	691	716	744	770	770	784	783	771	757	750	749	732	705	693	692	724	733	733	746	744	737	724	721	730	731	728	714	749	818	948	1022	1022	1051	1073	1086	1102	1116	1126	1128	824	849	879	907	919	916	918	900	910	910	934	970	1008	1004	960	911	893	901	901	896	880	890	919	945	989	1015	1008	1034	1045	1045	1039	1034	1046	1064	1069	1084	1066	1086	1113	1112	1108	1099	1082	1064	1055	1042	1034	1039	1047	1047	1076	1072	1059	1028	1028	1031	1031	1026	1027	1030	1038	1049	1051	1041	1021	1011	1015	1017	1022	1023	1022	1014	1003	976	974	971	966	965	977	994	985	978	972	983	1002	1002	1002	1006	1000	995	1003	1012	1136	1139	1143	1143	1141	1151	1167	1168	1162	1161	1161	1164	1170	1178	1177	1178	1168	1169	1170	1162	1130	1118	1118	1117	1127	1138	1164	1188	1210	1220	1223	1217	1209	1210	1214	1219	1214	1215	1223	1217	1213	1198	1190	1188	1201	1218	1234	1246	1246	1254	1258	1260	1236	1228	1217	1225	1236	1214	1215	1260	1273	1268	1277	1294	1305	1296	1279	1279	1295	1302	1319	1325	1336	1343	1353	1356	1368	1358	1349	1338	1327	1309	1272	1217	1183	1196	1214	1279	1292	1301	1301	1298	1275	1267	1266	1254	1259	1262	1275	1278	1273	1242	1230	1226	1217	1219	1220	1238	1254	1253	1246	1230	1212	1202	1218	1236	1255	1267	1276	1285	1284	1267	1271	1266	1268	1270	1265	1250	1239	1225	1206	1174	1164	1154	1160	1152	1145	1154	1166	1167	1159	1139	1104	1082	1076	1080	1082	1074	1060	1062	1072	1088	1104	1115	1107	1094	1081	1076	1083	1088	1090	1086	1086	1076	1054	1046	1059	1078	1098	1099	1100	1111	1116	1153	1171	1157	1128	1104	1126	1143	1139	1133	1135	1121	1104	1083	1068	1065	1051	1038	1025	1016	1008	1017	1030	1057	1073	1081	1074	1069	1062	1058	1059	1061	1065	1061	1052	1040	1040	1035	1029	1020	1020	1034	1067	1067	1054	986	900	889	893	961	964	990	1012	1036	1061	1070	1066	1051	1018	981	972	979	985	985	975	955	937	916	889	849	832	795	783	776	762	754	763	771	772	777	776	774	775	775	775	771	770	762	747	732	719	733	762	778	785	798	815	810	799	799	774	748	719	690	680	684	688	691	674	661	688	695	692	692	683	671	665	659	666	681	688	677	650	635	633	644	644	671	679	671	654	648	649	650	653	670	699	704	704	698	686	679	673	661	657	660	660	652	652	641	638	643	645	667	667	673	681	684	684	677	668	657	665	669	645	631	608	608	591	599	613	619	622	630	625	625	619	616	624	636	626	608	602	602	597	604	601	609	630	643	649	649	643	621	608	594	575	568	568	597	618	624	602	590	624	624	633	640	646	639	636	637	637	646	648	621	589	573	569	569	588	618	630	628	606	606	610	613	602	582	569	569	575	590	601	623	646	646
755	761	724	680	680	663	680	699	701	720	0	0	0	0	0	0	0	0	0	0	0	0	0	0	0	0	0	0	0	0	0	0	0	0	0	0	0	0	0	0	0	0	0	0	771	809	809	819	815	790	757	737	712	699	699	700	725	728	731	726	720	710	720	720	738	739	735	739	748	753	743	721	721	704	713	742	761	775	759	701	696	681	681	682	698	723	752	745	740	741	745	760	760	757	744	725	706	702	705	705	706	709	714	721	721	728	735	734	725	708	686	687	677	690	702	732	732	741	734	713	691	676	671	671	687	707	734	753	777	813	829	829	809	810	808	801	812	813	824	849	858	878	892	885	868	860	866	866	893	926	948	953	942	896	881	894	896	882	875	884	915	947	982	1004	1023	1045	1046	1046	1036	1036	1042	1062	1070	1089	1073	1097	1136	1136	1120	1101	1087	1068	1056	1041	1040	1049	1071	1087	1093	1095	1104	1112	1099	1091	1091	1094	1124	1171	1195	1195	1187	1177	1153	1141	1139	1144	1150	1148	1144	1155	1169	1177	1218	1243	1252	1249	1244	1236	1201	1170	1138	1140	1156	1169	1172	1166	1157	1137	1135	1130	1136	1139	1128	1118	1114	1130	1160	1160	1156	1157	1157	1165	1169	1179	1178	1178	1164	1158	1171	1163	1157	1124	1112	1115	1131	1144	1171	1192	1219	1228	1230	1225	1218	1204	1188	1189	1200	1209	1224	1222	1217	1201	1180	1156	1155	1162	1181	1212	1221	1229	1234	1232	1206	1206	1211	1217	1218	1223	1195	1154	1166	1192	1257	1276	1288	1282	1267	1253	1248	1251	1217	1212	1217	1235	1258	1280	1282	1285	1278	1266	1254	1256	1224	1186	1141	1128	1186	1259	1280	1296	1300	1292	1284	1278	1274	1263	1249	1245	1246	1241	1224	1213	1197	1172	1160	1155	1204	1236	1250	1251	1245	1238	1221	1217	1214	1222	1247	1263	1261	1248	1231	1238	1253	1254	1249	1246	1234	1222	1205	1200	1170	1157	1134	1121	1125	1116	1131	1155	1168	1166	1152	1130	1097	1059	1044	1035	1033	1046	1051	1053	1063	1072	1085	1092	1090	1077	1075	1076	1084	1090	1096	1096	1092	1079	1065	1055	1060	1071	1079	1105	1100	1111	1122	1137	1151	1123	1101	1101	1096	1110	1112	1109	1107	1098	1084	1066	1049	1048	1046	1038	1022	1004	1006	1017	1035	1049	1063	1061	1046	1031	1023	1048	1057	1069	1072	1070	1064	1064	1051	1042	1032	1016	1015	1031	1042	1053	1055	1047	1012	998	990	993	998	1008	1021	1041	1061	1069	1070	1055	1014	980	955	963	963	978	976	966	943	916	888	856	834	799	788	777	762	753	753	758	765	772	785	785	785	775	767	767	765	766	754	730	719	733	750	764	755	766	788	794	774	774	746	728	707	682	672	676	685	681	671	664	678	691	682	682	668	660	654	650	643	648	654	663	662	659	655	644	644	653	663	673	667	647	636	645	654	677	699	699	704	696	688	677	670	666	654	658	650	644	644	630	630	643	645	645	648	655	609	602	602	621	648	673	664	648	634	622	578	578	587	600	615	637	648	650	646	646	634	626	623	617	610	602	600	600	603	613	616	609	622	642	642	642	630	611	567	546	534	528	528	553	590	624	602	590	593	593	609	618	625	624	627	617	617	608	627	634	606	574	558	558	561	575	552	562	574	574	590	593	590	571	563	563	570	587	602	619	635	635
738	757	719	671	665	665	661	672	685	696	0	0	0	0	0	0	0	0	0	0	0	0	0	0	0	0	0	0	0	0	0	707	702	694	694	713	729	728	702	702	673	670	697	728	751	752	752	751	739	715	682	663	659	661	661	670	697	720	737	733	728	725	725	725	730	716	715	724	735	741	743	741	741	731	723	725	726	725	714	701	696	678	678	684	697	726	749	744	740	738	743	767	767	762	746	723	701	699	705	705	706	706	710	713	713	724	734	733	722	706	688	674	685	693	707	742	742	746	737	712	689	671	665	670	684	710	732	749	778	804	820	820	796	794	791	784	796	801	814	832	858	878	840	861	869	872	875	875	865	851	857	895	892	874	879	885	888	890	897	914	931	963	1002	1034	1063	1083	1086	1081	1081	1074	1071	1080	1099	1133	1171	1177	1183	1198	1227	1224	1208	1182	1165	1171	1185	1183	1148	1080	1076	1084	1088	1096	1099	1099	1109	1109	1123	1166	1199	1208	1181	1160	1133	1117	1119	1124	1126	1129	1136	1136	1151	1184	1228	1252	1251	1244	1231	1212	1189	1172	1140	1128	1140	1156	1168	1184	1179	1154	1140	1135	1137	1136	1128	1118	1072	1063	1070	1091	1153	1166	1168	1168	1177	1184	1183	1175	1160	1160	1165	1167	1133	1115	1101	1109	1124	1143	1171	1194	1209	1207	1205	1188	1176	1180	1188	1189	1184	1204	1205	1218	1215	1193	1116	1069	1083	1107	1126	1147	1166	1191	1192	1183	1178	1186	1195	1200	1199	1176	1153	1033	1085	1110	1192	1246	1255	1246	1241	1232	1234	1217	1199	1178	1165	1167	1176	1194	1199	1195	1199	1214	1231	1234	1206	1166	1133	1141	1186	1241	1259	1267	1278	1267	1268	1266	1263	1232	1212	1197	1187	1186	1193	1187	1174	1157	1143	1148	1165	1205	1229	1246	1249	1245	1232	1213	1202	1194	1175	1109	1148	1184	1197	1220	1238	1242	1235	1208	1190	1169	1165	1144	1133	1127	1111	1098	1086	1096	1110	1123	1146	1158	1155	1130	1087	1048	1023	1031	1033	1042	1049	1060	1065	1073	1083	1086	1085	1078	1074	1076	1082	1094	1094	1094	1093	1080	1064	1053	1053	1054	1079	1105	1109	1119	1125	1123	1119	1108	1092	1083	1079	1080	1078	1079	1075	1059	1033	1022	1048	1062	1059	1057	1051	1042	1014	1021	1041	1057	1067	1047	1010	990	1002	1011	1032	1061	1052	1055	1057	1057	1042	1034	1014	1000	1018	1031	1050	1045	1042	1041	1011	995	992	993	997	1006	1016	1031	1033	1038	1049	1040	1002	966	935	933	933	947	960	956	932	901	874	850	829	814	802	781	763	750	745	747	757	766	782	786	786	776	772	761	754	755	754	730	725	731	747	751	746	751	758	775	767	767	736	716	707	695	689	678	665	658	661	665	682	689	680	680	670	657	651	641	631	631	641	650	656	662	659	649	649	654	661	668	672	661	661	661	668	682	692	692	692	689	683	676	663	660	647	643	638	635	635	630	630	627	638	638	641	624	619	619	624	639	653	658	654	635	619	596	596	598	592	601	617	639	652	653	649	649	645	633	625	612	601	601	609	609	613	621	620	615	628	630	629	629	620	598	575	565	565	559	559	553	590	604	595	577	573	573	588	606	621	631	631	604	604	602	601	614	616	605	605	586	562	541	568	570	572	572	581	589	584	576	567	567	569	583	600	623	628	628
714	727	727	701	656	656	626	621	631	635	638	638	666	678	660	648	650	650	674	692	706	688	659	661	661	682	695	700	703	702	707	707	702	688	697	708	721	719	696	696	670	673	692	728	746	752	752	750	737	715	683	670	660	662	666	666	690	719	728	729	721	716	724	724	728	716	712	720	738	746	749	743	743	736	729	724	725	723	705	698	692	678	678	655	680	693	699	695	712	733	756	752	752	743	728	714	691	673	660	666	683	690	679	654	654	643	659	683	697	697	667	637	622	634	652	673	689	689	694	695	688	678	668	676	706	733	748	749	753	771	786	786	793	791	796	808	819	810	803	798	801	821	840	861	860	856	850	833	833	819	825	856	861	853	847	857	883	883	888	902	918	952	986	1020	1048	1067	1074	1073	1073	1076	1082	1094	1110	1144	1181	1202	1211	1214	1224	1226	1206	1181	1167	1173	1180	1179	1140	1066	1055	1059	1065	1088	1085	1085	1102	1102	1123	1162	1189	1194	1165	1137	1105	1088	1078	1110	1109	1108	1109	1120	1156	1176	1208	1234	1239	1218	1195	1191	1169	1143	1118	1106	1118	1130	1142	1180	1179	1157	1145	1147	1130	1117	1109	1092	1072	1063	1070	1105	1134	1170	1176	1176	1177	1186	1180	1168	1159	1152	1159	1132	1110	1102	1096	1100	1115	1136	1157	1188	1193	1189	1180	1170	1173	1186	1187	1189	1176	1189	1186	1187	1170	1120	1046	1046	1063	1082	1104	1118	1126	1122	1111	1122	1149	1163	1179	1181	1172	1154	1157	1032	1095	1109	1111	1145	1161	1196	1211	1216	1222	1211	1196	1165	1160	1162	1165	1172	1178	1182	1183	1192	1208	1211	1202	1175	1149	1153	1189	1231	1243	1244	1238	1235	1239	1237	1215	1197	1183	1176	1173	1164	1163	1164	1168	1156	1145	1145	1155	1177	1199	1213	1217	1212	1199	1180	1159	1110	1097	1097	1121	1140	1167	1185	1201	1216	1202	1188	1164	1136	1114	1098	1090	1070	1060	1065	1076	1083	1092	1100	1117	1135	1147	1144	1101	1047	1040	1039	1047	1055	1067	1070	1073	1081	1085	1089	1080	1075	1073	1071	1076	1090	1097	1097	1096	1090	1073	1062	1053	1054	1064	1074	1086	1089	1088	1088	1074	1065	1058	1050	1038	1019	1015	1003	994	996	996	1003	1021	1065	1080	1073	1066	1054	1043	1040	1047	1047	1051	1039	1012	988	981	991	1009	1011	1002	999	1013	1013	1011	1011	1006	997	999	1013	1038	1041	1027	1013	1005	989	983	983	978	978	958	947	954	969	946	952	950	946	927	929	929	942	951	941	918	887	858	836	821	809	788	769	755	750	742	741	740	749	769	783	783	778	771	759	754	755	736	730	730	737	749	764	762	756	762	766	749	749	713	709	701	694	688	675	661	650	652	665	683	688	682	682	674	664	654	641	624	613	618	629	642	650	648	648	648	651	656	663	665	663	652	638	654	681	692	692	690	684	680	673	659	651	644	637	638	638	635	624	617	618	619	623	625	621	622	622	627	645	647	644	611	599	593	599	599	608	612	603	608	631	647	653	647	647	637	630	626	611	598	602	615	615	629	638	636	617	604	606	612	612	606	590	572	568	565	559	559	544	564	585	580	570	562	562	567	592	620	631	633	620	620	605	614	611	607	614	614	617	612	603	595	587	581	581	578	574	568	554	555	555	561	573	594	615	608	608
706	719	716	687	644	644	627	629	621	631	658	658	690	682	673	666	687	699	699	713	706	686	668	665	665	680	686	687	686	686	679	679	678	688	697	708	690	680	677	677	675	675	682	691	693	672	642	642	619	627	640	655	667	681	699	699	700	690	682	663	664	668	671	671	690	695	691	694	694	696	704	729	729	716	689	665	654	638	629	610	615	627	627	655	680	689	692	692	701	722	740	741	721	721	710	702	692	682	672	672	678	680	668	648	648	638	648	667	685	686	661	641	640	650	667	678	686	686	684	686	693	686	678	686	704	720	727	730	727	747	766	766	773	779	787	800	809	798	793	786	787	804	827	844	860	811	802	794	794	799	813	832	840	838	832	838	854	863	867	882	904	934	970	997	1027	1047	1055	1062	1062	1064	1074	1092	1118	1151	1182	1202	1197	1198	1198	1213	1202	1181	1164	1164	1166	1135	1077	1043	1033	1033	1052	1062	1069	1075	1082	1082	1104	1126	1162	1155	1135	1112	1086	1062	1062	1073	1096	1097	1102	1113	1138	1166	1183	1195	1193	1184	1171	1159	1129	1114	1083	1068	1081	1094	1109	1122	1144	1147	1150	1144	1118	1091	1081	1070	1059	1055	1070	1105	1123	1148	1161	1154	1154	1163	1166	1117	1086	1084	1089	1099	1094	1076	1082	1089	1112	1132	1155	1178	1179	1167	1147	1136	1151	1167	1164	1153	1138	1140	1146	1143	1126	1075	1047	1046	1060	1077	1095	1105	1106	1102	1095	1101	1120	1143	1159	1155	1140	1140	1152	1168	1141	1134	1129	1136	1150	1162	1185	1202	1207	1201	1176	1149	1152	1151	1150	1149	1153	1157	1157	1161	1180	1199	1207	1195	1169	1154	1181	1214	1232	1226	1221	1205	1205	1191	1170	1165	1162	1156	1154	1161	1154	1158	1160	1148	1141	1135	1147	1173	1182	1190	1183	1181	1165	1146	1128	1105	1095	1100	1121	1129	1151	1159	1168	1189	1182	1171	1153	1122	1059	1035	1030	1029	1039	1059	1072	1072	1069	1071	1079	1110	1134	1106	1067	1062	1057	1058	1062	1066	1071	1074	1074	1087	1093	1096	1085	1069	1065	1061	1072	1082	1082	1098	1107	1100	1073	1062	1053	1059	1057	1060	1065	1071	1070	1067	1061	1048	1037	1027	1004	957	902	904	947	991	994	1022	1066	1092	1106	1090	1080	1066	1052	1034	1015	1008	1025	1017	1000	981	966	963	984	982	980	976	976	969	962	965	975	974	982	988	1000	1008	1002	1000	999	992	973	969	965	963	954	943	936	943	939	949	941	930	915	915	923	941	938	927	909	865	833	808	800	790	771	754	724	721	724	731	739	740	731	736	736	752	771	759	746	741	733	725	730	741	760	778	764	750	730	713	713	698	708	702	699	696	685	675	665	649	637	669	679	681	675	675	669	663	658	641	625	610	607	613	626	644	651	651	651	653	655	662	664	659	626	630	638	653	672	672	696	694	680	664	654	650	644	637	633	633	628	617	608	608	610	612	610	607	614	614	633	650	641	618	615	602	601	606	606	618	618	609	607	626	637	642	636	636	624	611	611	610	620	625	632	632	625	630	625	610	595	591	591	590	593	576	572	568	565	564	564	561	562	574	576	574	562	562	576	603	616	633	638	625	625	615	609	603	601	609	609	615	621	614	607	601	601	599	592	563	552	539	540	540	545	557	574	596	596	602
652	634	630	640	640	640	635	631	625	631	653	653	693	690	683	678	702	721	721	695	680	663	654	673	672	672	674	672	662	660	658	663	663	671	691	698	690	680	682	682	699	718	717	709	697	675	640	640	618	611	619	629	653	680	701	701	709	705	682	668	665	666	668	668	689	694	692	692	692	692	694	711	706	706	697	672	653	643	633	618	618	622	622	646	675	689	692	692	685	706	720	719	700	700	683	682	687	684	678	676	670	661	656	641	641	634	643	663	673	679	691	675	664	676	697	689	676	676	671	673	684	693	689	687	694	702	698	688	692	712	734	734	748	763	768	777	781	777	770	765	764	787	803	826	829	811	802	783	783	789	808	830	833	825	818	815	819	835	841	855	880	903	941	973	996	1025	1036	1045	1044	1044	1059	1087	1120	1158	1175	1178	1171	1169	1169	1163	1161	1152	1142	1141	1129	1081	1055	1038	1034	1030	1040	1049	1061	1050	1054	1063	1063	1096	1124	1136	1121	1094	1075	1062	1060	1072	1088	1093	1104	1113	1125	1131	1139	1133	1118	1105	1096	1101	1101	1096	1075	1031	1013	1038	1057	1062	1067	1091	1134	1125	1089	1065	1064	1060	1057	1063	1084	1106	1123	1148	1068	1053	1053	1057	1054	1064	1067	1064	1054	1012	973	998	1017	1059	1065	1061	1103	1134	1129	1105	1116	1104	1109	1127	1120	1114	1093	1090	1098	1101	1095	1062	1049	1045	1053	1066	1081	1091	1088	1087	1087	1091	1103	1119	1122	1113	1112	1131	1157	1184	1192	1179	1160	1147	1153	1156	1165	1183	1183	1158	1127	1128	1132	1133	1127	1123	1131	1142	1142	1144	1146	1147	1160	1123	1080	1058	1107	1169	1183	1190	1196	1188	1173	1144	1138	1127	1133	1128	1142	1148	1147	1147	1141	1138	1132	1133	1140	1175	1182	1183	1173	1160	1146	1141	1128	1109	1101	1105	1117	1129	1131	1132	1092	1076	1071	1060	1047	1034	1019	1022	1012	1010	1026	1054	1064	1059	1049	1047	1020	1014	1025	1047	1059	1066	1075	1076	1071	1063	1064	1060	1064	1082	1094	1098	1090	1084	1067	1060	1067	1076	1076	1096	1107	1100	1082	1070	1065	1067	1065	1056	1058	1067	1066	1061	1045	1025	1022	1001	900	888	897	908	953	1003	1037	1067	1085	1094	1099	1094	1083	1073	1059	1031	1001	975	970	963	972	963	924	919	909	904	906	911	911	918	931	940	948	959	969	976	970	964	971	980	996	991	975	964	962	969	962	940	921	917	918	921	905	901	896	896	911	927	922	903	870	819	798	787	771	757	733	723	721	729	736	733	724	710	684	684	736	752	764	748	736	722	706	714	718	710	728	736	701	676	667	666	666	679	692	695	698	696	686	674	661	642	627	628	656	661	661	653	653	661	656	648	630	611	599	602	608	641	653	653	657	656	663	668	665	650	621	620	622	636	654	654	672	677	650	636	654	650	641	634	634	634	624	615	608	604	608	605	603	603	617	617	653	648	641	639	628	621	614	612	612	616	616	612	615	622	625	621	621	594	584	569	571	587	591	586	588	588	595	599	603	598	595	582	582	590	593	576	569	563	559	565	565	571	575	578	580	584	587	587	613	618	611	619	626	626	615	611	604	598	594	598	598	606	614	609	603	594	594	595	578	567	537	530	530	529	543	554	560	596	596	602
