0	0	0	0	0	0	0	0	0	0	0	0	0	0	0	0	0	0	0	0	0	0	0	0	0	0	0	0	0	0	0	0	0	0	0	0	0	0	0	0	0	0	0	0	0	0	0	0	0	0	0	0	0	0	0	0	0	0	0	0	0	0	0	0	0	0	0	0	0	0	0	0	0	0	0	0	0	0	0	0	0	0	0	0	0	0	0	0	0	0	0	0	0	0	0	0	0	0	0	0	0	0	0	0	0	0	0	0	0	0	0	0	0	0	0	0	0	0	0	0	0	0	0	0	0	0	0	0	0	0	0	0	0	0	0	0	0	0	0	1424	1471	1471	1550	1617	1638	1632	1644	1657	1662	1661	1651	1651	1662	1667	1672	1671	1697	1729	1742	1732	1732	1716	1713	1719	1729	1725	1708	1729	1748	1752	1743	1746	1748	1732	1731	1731	1727	1720	1723	1717	1708	1711	1734	1775	1794	1798	1798	1782	1758	1741	1723	1686	1685	1696	1722	1739	1750	1755	1760	1777	1789	1800	1803	1794	1779	1775	1776	1802	1817	1819	1788	1736	1693	1684	1671	1651	1627	1621	1639	1663	1667	1658	1663	1684	1725	1752	1736	1712	1712	1677	1686	1703	1733	1752	1742	1738	1735	1720	1715	1726	1755	1800	1825	1825	1813	1758	1736	1750	1754	1745	1724	1733	1752	1764	1764	1771	1780	1806	1820	1807	1768	1734	1730	1734	1738	1735	1736	1749	1747	1729	1725	1745	1750	1760	1770	1772	1762	1768	1778	1801	1813	1803	1789	1795	1821	1831	1850	1847	1831	1820	1815	1804	1799	1782	1763	1737	1705	1701	1731	1746	1765	1778	1853	1872	1907	1918	1908	1916	1924	1916	1906	1903	1910	1907	1912	1921	1924	1930	1922	1922	1913	1905	1890	1871	1847	1843	1845	1874	1898	1902	1904	1913	1879	1866	1853	1810	1804	1815	1847	1868	1873	1901	1921	1903	1872	1829	1790	1767	1760	1761	1771	1793	1802	1809	1829	1833	1823	1805	1802	1792	1764	1723	1687	1673	1673	1702	1739	1754	1758	1755	1760	1774	1793	1796	1782	1749	1726	1712	1697	1697	1681	1695	1691	1706	1702	1695	1679	1678	1693	1696	1707	1702	1690	1671	1684	1713	1705	1695	1698	1714	1730	1736	1728	1694	1694	1674	1648	1627	1596	1575	1573	1589	1612	1646	1643	1649	1673	1690	1697	1693	1686	1687	1693	1706	1728	1727	1731	1745	1741	1735	1741	1753	1743	1746	1727	1705	1683	1693	1700	1715	1723	1723	1694	1669	1654	1667	1667	1724	1738	1746	1729	1729	1732	1732	1737	1738	1737	1753	1767	1765	1750	1714	1679	1660	1671	1681	1715	1711	1695	1674	1661	1661	1644	1641	1630	1641	1652	1648	1632	1614	1596	1567	1553	1560	1572	1575	1572	1554	1528	1491	1464	1464	1449	1404	1417	1439	1457	1457	1411	1370	1359	1354	1335	1314	1307	1319	1324	1324	1344	1349	1338	1323	1303	1306	1319	1328	1332	1312	1285	1273	1273	1273	1270	1251	1255	1276	1308	1313	1298	1277	1248	1237	1233	1233	1250	1266	1273	1253	1237	1233	1245	1256	1244	1250	1250	1243	1242	1249	1257	1253	1258	1244	1217	1184	1184	1158	1144	1114	1105	1117	0	0	0	0	0	0	0	0	0	0	0	0	0	0	0	0	0	0	0	0	0	0	0	0	0	0	0	0	0	0	0	0	0	0	0	0	0	0	0	0	0	0	0	0	0	0	0	0	0	0	0	0	0	0	0	0	0	0	0	0	0	0	0	0	0	0	0	0	0	0	0	0	0	0	0	0	0	0	0	0
0	0	0	0	0	0	0	0	0	0	0	0	0	0	0	0	0	0	0	0	0	0	0	0	0	0	0	0	0	0	0	0	0	0	0	0	0	0	0	0	0	0	0	0	0	0	0	0	0	0	0	0	0	0	0	0	0	0	0	0	0	0	0	0	0	0	0	0	0	0	0	0	0	0	0	0	0	0	0	0	0	0	0	0	0	0	0	0	0	0	0	0	0	0	0	0	0	0	0	0	0	0	0	0	0	0	0	0	0	0	0	0	0	0	0	0	0	0	0	0	0	0	0	0	0	0	0	0	0	0	0	0	0	0	0	0	0	1292	1343	1399	1436	1436	1534	1572	1597	1623	1644	1662	1673	1662	1646	1642	1648	1654	1657	1656	1668	1693	1684	1688	1688	1689	1693	1693	1692	1702	1708	1729	1752	1750	1742	1736	1740	1728	1727	1734	1718	1702	1705	1705	1711	1715	1727	1767	1791	1800	1800	1804	1783	1760	1721	1679	1678	1687	1723	1736	1744	1757	1743	1753	1773	1785	1797	1788	1775	1773	1789	1829	1839	1828	1758	1723	1698	1683	1659	1629	1598	1592	1606	1628	1628	1631	1627	1651	1707	1753	1752	1728	1728	1703	1700	1715	1733	1737	1728	1723	1720	1711	1714	1730	1777	1825	1836	1831	1805	1767	1743	1734	1743	1736	1724	1708	1731	1736	1734	1727	1743	1773	1799	1769	1732	1702	1698	1701	1699	1710	1719	1719	1713	1710	1736	1750	1746	1750	1738	1730	1728	1728	1760	1788	1798	1796	1785	1790	1806	1840	1851	1835	1806	1792	1804	1798	1785	1758	1749	1733	1705	1704	1728	1781	1799	1812	1866	1862	1901	1924	1935	1934	1948	1946	1917	1891	1892	1891	1899	1898	1911	1918	1912	1899	1892	1883	1874	1851	1839	1831	1845	1865	1886	1900	1888	1906	1888	1895	1865	1834	1798	1787	1820	1857	1870	1873	1869	1861	1839	1809	1779	1748	1743	1750	1758	1775	1786	1792	1814	1836	1834	1820	1803	1794	1747	1687	1631	1614	1638	1690	1748	1767	1756	1734	1734	1750	1766	1779	1774	1709	1690	1683	1683	1694	1686	1688	1675	1673	1663	1660	1668	1677	1683	1692	1683	1677	1689	1678	1688	1714	1733	1726	1718	1711	1716	1725	1715	1715	1675	1649	1637	1615	1601	1590	1589	1592	1605	1636	1615	1635	1653	1671	1670	1661	1652	1640	1637	1655	1665	1671	1678	1699	1702	1699	1648	1581	1543	1578	1693	1705	1680	1674	1690	1722	1743	1734	1717	1686	1681	1692	1692	1729	1742	1728	1708	1692	1702	1714	1704	1695	1692	1701	1720	1732	1700	1686	1664	1660	1671	1681	1690	1701	1687	1671	1657	1657	1645	1632	1624	1625	1640	1641	1628	1606	1587	1559	1563	1565	1577	1584	1570	1547	1524	1499	1476	1476	1445	1394	1400	1412	1421	1427	1429	1402	1378	1355	1328	1314	1296	1297	1295	1295	1294	1306	1310	1297	1279	1270	1288	1287	1291	1275	1248	1249	1258	1258	1260	1255	1246	1242	1246	1248	1252	1238	1242	1236	1228	1228	1236	1242	1225	1210	1222	1229	1237	1238	1242	1220	1220	1200	1204	1202	1216	1219	1258	1238	1197	1156	1156	1124	1112	1094	1082	1103	0	0	0	1148	1148	1107	1073	0	1044	1031	1029	1009	983	983	970	995	0	0	0	0	0	0	0	0	0	0	0	0	0	0	0	0	0	0	0	0	0	0	0	0	0	0	0	0	0	0	0	0	0	0	0	0	0	0	0	0	0	0	0	0	0	0	0	0	0	0	0	0	0	0	0	0	0	0	0	0	0	0	0	0
0	0	0	0	0	0	0	0	0	0	0	0	0	0	0	0	0	0	0	0	0	0	0	0	0	0	0	0	0	0	0	0	0	0	0	0	0	0	0	0	0	0	0	0	0	0	0	0	0	0	0	0	0	0	0	0	0	0	0	0	0	0	0	0	0	0	0	0	0	0	0	0	0	0	0	0	0	0	0	0	0	0	0	0	0	0	0	0	0	0	0	0	0	0	0	0	0	0	0	0	0	0	0	0	0	0	0	0	0	0	0	0	0	0	0	0	0	0	0	0	0	0	0	0	0	0	0	0	0	0	0	0	0	1215	1231	1246	1259	1291	1326	1377	1438	1438	1535	1557	1564	1591	1627	1671	1675	1668	1649	1630	1635	1636	1633	1641	1648	1669	1682	1688	1688	1690	1675	1662	1670	1684	1700	1721	1752	1750	1742	1707	1701	1708	1725	1726	1707	1690	1687	1705	1715	1718	1727	1754	1777	1794	1794	1796	1776	1755	1723	1681	1686	1703	1720	1746	1753	1738	1741	1739	1749	1769	1773	1760	1749	1769	1794	1831	1853	1825	1754	1726	1721	1693	1658	1624	1601	1592	1592	1591	1595	1591	1608	1636	1694	1734	1746	1733	1714	1714	1721	1717	1728	1703	1672	1658	1668	1704	1741	1781	1805	1808	1813	1807	1802	1768	1726	1717	1727	1718	1711	1696	1709	1720	1696	1682	1697	1744	1762	1735	1704	1684	1667	1662	1661	1691	1717	1734	1713	1708	1721	1747	1760	1753	1723	1702	1698	1712	1752	1759	1773	1779	1777	1794	1805	1818	1812	1770	1755	1750	1762	1760	1750	1723	1717	1711	1711	1724	1754	1795	1803	1835	1867	1858	1890	1919	1930	1923	1926	1936	1908	1887	1884	1880	1874	1877	1892	1905	1908	1897	1888	1878	1869	1858	1856	1855	1860	1870	1881	1889	1890	1895	1898	1891	1848	1810	1769	1765	1796	1843	1841	1839	1820	1820	1803	1784	1771	1755	1743	1751	1755	1767	1773	1776	1793	1817	1820	1809	1806	1789	1746	1676	1623	1603	1614	1667	1723	1736	1690	1641	1639	1670	1697	1704	1667	1656	1652	1661	1671	1687	1688	1685	1677	1665	1648	1641	1657	1658	1649	1644	1637	1657	1661	1681	1689	1698	1727	1735	1729	1706	1678	1659	1647	1647	1639	1608	1591	1564	1573	1602	1600	1597	1584	1591	1584	1600	1621	1642	1653	1647	1640	1637	1638	1642	1651	1656	1667	1678	1676	1681	1651	1594	1564	1580	1687	1697	1685	1677	1687	1714	1740	1729	1703	1685	1689	1708	1708	1740	1737	1725	1697	1668	1667	1684	1679	1671	1662	1659	1651	1650	1626	1686	1664	1654	1662	1660	1665	1667	1665	1658	1644	1644	1641	1627	1627	1616	1626	1628	1625	1604	1586	1567	1565	1575	1597	1597	1586	1555	1535	1498	1476	1476	1417	1375	1373	1379	1377	1387	1383	1382	1365	1346	1317	1296	1285	1267	1239	1239	1245	1275	1309	1302	1291	1276	1281	1260	1253	1247	1220	1227	1227	1253	1262	1249	1228	1201	1168	1175	1190	1200	1209	1218	1236	1236	1247	1235	1212	1190	1189	1194	1192	1190	1184	1175	1175	1159	1159	1165	1169	1193	1220	1219	1186	1138	1138	1109	1088	1082	1077	1101	0	0	1141	1128	1128	1089	1041	1008	1008	1002	1000	986	970	970	949	950	987	1020	0	0	0	0	0	0	0	0	0	0	0	0	0	0	0	0	0	0	0	0	0	0	0	0	0	0	0	0	0	0	0	0	0	0	0	0	0	0	0	0	0	0	0	0	0	0	0	0	0	0	0	0	0	0	0	0	0	0	0	0	0	0
0	0	0	0	0	0	0	0	0	0	0	0	0	0	0	0	0	0	0	0	0	0	0	0	0	0	0	0	0	0	0	0	0	0	0	0	0	0	0	0	0	0	0	0	0	0	0	0	0	0	0	0	0	0	0	0	0	0	0	0	0	0	0	0	0	0	0	0	0	0	0	0	0	0	0	0	0	0	0	0	0	0	0	0	0	0	0	0	0	0	0	0	0	0	0	0	0	0	0	0	0	0	0	0	0	0	0	0	0	0	0	0	0	0	0	0	0	0	0	0	0	0	0	0	0	0	0	0	0	0	0	1242	1229	1208	1205	1221	1250	1282	1322	1367	1479	1479	1527	1551	1561	1583	1615	1662	1689	1670	1641	1629	1625	1625	1624	1642	1657	1676	1701	1710	1696	1696	1678	1657	1665	1670	1685	1704	1720	1715	1714	1707	1701	1690	1692	1692	1692	1679	1687	1698	1729	1726	1720	1745	1763	1774	1774	1775	1754	1740	1712	1694	1706	1715	1744	1746	1760	1747	1750	1746	1739	1747	1730	1715	1707	1729	1771	1796	1812	1745	1726	1721	1722	1680	1643	1621	1620	1610	1583	1564	1549	1564	1587	1624	1680	1721	1727	1706	1699	1699	1705	1720	1716	1671	1639	1611	1632	1699	1751	1785	1801	1784	1771	1761	1751	1733	1711	1700	1709	1698	1702	1699	1699	1695	1668	1664	1660	1682	1684	1688	1671	1656	1646	1617	1621	1669	1716	1730	1725	1709	1719	1743	1747	1733	1707	1691	1688	1714	1738	1741	1736	1749	1764	1775	1796	1802	1767	1735	1723	1715	1720	1719	1699	1683	1694	1712	1724	1751	1754	1744	1768	1807	1842	1850	1886	1909	1923	1925	1920	1912	1905	1898	1889	1877	1871	1876	1901	1906	1901	1883	1877	1878	1874	1876	1876	1880	1874	1864	1869	1875	1873	1859	1878	1862	1789	1750	1732	1737	1781	1817	1832	1803	1791	1774	1774	1771	1755	1740	1730	1729	1740	1733	1736	1743	1748	1759	1754	1756	1763	1762	1731	1680	1621	1607	1613	1629	1650	1655	1621	1614	1607	1617	1642	1645	1637	1649	1644	1654	1669	1682	1685	1682	1668	1648	1628	1615	1618	1628	1607	1608	1604	1624	1654	1670	1674	1692	1709	1722	1716	1666	1638	1587	1591	1591	1598	1587	1549	1548	1579	1614	1609	1593	1577	1563	1563	1571	1595	1616	1625	1635	1646	1656	1661	1663	1672	1676	1669	1664	1675	1678	1681	1664	1649	1648	1656	1664	1654	1660	1667	1697	1696	1666	1642	1648	1671	1671	1701	1741	1739	1718	1684	1648	1638	1632	1628	1629	1632	1624	1620	1650	1626	1619	1621	1625	1631	1614	1627	1617	1619	1629	1625	1625	1614	1598	1606	1598	1598	1601	1596	1584	1565	1541	1559	1573	1575	1562	1564	1557	1520	1478	1478	1439	1390	1351	1336	1339	1345	1354	1358	1363	1352	1342	1316	1291	1269	1237	1237	1209	1222	1265	1314	1319	1292	1249	1227	1233	1217	1218	1220	1232	1232	1251	1252	1238	1214	1166	1122	1110	1127	1156	1163	1191	1219	1219	1243	1237	1208	1181	1178	1165	1160	1137	1107	1088	1088	1118	1140	1148	1152	1150	1172	1172	1155	1135	1135	1101	1086	1065	1051	0	0	0	1090	1079	1079	1037	1011	982	969	973	960	944	928	928	949	950	987	1020	1038	0	0	0	0	0	0	0	0	0	0	0	0	0	0	0	0	0	0	0	0	0	0	0	0	0	0	0	0	0	0	0	0	0	0	0	0	0	0	0	0	0	0	0	0	0	0	0	0	0	0	0	0	0	0	0	0	0	0	0	0	0
0	0	0	0	0	0	0	0	0	0	0	0	0	0	0	0	0	0	0	0	0	0	0	0	0	0	0	0	0	0	0	0	0	0	0	0	0	0	0	0	0	0	0	0	0	0	0	0	0	0	0	0	0	0	0	0	0	0	0	0	0	0	0	0	0	0	0	0	0	0	0	0	0	0	0	0	0	0	0	0	0	0	0	0	0	0	0	0	0	0	0	0	0	0	0	0	0	0	0	0	0	0	0	0	0	0	0	0	0	0	0	0	0	0	0	0	0	0	0	0	0	0	0	0	0	0	0	0	0	0	0	1230	1217	1184	1180	1208	1246	1289	1320	1366	1480	1480	1532	1561	1568	1576	1604	1643	1665	1664	1642	1623	1607	1603	1608	1625	1655	1688	1703	1699	1685	1685	1668	1664	1668	1673	1672	1667	1671	1668	1664	1676	1687	1690	1692	1692	1645	1650	1674	1698	1719	1711	1715	1730	1760	1760	1760	1745	1731	1727	1702	1693	1704	1721	1726	1736	1746	1754	1753	1751	1742	1720	1707	1668	1657	1688	1723	1729	1703	1682	1669	1675	1654	1624	1620	1605	1622	1627	1600	1556	1532	1531	1558	1608	1659	1682	1679	1663	1665	1665	1679	1702	1696	1663	1615	1599	1603	1660	1744	1724	1722	1702	1690	1687	1692	1686	1674	1659	1665	1648	1678	1689	1690	1667	1648	1625	1631	1605	1596	1616	1614	1612	1598	1562	1570	1627	1688	1717	1718	1685	1670	1666	1642	1631	1629	1643	1670	1699	1708	1694	1707	1729	1745	1759	1782	1782	1746	1714	1705	1709	1708	1696	1666	1659	1663	1696	1713	1721	1708	1710	1730	1779	1820	1837	1884	1903	1916	1908	1899	1893	1892	1904	1898	1896	1894	1900	1895	1869	1841	1832	1831	1865	1878	1884	1893	1899	1888	1862	1856	1858	1853	1853	1829	1803	1734	1704	1697	1724	1770	1800	1801	1791	1758	1752	1745	1750	1739	1731	1709	1693	1685	1691	1713	1705	1696	1681	1677	1681	1692	1704	1698	1665	1634	1610	1600	1605	1611	1602	1590	1587	1590	1606	1614	1617	1614	1629	1642	1651	1663	1670	1685	1682	1666	1632	1610	1608	1616	1610	1589	1577	1582	1618	1652	1665	1665	1660	1672	1693	1688	1657	1613	1572	1568	1568	1572	1561	1545	1551	1583	1624	1620	1595	1565	1556	1539	1566	1581	1589	1603	1603	1631	1647	1661	1673	1678	1679	1664	1655	1662	1666	1671	1645	1621	1613	1622	1628	1622	1620	1632	1628	1621	1595	1576	1580	1619	1619	1674	1748	1748	1719	1660	1632	1610	1588	1598	1616	1632	1624	1620	1601	1577	1585	1597	1605	1602	1582	1566	1567	1581	1589	1590	1590	1574	1566	1562	1554	1560	1554	1545	1534	1524	1515	1501	1490	1486	1466	1474	1481	1468	1441	1441	1405	1362	1341	1328	1330	1317	1312	1318	1329	1341	1338	1331	1298	1260	1219	1219	1192	1188	1247	1287	1297	1273	1220	1192	1196	1208	1206	1209	1237	1237	1245	1235	1217	1184	1155	1110	1094	1100	1122	1132	1142	1171	1171	1193	1198	1183	1179	1166	1164	1135	1102	1066	1052	1052	1075	1126	1133	1121	1110	1113	1121	1135	1127	1127	1104	1078	1045	1023	0	0	1033	1032	1037	1037	1025	994	966	955	942	960	944	928	928	915	915	945	972	989	0	0	0	0	0	0	0	0	0	0	0	0	0	0	0	0	0	0	0	0	0	0	0	0	0	0	0	0	0	0	0	0	0	0	0	0	0	0	0	0	0	0	0	0	0	0	0	0	0	0	0	0	0	0	0	0	0	0	0	0	0
0	0	0	0	0	0	0	0	0	0	0	0	0	0	0	0	0	0	0	0	0	0	0	0	0	0	0	0	0	0	0	0	0	0	0	0	0	0	0	0	0	0	0	0	0	0	0	0	0	0	0	0	0	0	0	0	0	0	0	0	0	0	0	0	0	0	0	0	0	0	0	0	0	0	0	0	0	0	0	0	0	0	0	0	0	0	0	0	0	0	0	0	0	0	0	0	0	0	0	0	0	0	0	0	0	1071	1069	1045	0	0	0	0	0	0	0	0	0	0	0	0	0	0	0	0	0	0	0	0	0	0	0	0	1199	1180	1177	1202	1242	1292	1331	1382	1478	1478	1542	1562	1558	1558	1566	1604	1630	1637	1631	1616	1598	1575	1574	1588	1623	1652	1666	1665	1655	1655	1651	1653	1650	1635	1636	1623	1621	1637	1636	1660	1671	1657	1653	1645	1645	1650	1655	1682	1687	1693	1698	1717	1757	1750	1728	1728	1707	1707	1698	1685	1692	1700	1704	1706	1713	1734	1748	1742	1726	1708	1676	1649	1639	1663	1683	1685	1655	1637	1630	1627	1624	1604	1601	1609	1630	1620	1599	1554	1525	1524	1553	1591	1624	1629	1594	1564	1588	1588	1633	1675	1682	1653	1620	1601	1590	1586	1598	1633	1640	1603	1594	1590	1594	1567	1564	1574	1599	1612	1624	1633	1633	1630	1614	1607	1605	1590	1553	1533	1540	1559	1553	1547	1540	1565	1616	1643	1648	1623	1593	1571	1560	1575	1598	1618	1649	1674	1690	1688	1692	1708	1736	1758	1759	1754	1740	1721	1711	1703	1702	1678	1656	1640	1651	1666	1675	1675	1689	1691	1714	1761	1815	1842	1878	1899	1901	1891	1884	1871	1888	1859	1848	1831	1831	1817	1809	1818	1812	1811	1819	1849	1877	1889	1907	1911	1900	1879	1847	1840	1842	1840	1818	1778	1720	1687	1676	1688	1747	1790	1784	1760	1747	1727	1727	1729	1723	1706	1688	1676	1660	1675	1698	1686	1651	1628	1613	1612	1638	1659	1662	1659	1630	1610	1606	1606	1595	1586	1581	1579	1585	1591	1601	1585	1585	1613	1640	1651	1654	1655	1662	1667	1642	1612	1591	1594	1608	1610	1596	1583	1594	1604	1625	1652	1649	1647	1649	1669	1675	1655	1618	1583	1583	1568	1562	1558	1547	1561	1588	1622	1616	1594	1556	1538	1536	1566	1577	1577	1573	1576	1580	1604	1630	1641	1628	1638	1624	1609	1626	1636	1629	1602	1569	1554	1568	1591	1589	1579	1570	1556	1565	1547	1525	1521	1566	1566	1635	1755	1748	1721	1655	1623	1594	1589	1598	1616	1631	1621	1611	1586	1576	1584	1600	1614	1608	1584	1558	1549	1559	1556	1539	1539	1538	1533	1522	1519	1517	1522	1512	1515	1507	1496	1491	1474	1455	1436	1416	1417	1422	1414	1414	1404	1372	1361	1344	1328	1286	1277	1297	1320	1332	1327	1309	1288	1266	1222	1222	1193	1176	1201	1236	1238	1224	1186	1160	1169	1187	1195	1197	1217	1217	1232	1222	1198	1172	1150	1129	1104	1100	1115	1104	1090	1090	1099	1133	1152	1147	1153	1165	1166	1137	1102	1054	1032	1032	1045	1081	1098	1093	1064	1061	1070	1093	1115	1115	1091	1051	1010	992	995	1013	1003	1010	988	988	975	994	966	955	942	934	930	930	905	888	895	912	949	959	0	0	0	0	0	0	0	0	0	0	0	0	0	0	0	924	962	962	0	0	0	0	0	0	0	0	0	0	0	0	0	0	0	0	0	0	0	0	0	0	0	0	0	0	0	0	0	0	0	0	0	0	0	0	0	0	0	0	0	0	0
0	0	0	0	0	0	0	0	0	0	0	0	0	0	0	0	0	0	0	0	0	0	0	0	0	0	0	0	0	0	0	0	0	0	0	0	0	0	0	0	0	0	0	0	0	0	0	0	0	0	0	0	0	0	0	0	0	0	0	0	0	0	0	0	0	0	0	0	0	0	0	0	0	0	0	0	0	0	0	0	0	0	0	0	0	0	0	0	0	0	0	0	0	0	0	0	0	0	0	0	0	0	0	0	0	1020	1032	1030	1034	1066	0	0	0	0	0	0	0	0	0	0	0	0	0	0	0	0	0	0	0	0	0	0	0	1177	1186	1224	1255	1277	1320	1381	1485	1528	1528	1527	1519	1511	1528	1559	1591	1604	1610	1595	1569	1557	1546	1544	1584	1604	1627	1619	1628	1628	1638	1629	1614	1604	1597	1603	1612	1626	1639	1653	1663	1638	1620	1617	1623	1648	1655	1682	1677	1675	1664	1688	1746	1747	1720	1720	1699	1682	1672	1648	1645	1661	1678	1672	1683	1687	1707	1704	1688	1673	1656	1631	1635	1648	1665	1651	1627	1602	1597	1593	1597	1592	1586	1594	1596	1587	1578	1546	1523	1537	1568	1597	1592	1555	1518	1498	1510	1561	1561	1608	1624	1615	1605	1590	1593	1568	1552	1549	1528	1523	1525	1531	1527	1520	1520	1548	1564	1583	1582	1580	1574	1582	1589	1589	1573	1561	1544	1543	1532	1545	1552	1549	1550	1563	1606	1622	1618	1601	1581	1570	1576	1576	1590	1627	1663	1688	1701	1705	1698	1720	1752	1759	1748	1720	1711	1704	1700	1701	1688	1666	1646	1628	1628	1616	1596	1617	1660	1676	1699	1759	1836	1866	1893	1896	1890	1882	1883	1861	1844	1826	1808	1786	1766	1768	1779	1796	1811	1811	1823	1843	1866	1888	1909	1918	1913	1887	1851	1836	1838	1838	1832	1800	1742	1707	1675	1670	1679	1744	1758	1746	1733	1714	1713	1711	1704	1702	1694	1679	1692	1705	1705	1700	1667	1616	1611	1610	1618	1634	1643	1641	1628	1615	1608	1608	1601	1591	1572	1559	1570	1589	1591	1578	1585	1603	1630	1636	1627	1624	1632	1640	1615	1589	1575	1584	1605	1611	1594	1579	1573	1584	1616	1641	1660	1656	1653	1656	1658	1638	1597	1572	1572	1561	1550	1533	1536	1553	1568	1579	1589	1572	1547	1513	1516	1539	1563	1563	1553	1542	1542	1556	1579	1581	1562	1540	1534	1542	1553	1561	1570	1563	1532	1529	1536	1554	1565	1550	1537	1511	1502	1498	1474	1488	1555	1555	1654	1744	1738	1716	1654	1636	1594	1589	1596	1606	1622	1625	1611	1597	1592	1614	1629	1636	1626	1600	1569	1551	1544	1523	1523	1508	1495	1504	1492	1488	1475	1483	1485	1485	1478	1475	1467	1452	1439	1418	1401	1400	1416	1412	1412	1414	1398	1390	1367	1325	1289	1292	1318	1333	1322	1307	1284	1264	1254	1234	1234	1202	1170	1153	1171	1184	1189	1172	1157	1163	1180	1178	1171	1190	1190	1217	1195	1168	1137	1125	1115	1108	1109	1098	1076	1059	1059	1067	1086	1116	1131	1151	1174	1181	1158	1112	1064	1040	1040	1038	1056	1067	1048	1036	1019	1025	1049	1057	1057	1042	1006	971	988	1001	1009	999	973	1010	988	975	975	954	941	933	934	914	914	887	886	888	915	932	947	947	932	932	876	830	820	824	0	0	0	0	0	906	883	891	882	894	894	918	940	921	914	915	0	0	0	0	0	0	0	0	0	0	0	0	0	0	0	0	0	0	0	0	0	0	0	0	0	0	0	0	0	0	0	0	0	0	0	0	0	0
0	0	0	0	0	0	0	0	0	0	0	0	0	0	0	0	0	0	0	0	0	0	0	0	0	0	0	0	0	0	0	0	0	0	0	0	0	0	0	0	0	0	0	0	0	0	0	0	0	0	0	0	0	0	0	0	0	0	0	0	0	0	0	0	0	0	0	0	0	0	0	0	0	0	0	0	0	0	0	0	0	0	0	0	0	0	0	0	0	0	0	0	0	0	0	0	0	0	0	0	0	0	0	0	0	0	0	1026	1037	1081	0	0	0	0	0	0	0	0	0	0	0	0	0	0	0	0	0	0	0	0	0	0	0	1158	1178	1199	1237	1249	1271	1330	1440	1465	1465	1458	1445	1447	1483	1533	1559	1579	1585	1571	1556	1542	1533	1523	1550	1569	1591	1624	1631	1631	1631	1609	1590	1581	1581	1582	1598	1617	1634	1652	1651	1639	1629	1622	1619	1624	1645	1662	1677	1675	1635	1654	1725	1723	1694	1694	1673	1658	1640	1609	1600	1611	1621	1634	1630	1647	1648	1640	1633	1621	1613	1616	1616	1627	1643	1635	1597	1575	1573	1571	1577	1566	1573	1576	1570	1553	1520	1523	1524	1549	1585	1589	1562	1532	1493	1462	1489	1533	1533	1583	1606	1612	1612	1608	1594	1563	1543	1532	1519	1503	1514	1536	1539	1525	1507	1513	1523	1526	1512	1487	1470	1477	1515	1569	1555	1543	1530	1523	1501	1499	1513	1541	1565	1573	1586	1593	1586	1590	1586	1591	1595	1596	1596	1638	1681	1682	1705	1715	1722	1735	1743	1740	1727	1703	1690	1689	1692	1685	1673	1646	1619	1609	1578	1537	1539	1575	1644	1668	1686	1743	1843	1879	1894	1897	1893	1888	1901	1864	1833	1831	1820	1806	1779	1765	1767	1788	1809	1814	1833	1839	1863	1879	1893	1899	1901	1876	1843	1826	1832	1845	1861	1851	1762	1725	1685	1681	1681	1704	1726	1721	1720	1712	1697	1704	1708	1714	1717	1720	1720	1721	1706	1701	1670	1635	1633	1622	1622	1623	1617	1624	1633	1625	1617	1600	1603	1594	1575	1565	1567	1576	1571	1571	1572	1582	1593	1589	1577	1561	1585	1608	1597	1575	1568	1576	1598	1599	1597	1581	1569	1578	1600	1652	1669	1675	1655	1646	1627	1594	1567	1548	1548	1534	1525	1522	1536	1553	1574	1579	1574	1553	1534	1503	1514	1523	1538	1536	1528	1521	1508	1494	1507	1516	1509	1497	1487	1493	1505	1523	1539	1531	1516	1508	1510	1526	1531	1522	1505	1489	1478	1476	1467	1487	1551	1551	1634	1714	1720	1716	1654	1636	1628	1605	1602	1605	1608	1611	1609	1605	1600	1616	1642	1648	1643	1617	1583	1557	1528	1507	1507	1485	1481	1490	1474	1459	1446	1447	1448	1449	1450	1451	1455	1439	1423	1397	1396	1404	1421	1422	1422	1420	1412	1403	1389	1366	1320	1336	1346	1348	1315	1276	1239	1234	1235	1232	1232	1204	1185	1133	1129	1140	1157	1160	1144	1139	1145	1134	1124	1135	1135	1163	1177	1151	1108	1086	1079	1068	1071	1072	1056	1051	1051	1060	1076	1107	1123	1151	1178	1181	1149	1117	1073	1073	1036	1026	1033	1058	1067	1042	1017	1011	1028	1043	1043	1038	1003	977	977	1001	1009	999	973	973	955	944	940	926	924	918	912	906	906	884	880	892	919	926	924	914	903	903	870	828	811	831	837	855	877	877	893	895	882	872	861	876	876	902	900	889	883	914	0	0	0	0	0	0	0	0	0	0	0	0	0	0	0	0	0	0	0	0	0	0	0	0	0	0	0	0	0	0	0	0	0	0	0	0	0	0
0	0	0	0	0	0	0	0	0	0	0	0	0	0	0	0	0	0	0	0	0	0	0	0	0	0	0	0	0	0	0	0	0	0	0	0	0	0	0	0	0	0	0	0	0	0	0	0	0	0	0	0	0	0	0	0	0	0	0	0	0	0	0	0	0	0	0	0	0	0	0	0	0	0	0	0	0	0	0	0	0	0	0	0	0	0	0	0	0	0	0	0	0	0	0	0	0	0	0	0	0	0	0	0	0	0	0	0	0	0	0	0	0	0	0	0	0	0	0	0	0	0	0	0	0	0	0	0	0	0	0	0	1151	1133	1137	1139	1163	1168	1203	1256	1337	1362	1362	1367	1380	1408	1455	1498	1528	1547	1553	1554	1543	1545	1540	1522	1534	1556	1579	1608	1622	1622	1623	1608	1584	1571	1569	1571	1573	1593	1620	1634	1645	1636	1621	1609	1598	1609	1625	1643	1657	1640	1635	1654	1689	1692	1678	1678	1645	1629	1614	1591	1585	1583	1587	1576	1575	1593	1587	1578	1581	1578	1582	1586	1587	1598	1620	1617	1597	1578	1554	1547	1555	1551	1543	1541	1535	1509	1487	1479	1513	1548	1576	1570	1542	1515	1482	1454	1466	1506	1506	1556	1584	1596	1594	1585	1566	1541	1515	1506	1505	1507	1511	1535	1552	1536	1518	1499	1499	1506	1502	1491	1483	1485	1496	1513	1513	1506	1507	1500	1481	1476	1497	1531	1550	1560	1546	1550	1554	1570	1583	1599	1604	1599	1582	1591	1602	1634	1700	1716	1700	1687	1696	1705	1697	1674	1654	1656	1663	1681	1661	1625	1595	1567	1539	1529	1529	1557	1634	1659	1677	1720	1783	1863	1901	1907	1895	1894	1892	1862	1838	1842	1845	1826	1807	1787	1785	1794	1802	1822	1829	1837	1855	1862	1871	1875	1855	1845	1822	1816	1842	1857	1877	1866	1770	1714	1699	1686	1670	1676	1692	1707	1714	1699	1681	1692	1708	1712	1729	1736	1743	1720	1705	1685	1659	1644	1643	1632	1634	1617	1597	1609	1621	1611	1597	1587	1588	1594	1585	1584	1572	1570	1563	1553	1551	1569	1571	1544	1530	1526	1548	1576	1577	1567	1555	1566	1577	1590	1585	1583	1577	1577	1602	1639	1662	1656	1631	1604	1588	1566	1545	1545	1538	1537	1542	1535	1529	1547	1576	1577	1571	1559	1538	1508	1486	1496	1501	1507	1513	1507	1493	1489	1490	1495	1495	1492	1480	1478	1492	1500	1512	1519	1514	1493	1486	1480	1487	1492	1485	1480	1480	1478	1482	1507	1507	1552	1613	1714	1720	1709	1665	1650	1637	1624	1609	1594	1582	1584	1593	1592	1594	1607	1634	1634	1627	1610	1575	1541	1517	1501	1501	1486	1483	1473	1463	1439	1419	1420	1418	1419	1423	1436	1438	1419	1390	1360	1358	1370	1398	1370	1370	1362	1369	1355	1349	1389	1405	1414	1396	1354	1301	1246	1211	1200	1212	1220	1220	1207	1173	1131	1103	1115	1123	1119	1089	1089	1088	1087	1082	1081	1081	1092	1099	1096	1085	1068	1057	1043	1051	1061	1077	1088	1088	1072	1095	1110	1129	1146	1152	1146	1125	1094	1060	1060	1009	1008	1020	1060	1077	1056	1017	1008	1025	1047	1047	1048	1003	977	977	986	992	973	954	954	933	932	927	912	884	878	890	893	893	889	889	908	914	916	894	880	870	870	852	836	825	829	823	838	860	860	869	871	849	835	824	833	833	842	842	831	839	0	0	0	0	0	0	0	0	0	0	0	0	0	0	753	754	754	791	832	865	887	885	881	881	844	812	788	0	0	0	0	0	0	0	0	0	0	0	0
0	0	0	0	0	0	0	0	0	0	0	0	0	0	0	0	0	0	0	0	0	0	0	0	0	0	0	0	0	0	0	0	0	0	0	0	0	0	0	0	0	0	0	0	0	0	0	0	0	0	0	0	0	0	0	0	0	0	0	0	0	0	0	0	0	0	0	0	0	0	0	0	0	0	0	0	0	0	0	0	0	0	0	0	0	0	0	0	0	0	0	0	0	0	0	0	0	0	0	0	1071	0	0	0	0	0	0	0	1059	0	0	0	0	0	0	0	0	0	0	0	0	0	0	0	0	1020	1020	1047	1092	1120	1150	1155	1135	1101	1094	1113	1131	1151	1157	1205	1252	1292	1292	1322	1344	1385	1431	1475	1495	1508	1513	1529	1540	1542	1545	1530	1523	1528	1544	1576	1586	1598	1598	1594	1597	1577	1567	1556	1558	1579	1599	1628	1641	1641	1627	1604	1595	1597	1612	1628	1632	1626	1618	1636	1689	1692	1672	1672	1631	1605	1597	1588	1567	1550	1545	1553	1549	1545	1539	1547	1554	1566	1573	1583	1576	1573	1586	1601	1598	1567	1542	1534	1542	1538	1532	1516	1502	1478	1478	1476	1506	1528	1535	1536	1521	1502	1479	1457	1467	1488	1488	1532	1561	1567	1572	1564	1546	1513	1492	1488	1499	1517	1530	1550	1559	1542	1520	1491	1484	1493	1505	1508	1506	1500	1500	1503	1498	1496	1495	1487	1475	1496	1513	1532	1548	1550	1538	1533	1537	1553	1574	1593	1588	1583	1544	1539	1538	1555	1586	1614	1631	1634	1640	1643	1634	1615	1614	1621	1629	1646	1641	1620	1582	1559	1550	1540	1551	1578	1627	1645	1657	1709	1766	1839	1875	1856	1904	1884	1873	1858	1850	1848	1839	1829	1819	1818	1827	1813	1811	1815	1823	1826	1826	1843	1848	1849	1826	1808	1811	1807	1837	1830	1855	1813	1743	1711	1700	1682	1666	1666	1684	1694	1705	1690	1673	1681	1696	1703	1720	1721	1733	1712	1696	1683	1646	1631	1628	1629	1619	1603	1575	1567	1569	1552	1542	1544	1552	1573	1593	1594	1578	1574	1560	1570	1570	1573	1560	1534	1513	1509	1515	1539	1553	1548	1542	1539	1550	1558	1566	1578	1578	1576	1578	1596	1609	1614	1602	1573	1555	1552	1540	1540	1550	1548	1538	1519	1511	1538	1566	1579	1576	1550	1533	1507	1481	1465	1468	1471	1491	1498	1480	1472	1471	1478	1485	1472	1466	1467	1467	1462	1467	1482	1486	1479	1458	1456	1460	1463	1462	1474	1484	1474	1451	1464	1464	1552	1613	1672	1679	1669	1640	1634	1620	1606	1593	1574	1553	1548	1558	1566	1567	1567	1579	1586	1586	1571	1538	1516	1501	1495	1495	1492	1489	1471	1455	1425	1413	1403	1393	1390	1388	1397	1404	1364	1325	1308	1297	1298	1308	1308	1282	1273	1275	1281	1290	1296	1290	1283	1252	1230	1217	1209	1193	1174	1147	1124	1124	1103	1097	1092	1096	1083	1077	1060	1029	1023	1035	1033	1026	1014	1014	1011	1039	1071	1087	1086	1068	1045	1040	1047	1072	1090	1090	1093	1101	1100	1118	1133	1124	1111	1106	1079	1042	1042	1002	996	1021	1056	1059	1037	1016	1007	1028	1047	1047	1048	1023	994	975	960	960	947	934	934	927	932	919	892	861	845	857	881	881	892	909	906	910	899	869	847	847	850	846	840	824	823	821	827	827	846	850	847	833	805	789	782	782	779	790	811	821	838	0	0	893	902	897	879	873	886	886	874	845	808	773	732	735	735	762	804	824	846	869	869	874	855	813	782	797	0	0	0	0	0	0	0	0	0	0	0
0	0	0	0	0	0	0	0	0	0	0	0	0	0	0	0	0	0	0	0	0	0	0	0	0	0	0	0	0	0	0	0	0	0	0	0	0	0	0	0	0	0	0	0	0	0	0	0	0	0	0	0	0	0	0	0	0	0	0	0	0	0	0	0	0	0	0	0	0	0	0	0	0	0	0	0	0	0	0	0	0	0	0	0	0	0	0	0	0	0	0	0	0	0	0	0	0	1052	1049	1051	1051	0	0	0	0	0	0	0	1057	1071	0	0	0	0	0	0	0	0	0	0	0	0	972	970	995	1033	1033	1066	1076	1098	1114	1134	1137	1108	1101	1106	1124	1148	1160	1193	1224	1254	1254	1287	1331	1379	1416	1452	1471	1475	1481	1493	1517	1544	1543	1536	1525	1519	1523	1542	1552	1575	1575	1597	1596	1587	1569	1555	1552	1558	1580	1610	1626	1626	1623	1620	1613	1610	1619	1625	1624	1616	1618	1639	1683	1686	1672	1631	1631	1585	1575	1566	1550	1530	1537	1548	1532	1529	1527	1545	1558	1568	1573	1573	1561	1552	1558	1569	1572	1547	1532	1524	1527	1530	1518	1501	1475	1467	1476	1476	1480	1489	1506	1503	1488	1477	1462	1451	1458	1477	1504	1504	1517	1530	1543	1532	1510	1483	1472	1483	1508	1512	1524	1539	1552	1556	1535	1503	1481	1473	1493	1515	1521	1513	1511	1503	1497	1493	1486	1482	1497	1514	1530	1542	1548	1542	1533	1522	1520	1526	1544	1566	1558	1538	1523	1520	1523	1532	1542	1566	1568	1565	1558	1550	1555	1525	1533	1559	1574	1564	1530	1575	1582	1567	1566	1559	1565	1576	1603	1623	1628	1688	1742	1806	1844	1832	1827	1838	1839	1854	1851	1826	1818	1813	1818	1828	1831	1830	1812	1793	1801	1821	1827	1831	1842	1843	1825	1809	1800	1804	1818	1827	1838	1790	1696	1687	1684	1666	1655	1661	1684	1703	1695	1673	1667	1669	1674	1675	1683	1686	1690	1696	1689	1678	1650	1613	1595	1594	1596	1590	1563	1550	1540	1532	1532	1530	1546	1568	1583	1591	1574	1574	1574	1562	1565	1563	1543	1525	1507	1501	1499	1523	1543	1535	1520	1520	1534	1549	1556	1542	1517	1499	1498	1541	1568	1565	1564	1564	1548	1556	1551	1551	1548	1532	1511	1486	1475	1509	1547	1564	1563	1548	1534	1514	1481	1448	1431	1449	1475	1477	1468	1448	1433	1412	1416	1419	1425	1422	1432	1424	1407	1424	1449	1443	1423	1435	1450	1460	1455	1452	1445	1442	1437	1464	1464	1515	1564	1584	1617	1616	1605	1594	1580	1573	1568	1554	1532	1502	1501	1519	1540	1544	1548	1538	1534	1525	1498	1476	1464	1462	1462	1467	1465	1443	1431	1407	1386	1370	1373	1372	1359	1326	1266	1229	1208	1220	1251	1261	1278	1278	1283	1271	1262	1260	1266	1266	1253	1217	1184	1198	1220	1228	1220	1202	1161	1161	1127	1093	1071	1062	1072	1078	1077	1060	1027	1006	1014	1014	1011	1011	993	989	1014	1049	1087	1091	1070	1042	1031	1043	1055	1067	1067	1072	1073	1081	1098	1120	1131	1124	1089	1065	1038	1038	1003	997	1027	1029	1004	1037	1016	1007	1028	1028	1058	1060	1037	1000	966	957	948	926	917	917	911	922	916	885	852	829	834	856	856	885	909	906	893	883	851	837	837	845	849	843	820	805	806	812	812	838	848	845	816	794	768	755	755	754	781	799	818	827	844	844	866	887	880	867	856	866	866	875	863	821	777	746	740	740	751	786	822	835	847	847	860	841	813	782	797	0	0	0	0	0	0	0	0	0	0	0
0	0	0	0	0	0	0	0	0	0	0	0	0	0	0	0	0	0	0	0	0	0	0	0	0	0	0	0	0	0	0	0	0	0	0	0	0	0	0	0	0	0	0	0	0	0	0	0	0	0	0	0	0	0	0	0	0	0	0	0	0	0	0	0	0	0	0	0	0	0	0	0	0	0	0	0	0	0	0	0	0	0	0	0	0	0	0	0	0	0	0	0	0	0	0	0	1005	1017	1005	0	0	0	0	0	0	0	0	0	0	1042	0	0	0	0	0	1053	1072	1102	1117	1102	1068	1021	983	988	1011	1042	1042	1071	1064	1070	1092	1127	1137	1130	1120	1116	1127	1153	1182	1215	1241	1247	1247	1273	1318	1380	1441	1453	1467	1457	1449	1467	1494	1532	1537	1551	1542	1522	1513	1512	1530	1554	1554	1576	1582	1577	1568	1550	1536	1533	1550	1564	1586	1610	1628	1634	1622	1616	1622	1624	1619	1613	1619	1642	1663	1672	1658	1618	1618	1585	1575	1557	1522	1516	1526	1528	1534	1532	1533	1552	1555	1551	1542	1548	1541	1526	1531	1537	1531	1524	1511	1511	1524	1526	1510	1479	1471	1468	1474	1473	1456	1463	1469	1464	1430	1421	1414	1417	1432	1455	1473	1473	1487	1492	1495	1480	1467	1465	1476	1480	1498	1490	1487	1517	1524	1536	1527	1504	1486	1476	1478	1499	1513	1519	1511	1506	1499	1493	1485	1488	1504	1522	1522	1521	1519	1519	1513	1502	1502	1503	1513	1532	1525	1521	1524	1522	1525	1528	1524	1528	1532	1525	1506	1495	1495	1495	1496	1510	1499	1469	1474	1521	1571	1579	1574	1566	1566	1578	1603	1618	1620	1661	1702	1762	1813	1798	1797	1809	1815	1840	1851	1811	1800	1796	1803	1823	1828	1818	1807	1779	1789	1791	1819	1836	1843	1840	1833	1824	1816	1811	1823	1834	1826	1739	1666	1654	1654	1651	1645	1656	1678	1685	1704	1680	1664	1660	1659	1661	1654	1657	1662	1670	1673	1672	1645	1604	1571	1566	1581	1586	1574	1558	1547	1541	1544	1560	1567	1587	1592	1591	1577	1573	1575	1565	1550	1535	1529	1517	1504	1504	1506	1524	1540	1533	1534	1528	1529	1529	1517	1512	1508	1491	1498	1510	1511	1518	1524	1528	1537	1543	1544	1544	1528	1507	1490	1473	1487	1511	1535	1547	1555	1548	1538	1525	1514	1446	1446	1449	1468	1462	1440	1411	1375	1349	1336	1322	1272	1281	1323	1361	1368	1386	1391	1385	1377	1392	1422	1459	1456	1453	1447	1442	1437	1454	1454	1478	1510	1528	1542	1543	1550	1543	1534	1519	1485	1482	1497	1477	1474	1487	1519	1549	1539	1526	1502	1479	1453	1427	1419	1414	1414	1421	1427	1411	1393	1383	1362	1363	1369	1362	1334	1293	1243	1210	1190	1207	1233	1267	1280	1280	1278	1266	1257	1258	1253	1250	1245	1210	1187	1214	1240	1245	1234	1218	1179	1179	1133	1087	1049	1036	1044	1047	1050	1042	1021	1002	1008	1010	1007	1007	1007	1007	1025	1046	1083	1085	1073	1038	1022	1027	1036	1039	1039	1045	1053	1057	1080	1104	1114	1094	1067	1043	1018	1018	1002	987	1027	1029	1004	977	969	977	1016	1016	1043	1034	1013	987	968	946	932	913	895	895	887	907	915	894	861	835	834	844	844	871	888	889	870	865	847	842	842	858	863	867	826	782	774	790	790	820	851	844	826	800	761	750	750	749	767	796	814	829	830	830	842	856	852	840	829	846	846	878	886	872	820	787	771	771	778	799	817	835	847	847	860	841	806	783	795	795	829	0	0	0	0	0	792	808	801	784
0	0	0	0	0	0	0	0	0	0	0	0	0	0	0	0	0	0	0	0	0	0	0	0	0	0	0	0	0	0	0	0	0	0	0	0	0	0	0	0	0	0	0	0	0	0	0	0	0	0	0	0	0	0	0	0	0	0	0	0	0	0	0	0	0	0	0	0	0	0	0	0	0	0	0	0	0	0	0	0	0	0	0	0	0	0	0	0	0	0	0	0	0	0	0	934	949	954	947	0	0	0	0	0	0	0	0	0	0	0	0	0	0	0	1035	1048	1055	1070	1067	1069	1023	991	974	982	1002	1038	1038	1052	1059	1057	1081	1120	1138	1137	1113	1106	1125	1165	1193	1216	1242	1252	1277	1277	1333	1381	1444	1457	1459	1446	1428	1454	1497	1529	1537	1541	1533	1522	1515	1517	1536	1556	1556	1558	1564	1564	1553	1539	1528	1519	1525	1535	1556	1587	1613	1632	1634	1622	1613	1603	1597	1597	1612	1637	1652	1656	1654	1619	1619	1588	1573	1557	1502	1490	1484	1501	1514	1527	1546	1550	1549	1538	1530	1530	1508	1490	1497	1507	1506	1504	1507	1503	1521	1523	1517	1479	1462	1461	1461	1446	1417	1416	1415	1388	1363	1356	1367	1385	1408	1434	1455	1455	1462	1464	1448	1449	1459	1471	1476	1495	1487	1456	1440	1446	1457	1475	1503	1517	1507	1484	1484	1493	1503	1504	1501	1499	1499	1490	1485	1490	1504	1511	1500	1497	1491	1490	1484	1474	1469	1478	1495	1507	1504	1501	1509	1531	1547	1547	1531	1529	1528	1517	1510	1495	1490	1481	1477	1477	1472	1466	1451	1525	1575	1581	1574	1564	1564	1592	1622	1632	1622	1636	1673	1734	1778	1785	1782	1791	1804	1828	1845	1806	1797	1790	1793	1808	1809	1797	1786	1777	1772	1778	1806	1832	1848	1857	1860	1843	1838	1831	1831	1825	1816	1741	1681	1646	1654	1640	1636	1647	1669	1676	1687	1681	1651	1644	1637	1636	1638	1629	1633	1646	1652	1650	1620	1591	1561	1556	1568	1582	1578	1572	1556	1554	1563	1585	1602	1600	1602	1592	1587	1582	1576	1571	1550	1536	1516	1516	1501	1504	1526	1545	1547	1541	1533	1531	1528	1503	1488	1488	1488	1493	1505	1503	1492	1475	1477	1487	1503	1499	1499	1508	1508	1494	1490	1492	1503	1509	1519	1529	1537	1537	1532	1527	1511	1486	1467	1455	1424	1410	1401	1378	1345	1304	1266	1226	1238	1273	1295	1308	1314	1326	1352	1347	1336	1351	1392	1425	1462	1453	1447	1449	1464	1473	1473	1484	1500	1508	1506	1499	1506	1503	1508	1473	1439	1449	1451	1455	1449	1463	1498	1521	1512	1484	1453	1439	1419	1390	1362	1362	1356	1376	1382	1381	1364	1349	1349	1357	1353	1341	1317	1280	1236	1204	1190	1209	1242	1268	1291	1291	1294	1278	1263	1253	1254	1250	1239	1240	1255	1266	1272	1263	1237	1216	1177	1177	1145	1093	1050	1019	1004	1001	1011	1015	1010	993	997	993	992	992	1003	1025	1037	1026	1026	1022	968	975	969	982	998	1004	1004	1019	1016	1030	1049	1081	1069	1059	1042	1017	973	1018	1002	987	991	990	964	943	946	968	993	993	1007	998	995	973	956	944	940	917	891	891	885	898	904	902	872	848	831	831	831	842	853	854	856	845	852	851	851	869	886	872	825	785	768	768	768	790	824	833	833	806	782	762	762	761	768	778	793	808	812	812	815	819	825	814	813	834	834	865	872	849	811	779	767	767	778	799	817	826	843	843	847	823	788	778	795	795	819	800	784	786	813	813	800	775	761	770
0	0	0	0	0	0	0	0	0	0	0	0	0	0	0	0	0	0	0	0	0	0	0	0	0	0	0	0	0	0	0	0	0	0	0	0	0	0	0	0	0	0	0	0	0	0	0	0	0	0	0	0	0	0	0	0	0	0	0	0	0	0	0	0	0	0	0	0	0	0	0	0	0	0	0	0	0	0	0	0	0	0	0	0	0	0	0	0	0	0	0	982	0	0	922	917	925	891	878	0	0	0	0	0	0	0	0	0	0	0	0	0	0	1008	1021	1015	1011	1002	1004	996	969	938	935	953	983	1006	1006	1030	1047	1054	1069	1109	1126	1121	1105	1116	1139	1181	1208	1212	1223	1253	1300	1300	1342	1375	1426	1445	1447	1435	1438	1459	1484	1509	1512	1510	1513	1517	1521	1530	1542	1551	1551	1555	1555	1557	1547	1530	1524	1513	1513	1514	1524	1556	1597	1619	1627	1621	1600	1581	1569	1574	1586	1613	1640	1640	1646	1614	1614	1603	1573	1551	1502	1490	1455	1477	1497	1521	1530	1518	1474	1427	1409	1416	1436	1453	1471	1481	1489	1494	1497	1508	1525	1538	1518	1479	1468	1451	1437	1405	1393	1402	1399	1376	1346	1325	1327	1342	1372	1387	1394	1400	1400	1406	1442	1445	1477	1490	1488	1488	1484	1448	1423	1422	1435	1456	1485	1534	1533	1505	1494	1492	1500	1491	1484	1488	1484	1480	1484	1487	1492	1483	1473	1472	1472	1465	1459	1447	1451	1463	1476	1484	1469	1471	1487	1517	1547	1548	1550	1546	1538	1531	1522	1513	1503	1495	1471	1457	1449	1462	1490	1546	1575	1594	1578	1581	1583	1621	1658	1657	1637	1627	1664	1728	1771	1773	1771	1790	1800	1798	1812	1796	1797	1802	1806	1808	1792	1786	1776	1781	1780	1794	1814	1830	1845	1839	1817	1813	1822	1818	1815	1793	1796	1750	1679	1651	1649	1648	1638	1658	1670	1673	1663	1650	1620	1600	1588	1588	1605	1622	1627	1612	1605	1603	1581	1558	1549	1542	1552	1565	1546	1522	1510	1533	1573	1612	1625	1617	1601	1590	1589	1588	1590	1589	1578	1560	1529	1509	1499	1513	1536	1548	1539	1521	1503	1502	1501	1491	1488	1484	1482	1496	1505	1479	1461	1432	1431	1440	1466	1474	1474	1467	1456	1447	1469	1497	1498	1505	1499	1505	1513	1515	1514	1514	1505	1488	1451	1425	1397	1377	1346	1301	1262	1263	1266	1247	1270	1294	1310	1316	1311	1331	1345	1338	1319	1332	1355	1425	1462	1458	1458	1475	1491	1491	1490	1493	1504	1503	1494	1478	1470	1468	1463	1440	1417	1412	1427	1439	1438	1435	1433	1466	1466	1446	1429	1419	1399	1372	1338	1338	1324	1328	1335	1342	1327	1324	1331	1332	1321	1303	1281	1257	1222	1196	1203	1219	1243	1270	1301	1301	1309	1302	1269	1257	1259	1236	1217	1215	1214	1218	1221	1209	1204	1196	1172	1172	1136	1090	1045	952	907	905	945	987	1005	996	969	924	909	909	932	962	973	958	938	922	911	886	904	926	956	956	960	965	978	986	995	994	959	969	1042	1017	973	973	944	940	953	959	945	930	939	963	976	976	986	970	952	939	922	931	921	900	877	877	869	884	892	886	859	833	811	801	801	808	801	819	812	814	825	837	837	852	866	857	817	791	765	771	771	775	786	808	820	811	787	773	773	751	734	743	755	774	781	781	791	791	798	799	798	809	809	807	811	795	811	779	767	767	781	799	814	826	834	834	818	800	782	782	795	795	799	797	793	815	821	821	810	753	725	733
0	0	0	0	0	0	0	0	0	0	0	0	0	0	0	0	0	0	0	0	0	0	0	0	0	0	0	0	0	0	0	0	0	0	0	0	0	0	0	0	0	0	0	0	0	0	0	0	0	0	0	0	0	0	0	0	0	0	0	0	0	0	0	0	0	0	0	0	0	0	0	0	0	0	0	0	0	0	0	987	970	922	0	0	0	0	0	0	0	0	979	982	0	0	923	921	907	865	825	0	0	0	0	887	907	922	0	0	0	0	920	957	985	985	985	981	949	942	940	937	906	870	872	909	945	965	981	981	998	1030	1047	1066	1100	1110	1110	1123	1155	1194	1197	1196	1219	1269	1317	1317	1354	1382	1404	1414	1433	1431	1447	1461	1463	1463	1465	1454	1469	1482	1512	1521	1534	1541	1541	1541	1548	1550	1536	1524	1514	1504	1503	1495	1504	1519	1549	1589	1606	1599	1577	1558	1554	1552	1559	1568	1594	1619	1626	1613	1597	1597	1572	1549	1502	1460	1455	1477	1479	1493	1497	1486	1462	1421	1396	1387	1412	1434	1463	1480	1479	1487	1488	1504	1518	1519	1489	1459	1441	1430	1411	1384	1372	1378	1388	1369	1341	1331	1322	1334	1359	1379	1385	1396	1396	1411	1440	1453	1464	1481	1474	1479	1486	1459	1425	1413	1423	1447	1482	1523	1543	1525	1502	1501	1503	1500	1485	1479	1479	1481	1488	1489	1475	1449	1438	1445	1456	1438	1423	1415	1425	1442	1448	1440	1431	1422	1441	1479	1518	1544	1549	1545	1540	1539	1532	1525	1508	1506	1489	1467	1456	1469	1495	1539	1573	1571	1572	1586	1606	1656	1678	1656	1631	1639	1669	1740	1768	1768	1758	1766	1757	1768	1785	1777	1793	1815	1815	1798	1776	1771	1777	1783	1787	1798	1809	1825	1824	1798	1775	1750	1749	1762	1773	1755	1738	1725	1667	1650	1648	1650	1658	1667	1671	1677	1662	1647	1619	1571	1547	1557	1591	1617	1620	1612	1586	1558	1543	1539	1528	1531	1528	1533	1521	1510	1507	1524	1570	1608	1617	1605	1582	1579	1597	1603	1606	1598	1590	1573	1539	1506	1492	1500	1527	1547	1523	1506	1508	1508	1513	1504	1509	1489	1482	1480	1477	1463	1446	1425	1421	1416	1428	1445	1445	1458	1443	1424	1434	1444	1447	1467	1468	1481	1482	1478	1483	1495	1493	1481	1450	1428	1410	1402	1371	1333	1283	1283	1312	1336	1335	1318	1332	1334	1335	1357	1369	1357	1328	1332	1355	1396	1438	1452	1466	1478	1484	1484	1485	1485	1488	1485	1464	1446	1439	1436	1430	1428	1404	1398	1407	1406	1402	1401	1393	1390	1405	1411	1400	1384	1342	1316	1295	1295	1280	1273	1280	1280	1267	1262	1262	1287	1278	1264	1255	1237	1216	1199	1205	1216	1230	1254	1287	1287	1304	1293	1254	1243	1236	1220	1180	1155	1147	1139	1144	1154	1161	1150	1121	1121	1088	1032	974	922	876	841	852	896	951	976	966	930	909	909	913	925	930	928	904	880	862	867	888	914	926	926	924	927	923	905	901	994	959	969	974	970	941	941	904	900	908	916	910	921	941	958	968	968	960	950	932	917	907	902	881	847	835	835	849	854	878	873	844	804	783	783	783	776	776	776	781	780	787	796	796	800	802	809	799	793	788	776	776	770	787	803	804	789	771	754	754	733	712	701	712	726	744	744	769	782	792	796	803	801	809	807	811	795	778	765	757	757	769	787	806	810	812	812	800	790	786	793	799	799	800	792	773	794	798	798	782	727	676	681
0	0	0	0	0	0	0	0	0	0	0	0	0	0	0	0	0	0	0	0	0	0	0	0	0	0	0	0	0	0	0	0	0	0	0	0	0	0	0	0	0	0	0	0	0	0	0	0	0	0	0	0	0	0	0	0	0	0	0	0	0	0	0	0	0	0	0	0	0	0	0	0	0	0	0	0	966	969	985	985	977	940	904	0	0	0	0	0	971	971	970	954	932	919	923	921	907	862	810	0	0	0	830	890	918	928	930	0	0	910	908	924	959	959	946	928	922	918	916	906	872	844	835	865	889	920	926	926	952	979	997	1030	1068	1096	1106	1129	1164	1180	1179	1178	1216	1287	1335	1335	1362	1382	1390	1391	1395	1416	1442	1451	1427	1406	1388	1390	1411	1445	1476	1492	1496	1511	1517	1517	1534	1541	1523	1495	1475	1483	1480	1472	1459	1467	1490	1534	1557	1558	1541	1532	1534	1543	1546	1546	1565	1583	1586	1583	1568	1568	1563	1539	1504	1467	1453	1460	1479	1493	1470	1473	1458	1429	1391	1378	1384	1418	1456	1474	1470	1447	1452	1473	1489	1484	1453	1418	1407	1409	1390	1374	1367	1370	1382	1385	1368	1349	1344	1344	1360	1365	1385	1402	1402	1423	1435	1434	1432	1434	1429	1435	1451	1440	1413	1404	1414	1433	1458	1506	1534	1526	1506	1504	1517	1515	1501	1489	1480	1492	1493	1490	1458	1424	1400	1413	1407	1338	1321	1339	1380	1412	1426	1414	1395	1387	1406	1440	1475	1512	1521	1518	1522	1533	1531	1521	1508	1522	1517	1499	1487	1491	1512	1535	1550	1543	1542	1565	1625	1651	1635	1606	1606	1644	1697	1757	1776	1771	1763	1752	1745	1752	1756	1760	1773	1797	1788	1777	1764	1756	1756	1761	1766	1779	1789	1800	1795	1768	1740	1719	1712	1725	1733	1729	1722	1676	1643	1641	1647	1651	1646	1650	1675	1668	1649	1630	1596	1546	1533	1545	1580	1610	1628	1603	1570	1548	1531	1485	1461	1455	1459	1476	1480	1474	1477	1494	1523	1566	1591	1589	1587	1606	1614	1611	1599	1584	1572	1563	1541	1518	1516	1526	1540	1545	1524	1520	1515	1515	1518	1512	1491	1477	1475	1469	1451	1457	1450	1443	1432	1425	1429	1429	1446	1460	1459	1447	1444	1438	1439	1442	1434	1426	1411	1396	1418	1444	1455	1462	1443	1427	1437	1438	1443	1449	1448	1439	1435	1438	1444	1435	1413	1390	1370	1383	1378	1364	1328	1315	1330	1359	1390	1426	1436	1428	1422	1422	1420	1431	1440	1441	1437	1431	1420	1424	1434	1427	1411	1392	1381	1372	1359	1355	1363	1353	1337	1347	1350	1355	1321	1284	1249	1249	1211	1204	1234	1231	1222	1209	1211	1228	1233	1225	1219	1217	1204	1196	1194	1183	1156	1164	1164	1176	1182	1192	1208	1195	1162	1115	1090	1093	1069	1059	1055	1048	1048	1044	1032	1032	1019	981	951	915	883	849	852	879	914	936	953	943	917	917	899	902	906	904	892	880	869	876	887	900	904	904	889	881	869	905	901	908	921	929	946	951	951	938	915	884	878	880	892	911	931	950	946	946	921	901	898	897	900	877	840	807	807	796	806	824	851	851	824	800	771	771	767	779	780	767	751	750	753	746	746	738	737	742	755	775	791	791	791	787	788	796	787	764	742	742	736	714	703	685	679	709	725	725	737	763	792	796	803	801	801	792	781	765	759	747	747	732	748	775	790	797	791	791	778	780	794	801	807	807	767	735	739	745	749	749	745	704	645	653
0	0	0	0	0	0	0	0	0	0	0	0	0	0	0	0	0	0	0	0	0	0	0	0	0	0	0	0	0	0	0	0	0	0	0	0	0	0	0	0	0	0	0	0	0	0	0	0	0	0	0	0	0	0	0	0	0	0	0	0	0	0	0	0	0	0	0	0	0	0	0	0	0	0	0	899	924	936	957	957	965	956	916	0	0	0	0	0	940	940	940	929	887	877	904	924	903	862	810	0	0	791	854	903	912	918	910	922	902	894	883	913	920	920	911	901	896	902	900	895	874	853	823	815	851	869	885	885	904	925	973	1006	1046	1069	1102	1122	1140	1155	1156	1182	1248	1309	1334	1334	1358	1374	1375	1358	1360	1383	1411	1419	1398	1368	1337	1338	1364	1405	1439	1464	1460	1470	1487	1487	1503	1506	1493	1469	1460	1456	1446	1434	1419	1412	1438	1470	1492	1488	1485	1490	1509	1522	1525	1514	1533	1549	1561	1557	1536	1536	1534	1514	1491	1470	1456	1459	1459	1462	1470	1473	1466	1442	1405	1377	1377	1412	1449	1451	1429	1407	1411	1431	1456	1453	1437	1414	1401	1400	1385	1364	1356	1375	1381	1385	1393	1381	1375	1372	1368	1367	1379	1396	1417	1417	1422	1413	1402	1393	1386	1393	1398	1396	1381	1380	1399	1414	1425	1444	1472	1487	1500	1508	1525	1534	1523	1499	1487	1489	1482	1472	1444	1412	1387	1385	1369	1339	1330	1361	1384	1418	1427	1409	1389	1389	1407	1433	1475	1493	1504	1502	1510	1526	1535	1539	1523	1527	1529	1522	1507	1508	1518	1530	1519	1487	1453	1503	1582	1591	1594	1598	1598	1634	1706	1755	1772	1755	1749	1746	1743	1747	1744	1724	1692	1706	1738	1743	1741	1739	1741	1743	1744	1756	1777	1776	1765	1738	1717	1711	1726	1747	1751	1746	1700	1639	1608	1625	1647	1643	1622	1596	1605	1634	1623	1603	1574	1547	1537	1540	1563	1584	1582	1563	1530	1519	1514	1504	1481	1476	1489	1489	1479	1458	1445	1451	1477	1531	1576	1591	1604	1617	1613	1600	1581	1565	1556	1556	1547	1544	1543	1556	1565	1543	1519	1507	1508	1501	1495	1481	1460	1449	1444	1456	1446	1450	1454	1454	1442	1429	1427	1427	1441	1452	1464	1462	1457	1438	1424	1395	1383	1379	1367	1348	1336	1360	1400	1434	1429	1425	1435	1440	1447	1452	1456	1443	1441	1450	1451	1445	1426	1399	1384	1365	1378	1364	1336	1312	1310	1325	1339	1335	1327	1316	1325	1325	1327	1329	1325	1352	1379	1414	1420	1426	1437	1423	1404	1371	1356	1330	1311	1317	1325	1323	1302	1282	1281	1270	1240	1191	1168	1168	1159	1178	1195	1203	1193	1184	1180	1188	1189	1191	1185	1178	1159	1154	1150	1146	1142	1148	1148	1155	1150	1145	1128	1101	1091	1096	1072	1054	1030	1015	1010	1013	1007	1006	988	988	972	951	934	915	896	872	859	854	882	899	921	932	919	919	896	889	884	878	879	875	875	878	889	885	875	875	889	881	869	855	831	840	878	905	936	944	944	932	907	887	873	861	876	904	922	935	905	905	886	877	867	873	873	869	802	769	769	739	737	753	775	795	797	788	775	775	758	774	779	776	763	743	732	730	730	709	700	695	720	755	788	800	800	793	792	795	775	733	704	704	698	712	700	683	661	685	709	725	737	763	770	773	776	783	783	786	784	762	738	709	709	689	701	722	768	792	769	769	724	696	737	753	758	758	738	725	714	731	729	729	726	702	686	715
0	0	0	0	0	0	0	0	0	0	0	0	0	0	0	0	0	0	0	0	0	0	0	0	0	0	0	0	0	0	0	0	0	0	0	0	0	0	0	0	0	0	0	0	0	0	0	0	0	0	0	0	0	0	0	0	0	0	0	0	0	0	0	0	0	0	0	888	922	922	919	0	0	829	823	850	892	917	932	932	943	934	913	887	875	891	0	0	0	0	898	884	849	838	858	909	904	874	813	0	791	791	880	886	882	883	894	891	889	890	883	886	892	892	883	893	892	874	0	0	0	0	0	0	796	846	873	873	882	905	939	968	1001	1022	1050	1080	1089	1110	1144	1206	1256	1289	1315	1315	1336	1350	1340	1325	1329	1339	1364	1362	1353	1335	1310	1308	1336	1372	1406	1423	1424	1427	1443	1443	1458	1459	1450	1437	1420	1427	1403	1392	1377	1387	1400	1422	1426	1434	1438	1447	1454	1468	1473	1482	1510	1531	1532	1526	1509	1509	1498	1484	1474	1470	1477	1474	1452	1432	1440	1460	1466	1442	1418	1397	1393	1418	1425	1421	1391	1378	1394	1416	1447	1461	1449	1430	1420	1412	1385	1370	1378	1389	1396	1405	1413	1408	1405	1389	1374	1368	1376	1394	1403	1403	1407	1395	1376	1367	1374	1381	1387	1380	1364	1375	1391	1412	1423	1427	1444	1465	1485	1494	1501	1508	1512	1510	1492	1481	1475	1457	1430	1403	1396	1400	1402	1392	1393	1424	1442	1459	1439	1419	1411	1410	1428	1448	1467	1484	1501	1501	1512	1527	1536	1535	1525	1520	1521	1518	1506	1508	1499	1493	1466	1445	1439	1476	1521	1547	1574	1595	1599	1616	1682	1704	1717	1733	1728	1734	1721	1703	1683	1659	1640	1634	1660	1679	1690	1708	1714	1722	1704	1714	1736	1743	1714	1690	1672	1655	1683	1700	1721	1711	1665	1619	1605	1608	1622	1610	1585	1563	1534	1536	1565	1584	1576	1563	1552	1547	1531	1504	1501	1517	1511	1503	1506	1508	1504	1500	1506	1503	1479	1448	1422	1418	1451	1510	1568	1578	1591	1594	1581	1566	1543	1530	1529	1531	1538	1546	1553	1561	1553	1523	1500	1481	1486	1485	1467	1438	1410	1396	1398	1399	1403	1415	1427	1431	1431	1411	1389	1389	1395	1415	1420	1423	1406	1381	1338	1324	1333	1335	1330	1317	1308	1299	1299	1302	1318	1336	1390	1400	1410	1419	1419	1415	1424	1436	1439	1422	1402	1382	1384	1365	1366	1357	1336	1302	1286	1292	1294	1293	1275	1265	1265	1256	1246	1258	1283	1300	1322	1355	1376	1374	1317	1287	1272	1306	1308	1295	1288	1290	1292	1282	1267	1250	1240	1229	1222	1195	1195	1166	1149	1153	1180	1186	1170	1160	1158	1162	1165	1163	1150	1142	1125	1114	1124	1131	1140	1146	1146	1144	1126	1081	1038	1048	1050	1080	1106	1077	1038	1018	1021	1031	1036	1018	1018	987	952	931	915	903	889	867	859	850	843	872	894	907	907	920	919	915	889	856	861	864	880	884	887	885	875	875	865	852	829	813	801	818	862	895	913	937	937	935	914	881	856	848	869	894	921	901	907	907	900	852	835	839	845	846	814	788	788	767	779	793	797	807	809	808	793	793	776	774	778	787	790	794	775	747	747	723	694	678	709	0	0	785	785	803	789	0	0	0	0	0	0	0	0	0	661	685	709	709	722	750	741	741	721	721	745	782	784	763	717	677	677	0	0	0	0	0	712	712	671	636	680	728	748	748	733	715	712	719	761	761	776	762	753	763
0	0	0	0	0	0	0	0	0	0	0	0	0	0	0	0	0	0	0	0	0	0	0	0	0	0	0	0	0	0	0	0	0	0	0	0	0	0	0	0	0	0	0	0	0	0	0	0	0	0	0	0	0	0	0	0	911	941	0	0	0	0	863	845	872	890	907	921	928	928	914	888	847	814	796	829	865	907	921	921	914	904	876	856	849	855	875	0	0	0	0	0	0	0	0	0	868	861	826	825	856	856	880	886	882	858	868	879	883	892	896	892	888	888	886	884	890	0	0	0	890	882	824	774	776	839	879	879	901	916	930	947	961	973	998	1017	1047	1075	1133	1187	1232	1263	1286	1295	1295	1294	1275	1277	1296	1310	1317	1317	1312	1309	1297	1294	1313	1343	1363	1385	1393	1398	1407	1407	1413	1408	1404	1394	1382	1379	1386	1385	1377	1382	1397	1416	1419	1416	1424	1427	1428	1431	1447	1457	1493	1516	1516	1501	1486	1463	1463	1453	1451	1461	1487	1469	1441	1419	1431	1451	1458	1448	1418	1397	1435	1454	1443	1390	1359	1360	1391	1430	1460	1476	1461	1441	1426	1417	1411	1408	1405	1415	1431	1436	1435	1428	1417	1396	1381	1373	1376	1390	1407	1398	1398	1384	1371	1374	1379	1370	1356	1339	1338	1347	1384	1415	1427	1433	1451	1470	1467	1467	1462	1469	1480	1487	1487	1473	1460	1433	1423	1419	1420	1429	1436	1440	1454	1465	1476	1474	1465	1449	1434	1444	1459	1469	1488	1490	1499	1510	1519	1523	1526	1526	1512	1493	1497	1480	1459	1433	1420	1430	1436	1439	1445	1457	1494	1539	1581	1597	1604	1602	1633	1658	1639	1642	1651	1664	1663	1656	1641	1623	1602	1620	1638	1660	1678	1698	1695	1693	1669	1664	1656	1656	1668	1657	1632	1623	1629	1644	1663	1652	1631	1602	1592	1587	1591	1579	1556	1519	1487	1480	1523	1576	1590	1587	1567	1540	1507	1494	1489	1488	1480	1488	1507	1521	1522	1510	1508	1500	1473	1435	1403	1405	1433	1509	1556	1556	1562	1506	1495	1496	1495	1486	1470	1476	1513	1530	1526	1529	1515	1479	1461	1455	1460	1455	1433	1391	1366	1361	1371	1375	1377	1390	1401	1402	1399	1368	1368	1335	1324	1333	1347	1335	1317	1289	1286	1280	1291	1295	1305	1300	1297	1296	1284	1289	1304	1324	1335	1337	1359	1364	1365	1371	1360	1360	1339	1370	1402	1382	1358	1342	1339	1341	1322	1300	1284	1285	1285	1280	1267	1250	1250	1232	1231	1242	1260	1274	1295	1315	1333	1272	1250	1244	1233	1229	1247	1256	1251	1267	1256	1247	1228	1220	1219	1222	1229	1207	1207	1170	1157	1162	1168	1165	1152	1142	1138	1142	1148	1142	1127	1108	1090	1099	1118	1135	1154	1153	1153	1139	1105	1066	1026	1030	1091	1117	1121	1108	1070	1045	1047	1070	1078	1056	1056	1010	963	934	903	894	877	867	861	846	824	841	842	856	856	865	878	883	871	853	851	865	877	884	887	883	877	877	865	858	837	823	822	828	845	868	874	880	880	916	925	921	910	907	912	898	835	827	827	821	816	816	802	791	786	792	803	815	815	818	820	827	803	805	806	799	793	793	771	775	782	790	802	807	798	798	776	764	743	0	0	0	0	0	0	0	0	0	0	0	0	0	0	0	0	0	0	0	0	0	0	708	714	716	696	696	718	772	786	772	714	667	667	0	0	0	0	0	0	0	648	610	647	743	779	779	746	732	743	773	817	817	780	740	737	746
0	0	0	0	0	0	0	0	0	0	0	0	0	0	0	0	0	0	0	0	0	0	0	0	0	0	0	968	0	0	0	0	0	0	0	0	0	0	0	0	0	0	0	0	0	0	0	896	916	0	0	0	0	0	0	878	900	926	931	911	866	866	829	840	878	909	919	924	903	879	879	858	827	802	793	816	835	868	890	890	903	884	859	838	857	870	891	906	0	0	0	0	0	0	0	835	845	836	831	849	875	875	880	864	847	858	868	867	877	880	875	878	878	878	872	877	872	862	845	867	893	885	852	796	786	857	890	890	922	933	941	934	939	951	970	985	1014	1084	1137	1177	1209	1231	1252	1244	1244	1236	1231	1252	1271	1281	1289	1292	1298	1307	1300	1296	1289	1313	1343	1354	1369	1374	1369	1377	1377	1374	1371	1377	1376	1389	1393	1395	1394	1397	1407	1417	1417	1411	1403	1405	1410	1414	1427	1439	1470	1501	1505	1465	1436	1440	1440	1440	1442	1444	1462	1463	1437	1410	1412	1429	1437	1416	1407	1408	1435	1417	1420	1393	1360	1358	1388	1427	1468	1469	1459	1429	1422	1418	1424	1432	1429	1449	1453	1452	1444	1432	1414	1391	1378	1379	1381	1389	1404	1390	1390	1369	1358	1368	1380	1368	1343	1322	1318	1325	1363	1400	1416	1434	1453	1469	1449	1428	1418	1423	1446	1469	1482	1470	1442	1429	1410	1423	1433	1441	1449	1467	1477	1484	1489	1483	1465	1451	1446	1453	1474	1487	1504	1516	1525	1524	1522	1522	1531	1531	1526	1521	1525	1527	1513	1468	1436	1429	1430	1451	1459	1480	1505	1540	1575	1593	1592	1590	1620	1635	1607	1605	1616	1653	1659	1635	1622	1600	1588	1595	1609	1623	1641	1669	1664	1663	1645	1628	1612	1614	1625	1621	1600	1585	1589	1608	1619	1620	1588	1582	1572	1572	1574	1568	1547	1506	1481	1473	1497	1551	1600	1637	1592	1547	1503	1495	1489	1486	1478	1485	1508	1524	1514	1491	1482	1472	1448	1398	1384	1391	1414	1467	1501	1505	1460	1449	1446	1443	1440	1443	1448	1448	1446	1430	1429	1408	1383	1385	1417	1431	1440	1427	1385	1350	1327	1322	1346	1342	1351	1347	1362	1371	1354	1318	1318	1304	1295	1291	1298	1284	1276	1258	1244	1254	1272	1282	1290	1285	1274	1266	1272	1282	1295	1303	1297	1297	1307	1307	1304	1307	1264	1257	1339	1370	1353	1349	1334	1322	1314	1313	1314	1304	1290	1300	1292	1288	1280	1249	1249	1231	1225	1229	1247	1258	1271	1282	1248	1232	1240	1235	1210	1187	1182	1197	1222	1253	1255	1233	1210	1209	1209	1216	1220	1207	1207	1182	1166	1171	1168	1157	1137	1125	1115	1122	1125	1132	1115	1097	1089	1097	1123	1147	1160	1158	1158	1135	1107	1087	1078	1082	1112	1120	1123	1106	1096	1085	1084	1101	1110	1103	1103	1055	976	935	903	866	826	866	878	870	839	832	824	824	824	854	859	870	866	850	851	865	877	876	874	871	866	866	865	872	867	870	867	834	838	848	857	879	879	906	906	910	894	883	889	891	833	825	825	815	811	807	805	799	791	796	806	809	809	819	821	822	789	718	700	704	723	723	789	798	0	0	0	0	0	0	0	0	0	0	0	0	0	0	0	0	0	0	0	0	0	0	0	0	0	0	0	0	0	0	0	688	734	715	705	705	713	752	777	763	718	659	659	614	581	570	594	640	640	718	696	666	662	694	705	705	724	745	758	745	735	735	726	716	707	691
0	0	0	0	0	0	0	0	0	0	0	0	0	0	0	0	0	894	901	923	0	0	0	0	0	0	0	930	948	948	0	0	0	0	0	0	0	0	0	0	0	916	873	843	843	844	846	858	874	888	877	848	848	839	848	861	881	911	914	884	851	851	825	834	870	912	928	909	883	852	852	825	804	809	802	805	821	836	865	865	886	873	860	861	858	884	919	939	936	932	932	898	864	832	854	865	864	836	845	859	879	879	867	857	850	847	854	867	877	880	838	836	849	842	842	861	871	861	863	873	877	870	855	837	828	854	886	917	917	947	947	950	960	992	1040	1064	1070	1099	1129	1160	1197	1227	1234	1219	1219	1214	1221	1241	1262	1271	1273	1285	1295	1312	1312	1300	1281	1284	1306	1348	1363	1370	1362	1366	1366	1363	1372	1392	1402	1418	1427	1426	1416	1412	1407	1411	1406	1396	1383	1383	1388	1396	1405	1417	1448	1485	1494	1455	1430	1432	1432	1429	1412	1413	1417	1400	1389	1388	1376	1353	1339	1330	1337	1351	1384	1417	1420	1388	1352	1340	1374	1411	1439	1442	1426	1410	1401	1405	1414	1425	1437	1449	1442	1444	1446	1431	1405	1382	1362	1361	1351	1366	1379	1366	1366	1362	1356	1363	1375	1365	1351	1323	1287	1290	1321	1352	1377	1408	1441	1448	1440	1407	1387	1391	1420	1415	1359	1337	1310	1321	1346	1371	1409	1427	1440	1454	1473	1469	1469	1470	1454	1446	1448	1457	1472	1489	1501	1522	1530	1515	1503	1517	1531	1543	1543	1542	1562	1573	1566	1536	1496	1470	1472	1486	1503	1514	1521	1542	1568	1578	1568	1580	1622	1613	1589	1585	1606	1647	1646	1636	1606	1572	1566	1563	1567	1578	1599	1612	1626	1621	1611	1601	1590	1590	1596	1586	1577	1566	1571	1588	1600	1603	1584	1566	1551	1557	1571	1574	1556	1515	1488	1483	1502	1553	1629	1667	1697	1564	1522	1507	1506	1497	1485	1486	1503	1507	1487	1463	1444	1439	1402	1387	1387	1385	1411	1424	1438	1428	1412	1402	1404	1415	1421	1418	1423	1395	1320	1327	1344	1350	1361	1350	1357	1400	1404	1382	1342	1293	1286	1286	1308	1329	1326	1309	1304	1317	1318	1318	1289	1276	1264	1262	1268	1272	1254	1235	1220	1234	1254	1266	1267	1267	1264	1250	1254	1274	1291	1289	1271	1270	1247	1196	1181	1165	1264	1257	1255	1248	1259	1323	1306	1304	1290	1275	1270	1269	1292	1298	1294	1300	1282	1250	1250	1230	1223	1223	1222	1205	1196	1194	1212	1221	1228	1222	1193	1168	1163	1180	1207	1227	1234	1236	1228	1215	1211	1211	1214	1200	1200	1189	1184	1178	1173	1164	1144	1127	1111	1105	1115	1121	1117	1109	1105	1119	1145	1161	1162	1149	1149	1130	1113	1108	1097	1094	1099	1104	1078	1061	1074	1091	1098	1069	1001	948	948	897	858	826	819	828	833	843	842	843	838	829	824	817	817	842	851	855	866	850	854	860	869	877	875	864	864	860	862	861	865	870	855	823	828	838	846	862	862	883	896	888	857	838	829	814	828	839	839	845	845	839	837	835	829	803	781	779	779	786	795	795	771	717	701	699	715	715	787	797	0	0	0	0	0	0	0	0	0	0	0	0	722	722	734	702	0	0	0	0	0	0	0	0	0	0	0	0	0	0	677	708	739	731	698	698	684	675	708	715	717	700	700	701	699	690	697	704	704	705	704	709	727	722	711	711	721	743	757	748	738	738	728	716	701	679
0	0	0	0	0	0	0	0	0	0	0	0	0	0	0	871	871	880	868	865	875	0	0	0	0	0	855	889	918	918	942	949	915	884	0	0	0	0	904	963	961	916	873	843	844	847	844	828	820	826	823	810	810	799	807	828	851	875	869	849	831	831	806	827	865	898	914	906	865	825	825	808	798	809	819	818	808	831	861	861	875	869	848	841	859	883	903	921	926	923	923	900	870	858	862	865	869	872	872	885	885	885	872	869	865	859	844	841	836	839	838	836	796	806	806	827	837	850	858	857	857	853	839	828	820	827	861	902	902	944	955	977	984	1019	1056	1067	1079	1090	1119	1145	1175	1212	1226	1200	1200	1201	1228	1254	1264	1269	1268	1275	1282	1300	1304	1301	1274	1273	1283	1314	1345	1361	1361	1360	1360	1373	1387	1412	1435	1445	1444	1445	1433	1421	1404	1391	1395	1384	1371	1359	1367	1384	1395	1408	1430	1483	1499	1456	1440	1435	1435	1421	1388	1351	1339	1340	1347	1349	1339	1306	1292	1300	1313	1342	1372	1398	1405	1388	1352	1313	1335	1391	1407	1408	1393	1373	1379	1396	1409	1420	1414	1422	1420	1422	1427	1422	1384	1362	1337	1324	1300	1310	1327	1339	1352	1352	1370	1381	1384	1380	1357	1323	1300	1305	1315	1332	1349	1371	1392	1425	1434	1428	1410	1389	1378	1372	1359	1349	1342	1338	1346	1354	1355	1358	1382	1417	1435	1440	1429	1421	1417	1403	1388	1392	1430	1452	1470	1489	1510	1504	1498	1506	1526	1543	1557	1561	1563	1558	1555	1533	1499	1467	1463	1486	1513	1528	1534	1541	1565	1579	1573	1597	1619	1610	1569	1573	1599	1643	1646	1622	1587	1552	1547	1542	1539	1547	1557	1577	1583	1586	1590	1590	1589	1577	1576	1573	1570	1562	1563	1584	1596	1592	1579	1559	1547	1547	1569	1576	1563	1525	1499	1495	1512	1527	1598	1684	1703	1645	1531	1521	1508	1497	1486	1487	1499	1492	1463	1441	1419	1413	1405	1394	1395	1403	1411	1420	1403	1373	1369	1364	1376	1379	1342	1264	1237	1247	1278	1291	1303	1318	1332	1337	1337	1353	1367	1318	1278	1255	1257	1253	1265	1283	1262	1206	1156	1151	1239	1239	1244	1241	1232	1231	1253	1260	1239	1224	1212	1193	1203	1212	1215	1212	1186	1161	1149	1149	1151	1145	1141	1146	1153	1118	1088	1165	1152	1150	1149	1151	1164	1181	1215	1217	1170	1133	1116	1117	1141	1156	1169	1184	1217	1217	1224	1237	1232	1219	1209	1193	1169	1184	1216	1229	1251	1276	1277	1270	1298	1315	1281	1245	1261	1268	1263	1247	1239	1239	1246	1267	1267	1255	1220	1194	1191	1180	1160	1127	1105	1103	1108	1113	1118	1117	1121	1142	1158	1167	1163	1163	1148	1128	1120	1114	1108	1098	1078	1043	1031	1002	1011	1031	986	949	923	906	906	906	877	842	829	829	835	839	842	840	832	831	851	867	867	876	851	855	853	858	859	854	854	854	847	831	831	826	823	825	824	822	817	810	807	817	830	852	852	874	887	883	848	819	807	811	830	842	842	850	843	837	834	840	834	803	788	772	772	779	782	775	761	724	710	704	698	698	660	657	686	712	732	737	719	719	697	690	701	727	753	762	759	722	734	702	694	679	650	640	675	675	686	686	691	696	704	703	703	709	715	742	787	786	760	760	739	726	717	700	712	705	705	704	705	694	702	708	708	707	704	711	731	726	726	703	694	711	740	772	777	777	750	707	649	639
0	0	0	0	0	0	0	0	0	0	0	0	0	0	0	890	890	882	871	855	849	847	847	833	823	818	823	858	891	891	915	924	902	871	831	804	822	822	859	901	912	874	850	844	844	847	844	825	825	816	805	797	797	767	766	794	822	814	788	781	791	791	798	813	845	876	890	871	834	801	801	796	796	782	796	798	795	825	852	861	861	845	817	800	823	843	871	891	883	865	865	836	828	837	843	854	856	859	878	886	885	885	877	875	875	855	817	809	809	796	784	780	796	806	769	793	822	839	849	855	845	843	820	812	809	820	847	894	894	948	981	994	1008	1015	1041	1062	1074	1086	1086	1095	1122	1167	1185	1181	1181	1187	1211	1245	1250	1248	1245	1247	1260	1280	1292	1286	1265	1266	1278	1304	1327	1344	1356	1369	1369	1379	1400	1432	1447	1452	1451	1454	1446	1417	1397	1383	1398	1400	1376	1371	1366	1370	1390	1416	1450	1482	1487	1456	1432	1422	1414	1414	1386	1351	1320	1309	1319	1329	1330	1308	1292	1293	1305	1330	1357	1375	1384	1365	1330	1313	1335	1356	1382	1389	1372	1357	1336	1355	1375	1377	1378	1385	1396	1400	1401	1351	1330	1325	1317	1309	1303	1303	1308	1312	1329	1329	1361	1396	1413	1399	1370	1347	1326	1328	1331	1330	1345	1366	1384	1414	1425	1417	1395	1373	1364	1364	1371	1380	1371	1360	1358	1342	1325	1323	1339	1375	1396	1399	1396	1390	1389	1377	1367	1367	1375	1408	1436	1447	1441	1449	1470	1498	1521	1544	1570	1571	1555	1541	1529	1511	1486	1448	1447	1469	1502	1527	1526	1544	1563	1576	1588	1602	1602	1575	1559	1566	1601	1640	1655	1626	1582	1553	1539	1529	1526	1525	1531	1549	1554	1558	1570	1588	1588	1574	1569	1563	1566	1564	1558	1571	1580	1580	1572	1553	1538	1530	1545	1576	1557	1527	1507	1505	1516	1534	1550	1645	1690	1677	1526	1507	1509	1502	1494	1496	1504	1498	1470	1441	1434	1430	1422	1414	1434	1438	1443	1434	1411	1364	1364	1356	1358	1322	1241	1178	1196	1211	1241	1264	1272	1300	1317	1334	1325	1326	1304	1271	1227	1207	1194	1183	1181	1188	1173	1131	1107	1116	1131	1131	1110	1096	1099	1120	1162	1200	1203	1189	1178	1137	1121	1122	1116	1115	1114	1106	1073	1056	1057	1051	1054	1057	1074	1118	1088	1070	1062	1069	1076	1087	1108	1126	1147	1164	1163	1144	1132	1132	1167	1177	1183	1185	1221	1221	1226	1259	1281	1271	1224	1200	1179	1266	1359	1391	1380	1390	1419	1408	1404	1397	1393	1367	1312	1318	1308	1284	1265	1259	1275	1275	1273	1258	1230	1192	1174	1159	1134	1112	1094	1092	1099	1096	1100	1105	1120	1140	1149	1136	1110	1110	1086	1078	1087	1088	1044	994	982	985	981	963	952	947	937	922	909	909	891	876	853	830	825	829	834	837	841	831	817	814	846	867	867	876	860	846	847	849	850	853	857	852	846	836	836	830	831	828	821	822	811	799	799	801	811	811	832	842	845	833	828	822	815	815	815	817	817	823	806	802	802	804	801	795	795	795	791	767	750	746	754	771	757	733	733	715	681	667	682	711	731	737	719	719	692	689	705	731	753	762	759	759	741	727	721	710	701	702	687	687	687	690	689	692	703	717	717	717	724	749	775	775	762	762	746	731	713	701	690	704	704	722	717	718	723	732	732	711	676	657	662	674	674	693	695	704	684	695	695	723	722	693	654	635
0	0	0	0	0	0	0	0	0	0	0	0	0	0	0	886	886	888	876	865	855	872	872	864	867	847	834	846	879	879	898	904	903	846	816	795	798	798	830	866	868	849	836	833	833	831	827	825	825	816	789	757	736	736	738	766	794	0	0	0	0	0	777	781	825	849	849	838	810	800	800	792	761	741	741	756	771	803	830	832	832	800	762	755	768	795	821	840	850	837	837	808	801	819	824	809	810	822	842	854	859	865	865	883	872	841	813	809	798	780	749	752	758	769	769	793	822	847	848	844	835	812	803	809	804	830	862	909	909	963	1001	1012	1007	1006	1020	1049	1062	1044	1029	1056	1100	1154	1174	1169	1168	1168	1192	1205	1217	1220	1206	1206	1217	1238	1248	1257	1266	1267	1277	1288	1313	1332	1355	1375	1390	1390	1413	1433	1432	1440	1438	1447	1446	1427	1403	1406	1421	1418	1405	1387	1372	1363	1381	1425	1467	1486	1477	1441	1412	1406	1404	1404	1387	1354	1323	1296	1295	1311	1324	1320	1295	1294	1307	1324	1356	1365	1373	1360	1329	1326	1328	1356	1382	1367	1362	1353	1337	1323	1322	1317	1325	1337	1356	1367	1344	1326	1321	1321	1313	1306	1298	1297	1284	1289	1305	1305	1360	1386	1395	1376	1351	1346	1339	1344	1341	1355	1371	1375	1382	1385	1388	1393	1369	1362	1357	1363	1371	1387	1388	1363	1344	1317	1286	1274	1295	1332	1350	1349	1318	1267	1281	1298	1331	1344	1360	1375	1391	1405	1414	1417	1440	1478	1519	1557	1587	1581	1556	1522	1505	1493	1469	1444	1440	1459	1487	1507	1515	1545	1562	1568	1581	1573	1549	1534	1542	1573	1605	1633	1638	1610	1572	1549	1535	1532	1530	1528	1531	1535	1543	1544	1556	1566	1574	1573	1567	1564	1579	1586	1579	1568	1560	1563	1567	1557	1543	1527	1542	1585	1564	1539	1514	1508	1519	1546	1617	1657	1682	1679	1584	1517	1524	1521	1525	1540	1597	1584	1525	1493	1472	1469	1474	1517	1515	1508	1481	1461	1447	1424	1394	1369	1351	1261	1175	1165	1181	1194	1230	1247	1264	1290	1314	1334	1335	1332	1316	1288	1257	1238	1220	1211	1200	1196	1180	1159	1127	1133	1133	1168	1181	1172	1159	1163	1170	1191	1196	1188	1171	1129	1111	1111	1112	1107	1095	1086	1076	1064	1059	1050	1053	1057	1074	1074	1064	1061	1063	1070	1073	1076	1099	1121	1147	1170	1169	1156	1153	1221	1276	1295	1296	1328	1398	1398	1442	1504	1486	1366	1296	1295	1318	1402	1472	1509	1498	1490	1464	1445	1431	1412	1400	1383	1370	1349	1342	1321	1280	1268	1262	1262	1245	1205	1154	1123	1104	1084	1031	996	981	978	980	981	984	992	986	968	944	923	912	912	921	917	910	904	896	896	925	923	911	886	854	837	823	834	839	839	831	828	829	819	804	783	786	798	815	822	783	814	846	846	866	864	849	822	805	789	785	814	804	794	794	793	793	783	765	771	780	791	799	796	789	781	782	782	755	819	819	822	817	817	819	815	817	819	819	829	806	798	799	802	801	787	785	785	770	753	741	746	755	771	761	741	741	737	734	725	699	671	693	714	723	723	704	689	705	731	757	764	763	763	737	724	720	708	697	696	696	678	655	649	654	670	693	708	708	719	739	740	749	744	731	731	732	716	713	689	677	679	679	676	686	693	690	677	677	657	652	649	653	674	674	686	696	690	697	704	704	715	712	693	654	635
0	0	0	0	0	0	0	0	0	0	0	0	0	0	0	884	884	891	887	873	879	884	876	876	864	854	847	858	892	904	904	914	888	862	818	804	810	810	823	834	843	830	833	831	822	822	818	816	816	811	789	757	736	717	724	748	765	761	0	0	0	0	760	781	804	812	807	795	776	782	782	769	744	703	689	704	749	780	796	786	786	750	710	698	723	749	778	806	811	807	807	791	785	801	798	780	763	780	792	818	836	853	853	859	856	841	832	831	817	798	770	750	746	756	756	777	820	847	848	844	804	786	775	782	794	820	863	914	914	970	1009	1030	1020	1012	1008	1019	1017	999	1012	1036	1088	1124	1147	1153	1160	1160	1169	1184	1190	1181	1173	1179	1180	1189	1204	1225	1246	1252	1250	1255	1269	1299	1326	1367	1389	1389	1411	1417	1408	1412	1410	1424	1438	1423	1414	1403	1427	1439	1426	1404	1363	1349	1373	1412	1454	1461	1450	1421	1389	1385	1388	1388	1374	1346	1312	1281	1272	1291	1318	1320	1292	1290	1292	1322	1367	1386	1387	1366	1344	1333	1332	1350	1364	1367	1343	1342	1330	1303	1281	1280	1282	1297	1316	1316	1310	1317	1322	1319	1298	1283	1281	1280	1290	1306	1328	1370	1370	1386	1384	1362	1331	1317	1298	1307	1322	1329	1339	1351	1358	1362	1354	1359	1350	1344	1351	1359	1369	1380	1359	1341	1314	1288	1259	1239	1246	1262	1212	1209	1212	1226	1237	1277	1298	1318	1328	1339	1358	1372	1393	1407	1424	1459	1500	1550	1588	1582	1543	1501	1474	1464	1458	1444	1438	1461	1484	1511	1523	1558	1574	1577	1550	1532	1517	1518	1537	1568	1589	1615	1615	1588	1550	1533	1527	1530	1533	1529	1529	1546	1569	1563	1561	1563	1579	1577	1590	1600	1635	1670	1641	1601	1614	1616	1628	1612	1628	1646	1673	1662	1640	1608	1574	1556	1583	1612	1666	1722	1720	1726	1722	1660	1650	1693	1668	1698	1687	1674	1642	1625	1589	1543	1540	1540	1543	1540	1519	1499	1472	1446	1420	1380	1288	1201	1161	1143	1149	1195	1206	1223	1255	1300	1329	1330	1334	1325	1313	1288	1267	1252	1241	1234	1223	1228	1231	1238	1228	1220	1220	1213	1203	1188	1172	1174	1182	1196	1197	1186	1167	1123	1108	1110	1119	1105	1090	1081	1079	1102	1187	1050	1053	1056	1071	1072	1070	1073	1102	1184	1225	1252	1280	1314	1364	1410	1438	1458	1493	1508	1525	1521	1503	1473	1473	1450	1455	1514	1494	1368	1309	1300	1318	1418	1493	1530	1530	1517	1491	1466	1443	1427	1409	1396	1373	1356	1358	1341	1286	1221	1165	1165	1131	1116	1105	986	969	954	890	871	856	847	842	829	842	848	835	826	837	848	854	854	861	864	854	847	828	812	815	864	872	866	841	829	818	830	833	833	827	826	824	817	800	774	777	795	813	822	783	773	789	789	810	821	808	794	780	766	765	800	798	793	791	790	790	780	765	765	772	792	800	795	790	782	782	782	750	788	782	781	789	794	807	828	855	861	861	848	822	805	809	828	844	829	794	794	767	741	738	750	788	782	760	747	747	741	739	717	681	664	679	707	723	723	704	698	705	729	746	761	762	762	749	722	702	683	681	670	670	657	649	640	632	650	667	681	681	701	719	724	722	725	726	726	711	691	677	663	654	654	652	662	676	688	681	661	661	643	636	623	640	665	665	691	708	705	694	704	704	715	712	682	644	627
0	0	0	0	0	0	0	0	0	0	0	0	0	0	845	871	871	887	887	873	867	870	870	870	865	858	855	874	902	919	919	905	881	837	820	822	826	826	828	822	822	826	833	824	831	831	823	826	801	782	762	732	717	717	724	748	732	715	714	723	735	735	749	759	770	770	769	762	758	749	749	753	733	692	684	696	741	780	795	764	764	728	694	697	710	732	740	756	772	781	793	793	799	787	776	753	733	742	766	788	814	824	824	839	834	832	829	825	803	798	801	785	762	748	748	779	829	858	861	844	804	769	762	764	775	797	836	889	943	943	979	1003	1005	991	972	963	971	977	993	1027	1065	1096	1110	1111	1129	1129	1145	1150	1154	1149	1152	1155	1159	1164	1175	1151	1157	1175	1191	1211	1234	1257	1286	1320	1368	1368	1386	1379	1375	1376	1391	1407	1419	1404	1395	1382	1402	1415	1401	1373	1347	1343	1360	1387	1404	1414	1398	1372	1338	1344	1342	1342	1319	1269	1265	1271	1266	1269	1261	1256	1241	1217	1218	1281	1332	1379	1382	1367	1348	1329	1329	1341	1345	1350	1343	1342	1288	1269	1260	1264	1274	1276	1277	1278	1292	1308	1312	1298	1277	1257	1257	1271	1313	1337	1370	1384	1384	1380	1366	1338	1304	1286	1265	1267	1293	1306	1296	1269	1261	1271	1320	1333	1339	1338	1338	1342	1354	1351	1337	1313	1282	1262	1230	1223	1232	1260	1257	1254	1247	1248	1267	1290	1307	1304	1295	1302	1317	1347	1380	1402	1421	1440	1451	1463	1457	1449	1435	1421	1419	1413	1421	1427	1435	1453	1491	1527	1534	1616	1625	1601	1601	1519	1512	1525	1547	1557	1575	1596	1593	1650	1655	1626	1622	1616	1694	1703	1710	1688	1673	1740	1765	1766	1776	1752	1774	1791	1829	1875	1895	1876	1841	1839	1836	1844	1859	1875	1865	1837	1821	1846	1841	1853	1850	1842	1815	1790	1778	1760	1745	1722	1680	1704	1694	1725	1740	1731	1699	1655	1606	1559	1491	1430	1417	1412	1399	1370	1329	1296	1279	1253	1226	1180	1115	1098	1099	1101	1081	1063	1067	1093	1128	1224	1291	1303	1310	1297	1279	1264	1238	1230	1249	1254	1256	1259	1252	1252	1237	1231	1221	1200	1184	1181	1183	1186	1188	1179	1128	1113	1115	1120	1122	1108	1081	1066	1065	1084	1187	1242	1252	1265	1283	1335	1365	1382	1395	1392	1342	1279	1282	1315	1368	1423	1445	1454	1492	1511	1527	1519	1507	1478	1478	1435	1386	1376	1350	1310	1258	1262	1261	1245	1224	1200	1132	1113	1121	1123	1116	1120	1124	1121	1079	1033	988	973	947	920	914	914	910	906	905	871	873	874	868	868	856	842	832	823	836	844	831	822	835	846	846	853	860	864	854	847	825	807	810	837	841	793	808	862	865	845	821	821	770	791	832	850	823	785	777	795	813	823	777	771	780	780	789	793	792	784	766	757	753	744	744	758	779	787	787	790	773	748	753	793	794	771	750	730	723	723	741	761	771	796	805	800	793	812	833	833	841	834	817	796	803	823	829	822	794	794	777	773	769	783	785	785	759	747	747	736	725	707	678	664	679	707	713	713	682	679	689	713	732	755	762	762	753	743	711	675	649	646	646	654	651	631	616	611	626	656	656	695	712	710	711	710	711	711	699	671	632	631	632	632	639	639	659	668	659	642	642	629	624	609	626	657	657	696	708	705	694	683	683	677	651	631	621	612
0	0	0	0	0	0	0	904	896	886	886	874	842	826	834	841	841	852	847	842	841	854	869	869	863	855	842	865	882	883	883	854	838	822	820	826	833	833	834	828	810	802	806	821	827	827	838	833	806	785	761	740	729	729	724	739	732	715	714	690	713	713	739	758	745	738	741	749	753	750	744	744	734	718	722	750	781	821	810	783	783	748	725	716	733	736	728	710	729	759	788	788	794	785	770	731	724	726	752	778	799	805	805	801	810	820	810	805	775	783	789	791	772	753	781	781	834	861	872	843	800	769	762	764	760	772	813	865	892	892	922	938	946	929	928	939	954	971	999	1027	1067	1078	1077	1086	1099	1099	1116	1116	1114	1129	1142	1143	1122	1116	1120	1129	1150	1168	1177	1191	1215	1234	1266	1302	1330	1330	1337	1337	1333	1336	1358	1382	1385	1371	1360	1354	1357	1364	1371	1359	1354	1347	1360	1356	1359	1347	1325	1299	1278	1271	1264	1246	1246	1247	1254	1275	1280	1267	1254	1243	1238	1218	1220	1226	1282	1343	1362	1356	1339	1328	1327	1330	1321	1285	1281	1294	1288	1269	1277	1285	1279	1279	1272	1275	1292	1305	1295	1260	1245	1245	1246	1276	1315	1349	1379	1386	1368	1368	1349	1314	1275	1237	1233	1235	1247	1251	1222	1201	1195	1229	1283	1314	1323	1318	1312	1310	1314	1315	1310	1290	1273	1262	1254	1254	1271	1292	1297	1299	1293	1288	1306	1326	1342	1341	1339	1344	1351	1369	1392	1425	1457	1463	1467	1460	1452	1448	1434	1416	1411	1409	1424	1438	1449	1462	1509	1556	1717	1712	1708	1725	1673	1710	1753	1763	1762	1766	1779	1772	1795	1803	1795	1803	1813	1819	1853	1852	1760	1732	1738	1753	1787	1833	1860	1875	1860	1864	1873	1888	1895	1887	1869	1865	1856	1856	1861	1856	1850	1846	1820	1847	1853	1857	1860	1862	1847	1820	1802	1780	1756	1715	1662	1657	1596	1548	1536	1508	1477	1438	1399	1375	1346	1308	1276	1248	1212	1179	1158	1151	1152	1137	1119	1102	1089	1078	1034	1023	1018	997	992	1000	1053	1122	1171	1195	1206	1221	1216	1205	1197	1202	1210	1199	1171	1082	1038	1038	1042	1054	1085	1109	1143	1146	1142	1121	1078	1063	1057	1090	1107	1116	1106	1067	1045	1038	1065	1084	1175	1239	1259	1266	1279	1324	1354	1372	1387	1381	1345	1267	1231	1162	1150	1160	1155	1130	1107	1101	1106	1101	1046	1037	1037	1009	996	996	1004	1017	1034	1066	1070	1091	1125	1108	1097	1099	1104	1108	1094	1103	1108	1102	1065	1015	971	963	931	907	907	908	901	902	900	871	871	865	849	832	814	790	845	847	863	879	880	861	860	866	866	872	887	916	933	933	903	867	836	825	834	850	852	835	819	808	786	786	788	809	831	835	823	785	769	771	780	786	797	793	782	782	783	785	781	781	771	760	758	746	737	747	767	767	779	775	755	739	745	769	775	761	741	723	723	723	752	771	787	811	818	807	788	789	803	803	812	814	787	745	745	781	812	813	799	799	785	775	770	757	769	754	734	729	729	724	715	707	678	656	667	683	683	670	657	656	669	693	712	734	734	742	744	736	709	679	654	652	652	662	645	627	604	599	622	622	660	686	701	702	700	698	698	710	686	640	600	592	607	607	615	624	634	641	636	613	613	607	606	611	630	657	657	696	711	707	691	679	679	663	646	633	630	625
0	0	0	0	0	0	0	904	843	868	868	866	847	837	808	809	809	801	793	789	818	851	864	864	857	835	822	828	854	848	848	837	830	812	808	808	819	819	825	828	815	799	790	799	814	814	821	824	812	790	771	748	737	737	727	722	692	686	678	690	713	745	745	763	755	748	742	736	740	745	741	741	727	735	740	768	798	821	823	797	797	770	755	740	745	742	727	714	707	735	765	765	778	777	763	743	741	739	762	773	777	774	774	774	795	810	813	795	767	757	762	773	755	753	780	780	818	858	866	850	815	783	772	764	760	772	790	828	861	861	911	928	933	925	924	930	953	984	1027	1062	1078	1070	1065	1071	1101	1101	1118	1111	1111	1121	1135	1145	1132	1128	1133	1140	1159	1183	1193	1206	1225	1247	1276	1305	1317	1317	1299	1294	1300	1318	1346	1366	1382	1369	1359	1350	1353	1363	1362	1354	1357	1356	1348	1319	1301	1278	1258	1243	1234	1232	1236	1235	1235	1257	1278	1301	1314	1305	1269	1260	1253	1250	1252	1231	1270	1336	1346	1345	1335	1331	1333	1330	1328	1298	1288	1288	1289	1280	1277	1285	1278	1270	1272	1275	1288	1279	1259	1249	1250	1254	1263	1286	1309	1321	1322	1319	1267	1267	1259	1241	1226	1223	1233	1240	1242	1242	1233	1216	1224	1250	1271	1286	1283	1272	1257	1243	1241	1249	1264	1280	1287	1283	1280	1280	1291	1305	1339	1349	1335	1336	1334	1355	1368	1362	1359	1361	1374	1385	1404	1426	1455	1468	1474	1475	1483	1484	1471	1476	1492	1509	1564	1619	1672	1742	1774	1779	1813	1799	1799	1785	1820	1879	1903	1886	1870	1873	1858	1841	1808	1809	1812	1820	1823	1840	1849	1835	1770	1724	1718	1721	1774	1833	1855	1872	1854	1860	1865	1871	1882	1895	1888	1884	1870	1851	1835	1819	1815	1804	1731	1653	1572	1536	1537	1538	1534	1517	1477	1458	1467	1456	1421	1391	1367	1342	1263	1221	1199	1185	1179	1164	1152	1116	1070	1025	997	976	970	971	983	991	986	971	972	985	994	1007	998	975	975	973	976	978	998	994	976	978	994	1009	1018	1022	1032	984	980	1021	1034	1034	1033	1050	1081	1105	1126	1124	1120	1107	1074	1053	1047	1080	1106	1108	1093	1047	1045	1038	1039	1035	1020	1007	997	985	972	978	1032	1044	1055	1060	1053	1062	1087	1113	1138	1143	1138	1120	1100	1100	1099	1097	1044	1039	1039	1007	988	985	994	1005	1024	1058	1068	1083	1088	1087	1084	1087	1098	1095	1071	1059	1060	1059	1058	1062	1060	1061	1039	1002	1002	964	938	921	920	930	933	915	899	887	873	861	843	841	851	863	863	849	850	856	856	866	872	897	912	910	891	854	821	808	814	835	846	829	818	814	814	807	798	809	831	835	801	777	759	758	769	781	791	792	782	782	784	790	797	808	779	775	765	742	729	735	749	749	772	769	746	733	730	722	729	727	723	732	752	752	777	789	799	809	809	795	768	751	746	746	755	753	736	722	708	695	678	687	713	713	718	708	697	679	661	653	655	680	729	724	715	702	685	670	670	670	670	654	632	636	661	690	696	709	709	709	704	696	687	681	679	677	677	661	646	629	612	621	648	648	673	689	690	694	689	690	690	690	698	656	600	585	588	588	597	603	613	627	612	612	591	584	606	611	630	663	663	685	697	702	692	683	683	681	670	667	665	654
0	0	0	811	811	826	840	832	843	868	868	845	838	811	786	780	780	754	740	758	804	853	865	865	844	800	787	796	807	820	820	832	850	830	797	780	787	787	806	808	804	774	763	762	776	776	794	797	793	787	761	737	722	722	717	709	693	683	683	701	723	745	745	763	782	756	741	735	746	738	748	748	742	737	754	778	800	814	814	804	798	798	777	745	725	735	737	720	711	729	758	758	767	763	761	760	761	752	760	770	772	766	766	767	771	790	808	804	778	758	752	751	751	759	767	767	802	835	841	834	810	788	770	750	749	762	790	828	860	860	909	941	970	953	938	943	971	1043	1078	1088	1092	1077	1085	1108	1134	1134	1134	1127	1129	1137	1146	1151	1141	1141	1150	1163	1187	1221	1231	1237	1254	1291	1313	1321	1302	1290	1290	1284	1291	1309	1333	1364	1382	1393	1385	1370	1368	1366	1358	1353	1343	1344	1319	1268	1230	1209	1205	1213	1221	1233	1249	1274	1274	1384	1396	1386	1369	1357	1342	1350	1356	1345	1361	1373	1416	1384	1359	1353	1352	1352	1356	1352	1367	1373	1360	1345	1325	1303	1294	1292	1278	1254	1245	1238	1240	1241	1246	1255	1261	1265	1260	1230	1227	1228	1240	1240	1238	1230	1230	1190	1174	1180	1216	1241	1249	1250	1239	1232	1237	1259	1281	1288	1285	1278	1260	1243	1236	1247	1254	1272	1287	1300	1299	1293	1296	1322	1356	1377	1374	1367	1388	1399	1404	1403	1413	1427	1449	1507	1546	1575	1602	1615	1595	1582	1530	1498	1483	1482	1493	1504	1548	1588	1637	1699	1746	1763	1829	1842	1816	1827	1848	1877	1888	1862	1866	1868	1859	1841	1804	1801	1797	1798	1793	1792	1784	1763	1703	1693	1693	1673	1630	1566	1538	1538	1520	1429	1415	1427	1436	1437	1412	1315	1282	1265	1236	1204	1174	1160	1159	1146	1109	1105	1105	1115	1112	1108	1089	1078	1065	1084	1097	1126	1145	1147	1152	1141	1132	1123	1109	1093	1099	1099	1070	1019	997	975	970	970	977	995	985	966	965	979	989	989	974	961	962	967	968	969	983	990	976	976	992	1007	1006	1012	1012	977	981	1023	1023	1051	1064	1091	1134	1133	1120	1115	1115	1122	1133	1135	1131	1130	1148	1153	1093	1047	1034	1025	1030	1018	1010	999	986	979	973	970	1021	1034	1041	1044	1043	1047	1069	1103	1123	1127	1128	1114	1094	1093	1096	1102	1109	1109	1114	1106	1101	1095	1094	1093	1091	1086	1077	1080	1083	1086	1088	1083	1095	1098	1081	1080	1072	1081	1083	1086	1089	1090	1055	1026	1026	992	970	962	951	942	924	903	904	890	881	861	834	828	834	843	838	811	794	800	800	823	839	863	881	883	856	830	806	800	807	829	851	843	828	814	814	809	798	809	824	823	799	764	745	738	743	758	779	789	789	788	789	800	811	785	760	746	760	735	709	719	738	738	759	746	746	742	735	718	713	717	721	726	726	751	770	786	787	785	786	777	754	740	741	741	739	741	721	705	689	677	661	669	691	691	707	702	686	672	642	635	655	680	680	700	695	694	690	684	679	667	667	642	637	644	653	650	646	660	660	662	657	649	657	657	673	668	668	656	643	632	637	658	679	679	694	696	694	687	675	665	665	659	665	675	643	616	593	593	593	602	614	614	607	612	591	584	591	622	651	659	659	669	665	672	688	694	694	698	696	693	687	692
758	775	789	795	795	815	814	807	817	820	820	845	838	811	772	753	731	731	711	727	776	833	848	848	826	777	766	781	823	831	831	849	849	840	810	793	786	786	786	796	785	747	727	712	743	743	752	757	756	745	713	702	707	707	713	713	712	717	714	722	743	776	776	780	782	756	736	735	740	749	748	748	751	747	753	775	801	823	806	775	740	740	693	641	662	706	732	728	716	730	754	754	770	758	744	736	729	735	751	762	766	755	760	760	756	770	792	808	795	769	751	759	776	799	803	803	803	815	810	810	795	773	741	738	748	761	793	816	860	860	991	1043	1064	1067	1065	1065	1082	1091	1104	1110	1108	1103	1094	1090	1102	1109	1109	1121	1139	1156	1162	1162	1152	1155	1160	1186	1230	1253	1272	1279	1285	1305	1314	1315	1310	1299	1299	1292	1307	1324	1340	1368	1410	1412	1404	1397	1393	1402	1386	1364	1342	1326	1294	1241	1215	1200	1204	1209	1245	1315	1359	1389	1405	1405	1406	1411	1418	1417	1426	1415	1402	1393	1391	1393	1428	1391	1376	1372	1376	1367	1383	1375	1382	1391	1383	1363	1345	1324	1308	1293	1276	1254	1245	1140	1158	1170	1187	1200	1211	1213	1205	1204	1206	1235	1245	1244	1224	1195	1195	1167	1155	1162	1184	1219	1237	1242	1241	1246	1252	1265	1275	1281	1287	1279	1262	1252	1241	1235	1222	1230	1260	1282	1287	1276	1284	1321	1357	1386	1389	1384	1392	1397	1404	1404	1407	1408	1418	1497	1548	1573	1603	1613	1590	1581	1536	1501	1487	1484	1490	1482	1477	1461	1463	1507	1553	1564	1556	1509	1416	1384	1391	1392	1386	1354	1318	1318	1331	1337	1330	1311	1296	1290	1284	1270	1252	1232	1214	1205	1210	1213	1220	1230	1226	1220	1203	1190	1183	1178	1190	1211	1238	1248	1246	1245	1224	1204	1178	1162	1150	1134	1097	1091	1092	1106	1104	1100	1079	1068	1057	1082	1091	1127	1148	1135	1134	1114	1095	1082	1074	1078	1089	1092	1069	1062	1067	1065	1057	1057	1082	1103	1119	1140	1110	1088	1084	1092	1132	1143	1139	1119	1093	1078	1077	1095	1140	1156	1154	1145	1143	1141	1153	1151	1141	1143	1143	1145	1149	1148	1136	1114	1105	1104	1101	1117	1129	1137	1143	1143	1148	1153	1131	1116	1114	1121	1120	1106	1094	1083	1068	1057	1056	1066	1061	1059	1060	1051	1049	1050	1062	1092	1111	1114	1121	1125	1106	1091	1085	1085	1088	1088	1092	1099	1102	1100	1097	1092	1088	1081	1068	1056	1062	1065	1058	1063	1079	1105	1113	1110	1107	1104	1108	1108	1112	1100	1071	1038	1038	1006	977	956	949	931	911	883	875	867	865	840	819	807	814	819	790	779	773	773	773	768	761	745	740	765	795	810	796	811	824	835	839	834	823	802	814	809	809	808	807	806	791	749	737	733	738	754	775	791	791	797	808	813	799	774	758	750	733	712	708	711	726	726	734	744	744	740	730	720	712	708	709	722	722	748	767	775	778	765	756	746	735	728	729	729	733	723	708	683	670	651	629	648	648	677	689	693	682	672	642	635	640	640	661	668	668	671	671	671	670	664	664	648	636	635	634	630	623	624	624	616	606	604	621	646	663	663	663	654	643	644	648	658	673	673	681	685	680	676	655	639	639	625	620	614	620	632	640	640	645	634	614	614	607	607	589	573	592	614	650	657	657	647	649	656	674	686	686	696	687	682	681	681
791	793	788	799	799	800	801	787	780	793	793	805	801	785	772	753	731	713	696	722	769	796	825	825	849	863	837	815	806	826	826	838	846	843	827	818	817	818	818	783	749	725	694	681	672	672	684	709	711	692	687	683	685	716	716	734	749	748	744	730	742	768	768	780	788	760	736	735	740	755	763	763	763	731	0	0	0	0	0	0	721	721	660	622	625	663	702	723	722	725	758	758	761	758	734	727	723	725	736	733	746	763	763	763	749	765	804	798	792	781	788	787	800	819	826	826	814	796	790	783	768	748	731	738	763	778	790	827	903	991	991	1043	1064	1078	1089	1107	1106	1113	1120	1126	1111	1109	1092	1087	1095	1099	1099	1114	1131	1144	1161	1170	1208	1240	1274	1293	1302	1332	1388	1376	1350	1324	1316	1332	1363	1387	1387	1420	1425	1444	1471	1474	1489	1486	1488	1475	1445	1419	1395	1364	1336	1298	1271	1256	1236	1237	1240	1260	1290	1317	1359	1395	1404	1404	1400	1397	1419	1425	1434	1435	1426	1407	1390	1375	1366	1370	1375	1375	1377	1370	1359	1328	1298	1221	1150	1157	1165	1178	1183	1182	1170	1150	1132	1140	1158	1060	1073	1083	1069	1051	1041	1063	1096	1126	1138	1135	1104	1049	1049	1037	1025	996	986	992	1004	1016	1023	1019	1017	1020	1031	1038	1040	1034	1044	1051	1083	1149	1145	1143	1166	1196	1196	1165	1127	1122	1148	1149	1150	1140	1147	1183	1196	1192	1175	1166	1187	1210	1228	1245	1249	1229	1138	1098	1080	1020	1008	1005	1071	1110	1135	1145	1177	1248	1372	1416	1426	1379	1366	1332	1311	1280	1241	1253	1289	1318	1329	1338	1328	1301	1294	1284	1274	1261	1251	1238	1219	1217	1230	1227	1239	1253	1244	1223	1207	1198	1184	1185	1191	1207	1227	1231	1239	1229	1215	1261	1271	1264	1261	1247	1236	1218	1213	1215	1233	1245	1252	1264	1279	1313	1347	1365	1371	1366	1346	1312	1277	1242	1228	1223	1224	1210	1197	1180	1174	1179	1184	1192	1197	1192	1193	1200	1185	1173	1146	1137	1146	1150	1149	1126	1091	1081	1095	1116	1134	1149	1145	1143	1133	1138	1136	1133	1123	1123	1129	1130	1132	1129	1112	1091	1079	1085	1100	1113	1128	1145	1147	1143	1148	1139	1130	1111	1110	1122	1121	1113	1100	1088	1074	1075	1086	1091	1091	1078	1067	1060	1056	1056	1072	1087	1101	1107	1114	1117	1100	1070	1051	1027	1018	1018	1067	1085	1098	1105	1105	1098	973	897	883	891	901	937	1028	1052	1067	1083	1107	1117	1120	1120	1124	1119	1115	1099	1073	1073	1038	1004	968	937	917	892	856	842	837	836	814	797	793	791	785	774	766	766	765	765	763	751	756	752	751	762	772	778	792	811	808	807	804	807	823	802	802	791	785	782	768	752	731	714	707	719	744	770	790	797	797	803	813	826	804	774	764	757	745	721	707	702	710	710	730	740	740	727	722	717	716	710	709	719	719	738	756	759	757	753	745	735	722	718	719	719	727	723	702	673	640	611	602	607	607	649	689	693	682	666	628	616	628	628	640	648	645	639	645	651	663	656	656	643	625	615	607	600	603	606	606	597	580	581	604	644	669	664	664	660	647	642	641	649	656	656	656	654	649	655	634	622	622	621	615	613	630	639	651	640	645	634	612	610	612	612	593	581	592	622	652	652	655	644	642	649	669	669	683	683	672	664	663	663
796	805	800	797	797	792	788	772	761	759	759	751	755	748	756	738	713	713	696	726	764	796	828	852	852	866	840	814	795	809	823	823	841	842	844	846	857	847	847	808	764	734	709	689	676	676	676	693	689	679	667	675	699	729	729	753	769	772	757	733	722	747	747	768	757	730	708	720	735	755	763	759	755	717	0	0	0	0	0	0	710	710	670	624	629	653	698	719	721	732	771	789	789	768	749	726	721	706	692	697	728	749	755	755	767	780	785	783	781	772	776	782	795	811	815	789	789	751	724	737	759	771	774	779	781	775	792	836	917	997	997	1044	1064	1078	1098	1110	1128	1135	1139	1144	1157	1180	1177	1180	1190	1214	1214	1253	1278	1305	1295	1260	1220	1222	1260	1293	1316	1357	1405	1392	1358	1323	1319	1342	1372	1406	1429	1429	1443	1450	1483	1497	1494	1496	1501	1500	1467	1429	1392	1339	1318	1289	1259	1259	1273	1273	1266	1270	1281	1296	1301	1277	1255	1255	1234	1240	1254	1265	1278	1291	1301	1212	1158	1122	1134	1158	1180	1192	1184	1180	1175	1148	1036	954	898	897	928	1007	1062	1091	1097	1090	1073	1063	1056	1060	1073	1064	1054	1036	1032	1056	1085	1117	1133	1131	1100	1047	1038	1038	1023	995	981	987	993	1001	1011	1014	1014	1016	1026	1031	1030	1024	1033	1042	1071	1105	1110	1107	1129	1159	1156	1135	1113	1108	1137	1131	1133	1126	1134	1169	1190	1179	1163	1153	1181	1200	1219	1233	1236	1218	1132	1091	1060	1013	999	993	1069	1101	1137	1148	1193	1239	1251	1309	1341	1360	1361	1347	1323	1290	1269	1279	1305	1334	1344	1337	1313	1304	1295	1284	1271	1252	1242	1244	1245	1256	1263	1262	1276	1287	1273	1246	1244	1257	1278	1298	1302	1301	1296	1305	1325	1319	1287	1262	1263	1257	1258	1272	1271	1247	1233	1233	1230	1238	1247	1264	1292	1323	1336	1357	1359	1347	1331	1309	1275	1253	1233	1227	1226	1212	1201	1185	1186	1182	1183	1178	1172	1181	1188	1199	1200	1187	1163	1144	1146	1147	1143	1117	1101	1099	1103	1110	1126	1131	1138	1143	1126	1111	1101	1109	1103	1103	1093	1107	1114	1113	1090	1072	1057	1068	1092	1116	1141	1145	1147	1145	1141	1135	1123	1109	1111	1126	1123	1117	1106	1092	1080	1081	1102	1114	1113	1098	1088	1082	1080	1082	1088	1082	1081	1085	1089	1082	1075	1069	1051	1020	1020	997	997	1056	1097	1108	1109	1020	924	798	756	757	822	897	930	990	1046	1062	1071	1089	1098	1112	1119	1118	1081	1062	1033	1033	1006	967	940	908	872	836	819	808	801	795	785	779	785	782	771	757	749	747	761	761	763	758	762	768	775	762	757	759	766	772	775	776	804	807	810	810	810	795	780	760	748	732	722	710	707	702	697	717	764	778	778	786	782	778	785	771	762	761	747	734	705	700	700	707	724	731	732	728	721	718	722	722	717	715	715	729	739	737	733	723	737	738	734	721	721	681	675	684	679	669	662	668	680	674	607	649	665	672	667	657	626	608	618	618	639	640	633	626	633	636	652	656	656	646	622	598	585	584	586	616	616	635	626	626	624	625	626	626	625	615	615	629	627	632	633	633	633	625	608	590	589	602	602	607	612	608	630	639	639	651	651	651	630	627	630	630	628	613	605	621	631	631	648	649	656	661	664	664	670	666	659	647	638	638
789	810	820	813	813	804	794	797	783	770	770	727	705	719	727	733	723	723	711	726	764	796	798	799	799	789	775	781	0	0	0	0	0	0	0	0	0	0	0	0	0	0	0	0	0	0	0	0	0	0	0	0	0	0	0	0	0	0	0	0	0	0	0	722	720	710	716	719	739	747	759	755	755	717	709	695	702	730	750	768	761	761	746	713	693	684	716	747	792	816	816	776	776	750	706	675	662	649	667	701	708	705	712	712	730	739	748	715	719	734	750	760	772	777	746	711	711	689	698	715	742	756	764	773	779	776	792	832	900	992	992	1040	1065	1085	1098	1110	1133	1146	1148	1145	1152	1170	1170	1161	1179	1207	1235	1235	1266	1301	1289	1247	1173	1151	1118	1113	1096	1105	1098	1098	1082	1085	1144	1184	1210	1228	1228	1228	1225	1215	1227	1249	1260	1256	1222	1144	1131	1110	1090	1085	1101	1091	1090	1088	1073	1064	1058	1052	1049	1035	990	978	988	996	996	995	996	1003	1004	1001	992	985	969	954	953	967	972	983	997	999	995	988	1013	957	891	893	925	1016	1051	1076	1081	1080	1060	1046	1040	1049	1063	1064	1037	1021	1025	1051	1096	1126	1106	1070	1027	998	995	995	1020	1057	1067	1059	1060	1072	1085	1095	1092	1092	1090	1098	1105	1103	1101	1093	1114	1152	1158	1172	1190	1200	1211	1218	1233	1238	1229	1223	1219	1203	1174	1170	1171	1174	1182	1196	1227	1248	1259	1264	1263	1257	1246	1236	1193	1156	1147	1150	1168	1215	1222	1233	1236	1239	1254	1286	1337	1374	1375	1364	1341	1305	1287	1312	1334	1344	1355	1340	1298	1290	1288	1284	1271	1258	1236	1249	1257	1271	1280	1299	1315	1317	1292	1266	1256	1251	1264	1276	1278	1276	1281	1302	1314	1304	1273	1247	1237	1246	1257	1282	1272	1264	1247	1229	1219	1212	1225	1262	1292	1313	1327	1337	1332	1326	1308	1294	1275	1256	1238	1230	1223	1208	1190	1181	1179	1181	1175	1168	1154	1160	1171	1185	1191	1175	1158	1137	1130	1128	1117	1101	1098	1101	1101	1099	1109	1112	1129	1119	1092	1057	1055	1066	1066	1069	1074	1076	1086	1079	1081	1067	1058	1069	1095	1116	1141	1158	1161	1149	1133	1127	1123	1116	1117	1121	1118	1117	1104	1093	1079	1082	1094	1115	1116	1093	1087	1090	1098	1106	1102	1081	1069	1079	1088	1089	1089	1081	1062	1031	1031	1002	992	1012	1076	1113	1089	1065	939	803	758	754	817	889	927	964	987	997	1015	1036	1045	1057	1063	1036	1034	1032	1022	1022	1004	971	942	910	875	837	813	800	799	795	788	778	769	768	756	741	733	743	760	760	774	775	768	767	765	752	743	744	754	761	775	776	783	796	773	773	765	761	757	750	740	729	716	697	695	688	677	670	676	686	686	698	705	710	739	754	750	743	729	707	703	709	709	704	697	706	719	714	717	722	726	730	727	706	706	682	672	671	674	665	665	678	691	672	672	666	667	672	675	668	665	668	680	674	674	662	662	656	655	649	649	646	624	624	641	654	641	631	630	651	667	667	673	651	619	592	577	580	600	645	645	645	633	622	603	591	589	589	603	601	604	600	588	611	613	613	607	595	582	561	566	591	591	607	612	608	622	649	649	662	670	656	632	627	621	621	619	608	600	607	621	621	630	619	608	630	637	637	641	643	625	606	603	603
794	803	815	813	813	797	794	790	783	771	717	717	695	690	705	732	721	721	716	728	771	797	798	799	799	0	0	0	0	0	0	0	0	0	0	0	0	0	0	0	0	0	0	0	0	0	0	0	0	0	0	0	0	0	0	0	0	0	0	0	0	0	715	715	716	730	744	740	741	721	716	726	726	712	709	695	745	753	753	742	728	728	716	709	712	711	703	710	728	746	762	768	768	763	749	717	680	658	673	682	683	680	688	688	706	715	714	715	722	726	735	726	717	721	719	703	703	693	690	696	715	738	749	766	776	779	788	837	899	976	976	1029	1067	1089	1101	1110	1133	1146	835	830	846	907	922	939	965	959	979	979	954	914	912	911	908	910	907	874	864	868	865	881	925	984	1006	1015	1036	1021	1014	1014	1013	1053	1077	1078	1089	1093	1108	1121	1118	1115	1102	1103	1105	1104	1111	1107	1077	1065	1057	1051	1050	1033	993	978	985	993	993	991	992	1000	998	995	986	978	967	956	954	967	978	989	994	990	980	976	984	989	993	1000	1028	1046	1063	1069	1077	1074	1056	1037	1032	1040	1049	1048	1037	1021	1151	1146	1149	1168	1178	1206	1189	1168	1159	1162	1162	1171	1169	1154	1164	1175	1166	1142	1107	1084	1095	1109	1127	1121	1121	1116	1140	1145	1153	1169	1195	1203	1210	1219	1234	1234	1227	1220	1226	1214	1191	1169	1164	1169	1181	1206	1235	1258	1261	1260	1259	1254	1245	1244	1232	1226	1224	1209	1209	1204	1214	1229	1245	1249	1256	1263	1284	1314	1346	1354	1339	1312	1306	1311	1324	1325	1337	1285	1261	1263	1269	1260	1252	1242	1220	1233	1254	1274	1288	1303	1321	1337	1317	1291	1274	1251	1249	1249	1246	1246	1249	1258	1283	1288	1259	1231	1218	1231	1249	1269	1265	1247	1238	1225	1216	1206	1209	1240	1267	1297	1306	1306	1299	1292	1284	1274	1262	1244	1235	1214	1202	1186	1166	1145	1146	1149	1149	1145	1145	1149	1158	1171	1163	1153	1125	1101	1088	1091	1085	1082	1087	1090	1087	1091	1092	1100	1104	1094	1068	1048	1049	1060	1060	1077	1083	1080	1068	1064	1065	1078	1083	1089	1095	1129	1153	1158	1154	1124	1114	1121	1118	1114	1112	1105	1100	1096	1094	1084	1066	1055	1047	1040	1035	1051	1079	1090	1107	1115	1109	1059	1052	1063	1083	1094	1100	1093	1067	1036	1036	1010	1004	1015	1050	1070	1086	1073	1056	959	884	887	896	934	977	997	991	995	1014	1023	1026	1024	1023	1005	1009	1020	1019	1019	998	980	957	922	880	835	806	794	795	797	792	778	760	750	741	732	743	750	769	769	778	769	752	744	738	734	732	737	754	761	763	769	784	778	763	763	753	753	750	746	740	727	708	691	682	679	668	666	667	667	682	691	690	683	681	690	700	692	678	682	690	695	695	688	673	667	673	687	695	696	694	691	681	676	676	676	666	665	664	661	659	670	669	670	670	664	662	663	663	668	665	668	680	678	678	664	658	655	646	644	635	647	646	646	653	666	664	654	635	636	640	640	634	627	608	594	592	595	614	614	636	636	628	615	599	592	594	594	597	603	599	592	569	571	571	583	594	585	575	571	566	566	591	601	600	604	617	633	633	626	622	615	606	606	607	607	603	603	595	597	599	599	602	589	570	569	590	590	622	648	611	592	590	590
