510	527	536	536	544	569	575	571	541	541	520	504	497	493	494	501	501	500	529	547	547	549	549	543	538	534	532	532	535	535	535	539	536	523	534	546	546	558	529	498	471	506	526	519	519	529	533	531	522	517	511	509	509	505	505	510	512	512	518	535	535	541	534	529	515	505	508	509	514	514	519	519	515	508	505	501	507	508	508	515	517	503	504	516	518	497	492	504	504	517	517	511	508	497	484	505	502	494	488	488	488	491	488	489	486	492	499	497	503	507	504	504	505	514	520	522	502	495	494	501	524	534	539	537	537	536	516	514	521	520	510	494	489	499	530	535	516	525	524	524	522	517	513	514	515	517	513	514	518	522	522	532	542	539	533	525	525	533	541	540	538	533	527	528	528	527	527	561	590	597	597	589	571	551	541	531	525	525	516	512	499	515	524	533	548	583	623	643	664	674	679	681	687	680	674	680	676	673	668	683	699	737	744	742	741	746	746	764	769	849	876	874	873	871	857	847	829	825	837	845	841	816	793	792	795	818	904	951	985	1023	1039	1062	1083	1105	1135	1151	1149	1112	1053	969	929	917	927	932	946	951	940	934	938	951	1017	1051	1085	1102	1104	1076	1076	1065	1063	1063	1063	1064	1007	990	986	997	1002	1006	1004	1006	1039	1074	1078	1205	1250	1262	1282	1253	1245	1257	1253	1154	1034	1001	950	895	813	753	731	729	740	745	759	764	749	716	704	692	676	677	692	705	712	720	728	742	743	739	723	730	745	760	757	737	716	712	709	711	710	713	720	725	728	729	734	740	740	736	740	739	710	685	673	668	669	674	680	687	690	690	689	689	691	697	702	700	701	705	706	701	694	690	690	685	683	678	673	671	676	689	716	803	882	874	806	784	726	726	741	766	778	778	760	757	818	881	881	934	1004	1041	1084	1153	1204	1222	1241	1242	1253	1274	1300	1330	1349	1349	1355	1370	1397	1395	1387	1394	1393	1400	1381	1367	1354	1315	1276	1270	1273	1288	1256	1237	1228	1214	1192	1148	1111	1102	1123	1170	1206	1194	1180	1156	1117	1098	1092	1094	1094	1089	1051	989	965	952	944	964	1007	1016	1002	925	889	1053	908	893	890	885	889	912	943	953	950	965	980	979	962	930	930	895	878	847	795	763	735	686	665	651	611	554	523	515	504	499	498	498	486	484	483	481	481	488	497	496	487	476	473	469	470	466	466	462	460	460	461	465	477	477	482	480	462	465	464	475	472	472	477	488	489	481	455	459	459	479	477	478	476	471	467	469	476	462	453	453	456	456	461	467	480	475	469	471	472	467	464	464	466	466	477	471	461	459	463	472	476	473	471	471	472	474	478	474	459	459	458	458	464	464	476	476	478	475	474	465	450	449	458	458	451	439	439	448	451	458	458	458	450	452	458	463	465	467	467	479	479	486	487	461	459	459	458	458	449	457	468	475	470	461	448	448	442	456	464	469	463	458	458	456	458	462	455	443	434	434	431	437	427	447	451	456	456	460	469	469	465	460	460	445	431	429	432	435	435	431	425	443	443	444	444	447	451	459	459	458
489	500	527	527	546	564	561	543	535	535	526	506	492	487	493	496	496	514	516	535	547	549	527	529	538	544	537	527	519	519	519	522	523	484	523	556	565	565	536	468	442	477	510	533	533	533	534	530	525	520	519	515	515	508	505	510	505	512	520	525	525	523	502	493	478	473	469	475	480	480	490	501	502	502	500	502	502	506	506	512	526	517	512	514	513	485	482	510	510	521	523	522	508	497	495	495	501	493	486	486	488	488	489	482	479	483	506	503	500	511	506	506	503	500	515	526	526	517	505	497	500	503	507	513	513	519	513	505	508	510	499	487	482	493	497	504	516	525	520	520	516	512	507	510	518	519	519	517	519	522	521	516	515	514	519	528	528	535	542	540	540	537	524	518	527	522	524	532	535	548	536	523	523	518	516	515	502	517	517	509	499	515	536	564	578	602	630	649	668	675	680	683	687	680	824	857	856	831	818	811	818	839	857	858	876	908	908	903	883	874	870	861	858	857	843	841	841	847	851	855	845	822	800	788	800	886	957	989	1029	1058	1074	1088	1114	1138	1140	1156	1141	1071	975	936	900	897	920	932	941	954	957	950	954	961	973	985	992	990	966	959	959	995	1004	1006	998	966	947	951	967	979	979	928	925	935	984	1028	1051	1041	990	927	924	928	896	882	885	834	776	748	734	704	683	663	655	658	671	697	702	702	706	699	677	667	657	665	686	704	718	725	727	738	745	725	711	710	716	716	713	702	706	701	694	687	682	688	709	718	718	717	714	709	706	703	701	691	676	672	672	672	674	673	677	679	680	686	678	674	655	659	676	693	697	709	710	696	683	673	675	676	680	679	672	673	678	680	773	889	900	899	876	823	821	829	865	909	975	1003	1025	1080	1136	1194	1194	1204	1230	1231	1228	1243	1245	1238	1244	1248	1257	1277	1293	1315	1319	1330	1337	1347	1356	1360	1355	1324	1312	1311	1302	1276	1241	1191	1104	1038	1065	1095	1114	1037	1004	966	946	925	907	905	910	919	904	882	864	849	839	836	840	840	830	813	816	800	758	740	705	719	724	727	683	925	889	824	793	804	800	789	795	805	816	800	782	753	744	756	732	677	677	646	635	608	588	582	583	565	539	533	531	515	492	488	485	486	491	490	491	485	483	483	477	478	482	489	487	486	482	473	470	471	466	464	461	461	460	462	477	477	482	480	476	462	465	471	470	473	477	488	490	481	454	454	459	475	474	476	475	470	468	468	479	463	453	453	456	456	458	464	477	475	465	459	467	454	450	446	446	450	459	468	472	475	463	472	473	468	447	447	443	460	473	483	485	485	482	472	465	465	465	471	471	473	471	471	471	473	473	476	466	456	449	447	447	446	447	447	454	456	457	463	465	465	460	460	457	449	444	443	449	453	447	447	448	454	463	468	468	466	461	461	458	456	456	455	459	457	457	456	458	461	463	455	444	434	431	437	445	447	449	449	453	458	469	467	467	465	465	450	430	425	427	434	434	438	439	445	441	441	441	445	454	463	462	462
509	517	528	528	537	556	556	539	535	528	528	503	492	487	489	488	488	503	510	527	531	527	529	529	538	546	532	485	467	481	481	495	489	440	437	472	522	522	522	483	449	449	495	504	504	505	504	503	525	531	528	529	529	519	508	504	505	512	519	505	505	483	483	484	483	487	489	482	473	473	475	511	519	522	524	518	510	513	522	522	521	504	491	474	464	463	474	497	497	497	492	479	485	494	495	495	497	499	498	498	503	519	514	494	488	494	504	509	493	486	485	485	488	495	507	517	524	521	514	501	493	496	496	499	499	501	507	512	516	515	506	499	488	492	495	494	514	520	520	512	509	503	496	491	489	493	509	514	518	520	517	511	507	508	518	531	538	538	538	538	539	538	522	514	519	515	512	511	507	497	505	510	512	517	516	515	503	506	506	518	550	583	610	631	655	678	696	718	730	746	763	780	793	798	824	857	1017	996	944	885	872	868	872	875	933	926	912	912	890	872	853	846	841	817	818	824	838	853	858	853	846	836	826	837	904	980	1005	1030	1055	1077	1087	1087	1109	1142	1139	1094	1043	986	964	940	904	905	926	956	993	996	975	962	958	962	947	941	949	945	931	914	908	908	892	884	867	850	840	841	853	856	854	824	815	815	814	813	812	796	761	754	774	744	707	683	681	687	685	675	672	677	683	686	691	688	687	689	691	682	681	670	668	665	667	666	672	695	712	722	729	732	721	712	702	696	685	684	683	683	686	691	685	673	672	681	694	705	708	707	703	698	694	689	685	677	668	665	670	677	678	678	676	673	671	662	653	633	634	640	653	673	687	691	685	687	678	667	663	675	680	704	718	703	702	779	887	967	991	975	965	988	1012	1020	1010	1002	994	996	1010	1079	1144	1144	1202	1196	1215	1224	1240	1258	1262	1241	1209	1166	1145	1119	1079	1049	1032	1035	1024	990	963	937	926	923	845	814	825	829	817	771	755	720	700	702	712	703	681	665	646	638	652	646	640	630	613	607	602	602	619	634	627	627	598	589	588	593	593	586	563	551	548	546	683	612	608	594	599	609	609	591	589	590	586	572	564	560	579	594	566	557	557	532	511	507	503	508	502	504	484	532	534	516	493	488	481	485	488	489	491	485	483	483	477	478	480	488	489	486	482	473	466	469	480	483	488	475	472	475	462	477	482	481	475	462	466	472	470	461	458	435	429	438	443	443	466	471	477	458	465	485	486	483	478	477	472	471	471	471	471	473	470	471	469	463	453	448	449	447	447	451	457	463	472	475	474	482	485	482	471	471	461	453	448	445	445	447	458	464	462	462	465	469	469	466	466	468	467	474	474	479	465	455	449	449	445	445	449	449	452	456	457	460	461	461	459	459	455	445	439	438	442	446	447	447	450	457	462	463	468	469	466	466	457	449	449	453	455	454	454	453	456	460	458	455	444	444	439	438	445	445	443	443	439	445	453	456	458	454	454	447	442	437	436	438	438	444	450	454	447	437	437	441	452	463	466	462
513	520	523	521	521	531	546	559	560	507	507	508	513	520	518	494	494	472	481	520	534	505	514	514	538	546	536	542	552	574	574	544	500	463	469	479	496	496	500	492	483	448	469	476	476	487	483	477	489	509	513	509	509	505	502	511	522	521	519	505	477	477	466	467	483	485	485	478	475	475	477	499	520	526	521	512	500	510	521	521	519	503	490	477	466	465	481	498	497	497	491	476	478	492	493	501	497	499	489	486	486	491	509	500	484	483	484	487	488	486	484	489	489	495	504	510	512	513	512	502	495	492	490	488	491	491	499	505	512	514	509	502	494	490	486	491	504	512	512	509	509	500	496	493	490	491	495	504	507	510	505	500	496	496	510	521	529	529	531	533	533	532	514	517	509	486	483	491	508	501	509	509	528	526	527	541	563	596	596	621	655	711	731	751	783	801	814	862	885	893	912	934	947	953	973	1009	1017	996	1018	951	910	912	922	941	954	948	918	918	883	860	837	825	824	811	811	818	832	851	855	874	942	972	991	997	1052	1043	1053	1034	1042	1060	1069	1070	1058	1043	992	975	976	971	960	947	950	959	978	1002	1024	1021	992	968	951	932	925	926	929	920	878	830	791	791	777	773	733	687	683	686	703	715	722	716	700	694	692	688	693	693	682	668	688	679	651	649	644	648	654	652	655	658	683	690	693	691	688	679	670	665	653	654	658	659	667	673	674	676	698	708	707	708	711	712	704	691	680	677	675	679	678	672	674	669	657	663	680	701	703	698	691	689	689	687	682	671	659	659	668	679	682	672	663	651	632	627	631	631	631	635	644	662	677	683	676	660	683	682	682	693	707	701	724	729	734	775	881	959	991	991	975	991	1009	1011	1004	991	992	984	966	936	936	885	839	802	778	775	782	822	845	842	809	774	767	730	688	685	684	682	664	655	644	637	629	607	569	577	587	579	549	555	554	556	555	553	545	535	530	530	539	537	536	530	522	521	522	520	538	549	552	551	551	545	535	524	530	535	532	550	551	543	548	546	532	529	523	521	520	531	537	544	550	549	544	539	536	535	539	547	551	551	557	533	510	505	502	508	497	496	484	487	493	489	485	486	483	479	482	510	490	487	486	486	493	492	495	514	515	506	496	474	468	468	482	485	483	478	472	475	475	476	491	509	501	482	481	475	475	478	480	471	469	463	452	452	458	483	488	477	471	460	451	453	453	446	444	455	455	467	474	473	471	470	472	461	451	446	445	448	448	447	457	463	471	473	474	482	484	483	474	474	462	453	447	444	444	444	460	463	461	461	463	464	466	459	459	463	466	463	463	458	454	453	452	449	446	440	439	449	452	455	457	460	459	457	455	455	455	452	447	437	439	445	449	449	454	459	461	459	456	455	455	462	458	449	445	447	443	443	442	442	441	460	458	452	452	443	438	434	434	433	434	434	433	442	449	456	455	455	451	446	443	443	437	438	438	441	459	458	447	439	439	441	452	463	466	466
466	432	434	476	476	494	500	487	463	447	447	472	496	500	503	484	484	475	488	534	535	524	534	534	547	538	536	542	577	587	587	567	517	479	477	488	487	487	482	486	498	514	521	509	487	487	464	452	451	450	476	491	503	503	507	508	495	492	492	490	477	477	461	462	479	478	467	466	469	481	481	502	524	526	511	498	487	480	472	472	500	498	486	471	464	496	488	489	508	508	513	509	497	490	485	481	485	495	489	484	484	490	499	492	486	483	484	488	490	488	484	487	487	493	498	499	499	507	509	500	491	487	483	479	483	483	487	495	506	512	515	506	500	491	486	491	500	504	506	501	501	500	496	492	493	495	493	493	495	496	495	495	491	496	517	521	520	520	520	521	522	527	509	489	498	486	483	492	514	521	537	569	611	640	679	745	826	907	934	934	971	983	983	982	999	1045	1095	1120	1129	1119	1112	1099	1094	1086	1083	1087	1089	1056	1018	951	1026	1011	995	989	994	993	998	997	997	988	966	954	969	987	923	901	889	904	947	992	1039	1060	1070	1067	1060	1066	1051	1034	1023	1042	1044	1021	983	952	949	953	952	952	961	959	956	964	983	1006	1024	1019	987	955	900	826	788	789	773	749	727	685	664	669	669	684	698	639	616	620	631	635	638	636	637	633	638	652	663	646	629	618	619	630	622	624	625	631	641	637	639	641	652	667	670	681	684	670	651	636	640	646	652	658	668	673	673	663	659	658	663	669	671	666	659	654	656	665	670	673	656	651	649	649	653	651	642	641	646	659	668	668	666	661	663	654	644	633	633	637	642	635	626	615	604	603	608	614	622	629	638	642	648	637	631	629	677	677	679	692	702	696	717	727	731	729	731	717	703	709	715	715	690	656	665	674	673	672	667	647	647	613	605	598	587	570	563	567	568	559	563	581	589	580	576	561	553	537	529	520	524	525	527	531	528	514	514	519	518	518	519	529	551	549	543	535	530	531	526	528	528	526	519	519	524	522	537	547	552	548	548	540	533	525	530	535	534	550	551	543	534	528	526	528	522	522	519	533	541	544	553	550	545	539	534	535	537	539	542	542	539	539	544	547	545	547	534	536	542	548	559	561	553	531	508	503	501	511	532	522	522	509	510	512	512	517	510	496	489	473	462	464	471	480	483	478	484	487	487	494	497	493	481	472	470	470	475	478	471	468	466	461	455	455	469	476	472	476	472	467	453	447	442	440	442	453	453	467	473	469	465	468	476	467	455	453	452	452	448	447	454	460	469	471	470	467	470	472	472	471	463	453	446	443	442	447	451	459	459	459	458	459	451	441	439	443	457	457	457	452	452	448	446	442	436	440	440	439	445	445	448	453	453	452	454	454	465	469	468	465	456	449	452	452	457	458	456	455	451	446	446	443	440	437	442	443	443	443	443	442	441	454	455	448	448	437	430	429	423	420	417	417	426	435	448	453	453	453	443	439	457	446	445	445	434	437	440	441	431	431	439	441	449	463	464	464
524	507	533	550	550	554	525	488	453	445	445	454	461	454	446	453	453	453	455	486	534	0	0	0	0	0	0	0	577	587	573	555	516	474	463	466	464	464	467	473	496	531	536	514	492	492	473	461	459	452	455	467	481	481	485	486	473	478	477	479	466	466	461	462	471	463	476	487	500	513	513	517	503	498	494	474	470	482	506	506	500	490	477	470	469	484	478	483	496	496	505	505	500	489	478	470	470	484	485	484	484	488	487	483	480	482	487	492	492	488	485	485	485	489	488	487	490	496	498	497	490	486	482	475	475	475	476	484	494	511	514	512	507	499	494	490	496	498	500	500	500	494	493	492	493	497	491	483	483	483	487	498	509	513	511	534	549	534	534	506	505	515	520	500	483	483	496	547	597	636	679	761	858	899	972	1016	1030	1057	1096	1096	1127	1126	1095	1072	1068	1087	1137	1147	1135	1117	1111	1099	1096	1090	1087	1089	1085	1065	1047	1029	1026	1011	989	980	984	990	999	1002	1002	988	968	963	979	997	919	910	928	965	969	997	1035	1052	1063	1056	1052	1052	1048	1030	1033	1041	1021	990	969	949	940	934	933	903	871	848	805	777	770	770	783	771	732	737	723	690	673	647	615	617	620	621	622	619	619	620	641	636	628	622	627	631	628	625	622	621	618	619	611	602	598	597	603	607	607	608	609	611	616	618	611	605	603	614	628	643	641	617	597	590	597	609	616	620	623	624	626	621	614	610	603	610	614	612	608	602	600	601	603	591	592	594	596	605	588	590	587	588	590	590	595	601	620	614	605	597	591	589	585	574	572	571	569	568	557	561	575	580	604	622	623	623	614	610	613	609	600	597	603	606	615	609	598	587	579	575	570	560	554	562	582	578	576	581	593	593	587	582	581	581	581	579	564	564	569	568	560	556	555	556	558	577	587	577	574	562	553	540	528	520	520	524	528	532	531	514	514	518	518	518	518	530	546	535	528	525	535	531	530	529	529	522	519	520	520	524	536	536	543	543	560	567	562	552	551	547	534	550	551	543	535	524	515	522	554	566	570	581	590	596	592	578	569	560	564	569	564	559	559	554	548	551	549	552	550	549	535	540	542	549	558	563	555	536	509	502	504	525	525	516	516	510	511	510	510	515	509	498	484	462	460	463	472	480	480	478	482	482	486	494	492	486	476	471	469	470	474	475	470	465	463	464	464	465	473	476	475	474	475	469	458	451	443	440	441	441	451	460	463	462	450	466	476	473	459	461	452	452	449	446	448	456	468	468	464	462	462	466	466	466	463	454	446	447	447	458	449	449	449	449	449	446	436	435	437	444	453	453	452	444	431	440	440	442	436	430	430	429	440	445	450	452	452	452	452	455	463	474	479	472	462	452	452	453	455	452	448	442	440	439	439	440	439	435	437	445	447	443	443	435	420	425	440	438	438	430	423	418	417	413	414	414	424	439	449	452	446	446	438	437	457	450	445	445	439	427	429	432	431	431	416	418	431	446	445	445
524	507	514	537	537	537	520	505	485	476	476	472	476	468	466	462	454	454	495	0	0	0	0	0	0	0	0	0	583	573	573	555	496	463	454	445	437	437	437	456	500	545	571	543	498	498	480	480	477	456	447	449	461	461	460	460	449	431	422	415	451	451	445	446	471	463	482	493	499	494	494	482	478	483	485	481	477	478	485	486	486	480	468	465	464	467	471	477	482	485	485	485	480	478	475	469	470	474	479	481	488	488	487	470	468	470	481	493	493	486	484	485	485	483	480	472	468	476	484	489	490	488	489	486	472	470	470	472	486	493	504	509	510	506	502	495	490	495	497	495	488	488	487	491	495	497	491	491	490	499	504	512	536	541	508	522	566	580	580	550	548	541	509	547	552	563	644	733	837	965	981	991	998	991	987	1008	1025	1049	1087	1111	1111	1115	1087	1057	1053	1061	1125	1137	1123	1110	1091	1091	1087	1089	1086	1080	1077	1061	1044	1032	1027	1010	989	980	834	848	857	855	829	829	790	788	811	835	854	882	915	952	966	995	1016	1029	1028	1022	1007	1000	1011	1035	1029	1003	990	955	879	830	770	773	765	762	733	686	664	655	635	631	628	600	594	611	601	587	585	591	575	576	580	602	605	606	605	605	607	613	616	607	608	612	612	604	595	583	557	551	552	556	565	570	573	564	562	580	584	585	585	576	551	544	524	534	544	551	551	532	525	533	541	544	537	533	530	539	552	553	550	550	540	544	553	569	565	570	567	562	561	565	568	568	560	561	574	586	585	586	584	584	590	598	620	617	605	593	588	586	578	575	571	569	569	567	559	566	578	580	610	614	609	598	592	607	605	601	599	600	601	610	609	603	593	582	574	573	568	561	558	565	585	583	581	580	595	593	586	583	580	580	581	575	566	564	567	566	559	556	557	559	563	574	585	598	593	583	574	571	567	557	553	561	583	586	581	568	557	556	572	570	563	555	554	543	547	550	569	561	553	546	544	529	523	524	525	524	520	533	553	553	551	569	568	569	551	547	559	569	569	568	571	577	576	577	572	560	569	580	588	597	596	586	574	557	560	565	565	560	560	554	547	545	547	543	531	518	508	501	508	506	522	532	519	510	498	493	493	490	505	505	498	492	487	490	491	496	488	485	483	481	481	463	472	482	478	477	471	471	464	466	471	476	475	467	471	475	475	478	468	459	456	453	453	460	470	482	480	479	480	469	461	452	444	438	441	441	450	455	459	456	445	450	468	459	459	461	458	458	450	448	449	446	443	448	462	456	453	456	456	449	452	456	451	450	455	456	451	442	442	442	441	444	437	436	433	444	441	441	437	433	433	440	440	437	430	424	424	424	425	446	451	451	446	445	445	441	437	447	455	457	453	447	447	447	446	441	439	435	435	438	438	437	435	433	438	445	447	447	441	431	418	415	414	417	417	417	416	411	408	412	412	419	429	439	446	451	445	445	438	432	432	433	434	434	431	427	429	432	430	430	428	426	434	444	439	439
515	511	514	537	529	536	509	493	481	473	0	0	0	0	0	0	0	0	0	0	0	0	0	508	508	497	517	533	530	528	518	518	496	463	454	438	476	506	506	519	560	580	570	538	515	515	506	508	513	512	471	466	463	463	468	468	473	476	455	439	469	462	462	458	468	465	482	493	481	475	475	467	465	469	476	483	482	476	468	465	465	462	463	462	462	466	469	471	476	474	474	473	471	472	473	472	473	470	473	470	469	469	471	470	468	453	457	464	482	485	481	482	472	472	465	462	464	470	477	487	492	495	491	488	480	472	472	465	470	478	485	487	484	493	495	489	485	492	494	492	486	486	482	487	506	514	507	491	499	516	539	536	517	511	518	539	551	558	558	558	565	591	634	677	724	816	833	833	833	971	982	984	992	992	959	950	951	965	987	1014	1014	1016	1009	978	977	986	994	988	981	997	1020	1014	991	986	991	989	983	977	980	960	920	888	853	831	834	848	705	704	696	696	688	676	680	691	700	704	697	745	772	797	793	778	756	747	761	759	755	726	678	671	668	656	622	597	575	587	589	592	579	561	548	553	543	542	542	543	547	542	531	527	529	539	545	542	540	549	552	554	552	545	545	553	552	550	545	545	542	548	553	547	540	543	544	546	549	555	562	556	562	578	581	583	584	571	556	545	516	498	492	546	543	531	522	531	538	540	534	531	528	536	549	550	550	547	535	537	548	566	562	573	570	562	560	565	567	560	550	550	562	567	550	546	547	557	585	576	569	581	596	602	599	588	585	589	563	558	556	559	565	588	598	609	620	620	622	616	613	613	608	601	604	605	600	597	592	598	610	608	600	585	586	590	594	595	591	590	598	610	605	597	591	588	588	580	578	573	568	564	563	559	557	563	564	569	575	580	595	597	590	584	575	569	563	563	562	563	569	592	590	579	567	560	561	563	565	554	549	560	564	557	557	560	559	548	542	537	530	523	525	526	515	525	544	544	555	566	568	569	572	571	575	584	575	566	565	575	577	570	553	553	562	574	586	590	593	579	558	532	524	522	515	508	508	509	519	518	515	508	499	490	488	487	488	487	488	485	479	477	489	487	485	481	479	479	480	476	474	478	480	483	477	481	480	481	481	470	466	473	476	472	459	459	456	458	466	466	461	463	468	474	483	480	469	453	445	446	446	450	459	462	485	481	475	468	459	450	443	436	438	438	444	452	451	449	447	449	453	459	463	464	464	464	457	452	445	435	437	437	433	457	458	458	440	435	440	452	450	451	455	456	454	440	440	436	442	444	442	443	432	436	435	435	436	435	433	432	434	428	422	420	420	424	432	442	449	446	443	438	438	433	432	438	441	441	445	445	445	436	434	431	431	433	433	433	432	431	427	433	438	442	440	440	438	429	418	415	414	418	418	419	415	411	404	401	401	407	423	438	442	446	443	443	440	430	424	422	422	434	431	430	427	423	425	425	426	430	430	438	435	435
514	499	499	529	536	536	496	466	467	457	0	0	0	0	0	0	0	0	0	536	558	556	512	488	488	520	549	550	525	501	487	487	482	460	442	438	476	525	525	530	530	533	525	487	471	467	467	468	473	467	454	458	463	467	467	469	476	471	448	457	489	482	482	476	481	483	479	481	481	475	472	472	467	470	476	477	472	464	465	467	467	471	464	461	465	465	469	472	471	468	468	463	470	473	474	476	477	484	470	471	486	486	491	495	464	453	457	447	468	475	475	473	470	470	466	464	463	466	476	483	494	492	488	486	481	471	471	465	465	474	482	481	478	476	476	473	478	474	449	443	442	442	460	486	516	535	495	485	499	516	533	531	510	498	506	541	551	559	561	561	563	594	635	679	726	811	835	835	815	806	801	807	821	789	779	819	837	834	833	832	832	836	830	818	798	790	795	816	841	853	822	793	758	759	784	803	793	770	752	736	739	745	737	736	724	717	705	704	599	593	593	590	586	585	589	588	589	594	610	622	620	601	573	556	589	588	581	569	566	569	560	556	549	544	544	555	557	556	554	545	541	546	537	542	543	543	547	540	532	528	529	536	545	540	541	544	548	552	548	542	542	551	550	548	543	542	543	545	550	549	542	540	538	524	528	535	538	532	525	524	527	531	537	531	527	524	517	489	489	535	539	552	541	536	542	553	563	554	528	527	533	568	577	578	578	580	591	596	611	615	610	603	598	600	611	617	609	604	605	630	626	621	616	613	614	613	609	606	600	600	608	626	614	604	596	591	589	601	615	630	637	639	637	635	632	621	611	603	599	598	602	611	608	600	597	602	609	608	599	585	591	596	596	594	588	591	598	607	605	597	591	590	590	586	580	574	570	567	562	558	558	561	567	572	574	580	584	590	586	583	575	568	564	564	564	566	568	572	578	572	567	569	565	561	556	546	554	562	577	565	560	561	562	555	548	537	537	530	516	517	523	543	543	546	555	566	564	565	564	568	573	579	576	569	564	565	565	560	553	550	552	550	558	569	572	549	534	521	509	509	508	508	504	499	505	507	505	501	494	491	492	490	486	488	488	487	485	485	473	479	483	476	474	474	472	469	468	472	472	476	472	481	480	480	478	471	464	471	473	467	467	459	452	453	453	451	452	460	464	469	479	480	468	452	443	443	441	444	446	447	443	442	454	457	451	446	440	439	439	442	443	443	442	444	448	449	453	458	460	463	463	457	454	452	450	436	431	427	421	425	446	446	439	437	436	438	450	448	440	436	433	433	430	433	447	456	455	436	426	427	431	431	436	435	435	438	432	426	419	419	417	428	436	441	442	440	438	431	431	425	431	438	441	440	440	439	439	436	429	427	428	428	428	428	424	431	427	430	435	430	430	427	429	427	420	418	418	418	417	426	430	420	402	397	397	397	407	424	431	443	443	437	436	427	417	422	422	422	421	424	423	417	419	419	420	426	432	433	433	428
498	500	516	534	540	540	496	466	446	444	0	0	0	0	524	504	457	457	437	451	485	495	500	484	484	484	495	496	485	469	463	463	444	431	428	452	505	525	525	486	481	471	470	475	476	478	478	476	473	471	464	470	477	486	486	492	485	465	459	464	471	474	474	473	481	481	482	479	483	481	472	472	473	471	472	467	464	459	462	471	471	480	478	474	468	469	471	475	474	469	469	466	465	467	468	469	480	495	483	487	489	489	489	495	465	456	443	447	468	466	473	475	472	472	465	457	450	449	457	461	463	483	478	482	477	466	463	463	466	471	473	471	437	431	425	442	448	442	434	435	442	458	458	474	517	536	496	485	500	514	533	531	454	463	472	481	489	494	495	495	485	496	513	535	549	576	572	568	568	590	601	604	632	599	599	625	628	613	612	617	614	614	609	606	603	602	613	625	634	638	597	593	589	599	618	634	622	612	599	605	610	620	625	612	606	609	617	604	599	593	539	540	541	540	546	557	559	561	566	563	551	526	513	509	514	521	541	542	563	563	556	557	552	546	546	557	557	556	551	542	538	533	536	536	529	524	513	531	536	549	548	547	539	535	534	543	550	539	532	526	528	528	545	557	556	551	551	560	561	561	548	544	538	534	543	560	565	558	549	539	551	563	572	571	568	572	562	531	524	527	569	583	583	577	573	578	601	604	603	596	593	605	616	634	640	648	648	626	621	616	611	602	597	606	625	630	627	620	626	631	635	637	627	617	616	613	607	605	597	601	603	625	612	605	600	598	600	611	624	634	640	641	639	639	631	620	610	602	596	599	606	611	609	600	593	595	593	577	576	578	581	575	572	572	578	584	587	589	600	595	590	590	586	580	579	577	574	569	563	559	558	559	563	566	571	577	580	579	578	578	576	562	554	559	566	565	567	572	575	570	567	565	562	562	551	548	552	574	585	569	562	562	567	563	550	537	535	533	537	543	545	545	543	546	556	551	556	557	557	556	565	576	570	567	565	564	561	557	554	552	549	550	546	549	550	541	525	514	512	512	512	512	511	501	501	501	497	499	495	496	491	489	492	493	493	490	489	485	491	492	490	482	482	474	472	463	465	468	470	469	472	473	477	476	468	460	455	458	463	462	462	446	443	446	448	447	446	459	463	462	458	460	460	456	452	452	451	452	451	445	443	433	435	437	433	434	440	442	442	441	439	439	442	444	448	451	453	454	457	453	453	449	448	451	447	427	426	428	416	437	443	443	441	440	438	443	437	430	426	416	422	422	429	440	437	437	431	427	418	427	427	431	435	436	438	438	438	425	416	416	416	431	444	449	441	435	433	425	425	417	417	419	423	432	436	436	425	411	407	411	417	423	417	428	424	423	421	425	431	433	433	426	429	429	421	416	415	415	419	429	434	431	422	414	414	402	404	412	427	428	428	429	419	427	417	413	413	411	414	412	417	414	414	414	424	421	421	428	428	431
490	511	525	518	505	505	473	450	446	444	541	541	559	550	516	470	442	434	434	471	485	497	492	482	482	478	467	473	482	486	463	463	420	421	436	455	487	490	486	486	481	460	450	447	454	458	458	462	474	468	465	467	474	484	484	484	475	469	465	464	464	467	467	472	479	485	485	488	491	488	479	479	473	471	468	472	466	451	458	471	482	482	482	474	469	470	471	469	467	463	463	463	462	464	464	464	470	479	485	486	491	499	499	495	487	455	452	445	452	466	459	464	473	483	483	464	455	458	457	455	446	455	454	450	443	461	462	462	468	474	474	471	441	431	428	444	450	443	433	433	438	454	454	460	461	466	468	469	466	462	457	455	454	463	471	467	466	473	475	472	472	476	477	482	488	492	492	494	499	499	517	528	527	524	522	522	526	529	533	534	533	533	537	543	540	531	536	546	554	557	554	573	569	562	562	568	573	569	561	545	533	533	543	546	543	536	531	529	533	539	540	540	537	539	547	557	562	556	566	560	538	522	516	514	519	526	543	544	542	558	561	558	553	541	547	553	561	565	559	563	567	569	583	582	575	571	573	578	592	590	588	585	585	582	577	571	558	570	561	533	532	532	542	551	552	553	559	574	580	571	559	549	544	542	555	563	566	563	559	555	553	552	589	600	602	606	588	572	559	578	593	588	584	579	575	575	598	603	602	595	593	602	615	630	639	648	648	630	623	614	609	601	595	597	623	628	624	620	621	626	635	636	629	606	598	597	595	580	571	576	596	602	603	588	593	601	615	626	633	636	636	630	629	628	630	619	607	601	596	598	605	607	599	587	579	572	565	571	566	564	558	557	561	571	574	580	590	587	583	583	583	583	578	575	575	574	575	571	565	562	556	557	555	558	562	569	572	580	577	576	564	557	553	557	564	569	568	569	570	561	553	558	558	554	550	544	556	584	577	563	560	560	567	565	551	539	532	530	531	542	545	545	545	555	561	570	581	580	575	561	552	562	566	564	563	564	562	568	559	552	547	543	544	544	549	538	529	521	514	515	515	516	511	508	500	495	496	501	500	500	498	499	496	497	496	493	488	483	476	469	482	478	478	480	470	466	460	458	470	469	469	469	471	473	466	459	454	455	457	456	456	445	442	444	448	449	454	457	458	453	446	436	432	441	450	450	456	457	451	437	431	427	428	427	425	419	422	425	425	429	437	439	442	440	445	448	436	426	434	431	431	430	427	427	427	425	425	426	426	445	444	444	442	440	439	435	429	426	425	414	420	420	431	440	433	431	423	420	418	427	427	426	431	436	436	440	443	435	423	423	420	423	432	434	429	424	426	426	430	420	420	416	410	409	401	401	398	396	398	401	410	423	417	417	419	416	417	419	429	433	433	428	426	429	419	413	410	410	415	425	431	427	416	409	409	402	398	405	421	432	432	429	419	417	416	418	418	414	409	406	407	411	411	411	421	422	421	428	428	434
477	500	516	514	499	499	465	447	459	494	541	541	495	496	487	476	465	483	483	516	516	501	484	473	478	478	466	453	453	454	455	449	449	445	452	456	468	472	477	477	468	460	450	448	445	445	445	445	449	446	444	442	446	453	453	447	445	444	442	441	453	454	461	461	469	472	455	451	451	459	463	464	464	461	468	472	451	447	444	448	450	450	448	442	441	447	455	460	459	452	458	458	461	461	459	457	458	457	463	460	456	454	454	455	455	454	452	456	459	456	459	464	459	468	468	475	461	457	452	448	446	447	448	445	439	447	453	453	458	462	462	459	450	443	429	426	430	451	460	464	465	461	461	455	453	451	452	452	453	451	457	472	475	473	471	467	469	475	476	476	476	477	480	483	489	493	492	495	499	498	519	529	527	525	521	522	526	531	533	535	531	534	534	546	542	530	535	546	556	560	560	575	569	564	560	569	574	569	566	548	535	538	545	543	543	535	530	528	532	539	540	540	537	539	545	556	557	555	553	550	544	522	522	520	525	539	545	554	564	565	561	552	545	541	546	555	560	562	556	560	561	567	579	576	573	573	577	584	591	592	589	589	585	584	579	569	565	567	559	553	552	544	544	549	554	561	582	587	583	576	562	553	552	551	560	563	568	567	565	560	551	595	605	603	603	606	601	591	586	593	597	596	585	583	592	603	604	596	589	582	580	581	589	596	604	613	616	603	607	594	574	560	581	587	608	613	614	610	610	609	609	608	606	607	602	595	588	582	572	574	591	598	597	585	586	603	615	623	630	633	624	616	608	601	593	595	593	593	595	599	601	600	596	589	581	573	574	576	563	559	555	551	551	558	563	575	585	593	588	573	573	572	559	551	547	558	563	566	561	561	559	558	553	548	533	538	546	552	558	560	560	558	556	556	558	564	569	569	560	542	539	543	548	548	543	545	554	553	550	552	557	557	560	560	547	533	527	524	531	542	545	545	546	558	566	573	581	578	562	553	545	547	550	550	555	556	558	566	559	546	540	537	538	542	541	529	525	524	521	510	510	508	510	507	507	495	499	501	502	502	504	504	500	496	492	492	496	482	475	469	477	477	477	472	466	467	460	458	462	464	459	449	453	453	471	464	453	447	455	455	455	445	442	446	449	451	458	458	447	444	433	429	434	443	443	451	456	446	441	434	428	426	425	424	424	427	430	430	431	429	437	451	456	448	436	431	429	433	448	448	448	439	435	431	427	423	430	441	452	452	452	445	445	433	437	428	427	424	421	424	424	431	435	429	430	426	423	420	418	427	427	424	424	417	425	436	442	434	426	426	424	424	428	417	420	423	425	425	418	417	416	413	407	403	400	400	398	397	402	401	410	423	423	418	402	412	417	420	426	428	428	426	425	423	417	404	402	402	401	416	424	417	410	410	401	392	390	399	411	432	432	440	443	442	437	430	430	422	413	406	404	405	405	401	400	407	420	426	426	429
463	474	509	523	520	520	470	450	456	477	496	495	495	496	487	473	471	461	461	458	456	458	467	475	481	481	470	461	455	452	464	467	467	465	459	452	448	458	477	477	480	474	463	448	445	445	451	451	450	446	438	432	439	442	448	448	450	445	446	443	427	432	433	433	443	441	432	431	433	438	441	462	462	458	456	455	451	449	445	448	448	448	445	443	441	448	455	460	459	453	459	459	461	462	460	458	456	454	460	460	453	450	450	454	446	447	446	445	446	447	454	455	459	468	472	471	460	445	444	447	448	451	451	448	442	445	451	452	452	458	456	455	448	441	433	430	434	455	465	469	467	466	455	455	454	451	453	453	452	451	457	475	478	475	473	470	469	468	473	477	477	486	492	494	500	507	515	523	534	533	538	546	534	528	533	547	560	568	573	571	566	573	573	576	573	565	565	572	578	580	580	580	576	569	575	573	572	573	572	576	576	578	563	551	541	538	538	540	546	540	536	536	536	539	545	556	546	549	551	550	550	538	525	532	536	545	550	553	560	558	553	547	538	540	547	554	557	555	542	543	544	547	557	568	572	578	582	590	593	588	585	583	584	580	575	558	557	558	553	549	553	556	556	567	576	583	588	587	579	569	556	556	557	560	566	569	572	572	568	568	601	618	622	628	633	633	629	625	624	618	596	599	597	602	605	606	602	596	586	578	572	574	585	592	595	601	598	594	603	595	573	560	575	575	598	606	609	610	609	607	601	604	602	605	596	591	586	575	568	571	574	585	588	583	580	606	613	618	619	598	567	560	555	556	558	566	573	578	576	581	589	599	595	590	584	579	574	572	567	563	558	552	546	545	548	553	562	567	567	567	559	564	574	576	570	566	558	556	560	563	562	555	544	527	526	529	537	549	546	538	534	537	540	547	553	556	549	546	542	541	531	539	547	548	543	542	534	535	541	544	547	547	548	546	529	521	527	524	529	538	538	543	545	546	549	554	557	542	523	520	517	520	518	521	525	523	521	517	516	522	519	508	504	503	506	518	518	521	519	519	513	510	514	523	528	528	515	508	503	500	505	504	496	498	500	503	510	508	502	490	480	480	470	459	466	467	463	466	457	454	455	453	455	453	450	450	450	454	458	458	453	445	438	439	439	448	450	450	442	435	430	430	436	446	446	441	429	436	430	434	430	429	426	425	428	427	427	430	431	434	438	443	453	449	436	433	431	434	450	450	447	440	440	436	428	418	425	439	456	457	457	455	433	411	417	423	422	422	425	427	427	431	430	423	430	426	423	421	421	423	423	425	422	415	408	433	431	426	426	421	420	422	419	413	415	418	420	420	410	411	414	414	403	403	402	402	402	397	402	405	409	423	423	422	418	414	417	416	416	416	416	415	425	428	418	408	408	405	405	404	409	409	403	403	395	385	383	399	411	411	429	438	443	446	441	434	434	424	414	410	419	416	416	410	406	404	406	409	409	424
478	462	462	469	457	445	445	437	442	441	442	438	438	450	464	473	471	466	466	461	453	454	465	483	476	476	470	465	455	453	464	466	466	465	458	452	450	459	474	474	479	474	464	450	447	445	451	466	457	448	437	429	438	442	448	448	450	451	449	442	425	427	431	431	441	438	432	433	438	439	441	460	460	457	454	454	451	449	445	448	453	461	461	460	454	440	442	456	458	458	465	468	468	465	463	456	454	454	463	466	459	455	446	446	441	441	441	439	443	444	445	449	454	472	471	471	461	446	440	440	446	451	452	452	451	458	460	445	445	426	429	441	452	457	456	452	456	463	482	494	490	470	470	470	455	455	458	462	470	475	480	484	485	480	470	463	463	468	473	482	488	488	499	504	509	520	531	534	538	535	540	545	543	531	529	537	554	567	569	571	568	569	571	571	570	574	568	568	569	572	573	568	558	557	560	565	572	574	585	598	599	589	573	558	545	540	535	537	541	536	532	538	538	532	533	530	546	549	561	553	552	544	540	542	551	552	553	553	554	556	550	538	534	538	544	549	552	542	528	529	534	540	545	553	565	577	590	592	590	583	576	572	576	574	566	554	550	551	548	548	551	555	562	562	570	579	585	583	572	554	554	554	559	563	564	579	587	590	591	615	627	623	626	635	646	656	649	623	615	612	607	609	609	608	607	592	584	583	584	572	566	567	577	586	590	593	593	591	587	587	581	569	563	567	580	599	602	608	608	606	602	600	596	599	593	588	585	581	572	570	568	572	574	574	585	592	606	596	579	563	568	564	562	556	554	560	570	578	577	573	571	581	594	592	583	568	564	569	572	573	567	559	555	550	547	547	546	543	550	550	553	564	573	576	571	555	546	539	544	546	540	536	528	525	524	525	534	543	544	538	535	532	537	542	549	554	545	542	538	538	537	535	542	551	539	530	533	534	542	543	539	535	531	528	529	521	520	520	528	535	535	541	539	544	539	535	532	526	520	509	517	518	518	506	500	497	481	488	489	506	511	493	487	478	484	493	499	503	515	515	515	515	516	527	528	529	527	525	510	503	508	499	496	497	498	502	507	505	497	485	475	475	470	459	459	466	464	466	454	450	453	456	455	454	450	451	451	453	453	448	445	441	434	430	434	431	431	431	428	424	430	432	434	436	436	425	417	413	434	427	429	430	432	426	434	437	427	427	428	430	431	435	446	442	436	435	436	439	441	441	443	443	441	438	432	425	419	433	437	438	438	428	423	414	410	415	419	421	426	430	430	433	430	423	424	422	420	423	421	421	419	429	422	413	416	422	415	415	415	417	414	417	423	411	399	409	409	409	405	403	408	409	404	407	407	402	402	398	401	401	406	418	418	420	409	399	408	410	412	412	413	417	421	426	424	413	413	410	412	410	407	407	410	410	395	385	383	392	400	400	414	430	440	447	449	449	442	423	408	412	420	422	422	418	413	410	411	411	406	409
455	455	454	465	453	440	440	435	441	446	448	460	460	464	473	479	471	466	461	463	451	450	455	464	480	480	473	469	462	462	465	466	466	469	471	474	476	478	472	463	463	456	449	446	447	453	466	466	457	469	470	467	466	463	449	449	441	443	439	436	437	432	432	432	440	430	429	434	440	446	450	456	456	461	462	460	457	447	444	448	453	435	435	435	442	449	454	446	441	453	460	463	463	463	450	458	462	462	462	435	446	455	452	452	454	438	434	438	449	454	455	451	456	464	472	472	461	446	428	434	440	444	443	438	444	453	459	452	452	442	443	451	459	463	449	452	452	459	473	478	472	454	453	453	451	458	466	466	473	475	480	485	486	480	474	466	468	472	476	482	488	488	497	503	508	521	533	533	534	539	539	544	543	533	528	532	543	551	565	569	567	556	551	551	551	556	567	566	562	560	561	554	547	544	547	556	562	568	580	591	591	588	575	561	548	538	531	525	521	519	513	513	526	526	525	531	537	560	561	553	560	561	566	563	563	569	572	568	570	573	579	579	568	560	566	554	557	537	525	527	532	537	541	548	553	563	573	581	578	575	562	557	563	566	559	551	544	544	548	554	557	557	560	564	564	570	579	575	560	551	549	551	554	553	549	545	569	581	603	616	617	624	628	632	644	658	654	629	610	605	617	612	606	603	598	591	585	578	573	569	551	553	567	579	580	587	588	586	584	579	563	560	555	561	562	579	591	601	605	602	602	597	593	591	592	590	588	587	580	572	562	563	568	572	589	584	585	576	582	588	565	570	566	558	556	560	568	580	578	571	572	575	577	578	564	555	560	569	575	575	569	566	562	556	550	543	544	543	543	543	549	559	563	567	562	552	546	541	536	528	521	520	526	524	524	524	530	529	526	533	530	530	531	534	535	544	544	543	546	541	537	536	541	530	523	522	528	532	531	528	525	529	531	528	515	519	537	539	542	542	548	547	543	541	539	532	530	526	515	514	515	510	503	499	494	484	479	476	480	492	493	488	485	481	481	481	475	476	476	476	470	470	470	477	478	496	525	525	510	506	508	497	491	488	491	498	502	472	457	466	466	475	464	460	458	467	464	462	459	449	451	459	459	457	454	460	453	448	448	445	441	432	429	428	428	419	423	429	422	424	432	432	435	435	427	423	416	412	423	424	428	449	441	431	434	437	428	428	421	423	426	429	432	432	432	435	438	443	441	441	442	440	440	435	430	420	413	411	406	406	406	403	400	405	409	412	415	420	425	426	430	433	428	421	418	415	417	417	417	417	413	413	421	415	410	415	413	414	414	417	412	413	416	407	395	402	402	405	405	409	412	407	406	407	407	407	405	401	403	405	403	406	406	401	396	398	400	405	415	415	413	415	417	419	419	416	416	413	411	412	409	409	410	410	404	386	377	387	392	392	403	421	430	434	444	444	435	414	399	419	423	423	424	420	418	415	417	417	414	403
453	450	451	449	448	439	439	434	439	446	458	467	467	469	473	482	475	470	463	463	451	448	448	441	458	455	455	457	464	467	472	470	469	469	465	461	460	461	464	458	458	451	445	445	442	439	437	437	461	469	470	437	438	441	451	451	461	474	471	457	441	427	435	448	448	459	463	462	452	449	448	454	457	457	464	460	459	457	453	450	440	435	435	432	436	442	444	437	433	434	440	441	441	431	424	424	435	445	454	456	434	451	451	451	454	441	428	433	439	441	437	418	414	425	441	441	445	434	428	444	446	446	438	439	440	444	449	455	454	454	454	456	462	452	442	444	456	450	448	447	443	438	441	446	446	455	473	477	469	470	470	468	471	482	474	467	470	472	476	482	488	497	497	488	498	513	528	536	540	536	539	539	542	540	538	539	541	554	558	559	559	559	562	562	560	554	549	553	545	544	549	547	542	537	530	536	544	548	556	583	586	587	564	547	540	528	515	515	514	511	506	509	521	521	529	527	539	561	565	560	560	561	583	590	587	583	580	581	587	590	593	591	589	569	567	579	574	565	560	550	541	540	545	545	549	558	571	574	573	569	559	556	556	558	557	549	544	546	549	562	562	560	559	557	557	565	571	576	561	547	546	546	551	543	542	541	566	580	598	600	601	617	625	614	586	606	612	613	578	576	582	599	600	600	596	590	584	580	577	569	548	545	547	546	550	552	579	582	582	571	558	560	559	554	554	561	575	588	597	594	589	581	581	585	591	594	590	586	581	573	564	562	568	575	587	580	574	571	576	588	593	597	594	589	585	580	581	578	578	573	577	575	575	563	559	558	560	569	570	569	566	563	565	556	550	544	543	542	542	538	541	549	554	554	554	545	540	540	534	525	516	514	515	519	520	523	519	517	516	513	524	531	532	531	534	540	550	551	552	548	539	538	533	523	521	522	525	524	519	528	525	529	535	536	530	535	536	533	527	527	526	522	515	513	503	516	524	518	509	513	517	509	501	496	491	478	467	469	473	479	484	486	480	479	481	481	473	469	469	470	456	454	451	445	443	456	486	489	474	468	467	463	457	458	455	455	465	466	463	466	466	465	463	446	450	460	464	460	445	445	448	457	459	457	458	458	453	444	444	436	430	425	431	429	427	417	420	426	425	425	430	432	429	429	422	422	421	421	415	414	420	438	441	431	431	431	431	430	424	426	426	426	426	428	431	434	437	440	440	441	435	420	422	428	429	427	416	412	406	406	406	401	406	407	406	403	408	413	425	425	426	422	417	414	416	415	415	416	415	415	409	410	420	415	403	409	413	414	414	427	425	417	402	406	405	405	405	405	406	411	415	407	406	407	407	409	408	407	405	403	403	403	400	399	396	395	398	400	406	406	419	419	419	422	417	416	416	412	412	413	409	409	409	410	399	394	374	384	392	392	401	409	419	416	415	415	413	403	402	419	424	424	423	419	421	420	418	418	414	403
461	459	459	468	462	454	454	448	446	450	450	456	460	460	466	472	450	437	427	427	448	448	448	431	435	437	437	441	457	470	468	463	454	454	444	433	424	439	455	458	458	448	437	430	430	431	430	430	430	438	443	437	438	434	447	459	459	471	472	459	442	431	441	448	448	453	454	454	455	453	452	454	458	458	463	463	462	463	461	456	443	434	434	432	436	428	428	426	423	426	424	419	414	414	419	428	440	453	456	457	441	428	419	421	421	440	449	438	439	437	434	428	428	432	438	460	460	447	444	444	446	451	451	452	452	447	443	445	449	449	449	451	451	444	442	444	449	461	461	453	440	431	433	439	439	446	450	455	459	464	465	462	458	462	472	466	460	462	464	469	476	482	482	488	498	509	528	539	540	538	539	543	543	545	547	553	562	574	570	565	560	557	559	565	565	564	561	556	557	559	555	545	542	537	539	541	547	547	540	535	535	538	536	537	533	519	516	512	512	514	515	517	522	528	528	531	559	573	568	566	567	575	583	590	586	576	572	576	583	593	594	592	590	576	577	577	579	578	574	561	544	539	542	540	536	535	559	565	569	567	560	555	553	553	551	547	544	540	537	539	555	558	556	552	549	549	558	567	550	538	527	528	528	529	522	523	539	562	584	591	588	582	573	564	569	548	560	562	546	549	552	565	558	558	572	571	562	573	569	558	545	520	519	521	517	516	522	528	536	543	559	569	565	558	555	559	573	583	589	583	577	574	571	577	588	593	593	586	582	577	570	566	566	569	574	576	571	568	569	569	575	597	595	593	592	596	597	600	600	599	581	580	561	557	562	560	563	561	560	559	557	553	555	556	552	550	549	549	540	537	535	534	538	542	539	535	534	534	532	522	514	512	513	514	517	517	516	511	508	503	498	495	502	506	507	512	536	547	549	543	536	524	514	515	519	523	526	524	519	516	517	521	525	529	532	531	529	521	521	515	510	506	498	500	501	494	495	500	508	515	519	515	504	500	490	475	466	470	473	477	486	477	487	491	490	477	466	466	466	454	460	453	453	450	445	439	437	456	452	451	450	449	456	459	459	458	460	466	463	464	464	459	443	443	446	448	449	447	445	441	445	449	450	451	453	453	437	437	431	437	429	431	426	426	421	420	421	424	424	424	427	427	420	420	418	415	418	415	413	410	420	438	433	427	426	426	426	427	422	420	422	424	422	424	425	432	435	426	426	422	412	409	415	425	426	424	420	416	413	413	409	410	411	410	411	407	408	413	425	425	422	420	418	417	417	415	415	415	415	413	411	422	419	417	412	397	393	393	402	411	416	415	412	409	401	402	402	404	403	411	415	409	404	405	405	409	409	408	406	403	400	400	399	394	394	394	401	400	400	400	406	420	420	419	417	417	413	410	412	413	410	411	411	410	406	393	374	375	390	390	399	404	411	416	410	410	403	398	398	419	421	421	407	407	409	412	418	418	413	396
469	469	469	460	450	444	437	437	437	442	448	456	458	458	465	465	456	442	431	431	427	421	428	431	435	441	441	446	459	465	461	454	445	445	436	427	416	419	453	453	453	448	438	430	430	433	428	429	429	426	419	415	423	434	442	451	451	456	449	439	437	441	446	447	447	445	442	447	453	454	456	459	448	448	450	455	458	462	463	449	440	435	433	433	432	428	428	418	420	425	433	430	428	428	430	434	446	459	459	442	428	418	415	419	419	427	441	451	458	461	458	458	462	465	462	444	444	442	446	445	446	451	451	458	453	444	436	436	439	439	444	448	446	444	441	443	447	449	453	452	446	443	439	444	441	441	441	445	452	457	458	451	451	454	461	460	460	450	451	458	466	476	476	486	497	509	515	521	539	532	531	536	547	547	548	552	563	573	572	566	558	559	559	568	568	568	568	561	559	561	555	552	546	535	536	543	552	551	547	538	535	530	532	539	546	533	517	512	509	513	514	520	523	537	537	559	569	573	572	571	573	595	600	592	586	576	572	570	586	595	600	592	584	577	569	571	573	574	570	561	545	538	542	540	536	537	546	562	566	566	561	551	551	554	550	549	543	536	529	531	535	540	552	545	540	540	541	550	542	529	525	525	527	532	543	544	533	544	563	577	578	576	567	554	548	553	563	560	549	550	554	555	560	542	535	531	524	525	524	522	518	513	513	515	513	514	519	521	531	543	558	570	575	570	559	560	567	561	560	558	552	542	548	570	576	585	580	580	582	580	578	574	569	559	548	554	556	567	565	564	573	597	595	594	583	587	600	601	602	594	588	577	561	561	563	563	561	557	551	542	543	546	551	555	552	550	550	546	540	534	532	528	525	521	514	525	531	536	528	521	515	513	518	523	524	523	516	508	502	505	504	500	506	509	510	513	509	529	540	537	521	504	505	513	518	523	526	526	521	515	514	518	522	524	526	528	528	528	522	516	510	506	501	497	496	495	492	492	501	513	514	512	511	502	489	483	478	472	471	470	478	477	487	493	489	484	480	480	470	466	457	457	453	450	447	436	435	466	468	458	454	450	459	460	461	458	460	463	462	462	464	460	455	444	440	440	438	438	440	440	445	443	445	444	445	432	431	431	431	421	429	426	426	423	425	421	423	423	413	422	424	418	418	417	410	413	413	418	413	410	411	427	425	419	419	421	421	414	411	415	422	425	423	419	419	426	417	414	414	408	399	401	412	422	424	422	420	415	413	413	411	413	414	414	413	407	408	414	423	423	420	420	419	421	419	413	414	414	414	411	406	423	424	421	411	395	398	398	404	414	417	420	412	405	403	403	391	404	403	412	416	421	421	421	416	406	403	408	406	403	400	400	396	394	391	388	399	391	391	389	392	398	403	404	403	403	413	410	407	401	395	405	405	405	403	400	390	374	374	378	391	404	410	418	416	416	412	413	394	386	385	385	392	398	409	412	415	415	404	392
456	456	453	451	449	438	430	430	431	432	440	451	457	457	458	460	455	448	437	427	427	418	419	428	437	441	441	448	456	452	449	442	435	435	434	428	414	429	443	445	445	445	440	441	433	435	434	433	433	431	424	417	421	431	442	451	435	434	429	431	437	447	448	441	431	431	431	432	442	449	450	442	442	442	444	448	456	459	454	449	443	437	435	435	430	423	419	418	420	426	431	431	429	429	433	455	459	452	436	421	416	416	413	419	419	429	446	453	453	450	443	434	432	439	444	444	444	444	446	447	448	451	454	458	453	425	429	437	440	442	442	443	441	438	437	443	448	450	453	453	446	437	439	438	438	438	434	437	444	449	449	446	447	454	460	462	460	458	460	457	466	475	487	487	496	504	515	521	504	499	501	517	528	532	518	519	536	547	546	537	534	533	538	544	550	550	546	540	533	537	535	531	527	528	525	533	548	555	553	546	538	535	534	541	546	554	558	558	551	551	549	559	549	564	564	564	569	571	574	574	582	596	596	592	579	561	561	570	586	589	586	565	557	554	557	561	564	566	565	537	530	534	536	537	538	539	549	559	561	561	557	542	544	549	551	548	540	533	528	529	528	527	536	541	538	541	541	541	539	526	521	522	527	531	539	550	553	542	530	534	543	556	561	557	551	550	555	559	554	559	557	561	554	538	528	522	519	523	521	521	515	512	509	508	507	509	511	521	539	554	559	566	577	574	563	553	540	532	529	532	536	539	541	532	538	551	557	556	560	565	562	551	536	528	526	528	531	535	542	542	556	573	604	592	583	585	603	602	602	589	570	562	557	559	565	566	560	543	531	532	536	537	537	534	537	547	547	548	540	533	528	523	508	502	505	517	522	530	535	528	513	499	516	524	530	528	520	515	514	511	510	506	508	511	513	508	510	512	519	515	512	503	508	513	518	522	525	522	518	513	507	508	512	517	520	520	515	515	511	512	509	505	501	498	494	493	492	489	494	502	507	505	501	498	482	466	477	467	468	469	475	474	485	493	487	481	481	481	474	469	459	460	458	457	438	446	457	467	471	467	466	465	473	460	461	462	464	463	455	455	452	458	457	447	438	441	442	443	441	442	447	444	441	431	427	432	431	431	431	420	430	421	421	424	425	425	419	416	409	418	419	413	413	418	411	409	415	418	413	409	404	401	405	406	403	403	400	397	396	397	402	426	426	417	411	409	411	411	414	414	412	411	410	406	404	409	405	402	402	406	411	424	428	414	413	413	412	412	412	418	423	420	420	413	394	383	397	403	403	407	391	395	400	402	402	405	408	408	410	420	421	414	401	393	389	403	391	393	411	414	410	408	411	411	403	402	404	407	416	415	409	409	404	396	385	383	394	390	390	390	398	401	403	402	403	403	408	411	410	407	405	393	393	380	374	378	384	387	387	389	393	391	389	393	393	402	413	404	394	391	391	387	392	398	401	404	404	404	402	389
456	456	447	448	445	435	427	427	428	433	438	448	448	448	448	447	445	441	423	407	407	408	417	430	444	447	448	448	456	443	438	434	423	423	423	423	428	450	452	448	442	442	436	436	439	435	432	434	434	431	427	422	421	425	432	435	435	434	431	439	448	449	444	431	418	418	408	410	425	432	432	433	434	436	436	441	450	456	451	447	442	438	434	434	426	419	413	410	418	426	437	438	433	433	439	422	416	417	418	415	413	415	422	433	433	443	449	454	453	447	438	431	433	438	443	449	450	450	451	448	446	448	454	445	427	425	429	441	445	443	443	443	440	439	439	443	447	452	453	450	432	433	432	434	435	435	434	433	437	442	444	443	447	456	465	465	463	465	458	456	460	469	480	480	489	497	501	504	504	499	493	499	506	511	516	523	531	536	537	536	534	536	541	546	542	542	532	523	523	520	519	520	523	530	527	528	534	551	557	553	547	542	545	545	556	567	573	579	568	563	573	578	577	564	564	564	564	568	573	573	580	596	593	577	559	547	539	555	578	589	586	565	553	544	538	535	542	543	525	533	533	535	534	533	536	541	552	557	556	551	531	530	538	543	545	537	532	527	527	528	524	518	523	525	520	527	527	537	533	525	523	521	525	531	536	543	546	543	537	534	531	533	553	559	555	559	558	557	554	551	552	552	547	542	523	514	515	519	524	519	516	511	508	502	519	529	541	550	556	558	559	565	575	574	549	531	529	528	529	532	534	538	540	540	545	551	552	539	532	538	544	544	534	523	519	526	537	545	544	526	524	546	568	555	536	539	541	544	546	554	552	553	554	555	551	547	543	530	517	520	521	519	511	504	503	503	510	517	516	519	517	504	496	497	498	499	500	502	509	514	515	505	502	506	512	514	513	509	508	511	511	511	506	504	502	503	511	514	515	499	512	503	508	515	519	517	519	519	513	502	501	498	500	503	510	515	515	509	507	509	505	501	500	497	493	492	483	469	466	475	493	498	497	496	478	464	470	458	460	466	473	472	472	472	474	482	482	468	465	465	463	460	459	460	454	454	463	465	469	467	467	465	473	457	461	463	462	455	455	445	434	432	446	448	438	433	439	440	438	434	436	438	431	431	425	424	424	425	419	418	416	415	419	423	426	415	402	399	412	415	415	415	409	412	411	409	415	419	419	419	414	405	404	404	399	399	402	403	398	391	382	383	382	382	383	389	395	395	397	401	402	403	400	394	393	407	406	402	402	401	403	424	428	428	421	415	407	404	404	408	409	407	408	399	394	389	389	395	395	396	396	400	400	400	398	397	396	396	399	414	410	404	396	393	389	389	376	386	406	411	409	409	408	408	399	396	403	407	418	418	418	411	399	393	383	378	380	393	393	392	397	400	403	402	403	403	409	410	410	410	406	406	403	390	381	383	387	394	394	398	399	390	379	382	382	388	389	391	399	405	391	387	383	383	402	406	406	404	396	385
450	450	447	448	443	449	443	443	438	436	440	437	432	431	431	430	427	422	412	407	407	407	416	429	443	450	447	447	448	443	438	403	411	417	417	431	446	453	451	445	441	441	437	436	438	438	432	419	422	422	420	426	434	430	428	422	425	425	431	439	422	424	422	414	414	414	421	427	433	433	427	426	427	432	432	438	438	438	440	438	433	434	435	424	424	417	411	406	410	428	437	438	430	415	415	408	397	410	413	418	422	420	421	430	443	443	449	451	448	442	440	448	447	442	438	433	435	435	438	436	435	433	425	416	419	423	430	441	447	440	440	438	441	445	448	447	442	435	428	425	425	426	429	433	431	425	425	423	422	425	421	425	439	445	449	456	463	462	457	451	459	464	467	476	476	480	485	491	492	489	493	499	495	501	507	512	518	519	524	524	527	535	538	541	538	531	531	520	516	513	514	518	520	523	524	522	529	540	548	550	548	543	546	547	558	567	576	557	551	555	564	575	574	558	545	531	531	549	562	569	575	565	553	549	551	555	558	545	546	552	552	563	553	544	540	542	543	544	524	519	517	521	528	530	533	534	538	539	538	500	498	502	508	515	518	513	508	501	508	508	505	501	508	515	519	529	537	537	541	535	531	530	525	529	533	533	536	537	536	535	535	534	532	544	550	566	559	556	556	550	551	552	545	537	530	523	525	531	534	534	526	519	532	535	544	550	552	558	559	554	538	531	531	540	535	525	522	521	524	532	536	538	536	538	545	544	538	533	533	533	539	541	532	525	521	527	539	540	534	523	516	516	521	525	520	519	515	506	507	515	523	534	540	540	540	540	533	521	508	513	515	511	499	495	498	498	503	505	504	504	500	490	485	483	482	483	484	494	499	505	508	508	501	500	503	508	503	495	497	504	507	508	506	502	499	497	496	495	515	499	495	501	514	522	514	508	503	505	502	496	492	482	478	483	484	488	488	484	478	476	482	484	490	491	488	471	466	466	471	468	470	477	493	492	491	477	458	451	456	470	470	471	469	464	458	456	456	455	457	464	465	463	462	462	458	457	458	457	471	478	467	482	475	468	454	463	455	451	451	439	429	427	427	439	436	431	436	437	435	431	430	430	431	433	426	423	423	422	415	411	409	410	407	410	406	414	411	410	412	414	413	413	407	412	411	414	415	420	424	426	423	412	410	406	393	393	390	396	403	396	391	387	387	383	383	384	391	391	397	399	401	401	400	397	398	398	401	400	400	401	403	412	416	416	401	386	383	383	383	387	387	391	393	396	392	388	382	382	391	394	399	401	400	399	399	395	395	394	397	400	409	404	396	390	381	381	380	371	373	396	405	402	388	388	381	381	391	395	408	403	403	398	381	376	376	376	381	389	389	398	397	400	397	398	398	400	408	408	405	402	402	402	399	394	389	389	388	388	388	392	393	389	385	384	384	384	380	382	399	405	405	392	389	386	382	402	402	411	407	389
441	441	443	444	443	449	451	451	447	437	426	423	421	416	416	414	417	417	415	413	413	410	412	426	439	445	441	441	421	405	402	403	411	437	437	441	444	444	441	433	437	437	437	436	435	435	430	426	427	427	421	421	442	440	435	418	409	409	415	422	422	424	425	427	419	419	422	428	433	431	426	418	416	415	415	415	417	426	429	428	426	426	425	424	424	419	416	411	424	435	441	439	430	415	418	416	420	424	427	432	433	431	427	422	423	423	424	425	424	419	420	424	420	422	424	423	428	428	427	425	425	424	418	414	415	417	424	437	447	440	434	434	440	444	445	441	437	430	422	419	418	427	439	441	435	433	433	430	425	416	427	429	442	446	443	444	446	451	449	450	455	459	461	462	462	469	475	476	474	477	487	492	495	501	492	501	504	510	514	518	522	533	532	533	529	524	524	518	510	508	514	517	520	521	520	518	525	532	537	530	516	513	534	545	551	559	572	548	542	547	556	560	541	514	488	488	488	494	511	533	541	545	529	532	534	536	534	530	523	522	526	546	546	543	540	542	543	515	504	495	483	485	489	490	493	512	520	515	510	504	498	480	487	493	493	489	486	498	498	494	490	495	512	519	519	519	520	520	521	531	534	533	531	531	520	514	523	526	533	536	537	533	525	532	540	543	546	538	536	548	548	549	547	537	530	523	527	533	536	539	537	541	543	543	546	550	565	565	556	536	515	515	514	523	530	527	520	519	524	532	535	536	535	536	540	540	532	521	525	527	531	530	524	521	517	526	535	539	530	517	511	510	510	510	511	514	522	517	516	516	515	519	519	515	519	522	521	509	503	506	508	499	491	487	487	495	496	493	491	490	491	485	479	477	477	477	476	481	492	501	505	501	497	493	502	501	494	485	483	489	500	502	500	498	492	497	496	495	492	482	485	489	495	494	494	489	483	481	486	483	480	481	491	492	487	487	467	469	469	471	471	478	485	492	491	474	469	470	475	473	471	472	474	489	482	478	476	468	468	472	471	465	465	464	464	464	461	451	458	465	471	471	466	465	467	461	461	461	471	478	471	484	480	461	463	461	458	458	449	439	432	426	433	436	434	428	430	436	435	431	426	425	425	426	425	425	415	409	408	403	400	387	381	380	397	403	410	411	411	410	401	413	407	415	409	413	413	422	428	429	425	418	400	395	395	389	389	381	387	395	395	391	390	392	389	388	388	393	394	394	395	395	395	397	395	390	390	401	400	396	394	399	398	398	383	382	384	387	387	389	393	392	388	387	380	380	380	380	382	396	404	406	402	401	397	394	394	393	385	400	409	406	396	393	393	386	380	376	372	379	385	386	386	382	375	371	373	375	395	393	393	390	383	379	376	379	386	386	389	398	401	403	392	389	389	392	405	394	396	400	400	400	397	393	388	385	387	387	386	389	383	382	386	390	390	384	380	382	388	398	398	394	391	385	380	386	386	391	385	378
451	452	452	452	447	443	451	447	442	432	422	414	415	416	416	411	412	414	420	422	425	425	427	443	440	440	438	438	435	430	431	431	432	437	437	433	438	436	433	430	430	431	431	430	427	426	421	413	421	421	427	430	437	428	422	420	419	419	422	417	414	411	425	427	428	422	422	427	430	428	423	414	411	407	405	405	406	413	420	418	412	414	413	416	416	414	412	411	411	413	418	420	420	418	418	416	426	430	435	427	426	424	422	419	419	419	421	419	414	412	411	417	415	416	419	421	418	416	416	414	418	418	415	412	412	415	418	425	430	437	434	434	433	431	436	434	430	422	416	412	415	427	440	438	433	420	420	420	421	424	425	430	430	426	421	427	437	443	443	443	448	455	456	460	460	467	468	459	454	459	473	473	470	477	492	501	496	502	505	512	518	528	529	526	517	509	496	496	491	486	487	512	520	520	519	520	523	526	527	517	496	498	516	517	515	521	523	525	521	525	529	516	497	478	480	484	486	486	494	500	504	503	520	522	525	521	520	519	518	517	517	521	526	519	515	515	520	515	504	490	491	494	498	496	489	491	504	505	514	518	500	482	486	493	493	488	488	494	498	494	491	498	516	519	518	513	510	513	513	519	529	532	534	517	504	501	507	512	526	535	538	533	527	530	531	535	538	532	525	529	534	539	546	542	536	531	533	536	536	535	533	540	549	550	548	556	566	556	534	510	514	514	513	512	512	519	516	520	523	528	537	538	539	537	535	533	524	517	519	523	524	521	518	517	524	529	532	534	525	517	510	505	502	501	505	506	513	518	521	526	523	517	508	500	496	508	505	501	499	500	496	490	488	491	491	497	498	495	491	486	486	480	479	475	471	473	473	483	489	498	501	497	496	501	503	504	498	465	460	460	468	485	500	498	492	489	484	478	478	480	480	478	475	475	480	485	474	467	466	469	477	493	500	493	484	484	470	469	469	469	470	476	481	487	490	491	478	474	472	473	474	473	477	479	479	480	475	471	468	472	463	455	451	452	458	458	466	466	471	476	471	461	461	457	458	461	461	461	463	474	480	479	473	467	462	460	454	454	448	437	431	426	427	426	427	429	431	435	435	432	426	419	415	417	406	406	400	396	393	391	391	388	390	393	401	404	412	415	408	410	410	401	400	413	413	411	404	407	416	423	425	413	406	396	396	388	389	380	386	392	391	393	395	395	389	388	388	387	389	393	389	390	391	390	390	385	390	390	397	393	387	383	380	378	380	390	387	387	387	390	392	391	387	387	385	382	382	382	384	388	398	396	396	395	389	375	375	393	385	395	401	406	396	392	392	388	383	378	374	372	384	384	384	378	376	372	369	376	382	385	385	382	372	382	392	402	386	386	390	401	402	402	391	382	382	382	387	390	390	395	396	396	394	387	382	383	385	385	387	387	382	379	384	386	390	388	372	376	378	385	385	389	386	381	377	377	377	380	382	386
446	449	449	449	441	437	442	442	442	432	411	403	409	419	419	418	417	422	425	431	437	437	448	444	439	438	438	440	440	440	440	433	432	433	433	433	438	430	430	424	421	422	422	421	421	415	411	409	414	414	416	420	416	419	405	406	413	415	415	420	420	409	410	422	428	422	417	422	425	421	419	414	409	406	402	402	402	406	407	408	406	412	420	420	420	415	412	413	413	414	418	418	418	419	421	421	426	430	427	418	411	414	417	417	417	419	419	415	409	407	407	407	409	414	417	418	421	413	413	409	414	415	412	404	402	398	397	399	407	423	430	430	433	431	426	426	422	418	411	409	409	420	436	440	434	420	419	419	418	423	426	419	418	421	418	424	428	435	439	439	442	450	442	450	449	449	440	430	447	454	461	475	487	492	486	494	496	502	491	489	505	525	526	513	498	496	479	479	454	458	469	485	498	503	509	508	501	506	508	505	504	502	503	501	498	495	494	494	498	498	492	485	476	477	477	481	488	488	496	500	500	498	496	498	502	506	506	507	509	509	512	517	514	484	487	493	502	504	493	490	491	494	500	498	490	486	491	496	500	511	512	511	520	520	515	515	516	520	521	514	509	510	514	520	520	513	507	506	509	509	514	501	496	490	486	488	489	499	518	530	540	536	534	534	537	539	535	534	528	523	524	530	526	522	519	522	525	525	531	529	530	534	537	540	541	547	554	536	501	506	513	514	514	512	509	505	503	502	505	510	527	537	538	537	532	527	524	519	519	520	516	512	512	515	511	502	497	492	488	496	499	499	493	487	485	487	481	486	491	505	505	503	496	477	479	494	502	501	499	497	492	489	489	489	493	493	494	495	491	486	482	480	479	479	480	474	473	480	487	494	497	497	502	505	506	507	469	475	456	458	468	485	494	496	493	488	478	472	471	473	475	477	472	473	484	489	483	462	465	470	480	487	499	497	497	483	477	472	469	468	468	468	474	476	481	484	476	475	474	471	463	465	470	480	480	482	482	477	476	462	447	443	446	452	452	457	468	470	470	468	461	455	452	456	458	461	462	461	463	462	458	454	441	440	444	455	450	450	444	432	428	433	433	429	425	426	428	421	414	411	407	401	397	396	396	396	396	395	393	391	389	388	393	399	398	398	400	405	408	401	401	401	421	408	402	398	393	401	406	414	415	413	404	404	399	394	391	385	379	389	392	395	396	392	389	386	386	384	386	387	390	392	399	396	390	385	384	384	385	385	383	376	378	381	386	389	387	387	387	390	392	391	390	388	386	385	385	385	385	387	382	381	383	388	387	389	375	376	375	394	392	393	390	392	392	393	387	380	378	387	388	386	386	384	374	371	367	369	379	379	378	375	373	373	392	402	402	402	396	397	401	402	392	383	383	383	383	375	376	389	389	391	389	383	383	384	387	387	388	387	383	379	384	384	390	392	369	369	373	373	378	385	380	375	372	372	377	376	380	384
432	442	442	442	436	433	437	436	436	423	411	403	406	414	414	420	426	423	431	433	445	445	442	433	431	432	437	437	437	437	433	428	424	428	433	433	433	430	430	421	414	408	408	406	411	410	405	403	408	412	412	411	410	417	405	406	410	412	412	415	415	414	405	411	420	417	417	422	419	416	415	412	405	398	394	394	397	398	402	403	411	421	426	429	426	426	418	413	411	410	412	413	418	423	425	425	429	432	427	418	404	404	411	415	418	419	419	415	411	408	409	409	408	411	414	420	422	417	417	418	406	401	403	403	398	393	384	380	399	407	423	431	431	429	426	426	405	402	420	413	411	408	417	430	437	432	426	426	419	422	423	412	417	420	421	422	426	432	442	442	441	437	433	454	457	457	453	452	451	450	449	466	488	491	486	481	490	492	491	489	461	494	498	493	484	472	456	458	458	463	468	473	487	492	501	487	479	481	480	480	487	488	487	483	490	493	493	487	482	482	481	482	474	477	483	490	496	503	503	501	495	492	492	494	496	497	496	494	488	487	484	484	468	466	470	479	484	490	492	492	493	496	500	498	490	484	487	488	492	501	500	502	511	518	515	517	516	521	519	512	508	507	513	519	515	511	505	501	500	500	494	487	472	473	476	485	489	488	501	517	524	528	531	534	536	535	534	533	529	524	525	523	519	512	514	509	508	507	524	535	540	534	523	523	523	523	516	506	500	506	512	514	512	502	491	491	493	493	492	498	510	513	511	514	518	521	519	520	523	520	514	510	507	491	484	480	476	470	463	457	459	463	468	476	483	482	481	476	469	468	470	476	480	469	468	470	481	485	485	485	492	488	490	490	485	481	482	484	484	483	482	484	487	488	483	474	470	471	464	470	474	481	491	504	513	513	501	475	456	458	474	479	482	483	485	486	481	470	465	468	476	473	472	469	478	487	475	460	465	470	487	489	483	483	483	484	483	473	467	463	463	463	458	457	459	461	469	461	458	455	446	458	475	479	462	464	463	463	462	444	440	441	439	439	439	446	453	452	450	449	445	449	452	456	463	463	461	459	461	456	442	436	434	431	435	436	436	441	441	431	428	433	437	432	427	424	420	411	407	404	405	407	405	408	408	407	403	397	392	390	389	390	390	389	391	391	400	405	401	397	397	406	412	409	404	398	386	393	400	404	405	405	404	404	397	396	392	383	378	384	389	389	385	379	381	381	384	383	382	383	387	390	399	396	387	382	382	379	380	379	376	377	379	379	383	384	382	382	383	386	391	392	392	396	396	394	394	390	384	378	379	378	377	377	387	387	378	376	376	373	378	382	387	392	392	393	388	386	381	391	392	389	389	385	373	367	366	369	376	376	380	381	373	373	379	388	388	389	389	391	392	394	392	392	388	385	378	373	373	377	377	383	383	378	376	385	388	388	386	387	383	378	382	382	384	378	367	358	361	361	361	362	364	367	373	373	375	375	379	385
425	433	433	433	433	431	428	420	420	409	403	399	406	414	421	421	422	425	431	436	442	442	431	421	420	427	433	431	431	430	425	420	413	419	422	422	423	426	426	421	414	402	402	402	401	400	399	397	396	399	399	406	402	401	400	402	409	408	408	405	412	405	407	406	410	407	410	410	419	416	407	405	401	392	386	390	390	392	393	399	408	421	433	439	439	439	414	406	405	406	407	410	413	418	423	423	427	428	422	410	404	410	411	409	415	418	418	414	413	414	414	411	407	405	405	403	412	421	415	415	405	400	401	402	400	397	392	382	379	397	415	424	424	425	425	422	405	404	422	415	409	405	408	417	427	428	427	425	425	421	413	413	421	426	428	427	427	426	435	447	450	444	452	455	458	457	457	452	455	452	450	458	474	486	483	475	475	487	486	462	461	494	463	467	467	459	457	460	460	468	469	474	477	481	488	487	481	477	474	470	470	467	466	466	476	482	485	481	478	476	476	474	477	483	493	499	506	503	503	494	494	492	494	494	494	490	490	489	489	495	484	463	458	458	468	477	480	478	473	481	491	498	499	496	486	484	487	488	486	493	492	491	496	498	503	521	518	510	498	482	476	476	495	496	497	499	500	499	495	483	483	472	468	472	478	483	490	489	487	493	501	511	524	530	534	533	532	531	529	528	525	523	516	509	509	498	506	509	512	512	511	506	506	508	509	508	508	505	493	496	513	514	507	486	481	485	495	492	491	493	502	503	501	494	503	509	513	516	521	516	512	489	486	483	485	483	474	466	463	451	452	440	443	454	459	459	458	455	445	440	440	465	481	474	462	460	458	469	474	475	486	491	491	489	470	471	472	473	476	480	484	486	488	491	479	463	463	468	460	464	466	470	475	477	513	513	501	464	454	454	449	451	450	452	463	468	470	467	460	464	470	467	468	468	475	478	467	459	460	472	487	486	493	493	495	484	483	474	467	457	449	446	446	445	447	452	460	459	461	459	458	452	455	456	458	459	439	440	433	434	437	436	435	435	433	434	440	444	445	443	445	449	455	459	460	463	457	455	456	455	450	445	435	428	428	432	432	432	431	426	408	416	426	431	429	427	424	414	404	403	406	411	412	413	413	410	395	393	390	386	383	383	375	377	391	391	394	394	388	388	391	394	399	399	400	398	394	384	387	392	397	399	393	393	395	406	401	395	388	391	390	385	381	378	378	378	380	385	383	386	387	390	388	382	382	379	379	379	381	380	371	372	375	376	376	377	377	376	376	375	375	377	382	384	388	387	387	378	372	376	375	375	377	377	377	377	379	369	363	365	370	376	383	383	392	386	382	385	381	394	396	396	394	387	376	363	362	362	373	373	378	381	374	371	369	375	375	380	384	385	383	389	393	393	390	381	375	377	376	377	377	374	375	375	376	376	376	388	386	383	379	375	376	376	377	375	361	370	380	380	375	364	354	350	350	350	371	374	377	379
427	426	429	429	429	429	424	415	408	408	400	401	405	414	421	421	412	421	429	430	432	422	422	410	412	425	432	431	431	425	416	409	402	399	401	401	411	421	421	418	409	402	402	398	398	396	395	393	393	395	395	397	400	400	399	414	415	412	412	408	407	406	406	405	404	405	400	400	402	405	407	396	401	398	392	389	389	389	390	395	404	419	434	440	440	440	411	406	403	405	401	401	401	413	417	417	417	409	405	404	407	410	411	413	413	420	425	425	428	427	421	406	403	388	386	385	383	407	413	413	406	405	403	404	405	403	401	393	387	385	400	422	425	425	424	426	408	404	422	395	400	404	405	415	424	425	422	423	423	416	406	409	414	426	431	432	433	429	432	438	448	447	449	453	452	457	457	454	456	456	458	467	472	482	477	476	468	465	460	454	456	458	463	467	467	465	458	464	471	471	471	470	474	478	484	484	482	481	480	478	477	468	463	452	454	463	476	473	474	473	473	472	476	488	493	497	501	494	494	494	487	490	493	490	487	482	485	491	494	490	481	469	465	464	467	478	474	470	466	469	480	495	497	492	486	483	484	482	486	493	492	483	487	497	503	499	493	491	487	482	479	479	484	480	483	485	493	495	487	482	482	471	465	468	477	484	489	486	481	486	499	510	518	529	529	528	534	533	524	521	524	528	521	515	489	486	491	496	503	507	506	504	501	505	504	506	509	508	507	508	510	507	490	483	478	480	484	484	482	481	483	486	494	488	489	497	503	508	503	496	485	480	477	482	488	490	490	473	462	451	441	443	435	432	433	447	445	445	443	441	447	448	462	476	467	453	451	454	461	473	483	486	486	484	465	463	467	470	474	479	476	467	466	465	467	468	467	463	461	460	460	470	475	477	478	481	475	459	438	442	436	428	423	439	457	461	466	463	458	458	465	466	468	470	473	470	468	458	451	453	469	486	492	492	495	486	477	471	461	449	445	450	451	447	449	455	455	458	463	462	460	459	452	452	452	438	440	440	446	436	434	434	435	435	432	437	443	445	445	443	437	434	440	454	458	458	458	454	456	451	443	437	431	430	426	426	426	425	423	419	419	405	414	421	427	419	414	412	406	396	402	390	390	390	392	397	397	399	398	388	380	377	375	377	377	378	379	383	388	388	390	388	389	389	392	392	393	388	386	391	394	393	393	389	391	396	396	386	384	388	388	384	379	377	375	375	377	383	383	386	385	384	378	374	376	374	374	381	378	379	378	376	374	373	371	373	373	373	371	371	371	365	376	385	382	382	382	379	366	371	375	375	374	375	375	375	376	363	366	360	360	363	372	372	386	383	381	383	397	380	380	380	387	384	380	375	359	356	365	373	378	381	385	388	383	375	375	370	374	379	387	386	388	388	393	382	381	378	376	377	377	375	375	375	376	376	376	378	378	374	377	374	375	375	376	364	368	385	387	387	379	361	359	358	358	364	363	369	375	379
419	419	426	426	427	432	427	416	408	408	405	409	412	417	420	420	412	421	412	424	420	409	409	409	411	421	429	428	423	423	415	408	400	397	401	406	406	414	417	419	415	403	398	398	398	394	390	393	394	398	403	403	408	409	407	401	415	411	411	411	405	406	408	408	405	405	404	404	402	396	396	396	401	405	399	394	394	391	391	393	401	421	426	419	407	387	387	384	383	383	384	399	415	418	415	409	409	403	402	401	405	410	411	413	413	418	422	422	425	417	406	406	385	385	383	382	401	409	411	411	407	405	404	407	410	412	403	395	386	387	404	412	422	422	433	409	399	399	399	395	400	411	423	427	426	420	417	415	415	412	401	405	412	418	430	432	426	422	428	441	444	439	440	445	451	451	452	452	453	458	462	466	469	473	473	465	460	457	457	453	452	454	457	461	467	470	469	471	472	472	472	468	470	478	475	475	478	475	473	465	460	456	447	443	446	453	457	467	470	473	472	473	474	488	493	497	497	490	472	472	463	460	454	455	470	467	462	469	480	484	478	472	467	462	459	466	471	465	463	465	475	498	498	491	484	485	485	484	485	487	484	483	487	497	493	493	489	488	487	478	471	471	476	478	483	484	488	496	499	492	477	477	466	472	477	482	486	483	481	482	497	508	513	520	522	520	528	532	520	518	526	527	519	488	483	485	486	491	500	507	508	504	502	500	501	505	505	506	505	504	500	500	489	480	477	479	482	485	484	458	451	471	477	488	488	492	492	491	479	473	470	470	478	485	492	495	494	483	467	437	441	445	432	432	432	444	445	444	443	444	452	452	462	464	463	456	449	454	463	472	479	479	478	475	471	463	467	473	476	473	463	448	450	446	452	454	461	457	461	460	460	463	466	468	456	457	453	427	424	423	434	429	431	418	455	463	465	462	455	455	461	462	465	468	469	467	465	461	458	465	476	486	486	469	469	467	468	464	458	448	454	452	454	453	458	454	452	448	454	461	459	456	454	454	441	441	441	447	440	439	438	435	434	434	433	433	443	445	438	432	426	432	439	449	450	448	444	447	449	444	437	429	425	423	423	423	427	421	418	421	417	406	400	404	406	406	403	399	397	392	386	385	386	386	391	393	394	392	395	395	380	377	375	375	379	378	381	386	386	387	387	386	386	386	389	391	389	385	385	390	390	386	386	386	384	389	384	380	377	384	388	389	386	378	378	377	377	383	392	389	383	374	367	367	374	374	376	382	381	378	377	376	373	369	370	375	375	378	374	374	375	375	379	387	383	383	383	379	366	371	374	374	373	374	374	373	371	357	355	355	355	353	359	359	366	367	364	362	363	371	375	375	378	381	375	371	367	356	356	365	371	377	379	384	381	374	374	368	367	367	375	377	378	378	379	379	381	377	376	376	376	374	372	375	376	376	376	377	378	372	372	374	374	372	370	368	369	385	385	374	359	362	376	389	389	382	368	371	375	379
413	414	416	416	418	418	420	419	410	410	410	415	424	425	420	420	405	402	412	424	409	408	408	409	411	416	423	424	421	421	413	407	402	398	403	406	406	409	408	411	411	409	405	405	398	394	392	394	405	416	423	423	421	415	411	408	407	406	394	394	391	403	408	406	405	404	405	405	402	392	392	398	403	405	399	397	397	392	391	395	411	420	408	399	392	379	379	372	379	394	398	403	409	413	417	407	407	398	395	396	400	404	408	409	410	418	422	419	419	419	414	388	388	384	383	399	408	410	407	405	405	400	399	411	414	397	401	390	391	400	418	420	411	411	393	411	433	405	394	391	399	411	423	426	425	419	413	410	410	410	406	405	410	417	424	425	413	413	419	428	427	424	431	439	447	450	447	447	444	453	459	469	466	465	474	478	484	485	478	468	459	454	456	461	467	470	469	471	475	474	474	474	471	468	467	470	471	465	458	459	452	446	436	434	439	447	454	458	467	470	470	471	477	483	484	482	471	453	431	432	432	439	444	448	455	453	446	439	443	454	461	458	461	458	457	457	459	462	461	460	482	484	486	481	484	488	489	489	488	484	481	478	486	495	493	493	489	486	482	476	476	472	473	483	487	485	486	492	488	467	462	462	465	471	483	493	491	488	487	484	490	501	506	505	505	506	509	505	503	493	475	474	484	483	480	479	485	492	498	510	512	503	500	500	504	506	502	501	501	504	499	490	488	493	492	484	481	486	463	462	451	457	469	484	484	484	484	485	481	475	466	466	466	473	479	483	490	467	462	441	444	442	443	439	444	446	439	439	444	461	466	468	468	459	454	455	452	457	457	469	472	472	469	467	463	466	473	476	473	465	451	451	459	451	452	454	461	457	454	455	455	452	453	462	458	453	446	436	429	440	434	431	428	431	446	460	459	458	452	449	455	458	460	461	462	465	465	464	461	464	477	482	482	470	463	460	459	454	452	452	447	451	463	470	466	454	446	441	443	453	454	451	448	444	442	441	441	441	439	440	441	442	442	436	433	433	438	439	429	425	429	432	437	437	434	437	436	438	433	438	430	414	413	413	413	416	415	418	420	420	413	405	400	399	403	402	401	395	383	382	384	383	386	386	389	396	388	388	389	395	386	380	378	378	381	381	381	379	379	381	384	386	386	387	387	386	383	376	372	378	378	379	379	381	385	387	386	383	379	377	380	386	387	380	380	377	367	373	385	383	387	372	364	364	369	369	376	383	383	378	376	370	364	365	371	371	376	378	374	373	374	375	379	393	392	392	383	379	366	363	367	372	373	374	374	371	371	366	358	358	365	365	365	371	370	366	363	361	364	361	361	373	374	377	371	371	367	361	361	360	366	372	373	371	376	376	368	366	367	365	362	360	360	357	358	373	379	377	375	375	378	374	372	370	367	373	373	373	367	365	369	367	367	366	370	371	371	366	366	363	358	355	381	389	389	380	368	371	383	385
408	404	408	408	404	412	417	418	418	418	416	420	430	425	410	394	394	390	399	409	409	408	401	403	404	405	412	419	421	421	418	409	405	400	403	408	408	408	403	401	402	406	413	413	399	395	392	394	400	409	415	415	416	415	415	416	414	408	402	402	399	405	412	409	405	407	408	397	397	392	392	397	403	406	402	397	392	394	393	399	411	406	401	398	392	387	387	382	389	398	401	403	405	410	407	399	393	393	391	391	392	392	397	401	404	410	415	419	419	402	402	399	395	400	400	407	410	404	399	402	402	398	395	401	406	386	380	396	398	401	404	407	405	406	406	415	407	406	400	396	396	401	414	426	425	403	407	412	414	414	411	411	416	419	425	418	417	419	418	419	420	416	412	410	409	412	419	435	435	442	457	462	461	462	466	469	475	483	473	461	455	457	455	461	467	471	471	471	475	478	478	480	463	457	448	445	447	449	458	456	451	445	436	438	442	441	438	437	443	452	456	465	473	478	479	461	456	446	439	442	444	444	446	442	442	442	435	434	442	447	450	451	456	455	457	456	459	459	455	459	468	468	479	478	484	487	488	488	487	485	480	481	487	492	492	493	486	486	482	476	476	477	480	485	488	485	479	481	468	459	460	457	457	458	464	477	484	479	476	477	481	488	492	494	490	486	486	488	490	476	472	473	476	481	481	478	481	486	495	502	513	504	500	500	508	504	501	499	497	501	494	488	487	489	489	481	475	487	476	456	463	464	480	484	485	481	482	481	475	471	469	468	469	465	466	464	464	463	459	460	451	460	464	468	459	450	451	450	445	440	443	453	453	451	451	455	454	456	460	452	452	445	439	446	452	458	467	467	464	453	451	451	459	451	443	444	446	448	433	439	450	449	454	455	459	458	449	440	434	443	438	434	428	436	434	453	455	456	452	437	440	441	448	453	452	452	451	451	450	448	451	451	452	452	445	441	439	433	431	423	422	430	459	467	465	457	443	438	434	442	445	443	443	441	435	434	434	437	434	435	427	427	442	436	433	433	432	435	431	432	432	434	434	431	427	424	430	436	432	432	418	412	419	422	422	423	418	417	418	418	414	408	406	404	404	403	402	395	389	385	385	384	384	383	391	391	388	388	389	389	391	388	382	383	381	381	378	377	377	375	376	381	380	382	384	385	380	372	374	377	379	379	381	383	383	384	383	383	381	381	383	386	383	380	380	370	370	362	371	372	379	368	369	364	370	370	379	382	382	377	374	371	364	364	367	367	375	379	374	374	373	379	381	381	392	392	386	379	360	360	365	372	373	372	372	373	369	366	363	364	371	376	376	376	374	372	368	372	368	370	370	364	369	377	371	370	366	362	362	362	363	366	367	366	370	370	365	366	367	368	367	364	364	358	353	357	365	370	376	375	378	375	371	367	363	363	357	357	364	378	384	378	378	371	368	371	370	366	366	363	352	355	375	377	389	380	369	372	383	385
406	403	406	399	399	406	411	418	420	421	421	426	427	421	411	401	401	405	412	411	404	401	403	403	394	397	405	414	420	420	415	410	398	395	403	408	408	408	403	399	398	411	404	399	399	395	394	391	400	409	413	413	410	405	409	418	415	407	402	403	403	406	402	394	396	400	406	397	397	391	392	396	402	408	404	399	394	394	393	405	407	397	393	395	393	387	388	388	393	400	403	403	399	390	390	387	384	384	383	386	386	384	385	387	396	402	403	402	402	402	385	385	392	388	385	386	389	393	404	398	398	387	378	378	383	380	385	391	396	398	402	402	404	407	407	407	391	395	400	395	395	396	405	411	407	403	407	411	411	414	414	412	417	427	431	431	421	421	417	417	418	413	412	411	412	412	417	430	430	448	458	454	458	461	463	467	468	465	459	454	458	457	455	465	468	468	469	471	475	478	480	480	455	451	447	442	442	447	453	454	447	441	438	439	444	444	442	439	437	443	446	452	455	455	456	457	459	448	441	449	449	449	451	442	442	441	435	433	442	446	447	447	450	454	456	459	462	462	459	454	455	464	459	464	462	464	468	473	484	486	484	481	486	490	492	481	471	468	472	471	471	477	480	485	488	481	473	470	462	452	450	449	449	450	450	449	459	468	469	466	469	473	477	479	478	477	479	480	479	472	464	461	464	478	475	473	472	470	472	488	492	489	484	487	489	492	486	482	481	486	483	480	482	480	468	468	481	486	487	484	477	474	483	484	481	473	470	473	472	472	467	465	456	457	457	459	456	450	456	463	466	461	464	467	455	446	444	445	446	446	448	455	457	450	447	448	455	452	434	428	428	426	435	445	445	446	442	467	464	453	451	458	453	444	437	436	433	435	438	438	447	447	452	455	458	456	454	449	446	448	448	445	433	426	428	430	432	439	435	430	428	430	434	429	422	427	433	441	451	447	447	447	446	440	435	433	431	429	425	419	418	422	435	456	457	449	436	425	427	432	434	439	440	432	428	428	427	433	430	426	427	427	427	425	427	427	424	426	427	426	431	432	433	421	423	429	416	428	432	424	416	415	417	423	423	424	421	419	414	411	414	409	407	406	412	410	404	396	390	386	386	388	388	385	381	391	388	382	381	382	387	386	385	383	381	378	376	376	374	372	374	381	385	383	381	379	378	376	375	377	379	379	381	381	382	378	378	381	380	379	381	386	383	383	380	379	367	363	367	369	373	372	375	384	384	388	390	388	384	377	376	374	369	366	367	367	371	376	381	381	374	375	373	381	381	381	374	367	360	354	354	371	374	374	372	372	373	368	364	363	373	375	375	375	372	371	368	371	373	364	364	364	369	368	371	360	363	363	363	364	361	365	366	368	368	368	368	364	367	372	372	368	368	360	354	360	364	370	376	376	370	368	368	371	361	361	355	360	368	378	385	379	379	371	368	372	370	364	364	361	365	367	375	377	377	366	369	370	357	357
406	401	399	395	395	401	408	417	422	429	429	430	426	416	409	406	406	412	418	414	406	397	393	393	394	397	400	412	415	410	410	402	397	395	402	406	401	401	412	416	410	398	397	400	400	393	386	391	398	401	413	410	401	401	403	408	414	407	399	404	404	406	401	396	393	399	393	396	396	395	386	385	388	402	395	391	391	391	398	405	407	388	388	390	391	388	391	391	396	400	397	398	394	387	384	380	381	381	385	384	382	379	381	380	398	410	409	389	386	386	385	385	385	393	392	383	375	375	385	390	388	388	392	389	383	380	385	391	395	396	391	398	407	404	401	401	398	391	395	399	394	392	398	404	402	403	410	411	410	407	407	403	399	416	425	431	426	420	418	421	427	414	411	413	413	413	418	427	427	441	449	452	457	460	461	464	463	460	456	456	460	460	456	454	451	454	461	473	479	472	456	456	455	451	446	440	440	442	447	456	456	454	450	447	446	444	445	442	439	441	447	446	446	449	456	457	460	461	461	467	468	465	465	453	449	447	444	445	442	439	438	441	451	453	455	459	461	462	461	459	456	451	455	457	462	463	473	478	482	482	472	459	463	466	467	459	459	460	459	460	458	462	472	479	484	481	473	470	462	445	439	439	444	444	448	446	444	454	457	464	466	470	473	474	473	473	472	471	472	475	454	450	448	460	470	468	462	465	477	482	473	464	452	448	448	451	480	477	471	463	460	466	462	456	461	471	479	483	486	484	481	479	483	485	486	478	474	474	476	474	461	456	450	451	448	448	448	448	449	461	456	457	456	454	448	444	444	450	450	451	452	457	461	444	432	433	438	441	438	438	431	425	423	445	445	446	442	436	436	437	437	440	439	431	430	432	434	436	438	439	437	437	438	437	440	444	443	443	445	448	455	455	441	438	434	430	436	437	433	430	427	426	432	433	428	432	440	448	446	440	440	443	447	440	442	439	435	431	428	435	438	428	427	430	432	439	428	410	412	416	422	423	429	430	428	426	428	430	430	426	421	421	420	422	419	419	421	417	419	422	429	432	419	418	418	422	425	415	427	423	419	415	413	413	417	419	418	407	392	395	401	408	409	412	412	409	405	392	384	381	383	383	386	385	381	385	377	371	372	375	381	385	381	379	378	379	375	375	372	367	372	377	381	382	379	376	375	378	376	376	377	377	381	385	385	379	367	364	365	379	381	370	370	370	372	377	378	366	365	371	374	375	378	378	378	382	380	376	372	361	375	375	371	370	370	371	371	388	388	367	358	375	373	372	372	370	370	372	372	352	353	368	371	371	372	373	365	364	365	372	373	370	370	368	366	364	362	363	367	364	364	364	375	366	371	362	363	363	360	360	362	363	365	367	369	369	367	367	372	376	375	371	371	364	360	360	364	370	370	377	379	373	366	364	365	365	363	366	369	374	372	372	370	365	367	356	355	355	358	365	365	367	376	376	377	365	357	352	352	352
401	401	399	393	393	396	409	419	426	431	431	432	423	411	405	408	417	417	422	419	404	395	389	389	388	391	400	412	412	400	400	389	387	385	384	389	395	395	400	412	410	396	383	379	379	379	380	394	399	401	408	401	401	401	399	406	405	402	399	403	403	405	400	392	389	385	396	403	399	399	392	390	391	395	397	396	393	393	393	393	393	388	380	387	388	393	399	399	403	399	393	387	383	383	382	380	383	387	387	390	388	384	384	392	391	387	387	382	382	382	381	381	385	393	392	381	373	372	385	391	390	390	392	390	387	385	379	381	391	387	392	405	407	404	400	400	397	397	394	395	391	378	387	395	406	401	405	410	410	407	399	399	396	408	415	421	421	419	419	425	430	434	430	411	406	408	411	416	435	435	440	444	446	452	454	454	451	452	454	459	459	456	452	448	445	445	445	453	459	455	452	446	446	446	446	440	437	438	442	446	452	455	449	449	449	449	447	445	441	437	433	427	427	441	449	460	460	464	464	461	461	459	459	454	455	458	459	455	454	454	448	449	449	451	454	456	458	460	461	461	465	467	469	463	463	463	464	455	455	455	452	452	448	445	443	442	443	445	446	452	454	452	455	468	476	476	476	469	452	445	439	439	444	438	442	443	445	444	453	457	460	472	477	476	472	457	436	442	463	469	453	450	443	443	451	463	465	462	465	466	463	462	463	458	456	457	467	476	461	456	454	456	454	451	452	447	446	451	456	458	459	462	466	474	477	475	481	479	480	479	470	450	447	451	444	435	436	437	443	443	452	450	452	446	445	441	448	452	451	451	453	456	437	431	434	433	437	441	440	438	431	425	423	433	433	441	439	434	430	429	434	432	434	424	429	433	437	431	436	443	443	438	442	448	456	458	447	450	455	461	465	465	461	456	449	449	452	449	442	430	429	435	439	422	421	431	442	443	437	437	430	433	442	440	441	437	430	425	426	435	438	434	428	413	413	424	419	410	412	417	422	427	429	438	437	421	428	430	427	424	424	421	417	413	413	417	417	415	412	422	410	411	404	403	408	417	418	414	410	410	418	412	408	408	410	408	404	402	388	388	400	406	409	410	402	394	391	388	385	383	384	383	386	387	383	380	376	373	378	383	383	382	382	379	378	378	377	377	375	371	371	376	380	381	377	375	376	374	371	370	370	372	375	381	382	377	372	364	365	374	371	369	365	365	370	374	372	371	370	370	370	375	372	366	366	362	361	362	364	370	359	363	369	372	372	374	376	377	363	367	358	364	366	367	367	363	368	384	384	367	356	359	364	364	365	359	361	353	357	364	370	370	369	368	368	369	369	363	367	367	376	376	368	372	364	364	365	365	358	356	357	360	362	366	366	371	369	366	365	366	366	366	369	370	360	362	363	366	366	369	374	369	360	356	366	366	368	368	372	370	368	368	353	356	360	356	353	353	358	365	369	378	372	372	367	358	350	345	345	345
390	390	392	393	393	399	411	423	426	430	430	427	418	409	404	404	413	413	417	412	404	393	388	388	384	391	400	408	412	400	392	388	382	375	373	377	384	384	394	402	409	406	395	393	379	379	389	395	401	400	397	387	387	393	399	406	404	403	393	394	394	394	387	383	385	389	394	400	402	402	399	395	392	394	396	395	391	388	388	387	383	381	380	387	385	381	377	377	377	377	379	376	376	377	386	382	387	392	392	397	398	392	387	381	380	381	382	377	377	377	381	383	384	389	392	381	370	372	378	374	372	372	372	374	378	384	387	381	379	381	386	393	401	404	403	403	402	403	403	402	400	399	396	399	398	398	400	406	405	403	399	399	396	399	412	414	416	414	418	424	427	429	430	416	411	415	424	441	451	451	454	458	457	449	440	434	442	444	449	451	444	441	438	443	444	444	449	449	448	448	444	442	442	441	438	436	437	438	440	447	452	455	450	447	446	446	451	453	457	453	443	439	439	445	442	446	454	462	463	461	464	461	460	460	459	459	457	456	456	454	455	449	449	449	452	458	462	465	464	467	467	468	469	466	461	456	455	444	443	448	450	446	445	442	440	439	441	445	448	449	451	453	458	466	471	470	464	442	429	425	425	437	438	442	442	443	445	444	434	435	437	444	459	457	454	433	439	446	445	428	438	436	434	429	426	434	458	454	450	448	449	452	452	451	452	452	453	456	455	450	448	448	447	448	448	449	452	445	445	441	444	453	455	453	456	460	455	462	469	480	478	471	464	442	435	429	425	426	434	439	430	429	440	443	441	442	441	445	436	433	427	427	431	434	434	433	437	441	441	440	434	425	424	426	432	433	426	435	437	436	436	432	422	421	421	428	434	433	436	436	442	443	445	455	474	468	460	455	454	455	454	460	465	461	456	459	458	454	448	427	424	422	419	417	416	424	428	429	427	427	425	425	435	435	432	430	423	419	422	431	433	431	425	416	410	412	415	418	408	408	410	412	417	418	437	421	421	419	420	421	421	417	409	413	415	415	415	412	410	399	408	394	401	402	403	405	404	411	407	403	405	409	409	406	403	403	401	399	393	396	398	406	407	404	395	394	393	392	390	383	384	384	390	387	384	382	383	384	384	384	383	381	377	373	375	377	377	376	374	378	377	375	382	382	377	377	374	370	368	365	365	368	375	380	379	373	372	373	378	378	373	368	368	365	369	371	370	368	363	360	360	361	358	358	361	363	360	358	357	355	359	354	352	370	370	366	360	377	363	360	370	371	359	359	363	364	367	385	384	362	349	357	357	359	359	356	360	352	355	360	367	367	366	366	364	369	369	372	373	373	374	374	370	367	365	363	364	364	358	355	355	357	361	365	365	367	366	366	365	365	366	366	369	370	369	364	362	363	363	366	368	368	362	357	357	366	367	377	374	372	366	366	358	344	349	364	353	353	360	364	374	379	375	375	368	362	355	346	344	344
382	379	384	389	399	399	411	421	421	415	410	410	405	401	397	398	399	399	404	409	399	388	383	383	383	388	397	403	401	392	392	384	377	373	375	378	380	380	387	394	394	385	392	390	385	385	380	393	397	396	389	379	381	381	392	404	404	403	403	402	393	393	390	388	390	393	393	393	391	391	390	390	387	386	380	382	382	382	382	381	377	380	380	385	385	381	377	372	372	377	374	379	378	379	383	384	391	400	400	400	399	391	391	380	378	380	379	376	378	382	382	383	382	379	377	372	370	372	375	377	378	375	375	372	371	373	374	375	376	377	378	378	390	399	400	400	400	405	408	407	401	396	393	394	400	398	393	400	404	401	398	398	396	399	405	411	408	407	410	413	417	419	421	417	421	423	429	435	437	440	440	450	440	428	436	429	431	435	436	435	437	432	432	438	444	447	449	449	447	442	438	435	433	433	433	434	434	436	440	447	452	450	447	442	440	438	431	440	444	448	449	447	449	446	448	442	445	449	463	466	464	465	464	464	461	458	456	458	461	461	459	452	455	458	459	456	461	465	465	467	467	468	467	463	454	448	446	452	453	452	448	446	441	439	438	438	438	445	448	448	447	452	456	456	455	445	435	429	426	425	425	429	432	433	433	432	430	429	434	435	437	444	459	457	432	434	442	438	419	432	415	416	424	425	428	431	436	446	449	449	447	446	449	450	448	450	450	448	444	438	438	439	443	448	449	452	459	447	447	448	445	439	439	446	448	449	447	445	460	468	471	458	449	434	426	422	415	419	422	430	431	428	429	436	437	438	438	435	436	433	427	427	431	434	437	440	436	443	443	451	438	427	422	423	432	427	427	436	437	438	437	431	422	425	414	426	427	426	433	438	441	444	446	456	471	466	458	455	455	455	454	463	463	458	456	459	456	453	444	427	424	420	417	413	422	423	427	431	431	430	429	431	432	428	423	419	418	417	422	426	423	422	419	414	411	412	418	413	409	408	408	412	417	418	421	407	406	403	398	398	412	409	411	415	417	416	412	411	394	398	385	397	404	403	401	403	401	400	400	402	398	403	403	407	404	402	399	395	392	400	404	396	396	398	397	388	386	392	390	364	364	368	380	381	378	377	381	380	379	377	376	371	366	362	362	367	367	368	366	363	364	366	369	370	372	374	372	368	365	365	364	366	367	368	379	373	370	374	380	379	372	367	367	361	362	366	367	366	365	361	355	359	363	363	360	363	357	349	352	351	353	353	355	355	353	366	360	357	346	351	351	347	355	355	363	367	372	376	380	378	354	352	352	350	355	355	352	355	356	354	343	343	346	354	364	365	368	370	372	372	372	371	368	366	366	366	366	362	361	357	358	357	357	358	358	358	361	365	371	371	366	366	368	370	368	364	360	352	352	357	359	361	361	354	354	360	375	376	373	369	369	361	361	346	349	364	361	361	351	363	378	369	362	362	363	362	357	348	348	344
380	382	386	395	401	401	416	421	421	403	400	400	399	392	391	384	386	386	393	396	393	382	376	374	374	381	393	396	399	393	384	384	377	374	378	380	378	383	383	380	371	386	384	387	385	385	393	400	398	396	383	378	378	378	386	398	401	404	403	402	387	387	381	388	390	391	391	389	384	383	383	384	385	383	379	376	377	378	379	379	377	379	383	385	386	378	377	372	371	373	378	378	381	380	380	380	379	385	386	386	390	391	381	380	380	382	382	384	387	390	390	384	384	388	392	391	385	376	375	385	387	384	384	379	373	372	372	373	377	377	378	374	374	376	378	381	381	390	400	404	399	393	389	393	399	398	392	389	393	393	392	390	390	397	405	411	406	405	402	413	415	417	417	419	421	424	425	430	432	437	437	446	440	430	423	425	425	424	425	429	428	428	426	434	444	447	447	446	438	428	420	422	419	419	414	417	427	434	440	445	452	450	444	436	433	426	435	437	440	439	440	441	442	447	446	444	444	448	459	464	461	461	461	452	452	448	445	448	456	462	460	458	458	460	461	459	458	461	463	466	467	462	452	442	440	442	451	459	458	453	435	431	437	440	435	437	439	448	449	442	436	432	435	433	432	430	427	426	425	426	428	428	425	424	423	423	424	424	424	425	428	431	432	431	432	434	442	438	419	432	415	414	425	418	424	431	430	434	448	448	447	445	446	448	447	448	447	448	441	439	442	444	447	447	445	447	457	456	448	448	438	432	428	424	424	426	430	432	443	444	446	433	427	423	425	422	416	418	422	426	428	428	429	436	437	438	438	435	435	430	432	439	440	441	443	443	440	440	431	427	431	425	423	426	426	427	424	424	430	436	435	431	425	410	407	404	406	415	421	426	439	443	444	443	439	435	431	430	433	439	448	453	450	440	440	452	435	428	415	415	408	408	409	422	424	423	426	432	432	431	429	430	429	422	416	413	412	410	419	422	420	414	415	415	411	413	411	406	406	408	408	412	411	407	410	411	412	409	401	401	410	412	412	412	413	413	407	400	395	380	391	399	401	405	405	390	387	386	389	390	391	391	395	394	389	390	390	394	394	399	395	388	378	379	382	384	386	387	373	361	361	365	370	374	375	374	374	372	372	371	372	367	362	357	355	355	359	363	363	366	365	365	359	361	363	368	369	364	363	363	360	366	367	368	366	362	364	368	376	375	377	377	364	358	358	361	366	365	362	354	360	361	362	362	361	361	350	350	352	349	349	351	354	355	353	369	360	358	345	346	347	345	351	351	361	369	373	377	370	365	350	353	353	350	353	355	357	359	348	345	345	339	346	354	362	367	367	362	362	362	362	363	364	363	362	362	362	360	359	359	358	358	356	356	355	356	358	365	371	371	366	366	356	366	367	363	360	360	359	357	358	360	363	365	365	356	359	356	361	360	360	357	361	346	349	364	364	360	356	361	355	352	352	348	357	361	358	351	351	345
376	378	384	386	399	399	412	416	410	403	400	396	394	389	381	376	371	381	381	384	385	375	370	369	369	378	386	394	397	388	380	380	374	374	378	389	384	380	380	378	370	368	374	394	403	403	405	402	396	393	383	380	379	379	381	388	400	404	404	402	387	383	376	378	382	382	385	387	385	382	382	386	384	383	380	375	373	375	374	374	376	381	386	386	385	381	371	371	373	373	372	373	377	379	378	376	374	373	378	378	383	385	384	379	385	388	388	385	386	388	388	384	382	385	389	384	381	381	380	385	387	382	376	376	369	367	373	385	383	382	380	379	379	372	375	378	386	386	395	398	393	391	391	392	400	398	391	387	388	387	386	386	386	388	404	407	406	405	402	396	394	395	399	403	408	410	418	417	421	438	443	443	441	424	429	428	430	430	425	424	426	424	421	429	440	442	442	434	432	427	425	421	422	411	411	410	426	425	444	447	451	449	444	436	426	429	431	419	420	424	427	431	431	431	436	435	434	432	430	426	429	437	445	451	451	450	450	444	441	450	460	460	460	462	456	447	448	453	457	460	459	452	447	444	445	448	454	454	443	442	436	432	436	435	433	435	462	452	420	421	427	436	435	431	428	427	426	428	428	429	437	428	419	418	418	418	419	422	425	427	428	428	429	434	434	434	440	429	410	400	414	414	425	418	424	431	430	434	448	448	447	449	449	452	451	445	442	446	444	443	443	448	448	445	444	442	444	454	448	439	433	431	433	430	429	427	430	431	431	437	432	433	427	423	425	422	416	418	422	426	428	432	427	426	431	431	436	437	433	433	432	436	443	444	443	443	440	440	427	425	431	432	432	429	427	421	420	420	425	431	440	429	412	406	399	398	399	413	414	417	419	421	426	431	431	432	429	428	428	427	426	424	418	409	404	411	412	407	408	403	402	402	410	415	417	420	425	425	429	428	427	428	427	423	418	408	405	403	409	417	418	413	413	412	410	408	397	406	406	405	407	408	402	401	404	405	406	405	405	404	403	402	402	406	406	406	404	401	398	393	393	398	400	400	397	390	389	398	385	375	378	378	385	386	385	381	386	392	398	393	385	376	379	379	382	384	379	382	378	378	371	369	379	379	375	373	373	374	372	370	366	362	359	355	357	357	356	357	357	357	355	354	352	353	353	355	358	364	361	361	360	366	367	372	367	362	361	362	367	369	372	372	372	362	360	363	365	365	357	356	361	362	362	362	360	359	356	355	353	348	347	349	354	354	352	345	341	329	332	342	343	338	338	330	336	351	353	350	345	346	350	350	351	352	356	358	353	345	345	343	345	339	347	357	363	364	352	346	346	359	359	359	360	361	361	361	361	359	352	354	355	358	355	355	345	334	358	365	370	369	369	362	355	354	360	361	361	361	362	357	356	360	361	355	355	355	360	356	354	354	360	357	351	348	350	349	349	349	353	348	348	345	345	343	340	340	341	343	343	347
