456	426	433	444	449	454	454	453	457	461	463	461	461	462	467	468	460	456	456	452	459	471	475	475	463	463	462	466	462	460	454	450	450	442	438	440	450	462	471	471	475	473	474	473	473	467	458	453	443	444	446	450	463	465	462	462	464	459	451	448	433	430	431	431	429	425	426	430	433	432	434	468	468	467	462	453	451	450	449	478	472	467	467	462	460	454	450	444	446	450	451	449	449	446	448	446	445	428	425	433	431	439	447	447	442	438	437	437	449	445	444	446	450	463	454	454	455	460	456	433	424	424	428	441	440	440	437	438	438	446	455	476	474	470	467	461	464	463	454	447	438	449	457	457	456	462	464	471	469	465	464	467	469	470	466	475	489	491	494	490	492	492	496	505	516	523	531	542	553	555	554	553	555	561	569	572	582	583	569	568	563	561	570	570	574	566	558	557	558	561	562	559	565	557	558	561	569	578	597	604	594	570	550	546	547	549	547	545	550	539	532	528	528	535	543	551	558	562	548	543	542	538	536	543	557	569	577	574	559	547	547	550	557	561	554	543	545	545	534	543	552	560	568	573	577	574	574	574	573	572	573	576	576	575	570	567	566	569	570	571	579	581	577	577	570	569	570	573	571	559	559	559	565	574	584	590	587	584	583	575	596	613	643	646	647	652	645	629	615	603	606	605	597	593	593	599	602	602	598	596	595	596	595	597	600	599	598	597	589	585	574	572	581	586	587	602	603	602	600	601	598	598	595	592	592	589	586	582	581	587	585	578	572	571	587	595	592	599	593	570	559	560	560	560	554	549	549	552	559	593	601	597	590	585	584	585	585	581	572	569	564	560	556	555	556	554	551	547	541	541	533	532	532	533	538	545	552	550	545	540	540	542	546	542	532	521	514	515	523	528	532	532	536	546	545	545	540	537	530	532	535	536	536	538	536	536	534	530	532	533	535	530	528	530	539	535	528	535	553	566	566	564	556	550	541	541	538	532	526	510	513	514	516	511	491	496	516	515	514	500	505	500	498	507	501	493	485	494	503	503	505	504	522	524	519	517	521	530	530	525	519	509	509	509	516	519	514	503	496	490	486	486	478	468	458	457	458	462	465	459	444	441	442	446	443	435	430	435	435	442	447	450	446	434	439	444	452	452	451	449	438	444	449	447	447	433	432	429	421	417	429	435	438	432	426	423	430	430	430	421	410	405	405	421	430	436	439	435	433	433	433	431	430	425	423	426	433	440	419	410	410	402	396	389	402	405	419	430	434	433	433	432	433	443	443	437	425	423	426	426	429	434	435	433	426	426	439	448	448	455	449	430	414	414	418	425	425	413	420	418	417	419	407	395	395	403	407	412	413	414	415	418	418	422	425	405	404	387	389	389	384	386	398	415	426	416	416	419	423	412	401	395	398	398	425	421	419	422	431	431	432	432	431	425	419	419	418	420	425	426	425	425	425	423	422	414	410	410	409	415
459	460	448	443	446	446	446	449	456	460	462	460	460	463	470	473	466	456	452	469	467	470	474	478	479	479	474	465	455	439	440	457	457	456	450	447	449	456	453	445	445	442	442	445	450	456	453	453	443	412	412	415	423	433	439	439	443	453	461	455	443	433	432	432	444	438	443	451	460	467	472	475	475	480	480	477	471	467	470	478	472	447	447	447	445	445	445	444	450	458	461	458	458	450	441	432	429	421	419	424	424	435	456	456	461	459	456	454	460	460	458	461	456	449	451	451	455	460	473	460	444	433	424	415	413	417	429	443	443	468	479	481	473	472	460	454	461	462	455	448	438	441	441	441	445	463	469	473	471	469	467	466	468	465	466	468	473	480	487	490	492	490	494	500	510	522	539	556	560	556	550	554	558	563	574	581	583	576	563	556	559	568	575	575	581	580	553	552	553	559	559	556	551	549	552	557	563	571	589	594	587	573	561	556	555	548	538	525	518	512	505	517	522	522	528	541	544	547	548	543	553	549	550	573	585	592	593	589	586	586	584	583	583	587	582	553	549	553	535	541	549	556	563	568	568	561	556	556	561	566	568	572	575	575	568	565	558	548	554	565	572	575	571	563	563	560	569	576	559	556	554	554	556	557	554	554	560	551	557	582	599	615	643	648	649	651	645	635	623	611	616	601	598	597	600	603	608	601	589	573	563	572	582	587	589	591	593	586	574	569	565	567	567	574	572	568	568	594	592	592	589	588	587	586	590	587	586	584	584	585	578	568	564	561	569	596	597	596	593	585	564	557	559	560	556	550	549	551	555	590	596	597	593	592	592	581	570	566	562	564	566	564	561	558	557	551	551	549	549	537	529	531	528	528	533	544	548	542	533	528	534	540	537	530	525	516	513	525	533	533	529	530	531	529	525	524	524	528	531	526	530	532	533	532	528	528	531	532	533	534	531	529	528	530	532	518	518	521	541	541	550	550	545	538	539	537	538	535	519	512	522	527	520	489	483	485	489	489	491	494	489	487	493	491	486	475	469	474	476	476	469	467	464	469	486	509	517	532	530	522	514	505	505	507	509	511	505	494	450	456	456	486	477	463	451	454	452	454	450	450	448	444	443	442	434	429	424	425	425	435	440	443	438	433	436	442	450	452	450	441	441	444	447	447	437	427	429	428	420	428	430	442	434	438	426	423	426	426	432	428	414	406	415	423	425	430	434	429	429	429	430	428	425	422	417	419	423	413	412	412	405	403	396	397	402	404	415	427	427	425	433	432	438	444	441	433	423	423	427	427	427	426	425	420	417	415	431	445	445	450	444	415	409	409	414	399	399	399	403	409	422	418	407	395	395	395	400	404	410	413	414	418	418	416	405	402	398	404	408	408	378	380	401	406	416	413	413	404	403	403	400	401	398	398	416	416	410	414	426	426	430	429	428	425	425	425	423	418	421	423	422	422	419	416	413	411	410	410	409	413
457	463	460	452	444	437	437	445	453	456	465	462	462	463	470	482	481	476	469	469	467	468	472	469	458	446	446	439	435	447	454	452	443	443	435	439	448	444	432	428	428	427	429	434	452	456	447	447	429	412	412	401	407	415	432	432	427	433	446	452	453	444	426	420	420	421	427	437	449	449	441	438	434	434	432	430	433	436	437	444	447	447	447	443	438	442	442	441	445	453	456	451	451	439	430	431	437	440	437	440	446	440	448	448	459	458	453	456	458	457	458	461	461	458	458	458	463	471	473	453	450	447	443	441	434	434	436	441	441	441	448	466	470	465	458	450	450	459	460	454	450	440	438	443	443	462	474	476	485	485	481	476	470	462	463	467	472	479	485	489	490	494	494	488	505	530	544	556	563	555	551	551	559	560	565	565	561	554	545	559	571	579	591	591	595	592	576	553	547	551	554	551	549	549	548	554	561	565	572	583	579	574	563	560	554	538	516	507	505	506	516	519	523	523	532	535	548	553	556	560	553	549	567	578	585	585	580	577	578	577	580	589	597	598	580	572	565	563	570	560	555	554	555	563	564	556	553	554	557	560	564	569	571	571	568	561	545	536	544	561	567	566	562	558	558	559	568	565	555	548	544	541	552	549	547	546	552	545	548	564	574	610	620	636	623	611	603	600	581	589	597	597	593	596	599	602	604	598	585	567	553	557	566	565	572	576	579	573	567	562	562	562	564	561	562	559	559	560	567	574	578	580	584	584	586	585	584	583	581	579	573	568	564	562	566	576	589	588	588	581	573	567	568	568	566	566	573	575	578	587	595	596	591	583	573	571	563	561	558	563	567	566	562	557	555	552	547	547	547	535	523	525	525	524	527	540	540	536	528	527	530	532	529	525	519	513	522	536	544	543	534	531	530	527	524	519	521	525	525	526	525	530	534	531	521	524	530	532	530	534	531	529	529	535	534	518	496	501	512	512	513	510	508	502	518	531	536	520	514	512	520	518	504	485	482	481	482	483	486	488	488	486	491	491	487	477	468	467	467	469	466	459	456	468	465	471	483	507	507	496	484	472	477	482	478	474	459	444	435	456	456	455	464	454	446	449	452	447	444	451	454	451	439	432	429	425	423	417	417	428	433	430	430	429	434	437	444	448	449	441	441	444	441	441	427	421	416	414	416	414	438	433	434	438	437	430	430	424	421	427	426	426	426	424	423	424	423	423	423	425	424	422	403	400	403	408	408	410	410	410	403	401	398	397	410	416	412	412	427	427	425	420	412	415	436	430	421	422	425	425	424	422	418	413	406	407	411	417	417	416	412	407	399	396	394	390	390	390	393	399	416	418	407	398	398	392	392	396	401	406	414	414	415	415	402	395	397	402	411	411	410	406	405	412	406	404	404	405	398	395	400	401	401	407	394	407	402	410	415	415	421	421	419	425	428	428	421	417	419	422	417	417	413	406	405	405	407	407	409	413
446	450	456	455	452	456	456	458	456	449	435	421	418	418	430	439	442	441	456	456	467	468	472	470	469	465	465	457	455	464	463	460	452	452	452	455	450	441	434	442	442	442	444	450	455	456	458	448	448	426	409	401	407	438	436	431	431	434	440	451	454	446	426	421	421	421	432	444	450	447	441	432	428	428	426	428	430	432	434	441	444	445	445	443	438	433	438	441	445	452	452	444	434	434	428	434	442	448	448	442	439	444	446	442	442	433	435	441	446	449	447	446	450	454	457	460	460	461	455	453	450	442	440	439	443	444	444	438	438	438	435	439	447	446	453	453	449	453	456	456	446	442	442	447	447	456	468	473	478	479	478	471	468	462	456	461	468	473	473	467	465	473	473	488	505	498	508	528	560	564	561	557	559	548	543	540	540	538	537	546	559	568	582	591	591	587	580	567	567	557	553	546	547	551	563	567	563	559	554	551	550	553	554	546	548	529	522	517	521	523	527	526	524	533	533	540	554	570	571	569	561	557	567	578	584	579	576	574	575	572	572	579	590	594	581	569	569	566	559	549	544	546	549	552	550	551	554	558	559	556	557	561	564	566	566	559	546	535	538	553	561	560	564	565	562	562	558	556	551	548	549	536	528	521	521	523	535	543	542	551	561	566	575	589	575	555	556	556	558	559	558	559	558	552	544	543	547	546	522	516	513	514	517	515	512	511	514	516	526	543	566	567	562	557	558	557	557	558	566	575	578	578	576	578	582	584	585	580	579	582	576	571	564	559	558	563	576	580	582	580	581	588	590	598	601	607	610	613	607	608	601	594	575	561	566	562	563	556	556	562	566	564	558	552	548	550	555	555	544	532	517	513	517	522	528	535	536	531	527	527	533	537	525	514	511	515	530	541	544	539	529	513	497	489	488	507	517	520	523	521	523	530	525	517	519	519	524	532	530	527	522	518	522	525	514	505	507	508	508	495	483	482	488	507	507	517	508	507	504	509	509	511	499	489	486	481	481	483	484	485	488	487	486	488	491	488	475	465	465	463	453	448	446	445	447	456	450	463	463	459	461	463	478	477	472	466	456	444	435	432	432	435	445	450	447	446	448	449	457	461	457	454	443	430	427	428	424	424	415	411	425	434	431	432	429	439	440	440	440	438	440	430	432	432	425	420	412	411	413	410	438	433	426	430	431	425	425	420	416	421	422	425	427	423	421	419	417	418	418	408	401	400	400	403	405	407	408	409	406	406	404	406	412	419	420	416	412	412	417	417	416	414	415	415	419	425	421	420	420	419	419	420	413	411	406	407	407	407	408	405	400	397	394	395	395	389	389	387	387	399	416	413	406	399	399	387	387	391	397	404	411	411	416	412	407	398	396	401	401	411	413	411	405	396	393	393	392	392	398	395	396	400	400	404	402	393	397	396	410	410	417	420	423	437	437	437	434	428	422	422	417	417	409	402	402	401	407	407	408	409
446	446	446	457	462	460	464	464	458	448	438	423	418	418	427	434	429	427	427	427	439	453	462	470	469	464	464	457	454	461	460	459	462	462	464	461	454	444	437	452	452	451	450	451	447	445	454	463	463	455	445	435	435	438	443	436	436	429	429	439	439	432	424	421	421	424	435	445	449	447	438	429	422	422	429	427	424	420	424	436	436	437	436	436	431	433	438	438	443	441	437	443	439	439	437	440	449	459	451	437	434	431	430	430	430	431	431	441	453	456	455	451	446	443	442	431	431	435	438	443	445	442	440	442	446	449	446	436	433	433	430	429	430	442	447	450	452	447	440	437	435	434	437	445	449	449	454	462	468	471	469	467	465	460	460	455	455	452	457	460	459	463	463	472	491	498	475	484	523	552	558	559	554	544	542	539	539	537	538	543	551	562	580	590	590	583	577	567	569	559	550	538	532	540	549	561	563	559	553	546	543	537	541	539	543	534	531	525	527	531	531	533	539	546	546	567	574	576	576	576	570	569	575	580	584	579	576	579	571	563	563	564	572	566	562	565	568	562	548	541	534	540	545	549	549	550	550	558	559	553	551	550	555	560	566	566	560	542	546	552	549	562	568	570	573	573	559	552	551	551	547	538	530	523	519	520	525	528	551	563	568	569	569	557	553	556	560	555	556	560	558	555	557	544	525	518	513	511	511	513	519	519	516	512	508	509	513	513	523	541	560	568	564	559	555	567	566	561	559	561	566	564	559	565	571	576	575	577	578	579	579	574	559	548	541	545	563	574	574	575	587	589	590	594	589	590	595	602	607	600	598	594	569	562	558	556	556	552	554	557	562	561	557	552	547	551	551	553	542	530	519	509	514	521	541	543	537	530	527	528	538	538	531	521	512	512	523	531	506	499	493	486	482	483	490	489	498	517	522	525	529	518	506	509	513	519	524	528	528	524	519	517	519	519	508	504	507	507	508	494	481	481	487	507	511	518	514	497	501	502	501	498	490	490	486	488	479	475	474	474	478	484	487	492	494	485	478	478	461	452	451	459	442	443	446	453	450	452	456	456	459	462	477	473	465	466	456	448	442	442	440	444	448	450	442	431	425	425	439	451	452	448	437	428	425	415	415	415	415	405	420	434	430	422	426	431	426	429	433	431	422	424	424	415	406	403	411	415	413	410	413	430	416	410	408	405	405	407	411	414	418	426	429	425	419	416	414	412	412	402	399	398	403	406	405	408	409	408	406	406	404	409	416	426	426	416	412	409	411	411	414	419	419	420	422	421	418	416	416	410	414	423	421	403	394	389	390	390	400	405	401	393	395	393	393	393	392	387	387	399	408	407	402	402	398	392	400	403	406	403	407	407	406	400	405	402	397	397	397	403	411	415	399	398	398	398	392	392	392	391	395	398	398	400	399	390	393	400	400	403	414	425	429	429	426	426	420	405	398	381	381	381	389	402	402	401	400	400	403	399
446	446	457	462	464	469	465	465	461	452	441	435	426	426	428	433	428	429	429	435	435	443	452	460	466	464	464	436	438	446	450	455	456	456	465	462	458	450	466	449	438	438	427	427	429	434	452	459	459	455	448	435	439	441	443	436	415	416	426	426	421	421	422	420	425	425	434	442	447	444	423	423	433	433	433	429	426	422	432	436	433	433	430	430	422	425	430	438	443	429	430	438	439	439	433	442	450	452	440	432	428	425	425	424	424	426	433	441	450	454	449	443	443	443	439	431	431	428	431	435	440	436	437	442	446	434	432	434	432	427	427	422	421	425	436	451	452	448	442	433	429	432	441	447	449	449	450	454	461	466	464	462	459	459	457	455	456	452	449	456	461	463	472	472	480	476	475	484	499	511	517	522	533	528	523	517	508	511	518	524	533	537	545	551	551	551	544	544	552	546	537	533	531	532	528	533	555	557	549	543	535	535	536	533	528	524	525	528	528	538	545	548	571	585	585	585	579	574	576	576	583	571	574	576	582	580	581	579	571	536	533	531	536	543	549	555	561	561	543	532	528	535	533	534	549	545	542	543	556	548	544	544	545	552	556	560	559	551	547	551	548	546	564	572	567	560	560	550	551	544	543	538	531	523	520	519	520	530	534	536	536	534	535	552	552	554	559	557	556	564	565	568	561	549	525	522	515	513	514	518	520	520	515	509	505	507	511	517	534	545	561	564	567	562	572	574	572	560	555	549	548	549	547	543	550	554	556	554	560	561	562	560	554	546	533	532	534	536	542	538	556	571	584	589	584	585	589	596	604	597	585	564	562	557	555	554	549	541	532	538	552	559	559	559	558	556	556	550	540	528	519	511	509	514	520	527	528	530	533	536	531	529	521	516	511	504	501	501	499	500	494	485	483	484	480	486	486	497	510	515	513	503	499	509	513	514	518	517	519	519	516	512	513	513	506	498	496	496	497	499	497	495	494	494	494	515	512	501	495	495	499	497	492	491	482	482	477	472	470	470	476	483	486	494	495	492	479	479	454	448	455	462	462	463	462	455	451	451	454	454	467	471	465	473	465	459	452	451	446	446	442	440	438	448	438	432	426	422	425	427	433	438	429	421	420	411	409	409	409	400	409	425	423	420	413	414	419	414	416	419	415	409	409	400	403	395	396	415	416	414	411	406	397	393	389	389	386	378	383	394	404	409	412	406	402	403	409	409	415	404	401	397	395	394	408	412	414	415	415	411	409	408	412	426	426	409	397	394	394	403	409	413	413	410	411	410	410	411	411	413	409	408	411	412	404	398	388	388	398	398	396	393	393	396	395	393	392	386	390	400	404	401	402	402	406	409	406	418	419	415	405	405	394	386	389	403	395	395	395	397	390	398	397	397	398	398	397	395	396	399	400	394	394	391	385	388	381	382	382	392	394	409	405	391	391	387	384	382	382	380	380	378	389	402	398	395	395	395	398	399
446	446	454	459	461	463	463	463	453	450	445	441	431	431	428	432	430	433	434	435	435	436	442	449	452	448	436	436	438	437	440	444	440	446	446	449	453	454	440	431	421	421	411	402	394	396	417	423	423	422	418	422	424	420	420	415	415	416	407	413	419	422	421	416	418	418	423	423	419	413	415	422	427	428	428	423	424	426	436	435	434	436	427	427	415	417	422	430	433	429	410	408	415	415	424	437	437	439	434	422	416	416	416	417	417	423	433	445	447	443	436	433	437	440	438	436	431	431	429	430	425	429	430	437	437	434	432	433	431	424	424	419	418	424	434	451	453	449	442	429	421	428	442	448	446	446	446	448	456	460	461	461	461	460	460	458	448	440	442	450	454	459	465	465	467	471	480	487	499	511	503	506	518	516	507	504	496	493	497	504	507	509	517	524	526	526	518	514	514	522	531	531	529	529	524	524	524	545	546	543	537	537	539	535	536	533	537	543	551	559	560	561	569	581	581	581	579	566	570	571	575	586	575	580	583	582	572	567	546	536	533	531	528	535	536	535	537	535	530	527	514	513	513	512	518	541	539	538	533	534	540	540	541	544	551	553	551	545	546	546	545	542	549	558	562	555	555	549	541	537	536	535	531	525	519	517	520	525	529	530	534	534	534	535	545	555	552	547	549	556	563	564	560	558	546	530	526	536	532	524	524	520	518	507	513	523	537	545	549	552	559	559	559	566	575	573	570	560	554	547	545	547	547	541	536	540	543	545	544	544	539	551	554	553	540	534	533	531	529	528	533	545	563	550	534	537	548	563	570	559	557	556	551	552	556	550	537	523	524	538	542	536	530	526	527	527	545	546	545	529	524	515	508	500	499	498	499	502	512	520	522	515	515	514	509	503	499	501	502	501	495	490	485	481	477	482	481	483	482	484	513	503	499	503	511	510	510	512	513	512	508	506	508	505	501	499	499	497	498	499	497	495	494	491	487	487	484	476	474	473	494	496	496	492	478	471	471	470	464	464	475	480	488	485	484	481	481	457	452	451	459	471	478	484	483	475	462	452	460	466	473	471	465	446	442	454	451	449	449	440	435	427	434	428	438	430	427	424	423	418	420	424	426	430	424	412	412	405	406	403	409	419	421	417	409	413	398	404	415	417	414	414	410	406	395	395	396	407	409	409	411	413	407	402	393	393	389	383	392	397	401	401	401	393	393	396	403	403	413	405	401	403	402	400	404	415	418	419	419	407	398	408	412	422	424	419	415	410	410	408	402	398	398	398	407	402	398	397	397	402	404	407	407	405	402	398	398	398	396	391	386	388	390	396	395	395	393	387	388	396	397	404	399	399	404	408	419	419	427	419	419	405	388	383	389	389	400	390	390	390	384	397	397	397	396	396	395	395	395	399	401	401	396	385	383	379	378	385	385	384	386	384	374	372	372	373	383	384	388	387	380	378	378	381	387	383	383	388	395	401
447	447	454	459	454	455	449	449	444	443	439	439	430	426	426	425	429	433	431	429	429	422	419	416	420	426	428	428	428	437	440	417	413	414	414	425	437	442	435	429	429	429	422	421	426	423	417	417	422	422	420	417	410	399	394	394	397	397	407	413	410	409	408	410	425	425	439	450	449	423	415	417	421	424	424	425	427	433	435	433	436	436	431	410	410	409	421	421	423	418	410	408	406	419	419	427	435	436	431	427	423	421	421	418	424	424	435	443	447	437	427	420	409	414	419	418	419	419	422	430	436	437	435	430	426	425	428	433	430	422	422	418	417	424	430	441	441	434	427	422	417	427	435	433	437	438	438	431	426	428	438	455	467	474	471	458	449	437	444	445	448	448	454	464	464	471	477	483	492	497	503	506	508	509	508	516	514	509	506	506	508	512	515	518	517	511	511	508	509	518	526	530	529	524	519	517	523	529	532	540	544	542	544	542	539	537	534	540	549	560	561	561	569	573	571	563	563	540	535	539	561	574	578	576	567	556	542	529	521	516	511	518	528	535	526	526	519	519	510	503	497	507	512	512	510	509	505	505	513	515	506	507	512	493	485	477	478	486	511	522	522	519	524	532	535	539	535	535	513	519	524	531	529	525	521	519	521	525	529	533	535	537	540	540	542	550	548	543	547	554	559	562	555	556	554	548	546	543	541	536	534	525	520	524	546	555	544	555	557	554	539	535	541	542	563	568	568	561	545	539	538	546	545	544	539	536	533	539	542	539	536	535	538	546	549	538	534	532	531	529	524	528	540	534	526	526	533	541	536	528	537	552	559	556	534	526	518	514	521	527	527	516	505	506	510	510	519	520	520	519	489	491	492	493	491	484	486	493	499	508	515	513	516	512	509	502	498	497	501	502	496	494	488	481	478	474	477	482	482	484	486	490	491	491	490	492	495	495	492	494	490	485	485	483	481	486	486	490	489	487	487	494	493	489	487	466	462	463	465	477	472	492	493	491	485	472	461	458	458	458	459	459	458	457	456	462	462	459	456	455	475	474	478	483	483	476	468	460	458	469	473	467	463	456	440	444	445	450	450	440	431	427	422	425	436	432	431	427	423	419	419	422	428	432	423	406	406	401	399	400	403	412	414	410	396	397	401	414	416	418	413	413	406	406	395	394	393	394	407	414	417	420	411	403	402	402	395	397	403	401	397	393	388	393	396	397	408	408	411	405	402	401	400	400	400	404	408	416	416	407	398	394	397	409	408	412	413	414	414	415	410	410	408	401	393	394	392	392	394	399	402	404	402	400	401	400	400	397	398	395	395	388	390	395	395	395	397	393	389	385	386	389	397	397	400	397	412	415	416	405	405	397	390	388	390	386	384	380	380	382	384	397	395	396	396	395	393	393	394	401	407	407	406	390	382	384	383	382	382	383	383	383	380	381	381	382	388	387	388	387	387	382	384	387	385	384	384	385	391	396
441	441	450	453	454	455	424	424	428	426	423	417	415	416	416	423	430	431	431	425	425	418	412	412	414	421	420	420	415	414	419	417	413	428	428	431	434	432	432	434	439	439	437	434	432	430	430	430	420	420	413	411	420	416	409	403	403	403	406	407	410	409	405	411	426	426	443	453	453	435	421	413	414	418	418	424	429	432	429	431	436	437	436	432	432	429	437	433	426	399	389	396	406	419	437	444	442	437	429	424	418	416	420	422	430	430	437	435	429	415	403	399	399	406	414	415	416	416	418	428	430	433	432	429	427	423	427	429	430	422	419	419	419	424	427	432	431	428	424	419	414	417	421	430	452	451	451	435	422	420	432	443	452	454	453	448	446	449	450	450	449	453	456	458	458	461	464	475	484	494	498	502	508	509	516	516	511	506	504	504	509	516	516	515	511	505	505	504	507	516	524	527	526	524	520	518	522	524	528	530	532	534	543	545	543	536	532	536	549	559	561	548	538	522	512	512	512	509	509	515	520	528	538	542	533	522	508	504	503	505	508	514	515	522	526	526	519	503	495	493	493	496	498	503	509	511	516	513	509	498	499	486	484	490	491	491	492	494	495	510	511	513	521	525	529	524	507	507	501	509	518	524	526	529	522	518	517	526	536	536	537	543	550	553	548	540	533	522	521	526	535	545	552	553	554	549	546	543	541	539	539	530	520	524	546	552	554	559	558	543	529	520	517	539	546	566	561	550	540	536	537	540	545	545	540	532	526	527	533	535	533	530	528	533	538	537	532	533	528	527	524	525	527	525	524	527	531	528	510	510	515	529	532	526	515	514	508	505	506	513	512	497	491	493	493	497	496	491	485	479	479	482	481	480	480	480	478	479	481	486	495	503	512	509	495	490	492	496	498	497	496	494	488	483	489	474	477	482	485	489	499	503	508	501	495	489	488	483	479	478	482	479	477	475	474	474	471	463	466	471	478	486	492	489	481	472	466	466	466	473	478	486	490	488	480	470	468	467	459	458	456	453	457	456	456	456	463	464	463	473	479	477	470	469	470	473	469	464	458	469	473	471	463	444	453	448	446	446	442	441	431	424	426	434	434	428	429	430	422	418	419	422	426	429	419	419	398	388	384	385	396	403	399	395	388	394	403	407	408	409	409	413	406	404	396	394	391	392	400	414	419	415	404	400	400	399	398	404	410	401	395	392	389	391	393	401	401	409	407	402	397	398	397	394	390	390	392	408	416	417	409	399	391	400	400	388	385	388	388	392	390	391	398	396	392	395	397	397	394	395	404	406	404	392	391	395	395	396	398	395	395	396	396	396	396	395	394	393	394	392	393	392	392	395	397	403	419	422	428	406	406	401	393	393	390	388	386	386	380	382	385	392	402	400	400	397	396	395	396	398	400	400	401	389	384	381	381	381	379	380	379	384	389	383	383	382	388	387	387	387	387	387	389	393	392	398	398	401	397	397
439	454	454	459	452	426	424	428	419	420	414	411	415	419	419	427	432	432	430	425	425	425	419	407	406	414	431	431	428	416	417	418	424	428	428	430	438	448	450	444	436	434	434	435	435	431	432	432	432	432	420	416	425	428	429	427	423	423	423	411	403	395	405	411	415	433	433	443	448	438	425	417	419	426	422	422	422	424	427	429	429	430	426	425	425	418	411	411	415	413	410	418	428	437	437	444	443	440	430	409	396	393	396	401	410	410	422	432	431	420	406	397	400	406	411	414	412	412	412	420	425	430	432	430	430	430	431	432	428	422	419	419	428	429	427	428	426	424	420	417	414	414	420	441	442	444	444	441	439	439	439	439	440	446	447	451	452	455	454	452	454	456	458	456	456	452	460	476	487	501	485	487	489	498	516	516	502	501	501	504	512	516	514	509	506	496	495	495	493	493	501	523	531	530	526	523	523	524	525	512	507	508	510	515	515	502	499	507	522	529	532	512	510	497	484	484	489	489	495	492	490	492	503	511	516	515	510	506	502	504	506	512	519	512	512	513	511	503	495	493	498	502	507	507	504	509	512	509	505	493	494	486	484	489	491	492	493	494	503	504	506	511	515	520	520	514	501	497	497	500	507	513	525	523	515	512	508	524	528	534	535	541	549	561	557	553	539	520	514	515	528	541	552	552	547	540	540	543	542	540	538	532	530	526	532	546	558	552	540	526	521	514	512	515	530	539	555	542	528	525	529	534	538	541	538	531	516	520	523	531	532	528	524	525	527	529	527	524	513	518	526	533	532	523	520	516	511	505	486	481	494	503	504	500	488	496	496	491	498	499	489	476	477	481	481	486	489	485	479	475	475	480	480	479	477	480	487	493	493	491	486	478	474	475	486	490	491	494	489	484	474	475	488	483	489	491	491	497	503	506	509	502	496	488	477	474	475	475	473	472	472	475	471	477	473	473	471	459	464	469	476	482	492	490	487	482	472	468	466	468	480	479	482	482	483	477	471	472	463	460	452	452	471	468	457	457	456	464	471	474	485	479	474	468	466	466	469	464	457	470	474	475	468	460	451	448	443	443	442	440	443	435	431	425	425	425	425	426	424	417	419	422	425	417	422	422	413	403	386	388	396	401	402	394	386	390	394	401	405	409	409	409	410	405	407	405	404	405	406	405	400	397	394	398	398	394	393	404	409	397	391	391	389	390	390	391	391	393	392	392	391	390	389	389	392	390	392	392	400	399	395	391	387	386	385	381	385	385	389	391	387	388	390	390	391	394	397	397	397	398	404	403	396	394	380	384	384	396	398	401	399	398	396	390	390	384	383	389	392	392	389	386	386	382	380	381	382	395	401	395	395	387	384	390	389	380	386	386	380	376	371	373	386	395	395	396	400	395	394	391	391	391	388	382	381	378	380	380	380	380	377	377	384	389	383	384	387	386	384	381	381	387	391	390	385	385	385	387	394	397
439	448	448	454	438	426	422	419	419	420	414	415	419	421	421	431	436	433	430	429	426	426	417	412	424	436	444	446	446	436	431	434	433	428	430	430	438	446	451	446	439	433	433	430	433	432	435	437	430	430	420	422	424	433	427	422	413	413	413	411	408	401	404	411	415	433	418	427	434	431	431	434	437	439	434	434	426	424	428	428	429	424	424	420	420	414	406	408	411	411	409	414	424	433	441	441	443	440	401	395	394	395	398	402	407	418	418	427	430	421	409	404	408	416	423	419	414	411	411	413	419	425	429	427	429	425	419	414	419	434	432	432	428	429	421	421	422	422	420	417	416	416	421	435	433	438	439	439	437	437	431	425	426	441	447	452	448	449	453	456	455	454	442	440	436	436	432	452	469	485	489	493	495	499	497	500	502	501	492	493	508	513	510	504	492	480	478	478	461	466	486	507	528	530	529	522	512	512	506	505	508	502	497	495	498	495	494	509	516	517	510	510	505	499	482	481	487	487	492	494	490	490	492	498	500	505	508	511	508	504	506	510	511	503	492	488	488	492	493	493	498	502	507	505	503	500	506	506	501	499	494	500	514	522	525	527	521	514	504	503	508	512	515	515	516	512	501	496	495	495	500	494	495	488	486	494	496	502	525	528	529	531	534	537	548	544	523	522	521	522	525	532	536	537	536	533	535	532	527	523	525	529	532	536	541	547	549	534	511	506	512	512	511	513	521	524	517	506	502	505	511	524	531	533	532	530	513	512	518	524	530	526	524	524	511	511	510	494	485	497	511	528	533	518	500	498	488	487	485	490	490	490	492	491	495	514	526	506	497	488	474	468	469	469	472	476	479	479	475	475	478	480	481	484	485	482	483	493	494	491	486	478	474	476	485	492	486	491	487	484	474	475	475	487	497	497	498	494	486	492	496	490	483	483	477	471	471	468	466	466	470	472	473	470	470	471	459	461	464	471	477	479	489	491	488	486	476	471	473	477	474	468	464	465	468	478	483	482	481	457	452	453	457	456	456	455	450	456	464	484	480	474	470	462	466	466	465	462	458	454	457	461	462	457	451	448	446	446	446	446	435	439	432	423	419	420	420	424	423	423	425	430	433	432	421	421	414	407	401	398	401	403	403	393	389	389	393	400	405	407	407	407	411	407	408	413	418	417	414	404	397	393	394	394	397	395	391	387	396	389	388	387	387	389	381	380	380	381	381	380	387	388	390	391	392	390	392	392	398	396	394	389	384	384	380	382	385	385	386	387	387	386	387	387	388	391	391	397	397	387	387	392	392	386	383	380	384	387	390	402	402	388	382	377	377	374	373	384	389	387	386	385	385	384	376	376	376	379	384	384	387	384	379	378	389	380	380	380	386	381	367	369	375	382	382	390	393	384	385	385	385	385	386	381	379	380	383	383	383	383	378	377	384	384	382	384	385	382	381	381	381	389	391	386	376	376	377	381	389	395
438	442	442	440	430	421	416	416	416	412	414	415	444	435	435	416	413	429	429	425	425	425	423	428	428	436	446	445	445	445	440	432	426	422	426	426	433	446	451	443	440	434	434	428	428	432	434	433	428	421	421	416	421	433	423	419	408	408	408	407	407	404	403	407	409	418	418	427	416	417	429	436	443	447	443	443	429	426	427	426	423	421	419	416	410	410	404	405	411	413	411	413	422	433	435	435	434	420	401	395	394	397	398	403	407	416	416	414	410	407	410	410	413	416	421	422	417	409	409	412	414	420	420	420	418	413	415	420	411	414	429	428	428	427	421	421	423	424	417	408	407	417	416	419	424	422	420	420	435	436	422	418	424	428	427	427	426	416	417	429	432	434	433	435	437	437	439	448	450	461	468	480	488	497	492	485	488	492	492	493	488	487	482	477	466	464	462	465	465	469	478	491	502	501	501	492	489	489	488	496	502	499	488	485	501	504	498	495	496	503	509	512	507	499	492	486	487	492	492	492	489	487	492	501	502	497	501	504	501	508	511	513	489	485	482	477	477	490	498	496	500	503	507	505	503	500	505	500	497	498	493	496	511	518	524	527	520	510	506	505	510	513	515	509	509	508	501	493	495	495	485	482	476	471	470	475	480	488	499	504	506	509	509	512	517	520	522	522	527	526	528	530	531	532	531	531	532	529	523	524	527	528	523	517	507	512	513	512	506	498	506	507	506	510	507	500	496	494	497	500	514	519	519	524	528	519	507	508	512	519	524	524	513	509	502	496	485	480	479	481	487	493	499	489	481	481	487	480	474	476	477	476	480	479	479	489	493	502	493	486	475	467	468	468	470	478	478	475	476	480	484	484	483	483	483	481	479	482	475	478	479	480	485	488	486	482	489	491	487	484	483	487	488	485	479	474	471	474	476	478	479	479	479	477	471	471	471	465	464	460	458	464	470	473	473	472	470	473	468	473	478	479	484	486	482	485	486	479	471	470	472	476	467	466	465	454	443	446	451	444	450	461	459	442	442	449	450	450	454	452	449	449	470	462	453	459	461	458	452	455	448	450	454	449	447	444	444	449	450	449	437	436	431	419	418	418	425	421	419	414	409	409	402	404	404	407	408	406	403	400	396	393	397	395	398	396	393	400	395	393	393	396	400	402	404	403	403	402	397	388	385	389	391	391	393	397	385	390	389	383	383	376	379	374	379	379	380	381	375	371	371	378	390	391	389	389	389	390	394	396	392	386	384	387	381	383	384	384	384	383	386	386	387	402	403	392	392	386	385	383	386	389	385	385	383	383	381	387	389	397	389	384	378	379	379	377	376	377	384	384	386	385	385	382	376	374	374	380	382	382	384	384	379	378	383	384	384	387	383	380	372	370	370	370	375	386	384	377	372	374	374	375	379	380	380	384	384	384	383	383	378	372	378	378	384	387	385	371	375	375	375	375	368	368	369	369	371	376	384	388
436	439	439	432	424	415	411	411	411	411	418	430	444	435	414	414	402	425	433	426	427	427	425	425	424	430	439	443	443	443	437	427	422	419	418	418	423	433	445	443	440	432	432	430	427	427	426	426	421	414	414	407	410	413	407	404	405	406	406	405	405	405	403	400	404	406	408	408	416	417	413	430	444	447	443	429	429	415	415	418	421	418	415	411	406	406	409	416	421	420	417	413	418	428	418	418	408	400	395	393	394	396	400	396	403	412	412	413	410	408	412	416	421	419	418	413	408	408	413	413	416	419	422	419	414	413	415	422	424	412	428	428	428	422	415	425	423	427	417	410	407	418	413	410	409	411	418	417	417	432	419	416	421	424	421	419	415	409	405	409	419	438	442	441	442	443	443	447	454	460	464	471	471	484	489	484	482	485	488	484	488	487	494	477	471	469	466	467	467	474	486	490	488	488	486	484	485	486	483	476	476	474	472	472	485	499	500	492	494	498	505	511	510	501	498	498	495	491	491	488	488	486	497	503	503	496	496	496	495	496	492	484	484	484	484	481	481	483	496	496	491	498	502	502	498	500	505	500	497	497	493	492	493	490	495	500	507	504	497	491	492	495	499	501	504	507	503	497	488	483	483	466	470	468	471	477	478	477	487	498	506	507	506	507	513	516	527	537	534	530	523	526	530	529	518	515	512	514	523	528	528	522	517	510	499	490	496	501	502	496	496	499	504	504	498	491	491	492	495	503	508	510	514	515	513	513	509	503	496	497	501	506	504	503	500	496	480	478	475	462	445	458	463	466	452	450	452	452	452	458	463	475	470	468	470	467	476	485	486	479	475	477	477	471	475	479	475	474	478	482	487	487	482	481	478	467	466	462	453	449	453	461	473	476	486	482	489	489	481	471	467	472	473	470	467	465	464	468	469	468	471	473	474	474	467	470	470	467	458	454	458	466	478	478	484	472	470	474	475	480	476	474	476	474	475	473	473	472	471	468	465	465	458	456	452	445	434	435	439	445	455	458	457	457	452	443	447	446	450	449	449	449	450	455	450	446	441	439	440	443	444	446	445	444	437	444	444	447	443	439	428	427	421	419	422	418	421	423	415	406	399	393	384	385	385	389	393	397	396	399	397	390	391	393	398	396	399	387	383	383	382	385	389	401	397	392	392	386	383	380	378	379	379	379	384	383	380	377	377	378	378	375	375	377	379	379	383	379	372	371	371	378	382	382	383	379	379	382	389	386	379	381	387	385	381	382	382	383	383	384	385	390	388	380	389	389	389	381	368	370	373	379	385	385	383	383	377	380	376	375	391	380	379	379	385	386	386	380	380	385	386	386	390	384	380	374	379	380	381	381	382	384	377	373	372	386	386	394	383	381	382	371	372	372	377	390	375	371	367	368	368	369	374	381	387	383	383	384	383	381	378	378	381	381	384	385	369	365	371	371	372	364	359	359	360	360	365	371	378	374
425	432	424	424	414	408	411	414	417	417	414	423	443	444	414	414	396	420	438	428	428	415	415	412	417	426	437	441	441	442	438	430	427	423	421	421	422	430	433	436	436	432	430	431	427	425	423	421	416	411	411	406	408	412	412	405	405	404	404	408	406	405	401	397	399	409	402	402	400	402	413	418	425	425	416	410	410	403	406	412	418	419	416	411	406	406	410	416	422	418	414	415	423	418	409	402	402	398	394	393	391	396	400	409	397	402	410	410	416	415	413	414	415	416	418	418	413	406	402	402	405	413	419	418	414	414	417	418	424	422	414	426	418	418	411	424	426	427	417	416	410	409	411	409	409	411	411	416	416	422	414	410	414	419	419	419	417	411	408	410	426	430	432	437	439	445	445	450	454	462	466	464	465	478	482	483	481	477	475	481	495	497	494	477	471	471	475	476	478	478	483	481	480	477	478	478	482	485	484	478	468	459	457	458	466	485	497	487	488	494	500	504	503	499	501	497	494	489	488	488	482	485	493	499	500	491	491	489	485	483	478	477	484	485	485	485	480	482	488	489	488	492	497	497	494	498	501	498	497	497	493	490	491	493	495	492	486	484	483	480	479	473	472	480	489	496	495	489	484	469	469	465	466	466	470	479	482	477	480	495	506	509	506	508	511	520	530	537	538	533	524	528	526	515	509	500	500	502	514	535	530	519	513	511	500	494	496	500	500	499	498	493	496	506	502	491	486	485	486	485	486	489	503	509	507	509	505	495	492	492	497	500	498	501	497	492	491	482	465	446	457	439	449	449	442	439	443	452	457	458	461	461	469	468	466	463	466	476	478	480	478	479	479	474	481	478	474	472	474	480	485	468	457	454	458	459	457	455	453	455	453	461	473	476	470	466	447	447	445	438	433	439	440	451	455	455	454	448	459	463	461	469	472	475	470	467	464	465	456	446	447	468	484	484	487	472	476	478	476	474	468	464	468	469	473	473	471	470	470	466	463	461	456	456	454	442	440	446	441	439	442	441	439	439	432	445	447	449	450	449	445	446	445	445	445	444	439	438	440	439	434	431	429	438	436	436	430	427	425	422	431	429	432	428	415	402	406	404	401	398	403	401	396	396	395	398	397	398	396	395	393	391	391	393	394	392	390	384	379	379	379	379	378	397	397	393	387	385	378	374	372	374	374	376	376	378	378	376	376	378	378	378	378	378	385	385	384	383	372	371	370	376	378	376	373	377	377	382	386	387	386	383	381	383	380	383	383	384	381	381	382	380	374	380	373	384	384	390	381	379	373	379	381	383	379	379	376	363	368	374	369	367	379	379	380	393	392	380	390	376	382	382	384	384	379	376	378	379	377	381	382	378	371	367	367	369	369	387	390	379	378	377	383	383	388	372	370	369	367	368	368	369	375	382	387	383	383	378	369	363	378	377	375	375	380	362	359	378	384	384	378	370	365	356	356	353	363	368	364	358
410	418	421	421	413	411	413	417	411	411	406	413	428	444	415	415	396	420	424	430	411	406	406	414	422	425	429	431	435	435	434	433	428	426	425	425	425	425	425	426	431	435	431	431	427	421	420	420	417	411	406	406	409	415	418	413	409	405	408	408	407	402	396	393	394	404	410	410	410	402	404	418	425	408	404	402	402	399	401	408	416	430	436	420	411	402	402	399	400	397	406	406	402	399	405	401	401	397	395	389	397	405	408	409	397	414	407	407	408	408	409	411	410	412	415	412	409	405	404	404	406	408	412	416	415	408	412	415	415	407	412	414	414	414	421	425	424	426	424	416	410	402	399	399	406	409	412	414	414	406	402	399	403	409	415	418	423	422	421	422	425	424	427	431	438	444	451	451	458	464	467	466	461	462	481	477	469	461	463	467	473	474	472	468	471	469	469	466	469	469	473	475	472	471	470	470	477	476	466	465	460	454	447	447	461	469	470	482	484	490	498	503	499	498	500	497	488	483	474	474	463	465	458	459	470	468	463	462	465	467	472	479	480	479	476	477	479	476	480	482	480	485	487	490	495	498	499	499	498	497	493	490	491	493	488	483	481	480	476	471	465	461	467	473	484	490	490	484	477	472	467	467	466	471	474	475	481	478	478	488	503	509	508	506	512	516	520	533	537	535	533	528	519	507	493	491	490	496	505	521	525	518	513	513	513	505	501	499	501	500	496	494	496	503	501	490	485	480	467	467	484	483	492	507	510	509	499	492	488	492	493	491	498	499	496	490	489	489	488	465	450	443	446	448	442	440	445	456	457	457	457	458	466	463	465	463	466	475	481	484	482	482	477	472	480	479	473	470	470	473	467	456	453	457	476	470	462	456	453	455	453	455	457	461	458	445	428	424	428	438	427	423	428	440	449	452	449	449	448	453	462	467	470	463	463	464	458	453	446	449	453	461	461	466	464	459	462	471	474	472	465	463	467	469	471	470	466	459	458	459	457	450	458	456	439	442	450	442	437	437	441	440	441	441	439	438	447	449	448	447	447	446	444	443	439	438	438	440	442	437	430	427	428	422	415	415	412	417	427	428	437	434	422	419	415	411	399	393	394	401	404	403	399	399	399	396	394	392	392	396	393	391	393	395	396	393	389	384	384	379	381	378	372	372	387	383	389	384	374	374	376	376	376	376	378	384	384	384	382	382	380	381	381	383	383	386	384	383	390	378	373	372	372	375	372	372	378	383	386	387	388	384	381	381	386	386	386	385	383	385	386	375	373	372	372	372	384	384	381	379	384	378	381	378	378	374	372	363	363	363	360	356	379	379	384	385	380	376	372	372	380	380	376	375	374	375	374	379	379	377	376	376	372	368	366	368	368	378	383	381	374	372	370	370	366	367	369	369	372	372	371	374	377	382	387	386	386	379	369	363	378	377	377	372	374	359	358	373	373	375	370	368	374	362	362	358	360	372	364	358
401	410	415	415	411	408	412	418	413	413	410	410	410	430	435	435	407	406	424	430	405	405	405	416	423	426	424	425	423	423	423	422	422	418	421	425	425	422	417	407	406	421	426	426	422	421	417	411	399	393	391	391	402	409	412	418	416	408	404	404	399	397	392	388	393	399	410	410	413	408	407	409	411	408	404	399	399	399	399	404	411	418	400	397	403	405	405	407	407	406	405	405	393	392	396	400	400	397	394	391	398	404	408	412	413	414	407	406	406	408	410	404	404	400	404	409	408	405	405	406	406	406	409	404	407	432	426	408	406	404	388	386	384	384	386	393	398	399	405	409	407	402	399	410	412	413	412	408	405	405	404	401	401	403	407	413	427	413	412	418	423	423	425	431	440	446	450	450	456	461	462	463	461	463	465	461	450	454	452	447	449	449	462	465	466	469	469	459	459	467	467	472	467	465	461	462	462	455	447	453	448	442	438	439	449	465	466	455	451	458	472	483	486	490	489	467	455	450	441	435	435	439	440	440	438	433	432	434	449	466	472	467	466	470	470	468	463	470	473	476	483	485	484	474	471	475	480	484	486	485	487	489	492	494	488	483	481	476	474	469	465	460	461	471	481	481	484	481	478	453	459	459	465	476	488	479	471	471	473	478	498	508	507	506	508	511	514	512	512	510	500	488	491	485	487	484	488	495	504	515	519	513	513	517	523	518	513	507	507	504	499	490	489	489	485	485	483	469	463	456	457	474	489	501	506	504	495	491	486	486	481	488	491	494	489	488	486	470	472	470	463	449	453	453	459	453	461	466	468	460	460	461	462	464	460	466	469	470	473	484	480	480	475	473	474	475	473	468	463	457	452	451	453	459	476	470	462	456	453	459	458	453	452	454	450	451	445	436	437	440	427	427	433	426	443	449	449	446	443	445	460	464	462	456	449	446	442	441	453	463	464	463	463	457	453	444	444	470	475	467	459	458	465	470	471	467	459	453	449	450	448	437	431	430	432	442	450	440	433	432	433	442	442	444	439	438	440	441	449	448	448	442	440	437	431	434	439	439	442	441	428	428	423	418	418	416	426	426	425	421	419	414	411	409	409	403	397	390	393	397	402	402	401	401	398	392	388	387	387	396	391	390	392	396	396	394	390	385	385	379	384	386	370	376	381	382	382	391	382	378	373	369	369	368	373	379	384	388	387	385	383	381	380	379	379	386	387	379	390	377	378	372	372	372	376	376	382	385	386	383	384	383	387	387	388	388	388	385	382	381	383	375	375	375	373	373	384	384	371	380	381	385	378	375	375	371	370	369	365	367	369	368	368	370	370	370	371	371	369	372	372	375	372	371	370	375	374	374	374	371	373	373	372	367	367	367	369	373	376	376	368	366	366	365	365	367	370	374	375	375	376	374	377	382	382	385	385	380	371	379	383	379	379	371	361	360	360	359	359	365	361	362	373	361	361	359	360	372	369	359
408	411	411	411	406	406	409	417	420	420	419	414	410	409	407	399	399	393	400	407	405	405	404	413	417	420	417	413	410	410	408	409	411	408	410	411	411	410	402	393	394	402	415	415	416	415	417	411	393	388	385	385	389	403	406	409	411	411	411	411	408	404	400	402	405	401	411	411	411	405	401	402	407	405	402	399	399	396	397	400	403	400	394	391	397	403	403	405	405	404	404	404	400	394	399	401	399	399	399	399	396	401	406	410	413	412	408	406	406	401	400	395	399	399	393	389	388	383	392	400	400	396	390	385	402	419	419	402	396	391	382	381	384	390	390	383	386	393	399	405	405	404	409	410	412	416	408	404	404	404	405	405	402	400	407	420	423	414	412	416	421	425	426	437	441	441	441	438	438	440	441	445	446	447	450	448	451	445	444	443	447	444	444	454	464	467	464	459	459	460	460	457	464	459	450	447	451	449	441	449	445	441	441	445	451	465	466	452	440	441	446	462	466	472	469	450	449	442	440	440	437	437	432	431	430	432	437	440	442	450	455	460	462	465	465	460	457	453	465	480	472	479	481	470	468	474	478	483	486	487	484	489	493	492	487	482	476	476	474	469	465	463	462	471	481	480	474	478	458	453	455	457	457	465	477	482	456	461	466	480	485	490	491	488	484	494	496	498	498	485	480	471	476	481	484	484	488	493	502	506	514	506	511	519	525	516	508	506	503	500	495	483	479	479	482	482	479	473	463	461	458	467	482	485	502	495	488	481	474	473	478	486	493	493	488	473	468	471	469	469	460	451	456	457	457	456	459	463	467	472	473	473	471	464	460	458	469	468	469	470	470	472	469	452	448	447	461	464	454	446	447	451	453	459	472	466	462	465	453	447	452	452	452	447	452	453	447	438	440	442	439	440	427	434	440	446	449	445	439	432	439	447	455	446	440	437	437	448	455	452	450	450	451	451	447	442	448	452	455	453	445	443	453	464	464	460	451	441	439	436	433	429	428	425	429	442	445	437	429	428	429	436	442	444	441	441	436	434	432	435	438	438	436	432	427	428	434	438	442	430	427	424	420	419	419	420	426	426	422	417	416	413	410	408	405	398	393	387	383	386	391	396	396	395	391	386	381	387	387	383	386	388	392	396	394	392	388	383	383	378	378	387	388	383	382	383	384	383	377	369	367	367	366	366	369	372	380	383	390	387	385	373	374	379	379	378	384	386	372	374	371	369	372	372	378	378	384	385	385	381	378	381	381	385	386	386	384	385	380	378	378	378	380	381	373	373	373	371	364	377	383	373	375	374	374	369	368	368	367	368	362	365	365	367	377	359	353	358	371	368	368	372	369	371	370	370	372	371	371	369	369	369	368	366	365	365	368	369	370	368	364	359	359	359	364	370	376	377	377	375	376	377	377	378	378	378	379	388	391	391	386	381	381	371	362	360	359	354	354	350	340	343	360	358	361	359	358	366	367	357
413	411	412	405	405	402	403	411	416	413	413	410	404	403	403	401	401	397	399	401	401	404	413	413	406	406	405	399	394	394	393	400	406	410	412	411	411	409	401	392	398	406	410	410	410	409	408	401	393	388	397	397	387	387	394	397	402	406	418	413	413	402	397	400	404	405	408	406	406	398	395	394	396	401	399	396	396	396	397	396	399	394	390	385	387	398	401	401	401	399	399	400	401	396	402	405	405	405	404	402	397	398	402	404	408	407	400	403	403	401	399	393	394	403	402	384	374	375	386	396	396	396	392	389	385	388	391	395	395	390	385	381	385	394	394	391	383	391	398	400	401	400	402	407	415	416	408	400	399	399	399	396	397	402	403	415	419	414	411	418	423	426	432	428	426	430	440	447	447	442	430	428	435	445	452	453	454	459	465	456	443	450	448	449	451	451	446	452	455	460	457	457	459	452	454	449	447	446	442	429	437	439	443	447	453	464	465	450	442	443	437	436	438	443	448	447	448	442	443	440	436	436	432	430	430	432	437	439	441	448	452	455	458	461	461	460	456	451	450	471	478	470	465	456	476	485	497	495	488	483	468	471	475	473	474	479	480	482	476	474	465	463	462	471	481	472	472	463	454	443	442	442	442	439	444	446	465	454	465	472	482	480	473	468	470	480	494	500	499	484	477	475	474	478	482	487	493	498	501	501	496	493	500	508	515	480	465	471	487	503	482	478	476	477	477	475	474	475	475	471	469	470	471	478	481	486	482	472	466	466	471	479	478	482	480	474	463	460	459	469	466	453	452	452	457	460	462	465	468	464	458	455	455	460	456	445	444	444	445	446	446	445	450	441	439	442	451	464	454	446	447	450	453	436	430	439	440	446	451	452	453	453	451	446	453	453	454	450	449	450	444	453	443	439	440	439	442	432	421	413	410	423	430	429	436	438	441	445	444	443	444	444	450	451	443	439	438	438	440	441	445	459	446	446	441	441	439	435	431	428	425	425	425	423	430	439	436	430	422	419	429	429	436	438	439	431	435	430	429	427	430	432	432	428	427	426	424	423	425	424	422	421	418	417	417	418	415	417	411	409	413	411	408	404	400	396	392	384	381	381	384	387	387	387	386	386	381	379	379	379	377	377	379	388	390	388	386	386	381	379	375	378	381	382	377	380	382	376	370	370	368	368	369	368	371	371	373	380	391	390	377	373	374	374	373	369	373	380	378	375	372	372	377	384	384	387	388	382	379	373	374	375	375	379	381	381	381	378	375	374	376	381	381	381	381	379	376	375	373	368	368	372	374	374	374	368	366	368	367	368	364	363	363	367	377	360	354	358	367	359	359	372	369	369	366	367	369	367	367	368	365	366	364	364	364	364	366	366	367	365	362	358	358	360	364	371	375	377	377	377	376	374	372	369	365	365	372	385	391	393	384	379	379	371	361	359	366	370	370	361	357	351	360	358	358	365	361	359	350	350
413	415	412	407	407	401	397	405	410	409	409	404	397	390	396	394	394	392	397	398	395	400	404	404	406	406	388	385	384	386	386	390	398	410	410	411	403	403	393	395	398	403	405	406	406	404	410	412	407	399	397	387	397	383	382	387	393	405	416	411	411	404	398	400	402	401	400	401	401	398	397	396	394	392	390	387	389	389	393	396	399	392	386	382	382	392	396	396	395	394	391	394	395	398	405	409	412	412	408	405	397	396	399	397	393	388	387	394	399	399	399	393	384	383	383	388	389	390	391	391	388	388	399	396	389	388	391	395	393	390	390	396	396	392	387	387	383	387	392	397	395	388	390	395	406	406	400	400	394	391	391	388	393	401	407	407	408	409	418	423	431	428	432	428	428	430	441	448	448	444	430	429	436	446	453	456	457	459	464	454	450	447	450	446	440	435	438	440	437	439	453	453	459	452	452	450	447	445	442	437	430	434	441	450	455	457	462	458	438	437	437	439	446	448	448	446	446	446	446	452	449	446	446	429	432	434	430	429	433	442	449	454	460	456	457	459	458	461	457	447	456	457	458	470	490	502	508	494	475	460	442	454	459	460	460	459	458	455	454	452	464	463	461	464	472	472	472	463	454	431	427	427	434	434	445	442	446	451	449	462	470	477	477	478	480	490	492	486	482	475	485	486	479	472	480	487	488	485	483	482	481	485	488	490	491	481	464	465	472	479	477	471	470	472	473	475	473	474	474	470	469	472	473	477	480	480	466	457	453	455	459	466	471	474	459	446	445	447	461	465	461	456	453	450	453	458	462	463	463	463	457	456	453	452	444	440	441	433	425	425	417	415	417	441	439	442	451	444	440	441	442	448	433	433	426	441	442	446	448	453	452	446	442	440	464	467	460	460	460	465	455	453	445	440	439	437	439	431	422	414	413	420	428	440	426	431	433	440	440	437	437	441	450	448	442	439	437	439	440	440	440	444	456	435	424	419	411	405	408	410	412	416	421	422	426	424	422	424	422	419	421	421	428	431	432	428	426	422	422	423	425	426	422	419	418	418	415	412	414	419	421	420	416	416	413	416	410	401	397	395	399	403	402	400	398	395	392	384	380	379	380	380	382	387	386	383	382	378	370	374	373	373	374	377	383	388	384	384	381	377	373	371	373	376	376	376	375	369	366	369	372	372	373	373	373	373	372	372	374	390	377	374	373	373	372	371	366	366	372	372	370	373	373	380	380	378	377	376	365	361	366	366	366	368	368	377	370	368	373	381	388	381	381	381	381	379	378	378	368	368	367	369	370	370	363	362	358	359	365	366	368	354	354	353	355	351	347	347	352	359	359	369	368	369	364	365	364	364	367	368	366	366	364	362	365	365	369	366	362	361	359	359	359	360	368	371	375	375	375	374	370	364	366	364	363	363	362	366	379	381	377	377	376	370	349	348	354	354	361	362	357	351	353	353	364	378	382	381	364	364
413	415	412	411	411	400	399	403	409	409	409	402	396	389	384	384	386	386	393	389	388	392	397	397	400	396	388	385	378	384	384	398	399	391	386	392	395	395	390	386	382	385	396	402	402	419	424	421	412	407	401	397	397	383	376	379	384	393	408	412	412	405	400	401	399	396	395	396	395	395	392	390	385	385	385	385	383	389	389	395	393	392	382	382	383	393	397	397	394	388	384	389	391	395	405	412	413	413	413	409	403	395	396	393	386	387	396	394	394	394	395	389	384	383	383	386	389	389	389	388	387	387	399	397	394	390	390	397	395	393	394	397	394	391	388	388	384	381	380	385	386	384	387	391	391	396	394	395	394	391	388	388	395	404	404	404	407	407	402	404	413	426	430	428	426	425	429	435	434	434	434	434	440	446	448	451	454	455	453	448	445	444	440	434	428	430	430	434	437	436	441	446	446	450	452	450	450	444	444	441	444	439	443	449	452	455	455	458	437	433	438	439	446	451	451	448	447	454	454	459	464	459	459	443	442	442	443	446	447	454	461	463	463	459	454	454	455	460	457	447	456	457	459	458	462	481	488	480	464	457	450	456	463	464	462	459	453	448	443	442	444	450	453	458	463	464	463	454	443	431	427	427	434	442	445	442	439	444	448	444	451	460	466	472	481	463	456	442	438	442	451	456	458	440	452	465	465	461	461	464	469	476	475	471	469	468	473	467	470	475	478	473	470	461	457	461	474	464	462	463	467	468	466	465	463	462	456	451	448	448	448	458	463	455	444	435	436	437	446	451	470	464	458	451	453	455	458	460	459	459	459	466	460	458	444	440	441	433	422	425	417	415	417	421	428	435	437	430	431	438	436	433	432	432	426	439	441	439	438	447	452	451	446	442	446	454	460	469	473	479	471	461	445	446	451	447	432	436	439	427	423	418	434	422	422	424	429	436	435	435	434	434	430	426	438	438	437	442	436	434	434	433	429	418	412	413	405	405	403	404	402	411	413	409	410	421	422	424	419	420	420	423	423	426	422	421	422	421	417	421	413	412	418	419	419	415	409	403	397	402	426	423	417	417	414	409	403	400	393	390	391	396	399	397	389	388	389	384	385	381	381	380	382	387	387	387	380	378	382	382	383	379	377	377	375	384	383	383	380	377	374	373	371	370	367	370	370	360	366	375	375	385	383	379	375	373	373	372	374	372	369	369	370	370	372	374	377	374	365	360	360	374	378	370	370	362	363	369	374	374	369	365	364	366	366	371	373	378	387	381	388	395	384	376	376	365	362	372	363	361	362	363	367	367	360	353	355	352	357	358	359	359	356	357	360	365	368	347	352	352	353	359	368	364	368	367	361	361	360	363	364	366	365	360	360	362	364	365	366	365	362	362	360	363	368	373	375	373	373	371	369	364	360	357	358	358	361	362	362	368	368	368	369	359	356	337	336	336	361	362	361	362	362	362	362	363	365	364	358	358
393	412	414	411	411	407	409	410	408	410	410	407	401	396	392	385	385	385	386	385	388	392	395	395	394	386	378	374	378	384	405	412	407	398	393	393	392	392	384	379	381	386	395	398	393	393	390	410	411	410	409	390	390	379	376	379	383	386	394	401	401	401	397	397	398	391	389	390	389	389	388	382	377	379	379	381	382	382	382	388	389	388	382	382	393	400	405	396	396	386	380	377	378	378	381	401	416	416	416	410	400	394	391	383	382	391	394	393	392	392	392	387	384	381	383	386	385	383	376	380	384	383	383	384	391	397	401	400	393	391	390	389	391	388	386	386	386	386	387	391	392	391	390	388	393	395	396	391	392	387	388	388	405	397	397	401	400	396	384	401	407	420	423	417	418	422	427	434	429	429	430	433	438	447	452	446	450	451	447	443	436	433	435	432	428	428	433	433	437	434	438	434	434	442	447	449	450	444	445	444	445	442	446	449	449	444	437	431	431	431	432	432	433	438	445	446	447	455	454	459	466	459	446	446	445	447	449	448	449	451	462	470	472	466	456	450	446	441	442	449	456	459	461	457	454	459	473	469	468	466	461	465	465	461	458	455	451	448	442	440	438	451	453	457	458	459	465	458	444	440	432	440	442	445	445	442	439	444	430	440	438	436	437	440	451	448	442	439	428	414	416	419	431	431	419	424	445	448	448	454	460	468	469	468	465	462	461	462	456	470	474	469	454	446	449	454	463	466	463	460	461	456	452	452	457	464	463	457	454	453	450	448	450	441	437	432	434	435	437	450	456	454	450	454	452	456	457	458	456	454	453	456	459	456	444	440	441	433	433	422	417	416	418	419	422	427	432	426	423	424	424	424	420	425	427	438	439	435	423	416	443	453	454	444	437	444	456	461	458	442	438	440	447	453	459	464	454	451	450	438	429	430	427	422	420	424	427	431	433	433	435	433	427	417	416	432	434	437	432	433	429	428	424	414	411	410	410	412	407	406	412	407	406	404	410	421	420	417	423	426	426	425	424	418	419	422	422	420	413	414	414	406	407	412	415	415	409	403	402	399	410	427	427	423	412	406	400	395	391	388	389	380	378	378	383	387	389	396	395	381	381	381	382	398	402	393	389	384	382	385	385	385	382	366	376	382	382	389	388	384	382	382	381	376	367	365	357	359	371	385	385	387	385	379	374	372	373	373	371	371	367	367	367	369	372	380	381	376	374	373	368	367	366	366	355	360	362	362	370	370	374	372	374	369	369	371	371	378	387	387	387	390	380	380	376	368	359	363	363	360	359	356	356	356	351	344	354	352	355	357	358	358	356	357	359	365	368	368	367	367	365	363	360	359	359	362	363	363	356	357	361	363	360	358	358	360	360	364	365	365	363	363	360	363	364	368	374	374	374	372	369	364	362	358	358	356	363	362	360	360	362	362	364	367	367	355	336	336	353	358	362	364	365	365	363	359	359	359	354	354
378	389	402	407	407	407	409	416	414	412	406	406	404	405	401	398	393	393	386	387	388	390	396	391	391	383	375	374	384	405	405	402	396	389	389	387	383	383	377	383	383	385	393	397	396	396	390	388	402	404	395	383	380	380	377	385	383	386	387	392	393	393	400	399	396	390	387	381	379	379	376	377	377	382	382	381	379	379	379	386	387	386	381	385	393	400	400	392	392	386	375	374	379	384	384	387	404	407	407	401	394	384	379	379	383	389	392	389	387	388	388	384	377	368	378	382	385	383	382	381	380	380	380	383	387	385	390	393	388	387	386	388	387	387	388	391	391	390	392	393	393	391	387	384	384	391	387	390	389	398	402	402	405	397	393	397	392	385	394	397	417	425	427	424	424	433	446	452	449	444	444	445	454	448	448	447	445	445	439	431	424	427	433	432	429	431	433	434	432	428	426	432	439	439	444	448	451	450	445	444	447	446	447	445	442	437	439	430	431	431	432	431	433	434	436	435	438	444	450	452	453	450	451	451	451	452	452	453	452	459	465	464	468	462	462	457	451	445	444	450	458	462	463	461	455	453	457	458	462	464	465	464	463	458	454	449	445	448	447	442	441	442	454	454	437	441	444	432	430	432	438	438	443	444	444	443	438	427	430	440	438	436	437	440	437	442	439	425	416	412	412	414	412	414	410	414	433	451	453	455	459	463	469	467	461	459	456	459	462	453	444	441	441	442	445	454	456	461	460	461	463	460	445	442	446	456	454	456	460	457	453	447	436	434	433	428	431	434	422	430	434	439	451	446	448	451	454	453	456	454	453	456	459	456	449	439	443	444	444	431	416	415	417	418	428	420	431	424	421	422	420	419	417	421	424	436	436	423	413	426	439	450	454	446	437	443	454	461	459	441	438	441	441	449	458	464	455	450	447	437	429	429	426	422	422	426	433	436	436	438	438	432	425	413	414	419	431	431	430	425	418	417	417	416	412	410	413	414	407	413	414	413	406	404	427	421	415	411	403	403	408	408	410	419	422	422	420	411	406	414	401	400	406	412	416	418	406	397	385	382	393	396	396	397	401	400	393	388	372	377	389	394	394	386	385	380	381	396	395	379	379	377	386	391	391	388	388	379	363	371	372	378	374	368	371	383	383	387	389	388	377	377	376	373	365	363	360	365	374	374	377	370	369	366	374	372	372	374	373	370	367	365	365	367	371	375	379	373	371	367	356	348	345	345	349	360	357	357	365	367	358	366	371	371	375	371	371	373	372	378	375	369	373	373	369	364	359	358	360	360	357	359	359	355	350	343	342	343	351	354	357	357	357	356	359	364	368	368	368	368	367	365	364	359	362	366	366	368	363	358	362	362	361	358	358	353	351	354	359	363	363	363	360	360	361	360	361	372	372	374	377	378	374	363	363	360	362	361	358	356	356	359	364	370	367	355	348	348	339	355	365	370	365	365	359	355	354	350	350	348
378	385	389	399	404	404	415	416	414	411	408	408	406	408	408	406	395	395	392	393	392	393	392	384	384	381	380	394	399	403	402	402	396	381	379	376	369	371	371	380	378	380	385	395	395	395	387	387	390	394	389	383	380	380	381	380	381	381	387	392	395	395	397	394	392	394	389	386	386	380	380	377	376	377	379	377	375	377	382	382	386	387	387	387	396	401	400	392	389	373	371	373	378	384	390	385	383	383	379	379	381	375	380	380	385	390	390	389	383	382	382	383	383	380	381	380	380	383	382	384	388	389	389	384	381	384	386	388	383	381	380	379	382	386	391	396	396	399	397	397	391	385	382	380	380	383	379	382	387	393	396	396	396	393	393	397	387	391	395	398	416	422	425	426	427	434	444	448	448	443	443	442	444	444	446	436	430	431	431	423	418	424	429	432	434	438	439	437	430	428	425	431	428	428	428	428	448	447	444	445	447	446	445	442	439	442	435	430	428	430	431	435	442	443	440	439	439	442	445	443	442	432	432	436	436	447	445	444	447	458	461	464	461	458	456	459	453	449	445	456	464	467	464	458	451	448	445	440	436	434	429	434	452	454	448	444	444	448	444	441	440	443	445	437	423	427	425	419	423	423	435	441	441	441	438	438	432	427	426	436	434	430	430	431	437	442	439	425	416	412	412	414	412	416	419	421	422	451	454	455	460	463	467	468	462	458	453	453	458	461	449	441	439	438	438	439	447	450	454	456	449	447	444	438	438	442	444	448	446	444	446	446	442	437	431	426	430	430	424	424	434	439	451	446	448	451	454	453	448	430	425	428	444	448	451	446	445	445	447	430	417	415	416	416	416	424	421	416	419	419	419	416	418	424	424	424	424	418	410	409	427	439	445	445	441	445	447	447	441	432	428	430	434	438	442	448	447	434	416	419	420	419	416	410	424	427	432	436	436	437	436	432	418	412	413	422	425	424	423	408	405	414	418	419	415	414	414	405	404	413	414	413	413	422	424	419	416	417	416	416	411	407	405	411	413	416	406	406	412	403	401	397	398	398	398	404	394	384	375	374	376	376	375	377	382	392	388	382	377	389	396	391	387	384	380	375	381	385	385	375	375	374	373	370	369	372	375	369	364	361	362	367	373	374	375	375	377	378	378	376	374	377	378	380	377	363	362	360	366	366	364	357	369	366	367	370	371	371	372	368	361	361	361	363	367	373	373	367	365	353	351	347	349	349	347	356	353	354	352	354	356	354	361	371	375	373	372	370	368	372	368	367	363	363	362	361	358	357	359	348	345	356	356	358	353	343	343	350	349	345	345	341	357	356	355	353	352	351	351	357	362	365	366	362	365	368	368	366	363	361	360	361	361	361	359	355	351	353	359	363	359	359	351	350	354	356	357	357	358	359	358	358	359	363	363	362	364	362	359	358	358	358	364	370	367	355	355	350	345	355	369	370	370	364	357	351	346	345	345	344
381	384	386	389	403	403	414	418	417	411	408	398	401	404	406	408	405	399	399	397	397	390	385	379	379	383	389	394	397	397	392	392	387	381	379	370	362	366	366	376	376	373	376	383	389	389	388	384	389	390	387	383	379	379	380	378	377	381	383	387	395	392	392	387	388	388	391	388	390	382	382	377	372	371	373	376	373	375	388	388	387	386	386	389	402	391	397	389	373	373	371	369	375	382	388	389	379	369	366	366	368	375	384	382	385	388	389	387	383	380	380	382	382	381	381	378	376	378	380	384	388	387	383	383	379	381	380	380	382	382	376	377	381	382	389	395	394	394	387	383	383	381	378	372	377	372	374	380	386	392	395	394	394	392	392	389	387	391	396	400	405	411	412	409	412	427	442	442	432	433	425	425	428	433	429	430	431	431	431	428	421	426	427	429	432	437	437	432	429	432	434	432	426	405	405	404	429	438	442	446	447	449	445	442	437	439	432	417	416	419	424	435	436	437	437	436	436	436	438	439	437	437	434	439	439	437	437	438	445	447	457	457	457	455	444	453	454	454	451	452	456	456	457	450	445	447	443	441	440	431	427	424	421	422	421	421	419	429	436	437	437	428	426	424	423	421	419	417	419	432	436	438	437	440	438	438	435	430	432	432	431	429	427	432	439	432	436	423	417	405	412	414	412	416	419	421	422	451	454	455	460	462	465	462	455	450	450	451	453	453	456	444	439	437	437	438	444	441	441	441	441	435	436	436	437	444	444	439	436	427	428	446	442	437	431	426	430	430	424	424	434	436	439	444	440	443	447	447	439	427	422	425	429	437	443	443	443	443	444	441	420	414	411	408	420	423	420	416	419	432	431	430	427	411	409	404	405	420	416	403	409	415	420	431	432	430	422	420	418	419	421	423	424	429	428	422	413	408	402	399	401	409	409	400	411	427	432	432	432	432	429	430	422	416	422	421	410	403	399	403	406	412	416	417	417	414	399	405	404	407	413	413	412	415	416	415	409	409	409	408	407	405	400	394	395	395	401	401	399	398	394	394	394	394	390	390	392	388	388	386	392	392	382	387	392	395	397	388	392	385	389	387	385	373	380	375	368	367	368	368	377	380	372	370	375	376	370	368	367	366	367	367	370	374	378	378	378	360	354	359	365	373	381	372	361	356	352	357	361	361	364	357	358	364	371	379	378	377	360	357	359	359	358	362	367	372	369	365	359	357	348	348	348	348	357	357	356	355	354	352	353	349	361	361	358	359	368	368	368	370	363	354	354	355	355	353	349	344	342	343	348	348	357	360	353	347	348	347	350	347	345	341	352	353	352	352	354	356	356	358	360	366	367	365	360	357	357	353	358	359	358	359	362	362	366	361	351	353	357	360	360	357	351	346	348	357	360	360	357	355	355	355	356	359	359	361	363	360	358	358	358	358	355	355	350	348	348	338	348	349	363	367	367	362	355	347	340	333	333	347
382	381	375	376	389	389	397	394	386	393	398	398	401	380	394	404	398	397	397	394	394	386	386	378	378	383	391	394	394	393	387	387	377	372	372	370	362	357	357	369	375	375	379	382	383	381	381	390	390	389	386	382	381	381	379	373	369	376	382	386	392	392	392	382	382	384	388	394	390	390	390	392	391	388	384	383	383	387	382	382	380	378	378	375	377	383	386	387	373	373	371	369	370	377	388	388	382	371	367	367	370	385	391	381	380	384	387	384	377	378	380	380	376	377	376	373	372	375	377	383	387	387	383	374	369	368	373	376	379	376	376	377	381	379	385	387	386	386	380	377	375	374	375	381	385	377	374	375	386	392	395	392	389	389	386	385	385	387	396	400	403	408	415	398	404	411	421	425	416	418	419	419	418	420	430	431	434	434	432	434	431	426	425	430	432	439	435	423	424	429	431	427	414	404	404	400	421	428	432	445	451	449	445	437	437	439	432	418	417	421	426	430	430	428	425	430	431	435	437	438	437	431	430	433	441	441	440	443	443	449	439	441	443	455	442	436	436	436	436	437	446	446	443	445	448	449	442	440	442	434	429	427	425	430	430	426	421	424	422	426	432	432	426	423	422	422	416	414	420	429	431	424	424	435	437	438	438	438	434	436	436	431	430	430	429	424	426	418	423	418	412	414	416	417	427	426	422	440	454	457	459	462	465	462	455	450	450	451	453	453	456	444	439	437	437	438	444	441	441	441	441	435	436	436	437	444	444	439	436	427	428	433	438	438	437	422	420	420	420	424	433	436	442	439	437	437	440	442	437	427	422	424	427	428	434	437	437	436	434	424	419	413	412	412	416	422	422	425	422	423	428	430	429	416	408	402	401	401	410	417	407	408	417	420	421	417	411	408	412	424	423	422	418	418	413	401	400	396	392	392	394	397	409	419	415	418	428	428	426	424	412	417	419	418	425	411	401	399	395	400	399	401	401	404	404	414	399	401	400	401	406	407	403	406	410	406	404	406	406	407	403	403	401	401	403	404	401	398	397	394	390	377	378	383	385	383	379	376	375	375	375	384	393	391	389	389	379	376	374	379	371	370	385	373	374	374	372	370	376	376	379	374	379	380	378	374	367	366	366	368	367	367	368	372	370	370	362	356	356	355	362	372	373	375	368	356	352	357	357	361	350	349	352	356	367	369	369	376	372	358	357	357	359	361	364	367	368	362	357	356	348	346	346	348	360	360	359	358	355	353	353	349	349	357	353	351	345	356	369	360	352	349	349	352	355	355	354	347	336	337	343	343	359	361	360	356	351	347	350	347	347	343	346	351	354	355	351	356	356	356	360	365	364	360	355	342	342	342	342	356	355	356	371	371	366	361	356	351	351	357	357	357	353	350	351	348	360	360	360	356	351	349	349	349	354	357	359	358	358	358	358	353	345	341	341	339	339	338	346	346	345	355	355	355	350	345	345	348	348	351
384	374	369	373	382	385	385	389	382	382	384	383	383	380	394	360	372	375	375	385	393	397	392	387	382	382	387	388	389	386	374	370	370	370	369	366	359	357	369	360	371	376	375	365	377	391	391	393	393	387	386	383	383	376	376	373	369	369	376	382	388	388	388	382	382	381	380	383	389	390	390	390	388	382	375	372	368	371	370	371	371	374	381	389	376	372	371	378	377	377	374	367	370	373	377	383	372	370	374	381	381	385	383	369	366	367	378	381	380	380	381	381	381	380	375	371	370	370	372	378	380	380	374	369	369	370	371	370	369	371	372	373	373	371	374	378	377	377	374	374	372	380	385	384	381	385	387	391	395	398	382	376	376	376	383	384	384	382	383	393	403	408	386	392	397	405	411	418	420	421	419	418	418	420	429	436	433	432	431	434	436	434	430	429	431	436	432	421	421	427	431	424	415	400	409	409	425	422	428	433	442	447	444	436	433	435	430	418	417	435	428	428	427	422	419	418	429	433	431	430	432	433	427	424	428	434	434	448	455	454	434	430	430	436	424	420	422	426	429	431	435	435	441	445	448	451	449	438	438	433	430	426	417	424	430	427	424	424	420	418	426	431	429	424	423	422	421	422	419	413	415	414	415	429	435	432	432	432	430	423	418	418	414	417	419	418	416	424	416	409	410	413	414	416	427	426	421	431	447	452	453	456	454	447	443	442	444	448	446	444	444	448	441	439	441	442	444	433	428	432	431	423	424	424	426	425	428	430	427	423	426	427	428	432	438	437	441	442	439	441	444	444	442	442	442	440	436	441	438	436	433	424	424	423	422	426	426	422	422	426	428	420	414	414	415	412	414	419	426	409	397	402	407	403	405	408	409	414	415	415	406	401	405	405	409	410	411	403	405	412	416	419	417	412	403	400	402	402	397	395	389	394	401	408	412	419	419	414	404	406	405	414	417	426	403	406	401	395	392	393	400	404	403	404	404	405	404	399	396	392	392	390	395	401	398	400	400	400	401	397	397	398	395	395	399	397	392	393	392	392	387	375	377	383	384	381	376	375	372	369	369	370	375	382	383	380	375	372	364	366	371	370	369	374	375	377	378	376	376	373	370	369	369	377	379	373	365	363	366	367	362	360	361	362	362	361	357	354	355	357	360	361	365	362	357	350	349	357	357	352	356	354	350	352	356	357	356	364	372	357	357	357	357	358	357	354	351	354	358	367	362	355	355	352	355	359	359	358	355	353	350	346	346	346	349	349	348	350	353	351	345	343	343	344	351	355	356	360	362	352	354	354	355	354	356	360	351	347	348	348	351	352	352	350	354	362	358	346	346	354	357	364	363	355	345	345	335	338	342	347	360	357	371	371	364	362	351	346	349	351	351	355	352	350	347	358	360	360	360	361	362	349	342	342	342	344	359	358	360	360	359	349	341	338	336	340	340	356	354	348	342	345	345	344	347	344	347	347	347	351
380	370	367	371	375	384	384	384	377	366	364	362	362	355	356	360	372	371	371	383	389	392	391	388	381	381	377	373	375	374	372	372	372	373	370	367	359	354	360	360	371	371	372	373	380	389	389	391	390	381	377	377	378	378	378	372	370	371	376	382	378	378	378	376	378	381	380	375	382	384	385	385	381	373	370	364	367	374	365	364	364	374	378	383	382	376	371	363	372	376	376	373	368	373	377	368	365	366	373	379	379	378	376	370	367	366	369	374	380	374	375	375	375	375	375	368	366	366	368	368	363	365	369	372	372	370	371	370	369	369	370	369	368	366	369	372	380	377	377	372	373	380	382	381	381	383	388	391	392	393	382	373	369	377	377	378	379	383	391	400	394	393	386	392	392	400	409	414	419	419	419	417	417	422	430	433	425	417	420	426	430	429	426	430	435	432	427	421	429	434	427	414	415	407	404	404	430	423	423	424	427	434	436	431	428	429	429	430	432	435	428	428	425	417	416	419	423	426	432	431	432	435	431	423	420	422	422	431	439	445	444	441	431	429	430	430	428	426	422	422	419	426	428	436	440	433	430	433	431	435	428	415	414	420	423	422	420	417	414	415	420	431	427	424	421	417	418	419	417	414	413	414	416	416	417	418	418	420	418	416	412	408	408	414	414	414	418	417	417	414	409	406	410	410	413	416	424	430	433	437	443	447	444	441	438	439	441	444	444	436	438	439	439	440	440	441	430	426	428	425	418	418	420	424	427	427	425	423	421	418	418	419	427	429	432	437	448	447	447	445	442	440	439	445	449	444	439	433	431	436	433	422	420	419	409	409	405	404	410	414	416	418	421	416	413	410	414	414	420	406	395	397	402	405	408	410	411	412	410	402	403	406	408	399	389	392	403	407	404	408	413	413	411	405	401	403	406	406	407	397	385	389	389	386	386	389	389	396	395	394	386	384	384	392	400	401	396	394	392	391	400	404	403	399	396	395	391	392	388	388	386	391	388	388	387	387	387	387	389	388	392	393	392	391	393	393	392	392	393	388	379	379	385	389	389	390	384	381	372	372	367	363	360	364	368	369	366	365	364	366	372	374	374	375	378	377	378	378	378	373	362	357	359	363	365	366	367	367	366	359	361	364	361	359	359	358	356	353	355	356	360	360	361	356	351	350	349	354	354	357	357	356	357	360	359	357	356	354	359	364	364	357	355	357	355	354	349	347	348	368	366	366	355	346	345	352	359	358	357	353	349	344	344	343	346	345	341	348	353	347	344	344	342	342	348	355	357	361	363	365	365	359	356	352	356	360	360	360	355	355	354	353	349	351	356	361	359	359	348	340	352	357	344	340	335	335	332	340	346	352	360	357	357	366	359	362	353	346	350	350	346	340	340	338	340	345	345	349	352	355	358	362	351	351	342	344	345	344	348	348	359	347	336	332	338	338	355	358	358	354	348	348	346	349	344	343	342	347	347	347
376	371	370	374	372	368	368	366	362	363	362	352	352	347	345	348	356	371	383	379	384	381	381	381	376	376	376	371	370	367	367	371	371	375	375	369	364	359	361	361	367	371	372	378	384	388	391	391	382	363	362	365	372	377	377	377	371	378	375	359	365	371	373	373	374	373	372	375	382	379	382	382	378	367	357	366	373	373	364	365	365	372	378	383	382	377	371	362	366	375	375	371	367	370	369	368	365	364	374	376	374	374	374	369	368	367	367	369	370	370	370	371	371	369	367	365	365	364	364	361	363	368	369	373	373	372	372	370	369	368	369	365	374	377	374	369	376	376	376	376	373	379	379	382	382	383	387	400	392	381	373	372	372	381	381	381	382	385	390	392	384	384	376	386	392	400	401	407	414	416	416	418	421	421	424	426	424	417	418	424	423	424	425	429	435	427	421	428	429	426	421	416	412	417	429	423	423	415	408	406	406	415	423	426	425	423	425	430	432	429	425	428	425	417	406	420	425	428	431	430	431	434	428	415	407	413	416	416	421	421	422	426	420	423	431	438	441	430	423	421	420	421	423	428	430	426	421	422	427	430	424	412	408	412	413	416	413	411	413	413	413	427	429	424	422	417	414	413	418	423	424	419	418	416	411	407	400	400	410	412	406	404	415	415	413	414	418	423	424	418	409	405	404	407	417	417	420	420	424	430	434	441	444	439	437	436	440	441	438	434	432	431	438	438	435	430	430	427	422	415	413	414	416	422	426	426	422	420	416	415	417	423	420	420	422	427	445	447	446	443	439	439	440	447	448	442	438	436	429	426	424	419	411	411	413	413	409	411	412	412	409	406	410	417	422	420	411	408	397	391	391	395	399	405	410	416	414	409	405	403	404	398	400	406	403	402	404	411	412	409	403	398	393	394	400	400	391	389	388	386	389	389	389	390	392	392	400	405	381	375	374	380	383	386	389	388	390	391	392	391	394	400	395	398	398	397	397	392	388	386	394	395	395	392	390	388	388	386	384	384	387	388	388	388	387	386	384	385	388	388	384	382	379	378	381	380	387	380	377	377	364	354	357	362	364	366	366	365	358	367	362	365	364	369	373	373	369	369	367	366	363	360	359	356	353	353	355	355	350	347	346	348	366	366	360	357	354	353	351	353	354	357	357	356	351	349	355	355	355	354	351	352	355	357	360	358	355	353	350	346	346	351	354	355	354	349	344	340	344	351	353	353	350	347	345	352	363	364	353	338	337	337	343	340	336	334	335	338	340	337	335	335	335	340	350	354	356	357	357	355	355	352	356	352	350	355	367	370	367	367	360	354	349	349	353	358	360	360	355	341	345	346	341	338	344	344	353	353	346	352	351	348	348	357	352	350	345	344	345	345	341	339	341	340	338	341	341	347	351	354	353	351	344	351	343	341	339	340	342	342	345	349	345	351	352	352	354	357	359	357	356	356	351	349	345	343	342	342	342	341
367	364	369	366	360	361	361	366	374	375	372	357	349	349	343	346	354	367	379	379	384	369	368	370	375	375	375	372	366	363	363	375	375	379	376	370	364	365	366	365	365	367	371	378	384	387	387	387	372	360	361	360	365	364	358	358	370	376	356	352	359	365	369	369	372	369	367	368	373	379	382	368	368	358	354	367	371	369	366	368	371	371	372	372	374	373	364	359	362	374	374	368	367	367	368	365	358	364	374	373	372	372	368	364	367	364	365	366	365	365	367	366	366	364	364	363	362	362	361	361	362	365	369	372	373	373	372	371	368	368	361	363	375	366	369	360	363	368	369	369	371	365	365	372	373	375	377	379	372	366	371	373	375	380	380	388	387	380	385	387	386	394	388	379	380	394	401	407	413	413	414	417	423	423	425	422	418	419	421	419	421	423	425	426	424	414	414	414	420	417	412	412	412	415	411	406	406	401	399	407	404	404	407	416	416	419	423	428	428	424	420	420	419	411	406	420	439	430	424	415	424	432	424	413	405	411	414	414	417	415	416	417	418	414	412	419	426	434	426	425	425	422	422	422	419	425	422	423	431	433	424	421	411	409	412	412	410	411	413	415	413	418	424	423	418	413	403	405	410	422	428	424	417	413	400	395	404	404	405	409	409	406	405	417	417	416	419	424	428	419	414	403	404	408	417	418	417	408	420	413	419	437	449	442	437	436	440	439	439	433	430	430	431	431	426	422	415	415	415	414	410	411	413	414	417	416	415	414	408	408	413	420	423	412	411	412	415	418	424	428	431	431	442	443	439	435	433	434	421	415	415	416	410	411	411	416	411	410	409	413	412	406	409	417	418	407	402	396	390	388	396	396	399	404	410	416	414	408	404	401	402	394	400	406	408	408	402	401	396	392	391	391	377	379	380	380	380	379	379	379	380	386	392	393	393	397	394	403	395	391	388	391	393	392	389	388	390	391	392	396	393	389	386	388	396	396	396	393	389	393	394	397	395	394	393	393	391	385	381	381	384	386	388	387	385	383	380	380	385	387	384	381	377	376	379	379	372	370	370	362	360	360	365	369	364	366	367	366	366	366	366	366	369	366	363	369	366	366	362	360	356	354	356	359	355	355	355	351	349	345	344	346	355	355	358	360	352	349	352	354	352	357	357	356	357	357	356	356	362	352	347	346	353	358	356	357	357	354	348	348	348	352	351	348	348	345	338	334	335	340	341	341	350	347	346	349	349	347	347	348	346	346	348	351	341	336	335	340	340	340	338	338	337	341	341	342	345	355	357	355	355	352	348	343	341	347	350	348	348	354	355	355	348	343	340	348	352	352	351	350	347	343	341	340	340	338	353	353	351	351	353	357	357	358	354	352	350	340	338	338	337	337	338	337	337	342	342	343	348	351	350	351	351	344	342	339	337	339	340	340	345	348	346	348	350	350	351	353	354	356	356	356	352	349	345	342	338	338	334	333
368	368	373	372	378	382	383	383	375	368	366	362	353	353	349	348	356	371	371	371	370	369	361	365	372	376	376	371	363	362	364	373	378	378	376	368	365	363	364	361	361	365	370	377	385	387	387	385	372	362	359	358	359	369	381	381	379	375	375	381	385	381	370	370	369	366	361	358	363	372	378	368	368	363	372	367	365	364	362	366	368	368	372	371	366	360	353	355	362	371	369	369	366	367	367	364	359	360	370	373	372	367	363	359	359	363	363	365	364	360	359	361	361	361	362	356	357	361	362	359	363	365	368	372	375	375	375	371	363	359	361	363	369	372	362	357	359	367	370	370	370	367	368	371	368	370	375	375	373	372	377	383	381	376	381	381	383	378	384	388	388	395	389	380	383	393	398	407	413	413	409	401	401	403	403	405	411	419	418	415	408	400	403	405	405	404	409	412	417	409	411	410	410	408	406	396	390	390	384	399	406	404	405	405	407	414	425	429	428	423	420	420	423	428	435	442	439	430	424	422	415	415	423	422	413	406	403	402	402	407	410	412	413	411	412	409	418	421	426	427	425	423	421	418	418	419	421	431	433	429	425	417	415	411	412	413	412	412	414	416	411	410	417	417	415	408	396	391	401	407	408	403	400	397	398	394	395	404	404	405	407	410	404	411	414	415	416	417	415	414	419	414	410	407	407	401	401	413	408	407	408	425	432	444	436	430	430	431	428	425	424	423	416	409	399	399	395	397	398	401	404	408	409	410	414	413	411	410	405	405	409	413	417	415	407	405	401	403	401	402	406	414	417	420	424	423	419	417	411	414	416	417	403	404	404	404	401	398	400	398	392	394	400	400	396	390	389	385	382	387	395	397	399	397	396	398	397	390	387	390	392	396	400	406	406	406	403	398	396	382	380	378	378	375	377	376	379	379	379	379	381	387	394	398	398	399	404	398	397	392	392	395	394	392	389	386	381	383	389	381	378	376	375	380	397	396	395	394	392	391	393	388	389	390	388	388	393	391	381	378	377	381	388	387	385	381	379	378	378	380	377	368	368	375	374	367	365	369	369	369	367	363	365	369	373	375	377	377	373	370	369	367	371	367	362	357	360	360	359	354	351	354	356	356	356	349	344	345	349	348	346	346	346	348	355	353	351	350	353	354	352	353	354	356	356	352	352	352	359	352	348	347	351	354	354	356	357	356	352	352	350	344	349	343	344	337	335	336	338	338	338	341	342	343	347	348	351	350	349	351	358	358	356	353	341	337	336	339	340	337	337	338	339	340	341	343	345	355	358	357	355	348	342	339	339	341	341	344	344	347	343	350	352	343	340	339	339	339	343	340	342	341	340	338	338	338	343	342	341	346	353	353	354	355	355	353	347	342	340	340	337	336	336	335	335	335	340	344	351	351	350	345	345	343	342	339	339	339	339	345	344	347	347	347	343	343	345	348	352	353	353	356	352	350	347	339	339	331	330	332
368	368	369	371	374	380	377	377	369	360	360	364	368	368	371	378	381	375	368	368	364	364	361	365	368	368	368	366	363	362	363	372	375	375	373	363	358	361	362	361	361	365	372	373	378	386	385	372	368	352	352	357	363	374	380	380	375	370	371	380	384	384	379	368	368	366	356	349	352	360	366	364	364	363	372	370	360	358	359	360	361	361	365	366	365	361	354	353	360	365	370	370	368	367	368	368	366	357	367	368	367	363	363	359	360	364	364	366	363	360	360	360	360	360	361	355	356	363	360	358	351	352	358	372	375	362	362	349	353	367	368	369	369	372	356	354	359	370	375	375	375	374	373	370	364	364	372	375	375	373	377	384	381	376	371	371	369	373	379	385	389	388	382	390	390	391	395	393	410	413	409	401	384	378	378	384	389	401	402	405	414	407	402	400	400	404	408	414	418	415	404	402	407	405	395	391	382	382	383	379	399	415	402	412	413	416	420	420	422	400	409	419	424	431	434	425	422	426	422	422	415	407	409	414	412	410	404	404	404	409	403	405	406	408	411	407	411	418	423	423	422	423	422	415	410	406	406	416	423	426	421	421	414	410	411	413	414	414	413	411	402	404	403	402	411	398	394	402	397	394	396	393	393	396	396	403	394	400	400	407	407	406	405	406	408	408	409	411	412	409	409	415	415	412	409	407	406	407	403	402	404	407	423	424	421	413	411	408	404	405	407	412	413	405	405	395	388	386	389	386	392	403	404	407	412	410	408	404	403	403	407	408	407	402	404	402	397	394	399	400	400	403	404	403	403	405	408	408	404	404	405	407	402	402	391	392	392	393	393	394	390	386	390	383	375	372	370	371	379	385	390	393	385	386	386	391	392	386	388	393	394	395	397	403	405	404	391	385	386	392	391	389	385	387	380	380	380	381	380	382	382	382	387	387	391	398	393	391	390	389	392	395	394	393	391	390	388	388	390	379	374	370	368	373	380	393	396	391	382	382	383	373	375	375	375	381	385	387	388	381	377	370	371	378	382	383	379	378	375	373	364	364	368	368	358	357	376	376	378	371	367	363	366	367	375	377	370	369	367	367	368	366	362	366	366	365	365	365	359	355	351	349	355	353	348	340	344	344	346	347	347	348	348	352	348	352	351	350	353	352	351	352	352	356	356	351	351	346	346	345	346	346	353	354	356	356	355	348	348	347	348	346	346	337	334	332	333	335	338	338	338	340	342	343	345	345	347	350	348	348	348	351	349	346	338	336	338	336	334	336	336	337	338	339	339	341	343	355	358	358	355	349	341	335	339	341	342	345	345	347	341	339	347	340	340	341	341	341	339	334	337	341	341	338	338	336	335	336	339	341	342	342	347	343	342	344	343	342	342	339	338	335	332	332	334	334	339	344	351	352	349	347	347	342	344	338	338	340	340	344	339	339	341	339	339	337	342	343	342	341	353	353	354	350	347	332	332	332	321	340
367	367	369	363	365	364	362	362	364	362	364	366	366	366	362	361	361	357	357	360	360	363	364	367	368	368	364	365	364	363	359	356	351	351	350	351	357	360	363	365	365	368	370	368	371	374	380	368	368	352	356	359	368	375	379	374	374	369	370	373	361	357	360	364	364	370	368	360	360	362	363	364	367	367	372	370	369	356	353	355	357	360	360	362	362	358	353	353	355	361	366	366	366	368	372	374	372	362	355	362	361	360	360	359	377	376	372	367	364	360	360	360	358	358	354	354	356	360	362	347	353	359	366	367	356	347	347	351	357	363	362	364	368	366	356	354	358	366	371	372	372	372	370	368	363	361	369	369	368	371	383	386	383	372	356	357	357	366	378	375	374	378	381	384	395	387	387	393	401	398	392	395	384	378	383	383	389	389	401	404	410	406	402	402	401	405	405	416	421	416	406	401	404	398	398	392	385	387	387	390	403	400	420	409	410	406	405	403	402	401	410	417	410	412	427	424	419	424	419	407	397	407	409	414	411	409	405	404	412	412	414	405	399	401	404	412	413	415	420	418	418	419	418	413	406	402	402	403	412	418	421	414	407	407	411	413	413	412	411	407	400	402	401	399	399	398	404	399	399	396	396	395	395	400	397	405	399	406	408	408	407	404	402	406	407	408	406	410	409	406	403	405	409	411	409	407	405	405	402	403	402	402	402	404	405	401	403	405	393	387	393	394	404	402	390	384	385	394	394	394	391	399	402	406	409	410	404	403	404	399	403	399	399	402	402	402	403	401	402	404	402	401	398	400	398	401	405	404	397	392	390	387	384	384	392	391	387	391	392	392	382	380	381	372	370	371	372	370	375	381	381	391	383	387	386	388	390	389	391	392	392	394	396	401	403	392	382	384	390	395	396	396	396	392	389	384	384	383	382	386	387	384	381	381	383	389	392	390	390	389	395	401	405	400	390	385	387	388	381	378	377	377	372	371	380	385	386	378	373	370	376	378	379	378	378	379	387	389	390	386	374	373	365	378	380	381	377	373	369	365	365	364	364	360	356	360	373	373	378	371	369	365	367	370	378	377	372	369	367	365	362	360	366	365	362	365	365	365	359	354	349	347	343	343	344	339	344	345	345	346	346	349	349	353	352	352	351	353	353	354	349	348	349	351	349	341	341	341	340	343	350	351	351	349	351	350	348	346	346	346	348	346	346	344	334	332	332	335	338	338	340	339	340	342	343	343	342	343	349	345	345	343	344	342	338	338	337	335	334	331	331	332	334	333	331	341	343	346	347	347	346	344	339	337	334	337	339	339	339	339	338	340	339	343	344	339	339	335	328	334	341	341	341	341	339	337	336	338	341	341	344	344	340	340	341	344	344	343	343	340	338	334	331	330	333	334	339	343	344	352	348	348	343	342	341	336	332	329	329	330	338	337	339	338	338	339	344	344	342	341	341	340	340	348	340	329	329	321	326	324
369	369	363	363	365	359	359	359	360	362	364	365	366	359	359	355	352	352	353	364	364	365	363	363	362	364	365	365	364	361	355	352	348	349	349	354	359	361	363	362	363	363	363	355	351	358	368	357	357	353	356	359	372	376	379	377	377	371	373	364	359	348	356	360	360	361	360	358	359	357	359	361	365	365	373	376	369	356	353	347	349	352	352	354	352	349	349	348	350	356	359	363	363	365	372	376	374	364	352	350	353	364	364	373	377	376	357	353	357	364	362	357	354	350	350	345	347	347	351	349	355	360	357	351	348	348	348	352	359	363	363	363	371	352	350	353	358	366	359	367	367	366	362	366	365	371	379	369	366	367	370	371	372	364	362	363	363	367	373	375	371	380	388	395	395	379	383	384	384	381	395	390	384	380	383	383	383	388	390	403	406	406	404	402	404	404	404	413	416	414	406	398	393	398	399	399	387	391	391	406	405	403	404	400	399	393	386	385	397	413	409	410	414	404	408	419	421	419	413	402	396	403	407	411	411	409	407	405	405	408	408	412	412	411	411	408	407	409	412	414	416	415	412	412	408	406	396	398	408	409	410	404	401	402	406	406	407	407	407	404	399	397	399	396	397	398	401	411	394	393	399	399	398	402	409	401	405	412	409	409	407	406	406	404	404	402	407	406	398	399	401	397	397	403	406	405	406	407	404	401	391	391	391	389	384	382	385	389	392	390	389	388	385	386	385	381	385	394	399	400	398	397	405	406	409	405	396	394	393	397	396	393	390	390	399	396	391	400	406	411	408	407	403	397	386	391	396	403	403	396	385	382	389	389	393	388	387	384	387	387	385	382	381	369	368	368	369	371	376	379	382	383	385	385	387	389	389	389	389	390	390	391	394	395	394	394	387	388	388	383	390	395	393	396	390	386	384	383	383	384	384	380	380	378	379	389	392	390	389	389	397	399	404	401	387	385	386	378	375	378	378	377	372	374	375	372	364	360	362	367	373	379	380	380	378	381	371	375	377	375	369	370	376	377	375	377	373	366	362	362	369	365	364	360	359	361	360	373	375	376	365	368	372	383	383	380	378	361	358	355	357	356	358	360	358	358	355	355	355	351	347	343	340	338	342	345	339	345	345	348	347	347	349	349	352	348	339	347	352	342	344	343	338	335	337	337	336	337	337	341	343	345	345	345	344	351	353	342	342	344	352	344	344	341	335	332	332	334	344	344	341	338	343	342	343	342	340	339	333	343	343	341	341	343	339	338	337	336	336	336	334	334	334	333	331	327	328	336	336	343	343	340	337	336	335	335	332	332	331	335	339	339	340	342	340	340	337	327	327	334	341	342	342	342	341	338	336	339	345	343	341	341	345	342	339	342	344	342	342	339	336	330	332	330	333	333	338	342	343	339	337	337	335	337	336	331	329	325	325	324	319	325	324	324	324	325	344	344	343	342	342	342	341	343	327	327	325	323	322	335
369	360	360	356	355	359	359	358	358	363	361	365	364	362	362	356	350	354	356	361	361	368	364	361	360	364	365	365	364	361	351	343	343	349	349	360	360	361	360	358	356	356	349	344	348	351	357	360	360	361	363	364	372	376	374	363	363	361	365	361	352	354	357	359	359	359	358	357	358	355	353	361	364	364	367	371	373	364	353	347	347	352	352	355	355	348	340	341	345	351	355	356	356	362	371	376	369	359	351	345	354	362	361	361	363	360	357	353	354	356	356	356	355	355	355	355	357	356	355	347	352	360	357	351	349	350	351	351	348	362	371	374	356	356	352	352	354	354	359	367	352	352	362	367	371	372	372	372	367	367	368	373	373	376	380	365	367	367	367	365	370	365	367	362	358	367	367	370	374	381	385	388	386	384	384	383	383	388	391	390	401	399	402	406	406	405	404	403	404	395	389	386	386	396	399	399	408	410	407	407	404	405	403	402	396	391	386	384	396	410	404	408	405	402	407	409	412	413	408	403	399	399	401	402	407	409	407	405	405	407	407	412	417	415	415	411	405	395	401	408	411	403	406	406	409	406	405	404	396	396	396	392	392	395	396	396	399	395	391	388	388	395	402	401	398	392	395	396	399	400	398	401	401	401	395	406	410	407	406	407	407	407	406	406	406	403	398	398	401	395	394	395	396	394	400	402	398	385	379	375	372	380	385	388	384	384	390	396	393	392	390	384	387	387	386	384	386	404	402	400	399	405	404	403	398	392	394	388	388	394	398	394	386	381	382	387	392	394	400	407	409	405	400	388	386	378	381	382	381	381	389	392	392	395	394	392	386	381	384	385	385	375	374	370	372	370	365	366	371	372	374	383	383	387	386	385	386	384	386	387	388	388	389	391	395	389	382	378	375	376	382	389	390	385	386	383	382	381	380	380	379	377	380	378	379	382	385	385	385	377	373	371	375	382	381	372	361	364	371	375	378	377	377	373	366	365	359	360	361	366	372	378	377	377	373	368	367	368	366	360	358	361	362	363	362	360	359	362	365	364	364	372	365	366	359	361	361	372	377	372	374	375	376	372	370	368	362	356	354	356	359	365	350	347	346	346	345	349	349	347	345	342	342	343	339	351	360	355	352	347	342	342	349	349	349	342	338	345	351	343	342	342	337	336	335	335	336	338	336	341	342	344	344	344	336	339	341	341	347	345	340	338	339	341	335	332	333	339	347	347	343	337	336	342	344	342	339	336	342	342	344	341	341	342	342	341	335	336	336	336	339	334	334	332	329	327	329	336	336	337	338	339	338	338	336	334	331	331	331	335	339	342	339	338	339	339	333	327	327	326	337	339	340	340	340	338	337	341	344	347	347	348	338	342	335	338	342	342	339	337	333	330	332	336	336	335	337	339	340	336	331	331	329	328	331	329	326	326	325	327	332	332	333	333	324	325	333	343	344	344	343	335	332	328	324	324	328	325	324	332
373	361	361	355	355	356	357	358	358	359	362	364	362	359	359	356	342	352	355	358	358	358	361	366	365	364	363	363	360	356	351	343	341	364	364	372	367	358	354	356	357	357	353	358	357	367	372	369	370	370	369	376	388	381	374	363	363	363	365	366	359	353	357	357	356	356	356	361	358	353	352	357	364	363	363	361	359	356	350	347	347	352	356	356	355	351	340	340	346	349	351	353	359	359	367	369	366	358	351	343	352	354	358	358	361	359	356	354	354	356	355	353	353	350	355	355	356	357	356	348	352	355	354	352	351	347	343	343	342	355	362	364	358	354	354	351	351	350	354	353	352	352	365	368	370	368	369	370	365	366	366	368	372	374	379	366	361	361	365	364	364	371	367	362	371	369	367	371	375	380	385	387	387	385	386	383	383	383	391	390	378	388	392	401	412	407	405	403	387	386	384	386	390	393	392	399	403	403	399	399	393	389	386	383	385	399	411	394	395	395	401	400	398	406	405	406	410	417	418	410	402	397	397	402	404	407	408	406	406	407	412	412	411	407	402	391	390	396	385	399	394	395	388	387	389	388	387	385	386	389	390	389	389	393	389	388	386	379	376	378	380	397	396	392	388	388	388	394	396	396	395	398	396	391	392	404	404	405	403	403	403	406	406	406	404	400	393	390	393	396	394	394	394	392	395	394	391	381	379	372	379	382	389	386	382	382	385	394	394	395	394	394	397	398	397	396	397	412	407	404	401	403	402	397	392	390	386	387	390	392	392	392	390	385	381	386	391	395	399	399	401	397	392	385	377	379	379	380	379	380	386	391	391	394	392	387	384	381	381	382	384	381	380	377	372	372	368	373	390	392	369	369	379	384	386	384	383	381	379	378	383	384	379	381	384	385	380	372	372	372	374	375	381	377	382	380	379	375	375	379	379	379	377	378	378	381	380	380	380	373	371	373	375	378	380	374	361	359	365	373	369	368	372	369	366	366	361	367	374	377	380	380	380	377	369	364	362	363	360	356	359	359	363	364	360	362	364	366	365	363	361	361	365	366	376	375	375	370	368	377	378	380	377	368	368	367	366	362	361	363	372	372	350	344	344	347	344	346	346	345	345	345	346	349	351	352	355	352	353	353	347	342	342	346	350	342	342	341	343	346	344	342	343	347	347	346	344	343	342	339	340	342	342	344	339	340	341	341	347	349	334	327	339	339	336	334	333	337	337	343	338	336	335	336	334	333	337	336	330	330	334	337	342	341	340	336	331	330	330	330	339	339	338	333	329	328	330	333	333	334	335	334	335	336	337	333	333	333	334	338	340	344	342	338	334	339	333	327	325	332	335	338	338	341	345	339	338	336	343	345	345	345	347	334	326	328	328	328	329	337	333	331	333	335	335	335	337	337	334	331	326	326	324	324	324	328	326	326	327	333	334	334	333	333	332	332	332	333	334	334	320	326	323	321	319	319	321	326	329	330
375	368	368	359	356	358	356	358	358	359	362	360	368	360	360	346	339	341	348	349	355	355	356	355	356	356	356	357	357	350	346	340	341	364	342	349	350	353	356	360	365	364	364	360	365	370	374	373	373	373	377	380	376	362	359	358	363	363	364	365	361	354	348	349	355	355	362	365	364	359	357	356	358	360	360	358	355	353	352	351	350	352	356	352	352	346	338	345	348	348	348	350	355	355	360	362	363	357	347	344	357	352	351	351	354	355	352	352	350	352	355	353	345	348	355	355	357	356	353	349	343	343	344	344	340	344	345	344	344	344	345	346	352	353	351	352	351	349	346	350	362	365	365	368	361	365	363	360	358	358	357	358	362	361	363	359	357	365	365	364	362	370	363	374	374	377	378	375	374	380	384	385	385	382	376	377	381	381	393	387	378	388	378	392	395	396	389	390	388	384	379	390	393	392	389	389	388	388	387	384	384	381	380	389	393	396	397	388	385	384	385	391	397	403	406	406	409	411	411	406	401	396	396	399	402	403	405	407	407	406	410	410	411	407	402	389	386	387	389	389	382	378	372	383	387	389	392	392	399	398	392	390	394	394	391	389	382	378	377	378	381	384	383	379	378	387	390	386	383	384	377	377	379	391	383	389	397	400	399	399	399	400	400	396	390	386	385	391	394	392	394	394	398	396	395	391	386	384	380	374	378	384	386	382	380	380	384	387	391	389	385	384	390	392	397	400	402	404	401	400	398	396	399	396	390	386	387	387	389	385	385	384	382	382	384	386	394	393	394	396	395	392	384	375	377	379	380	378	377	380	384	384	390	392	388	383	374	378	382	381	382	384	380	375	381	373	372	378	388	390	391	385	369	380	382	384	384	379	377	376	378	375	375	374	372	375	379	378	379	381	382	377	363	379	380	382	378	375	375	379	379	375	374	377	379	381	381	381	384	384	384	372	374	376	372	371	370	366	370	377	378	375	373	373	377	382	380	383	381	376	368	375	375	375	371	363	357	356	355	353	356	365	367	365	363	360	362	363	360	361	361	361	366	373	374	374	374	369	367	366	377	378	372	367	367	367	372	370	366	364	361	356	348	345	345	345	346	346	343	338	337	344	351	355	353	351	352	352	353	353	353	343	341	342	345	346	348	347	347	346	344	345	349	358	358	356	349	343	340	335	328	327	332	347	346	336	336	337	346	345	334	327	326	333	336	333	331	333	333	336	335	332	328	331	330	334	332	331	331	331	335	337	340	341	340	336	330	335	330	330	328	328	327	327	328	332	334	334	334	333	331	331	330	328	330	332	332	334	338	340	343	338	339	338	338	334	330	325	326	334	336	338	338	339	345	339	337	335	344	344	344	342	342	331	333	327	327	328	329	329	330	329	328	329	329	337	340	335	331	327	327	325	324	328	328	327	331	331	335	341	334	334	334	334	336	334	332	332	331	331	330	316	323	321	319	319	319	320	322	325
378	376	369	369	360	355	353	353	354	354	359	360	368	357	347	347	339	340	347	349	360	360	358	355	350	349	348	340	340	330	327	328	332	342	349	349	350	353	362	363	363	367	367	363	364	362	357	352	353	353	356	363	357	357	357	355	359	359	364	365	351	350	351	350	353	362	362	367	367	368	367	369	365	357	357	349	346	347	350	351	350	350	352	352	352	339	332	336	344	348	344	346	349	349	352	357	359	357	350	356	358	352	349	352	352	353	351	350	349	347	348	346	345	348	356	356	357	355	351	346	344	339	336	338	338	339	343	343	343	342	343	345	346	348	350	350	351	350	345	350	362	363	363	363	361	365	349	349	351	349	349	352	356	360	358	356	363	366	366	365	362	368	377	376	377	378	379	378	373	378	381	379	379	374	374	377	386	386	385	391	386	386	378	392	385	395	390	388	382	381	386	392	396	395	393	392	392	393	393	389	389	391	389	389	390	392	392	387	386	384	384	390	394	399	408	409	407	399	396	402	397	395	396	397	397	397	397	402	402	402	408	405	405	398	391	389	386	387	386	381	381	376	371	371	369	371	381	395	398	394	388	393	393	394	392	391	381	374	373	373	375	375	379	381	381	381	378	373	370	366	371	374	380	382	382	392	392	388	391	395	398	398	400	395	383	379	377	378	388	393	397	402	401	399	391	384	384	383	384	382	378	378	381	381	381	382	380	385	388	383	378	384	388	386	387	396	398	400	400	395	395	394	392	391	395	394	390	387	383	381	381	380	379	381	384	387	375	372	371	382	385	384	378	378	378	380	381	381	385	385	385	385	378	380	377	373	367	365	374	374	374	383	377	386	383	377	374	374	378	380	385	386	378	372	382	384	380	378	372	366	373	373	378	383	377	379	382	388	389	391	388	379	374	375	380	382	378	376	373	372	372	373	374	375	380	384	384	381	384	383	384	385	375	375	378	379	376	372	374	375	381	383	384	388	389	387	379	377	369	371	364	364	362	370	368	360	356	354	352	352	351	363	372	365	366	361	359	360	360	361	356	352	356	365	370	370	369	367	365	366	374	375	368	366	365	366	368	368	366	363	358	355	349	349	346	345	344	346	342	340	341	339	347	346	347	348	352	352	353	353	350	347	340	340	341	338	338	341	342	344	343	345	347	347	351	350	347	343	343	339	333	329	336	347	341	334	334	330	346	345	326	322	323	325	322	330	328	329	329	330	331	328	329	330	330	331	330	328	328	329	333	338	333	331	333	333	330	335	335	330	323	320	321	317	317	326	332	332	332	333	330	326	326	326	327	331	331	333	336	341	339	335	339	336	336	331	329	318	320	328	335	333	333	330	328	330	342	345	345	345	342	341	340	339	326	327	327	327	329	328	329	330	329	329	329	327	328	328	332	331	331	330	336	340	339	334	334	333	335	341	340	340	340	340	339	339	338	331	330	330	329	324	323	323	323	322	322	323	322	325
