0	0	0	0	0	0	0	0	0	0	0	0	0	0	0	0	0	0	0	0	0	0	0	0	0	0	0	0	0	0	0	0	0	0	0	0	0	0	0	0	0	0	0	0	0	0	0	0	0	0	0	0	0	0	0	0	0	0	0	0	0	0	0	0	0	0	0	0	0	0	0	0	0	0	0	0	0	0	0	0	0	0	0	0	0	0	0	0	0	0	0	0	0	0	0	0	0	0	0	0	0	0	0	0	0	0	0	0	0	0	0	0	0	0	0	0	0	0	0	0	0	0	0	0	0	0	0	0	0	0	0	0	0	0	0	0	0	0	0	0	0	0	0	0	0	0	0	0	0	0	0	0	0	0	0	0	0	0	0	0	2494	2679	2740	2788	2827	2827	2836	2832	2814	2812	2799	2805	2840	2848	2857	2848	2841	2856	2863	2879	2860	2838	2800	2781	2768	2785	2815	2844	2868	2886	2865	2843	2843	2832	2834	2831	2829	2828	2821	2813	2816	2816	2803	2797	2802	2804	2807	2819	2832	2841	2841	2842	2858	2860	2862	2840	2821	2817	2821	2811	2804	2831	2844	2849	2845	2815	2822	2829	2844	2859	2866	2873	2867	2865	2866	2865	2862	2862	2856	2845	2849	2845	2839	2844	2860	2873	2880	2885	2874	2840	2805	2789	2782	2791	2801	2803	2817	2826	2838	2838	2856	2864	2874	2862	2853	2844	2848	2870	2864	2838	2815	2847	2856	2853	2831	2847	2852	2858	2880	2899	2912	2899	2904	2896	2890	2875	2878	2892	2907	2922	2935	2938	2916	2895	2888	2885	2897	2914	2921	2928	2919	2906	2902	2909	2896	2893	2891	2898	2893	2890	2886	2898	2886	2890	2888	2901	2922	2929	2937	2910	2903	2908	2921	2923	2920	2906	2903	2893	2886	2881	2881	2891	2893	2881	2894	2901	2890	2888	2894	2903	2917	2911	2893	2898	2896	2897	2902	2897	2885	2874	2881	2890	2899	2897	2869	2851	2854	2858	2872	2872	2872	2882	2885	2876	2870	2868	2880	2886	2911	2890	2911	2913	2918	2936	2945	2929	2911	2900	2890	2882	2880	2869	2869	2849	2825	2801	2790	2790	2799	2821	2859	2886	2916	2921	2934	2934	2946	2923	2913	2910	2896	2878	2877	2883	2906	2909	2927	2936	2930	2902	2888	2869	2867	2883	2897	2896	2908	2907	2911	2923	2923	2927	2923	2917	2898	2899	2884	2876	2855	2839	2852	2868	2887	2893	2908	2894	2884	2875	2873	2907	2907	2908	2929	2929	2912	2887	2881	2892	2893	2912	2933	2945	2950	2939	2920	2905	2891	2892	2895	2906	2909	2893	2875	2818	2770	2757	2757	2756	2694	0	0	0	0	0	0	0	0	0	0	0	0	0	0	0	0	0	0	0	0	0	0	0	0	0	0	0	0	0	0	0	0	0	0	0	0	0	0	0	0	0	0	0	0	0	0	0	0	0	0	0	0	0	0	0	0	0	0	0	0	0	0	0	0	0	0	0	0	0	0	0	0	0	0	0	0	0	0	0	0	0	0	0	0	0	0	0	0	0	0	0	0	0	0	0	0	0	0	0	0	0	0	0	0	0	0	0	0	0	0	0	0	0	0	0	0	0	0	0	0	0	0	0	0	0	0	0	0	0	0	0	0	0	0	0	0	0	0	0	0	0	0	0	0	0	0	0	0	0	0	0	0	0	0	0	0	0	0	0	0	0	0	0	0	0	0	0	0	0	0	0
0	0	0	0	0	0	0	0	0	0	0	0	0	0	0	0	0	0	0	0	0	0	0	0	0	0	0	0	0	0	0	0	0	0	0	0	0	0	0	0	0	0	0	0	0	0	0	0	0	0	0	0	0	0	0	0	0	0	0	0	0	0	0	0	0	0	0	0	0	0	0	0	0	0	0	0	0	0	0	0	0	0	0	0	0	0	0	0	0	0	0	0	0	0	0	0	0	0	0	0	0	0	0	0	0	0	0	0	0	0	0	0	0	0	0	0	0	0	0	0	0	0	0	0	0	0	0	0	0	0	0	0	0	0	0	0	0	0	0	0	0	0	0	0	0	0	0	0	0	0	0	0	0	0	0	0	0	0	0	0	2567	2740	2779	2798	2824	2824	2832	2819	2808	2808	2805	2833	2845	2840	2853	2858	2864	2873	2897	2896	2877	2845	2807	2793	2788	2796	2804	2824	2842	2852	2858	2852	2852	2857	2838	2834	2827	2821	2823	2814	2809	2790	2771	2777	2798	2817	2833	2840	2856	2841	2832	2835	2852	2874	2866	2856	2838	2817	2821	2826	2817	2832	2847	2860	2855	2832	2821	2809	2821	2842	2860	2862	2857	2841	2826	2833	2833	2838	2846	2848	2848	2842	2831	2830	2847	2858	2892	2871	2854	2830	2813	2814	2810	2819	2817	2828	2836	2819	2821	2821	2852	2866	2882	2885	2860	2863	2864	2872	2867	2837	2827	2834	2838	2835	2837	2841	2841	2850	2869	2890	2893	2872	2873	2878	2888	2876	2875	2889	2907	2926	2945	2948	2917	2902	2900	2905	2912	2914	2924	2923	2918	2905	2922	2914	2898	2888	2895	2904	2896	2900	2880	2883	2894	2899	2914	2919	2946	2934	2922	2915	2905	2904	2923	2911	2910	2904	2905	2892	2863	2854	2863	2880	2890	2895	2900	2910	2911	2915	2902	2913	2922	2932	2934	2923	2905	2893	2885	2882	2879	2877	2884	2894	2904	2882	2864	2823	2848	2864	2880	2889	2896	2902	2899	2889	2861	2854	2856	2863	2878	2882	2882	2902	2901	2907	2918	2912	2912	2911	2905	2899	2890	2890	2890	2867	2832	2800	2805	2805	2840	2836	2862	2891	2904	2921	2938	2938	2945	2936	2940	2935	2908	2882	2885	2896	2906	2914	2925	2927	2919	2911	2881	2885	2883	2883	2897	2915	2914	2912	2913	2899	2898	2898	2907	2909	2901	2895	2909	2904	2879	2858	2864	2862	2876	2887	2890	2889	2860	2852	2852	2860	2860	2900	2908	2905	2888	2872	2865	2874	2898	2914	2925	2935	2921	2934	2912	2904	2897	2905	2912	2916	2908	2907	2885	2830	2800	2780	2780	2768	2747	0	0	0	0	0	0	0	0	0	0	0	0	0	0	0	0	0	0	0	0	0	0	0	0	0	0	0	0	0	0	0	0	0	0	0	0	0	0	0	0	0	0	0	0	0	0	0	0	0	0	0	0	0	0	0	0	0	0	0	0	0	0	0	0	0	0	0	0	0	0	0	0	0	0	0	0	0	0	0	0	0	0	0	0	0	0	0	0	0	0	0	0	0	0	0	0	0	0	0	0	0	0	0	0	0	0	0	0	0	0	0	0	0	0	0	0	0	0	0	0	0	0	0	0	0	0	0	0	0	0	0	0	0	0	0	0	0	0	0	0	0	0	0	0	0	0	0	0	0	0	0	0	0	0	0	0	0	0	0	0	0	0	0	0	0	0	0	0	0	0	0
0	0	0	0	0	0	0	0	0	0	0	0	0	0	0	0	0	0	0	0	0	0	0	0	0	0	0	0	0	0	0	0	0	0	0	0	0	0	0	0	0	0	0	0	0	0	0	0	0	0	0	0	0	0	0	0	0	0	0	0	0	0	0	0	0	0	0	0	0	0	0	0	0	0	0	0	0	0	0	0	0	0	0	0	0	0	0	0	0	0	0	0	0	0	0	0	0	0	0	0	0	0	0	0	0	0	0	0	0	0	0	0	0	0	0	0	0	0	0	0	0	0	0	0	0	0	0	0	0	0	0	0	0	0	0	0	0	0	0	0	0	0	0	0	0	0	0	0	0	0	0	0	0	0	0	0	0	0	0	0	2608	2785	2806	2811	2822	2822	2821	2813	2823	2820	2824	2834	2841	2839	2842	2849	2853	2888	2906	2904	2887	2854	2839	2827	2815	2812	2801	2813	2808	2819	2836	2836	2863	2866	2842	2817	2814	2834	2829	2832	2816	2795	2771	2771	2789	2816	2838	2864	2877	2859	2822	2810	2822	2837	2852	2856	2838	2828	2839	2838	2846	2852	2850	2849	2836	2839	2821	2802	2800	2821	2834	2838	2839	2827	2810	2804	2804	2814	2841	2845	2853	2841	2821	2814	2816	2836	2842	2852	2855	2821	2807	2815	2823	2833	2838	2849	2857	2843	2837	2838	2859	2866	2877	2879	2876	2882	2880	2870	2867	2856	2836	2823	2813	2828	2831	2828	2830	2828	2842	2855	2850	2849	2852	2857	2871	2868	2871	2884	2910	2942	2963	2967	2925	2919	2912	2905	2902	2914	2939	2913	2897	2923	2931	2906	2889	2876	2882	2888	2890	2885	2890	2897	2902	2907	2902	2924	2941	2912	2919	2900	2913	2909	2922	2910	2907	2904	2905	2900	2878	2872	2881	2908	2910	2892	2886	2892	2923	2923	2914	2925	2936	2944	2986	2980	2942	2874	2858	2859	2864	2885	2880	2883	2894	2861	2851	2829	2839	2873	2895	2898	2899	2904	2909	2889	2864	2839	2845	2854	2874	2886	2888	2883	2884	2883	2886	2884	2899	2906	2920	2919	2917	2909	2891	2869	2846	2833	2842	2859	2862	2863	2861	2871	2900	2917	2924	2933	2933	2942	2946	2943	2933	2895	2892	2885	2898	2909	2923	2917	2904	2897	2898	2893	2895	2907	2915	2915	2906	2897	2898	2860	2856	2888	2909	2916	2921	2909	2917	2896	2895	2874	2858	2853	2872	2890	2898	2889	2852	2834	2828	2839	2839	2880	2898	2888	2863	2853	2860	2876	2887	2894	2910	2911	2913	2921	2894	2903	2918	2938	2948	2939	2924	2908	2878	2830	2800	2799	2796	2796	2817	0	0	0	0	0	0	0	0	0	0	0	0	0	0	0	0	0	0	0	0	0	0	0	0	0	0	0	0	0	0	0	0	0	0	0	0	0	0	0	0	0	0	0	0	0	0	0	0	0	0	0	0	0	0	0	0	0	0	0	0	0	0	0	0	0	0	0	0	0	0	0	0	0	0	0	0	0	0	0	0	0	0	0	0	0	0	0	0	0	0	0	0	0	0	0	0	0	0	0	0	0	0	0	0	0	0	0	0	0	0	0	0	0	0	0	0	0	0	0	0	0	0	0	0	0	0	0	0	0	0	0	0	0	0	0	0	0	0	0	0	0	0	0	0	0	0	0	0	0	0	0	0	0	0	0	0	0	0	0	0	0	0	0	0	0	0	0	0	0	0	0
0	0	0	0	0	0	0	0	0	0	0	0	0	0	0	0	0	0	0	0	0	0	0	0	0	0	0	0	0	0	0	0	0	0	0	0	0	0	0	0	0	0	0	0	0	0	0	0	0	0	0	0	0	0	0	0	0	0	0	0	0	0	0	0	0	0	0	0	0	0	0	0	0	0	0	0	0	0	0	0	0	0	0	0	0	0	0	0	0	0	0	0	0	0	0	0	0	0	0	0	0	0	0	0	0	0	0	0	0	0	0	0	0	0	0	0	0	0	0	0	0	0	0	0	0	0	0	0	0	0	0	0	0	0	0	0	0	0	0	0	0	0	0	0	0	0	0	0	0	0	0	0	0	0	0	0	0	0	0	0	0	2801	2829	2849	2848	2848	2834	2821	2830	2831	2837	2840	2833	2830	2825	2833	2850	2862	2880	2877	2848	2830	2843	2854	2848	2828	2802	2788	2783	2797	2836	2836	2866	2866	2836	2814	2818	2825	2817	2823	2829	2803	2789	2782	2792	2821	2847	2859	2844	2837	2821	2803	2793	2837	2852	2851	2840	2823	2824	2841	2859	2851	2850	2834	2834	2830	2829	2807	2773	2780	2796	2800	2822	2812	2796	2790	2790	2800	2833	2842	2848	2828	2792	2785	2787	2809	2810	2831	2835	2833	2818	2819	2841	2854	2867	2877	2878	2865	2865	2861	2859	2860	2857	2862	2885	2884	2870	2864	2868	2861	2854	2816	2810	2800	2816	2823	2811	2823	2822	2829	2831	2845	2854	2862	2871	2873	2877	2886	2907	2943	2956	2936	2925	2917	2922	2923	2915	2917	2921	2911	2906	2914	2925	2912	2898	2862	2868	2873	2871	2885	2904	2905	2901	2903	2912	2942	2944	2931	2906	2908	2914	2917	2904	2917	2917	2917	2912	2899	2883	2881	2909	2926	2932	2915	2899	2901	2930	2934	2909	2907	2918	2955	2978	2977	2942	2891	2859	2866	2889	2888	2881	2883	2862	2842	2828	2824	2857	2888	2891	2900	2902	2914	2916	2883	2871	2857	2851	2859	2879	2887	2895	2893	2881	2876	2868	2865	2882	2909	2919	2929	2928	2921	2888	2868	2863	2867	2880	2891	2881	2873	2864	2883	2905	2895	2901	2915	2915	2905	2946	2955	2943	2913	2890	2884	2902	2904	2907	2903	2886	2886	2889	2895	2898	2907	2917	2909	2906	2897	2868	2866	2878	2894	2924	2932	2912	2915	2930	2913	2893	2873	2859	2859	2879	2898	2900	2889	2869	2826	2817	2855	2863	2863	2876	2870	2860	2864	2884	2883	2888	2903	2912	2916	2919	2898	2898	2908	2949	2955	2952	2943	2921	2904	2855	2810	2822	2813	2821	2821	2882	0	0	0	0	0	0	0	0	0	0	0	0	0	0	0	0	0	0	0	0	0	0	0	0	0	0	0	0	0	0	0	0	0	0	0	0	0	0	0	0	0	0	0	0	0	0	0	0	0	0	0	0	0	0	0	0	0	0	0	0	0	0	0	0	0	0	0	0	0	0	0	0	0	0	0	0	0	0	0	0	0	0	0	0	0	0	0	0	0	0	0	0	0	0	0	0	0	0	0	0	0	0	0	0	0	0	0	0	0	0	0	0	0	0	0	0	0	0	0	0	0	0	0	0	0	0	0	0	0	0	0	0	0	0	0	0	0	0	0	0	0	0	0	0	0	0	0	0	0	0	0	0	0	0	0	0	0	0	0	0	0	0	0	0	0	0	0	0	0	0	0
0	0	0	0	0	0	0	0	0	0	0	0	0	0	0	0	0	0	0	0	0	0	0	0	0	0	0	0	0	0	0	0	0	0	0	0	0	0	0	0	0	0	0	0	0	0	0	0	0	0	0	0	0	0	0	0	0	0	0	0	0	0	0	0	0	0	0	0	0	0	0	0	0	0	0	0	0	0	0	0	0	0	0	0	0	0	0	0	0	0	0	0	0	0	0	0	0	0	0	0	0	0	0	0	0	0	0	0	0	0	0	0	0	0	0	0	0	0	0	0	0	0	0	0	0	0	0	0	0	0	0	0	0	0	0	0	0	0	0	0	0	0	0	0	0	0	0	0	0	0	0	0	0	0	0	0	0	0	0	0	0	2772	2834	2852	2852	2865	2854	2838	2830	2829	2832	2836	2820	2818	2818	2817	2823	2820	2824	2822	2801	2808	2826	2861	2855	2833	2798	2780	2761	2790	2832	2832	2865	2872	2843	2829	2801	2801	2807	2812	2834	2820	2814	2804	2815	2830	2835	2833	2828	2836	2825	2796	2793	2803	2820	2829	2821	2815	2808	2846	2860	2854	2830	2817	2824	2833	2833	2823	2802	2781	2790	2799	2805	2795	2787	2787	2782	2782	2812	2832	2826	2781	2775	2776	2784	2794	2816	2817	2814	2816	2825	2836	2847	2853	2838	2850	2858	2867	2867	2858	2847	2833	2843	2846	2863	2857	2848	2862	2856	2848	2851	2838	2802	2795	2812	2815	2839	2854	2823	2823	2828	2851	2860	2879	2865	2878	2885	2895	2897	2888	2886	2898	2911	2917	2927	2926	2934	2945	2929	2914	2916	2922	2937	2926	2909	2873	2865	2878	2873	2890	2910	2906	2902	2906	2937	2939	2926	2912	2909	2916	2915	2916	2905	2908	2914	2934	2924	2932	2919	2909	2935	2936	2945	2943	2926	2904	2924	2934	2931	2923	2929	2943	2949	2957	2931	2894	2878	2877	2877	2875	2872	2883	2861	2849	2823	2836	2873	2901	2891	2898	2906	2930	2907	2895	2882	2885	2861	2872	2890	2900	2887	2885	2893	2889	2885	2878	2900	2909	2902	2925	2931	2908	2869	2843	2850	2875	2892	2894	2883	2886	2888	2891	2906	2905	2898	2897	2897	2892	2919	2934	2923	2915	2887	2879	2891	2900	2904	2873	2860	2879	2901	2912	2915	2927	2913	2907	2873	2872	2868	2866	2910	2920	2932	2917	2922	2903	2909	2898	2867	2857	2868	2890	2904	2909	2908	2880	2861	2862	2858	2862	2857	2857	2857	2861	2868	2886	2918	2944	2939	2896	2897	2897	2905	2903	2895	2931	2957	2975	2963	2935	2899	2889	2829	2812	2835	2843	2861	2861	0	0	0	0	0	0	0	0	0	0	0	0	0	0	0	0	0	0	0	0	0	0	0	0	0	0	0	0	0	0	0	0	0	0	0	0	0	0	0	0	0	0	0	0	0	0	0	0	0	0	0	0	0	0	0	0	0	0	0	0	0	0	0	0	0	0	0	0	0	0	0	0	0	0	0	0	0	0	0	0	0	0	0	0	0	0	0	0	0	0	0	0	0	0	0	0	0	0	0	0	0	0	0	0	0	0	0	0	0	0	0	0	0	0	0	0	0	0	0	0	0	0	0	0	0	0	0	0	0	0	0	0	0	0	0	0	0	0	0	0	0	0	0	0	0	0	0	0	0	0	0	0	0	0	0	0	0	0	0	0	0	0	0	0	0	0	0	0	0	0	0	0
0	0	0	0	0	0	0	0	0	0	0	0	0	0	0	0	0	0	0	0	0	0	0	0	0	0	0	0	0	0	0	0	0	0	0	0	0	0	0	0	0	0	0	0	0	0	0	0	0	0	0	0	0	0	0	0	0	0	0	0	0	0	0	0	0	0	0	0	0	0	0	0	0	0	0	0	0	0	0	0	0	0	0	0	0	0	0	0	0	0	0	0	0	0	0	0	0	0	0	0	0	0	0	0	0	0	0	0	0	0	0	0	0	0	0	0	0	0	0	0	0	0	0	0	0	0	0	0	0	0	0	0	0	0	0	0	0	0	0	0	0	0	0	0	0	0	0	0	0	0	0	0	0	0	0	0	0	0	0	0	0	2733	2819	2840	2840	2853	2851	2844	2834	2832	2834	2833	2831	2821	2822	2816	2804	2782	2780	2789	2782	2793	2813	2827	2823	2814	2793	2779	2772	2802	2802	2821	2851	2866	2855	2845	2825	2801	2803	2825	2819	2814	2815	2811	2817	2837	2838	2834	2836	2849	2825	2796	2788	2777	2786	2805	2806	2804	2807	2825	2842	2833	2833	2828	2832	2828	2832	2839	2817	2813	2804	2804	2802	2816	2812	2812	2797	2780	2780	2798	2770	2747	2748	2767	2781	2795	2802	2793	2791	2793	2812	2827	2833	2825	2811	2796	2807	2818	2844	2855	2837	2821	2817	2823	2834	2854	2836	2845	2835	2820	2818	2822	2799	2808	2830	2839	2853	2861	2872	2853	2853	2863	2885	2900	2899	2884	2902	2916	2935	2912	2905	2910	2917	2924	2927	2944	2965	2966	2948	2925	2935	2937	2941	2931	2920	2909	2897	2896	2899	2908	2917	2902	2894	2909	2926	2933	2928	2923	2921	2923	2911	2940	2909	2901	2899	2916	2916	2918	2914	2917	2926	2920	2921	2933	2930	2922	2931	2934	2938	2927	2918	2933	2934	2929	2914	2897	2883	2884	2879	2882	2890	2898	2898	2854	2839	2850	2878	2898	2906	2911	2913	2915	2900	2902	2912	2901	2888	2887	2892	2907	2891	2910	2908	2908	2908	2916	2911	2910	2908	2908	2915	2888	2850	2825	2837	2868	2881	2888	2887	2882	2874	2894	2902	2905	2920	2903	2889	2889	2887	2883	2882	2888	2870	2867	2880	2888	2886	2875	2854	2863	2909	2924	2933	2935	2926	2893	2872	2874	2887	2901	2910	2920	2930	2913	2905	2906	2898	2881	2852	2843	2870	2891	2913	2919	2908	2883	2878	2888	2889	2886	2865	2865	2843	2868	2876	2898	2923	2942	2946	2915	2901	2903	2888	2884	2906	2927	2950	2953	2944	2919	2890	2882	2838	2797	2837	2848	2857	2857	0	0	0	0	0	0	0	0	0	0	0	0	0	0	0	0	0	0	0	0	0	0	0	0	0	0	0	0	0	0	0	0	0	0	0	0	0	0	0	0	0	0	0	0	0	0	0	0	0	0	0	0	0	0	0	0	0	0	0	0	0	0	0	0	0	0	0	0	0	0	0	0	0	0	0	0	0	0	0	0	0	0	0	0	0	0	0	0	0	0	0	0	0	0	0	0	0	0	0	0	0	0	0	0	0	0	0	0	0	0	0	0	0	0	0	0	0	0	0	0	0	0	0	0	0	0	0	0	0	0	0	0	0	0	0	0	0	0	0	0	0	0	0	0	0	0	0	0	0	0	0	0	0	0	0	0	0	0	0	0	0	0	0	0	0	0	0	0	0	0	0	0
0	0	0	0	0	0	0	0	0	0	0	0	0	0	0	0	0	0	0	0	0	0	0	0	0	0	0	0	0	0	0	0	0	0	0	0	0	0	0	0	0	0	0	0	0	0	0	0	0	0	0	0	0	0	0	0	0	0	0	0	0	0	0	0	0	0	0	0	0	0	0	0	0	0	0	0	0	0	0	0	0	0	0	0	0	0	0	0	0	0	0	0	0	0	0	0	0	0	0	0	0	0	0	0	0	0	0	0	0	0	0	0	0	0	0	0	0	0	0	0	0	0	0	0	0	0	0	0	0	0	0	0	0	0	0	0	0	0	0	0	0	0	0	0	0	0	0	0	0	0	0	0	0	0	0	0	0	0	0	0	0	2689	2819	2849	2849	2868	2856	2861	2848	2833	2831	2845	2847	2829	2824	2818	2795	2774	2766	2760	2792	2806	2802	2797	2791	2787	2771	2773	2794	2811	2811	2824	2837	2843	2854	2848	2837	2803	2804	2812	2813	2814	2815	2805	2794	2817	2823	2832	2836	2849	2852	2816	2776	2767	2771	2786	2810	2809	2821	2830	2826	2821	2822	2837	2840	2850	2847	2842	2841	2834	2829	2826	2818	2816	2816	2817	2798	2789	2778	2771	2748	2737	2744	2773	2797	2799	2793	2790	2783	2806	2831	2817	2808	2787	2778	2783	2777	2799	2819	2827	2828	2824	2822	2826	2832	2846	2832	2818	2809	2785	2785	2798	2810	2826	2843	2859	2876	2875	2871	2879	2880	2876	2895	2906	2903	2881	2893	2917	2933	2930	2908	2920	2929	2935	2938	2936	2946	2952	2932	2932	2944	2943	2935	2931	2912	2912	2919	2907	2914	2922	2915	2914	2894	2907	2923	2935	2938	2945	2935	2922	2919	2938	2935	2909	2898	2906	2906	2902	2916	2927	2928	2920	2930	2946	2944	2943	2923	2934	2934	2916	2921	2923	2919	2922	2917	2906	2893	2892	2896	2912	2928	2921	2912	2872	2869	2873	2880	2881	2881	2889	2880	2893	2902	2886	2899	2923	2917	2905	2886	2905	2911	2904	2895	2905	2912	2918	2910	2904	2904	2909	2916	2876	2824	2804	2828	2869	2873	2880	2878	2871	2872	2877	2886	2902	2906	2894	2879	2879	2859	2854	2846	2855	2847	2853	2864	2870	2873	2861	2846	2856	2882	2922	2935	2939	2922	2879	2876	2879	2882	2917	2938	2935	2930	2915	2906	2898	2896	2890	2865	2867	2862	2885	2906	2917	2914	2906	2906	2915	2928	2910	2876	2876	2848	2862	2880	2903	2915	2928	2934	2904	2878	2892	2890	2905	2898	2905	2922	2928	2940	2923	2911	2903	2867	2792	2783	2806	2832	0	0	0	0	0	0	0	0	0	0	0	0	0	0	0	0	0	0	0	0	0	0	0	0	0	0	0	0	0	0	0	0	0	0	0	0	0	0	0	0	0	0	0	0	0	0	0	0	0	0	0	0	0	0	0	0	0	0	0	0	0	0	0	0	0	0	0	0	0	0	0	0	0	0	0	0	0	0	0	0	0	0	0	0	0	0	0	0	0	0	0	0	0	0	0	0	0	0	0	0	0	0	0	0	0	0	0	0	0	0	0	0	0	0	0	0	0	0	0	0	0	0	0	0	0	0	0	0	0	0	0	0	0	0	0	0	0	0	0	0	0	0	0	0	0	0	0	0	0	0	0	0	0	0	0	0	0	0	0	0	0	0	0	0	0	0	0	0	0	0	0	0	0
0	0	0	0	0	0	0	0	0	0	0	0	0	0	0	0	0	0	0	0	0	0	0	0	0	0	0	0	0	0	0	0	0	0	0	0	0	0	0	0	0	0	0	0	0	0	0	0	0	0	0	0	0	0	0	0	0	0	0	0	0	0	0	0	0	0	0	0	0	0	0	0	0	0	0	0	0	0	0	0	0	0	0	0	0	0	0	0	0	0	0	0	0	0	0	0	0	0	0	0	0	0	0	0	0	0	0	0	0	0	0	0	0	0	0	0	0	0	0	0	0	0	0	0	0	0	0	0	0	0	0	0	0	0	0	0	0	0	0	0	0	0	0	0	0	0	0	0	0	0	0	0	0	0	0	0	0	0	0	0	0	2686	2792	2816	2816	2869	2867	2858	2835	2827	2832	2849	2853	2816	2809	2814	2807	2776	2758	2765	2789	2800	2795	2779	2776	2764	2773	2777	2794	2799	2799	2820	2829	2831	2838	2844	2830	2810	2814	2821	2820	2822	2825	2793	2797	2816	2823	2832	2846	2849	2842	2814	2770	2767	2785	2807	2826	2826	2835	2829	2827	2823	2826	2835	2855	2882	2878	2863	2852	2848	2827	2826	2808	2816	2816	2817	2811	2815	2817	2807	2776	2756	2749	2769	2786	2801	2822	2806	2828	2839	2843	2822	2782	2759	2780	2780	2782	2796	2809	2806	2797	2822	2832	2839	2850	2841	2816	2799	2785	2780	2775	2788	2825	2838	2851	2870	2865	2862	2863	2875	2889	2883	2884	2894	2877	2885	2892	2910	2914	2917	2898	2915	2923	2928	2931	2932	2938	2936	2932	2938	2936	2940	2929	2921	2906	2918	2920	2925	2928	2929	2918	2905	2876	2892	2916	2939	2951	2954	2948	2922	2900	2896	2929	2910	2900	2913	2923	2927	2932	2923	2935	2936	2927	2944	2943	2926	2923	2936	2937	2932	2915	2919	2919	2924	2921	2915	2907	2900	2906	2915	2932	2925	2913	2901	2885	2892	2888	2877	2865	2862	2867	2874	2883	2881	2893	2926	2923	2905	2896	2890	2885	2882	2880	2889	2897	2902	2898	2899	2913	2925	2929	2890	2855	2826	2838	2873	2879	2873	2864	2865	2849	2863	2873	2888	2902	2899	2867	2840	2840	2823	2816	2817	2828	2856	2892	2891	2874	2862	2866	2872	2868	2904	2929	2913	2893	2874	2864	2871	2892	2915	2949	2947	2932	2915	2906	2880	2889	2892	2893	2872	2857	2859	2888	2885	2899	2904	2922	2929	2930	2907	2875	2865	2865	2883	2879	2899	2896	2895	2891	2873	2872	2873	2888	2919	2919	2908	2899	2919	2929	2931	2938	2920	2888	2788	2760	2786	2801	2774	2774	0	0	0	0	0	0	0	0	0	0	0	0	0	0	0	0	0	0	0	0	0	0	0	0	0	0	0	0	0	0	0	0	0	0	0	0	0	0	0	0	0	0	0	0	0	0	0	0	0	0	0	0	0	0	0	0	0	0	0	0	0	0	0	0	0	0	0	0	0	0	0	0	0	0	0	0	0	0	0	0	0	0	0	0	0	0	0	0	0	0	0	0	0	0	0	0	0	0	0	0	0	0	0	0	0	0	0	0	0	0	0	0	0	0	0	0	0	0	0	0	0	0	0	0	0	0	0	0	0	0	0	0	0	0	0	0	0	0	0	0	0	0	0	0	0	0	0	0	0	0	0	0	0	0	0	0	0	0	0	0	0	0	0	0	0	0	0	0	0	0	0
0	0	0	0	0	0	0	0	0	0	0	0	0	0	0	0	0	0	0	0	0	0	0	0	0	0	0	0	0	0	0	0	0	0	0	0	0	0	0	0	0	0	0	0	0	0	0	0	0	0	0	0	0	0	0	0	0	0	0	0	0	0	0	0	0	0	0	0	0	0	0	0	0	0	0	0	0	0	0	0	0	0	0	0	0	0	0	0	0	0	0	0	0	0	0	0	0	0	0	0	0	0	0	0	0	0	0	0	0	0	0	0	0	0	0	0	0	0	0	0	0	0	0	0	0	0	0	0	0	0	0	0	0	0	0	0	0	0	0	0	0	0	0	0	0	0	0	0	0	0	0	0	0	0	0	0	0	0	0	0	0	2668	2750	2750	2838	2857	2863	2857	2831	2817	2827	2843	2817	2807	2800	2818	2807	2788	2773	2784	2806	2800	2808	2797	2793	2793	2794	2799	2795	2798	2798	2807	2824	2823	2839	2835	2832	2814	2800	2811	2831	2847	2843	2836	2838	2816	2841	2846	2848	2843	2831	2799	2776	2773	2794	2823	2843	2848	2855	2844	2823	2811	2816	2847	2881	2905	2895	2863	2836	2827	2813	2802	2777	2806	2806	2814	2814	2822	2833	2822	2811	2792	2772	2783	2791	2824	2839	2831	2847	2847	2841	2799	2778	2775	2788	2800	2795	2795	2814	2816	2813	2823	2837	2854	2862	2842	2823	2802	2798	2797	2798	2807	2833	2830	2866	2877	2854	2853	2866	2885	2888	2878	2875	2871	2860	2889	2899	2904	2909	2904	2887	2906	2917	2932	2936	2933	2930	2927	2927	2911	2916	2919	2904	2902	2915	2920	2932	2955	2942	2923	2919	2887	2863	2889	2904	2943	2942	2947	2939	2914	2893	2892	2908	2924	2917	2919	2937	2933	2926	2929	2915	2943	2946	2957	2920	2900	2891	2894	2932	2917	2910	2917	2914	2907	2904	2895	2897	2895	2890	2880	2885	2916	2910	2901	2892	2882	2893	2878	2869	2872	2878	2879	2888	2870	2872	2903	2896	2896	2887	2872	2858	2856	2868	2879	2891	2899	2897	2896	2917	2933	2929	2902	2877	2846	2857	2871	2874	2867	2858	2847	2842	2850	2864	2890	2894	2889	2878	2848	2848	2815	2800	2806	2820	2861	2906	2895	2867	2854	2863	2871	2886	2907	2912	2897	2867	2848	2854	2879	2883	2913	2926	2942	2931	2914	2892	2880	2889	2866	2878	2875	2867	2853	2851	2862	2875	2893	2918	2927	2907	2866	2856	2877	2877	2886	2886	2874	2871	2886	2869	2854	2859	2872	2904	2931	2926	2911	2894	2907	2913	2924	2926	2915	2889	2785	2761	2777	2827	2779	2779	0	0	0	0	0	0	0	0	0	0	0	0	0	0	0	0	0	0	0	0	0	0	0	0	0	0	0	0	0	0	0	0	0	0	0	0	0	0	0	0	0	0	0	0	0	0	0	0	0	0	0	0	0	0	0	0	0	0	0	0	0	0	0	0	0	0	0	0	0	0	0	0	0	0	0	0	0	0	0	0	0	0	0	0	0	0	0	0	0	0	0	0	0	0	0	0	0	0	0	0	0	0	0	0	0	0	0	0	0	0	0	0	0	0	0	0	0	0	0	0	0	0	0	0	0	0	0	0	0	0	0	0	0	0	0	0	0	0	0	0	0	0	0	0	0	0	0	0	0	0	0	0	0	0	0	0	0	0	0	0	0	0	0	0	0	0	0	0	0	0	0
0	0	0	0	0	0	0	0	0	0	0	0	0	0	0	0	0	0	0	0	0	0	0	0	0	0	0	0	0	0	0	0	0	0	0	0	0	0	0	0	0	0	0	0	0	0	0	0	0	0	0	0	0	0	0	0	0	0	0	0	0	0	0	0	0	0	0	0	0	0	0	0	0	0	0	0	0	0	0	0	0	0	0	0	0	0	0	0	0	0	0	0	0	0	0	0	0	0	0	0	0	0	0	0	0	0	0	0	0	0	0	0	0	0	0	0	0	0	0	0	0	0	0	0	0	0	0	0	0	0	0	0	0	0	0	0	0	0	0	0	0	0	0	0	0	0	0	0	0	0	0	0	0	0	0	0	0	0	0	0	0	2663	2727	2727	2818	2849	2856	2854	2833	2820	2810	2811	2798	2784	2802	2813	2807	2802	2794	2813	2841	2838	2842	2828	2833	2823	2807	2803	2793	2793	2796	2812	2824	2826	2831	2825	2823	2804	2794	2805	2821	2849	2858	2836	2838	2836	2832	2822	2826	2835	2830	2803	2773	2778	2799	2826	2849	2855	2875	2863	2829	2804	2821	2839	2867	2886	2881	2841	2819	2806	2801	2789	2781	2781	2812	2815	2823	2826	2838	2846	2849	2824	2812	2800	2812	2817	2824	2823	2832	2841	2829	2799	2793	2807	2816	2790	2796	2805	2820	2840	2855	2841	2837	2860	2865	2857	2845	2820	2819	2825	2820	2838	2830	2861	2901	2893	2868	2855	2867	2875	2858	2861	2869	2883	2878	2886	2906	2912	2912	2897	2897	2906	2923	2937	2943	2943	2926	2928	2906	2898	2898	2894	2882	2883	2909	2932	2949	2952	2948	2935	2928	2895	2861	2900	2910	2923	2924	2931	2895	2892	2896	2892	2900	2918	2915	2925	2941	2944	2939	2936	2925	2918	2929	2953	2914	2901	2896	2904	2919	2905	2895	2904	2910	2895	2874	2870	2869	2871	2858	2863	2891	2909	2911	2895	2880	2888	2882	2898	2883	2882	2887	2900	2902	2867	2848	2867	2875	2867	2846	2830	2827	2844	2860	2879	2896	2892	2882	2876	2888	2920	2899	2869	2861	2870	2877	2891	2873	2869	2849	2842	2845	2851	2870	2885	2870	2873	2854	2830	2830	2827	2797	2812	2807	2855	2899	2882	2854	2836	2854	2861	2879	2898	2905	2883	2866	2844	2853	2874	2873	2896	2900	2900	2903	2896	2873	2852	2843	2866	2878	2871	2867	2840	2825	2841	2863	2893	2909	2907	2874	2824	2841	2857	2857	2874	2872	2858	2872	2882	2867	2850	2867	2856	2852	2867	2884	2899	2891	2905	2903	2912	2907	2890	2864	2804	2777	2814	2841	2785	2785	0	0	0	0	0	0	0	0	0	0	0	0	0	0	0	0	0	0	0	0	0	0	0	0	0	0	0	0	0	0	0	0	0	0	0	0	0	0	0	0	0	0	0	0	0	0	0	0	0	0	0	0	0	0	0	0	0	0	0	0	0	0	0	0	0	0	0	0	0	0	0	0	0	0	0	0	0	0	0	0	0	0	0	0	0	0	0	0	0	0	0	0	0	0	0	0	0	0	0	0	0	0	0	0	0	0	0	0	0	0	0	0	0	0	0	0	0	0	0	0	0	0	0	0	0	0	0	0	0	0	0	0	0	0	0	0	0	0	0	0	0	0	0	0	0	0	0	0	0	0	0	0	0	0	0	0	0	0	0	0	0	0	0	0	0	0	0	0	0	0	0
0	0	0	0	0	0	0	0	0	0	0	0	0	0	0	0	0	0	0	0	0	0	0	0	0	0	0	0	0	0	0	0	0	0	0	0	0	0	0	0	0	0	0	0	0	0	0	0	0	0	0	0	0	0	0	0	0	0	0	0	0	0	0	0	0	0	0	0	0	0	0	0	0	0	0	0	0	0	0	0	0	0	0	0	0	0	0	0	0	0	0	0	0	0	0	0	0	0	0	0	0	0	0	0	0	0	0	0	0	0	0	0	0	0	0	0	0	0	0	0	0	0	0	0	0	0	0	0	0	0	0	0	0	0	0	0	0	0	0	0	0	0	0	0	0	0	0	0	0	0	0	0	0	0	0	0	0	0	0	0	0	2698	2749	2749	2815	2843	2859	2864	2835	2818	2799	2784	2789	2786	2793	2805	2806	2805	2808	2830	2862	2878	2868	2849	2847	2838	2819	2797	2792	2792	2794	2814	2817	2817	2816	2815	2801	2796	2797	2801	2823	2849	2858	2853	2843	2837	2815	2818	2827	2849	2857	2833	2806	2794	2804	2825	2855	2871	2878	2837	2823	2810	2813	2823	2841	2856	2849	2824	2820	2812	2810	2804	2813	2813	2822	2826	2828	2832	2843	2857	2846	2829	2828	2833	2826	2811	2804	2796	2808	2795	2800	2806	2805	2819	2816	2813	2806	2803	2841	2859	2860	2844	2837	2852	2860	2862	2846	2837	2817	2835	2841	2876	2889	2905	2921	2903	2888	2874	2860	2867	2856	2855	2879	2895	2901	2905	2912	2918	2912	2882	2895	2914	2933	2946	2954	2948	2920	2906	2910	2914	2904	2889	2883	2891	2897	2928	2943	2948	2929	2939	2934	2911	2870	2886	2900	2925	2918	2926	2904	2908	2912	2914	2915	2910	2904	2915	2941	2940	2945	2942	2926	2925	2915	2941	2935	2929	2933	2927	2917	2899	2883	2871	2878	2868	2844	2856	2864	2875	2860	2865	2874	2910	2914	2873	2845	2888	2893	2891	2888	2888	2894	2903	2900	2849	2845	2838	2838	2845	2831	2827	2825	2850	2865	2882	2889	2893	2873	2885	2879	2889	2867	2851	2841	2859	2875	2897	2897	2887	2874	2862	2859	2859	2872	2867	2858	2851	2845	2837	2832	2832	2809	2819	2816	2848	2890	2885	2854	2830	2834	2858	2883	2891	2904	2888	2867	2861	2868	2877	2875	2880	2877	2870	2874	2872	2848	2812	2808	2816	2859	2871	2867	2833	2834	2839	2855	2886	2898	2880	2856	2837	2840	2851	2851	2860	2858	2872	2902	2935	2956	2903	2857	2828	2818	2846	2878	2903	2894	2904	2898	2895	2883	2863	2861	2819	2805	2844	2860	2805	0	0	0	0	0	0	0	0	0	0	0	0	0	0	0	0	0	0	0	0	0	0	0	0	0	0	0	0	0	0	0	0	0	0	0	0	0	0	0	0	0	0	0	0	0	0	0	0	0	0	0	0	0	0	0	0	0	0	0	0	0	0	0	0	0	0	0	0	0	0	0	0	0	0	0	0	0	0	0	0	0	0	0	0	0	0	0	0	0	0	0	0	0	0	0	0	0	0	0	0	0	0	0	0	0	0	0	0	0	0	0	0	0	0	0	0	0	0	0	0	0	0	0	0	0	0	0	0	0	0	0	0	0	0	0	0	0	0	0	0	0	0	0	0	0	0	0	0	0	0	0	0	0	0	0	0	0	0	0	0	0	0	0	0	0	0	0	0	0	0	0	0
0	0	0	0	0	0	0	0	0	0	0	0	0	0	0	0	0	0	0	0	0	0	0	0	0	0	0	0	0	0	0	0	0	0	0	0	0	0	0	0	0	0	0	0	0	0	0	0	0	0	0	0	0	0	0	0	0	0	0	0	0	0	0	0	0	0	0	0	0	0	0	0	0	0	0	0	0	0	0	0	0	0	0	0	0	0	0	0	0	0	0	0	0	0	0	0	0	0	0	0	0	0	0	0	0	0	0	0	0	0	0	0	0	0	0	0	0	0	0	0	0	0	0	0	0	0	0	0	0	0	0	0	0	0	0	0	0	0	0	0	0	0	0	0	0	0	0	0	0	0	0	0	0	0	0	0	0	0	0	0	0	2730	2781	2781	2821	2854	2862	2862	2839	2814	2783	2772	2776	2791	2797	2803	2803	2809	2815	2837	2861	2862	2862	2848	2833	2817	2798	2786	2771	2771	2777	2802	2803	2795	2799	2801	2799	2795	2797	2801	2823	2838	2845	2849	2831	2814	2803	2819	2842	2870	2877	2854	2837	2818	2812	2834	2885	2888	2855	2824	2802	2793	2795	2821	2821	2828	2833	2821	2804	2801	2789	2799	2827	2827	2838	2842	2834	2846	2855	2854	2844	2834	2828	2825	2831	2821	2810	2781	2761	2768	2784	2804	2828	2846	2828	2831	2845	2838	2851	2869	2861	2846	2839	2848	2852	2839	2833	2820	2811	2819	2829	2886	2918	2923	2919	2914	2900	2880	2870	2860	2834	2858	2882	2915	2927	2914	2910	2889	2901	2897	2902	2906	2930	2947	2953	2940	2905	2899	2905	2908	2903	2904	2907	2904	2909	2926	2943	2940	2921	2931	2931	2903	2878	2874	2952	2934	2929	2934	2933	2920	2921	2915	2913	2918	2897	2906	2917	2939	2934	2941	2927	2923	2931	2952	2942	2941	2945	2944	2931	2904	2881	2853	2843	2841	2847	2857	2865	2871	2885	2890	2904	2919	2901	2855	2828	2880	2880	2880	2884	2887	2889	2893	2868	2850	2825	2816	2822	2844	2841	2837	2835	2862	2878	2887	2896	2891	2898	2895	2882	2868	2838	2826	2825	2850	2874	2888	2893	2887	2880	2870	2874	2879	2866	2844	2838	2830	2809	2816	2839	2839	2837	2832	2838	2863	2888	2879	2869	2857	2845	2862	2875	2886	2889	2884	2875	2886	2888	2890	2880	2874	2860	2836	2840	2824	2834	2803	2800	2828	2846	2846	2853	2833	2822	2826	2842	2855	2868	2861	2862	2862	2862	2863	2863	2863	2873	2876	2897	2926	2946	2959	2864	2833	2821	2843	2866	2897	2882	2874	2875	2863	2858	2859	2878	2849	2839	2860	2862	0	0	0	0	0	0	0	0	0	0	0	0	0	0	0	0	0	0	0	0	0	0	0	0	0	0	0	0	0	0	0	0	0	0	0	0	0	0	0	0	0	0	0	0	0	0	0	0	0	0	0	0	0	0	0	0	0	0	0	0	0	0	0	0	0	0	0	0	0	0	0	0	0	0	0	0	0	0	0	0	0	0	0	0	0	0	0	0	0	0	0	0	0	0	0	0	0	0	0	0	0	0	0	0	0	0	0	0	0	0	0	0	0	0	0	0	0	0	0	0	0	0	0	0	0	0	0	0	0	0	0	0	0	0	0	0	0	0	0	0	0	0	0	0	0	0	0	0	0	0	0	0	0	0	0	0	0	0	0	0	0	0	0	0	0	0	0	0	0	0	0	0	0
0	0	0	0	0	0	0	0	0	0	0	0	0	0	0	0	0	0	0	0	0	0	0	0	0	0	0	0	0	0	0	0	0	0	0	0	0	0	0	0	0	0	0	0	0	0	0	0	0	0	0	0	0	0	0	0	0	0	0	0	0	0	0	0	0	0	0	0	0	0	0	0	0	0	0	0	0	0	0	0	0	0	0	0	0	0	0	0	0	0	0	0	0	0	0	0	0	0	0	0	0	0	0	0	0	0	0	0	0	0	0	0	0	0	0	0	0	0	0	0	0	0	0	0	0	0	0	0	0	0	0	0	0	0	0	0	0	0	0	0	0	0	0	0	0	0	0	0	0	0	0	0	0	0	0	0	0	0	0	0	0	2754	2813	2813	2828	2844	2858	2861	2836	2813	2798	2780	2774	2788	2791	2802	2823	2829	2833	2836	2842	2851	2842	2823	2810	2798	2785	2775	2767	2767	2792	2794	2785	2776	2778	2796	2802	2795	2797	2812	2829	2838	2836	2832	2808	2806	2809	2829	2855	2880	2890	2879	2865	2825	2809	2830	2875	2874	2851	2803	2805	2807	2824	2824	2828	2813	2820	2810	2791	2781	2786	2809	2809	2837	2848	2844	2850	2856	2854	2848	2827	2821	2824	2841	2835	2839	2824	2811	2780	2761	2765	2788	2817	2839	2844	2850	2874	2882	2890	2885	2871	2856	2851	2850	2846	2834	2814	2809	2790	2805	2815	2870	2908	2903	2909	2905	2902	2876	2862	2849	2835	2858	2885	2910	2919	2909	2897	2900	2885	2901	2904	2915	2932	2940	2940	2927	2893	2882	2884	2905	2907	2910	2921	2921	2924	2932	2939	2926	2919	2917	2905	2917	2886	2893	2932	2934	2935	2923	2930	2956	2934	2926	2906	2900	2896	2903	2927	2929	2919	2919	2919	2918	2920	2935	2933	2932	2945	2944	2942	2921	2902	2860	2826	2840	2857	2881	2883	2883	2909	2937	2931	2914	2899	2865	2850	2855	2856	2866	2863	2871	2873	2854	2839	2821	2826	2821	2836	2849	2839	2842	2854	2865	2873	2881	2889	2887	2879	2882	2870	2850	2829	2819	2825	2849	2851	2871	2880	2877	2877	2887	2889	2884	2881	2839	2839	2823	2798	2806	2832	2832	2831	2835	2835	2856	2869	2870	2886	2888	2884	2873	2861	2867	2864	2857	2866	2887	2897	2890	2882	2878	2868	2851	2836	2833	2836	2846	2831	2829	2823	2841	2831	2836	2822	2826	2822	2839	2856	2859	2870	2872	2876	2876	2869	2869	2855	2842	2856	2886	2933	2939	2897	2854	2865	2867	2877	2868	2875	2869	2849	2843	2854	2856	2877	2870	2847	2847	2843	0	0	0	0	0	0	0	0	0	0	0	0	0	0	0	0	0	0	0	0	0	0	0	0	0	0	0	0	0	0	0	0	0	0	0	0	0	0	0	0	0	0	0	0	0	0	0	0	0	0	0	0	0	0	0	0	0	0	0	0	0	0	0	0	0	0	0	0	0	0	0	0	0	0	0	0	0	0	0	0	0	0	0	0	0	0	0	0	0	0	0	0	0	0	0	0	0	0	0	0	0	0	0	0	0	0	0	0	0	0	0	0	0	0	0	0	0	0	0	0	0	0	0	0	0	0	0	0	0	0	0	0	0	0	0	0	0	0	0	0	0	0	0	0	0	0	0	0	0	0	0	0	0	0	0	0	0	0	0	0	0	0	0	0	0	0	0	0	0	0	0	0	0
0	0	0	0	0	0	0	0	0	0	0	0	0	0	0	0	0	0	0	0	0	0	0	0	0	0	0	0	0	0	0	0	0	0	0	0	0	0	0	0	0	0	0	0	0	0	0	0	0	0	0	0	0	0	0	0	0	0	0	0	0	0	0	0	0	0	0	0	0	0	0	0	0	0	0	0	0	0	0	0	0	0	0	0	0	0	0	0	0	0	0	0	0	0	0	0	0	0	0	0	0	0	0	0	0	0	0	0	0	0	0	0	0	0	0	0	0	0	0	0	0	0	0	0	0	0	0	0	0	0	0	0	0	0	0	0	0	0	0	0	0	0	0	0	0	0	0	0	0	0	0	0	0	0	0	0	0	0	0	0	0	2746	2746	2830	2824	2830	2848	2861	2849	2844	2826	2808	2795	2797	2807	2833	2850	2865	2862	2851	2826	2807	2814	2811	2807	2798	2787	2785	2785	2790	2795	2783	2782	2771	2767	2796	2802	2811	2805	2824	2834	2816	2805	2783	2788	2804	2822	2844	2868	2889	2901	2887	2851	2795	2782	2799	2857	2852	2837	2812	2812	2817	2828	2831	2832	2826	2812	2793	2786	2792	2807	2830	2830	2855	2855	2832	2845	2853	2845	2835	2824	2822	2828	2837	2849	2857	2847	2834	2795	2769	2774	2780	2791	2812	2837	2863	2877	2896	2894	2881	2880	2875	2860	2839	2831	2826	2818	2813	2789	2801	2817	2851	2879	2877	2887	2898	2902	2874	2852	2839	2837	2841	2874	2893	2902	2897	2894	2889	2880	2908	2920	2921	2927	2920	2911	2905	2877	2872	2884	2888	2896	2914	2917	2922	2920	2928	2928	2925	2904	2902	2903	2931	2906	2906	2905	2913	2896	2926	2918	2932	2936	2911	2907	2912	2895	2895	2919	2940	2917	2914	2909	2909	2919	2921	2913	2909	2909	2923	2937	2929	2916	2911	2879	2866	2877	2889	2885	2883	2901	2931	2918	2912	2909	2888	2855	2838	2841	2844	2856	2864	2859	2834	2818	2786	2783	2799	2817	2839	2843	2852	2856	2868	2875	2870	2881	2876	2888	2867	2829	2809	2810	2820	2831	2840	2841	2853	2861	2857	2864	2878	2870	2868	2862	2868	2827	2816	2816	2807	2827	2833	2833	2846	2855	2859	2841	2847	2878	2904	2889	2880	2863	2849	2831	2831	2853	2862	2864	2862	2872	2878	2868	2856	2837	2827	2837	2849	2849	2830	2825	2825	2818	2834	2835	2831	2822	2839	2833	2849	2861	2868	2852	2843	2831	2831	2810	2799	2799	2830	2854	2884	2902	2903	2899	2883	2869	2839	2832	2826	2822	2848	2846	2853	2868	2861	2810	2795	2815	0	0	0	0	0	0	0	0	0	0	0	0	0	0	0	0	0	0	0	0	0	0	0	0	0	0	0	0	0	0	0	0	0	0	0	0	0	0	0	0	0	0	0	0	0	0	0	0	0	0	0	0	0	0	0	0	0	0	0	0	0	0	0	0	0	0	0	0	0	0	0	0	0	0	0	0	0	0	0	0	0	0	0	0	0	0	0	0	0	0	0	0	0	0	0	0	0	0	0	0	0	0	0	0	0	0	0	0	0	0	0	0	0	0	0	0	0	0	0	0	0	0	0	0	0	0	0	0	0	0	0	0	0	0	0	0	0	0	0	0	0	0	0	0	0	0	0	0	0	0	0	0	0	0	0	0	0	0	0	0	0	0	0	0	0	0	0	0	0	0	0	0	0
0	0	0	0	0	0	0	0	0	0	0	0	0	0	0	0	0	0	0	0	0	0	0	0	0	0	0	0	0	0	0	0	0	0	0	0	0	0	0	0	0	0	0	0	0	0	0	0	0	0	0	0	0	0	0	0	0	0	0	0	0	0	0	0	0	0	0	0	0	0	0	0	0	0	0	0	0	0	0	0	0	0	0	0	0	0	0	0	0	0	0	0	0	0	0	0	0	0	0	0	0	0	0	0	0	0	0	0	0	0	0	0	0	0	0	0	0	0	0	0	0	0	0	0	0	0	0	0	0	0	0	0	0	0	0	0	0	0	0	0	0	0	0	0	0	0	0	0	0	0	0	0	0	0	0	0	0	0	0	0	0	2731	2731	2810	2809	2831	2847	2861	2869	2854	2851	2824	2814	2806	2825	2846	2856	2867	2861	2844	2814	2803	2810	2815	2817	2809	2809	2798	2798	2793	2789	2780	2772	2771	2767	2786	2797	2822	2816	2819	2810	2785	2768	2769	2781	2811	2851	2879	2888	2903	2910	2893	2830	2787	2761	2769	2810	2819	2833	2834	2816	2824	2826	2828	2840	2833	2823	2819	2820	2819	2830	2844	2844	2855	2840	2847	2848	2842	2833	2814	2821	2832	2833	2832	2841	2855	2860	2855	2822	2806	2791	2785	2786	2804	2815	2840	2861	2870	2873	2865	2851	2839	2839	2836	2816	2824	2814	2803	2781	2780	2810	2837	2870	2882	2888	2911	2905	2880	2870	2848	2830	2829	2827	2862	2883	2889	2876	2872	2893	2906	2911	2911	2906	2902	2900	2884	2872	2896	2881	2886	2893	2911	2918	2915	2926	2925	2913	2916	2896	2892	2903	2903	2936	2938	2910	2894	2874	2923	2899	2907	2898	2895	2894	2884	2883	2891	2912	2931	2917	2914	2919	2922	2926	2904	2903	2895	2907	2927	2931	2906	2911	2917	2920	2902	2902	2886	2871	2883	2881	2878	2884	2893	2888	2890	2855	2819	2785	2810	2831	2845	2856	2836	2808	2801	2787	2802	2815	2822	2847	2843	2847	2838	2859	2864	2851	2846	2859	2854	2829	2811	2806	2816	2830	2829	2837	2835	2841	2833	2845	2843	2834	2862	2869	2876	2841	2831	2840	2837	2845	2849	2849	2863	2881	2865	2833	2850	2879	2899	2898	2875	2858	2850	2850	2848	2853	2850	2849	2851	2847	2870	2867	2843	2818	2807	2813	2833	2841	2842	2820	2813	2829	2847	2842	2832	2818	2810	2833	2849	2833	2850	2850	2827	2823	2823	2806	2791	2790	2805	2821	2841	2875	2903	2904	2896	2867	2826	2807	2806	2815	2845	2854	2826	2831	2814	2739	2732	2752	0	0	0	0	0	0	0	0	0	0	0	0	0	0	0	0	0	0	0	0	0	0	0	0	0	0	0	0	0	0	0	0	0	0	0	0	0	0	0	0	0	0	0	0	0	0	0	0	0	0	0	0	0	0	0	0	0	0	0	0	0	0	0	0	0	0	0	0	0	0	0	0	0	0	0	0	0	0	0	0	0	0	0	0	0	0	0	0	0	0	0	0	0	0	0	0	0	0	0	0	0	0	0	0	0	0	0	0	0	0	0	0	0	0	0	0	0	0	0	0	0	0	0	0	0	0	0	0	0	0	0	0	0	0	0	0	0	0	0	0	0	0	0	0	0	0	0	0	0	0	0	0	0	0	0	0	0	0	0	0	0	0	0	0	0	0	0	0	0	0	0	0	0
0	0	0	0	0	0	0	0	0	0	0	0	0	0	0	0	0	0	0	0	0	0	0	0	0	0	0	0	0	0	0	0	0	0	0	0	0	0	0	0	0	0	0	0	0	0	0	0	0	0	0	0	0	0	0	0	0	0	0	0	0	0	0	0	0	0	0	0	0	0	0	0	0	0	0	0	0	0	0	0	0	0	0	0	0	0	0	0	0	0	0	0	0	0	0	0	0	0	0	0	0	0	0	0	0	0	0	0	0	0	0	0	0	0	0	0	0	0	0	0	0	0	0	0	0	0	0	0	0	0	0	0	0	0	0	0	0	0	0	0	0	0	0	0	0	0	0	0	0	0	0	0	0	0	0	0	0	0	0	0	0	2714	2714	2803	2809	2820	2845	2855	2856	2851	2853	2848	2818	2810	2818	2825	2834	2839	2855	2849	2815	2823	2830	2824	2816	2814	2813	2816	2816	2800	2787	2780	2772	2769	2781	2790	2796	2820	2812	2806	2786	2774	2761	2757	2797	2838	2870	2876	2891	2902	2898	2888	2834	2777	2759	2765	2770	2789	2834	2839	2830	2822	2824	2827	2826	2832	2835	2836	2849	2854	2866	2866	2862	2840	2823	2824	2822	2806	2819	2836	2848	2859	2846	2842	2836	2847	2863	2855	2847	2836	2826	2796	2780	2780	2811	2820	2836	2836	2817	2813	2841	2840	2833	2836	2825	2819	2808	2792	2784	2772	2803	2833	2868	2871	2887	2895	2889	2875	2869	2860	2872	2847	2842	2833	2836	2847	2864	2884	2895	2898	2900	2899	2887	2889	2889	2885	2885	2900	2891	2872	2886	2909	2906	2910	2924	2928	2913	2914	2894	2892	2882	2872	2924	2922	2896	2886	2882	2888	2876	2886	2880	2878	2874	2873	2899	2910	2907	2914	2909	2913	2917	2931	2926	2888	2907	2907	2905	2892	2893	2901	2883	2888	2890	2895	2892	2886	2875	2867	2860	2864	2867	2883	2888	2883	2842	2769	2779	2794	2850	2880	2881	2894	2864	2812	2792	2798	2809	2819	2836	2833	2844	2835	2848	2850	2817	2830	2853	2838	2832	2822	2825	2829	2826	2831	2825	2818	2814	2800	2790	2784	2822	2845	2859	2874	2865	2852	2873	2874	2875	2863	2863	2869	2879	2866	2853	2860	2867	2866	2870	2846	2827	2828	2839	2863	2843	2860	2852	2835	2832	2838	2846	2825	2790	2780	2785	2810	2827	2825	2822	2819	2828	2838	2843	2823	2817	2802	2818	2822	2833	2850	2843	2844	2828	2831	2831	2817	2801	2817	2808	2811	2822	2863	2876	2875	2872	2832	2801	2804	2819	2846	2847	2821	2796	2775	2704	2703	2725	2791	0	0	0	0	0	0	0	0	0	0	0	0	0	0	0	0	0	0	0	0	0	0	0	0	0	0	0	0	0	0	0	0	0	0	0	0	0	0	0	0	0	0	0	0	0	0	0	0	0	0	0	0	0	0	0	0	0	0	0	0	0	0	0	0	0	0	0	0	0	0	0	0	0	0	0	0	0	0	0	0	0	0	0	0	0	0	0	0	0	0	0	0	0	0	0	0	0	0	0	0	0	0	0	0	0	0	0	0	0	0	0	0	0	0	0	0	0	0	0	0	0	0	0	0	0	0	0	0	0	0	0	0	0	0	0	0	0	0	0	0	0	0	0	0	0	0	0	0	0	0	0	0	0	0	0	0	0	0	0	0	0	0	0	0	0	0	0	0	0	0	0	0
0	0	0	0	0	0	0	0	0	0	0	0	0	0	0	0	0	0	0	0	0	0	0	0	0	0	0	0	0	0	0	0	0	0	0	0	0	0	0	0	0	0	0	0	0	0	0	0	0	0	0	0	0	0	0	0	0	0	0	0	0	0	0	0	0	0	0	0	0	0	0	0	0	0	0	0	0	0	0	0	0	0	0	0	0	0	0	0	0	0	0	0	0	0	0	0	0	0	0	0	0	0	0	0	0	0	0	0	0	0	0	0	0	0	0	0	0	0	0	0	0	0	0	0	0	0	0	0	0	0	0	0	0	0	0	0	0	0	0	0	0	0	0	0	0	0	0	0	0	0	0	0	0	0	0	0	0	0	0	0	0	2674	2674	2783	2813	2817	2821	2819	2817	2816	2834	2808	2795	2800	2782	2789	2799	2803	2816	2824	2838	2835	2844	2829	2814	2815	2815	2813	2813	2800	2787	2777	2788	2778	2785	2791	2810	2807	2817	2795	2774	2751	2766	2779	2794	2832	2846	2860	2872	2879	2866	2851	2836	2826	2787	2773	2783	2780	2806	2818	2833	2824	2818	2818	2819	2815	2828	2842	2853	2856	2864	2864	2854	2819	2795	2793	2809	2815	2816	2835	2863	2873	2859	2834	2819	2835	2850	2849	2850	2834	2818	2795	2772	2774	2806	2835	2815	2804	2790	2797	2823	2843	2831	2819	2828	2831	2849	2823	2784	2793	2801	2829	2870	2864	2869	2876	2881	2873	2878	2903	2906	2902	2857	2851	2829	2836	2849	2868	2894	2903	2889	2875	2869	2877	2879	2903	2918	2918	2907	2890	2874	2899	2891	2901	2921	2918	2917	2892	2907	2885	2891	2852	2898	2902	2888	2892	2885	2885	2885	2876	2872	2875	2880	2882	2890	2903	2905	2911	2911	2908	2916	2919	2913	2900	2917	2918	2901	2896	2897	2901	2882	2875	2872	2866	2857	2857	2870	2858	2847	2854	2870	2888	2889	2871	2818	2792	2795	2823	2855	2879	2905	2904	2896	2855	2817	2813	2810	2820	2828	2837	2843	2850	2843	2808	2804	2821	2841	2834	2839	2861	2848	2856	2846	2838	2810	2796	2791	2763	2768	2770	2788	2827	2849	2875	2898	2889	2894	2882	2878	2863	2858	2858	2865	2868	2857	2860	2871	2856	2851	2825	2820	2815	2824	2855	2860	2861	2859	2835	2828	2833	2823	2811	2785	2765	2781	2794	2817	2832	2839	2828	2834	2843	2839	2833	2828	2817	2800	2812	2826	2834	2843	2844	2855	2859	2859	2854	2846	2831	2828	2815	2804	2829	2855	2877	2862	2848	2813	2827	2832	2839	2836	2831	2798	2763	2711	2729	2751	2776	0	0	0	0	0	0	0	0	0	0	0	0	0	0	0	0	0	0	0	0	0	0	0	0	0	0	0	0	0	0	0	0	0	0	0	0	0	0	0	0	0	0	0	0	0	0	0	0	0	0	0	0	0	0	0	0	0	0	0	0	0	0	0	0	0	0	0	0	0	0	0	0	0	0	0	0	0	0	0	0	0	0	0	0	0	0	0	0	0	0	0	0	0	0	0	0	0	0	0	0	0	0	0	0	0	0	0	0	0	0	0	0	0	0	0	0	0	0	0	0	0	0	0	0	0	0	0	0	0	0	0	0	0	0	0	0	0	0	0	0	0	0	0	0	0	0	0	0	0	0	0	0	0	0	0	0	0	0	0	0	0	0	0	0	0	0	0	0	0	0	0	0
0	0	0	0	0	0	0	0	0	0	0	0	0	0	0	0	0	0	0	0	0	0	0	0	0	0	0	0	0	0	0	0	0	0	0	0	0	0	0	0	0	0	0	0	0	0	0	0	0	0	0	0	0	0	0	0	0	0	0	0	0	0	0	0	0	0	0	0	0	0	0	0	0	0	0	0	0	0	0	0	0	0	0	0	0	0	0	0	0	0	0	0	0	0	0	0	0	0	0	0	0	0	0	0	0	0	0	0	0	0	0	0	0	0	0	0	0	0	0	0	0	0	0	0	0	0	0	0	0	0	0	0	0	0	0	0	0	0	0	0	0	0	0	0	0	0	0	0	0	0	0	0	0	0	0	0	0	0	0	0	0	2622	2622	2730	2777	2808	2802	2806	2786	2781	2767	2763	2764	2768	2772	2775	2774	2774	2786	2813	2824	2828	2819	2808	2810	2805	2804	2813	2813	2796	2770	2770	2783	2776	2784	2782	2810	2819	2823	2800	2777	2782	2802	2803	2812	2820	2821	2846	2857	2855	2836	2827	2827	2832	2820	2795	2775	2778	2786	2806	2816	2814	2805	2814	2818	2821	2822	2831	2841	2846	2843	2843	2820	2794	2779	2777	2790	2804	2826	2856	2892	2881	2856	2851	2840	2831	2823	2822	2835	2823	2814	2797	2783	2778	2800	2822	2834	2813	2785	2799	2803	2816	2812	2816	2826	2849	2865	2855	2834	2812	2819	2846	2848	2821	2816	2855	2860	2872	2893	2923	2919	2900	2879	2854	2831	2821	2843	2867	2885	2901	2892	2865	2861	2866	2883	2909	2927	2923	2906	2875	2874	2880	2904	2912	2907	2915	2908	2907	2914	2902	2892	2846	2866	2884	2864	2882	2902	2891	2896	2902	2890	2877	2884	2882	2889	2906	2917	2919	2961	2923	2895	2904	2906	2903	2906	2906	2886	2876	2876	2893	2899	2879	2873	2874	2874	2865	2849	2847	2839	2846	2864	2884	2880	2855	2827	2815	2812	2831	2856	2880	2880	2885	2871	2847	2814	2809	2809	2826	2834	2823	2825	2829	2802	2797	2810	2829	2843	2829	2838	2862	2876	2879	2867	2853	2817	2798	2773	2763	2768	2765	2778	2810	2834	2875	2885	2887	2891	2881	2870	2847	2840	2840	2843	2850	2840	2845	2843	2839	2824	2803	2806	2819	2814	2842	2851	2862	2856	2841	2833	2819	2816	2799	2782	2775	2782	2797	2808	2819	2832	2853	2865	2859	2847	2845	2839	2839	2835	2827	2843	2834	2837	2845	2855	2859	2861	2857	2850	2846	2858	2839	2840	2835	2855	2865	2873	2840	2830	2843	2838	2824	2818	2820	2828	2794	2730	2748	2766	0	0	0	0	0	0	0	0	0	0	0	0	0	0	0	0	0	0	0	0	0	0	0	0	0	0	0	0	0	0	0	0	0	0	0	0	0	0	0	0	0	0	0	0	0	0	0	0	0	0	0	0	0	0	0	0	0	0	0	0	0	0	0	0	0	0	0	0	0	0	0	0	0	0	0	0	0	0	0	0	0	0	0	0	0	0	0	0	0	0	0	0	0	0	0	0	0	0	0	0	0	0	0	0	0	0	0	0	0	0	0	0	0	0	0	0	0	0	0	0	0	0	0	0	0	0	0	0	0	0	0	0	0	0	0	0	0	0	0	0	0	0	0	0	0	0	0	0	0	0	0	0	0	0	0	0	0	0	0	0	0	0	0	0	0	0	0	0	0	0	0	0	0
0	0	0	0	0	0	0	0	0	0	0	0	0	0	0	0	0	0	0	0	0	0	0	0	0	0	0	0	0	0	0	0	0	0	0	0	0	0	0	0	0	0	0	0	0	0	0	0	0	0	0	0	0	0	0	0	0	0	0	0	0	0	0	0	0	0	0	0	0	0	0	0	0	0	0	0	0	0	0	0	0	0	0	0	0	0	0	0	0	0	0	0	0	0	0	0	0	0	0	0	0	0	0	0	0	0	0	0	0	0	0	0	0	0	0	0	0	0	0	0	0	0	0	0	0	0	0	0	0	0	0	0	0	0	0	0	0	0	0	0	0	0	0	0	0	0	0	0	0	0	0	0	0	0	0	0	0	0	0	0	0	2563	2563	2716	2764	2783	2785	2773	2764	2757	2762	2760	2764	2769	2774	2782	2776	2770	2785	2794	2814	2805	2789	2775	2771	2805	2804	2804	2797	2781	2761	2743	2762	2780	2777	2804	2821	2827	2827	2822	2826	2836	2841	2829	2812	2806	2813	2828	2843	2848	2829	2814	2816	2828	2836	2827	2799	2777	2785	2790	2808	2806	2805	2815	2828	2837	2842	2837	2826	2825	2825	2806	2779	2772	2785	2784	2814	2843	2873	2899	2902	2890	2856	2826	2825	2816	2801	2801	2798	2802	2818	2799	2796	2791	2797	2813	2837	2830	2800	2780	2770	2781	2794	2806	2834	2858	2876	2865	2839	2831	2839	2845	2846	2837	2831	2863	2868	2885	2894	2896	2881	2865	2867	2845	2826	2819	2830	2834	2859	2881	2877	2860	2861	2865	2891	2925	2924	2912	2903	2889	2877	2881	2899	2909	2915	2912	2911	2914	2918	2932	2938	2888	2848	2858	2854	2891	2895	2902	2916	2924	2930	2927	2907	2886	2894	2899	2898	2918	2957	2941	2928	2921	2911	2915	2909	2914	2877	2853	2840	2838	2867	2890	2877	2890	2895	2881	2858	2861	2854	2859	2870	2887	2882	2861	2806	2812	2812	2817	2837	2858	2865	2847	2849	2828	2834	2830	2822	2826	2828	2814	2818	2795	2787	2789	2822	2849	2834	2817	2831	2864	2898	2893	2896	2879	2844	2820	2792	2777	2776	2773	2785	2793	2824	2852	2871	2876	2857	2862	2852	2828	2828	2828	2828	2827	2821	2820	2813	2817	2809	2807	2812	2825	2834	2843	2849	2857	2846	2842	2830	2824	2813	2790	2804	2799	2818	2829	2828	2831	2860	2884	2897	2883	2871	2858	2855	2870	2876	2876	2868	2843	2814	2833	2839	2861	2861	2857	2835	2845	2868	2858	2844	2829	2830	2851	2867	2850	2841	2859	2845	2814	2797	2810	2833	2810	2748	2764	2775	0	0	0	0	0	0	0	0	0	0	0	0	0	0	0	0	0	0	0	0	0	0	0	0	0	0	0	0	0	0	0	0	0	0	0	0	0	0	0	0	0	0	0	0	0	0	0	0	0	0	0	0	0	0	0	0	0	0	0	0	0	0	0	0	0	0	0	0	0	0	0	0	0	0	0	0	0	0	0	0	0	0	0	0	0	0	0	0	0	0	0	0	0	0	0	0	0	0	0	0	0	0	0	0	0	0	0	0	0	0	0	0	0	0	0	0	0	0	0	0	0	0	0	0	0	0	0	0	0	0	0	0	0	0	0	0	0	0	0	0	0	0	0	0	0	0	0	0	0	0	0	0	0	0	0	0	0	0	0	0	0	0	0	0	0	0	0	0	0	0	0	0	0
0	0	0	0	0	0	0	0	0	0	0	0	0	0	0	0	0	0	0	0	0	0	0	0	0	0	0	0	0	0	0	0	0	0	0	0	0	0	0	0	0	0	0	0	0	0	0	0	0	0	0	0	0	0	0	0	0	0	0	0	0	0	0	0	0	0	0	0	0	0	0	0	0	0	0	0	0	0	0	0	0	0	0	0	0	0	0	0	0	0	0	0	0	0	0	0	0	0	0	0	0	0	0	0	0	0	0	0	0	0	0	0	0	0	0	0	0	0	0	0	0	0	0	0	0	0	0	0	0	0	0	0	0	0	0	0	0	0	0	0	0	0	0	0	0	0	0	0	0	0	0	0	0	0	0	0	0	0	0	0	0	0	2583	2739	2764	2767	2758	2745	2744	2771	2789	2767	2764	2779	2791	2775	2782	2766	2776	2777	2782	2778	2753	2775	2771	2775	2784	2784	2776	2750	2740	2736	2756	2776	2787	2803	2818	2826	2826	2844	2824	2836	2829	2811	2800	2796	2805	2807	2822	2829	2818	2809	2814	2835	2836	2831	2827	2824	2814	2803	2804	2805	2808	2832	2841	2839	2834	2829	2813	2798	2798	2783	2772	2780	2793	2822	2846	2869	2884	2886	2880	2857	2831	2816	2810	2785	2780	2772	2784	2797	2817	2800	2788	2791	2785	2780	2813	2810	2790	2773	2744	2744	2774	2775	2818	2851	2858	2852	2843	2818	2825	2804	2838	2865	2877	2882	2881	2885	2883	2893	2867	2848	2859	2825	2806	2817	2811	2831	2852	2879	2873	2862	2860	2877	2882	2901	2894	2892	2901	2901	2882	2888	2880	2910	2915	2910	2903	2905	2912	2926	2929	2909	2871	2862	2858	2894	2910	2921	2932	2930	2941	2937	2923	2896	2889	2897	2892	2901	2918	2931	2931	2925	2905	2906	2908	2904	2893	2868	2874	2870	2878	2897	2898	2898	2898	2887	2888	2883	2875	2871	2882	2891	2908	2885	2820	2809	2811	2811	2817	2825	2852	2851	2859	2868	2876	2854	2841	2834	2831	2825	2815	2791	2789	2798	2825	2844	2844	2812	2806	2838	2871	2895	2905	2895	2866	2843	2822	2801	2788	2778	2773	2782	2802	2818	2845	2844	2838	2839	2831	2818	2816	2822	2822	2828	2822	2801	2805	2796	2802	2819	2833	2849	2852	2859	2861	2867	2863	2852	2849	2840	2818	2813	2832	2828	2854	2866	2871	2876	2890	2894	2907	2901	2876	2866	2873	2887	2900	2893	2879	2833	2802	2788	2805	2824	2824	2835	2835	2845	2859	2867	2841	2816	2819	2843	2869	2860	2851	2848	2830	2782	2780	2794	2830	2791	2736	2743	2744	0	0	0	0	0	0	0	0	0	0	0	0	0	0	0	0	0	0	0	0	0	0	0	0	0	0	0	0	0	0	0	0	0	0	0	0	0	0	0	0	0	0	0	0	0	0	0	0	0	0	0	0	0	0	0	0	0	0	0	0	0	0	0	0	0	0	0	0	0	0	0	0	0	0	0	0	0	0	0	0	0	0	0	0	0	0	0	0	0	0	0	0	0	0	0	0	0	0	0	0	0	0	0	0	0	0	0	0	0	0	0	0	0	0	0	0	0	0	0	0	0	0	0	0	0	0	0	0	0	0	0	0	0	0	0	0	0	0	0	0	0	0	0	0	0	0	0	0	0	0	0	0	0	0	0	0	0	0	0	0	0	0	0	0	0	0	0	0	0	0	0	0	0
0	0	0	0	0	0	0	0	0	0	0	0	0	0	0	0	0	0	0	0	0	0	0	0	0	0	0	0	0	0	0	0	0	0	0	0	0	0	0	0	0	0	0	0	0	0	0	0	0	0	0	0	0	0	0	0	0	0	0	0	0	0	0	0	0	0	0	0	0	0	0	0	0	0	0	0	0	0	0	0	0	0	0	0	0	0	0	0	0	0	0	0	0	0	0	0	0	0	0	0	0	0	0	0	0	0	0	0	0	0	0	0	0	0	0	0	0	0	0	0	0	0	0	0	0	0	0	0	0	0	0	0	0	0	0	0	0	0	0	0	0	0	0	0	0	0	0	0	0	0	0	0	0	0	0	0	0	0	0	0	0	0	2641	2780	2771	2767	2758	2754	2768	2785	2792	2769	2765	2759	2770	2778	2784	2776	2773	2765	2755	2778	2753	2748	2749	2744	2757	2757	2745	2741	2733	2734	2754	2785	2807	2812	2813	2824	2824	2825	2819	2811	2795	2790	2792	2789	2796	2791	2795	2792	2790	2799	2808	2813	2826	2826	2824	2850	2841	2836	2826	2825	2833	2842	2831	2822	2801	2803	2787	2774	2774	2753	2758	2775	2814	2851	2869	2872	2857	2858	2852	2813	2799	2785	2775	2782	2773	2772	2782	2792	2785	2783	2775	2775	2767	2775	2801	2802	2789	2767	2744	2743	2756	2769	2818	2839	2828	2814	2792	2779	2780	2848	2857	2912	2907	2894	2875	2876	2868	2876	2873	2859	2835	2807	2800	2814	2824	2847	2882	2890	2880	2880	2876	2875	2861	2866	2865	2875	2879	2888	2903	2901	2895	2910	2914	2898	2893	2881	2879	2884	2918	2912	2885	2878	2891	2909	2919	2926	2933	2939	2946	2943	2927	2902	2885	2891	2913	2927	2923	2931	2939	2918	2898	2894	2902	2902	2900	2899	2896	2879	2887	2908	2899	2892	2879	2881	2898	2897	2891	2894	2905	2937	2945	2925	2865	2812	2808	2786	2801	2808	2843	2867	2864	2859	2867	2853	2853	2841	2829	2826	2810	2785	2783	2790	2808	2833	2831	2793	2781	2811	2863	2881	2899	2902	2891	2879	2849	2829	2799	2779	2767	2771	2783	2803	2827	2838	2829	2814	2807	2799	2826	2840	2840	2843	2826	2783	2764	2758	2778	2816	2846	2860	2858	2856	2868	2875	2878	2876	2869	2852	2829	2833	2849	2845	2869	2869	2878	2884	2902	2892	2883	2885	2865	2847	2864	2890	2901	2891	2854	2816	2786	2778	2794	2800	2803	2803	2817	2835	2859	2867	2834	2826	2816	2827	2854	2854	2843	2851	2819	2789	2780	2784	2815	2755	2712	2720	2725	0	0	0	0	0	0	0	0	0	0	0	0	0	0	0	0	0	0	0	0	0	0	0	0	0	0	0	0	0	0	0	0	0	0	0	0	0	0	0	0	0	0	0	0	0	0	0	0	0	0	0	0	0	0	0	0	0	0	0	0	0	0	0	0	0	0	0	0	0	0	0	0	0	0	0	0	0	0	0	0	0	0	0	0	0	0	0	0	0	0	0	0	0	0	0	0	0	0	0	0	0	0	0	0	0	0	0	0	0	0	0	0	0	0	0	0	0	0	0	0	0	0	0	0	0	0	0	0	0	0	0	0	0	0	0	0	0	0	0	0	0	0	0	0	0	0	0	0	0	0	0	0	0	0	0	0	0	0	0	0	0	0	0	0	0	0	0	0	0	0	0	0	0
0	0	0	0	0	0	0	0	0	0	0	0	0	0	0	0	0	0	0	0	0	0	0	0	0	0	0	0	0	0	0	0	0	0	0	0	0	0	0	0	0	0	0	0	0	0	0	0	0	0	0	0	0	0	0	0	0	0	0	0	0	0	0	0	0	0	0	0	0	0	0	0	0	0	0	0	0	0	0	0	0	0	0	0	0	0	0	0	0	0	0	0	0	0	0	0	0	0	0	0	0	0	0	0	0	0	0	0	0	0	0	0	0	0	0	0	0	0	0	0	0	0	0	0	0	0	0	0	0	0	0	0	0	0	0	0	0	0	0	0	0	0	0	0	0	0	0	0	0	0	0	0	0	0	0	0	0	0	0	0	0	0	2688	2816	2779	2776	2773	2773	2785	2797	2777	2761	2762	2768	2789	2806	2819	2815	2789	2765	2755	2765	2775	2775	2751	2737	2740	2740	2759	2759	2759	2762	2775	2792	2807	2801	2797	2807	2810	2814	2807	2803	2790	2784	2782	2796	2798	2789	2780	2777	2780	2794	2793	2803	2826	2821	2830	2854	2851	2847	2844	2849	2846	2825	2815	2794	2772	2763	2755	2755	2749	2751	2760	2792	2823	2849	2868	2855	2841	2828	2793	2790	2794	2803	2792	2780	2776	2772	2771	2771	2768	2760	2756	2745	2751	2768	2796	2788	2765	2740	2752	2780	2773	2784	2794	2817	2805	2788	2776	2757	2778	2878	2918	2926	2919	2903	2874	2859	2856	2859	2863	2854	2827	2816	2822	2834	2867	2876	2893	2903	2902	2887	2882	2887	2869	2855	2853	2874	2877	2883	2895	2898	2878	2877	2893	2895	2885	2873	2860	2869	2904	2924	2898	2894	2915	2928	2926	2922	2912	2911	2912	2927	2918	2908	2900	2909	2922	2925	2917	2923	2921	2915	2915	2882	2892	2904	2911	2915	2896	2881	2883	2906	2901	2880	2870	2869	2866	2869	2892	2909	2926	2967	2963	2949	2896	2803	2784	2782	2784	2813	2832	2859	2853	2827	2823	2830	2841	2841	2833	2824	2808	2783	2773	2785	2802	2831	2827	2804	2796	2814	2840	2867	2888	2893	2892	2870	2862	2856	2820	2787	2774	2775	2792	2809	2819	2837	2822	2796	2794	2809	2838	2860	2860	2854	2811	2789	2757	2749	2754	2803	2822	2832	2843	2843	2857	2852	2860	2873	2856	2843	2839	2844	2848	2878	2883	2876	2861	2876	2860	2847	2835	2827	2805	2825	2833	2866	2882	2873	2848	2815	2787	2775	2807	2791	2802	2802	2823	2846	2870	2858	2834	2826	2812	2814	2818	2817	2839	2845	2816	2806	2780	2788	2803	2722	2707	2714	2705	2680	0	0	0	0	0	0	0	0	0	0	0	0	0	0	0	0	0	0	0	0	0	0	0	0	0	0	0	0	0	0	0	0	0	0	0	0	0	0	0	0	0	0	0	0	0	0	0	0	0	0	0	0	0	0	0	0	0	0	0	0	0	0	0	0	0	0	0	0	0	0	0	0	0	0	0	0	0	0	0	0	0	0	0	0	0	0	0	0	0	0	0	0	0	0	0	0	0	0	0	0	0	0	0	0	0	0	0	0	0	0	0	0	0	0	0	0	0	0	0	0	0	0	0	0	0	0	0	0	0	0	0	0	0	0	0	0	0	0	0	0	0	0	0	0	0	0	0	0	0	0	0	0	0	0	0	0	0	0	0	0	0	0	0	0	0	0	0	0	0	0	0	0
0	0	0	0	0	0	0	0	0	0	0	0	0	0	0	0	0	0	0	0	0	0	0	0	0	0	0	0	0	0	0	0	0	0	0	0	0	0	0	0	0	0	0	0	0	0	0	0	0	0	0	0	0	0	0	0	0	0	0	0	0	0	0	0	0	0	0	0	0	0	0	0	0	0	0	0	0	0	0	0	0	0	0	0	0	0	0	0	0	0	0	0	0	0	0	0	0	0	0	0	0	0	0	0	0	0	0	0	0	0	0	0	0	0	0	0	0	0	0	0	0	0	0	0	0	0	0	0	0	0	0	0	0	0	0	0	0	0	0	0	0	0	0	0	0	0	0	0	0	0	0	0	0	0	0	0	0	0	0	0	0	0	2769	2844	2796	2788	2783	2789	2807	2808	2787	2770	2777	2781	2791	2805	2814	2815	2789	2767	2762	2776	2782	2779	2767	2751	2746	2746	2761	2768	2775	2769	2781	2800	2801	2800	2791	2807	2813	2821	2811	2808	2801	2789	2791	2802	2812	2811	2799	2803	2785	2799	2831	2827	2830	2821	2829	2835	2836	2837	2845	2841	2829	2809	2766	2750	2741	2740	2745	2745	2737	2743	2758	2781	2803	2827	2851	2838	2825	2806	2796	2802	2811	2806	2799	2784	2777	2773	2786	2783	2757	2739	2740	2730	2741	2763	2761	2749	2735	2721	2760	2780	2781	2777	2786	2804	2787	2779	2764	2768	2773	2875	2935	2933	2928	2906	2862	2829	2826	2841	2854	2844	2851	2863	2854	2835	2856	2867	2899	2911	2906	2886	2878	2906	2873	2867	2853	2874	2880	2894	2902	2892	2869	2882	2891	2898	2878	2882	2894	2901	2921	2934	2896	2894	2928	2941	2934	2931	2921	2880	2899	2888	2893	2917	2917	2925	2926	2900	2898	2921	2904	2912	2905	2905	2893	2888	2897	2909	2902	2896	2894	2907	2907	2897	2886	2887	2880	2872	2890	2899	2953	2970	2971	2936	2903	2796	2798	2798	2798	2814	2838	2846	2835	2802	2783	2792	2821	2840	2840	2833	2808	2783	2775	2780	2813	2846	2853	2862	2854	2836	2840	2855	2870	2861	2856	2857	2857	2845	2828	2797	2780	2792	2822	2837	2849	2839	2810	2787	2789	2802	2838	2853	2853	2846	2813	2793	2778	2767	2776	2777	2796	2808	2831	2843	2830	2834	2850	2851	2823	2826	2834	2860	2848	2852	2853	2863	2861	2849	2836	2847	2849	2817	2813	2810	2813	2841	2868	2876	2840	2820	2794	2793	2802	2822	2818	2818	2851	2866	2877	2875	2851	2830	2812	2814	2818	2786	2808	2830	2814	2822	2811	2812	2813	2722	2721	2724	2699	2672	0	0	0	0	0	0	0	0	0	0	0	0	0	0	0	0	0	0	0	0	0	0	0	0	0	0	0	0	0	0	0	0	0	0	0	0	0	0	0	0	0	0	0	0	0	0	0	0	0	0	0	0	0	0	0	0	0	0	0	0	0	0	0	0	0	0	0	0	0	0	0	0	0	0	0	0	0	0	0	0	0	0	0	0	0	0	0	0	0	0	0	0	0	0	0	0	0	0	0	0	0	0	0	0	0	0	0	0	0	0	0	0	0	0	0	0	0	0	0	0	0	0	0	0	0	0	0	0	0	0	0	0	0	0	0	0	0	0	0	0	0	0	0	0	0	0	0	0	0	0	0	0	0	0	0	0	0	0	0	0	0	0	0	0	0	0	0	0	0	0	0	0
0	0	0	0	0	0	0	0	0	0	0	0	0	0	0	0	0	0	0	0	0	0	0	0	0	0	0	0	0	0	0	0	0	0	0	0	0	0	0	0	0	0	0	0	0	0	0	0	0	0	0	0	0	0	0	0	0	0	0	0	0	0	0	0	0	0	0	0	0	0	0	0	0	0	0	0	0	0	0	0	0	0	0	0	0	0	0	0	0	0	0	0	0	0	0	0	0	0	0	0	0	0	0	0	0	0	0	0	0	0	0	0	0	0	0	0	0	0	0	0	0	0	0	0	0	0	0	0	0	0	0	0	0	0	0	0	0	0	0	0	0	0	0	0	0	0	0	0	0	0	0	0	0	0	0	0	0	0	0	0	0	0	2745	2831	2795	2786	2779	2787	2806	2819	2798	2797	2784	2783	2791	2805	2814	2828	2803	2780	2774	2777	2782	2777	2762	2773	2773	2773	2780	2777	2772	2763	2772	2795	2797	2790	2777	2804	2816	2838	2833	2830	2809	2788	2791	2798	2814	2816	2821	2807	2816	2826	2840	2849	2836	2819	2819	2823	2836	2845	2857	2842	2813	2785	2743	2725	2724	2729	2727	2727	2721	2726	2736	2755	2756	2807	2836	2837	2835	2819	2814	2820	2833	2825	2809	2795	2784	2801	2809	2801	2771	2744	2731	2738	2748	2746	2744	2722	2713	2712	2741	2762	2778	2777	2804	2789	2786	2780	2763	2788	2817	2884	2921	2914	2935	2895	2851	2834	2831	2835	2827	2839	2873	2892	2874	2856	2844	2860	2881	2892	2895	2886	2886	2919	2890	2875	2880	2874	2861	2887	2885	2891	2875	2870	2907	2887	2885	2891	2906	2911	2915	2928	2924	2920	2925	2939	2944	2919	2897	2898	2915	2898	2893	2914	2928	2942	2946	2906	2897	2912	2900	2883	2887	2887	2876	2903	2908	2888	2885	2918	2920	2925	2914	2910	2892	2891	2886	2872	2896	2897	2931	2949	2963	2938	2915	2819	2819	2821	2821	2824	2842	2853	2832	2790	2761	2771	2804	2836	2852	2852	2825	2797	2778	2786	2804	2824	2860	2874	2868	2853	2852	2852	2850	2841	2828	2833	2851	2849	2823	2806	2802	2821	2856	2865	2865	2839	2824	2781	2770	2795	2818	2834	2828	2828	2815	2814	2788	2774	2771	2780	2800	2818	2849	2857	2837	2826	2830	2814	2803	2798	2827	2839	2838	2869	2862	2860	2840	2836	2855	2859	2861	2851	2821	2806	2809	2832	2869	2875	2849	2818	2792	2784	2797	2819	2847	2847	2863	2873	2860	2871	2868	2845	2826	2812	2805	2786	2808	2821	2814	2831	2835	2846	2842	2735	2723	2714	2702	2670	0	0	0	0	0	0	0	0	0	0	0	0	0	0	0	0	0	0	0	0	0	0	0	0	0	0	0	0	0	0	0	0	0	0	0	0	0	0	0	0	0	0	0	0	0	0	0	0	0	0	0	0	0	0	0	0	0	0	0	0	0	0	0	0	0	0	0	0	0	0	0	0	0	0	0	0	0	0	0	0	0	0	0	0	0	0	0	0	0	0	0	0	0	0	0	0	0	0	0	0	0	0	0	0	0	0	0	0	0	0	0	0	0	0	0	0	0	0	0	0	0	0	0	0	0	0	0	0	0	0	0	0	0	0	0	0	0	0	0	0	0	0	0	0	0	0	0	0	0	0	0	0	0	0	0	0	0	0	0	0	0	0	0	0	0	0	0	0	0	0	0	0
0	0	0	0	0	0	0	0	0	0	0	0	0	0	0	0	0	0	0	0	0	0	0	0	0	0	0	0	0	0	0	0	0	0	0	0	0	0	0	0	0	0	0	0	0	0	0	0	0	0	0	0	0	0	0	0	0	0	0	0	0	0	0	0	0	0	0	0	0	0	0	0	0	0	0	0	0	0	0	0	0	0	0	0	0	0	0	0	0	0	0	0	0	0	0	0	0	0	0	0	0	0	0	0	0	0	0	0	0	0	0	0	0	0	0	0	0	0	0	0	0	0	0	0	0	0	0	0	0	0	0	0	0	0	0	0	0	0	0	0	0	0	0	0	0	0	0	0	0	0	0	0	0	0	0	0	0	0	0	0	0	0	2711	2811	2783	2782	2782	2789	2803	2816	2809	2808	2784	2783	2778	2789	2800	2795	2790	2782	2771	2769	2779	2775	2773	2796	2796	2804	2803	2790	2783	2769	2767	2787	2787	2778	2768	2795	2823	2842	2835	2833	2807	2789	2764	2771	2783	2806	2817	2813	2812	2837	2817	2834	2822	2807	2795	2798	2817	2814	2824	2825	2820	2782	2742	2732	2742	2749	2743	2743	2729	2721	2728	2736	2726	2755	2763	2804	2828	2843	2848	2844	2838	2836	2818	2806	2802	2815	2823	2807	2804	2778	2760	2736	2746	2749	2742	2728	2707	2726	2742	2775	2799	2808	2806	2800	2796	2788	2793	2819	2829	2903	2926	2908	2899	2874	2856	2839	2813	2808	2803	2820	2838	2873	2887	2849	2845	2859	2876	2878	2884	2882	2893	2929	2910	2881	2874	2869	2862	2868	2888	2887	2876	2890	2914	2895	2899	2910	2913	2909	2899	2897	2909	2900	2918	2940	2903	2899	2901	2927	2917	2915	2916	2911	2926	2936	2957	2927	2912	2868	2871	2882	2869	2873	2875	2885	2912	2911	2904	2906	2919	2923	2923	2913	2909	2903	2891	2870	2890	2899	2901	2925	2930	2930	2912	2910	2855	2844	2842	2839	2867	2860	2836	2793	2767	2775	2807	2854	2881	2880	2846	2813	2796	2783	2799	2828	2838	2839	2834	2867	2867	2862	2846	2824	2807	2822	2831	2827	2811	2805	2818	2853	2867	2873	2871	2849	2844	2796	2762	2762	2778	2806	2809	2809	2817	2809	2787	2767	2780	2793	2820	2835	2846	2854	2859	2845	2812	2797	2785	2795	2787	2811	2839	2875	2865	2840	2823	2839	2870	2882	2874	2850	2842	2833	2831	2854	2866	2866	2860	2828	2796	2780	2769	2787	2831	2831	2846	2848	2865	2870	2870	2853	2834	2831	2811	2784	2809	2821	2814	2817	2828	2859	2853	2744	2688	2688	2670	2632	0	0	0	0	0	0	0	0	0	0	0	0	0	0	0	0	0	0	0	0	0	0	0	0	0	0	0	0	0	0	0	0	0	0	0	0	0	0	0	0	0	0	0	0	0	0	0	0	0	0	0	0	0	0	0	0	0	0	0	0	0	0	0	0	0	0	0	0	0	0	0	0	0	0	0	0	0	0	0	0	0	0	0	0	0	0	0	0	0	0	0	0	0	0	0	0	0	0	0	0	0	0	0	0	0	0	0	0	0	0	0	0	0	0	0	0	0	0	0	0	0	0	0	0	0	0	0	0	0	0	0	0	0	0	0	0	0	0	0	0	0	0	0	0	0	0	0	0	0	0	0	0	0	0	0	0	0	0	0	0	0	0	0	0	0	0	0	0	0	0	0	0
0	0	0	0	0	0	0	0	0	0	0	0	0	0	0	0	0	0	0	0	0	0	0	0	0	0	0	0	0	0	0	0	0	0	0	0	0	0	0	0	0	0	0	0	0	0	0	0	0	0	0	0	0	0	0	0	0	0	0	0	0	0	0	0	0	0	0	0	0	0	0	0	0	0	0	0	0	0	0	0	0	0	0	0	0	0	0	0	0	0	0	0	0	0	0	0	0	0	0	0	0	0	0	0	0	0	0	0	0	0	0	0	0	0	0	0	0	0	0	0	0	0	0	0	0	0	0	0	0	0	0	0	0	0	0	0	0	0	0	0	0	0	0	0	0	0	0	0	0	0	0	0	0	0	0	0	0	0	0	0	0	0	2692	2772	2785	2789	2778	2775	2795	2816	2809	2808	2803	2785	2768	2771	2776	2772	2765	2749	2746	2763	2779	2800	2799	2796	2796	2793	2799	2776	2772	2759	2760	2755	2755	2760	2762	2776	2785	2813	2807	2786	2802	2792	2767	2748	2757	2775	2807	2824	2837	2821	2808	2803	2791	2771	2763	2770	2777	2801	2799	2810	2801	2785	2773	2769	2770	2777	2777	2764	2756	2738	2734	2755	2755	2739	2745	2798	2836	2855	2858	2851	2836	2826	2820	2815	2814	2820	2829	2838	2838	2822	2777	2749	2749	2759	2764	2747	2731	2756	2779	2806	2831	2834	2846	2827	2809	2789	2799	2821	2827	2895	2885	2885	2873	2856	2860	2833	2811	2764	2757	2793	2808	2841	2836	2831	2857	2866	2855	2870	2871	2884	2894	2916	2908	2877	2888	2890	2872	2864	2877	2884	2886	2891	2905	2908	2949	2915	2904	2889	2885	2884	2891	2873	2908	2907	2908	2907	2913	2925	2926	2912	2902	2907	2911	2927	2946	2947	2946	2915	2900	2890	2862	2867	2870	2883	2908	2920	2923	2929	2926	2926	2926	2922	2925	2918	2905	2892	2881	2890	2884	2899	2903	2917	2921	2912	2900	2889	2856	2834	2826	2855	2858	2819	2791	2793	2817	2863	2885	2885	2855	2819	2804	2790	2795	2811	2834	2809	2791	2816	2847	2871	2855	2829	2812	2804	2805	2798	2805	2799	2813	2845	2857	2860	2853	2868	2845	2800	2756	2744	2747	2771	2779	2779	2806	2803	2794	2787	2794	2805	2818	2818	2831	2838	2839	2825	2794	2796	2794	2798	2810	2815	2822	2846	2848	2836	2833	2845	2865	2856	2849	2851	2856	2851	2849	2851	2851	2857	2856	2826	2799	2762	2752	2770	2803	2811	2811	2830	2862	2857	2855	2845	2835	2826	2810	2791	2794	2802	2794	2817	2828	2859	2815	2687	2630	2612	2600	2568	0	0	0	0	0	0	0	0	0	0	0	0	0	0	0	0	0	0	0	0	0	0	0	0	0	0	0	0	0	0	0	0	0	0	0	0	0	0	0	0	0	0	0	0	0	0	0	0	0	0	0	0	0	0	0	0	0	0	0	0	0	0	0	0	0	0	0	0	0	0	0	0	0	0	0	0	0	0	0	0	0	0	0	0	0	0	0	0	0	0	0	0	0	0	0	0	0	0	0	0	0	0	0	0	0	0	0	0	0	0	0	0	0	0	0	0	0	0	0	0	0	0	0	0	0	0	0	0	0	0	0	0	0	0	0	0	0	0	0	0	0	0	0	0	0	0	0	0	0	0	0	0	0	0	0	0	0	0	0	0	0	0	0	0	0	0	0	0	0	0	0	0
0	0	0	0	0	0	0	0	0	0	0	0	0	0	0	0	0	0	0	0	0	0	0	0	0	0	0	0	0	0	0	0	0	0	0	0	0	0	0	0	0	0	0	0	0	0	0	0	0	0	0	0	0	0	0	0	0	0	0	0	0	0	0	0	0	0	0	0	0	0	0	0	0	0	0	0	0	0	0	0	0	0	0	0	0	0	0	0	0	0	0	0	0	0	0	0	0	0	0	0	0	0	0	0	0	0	0	0	0	0	0	0	0	0	0	0	0	0	0	0	0	0	0	0	0	0	0	0	0	0	0	0	0	0	0	0	0	0	0	0	0	0	0	0	0	0	0	0	0	0	0	0	0	0	0	0	0	0	0	0	0	0	2689	2780	2790	2783	2774	2775	2795	2811	2826	2827	2811	2788	2773	2779	2762	2741	2720	2711	2733	2751	2776	2810	2796	2780	2780	2770	2755	2738	2753	2755	2754	2756	2763	2768	2761	2764	2775	2762	2784	2791	2807	2807	2796	2760	2758	2784	2828	2850	2839	2825	2787	2769	2756	2751	2749	2743	2759	2769	2792	2789	2789	2786	2788	2792	2796	2791	2791	2779	2771	2757	2776	2778	2790	2786	2789	2799	2834	2842	2844	2820	2813	2808	2800	2810	2800	2793	2801	2817	2828	2821	2798	2777	2782	2781	2784	2766	2760	2779	2809	2840	2837	2867	2854	2845	2814	2790	2791	2799	2793	2854	2881	2864	2839	2827	2841	2830	2818	2807	2797	2790	2788	2816	2825	2830	2848	2852	2857	2877	2899	2883	2884	2895	2892	2879	2892	2885	2881	2877	2885	2917	2912	2921	2933	2929	2924	2927	2892	2881	2876	2887	2891	2889	2882	2890	2920	2914	2917	2911	2921	2913	2905	2900	2902	2917	2935	2947	2945	2926	2923	2903	2888	2867	2873	2891	2908	2912	2917	2929	2932	2934	2939	2933	2931	2922	2910	2891	2879	2884	2873	2880	2883	2904	2907	2903	2901	2902	2862	2826	2804	2810	2842	2829	2803	2804	2836	2855	2853	2845	2830	2812	2800	2791	2798	2815	2823	2820	2781	2792	2823	2855	2852	2846	2817	2794	2780	2770	2768	2776	2804	2828	2830	2806	2813	2816	2812	2787	2752	2727	2741	2768	2780	2780	2794	2794	2809	2795	2785	2780	2789	2797	2808	2809	2820	2809	2797	2808	2818	2810	2807	2808	2793	2797	2805	2799	2812	2825	2825	2829	2831	2836	2839	2840	2831	2825	2816	2808	2804	2790	2764	2737	2730	2740	2758	2779	2779	2807	2819	2817	2806	2802	2799	2792	2771	2734	2733	2737	2733	2748	2766	2816	2815	2687	2539	2563	2518	2503	2492	0	0	0	0	0	0	0	0	0	0	0	0	0	0	0	0	0	0	0	0	0	0	0	0	0	0	0	0	0	0	0	0	0	0	0	0	0	0	0	0	0	0	0	0	0	0	0	0	0	0	0	0	0	0	0	0	0	0	0	0	0	0	0	0	0	0	0	0	0	0	0	0	0	0	0	0	0	0	0	0	0	0	0	0	0	0	0	0	0	0	0	0	0	0	0	0	0	0	0	0	0	0	0	0	0	0	0	0	0	0	0	0	0	0	0	0	0	0	0	0	0	0	0	0	0	0	0	0	0	0	0	0	0	0	0	0	0	0	0	0	0	0	0	0	0	0	0	0	0	0	0	0	0	0	0	0	0	0	0	0	0	0	0	0	0	0	0	0	0	0	0
0	0	0	0	0	0	0	0	0	0	0	0	0	0	0	0	0	0	0	0	0	0	0	0	0	0	0	0	0	0	0	0	0	0	0	0	0	0	0	0	0	0	0	0	0	0	0	0	0	0	0	0	0	0	0	0	0	0	0	0	0	0	0	0	0	0	0	0	0	0	0	0	0	0	0	0	0	0	0	0	0	0	0	0	0	0	0	0	0	0	0	0	0	0	0	0	0	0	0	0	0	0	0	0	0	0	0	0	0	0	0	0	0	0	0	0	0	0	0	0	0	0	0	0	0	0	0	0	0	0	0	0	0	0	0	0	0	0	0	0	0	0	0	0	0	0	0	0	0	0	0	0	0	0	0	0	0	0	0	0	0	0	2648	2771	2790	2783	2774	2773	2775	2789	2801	2818	2811	2790	2774	2771	2753	2725	2699	2710	2738	2753	2785	2798	2785	2786	2786	2759	2748	2737	2726	2732	2738	2759	2781	2789	2780	2766	2761	2763	2773	2788	2808	2817	2811	2784	2793	2804	2825	2837	2814	2785	2765	2741	2731	2730	2741	2743	2748	2772	2790	2790	2783	2790	2786	2777	2793	2794	2794	2790	2777	2757	2764	2784	2794	2800	2806	2804	2811	2817	2816	2803	2797	2786	2775	2772	2761	2763	2772	2786	2802	2807	2800	2796	2804	2809	2798	2782	2783	2810	2828	2853	2850	2853	2854	2848	2820	2783	2771	2766	2774	2852	2866	2856	2830	2816	2822	2833	2841	2827	2830	2815	2813	2812	2832	2842	2844	2862	2853	2865	2889	2901	2879	2880	2893	2865	2858	2864	2861	2873	2891	2918	2928	2910	2915	2934	2922	2914	2878	2881	2892	2897	2892	2901	2895	2893	2925	2934	2938	2914	2921	2915	2905	2884	2880	2889	2915	2929	2917	2913	2899	2912	2909	2896	2900	2899	2899	2907	2909	2921	2914	2928	2952	2957	2916	2928	2917	2885	2898	2893	2888	2890	2901	2899	2919	2868	2872	2872	2852	2827	2805	2798	2803	2833	2821	2824	2833	2825	2802	2787	2776	2766	2750	2770	2789	2804	2809	2807	2786	2758	2791	2815	2822	2822	2797	2784	2764	2762	2759	2769	2783	2777	2760	2740	2738	2751	2754	2743	2739	2721	2742	2754	2762	2785	2785	2797	2797	2757	2709	2703	2699	2744	2763	2779	2785	2800	2800	2809	2801	2790	2790	2774	2746	2717	2722	2723	2738	2737	2753	2773	2774	2778	2771	2777	2775	2770	2766	2734	2720	2708	2681	2650	2645	2657	2670	2705	2705	2739	2749	2744	2742	2727	2728	2715	2685	2650	2632	2625	2627	2632	2650	2658	2709	2500	2539	2563	2518	2157	2084	2018	1976	1976	1945	1930	1943	1989	2079	2137	2159	2134	2065	2006	1977	1994	2012	2014	1979	1964	1975	1974	2008	2008	2033	2064	2063	2043	2034	2016	1989	1979	2015	2051	2222	0	0	0	0	0	0	0	0	0	0	0	0	0	0	0	0	0	0	0	0	0	0	0	0	0	0	0	0	0	0	0	0	0	0	0	0	0	0	0	0	0	0	0	0	0	0	0	0	0	0	0	0	0	0	0	0	0	0	0	0	0	0	0	0	0	0	0	0	0	0	0	0	0	0	0	0	0	0	0	0	0	0	0	0	0	0	0	0	0	0	0	0	0	0	0	0	0	0	0	0	0	0	0	0	0	0	0	0	0	0	0	0	0	0	0	0	0	0	0	0	0	0	0	0	0	0	0	0	0	0	0	0	0	0	0	0	0
0	0	0	0	0	0	0	0	0	0	0	0	0	0	0	0	0	0	0	0	0	0	0	0	0	0	0	0	0	0	0	0	0	0	0	0	0	0	0	0	0	0	0	0	0	0	0	0	0	0	0	0	0	0	0	0	0	0	0	0	0	0	0	0	0	0	0	0	0	0	0	0	0	0	0	0	0	0	0	0	0	0	0	0	0	0	0	0	0	0	0	0	0	0	0	0	0	0	0	0	0	0	0	0	0	0	0	0	0	0	0	0	0	0	0	0	0	0	0	0	0	0	0	0	0	0	0	0	0	0	0	0	0	0	0	0	0	0	0	0	0	0	0	0	0	0	0	0	0	0	0	0	0	0	0	0	0	0	0	0	0	0	2648	2771	2787	2780	2770	2761	2758	2769	2783	2803	2803	2787	2777	2764	2738	2713	2708	2722	2751	2775	2782	2795	2792	2792	2781	2748	2746	2719	2707	2709	2723	2750	2793	2805	2803	2779	2755	2748	2758	2783	2809	2813	2805	2783	2784	2793	2789	2801	2784	2762	2727	2713	2706	2706	2723	2733	2765	2792	2806	2797	2785	2790	2777	2769	2767	2786	2786	2779	2761	2733	2738	2754	2793	2815	2814	2816	2796	2803	2811	2802	2801	2777	2755	2744	2730	2737	2756	2792	2805	2803	2799	2805	2796	2805	2804	2787	2805	2821	2825	2827	2828	2825	2815	2816	2801	2774	2756	2748	2759	2870	2868	2852	2832	2807	2806	2813	2825	2836	2842	2839	2832	2826	2833	2856	2841	2839	2846	2868	2879	2891	2864	2855	2861	2862	2862	2852	2861	2882	2918	2932	2919	2910	2919	2941	2924	2902	2876	2878	2883	2883	2898	2903	2904	2922	2927	2941	2946	2930	2918	2921	2902	2885	2874	2891	2903	2914	2907	2902	2896	2894	2894	2900	2906	2892	2896	2903	2928	2909	2888	2912	2934	2934	2938	2853	2839	2869	2891	2911	2891	2893	2899	2903	2890	2791	2817	2808	2779	2796	2790	2795	2789	2720	2724	2793	2789	2771	2738	2705	2689	2683	2685	2706	2728	2750	2739	2723	2694	2680	2698	2714	2730	2726	2733	2744	2742	2729	2713	2723	2734	2712	2697	2671	2668	2666	2673	2675	2662	2658	2700	2705	2706	2687	2687	2692	2732	2688	2635	2621	2604	2660	2706	2709	2717	2786	2745	2709	2721	2723	2705	2664	2589	2589	2588	2595	2602	2589	2623	2617	2616	2618	2635	2648	2683	2694	2696	2652	2620	2608	2531	2507	2500	2511	2543	2570	2570	2621	2642	2655	2639	2636	2614	2573	2539	2520	2508	2493	2498	2505	2505	2495	2492	2478	2221	2175	2169	2157	2084	2018	1929	1913	1913	1906	1909	1921	1961	2004	2029	2025	2000	1981	1976	1978	1983	1978	1974	1971	1962	1943	1928	1928	1943	1954	1960	1949	1951	1930	1916	1931	1953	2001	2049	2220	0	0	0	0	0	0	0	0	0	0	0	0	0	0	0	0	0	0	0	0	0	0	0	0	0	0	0	0	0	0	0	0	0	0	0	0	0	0	0	0	0	0	0	0	0	0	0	0	0	0	0	0	0	0	0	0	0	0	0	0	0	0	0	0	0	0	0	0	0	0	0	0	0	0	0	0	0	0	0	0	0	0	0	0	0	0	0	0	0	0	0	0	0	0	0	0	0	0	0	0	0	0	0	0	0	0	0	0	0	0	0	0	0	0	0	0	0	0	0	0	0	0	0	0	0	0	0	0	0	0	0	0	0	0	0	0
0	0	0	0	0	0	0	0	0	0	0	0	0	0	0	0	0	0	0	0	0	0	0	0	0	0	0	0	0	0	0	0	0	0	0	0	0	0	0	0	0	0	0	0	0	0	0	0	0	0	0	0	0	0	0	0	0	0	0	0	0	0	0	0	0	0	0	0	0	0	0	0	0	0	0	0	0	0	0	0	0	0	0	0	0	0	0	0	0	0	0	0	0	0	0	0	0	0	0	0	0	0	0	0	0	0	0	0	0	0	0	0	0	0	0	0	0	0	0	0	0	0	0	0	0	0	0	0	0	0	0	0	0	0	0	0	0	0	0	0	0	0	0	0	0	0	0	0	0	0	0	0	0	0	0	0	0	0	0	0	0	0	2564	2747	2773	2772	2762	2756	2757	2760	2767	2780	2791	2787	2779	2765	2739	2712	2703	2724	2754	2771	2785	2787	2758	2758	2766	2765	2755	2740	2701	2701	2699	2728	2776	2802	2809	2779	2743	2731	2741	2773	2795	2801	2785	2763	2760	2775	2764	2772	2762	2734	2699	2694	2696	2690	2685	2708	2746	2769	2799	2805	2797	2782	2769	2765	2774	2774	2779	2766	2750	2738	2730	2754	2785	2814	2817	2812	2801	2801	2823	2825	2789	2756	2752	2751	2747	2763	2781	2791	2812	2805	2797	2799	2784	2799	2819	2803	2803	2817	2808	2809	2804	2803	2777	2778	2784	2778	2745	2748	2758	2865	2867	2855	2835	2810	2776	2787	2812	2837	2853	2852	2847	2844	2842	2856	2845	2838	2842	2851	2831	2836	2850	2852	2854	2850	2843	2854	2895	2906	2917	2922	2920	2906	2897	2938	2936	2890	2879	2880	2896	2885	2897	2880	2857	2921	2942	2950	2945	2930	2917	2919	2899	2899	2880	2894	2904	2899	2885	2882	2881	2878	2876	2882	2886	2879	2888	2896	2929	2905	2876	2877	2890	2897	2774	2732	2766	2766	2861	2813	2795	2835	2838	2829	2667	2616	2663	2669	2658	2675	2736	2730	2666	2576	2565	2623	2650	2695	2665	2611	2528	2503	2562	2585	2609	2613	2603	2569	2552	2546	2574	2581	2577	2558	2576	2712	2708	2681	2644	2663	2661	2637	2504	2498	2488	2574	2589	2588	2495	2448	2432	2463	2484	2497	2497	2511	2502	2510	2530	2407	2390	2407	2450	2421	2383	2327	2354	2383	2409	2387	2389	2451	2431	2434	2438	2417	2407	2425	2428	2420	2391	2388	2370	2290	2170	2168	2154	2135	2136	2159	2193	2321	2303	2263	2174	2178	2178	2203	2136	2105	2092	2117	2188	2191	2170	2055	2042	2129	2141	2015	2022	2023	2015	1986	1944	1936	1946	1971	1987	1970	1929	1913	1913	1982	1962	1960	1951	1947	1955	1971	1973	1985	1977	1997	1997	1992	1989	1983	1974	1967	1969	1969	1971	1969	1983	1993	1959	1927	1911	1910	1940	1952	1977	2020	0	0	0	0	0	0	0	0	0	0	0	0	0	0	0	0	0	0	0	0	0	0	0	0	0	0	0	0	0	0	0	0	0	0	0	0	0	0	0	0	0	0	0	0	0	0	0	0	0	0	0	0	0	0	0	0	0	0	0	0	0	0	0	0	0	0	0	0	0	0	0	0	0	0	0	0	0	0	0	0	0	0	0	0	0	0	0	0	0	0	0	0	0	0	0	0	0	0	0	0	0	0	0	0	0	0	0	0	0	0	0	0	0	0	0	0	0	0	0	0	0	0	0	0	0	0	0	0	0	0	0	0	0	0	0	0
0	0	0	0	0	0	0	0	0	0	0	0	0	0	0	0	0	0	0	0	0	0	0	0	0	0	0	0	0	0	0	0	0	0	0	0	0	0	0	0	0	0	0	0	0	0	0	0	0	0	0	0	0	0	0	0	0	0	0	0	0	0	0	0	0	0	0	0	0	0	0	0	0	0	0	0	0	0	0	0	0	0	0	0	0	0	0	0	0	0	0	0	0	0	0	0	0	0	0	0	0	0	0	0	0	0	0	0	0	0	0	0	0	0	0	0	0	0	0	0	0	0	0	0	0	0	0	0	0	0	0	0	0	0	0	0	0	0	0	0	0	0	0	0	0	0	0	0	0	0	0	0	0	0	0	0	0	0	0	0	0	0	2485	2701	2770	2767	2760	2740	2719	2741	2756	2768	2787	2790	2795	2781	2760	2725	2715	2731	2761	2775	2780	2761	2727	2727	2745	2760	2772	2756	2706	2680	2695	2721	2758	2787	2795	2780	2740	2723	2728	2759	2773	2782	2776	2755	2743	2772	2764	2764	2760	2740	2705	2682	2679	2683	2696	2715	2726	2745	2762	2756	2763	2756	2755	2738	2747	2747	2765	2756	2739	2736	2741	2766	2786	2788	2793	2799	2798	2798	2797	2792	2772	2761	2754	2756	2766	2777	2775	2796	2815	2805	2782	2746	2740	2780	2796	2805	2802	2785	2776	2761	2763	2762	2748	2761	2759	2750	2727	2729	2727	2773	2867	2850	2825	2807	2757	2753	2766	2802	2825	2856	2852	2836	2828	2809	2845	2844	2843	2826	2852	2854	2841	2798	2777	2794	2807	2806	2897	2910	2907	2879	2888	2867	2841	2885	2923	2884	2869	2868	2877	2884	2674	2838	2797	2786	2938	2943	2940	2910	2922	2926	2901	2907	2891	2877	2836	2833	2881	2872	2856	2835	2811	2828	2760	2600	2527	2486	2805	2824	2834	2831	2853	2582	2446	2497	2513	2592	2605	2456	2507	2442	2382	2416	2227	2352	2413	2426	2440	2428	2505	2634	2544	2460	2399	2345	2339	2332	2427	2411	2371	2369	2348	2356	2410	2479	2463	2412	2392	2402	2408	2418	2370	2325	2287	2222	2170	2134	2093	2117	2150	2153	2155	2126	2065	2059	2101	2114	2063	2050	2031	2015	2007	2028	2028	2022	2020	1993	1989	2001	2043	2017	1963	1942	1938	1962	1964	1957	1951	1948	1960	2001	2011	1996	1964	1940	1928	1924	1922	1937	1966	1982	1988	1999	1999	1993	1968	1951	1945	1960	1967	1950	1938	1962	1961	1980	1980	1978	1977	1971	1964	1963	1971	1982	1976	1964	1949	1948	1945	1971	1994	2009	2001	1981	1955	1939	1941	1966	1996	2017	2011	1999	1999	1982	1962	1960	1942	1927	1931	1955	1963	1972	1967	1974	1984	1976	1975	1981	1988	1992	1994	1994	1982	1994	1989	1975	1951	1923	1912	1907	1899	1928	1957	1994	2207	0	0	0	0	0	0	0	0	0	0	0	0	0	0	0	0	0	0	0	0	0	0	0	0	0	0	0	0	0	0	0	0	0	0	0	0	0	0	0	0	0	0	0	0	0	0	0	0	0	0	0	0	0	0	0	0	0	0	0	0	0	0	0	0	0	0	0	0	0	0	0	0	0	0	0	0	0	0	0	0	0	0	0	0	0	0	0	0	0	0	0	0	0	0	0	0	0	0	0	0	0	0	0	0	0	0	0	0	0	0	0	0	0	0	0	0	0	0	0	0	0	0	0	0	0	0	0	0	0	0	0	0	0	0	0
0	0	0	0	0	0	0	0	0	0	0	0	0	0	0	0	0	0	0	0	0	0	0	0	0	0	0	0	0	0	0	0	0	0	0	0	0	0	0	0	0	0	0	0	0	0	0	0	0	0	0	0	0	0	0	0	0	0	0	0	0	0	0	0	0	0	0	0	0	0	0	0	0	0	0	0	0	0	0	0	0	0	0	0	0	0	0	0	0	0	0	0	0	0	0	0	0	0	0	0	0	0	0	0	0	0	0	0	0	0	0	0	0	0	0	0	0	0	0	0	0	0	0	0	0	0	0	0	0	0	0	0	0	0	0	0	0	0	0	0	0	0	0	0	0	0	0	0	0	0	0	0	0	0	0	0	0	0	0	0	0	0	2460	2670	2754	2773	2766	2747	2712	2730	2744	2761	2771	2787	2794	2790	2771	2741	2725	2745	2763	2761	2759	2730	2698	2698	2706	2726	2776	2754	2705	2682	2684	2708	2738	2773	2775	2742	2729	2706	2708	2720	2738	2752	2743	2735	2733	2757	2758	2760	2747	2749	2731	2699	2690	2715	2711	2711	2709	2698	2692	2717	2727	2725	2733	2715	2723	2723	2723	2715	2708	2712	2726	2752	2741	2734	2741	2756	2769	2754	2747	2715	2715	2711	2734	2727	2733	2729	2721	2763	2784	2764	2705	2669	2680	2702	2737	2743	2742	2702	2688	2690	2694	2713	2695	2686	2675	2654	2659	2645	2661	2644	2610	2810	2795	2745	2679	2570	2580	2684	2685	2697	2758	2736	2686	2584	2580	2677	2774	2763	2713	2684	2655	2613	2553	2518	2667	2637	2615	2678	2506	2553	2579	2596	2594	2686	2630	2530	2627	2624	2529	2481	2379	2343	2394	2659	2626	2605	2610	2599	2587	2612	2628	2627	2442	2371	2427	2427	2429	2377	2339	2315	2325	2264	2261	2306	2268	2189	2136	2042	2019	2043	2109	2222	2321	2377	2380	2338	2155	2216	2402	2318	2237	2150	2092	2105	2168	2199	2196	2086	2043	2015	2006	2013	2175	2107	1964	1976	1999	1990	1976	1973	1975	1970	1968	1974	1955	1955	1960	1983	1980	1961	1952	1947	1951	1955	1948	1933	1920	1917	1920	1935	1958	1953	1951	1966	1976	1997	2013	2003	1995	1988	1978	1960	1953	1953	1949	1953	1963	1966	1982	1979	1958	1950	1948	1951	1948	1941	1927	1937	1942	1940	1971	1969	1966	1943	1928	1910	1917	1928	1945	1972	1984	1988	1983	1974	1958	1949	1947	1947	1956	1947	1930	1921	1937	1947	1959	1959	1974	1959	1952	1950	1970	1994	1977	1966	1954	1939	1939	1942	1991	1990	1995	1983	1966	1949	1941	1948	1970	1990	1993	1998	1998	1982	1971	1962	1942	1927	1931	1933	1953	1959	1964	1966	1966	1959	1955	1973	1989	2003	2012	2012	2001	1993	1987	1977	1960	1937	1918	1914	1918	1930	1940	1979	2201	0	0	0	0	0	0	0	0	0	0	0	0	0	0	0	0	0	0	0	0	0	0	0	0	0	0	0	0	0	0	0	0	0	0	0	0	0	0	0	0	0	0	0	0	0	0	0	0	0	0	0	0	0	0	0	0	0	0	0	0	0	0	0	0	0	0	0	0	0	0	0	0	0	0	0	0	0	0	0	0	0	0	0	0	0	0	0	0	0	0	0	0	0	0	0	0	0	0	0	0	0	0	0	0	0	0	0	0	0	0	0	0	0	0	0	0	0	0	0	0	0	0	0	0	0	0	0	0	0	0	0	0	0	0	0
0	0	0	0	0	0	0	0	0	0	0	0	0	0	0	0	0	0	0	0	0	0	0	0	0	0	0	0	0	0	0	0	0	0	0	0	0	0	0	0	0	0	0	0	0	0	0	0	0	0	0	0	0	0	0	0	0	0	0	0	0	0	0	0	0	0	0	0	0	0	0	0	0	0	0	0	0	0	0	0	0	0	0	0	0	0	0	0	0	0	0	0	0	0	0	0	0	0	0	0	0	0	0	0	0	0	0	0	0	0	0	0	0	0	0	0	0	0	0	0	0	0	0	0	0	0	0	0	0	0	0	0	0	0	0	0	0	0	0	0	0	0	0	0	0	0	0	0	0	0	0	0	0	0	0	0	0	0	0	0	0	0	2448	2618	2723	2737	2738	2726	2719	2722	2732	2744	2750	2748	2765	2762	2751	2733	2727	2736	2749	2740	2712	2686	2661	2661	2669	2671	2700	2672	2653	2644	2650	2669	2686	2711	2711	2678	2683	2677	2666	2656	2660	2678	2698	2704	2702	2717	2721	2720	2726	2728	2724	2705	2682	2682	2674	2671	2654	2643	2635	2663	2678	2686	2679	2686	2675	2675	2682	2659	2657	2661	2669	2678	2651	2631	2638	2663	2656	2653	2648	2636	2638	2647	2651	2644	2654	2632	2642	2666	2684	2607	2573	2560	2531	2549	2595	2605	2597	2557	2522	2505	2595	2590	2592	2541	2485	2479	2453	2503	2568	2240	2386	2429	2376	2340	2333	2345	2353	2419	2411	2400	2445	2455	2381	2350	2317	2329	2358	2354	2448	2473	2451	2404	2348	2308	2310	2369	2464	2572	2290	2377	2454	2500	2376	2254	2260	2346	2552	2543	2345	2265	2297	2246	2264	2045	2128	1952	1922	1920	1938	2066	2020	2074	2147	2234	2314	2353	2336	2292	2228	2233	2212	2168	2147	2072	2055	2027	2015	1999	2001	2014	2041	2069	2044	2014	2022	2082	2064	2034	2009	1990	2038	2016	1994	1970	1952	1952	1950	1938	1936	1944	1955	1955	1949	1960	1977	1989	1999	1995	1980	1967	1973	1968	1963	1949	1945	1948	1957	1978	1999	2010	2012	1969	1949	1946	1939	1933	1932	1930	1930	1939	1937	1941	1943	1946	1958	1975	1984	1992	1995	1993	1978	1955	1947	1947	1945	1960	1960	1960	1971	1981	1965	1948	1940	1938	1941	1934	1923	1935	1932	1941	1964	1981	1977	1955	1924	1913	1914	1920	1933	1953	1967	1962	1962	1960	1949	1946	1943	1951	1943	1943	1937	1925	1934	1943	1956	1956	1956	1950	1937	1939	1966	1999	1977	1964	1943	1935	1935	1945	1964	1977	1975	1981	1971	1947	1935	1935	1943	1954	1972	1983	1983	1983	1978	1965	1948	1918	1916	1933	1953	1959	1956	1953	1952	1945	1950	1962	1981	1997	2003	2003	1997	1990	1988	1992	1986	1964	1947	1934	1938	1942	1913	1973	2218	0	0	0	0	0	0	0	0	0	0	0	0	0	0	0	0	0	0	0	0	0	0	0	0	0	0	0	0	0	0	0	0	0	0	0	0	0	0	0	0	0	0	0	0	0	0	0	0	0	0	0	0	0	0	0	0	0	0	0	0	0	0	0	0	0	0	0	0	0	0	0	0	0	0	0	0	0	0	0	0	0	0	0	0	0	0	0	0	0	0	0	0	0	0	0	0	0	0	0	0	0	0	0	0	0	0	0	0	0	0	0	0	0	0	0	0	0	0	0	0	0	0	0	0	0	0	0	0	0	0	0	0	0	0	0
0	0	0	0	0	0	0	0	0	0	0	0	0	0	0	0	0	0	0	0	0	0	0	0	0	0	0	0	0	0	0	0	0	0	0	0	0	0	0	0	0	0	0	0	0	0	0	0	0	0	0	0	0	0	0	0	0	0	0	0	0	0	0	0	0	0	0	0	0	0	0	0	0	0	0	0	0	0	0	0	0	0	0	0	0	0	0	0	0	0	0	0	0	0	0	0	0	0	0	0	0	0	0	0	0	0	0	0	0	0	0	0	0	0	0	0	0	0	0	0	0	0	0	0	0	0	0	0	0	0	0	0	0	0	0	0	0	0	0	0	0	0	0	0	0	0	0	0	0	0	0	0	0	0	0	0	0	0	0	0	0	0	2410	2551	2662	2696	2682	2674	2671	2690	2709	2707	2698	2688	2698	2692	2694	2681	2690	2705	2704	2685	2646	2612	2607	2607	2612	2609	2594	2577	2569	2576	2575	2589	2594	2598	2605	2580	2605	2605	2594	2563	2558	2569	2600	2635	2628	2618	2612	2612	2643	2650	2652	2612	2575	2527	2559	2589	2599	2598	2608	2615	2613	2524	2542	2588	2603	2603	2622	2602	2598	2606	2604	2594	2552	2519	2511	2538	2550	2554	2477	2492	2506	2529	2548	2545	2526	2519	2505	2512	2453	2429	2413	2408	2383	2401	2422	2453	2398	2379	2345	2328	2317	2180	2180	2210	2256	2284	2278	2197	2132	2147	2372	2339	2292	2235	2192	2188	2200	2244	2270	2274	2288	2276	2208	2180	2166	2204	2218	2179	2221	2212	2064	2066	2121	2147	2160	2186	2081	2072	2108	2152	2011	2019	2040	2108	2123	2135	2110	2054	2082	2076	2041	1996	1952	1972	1925	1900	1915	1917	1933	1998	2002	2024	2043	2074	2068	2002	1997	2024	2066	2039	2003	1983	1947	1938	1940	1944	1946	1974	1983	1980	1978	1983	1989	1991	1975	1953	1955	1969	1953	1935	1936	1954	1962	1950	1941	1932	1926	1932	1943	1955	1958	1953	1964	1971	1977	1985	1987	1980	1975	1966	1971	1969	1955	1944	1938	1936	1951	1975	1999	2010	1988	2004	1971	1954	1947	1949	1963	1968	1975	1965	1946	1934	1930	1928	1937	1955	1972	1990	1996	1995	1981	1959	1942	1942	1939	1948	1951	1955	1962	1972	1963	1948	1935	1938	1931	1922	1914	1919	1930	1958	1969	1983	1974	1962	1933	1915	1916	1921	1935	1944	1941	1942	1948	1958	1956	1954	1952	1947	1942	1943	1939	1940	1943	1941	1943	1943	1937	1940	1939	1949	1963	1991	1978	1954	1941	1944	1937	1951	1964	1981	1969	1956	1942	1953	1948	1945	1944	1948	1950	1974	1974	1983	1980	1964	1940	1913	1909	1919	1938	1950	1956	1953	1952	1945	1944	1950	1966	1976	1977	1977	1977	1976	1985	1990	1981	1973	1958	1946	1946	1946	1924	1977	2233	0	0	0	0	0	0	0	0	0	0	0	0	0	0	0	0	0	0	0	0	0	0	0	0	0	0	0	0	0	0	0	0	0	0	0	0	0	0	0	0	0	0	0	0	0	0	0	0	0	0	0	0	0	0	0	0	0	0	0	0	0	0	0	0	0	0	0	0	0	0	0	0	0	0	0	0	0	0	0	0	0	0	0	0	0	0	0	0	0	0	0	0	0	0	0	0	0	0	0	0	0	0	0	0	0	0	0	0	0	0	0	0	0	0	0	0	0	0	0	0	0	0	0	0	0	0	0	0	0	0	0	0	0	0	0
0	0	0	0	0	0	0	0	0	0	0	0	0	0	0	0	0	0	0	0	0	0	0	0	0	0	0	0	0	0	0	0	0	0	0	0	0	0	0	0	0	0	0	0	0	0	0	0	0	0	0	0	0	0	0	0	0	0	0	0	0	0	0	0	0	0	0	0	0	0	0	0	0	0	0	0	0	0	0	0	0	0	0	0	0	0	0	0	0	0	0	0	0	0	0	0	0	0	0	0	0	0	0	0	0	0	0	0	0	0	0	0	0	0	0	0	0	0	0	0	0	0	0	0	0	0	0	0	0	0	0	0	0	0	0	0	0	0	0	0	0	0	0	0	0	0	0	0	0	0	0	0	0	0	0	0	0	0	0	0	0	2331	2154	2459	2562	2583	2569	2553	2582	2610	2625	2626	2608	2587	2568	2545	2569	2609	2603	2616	2607	2550	2534	2527	2542	2542	2544	2537	2491	2448	2451	2509	2495	2491	2486	2476	2448	2481	2499	2498	2426	2404	2390	2438	2464	2418	2421	2411	2455	2452	2425	2419	2398	2333	2315	2325	2353	2226	2201	2144	2085	2079	2138	2178	2189	2178	2178	2116	2106	2111	2117	2111	2068	2041	2043	2049	1997	2000	2010	2041	2024	1989	1955	1935	1942	1955	1979	1962	1962	1969	1989	1959	1951	1954	1966	1968	1970	1966	1970	1973	1962	1947	1949	1952	1949	1938	1937	1934	1930	1929	1944	1968	1986	2018	2028	2038	1962	1926	1933	1974	1982	1977	1986	1999	1984	1972	1969	1969	1988	1978	1966	1967	1971	1978	1938	1918	1925	1940	1953	1961	1964	1976	1971	1962	1939	1952	1968	1985	1984	1968	1952	1971	1949	1930	1941	1952	1976	1943	1895	1943	1978	1950	1970	1992	1998	1989	1985	1990	1983	1979	1969	1969	1977	1974	1949	1948	1941	1941	1948	1955	1981	1980	1996	1992	1991	1987	1977	1941	1951	1973	1957	1931	1936	1943	1955	1955	1953	1943	1936	1944	1954	1967	1967	1965	1978	1983	1982	1972	1967	1948	1956	1970	1971	1959	1938	1922	1932	1942	1951	1966	1986	1996	1976	1958	1967	1963	1962	1973	1983	1999	2004	1989	1964	1941	1928	1937	1934	1955	1981	1992	1990	1980	1971	1964	1947	1947	1950	1950	1948	1950	1953	1949	1940	1939	1938	1937	1923	1914	1899	1923	1942	1955	1967	1984	1979	1964	1940	1917	1922	1931	1937	1944	1939	1939	1948	1958	1969	1958	1952	1944	1942	1945	1950	1941	1941	1941	1930	1930	1937	1938	1946	1958	1971	1987	1969	1952	1946	1956	1962	1965	1972	1976	1968	1940	1935	1942	1952	1951	1959	1956	1953	1962	1962	1969	1973	1964	1936	1916	1909	1918	1926	1932	1944	1951	1946	1942	1944	1950	1966	1946	1950	1951	1951	1966	1980	1988	1977	1950	1934	1934	1944	1950	1931	1979	2206	0	0	0	0	0	0	0	0	0	0	0	0	0	0	0	0	0	0	0	0	0	0	0	0	0	0	0	0	0	0	0	0	0	0	0	0	0	0	0	0	0	0	0	0	0	0	0	0	0	0	0	0	0	0	0	0	0	0	0	0	0	0	0	0	0	0	0	0	0	0	0	0	0	0	0	0	0	0	0	0	0	0	0	0	0	0	0	0	0	0	0	0	0	0	0	0	0	0	0	0	0	0	0	0	0	0	0	0	0	0	0	0	0	0	0	0	0	0	0	0	0	0	0	0	0	0	0	0	0	0	0	0	0	0	0
0	0	0	0	0	0	0	0	0	0	0	0	0	0	0	0	0	0	0	0	0	0	0	0	0	0	0	0	0	0	0	0	0	0	0	0	0	0	0	0	0	0	0	0	0	0	0	0	0	0	0	0	0	0	0	0	0	0	0	0	0	0	0	0	0	0	0	0	0	0	0	0	0	0	0	0	0	0	0	0	0	0	0	0	0	0	0	0	0	0	0	0	0	0	0	0	0	0	0	0	0	0	0	0	0	0	0	0	0	0	0	0	0	0	0	0	0	0	0	0	0	0	0	0	0	0	0	0	0	1872	1917	1897	1862	1819	1776	1727	1729	1753	0	0	0	0	0	0	1895	1908	1890	1860	1843	1839	1876	1922	1957	1995	2020	2002	1965	1927	1914	1914	1913	1936	2228	2372	2414	2394	2418	2427	2445	2314	2303	2435	2425	2284	2265	2176	2137	2141	2146	2135	2092	2108	2113	2075	2019	2019	2017	2016	2009	2008	2025	2043	2048	2048	2020	1990	1984	1984	1983	1980	1959	1964	1953	1959	1952	1936	1922	1902	1922	1948	1974	1987	1981	1962	1945	1928	1925	1925	1909	1892	1879	1887	1913	1926	1938	1947	1947	1950	1953	1947	1931	1925	1942	1950	1960	1965	1955	1930	1921	1926	1910	1900	1901	1910	1927	1934	1945	1934	1948	1962	1969	1960	1950	1954	1981	1981	1969	1959	1969	1967	1948	1917	1904	1909	1929	1944	1953	1950	1922	1937	1957	1975	2000	2003	2000	1981	1951	1939	1931	1971	1985	1982	1980	1977	1937	1933	1937	1951	1949	1962	1964	1961	1968	1969	1964	1959	1939	1931	1932	1940	1965	1976	1977	1964	1946	1960	1955	1945	1962	1949	1952	1962	1920	1931	1954	1964	1954	1938	1922	1945	1952	1944	1961	2001	2001	1992	1994	1992	1981	1973	1971	1970	1986	1988	1971	1962	1955	1961	1963	1966	1982	2003	2016	2016	1989	1977	1967	1947	1979	1989	1977	1943	1942	1951	1947	1959	1960	1955	1941	1942	1951	1965	1971	1978	1972	1969	1967	1962	1935	1924	1943	1958	1958	1943	1920	1917	1928	1943	1951	1957	1972	1985	1967	1958	1962	1957	1964	1982	2007	2017	2020	2010	1977	1954	1935	1936	1935	1960	1984	1992	1962	1958	1956	1962	1964	1964	1964	1963	1957	1953	1953	1947	1931	1929	1940	1939	1915	1901	1894	1929	1943	1955	1966	1983	1984	1968	1942	1930	1925	1937	1947	1949	1945	1949	1958	1968	1966	1960	1945	1939	1941	1948	1940	1946	1939	1927	1916	1916	1925	1940	1956	1964	1973	1989	1977	1967	1949	1950	1958	1969	1968	1958	1952	1929	1922	1940	1948	1963	1956	1958	1949	1953	1953	1960	1967	1957	1936	1916	1923	1920	1929	1929	1938	1938	1948	1949	1952	1952	1952	1946	1950	1951	1951	1962	1977	1975	1959	1932	1919	1919	1932	1944	1935	1982	2162	0	0	0	0	0	0	0	0	0	0	0	0	0	0	0	0	0	0	0	0	0	0	0	0	0	0	0	0	0	0	0	0	0	0	0	0	0	0	0	0	0	0	0	0	0	0	0	0	0	0	0	0	0	0	0	0	0	0	0	0	0	0	0	0	0	0	0	0	0	0	0	0	0	0	0	0	0	0	0	0	0	0	0	0	0	0	0	0	0	0	0	0	0	0	0	0	0	0	0	0	0	0	0	0	0	0	0	0	0	0	0	0	0	0	0	0	0	0	0	0	0	0	0	0	0	0	0	0	0	0	0	0	0	0	0
0	0	0	0	0	0	0	0	0	0	0	0	0	0	0	0	0	0	0	0	0	0	0	0	0	0	0	0	0	0	0	0	0	0	0	0	0	0	0	0	0	0	0	0	0	0	0	0	0	0	0	0	0	0	0	0	0	0	0	0	0	0	0	0	0	0	0	0	0	0	0	0	0	0	0	0	0	0	0	0	0	0	0	0	0	0	0	0	0	0	0	0	0	0	0	0	0	0	0	0	0	0	0	0	0	0	0	0	0	0	0	0	0	0	0	0	0	0	0	0	0	0	0	0	0	0	0	0	1877	1915	1878	1884	1895	1877	1776	1727	1729	1753	1782	1803	1803	1832	1880	1880	1881	1886	1922	1939	1933	1926	1910	1907	1901	1899	1896	1909	1914	1925	1928	1928	1920	1903	1899	1917	1942	1955	1943	1941	1947	1936	1911	1901	1904	1898	1899	1917	1927	1957	2005	2000	2007	1971	1959	1944	1944	1935	1956	1977	1984	1973	1966	1968	1981	1987	1977	1957	1933	1928	1908	1890	1895	1913	1927	1929	1929	1913	1892	1893	1893	1907	1930	1962	1953	1945	1935	1932	1932	1921	1923	1909	1902	1907	1926	1945	1952	1953	1953	1955	1963	1960	1953	1955	1957	1963	1966	1963	1939	1925	1922	1926	1921	1906	1900	1902	1912	1920	1922	1922	1940	1955	1955	1953	1953	1965	1986	1977	1966	1960	1958	1964	1964	1936	1912	1906	1914	1938	1960	1936	1928	1925	1956	1977	1994	2010	1996	1981	1927	1926	1951	1953	1959	1966	1959	1961	1962	1972	1963	1977	1983	1982	1981	1971	1922	1942	1955	1960	1966	1957	1943	1956	1956	1962	1971	1964	1957	1959	1960	1955	1967	1972	1954	1946	1951	1965	1964	1935	1934	1947	1965	1971	1978	1967	1977	2009	2007	1990	1992	1992	1984	1977	1976	1981	1992	1995	1981	1968	1962	1966	1964	1970	1980	2007	2018	2018	1985	1978	1962	1963	1992	2001	1997	1958	1951	1959	1952	1950	1956	1956	1948	1937	1936	1939	1968	1981	1981	1960	1951	1939	1930	1929	1934	1944	1944	1933	1929	1919	1935	1963	1963	1947	1956	1970	1972	1968	1976	1963	1962	1981	1997	2015	2020	2012	1991	1956	1937	1943	1950	1960	1971	1964	1954	1946	1945	1952	1956	1969	1969	1973	1962	1957	1950	1939	1933	1931	1945	1938	1920	1900	1920	1936	1949	1960	1972	1990	1995	1977	1953	1924	1927	1931	1939	1940	1945	1951	1960	1960	1952	1946	1934	1934	1945	1955	1948	1948	1945	1931	1906	1906	1906	1933	1944	1950	1956	1968	1981	1975	1959	1957	1963	1971	1973	1948	1935	1922	1931	1936	1952	1963	1954	1953	1949	1949	1951	1951	1953	1942	1928	1917	1911	1939	1928	1937	1926	1929	1951	1957	1953	1952	1950	1936	1942	1945	1945	1962	1977	1975	1959	1937	1919	1929	1939	1936	1930	1975	2174	0	0	0	0	0	0	0	0	0	0	0	0	0	0	0	0	0	0	0	0	0	0	0	0	0	0	0	0	0	0	0	0	0	0	0	0	0	0	0	0	0	0	0	0	0	0	0	0	0	0	0	0	0	0	0	0	0	0	0	0	0	0	0	0	0	0	0	0	0	0	0	0	0	0	0	0	0	0	0	0	0	0	0	0	0	0	0	0	0	0	0	0	0	0	0	0	0	0	0	0	0	0	0	0	0	0	0	0	0	0	0	0	0	0	0	0	0	0	0	0	0	0	0	0	0	0	0	0	0	0	0	0	0	0	0
0	0	0	0	0	0	0	0	0	0	0	0	0	0	0	0	0	0	0	0	0	0	0	0	0	0	0	0	0	0	0	0	0	0	0	0	0	0	0	0	0	0	0	0	0	0	0	0	0	0	0	0	0	0	0	0	0	0	0	0	0	0	0	0	0	0	0	0	0	0	0	0	0	0	0	0	0	0	0	0	0	0	0	0	0	0	0	0	0	0	0	0	0	0	0	0	0	0	0	0	0	0	0	0	0	0	0	0	0	0	0	0	0	0	0	0	0	0	0	0	0	0	0	0	0	0	0	1891	1911	1888	1878	1884	1895	1877	1853	1850	1861	1874	1887	1887	1887	1878	1870	1870	1878	1911	1925	1924	1924	1914	1907	1908	1913	1903	1887	1871	1870	1884	1891	1891	1891	1879	1875	1886	1899	1906	1894	1898	1910	1911	1909	1904	1900	1895	1897	1905	1914	1940	1959	1961	1955	1953	1953	1938	1938	1935	1949	1970	1991	1982	1964	1954	1961	1966	1963	1945	1929	1916	1910	1900	1905	1915	1925	1923	1915	1899	1882	1891	1903	1914	1926	1920	1926	1924	1922	1925	1936	1931	1938	1930	1925	1936	1947	1947	1953	1945	1945	1942	1948	1958	1958	1962	1967	1969	1966	1960	1944	1924	1924	1936	1925	1914	1897	1897	1902	1909	1911	1920	1936	1944	1944	1934	1932	1925	1950	1956	1955	1953	1959	1963	1958	1951	1928	1925	1927	1959	1965	1946	1937	1924	1942	1977	1990	2004	1962	1935	1927	1921	1929	1943	1959	1957	1941	1945	1964	1965	1974	1973	1985	1984	1970	1961	1952	1927	1934	1949	1948	1959	1962	1966	1965	1960	1962	1956	1964	1965	1972	1954	1983	1982	1971	1948	1945	1939	1929	1925	1958	1961	1972	1961	1972	1973	1984	2001	1996	1983	1971	1969	1976	1974	1977	1990	1993	1997	1977	1965	1961	1962	1968	1968	1984	1993	2006	2004	1983	1975	1964	1972	1980	1993	1997	1992	1976	1959	1944	1938	1954	1957	1949	1927	1930	1925	1957	1971	1969	1948	1934	1933	1925	1924	1927	1926	1927	1924	1938	1935	1970	1962	1955	1949	1950	1968	1981	1990	1990	1962	1948	1959	1973	1988	2002	2009	1993	1960	1947	1957	1962	1965	1969	1962	1955	1954	1942	1947	1955	1973	1973	1977	1964	1958	1943	1949	1943	1944	1943	1942	1931	1922	1926	1944	1955	1962	1977	1999	1994	1977	1954	1938	1924	1915	1913	1920	1939	1949	1956	1952	1932	1933	1932	1953	1959	1965	1954	1944	1950	1925	1919	1919	1919	1931	1921	1929	1939	1962	1973	1976	1968	1956	1950	1961	1959	1946	1928	1922	1936	1943	1942	1949	1958	1940	1945	1940	1938	1938	1934	1922	1916	1915	1921	1952	1948	1938	1928	1933	1953	1958	1958	1962	1956	1947	1929	1941	1941	1964	1977	1977	1957	1937	1919	1929	1939	1949	1935	1988	2193	0	0	0	0	0	0	0	0	0	0	0	0	0	0	0	0	0	0	0	0	0	0	0	0	0	0	0	0	0	0	0	0	0	0	0	0	0	0	0	0	0	0	0	0	0	0	0	0	0	0	0	0	0	0	0	0	0	0	0	0	0	0	0	0	0	0	0	0	0	0	0	0	0	0	0	0	0	0	0	0	0	0	0	0	0	0	0	0	0	0	0	0	0	0	0	0	0	0	0	0	0	0	0	0	0	0	0	0	0	0	0	0	0	0	0	0	0	0	0	0	0	0	0	0	0	0	0	0	0	0	0	0	0	0	0
0	0	0	0	0	0	0	0	0	0	0	0	0	0	0	0	0	0	0	0	0	0	0	0	0	0	0	0	0	0	0	0	0	0	0	0	0	0	0	0	0	0	0	0	0	0	0	0	0	0	0	0	0	0	0	0	0	0	0	0	0	0	0	0	0	0	0	0	0	0	0	0	0	0	0	0	0	0	0	0	0	0	0	0	0	0	0	0	0	0	0	0	0	0	0	0	0	0	0	0	0	0	0	0	0	0	0	0	0	0	0	0	0	0	0	0	0	0	0	0	0	0	0	0	0	0	0	1891	1911	1888	1872	1839	1857	1868	1862	1859	1870	1884	1894	1888	1888	1874	1868	1867	1881	1906	1915	1914	1909	1903	1903	1905	1913	1897	1887	1869	1861	1876	1888	1888	1882	1875	1879	1884	1879	1876	1881	1891	1909	1915	1911	1909	1907	1902	1898	1904	1911	1925	1928	1931	1925	1927	1928	1924	1924	1925	1934	1944	1980	1977	1950	1928	1933	1936	1933	1923	1917	1901	1911	1910	1916	1927	1923	1910	1902	1894	1882	1897	1905	1920	1931	1927	1896	1901	1909	1913	1915	1931	1936	1950	1948	1943	1952	1940	1941	1939	1939	1933	1943	1960	1963	1967	1968	1960	1949	1944	1932	1934	1934	1946	1942	1930	1911	1890	1891	1902	1910	1915	1927	1932	1931	1928	1909	1905	1910	1920	1928	1941	1944	1956	1937	1916	1927	1932	1943	1962	1969	1957	1934	1929	1935	1956	1980	1954	1958	1945	1929	1920	1928	1931	1951	1961	1944	1946	1961	1963	1968	1963	1973	1974	1980	1961	1947	1928	1940	1976	1965	1954	1971	1985	1980	1957	1961	1960	1976	1982	1972	1951	1974	1966	1961	1954	1949	1955	1943	1948	1951	1978	1957	1945	1966	1997	2004	2009	1989	1953	1941	1934	1948	1968	1975	1982	1986	1984	1988	1960	1958	1963	1959	1961	1956	1958	1977	1984	1983	1979	1957	1981	1976	1978	1985	1996	1983	1962	1943	1946	1954	1968	1960	1942	1944	1941	1962	1973	1955	1946	1943	1936	1926	1916	1919	1927	1914	1928	1930	1942	1943	1939	1927	1924	1936	1970	1985	2006	1980	1934	1931	1937	1947	1970	1991	2004	1991	1969	1957	1971	1977	1974	1960	1959	1952	1951	1945	1944	1943	1955	1955	1964	1948	1951	1960	1963	1956	1945	1942	1938	1927	1927	1926	1939	1957	1975	1991	1992	1985	1961	1950	1938	1920	1898	1890	1909	1926	1947	1952	1951	1933	1922	1938	1966	1979	1971	1954	1946	1941	1920	1928	1928	1940	1931	1923	1925	1933	1960	1987	1992	1980	1958	1948	1953	1957	1953	1943	1935	1935	1928	1928	1935	1944	1941	1943	1940	1930	1930	1919	1905	1902	1910	1936	1955	1952	1940	1944	1942	1949	1947	1949	1953	1956	1940	1931	1933	1933	1946	1968	1970	1955	1938	1932	1940	1949	1949	1935	1988	2193	0	0	0	0	0	0	0	0	0	0	0	0	0	0	0	0	0	0	0	0	0	0	0	0	0	0	0	0	0	0	0	0	0	0	0	0	0	0	0	0	0	0	0	0	0	0	0	0	0	0	0	0	0	0	0	0	0	0	0	0	0	0	0	0	0	0	0	0	0	0	0	0	0	0	0	0	0	0	0	0	0	0	0	0	0	0	0	0	0	0	0	0	0	0	0	0	0	0	0	0	0	0	0	0	0	0	0	0	0	0	0	0	0	0	0	0	0	0	0	0	0	0	0	0	0	0	0	0	0	0	0	0	0	0	0
0	0	0	0	0	0	0	0	0	0	0	0	0	0	0	0	0	0	0	0	0	0	0	0	0	0	0	0	0	0	0	0	0	0	0	0	0	0	0	0	0	0	0	0	0	0	0	0	0	0	0	0	0	0	0	0	0	0	0	0	0	0	0	0	0	0	0	0	0	0	0	0	0	0	0	0	0	0	0	0	0	0	0	0	0	0	0	0	0	0	0	0	0	0	0	0	0	0	0	0	0	0	0	0	0	0	0	0	0	0	0	0	0	0	0	0	0	0	0	0	0	0	0	0	0	0	0	1904	1887	1876	1863	1866	1870	1874	1868	1858	1869	1881	1892	1892	1896	1892	1880	1879	1887	1908	1921	1918	1910	1908	1912	1912	1914	1896	1881	1862	1858	1869	1876	1876	1877	1875	1878	1877	1866	1867	1878	1901	1915	1921	1918	1915	1915	1915	1904	1901	1901	1911	1913	1905	1899	1901	1919	1924	1924	1927	1929	1941	1965	1975	1943	1925	1911	1909	1909	1906	1902	1900	1905	1914	1926	1929	1922	1911	1904	1895	1905	1915	1919	1934	1936	1933	1903	1901	1903	1909	1913	1911	1936	1950	1946	1938	1932	1929	1929	1924	1924	1931	1941	1957	1969	1961	1937	1931	1927	1927	1930	1928	1940	1947	1955	1944	1920	1885	1877	1884	1909	1909	1931	1925	1924	1915	1903	1892	1890	1896	1905	1924	1938	1937	1921	1900	1900	1931	1947	1949	1963	1960	1952	1937	1933	1950	1968	1958	1955	1951	1938	1929	1928	1946	1959	1958	1945	1940	1953	1950	1957	1952	1949	1964	1958	1963	1956	1930	1958	1958	1944	1961	1985	1987	1966	1951	1942	1957	1978	1975	1971	1937	1949	1959	1955	1952	1960	1976	1983	1985	1980	1961	1969	1953	1968	1982	2003	2002	1983	1950	1951	1942	1939	1950	1954	1969	1981	1988	1978	1952	1958	1956	1952	1952	1949	1957	1963	1988	1990	1988	1972	1994	1981	1989	1989	1993	1985	1970	1967	1971	1982	1998	1981	1968	1969	1968	1987	1981	1955	1957	1950	1945	1933	1926	1920	1915	1923	1912	1918	1919	1916	1905	1902	1907	1916	1958	1991	1979	1932	1913	1912	1923	1942	1965	1984	2002	1973	1961	1959	1971	1973	1964	1960	1949	1949	1945	1943	1934	1933	1938	1938	1938	1945	1943	1960	1967	1973	1964	1950	1942	1927	1934	1928	1940	1955	1985	1994	1985	1969	1949	1935	1920	1906	1890	1880	1891	1922	1936	1956	1957	1951	1915	1937	1969	1983	1969	1949	1935	1933	1927	1933	1943	1943	1940	1928	1927	1945	1968	1987	1989	1980	1970	1956	1951	1953	1964	1961	1961	1946	1929	1915	1920	1928	1939	1952	1948	1930	1930	1911	1895	1897	1916	1933	1952	1955	1949	1952	1957	1959	1949	1938	1942	1952	1934	1921	1925	1925	1937	1960	1971	1958	1952	1957	1960	1963	1944	1956	1984	0	0	0	0	0	0	0	0	0	0	0	0	0	0	0	0	0	0	0	0	0	0	0	0	0	0	0	0	0	0	0	0	0	0	0	0	0	0	0	0	0	0	0	0	0	0	0	0	0	0	0	0	0	0	0	0	0	0	0	0	0	0	0	0	0	0	0	0	0	0	0	0	0	0	0	0	0	0	0	0	0	0	0	0	0	0	0	0	0	0	0	0	0	0	0	0	0	0	0	0	0	0	0	0	0	0	0	0	0	0	0	0	0	0	0	0	0	0	0	0	0	0	0	0	0	0	0	0	0	0	0	0	0	0	0	0
0	0	0	0	0	0	0	0	0	0	0	0	0	0	0	0	0	0	0	0	0	0	0	0	0	0	0	0	0	0	0	0	0	0	0	0	0	0	0	0	0	0	0	0	0	0	0	0	0	0	0	0	0	0	0	0	0	0	0	0	0	0	0	0	0	0	0	0	0	0	0	0	0	0	0	0	0	0	0	0	0	0	0	0	0	0	0	0	0	0	0	0	0	0	0	0	0	0	0	0	0	0	0	0	0	0	0	0	0	0	0	0	0	0	0	0	0	0	0	0	0	0	0	0	0	0	0	1917	1884	1873	1879	1888	1888	1886	1877	1872	1872	1887	1894	1894	1900	1907	1903	1899	1906	1921	1945	1950	1934	1929	1920	1918	1905	1887	1871	1858	1859	1851	1858	1858	1867	1882	1885	1876	1868	1871	1887	1911	1927	1929	1918	1918	1919	1924	1919	1905	1895	1895	1890	1890	1877	1888	1905	1924	1924	1921	1924	1926	1942	1946	1930	1912	1903	1900	1901	1903	1894	1890	1884	1911	1927	1937	1936	1922	1914	1910	1919	1924	1935	1940	1938	1936	1924	1921	1924	1920	1907	1897	1915	1927	1937	1928	1926	1918	1906	1906	1898	1914	1940	1961	1966	1952	1924	1906	1900	1900	1913	1925	1947	1967	1969	1955	1927	1886	1873	1869	1897	1909	1919	1936	1934	1924	1903	1892	1888	1901	1898	1910	1924	1924	1916	1905	1906	1923	1929	1935	1941	1950	1946	1936	1932	1948	1960	1955	1952	1963	1944	1933	1934	1950	1960	1956	1940	1923	1943	1948	1965	1946	1941	1939	1960	1961	1933	1934	1933	1937	1970	1976	1968	1966	1959	1953	1949	1963	1968	1971	1970	1931	1954	1961	1965	1978	1958	1960	1969	1976	1980	1987	1978	1978	1984	1989	1986	1986	1965	1960	1956	1951	1935	1946	1948	1965	1970	1976	1963	1950	1949	1950	1943	1930	1930	1942	1961	1973	1997	1994	1983	2003	2019	2001	1987	1986	1969	1945	1955	1979	1997	1990	1984	1987	1994	2005	2002	1983	1965	1955	1957	1957	1950	1940	1929	1911	1907	1903	1912	1908	1893	1890	1890	1904	1912	1926	1965	1942	1917	1900	1902	1919	1942	1963	1985	1979	1969	1959	1959	1964	1962	1960	1953	1943	1937	1939	1942	1932	1928	1920	1920	1924	1933	1950	1969	1992	1988	1982	1963	1942	1939	1940	1936	1940	1958	1984	1984	1984	1970	1949	1927	1908	1886	1881	1881	1874	1865	1874	1924	1966	1965	1964	1982	1995	2009	1985	1967	1928	1924	1931	1930	1935	1935	1936	1935	1950	1976	1988	1985	1982	1962	1957	1963	1965	1966	1977	1980	1984	1965	1947	1925	1910	1908	1938	1954	1959	1943	1943	1923	1912	1917	1928	1938	1942	1952	1962	1967	1969	1974	1980	1980	1971	1935	1909	1912	1917	1917	1931	1930	1900	1892	1919	1956	1963	1955	1943	1936	2227	0	0	0	0	0	0	0	0	0	0	0	0	0	0	0	0	0	0	0	0	0	0	0	0	0	0	0	0	0	0	0	0	0	0	0	0	0	0	0	0	0	0	0	0	0	0	0	0	0	0	0	0	0	0	0	0	0	0	0	0	0	0	0	0	0	0	0	0	0	0	0	0	0	0	0	0	0	0	0	0	0	0	0	0	0	0	0	0	0	0	0	0	0	0	0	0	0	0	0	0	0	0	0	0	0	0	0	0	0	0	0	0	0	0	0	0	0	0	0	0	0	0	0	0	0	0	0	0	0	0	0	0	0	0	0	0
