0	0	0	0	0	915	915	933	944	935	929	920	920	919	925	920	924	911	905	905	911	0	952	961	950	932	932	916	914	921	938	955	959	959	925	0	0	900	924	911	911	895	912	932	935	948	936	936	950	954	942	933	930	911	888	888	872	868	885	888	875	880	896	917	917	936	932	916	900	880	867	880	887	887	886	877	854	828	815	817	840	854	854	866	875	899	920	936	932	936	943	949	949	923	906	901	908	930	944	942	929	920	918	918	920	922	925	918	896	894	903	933	952	937	915	915	892	875	877	908	898	884	865	873	875	882	899	912	922	922	923	922	911	896	906	915	924	928	940	966	967	954	925	910	910	915	930	937	946	961	972	967	947	912	903	917	941	954	972	977	980	973	973	952	965	977	979	964	965	961	970	975	971	961	964	982	997	992	976	950	936	935	970	970	986	977	965	967	970	978	977	972	962	954	948	942	948	960	970	980	974	964	945	940	953	956	971	983	983	968	957	949	945	945	944	962	977	974	961	959	952	954	970	990	981	970	962	974	974	963	954	949	959	977	988	991	987	975	968	968	955	937	927	940	943	953	966	960	953	961	968	970	968	959	954	936	921	921	935	954	976	989	992	992	992	990	996	1009	1001	993	977	973	966	964	954	950	958	972	984	987	967	965	984	1015	1030	1018	1001	975	967	984	1023	1044	1040	1020	1003	990	979	985	980	977	948	932	925	932	945	953	987	984	973	968	957	942	943	945	963	975	963	941	930	935	951	963	974	978	985	996	1008	1013	1004	977	957	949	964	980	993	990	976	952	948	954	958	958	973	980	982	981	975	957	969	979	992	985	970	948	934	931	941	960	970	964	950	939	942	953	967	972	964	961	961	948	947	931	928	926	924	918	921	936	931	923	910	915	916	909	906	910	913	907	897	891	903	914	923	915	916	921	927	929	938	940	925	909	888	869	864	866	873	892	909	952	959	959	963	962	964	955	929	903	884	884	880	879	885	885	890	898	912	924	916	914	912	908	902	885	884	882	875	875	875	876	883	892	895	883	869	864	869	875	875	894	911	915	878	866	876	883	866	865	871	877	883	890	901	891	885	886	889	882	878	880	880	874	881	871	873	882	885	896	886	883	877	877	886	879	874	867	862	847	847	842	857	868	871	877	885	880	867	850	837	813	806	805	823	823	838	852	858	852	841	828	831	839	870	858	851	845	845	842	847	844	849	865	878	881	874	851	818	809	809	817	843	858	864	867	862	847	829	834	843	843	848	849	865	870	871	856	844	834	828	828	837	843	850	850	849	843	833	831	827	827	818	818	827	832	812	798	788	795	795	808	833	856	858	857	848	849	849	854	857	849	834	820	822	834	834	833	822	815	807	808	820	820	833	844	834	809	785	777	796	796	822	837	845	847	849	853	853	847	848	858	852	838	838	819	815	832	843	856	844	844	829	821	803	803	804	804	812	825	841	844	853	853	859	851	823	800	790	790	798	796
0	0	0	0	0	0	0	0	0	0	0	0	0	0	0	0	0	0	0	0	0	0	952	929	927	915	915	908	0	0	0	0	0	0	0	0	0	0	890	892	892	896	910	928	948	935	936	942	942	950	954	933	930	906	887	864	864	868	880	886	875	881	888	908	908	913	902	892	883	861	848	863	870	870	882	867	851	832	839	836	853	857	857	866	875	891	910	920	925	933	941	927	910	910	898	896	894	914	924	925	920	902	894	904	904	903	900	889	887	879	878	900	918	913	897	875	875	874	896	908	898	881	856	849	853	860	866	891	909	909	919	920	916	903	904	904	908	921	934	947	944	925	900	903	903	917	919	917	916	926	936	941	932	928	928	934	948	957	963	961	951	942	942	952	965	957	965	955	955	961	983	986	976	968	965	978	981	983	971	958	944	935	958	979	979	981	974	972	986	985	986	973	963	955	942	942	950	956	965	960	960	949	933	923	939	943	964	972	978	964	960	955	947	945	945	960	981	978	955	942	944	949	970	990	971	953	961	970	980	978	964	957	966	974	987	988	983	966	962	955	946	927	915	918	923	937	942	942	952	963	972	968	961	955	950	938	920	921	927	945	962	978	993	986	984	984	985	993	994	983	966	941	932	927	935	935	945	963	976	984	985	975	972	975	977	976	967	953	944	971	1001	1029	1023	1003	971	958	952	950	943	943	927	914	902	907	927	945	955	952	943	931	925	921	922	926	942	957	960	948	934	936	944	959	973	985	996	996	1000	1011	1001	980	953	949	959	973	991	981	962	935	924	925	945	955	984	1000	1011	1010	1004	1003	1009	995	983	968	944	925	912	901	909	919	930	936	934	928	931	944	958	959	939	939	930	932	930	924	920	915	922	909	908	912	909	901	900	904	910	912	917	924	931	921	907	893	899	916	910	893	883	901	914	927	941	940	916	895	861	848	846	848	859	892	909	922	936	946	941	939	941	938	901	883	883	882	880	880	888	892	890	889	893	891	896	895	894	883	877	868	852	852	861	881	884	889	898	901	897	894	884	872	869	878	878	886	905	895	870	858	864	878	880	871	868	865	874	882	887	885	878	872	872	882	878	866	866	855	873	902	902	892	883	880	878	880	875	867	861	858	852	843	838	838	835	836	847	849	842	855	863	870	861	852	836	823	808	806	810	810	817	825	832	834	820	808	831	839	843	849	851	842	842	847	851	848	846	857	869	872	866	849	815	809	809	831	846	855	853	846	837	819	807	809	818	818	837	862	875	884	877	859	846	834	830	830	835	846	859	861	857	843	834	827	827	817	819	824	824	828	820	812	792	792	791	799	821	834	837	837	835	835	835	836	845	849	834	822	826	827	827	816	800	790	780	782	799	799	830	829	823	799	781	781	781	798	822	839	848	849	853	853	850	845	848	858	854	843	843	820	803	816	822	833	838	838	831	833	823	809	798	798	787	794	795	798	790	790	796	793	788	778	790	790	787	790
0	0	0	0	0	0	0	0	0	0	0	0	0	0	0	0	0	0	0	0	0	0	934	929	927	919	919	0	0	0	0	0	0	0	0	0	0	0	856	875	875	881	898	917	926	933	924	922	922	933	921	920	915	906	870	858	858	865	876	885	874	874	879	887	887	885	882	880	867	839	830	836	859	859	866	858	856	852	857	879	889	885	875	875	883	891	910	901	913	916	914	901	891	891	896	887	890	895	906	903	886	880	876	880	880	879	882	877	874	861	854	860	878	875	862	842	842	859	899	916	907	881	856	846	838	836	840	856	878	878	891	909	911	906	898	890	896	908	932	933	917	899	889	895	905	905	905	897	895	900	911	915	912	913	923	932	946	946	938	929	918	926	926	934	947	957	937	939	944	955	967	976	960	949	957	969	970	970	961	960	951	942	960	981	981	981	974	969	979	989	992	984	963	949	943	944	942	943	931	932	949	947	944	934	945	949	960	969	960	951	948	959	952	950	950	957	964	961	955	943	947	952	971	983	971	953	961	959	968	966	971	969	977	980	980	975	968	957	944	937	928	923	922	922	918	929	932	931	937	952	954	948	942	941	946	950	942	938	938	947	954	964	971	973	968	968	970	974	978	970	950	930	919	922	922	926	932	949	956	965	958	945	931	935	946	961	962	949	950	974	1000	1018	1012	977	948	942	939	940	938	935	927	906	896	893	922	945	955	943	927	914	911	915	915	924	935	947	950	949	935	936	949	956	967	981	985	969	967	990	997	977	950	933	936	959	967	972	957	933	925	926	943	959	980	1003	1022	1036	1044	1050	1025	988	960	949	938	920	897	883	882	897	911	921	917	919	926	935	946	937	937	915	897	901	911	911	909	906	906	902	898	896	891	882	882	895	906	920	930	942	937	921	908	914	927	924	913	899	893	893	915	932	943	938	915	867	840	844	851	848	859	877	892	905	915	919	916	912	922	921	900	900	892	892	882	884	883	892	890	887	886	876	889	890	882	871	860	867	863	869	875	889	896	905	903	901	899	897	892	883	877	877	878	874	893	898	864	849	859	871	879	874	861	855	865	877	888	883	876	872	872	871	864	864	855	852	862	893	914	898	877	857	861	871	874	860	854	837	826	817	819	819	819	822	826	818	821	833	841	840	839	838	830	816	806	809	809	797	788	801	809	810	820	808	803	802	828	833	840	848	848	855	853	846	846	847	856	865	869	852	825	821	821	834	843	846	842	829	809	795	787	784	791	791	814	847	868	882	878	859	846	832	822	822	815	836	854	866	861	844	831	826	826	816	820	818	820	814	804	797	789	789	781	793	809	811	814	811	820	820	818	836	845	828	823	832	838	838	829	803	781	767	766	781	797	797	823	820	810	796	787	787	787	805	829	842	837	838	845	845	850	845	844	853	863	843	843	813	788	794	805	815	815	829	836	833	828	813	803	803	787	774	773	777	769	769	764	762	788	778	780	780	782	789
0	0	0	0	0	0	0	0	0	0	0	0	0	0	0	0	0	0	0	0	0	0	922	923	921	919	919	0	0	0	0	0	0	0	0	0	0	0	830	844	857	857	853	878	906	922	934	927	927	904	896	887	886	885	870	858	838	854	866	866	862	859	874	875	874	874	865	863	842	822	820	829	847	847	849	850	850	852	873	887	887	887	879	879	881	886	888	901	913	881	865	865	869	869	872	870	874	882	885	883	868	863	869	877	877	883	878	874	862	845	841	838	841	835	811	821	821	858	911	929	912	888	856	846	838	835	832	840	851	865	865	885	903	904	894	889	900	914	923	912	899	888	880	886	898	898	894	890	885	891	897	904	900	911	910	923	931	928	908	900	901	911	919	919	929	933	937	939	922	924	925	928	927	920	924	934	932	937	939	938	942	941	951	965	976	976	963	961	968	980	980	976	963	949	936	940	936	916	904	890	934	956	957	953	953	962	968	962	948	945	937	938	942	950	950	950	949	955	963	963	963	966	964	961	952	928	932	959	968	965	968	969	968	956	953	952	943	937	928	917	908	915	927	933	937	928	930	926	919	926	931	922	916	929	954	963	959	955	951	948	948	947	945	946	948	955	955	961	958	954	947	939	928	926	927	922	907	908	903	906	915	913	916	918	926	939	938	930	940	978	997	1004	995	981	963	951	944	939	932	935	920	904	889	897	912	941	946	939	923	917	912	917	920	921	929	933	934	952	957	953	943	944	938	939	936	932	945	957	968	960	933	912	917	935	949	953	946	940	952	953	952	951	962	988	1016	1034	1049	1060	1026	970	921	920	910	915	905	894	887	895	905	916	917	917	918	928	938	935	935	908	885	896	899	901	903	898	898	907	894	888	877	872	869	879	895	921	932	931	926	915	914	918	926	929	924	911	907	894	912	934	943	929	904	865	858	844	851	853	862	865	888	899	900	897	894	893	894	894	894	894	893	890	886	885	885	880	883	888	887	887	888	881	878	862	843	850	866	879	883	891	896	906	897	891	893	893	896	890	882	882	874	877	878	881	882	862	862	870	879	874	862	847	838	852	866	883	876	868	870	861	858	858	850	851	856	875	891	886	871	853	846	857	876	868	850	828	812	810	809	809	810	806	788	783	799	818	830	827	822	821	817	816	816	815	815	801	786	784	793	810	809	804	792	777	784	808	829	829	838	841	835	824	812	801	804	830	863	870	846	846	830	808	795	784	790	804	796	778	762	762	762	774	791	809	835	882	878	867	847	830	830	815	807	809	827	846	849	838	832	822	822	813	808	814	818	811	796	786	783	783	782	776	783	782	778	769	776	820	818	825	827	823	821	831	834	834	815	790	770	761	768	791	801	801	811	811	801	791	789	798	798	814	828	823	827	832	845	845	846	843	844	856	856	834	834	806	774	776	782	791	791	783	781	803	822	816	816	803	789	783	788	801	801	793	764	762	765	760	760	763	783	795
0	0	0	0	0	0	0	0	0	0	0	0	0	0	0	0	0	0	0	917	917	916	915	931	932	0	0	0	0	0	0	0	0	0	0	838	843	815	804	807	822	822	821	844	881	912	926	911	911	886	864	848	848	846	840	838	838	854	863	864	858	865	879	881	875	875	860	845	832	824	832	845	849	836	836	842	849	853	867	869	871	875	882	882	879	873	864	865	878	881	839	846	840	840	841	841	850	870	889	884	864	850	858	871	871	878	873	868	853	843	832	839	838	834	810	822	867	867	922	938	919	889	861	845	839	835	832	837	839	850	850	871	888	905	899	893	899	909	905	888	875	870	865	878	886	886	892	879	881	883	893	903	909	905	909	903	900	900	900	904	899	906	908	908	908	917	918	917	922	924	912	911	917	921	922	930	931	929	929	931	936	933	943	944	942	942	942	947	956	964	964	955	945	945	930	928	920	901	887	875	942	965	977	970	959	946	930	937	934	925	925	941	955	958	943	943	942	951	974	983	989	973	955	935	926	922	919	938	951	965	968	969	946	943	935	921	916	908	896	886	880	896	915	926	940	940	930	910	906	896	902	902	906	927	961	977	975	965	956	943	932	926	927	933	934	939	939	942	946	953	952	950	946	936	928	907	886	882	892	905	910	910	912	924	924	925	920	913	930	948	977	988	981	979	970	965	950	929	914	910	904	893	895	899	916	922	930	930	922	918	912	913	926	923	924	923	930	952	958	948	934	919	905	901	909	924	934	945	955	956	938	917	912	926	933	940	940	944	952	956	942	925	922	926	946	961	966	957	945	906	901	897	905	905	916	919	919	925	925	927	921	915	919	919	930	930	938	924	903	903	907	908	898	900	898	902	905	890	877	871	885	904	932	935	932	926	920	915	910	910	916	930	929	922	913	899	896	918	931	924	904	865	858	867	874	883	886	896	905	906	893	882	872	867	870	876	876	880	875	877	882	884	883	868	870	875	889	894	890	874	862	848	843	847	865	879	892	883	885	887	886	883	888	885	884	885	885	882	877	878	879	875	867	862	853	857	866	865	854	821	838	852	866	874	880	870	863	853	853	848	847	843	845	848	858	861	858	846	843	846	860	868	856	841	818	807	807	803	800	780	767	771	790	822	839	833	813	804	813	827	833	833	841	833	805	784	793	797	802	807	816	826	827	850	853	853	857	846	834	831	832	823	821	834	848	849	831	831	790	776	764	769	783	788	792	789	780	773	773	773	766	809	835	849	857	854	840	828	828	819	822	816	817	812	807	809	814	814	814	806	815	824	833	815	798	787	781	781	788	788	781	775	763	769	776	776	797	825	828	826	826	834	829	829	814	786	769	767	794	809	809	815	812	812	803	786	790	807	807	821	823	817	827	832	840	840	845	841	838	842	833	833	817	784	775	782	799	819	819	801	788	785	793	804	804	808	799	792	801	815	801	793	784	774	762	749	749	758	773	795
0	0	0	0	0	0	0	0	0	0	0	0	0	0	0	0	0	927	926	926	926	917	912	0	0	0	0	0	0	0	0	855	857	857	857	862	843	824	802	797	814	814	820	846	873	900	915	897	868	868	834	821	819	808	803	827	845	845	863	864	873	887	905	903	877	877	858	830	818	823	840	855	852	844	844	841	843	850	856	848	860	868	877	868	868	862	850	840	850	850	839	846	822	819	819	826	840	858	869	875	858	850	859	870	873	873	860	857	847	841	841	855	854	847	845	847	883	883	922	930	910	880	860	855	849	841	843	837	830	832	832	846	872	883	884	883	896	893	885	864	853	857	863	872	881	877	877	881	869	867	874	897	905	900	899	890	889	894	905	909	917	903	897	907	907	914	912	897	905	913	912	911	908	920	930	930	929	919	921	927	926	930	929	933	920	921	921	937	949	941	936	926	922	912	907	898	887	887	895	915	937	953	968	963	944	912	907	915	926	925	931	947	963	952	936	926	926	945	984	1012	1019	998	959	938	928	922	923	928	933	918	913	931	946	943	912	905	887	877	869	866	863	874	891	908	927	940	930	914	895	895	889	879	896	915	940	934	936	937	930	916	905	898	908	924	922	924	922	922	938	954	957	949	945	938	928	906	879	880	898	916	912	906	906	927	938	926	912	910	923	942	962	966	964	970	976	965	941	910	890	894	895	907	908	918	920	921	918	922	925	925	905	903	904	910	912	912	926	947	955	946	920	909	901	904	925	941	943	947	946	940	937	923	917	923	932	929	932	942	948	943	922	905	890	889	882	878	886	891	894	897	899	895	894	899	906	914	922	925	924	924	913	900	895	897	903	903	905	911	918	925	931	911	883	876	880	900	904	889	877	869	886	907	924	937	934	930	922	913	906	902	904	915	929	919	903	885	884	896	931	924	903	885	870	877	885	903	926	937	924	902	882	864	851	839	843	860	860	861	862	864	874	883	876	854	849	852	859	865	866	863	850	840	837	847	853	858	873	868	867	868	875	878	872	867	867	878	878	885	888	886	885	875	869	860	845	845	848	839	837	840	838	856	868	876	873	863	852	839	839	836	836	835	838	835	839	841	846	844	843	849	855	857	852	842	821	803	803	803	798	790	778	775	791	848	856	830	799	789	797	816	840	840	852	833	805	802	805	799	803	810	824	840	842	853	859	859	848	832	800	811	826	819	816	817	828	823	806	806	779	768	765	768	785	791	802	808	808	794	794	773	766	775	786	801	819	812	809	805	805	810	821	820	803	777	772	785	798	798	806	806	818	827	832	826	811	788	788	781	789	797	798	775	763	765	771	771	785	803	825	827	823	829	834	834	832	831	834	826	824	821	821	818	806	795	798	789	786	795	795	806	823	817	815	824	824	832	841	841	832	825	815	815	797	783	790	815	834	835	835	816	802	793	800	804	804	808	799	794	801	815	815	818	804	789	777	762	762	764	774	794
0	0	0	0	0	0	923	923	0	0	0	0	0	0	0	0	0	927	919	915	915	890	882	888	0	0	907	907	904	903	889	855	857	849	849	832	812	792	788	796	810	810	818	836	861	889	897	884	864	864	830	813	816	814	812	822	840	840	850	859	873	887	922	938	908	908	860	827	804	817	849	860	856	838	838	836	826	831	840	847	844	857	860	866	866	858	840	847	849	854	847	838	822	819	836	844	851	857	856	846	843	845	862	873	867	867	856	857	851	855	850	859	867	866	868	860	878	878	903	905	892	868	855	846	851	851	848	843	830	832	815	815	838	854	863	867	878	879	870	851	834	839	848	858	872	871	871	867	854	851	862	880	899	903	892	877	868	881	901	910	908	896	888	901	901	912	900	881	876	888	898	905	908	920	909	916	916	912	915	921	924	927	920	914	907	908	908	923	931	925	910	898	904	894	887	876	878	882	897	911	918	923	929	930	905	876	883	906	920	933	946	955	940	921	902	894	894	906	922	944	949	948	948	944	935	927	925	932	928	913	896	902	914	917	912	905	887	855	859	868	864	866	875	888	908	930	940	928	919	900	890	880	887	903	911	906	902	907	908	897	887	891	913	920	918	917	922	922	931	953	952	944	937	937	940	921	896	900	914	919	909	899	900	916	924	920	901	898	908	920	935	942	942	954	971	963	938	911	892	892	909	919	929	931	925	915	906	912	915	915	908	900	893	896	903	905	915	941	956	946	929	908	907	923	943	952	952	928	924	921	923	920	907	905	915	916	920	925	937	932	912	891	875	877	877	875	869	872	877	892	894	893	897	888	886	894	906	909	912	908	889	874	866	864	864	869	876	882	893	907	917	905	883	873	884	902	900	891	878	869	874	887	907	924	927	924	919	908	900	890	887	898	906	889	875	885	884	896	889	879	877	870	862	859	870	889	912	924	922	887	870	850	845	849	858	858	857	857	851	858	868	871	862	841	835	828	836	848	852	855	851	840	844	847	846	843	846	850	850	856	866	868	862	854	857	857	861	868	882	885	889	889	885	862	845	836	832	831	837	840	838	863	876	878	871	861	849	849	836	830	828	836	837	833	837	832	835	845	854	858	861	856	842	832	820	820	811	809	804	802	807	808	807	813	808	786	777	769	775	794	818	840	852	830	812	815	811	810	806	819	836	840	842	847	847	841	830	792	782	806	813	814	804	808	807	807	807	790	779	776	776	785	794	798	797	808	810	808	794	789	775	774	774	788	799	802	794	796	796	799	793	791	789	788	794	794	799	799	802	804	807	814	819	825	806	787	787	784	786	797	798	800	798	789	789	786	781	788	795	805	797	791	791	795	808	809	809	803	813	816	816	806	795	785	784	779	776	776	795	806	800	791	795	807	807	833	840	838	828	821	803	803	794	795	810	826	836	836	829	820	808	806	816	824	824	808	799	794	793	793	793	793	796	795	789	786	786	789	783	803
0	0	0	0	0	906	923	0	910	0	0	0	0	0	0	0	909	899	881	871	856	856	845	836	842	844	841	841	840	835	842	847	856	849	849	810	787	773	779	788	798	804	804	821	850	866	883	885	875	875	859	844	840	834	839	851	859	859	865	860	875	902	922	938	890	860	860	832	821	824	845	852	844	829	811	811	800	800	817	829	826	837	841	844	844	837	843	856	863	865	852	832	830	836	836	844	875	866	853	833	820	831	862	873	871	871	856	851	857	855	843	845	858	873	870	875	875	879	879	872	870	857	846	845	849	854	857	843	823	809	815	815	809	832	845	855	866	865	860	850	839	831	842	849	857	856	856	846	841	844	851	874	886	885	875	861	851	868	888	900	894	886	876	884	884	886	881	855	842	851	879	894	895	897	909	916	888	895	906	916	918	915	910	899	893	906	919	919	927	917	894	896	904	906	890	882	879	883	898	906	905	898	886	887	876	847	847	864	898	925	947	920	894	890	890	900	900	900	896	894	891	898	893	894	900	903	921	933	926	899	880	871	882	893	874	869	860	855	859	863	863	862	869	881	894	918	932	932	926	909	894	886	882	893	891	874	870	882	883	877	878	890	903	906	904	914	925	933	933	936	931	927	934	941	949	941	923	915	924	922	911	896	898	917	913	909	893	892	900	910	916	922	920	941	953	957	945	926	906	905	918	930	946	947	930	910	897	893	897	909	904	900	898	902	902	909	927	940	949	943	929	916	917	925	942	953	944	922	908	905	908	900	880	883	882	889	891	908	920	915	908	911	916	910	898	890	885	881	879	886	884	875	869	869	871	873	875	891	893	878	859	838	837	845	845	846	852	857	872	883	900	897	883	881	890	911	917	914	895	878	867	874	883	901	914	915	903	894	885	878	875	889	906	889	875	864	861	859	848	853	854	851	849	851	855	865	885	896	892	872	854	855	869	878	876	876	870	866	862	868	867	863	851	839	832	824	829	837	850	859	856	846	849	855	852	842	840	842	844	855	867	877	865	858	854	854	854	853	864	881	899	908	897	870	843	826	832	831	839	850	861	874	879	868	862	856	844	844	838	834	847	850	857	846	839	835	836	846	858	866	870	858	841	832	831	831	823	816	809	803	797	794	793	790	789	783	766	756	767	794	794	818	824	813	802	814	816	813	811	817	835	841	832	816	816	813	806	784	786	795	802	806	802	800	802	801	801	786	784	787	791	803	805	803	802	797	810	810	813	796	785	784	789	799	804	797	798	798	792	793	783	779	778	787	795	800	792	792	794	800	801	802	807	806	796	786	786	784	786	802	807	813	807	801	801	792	775	780	782	792	795	795	795	797	799	795	799	801	800	804	804	804	797	781	765	757	776	776	777	789	786	779	783	794	794	822	830	832	829	818	811	811	806	808	823	822	821	821	815	803	802	805	817	816	824	818	808	798	786	779	779	776	790	791	794	794	792	788	791	808
0	0	0	0	893	900	919	910	910	0	874	0	0	0	0	0	895	867	838	819	809	809	809	807	806	815	825	843	843	839	854	867	865	846	810	810	787	772	780	785	778	780	780	790	822	839	860	867	868	868	863	855	840	837	848	867	883	892	892	884	888	902	915	929	890	860	846	836	830	819	828	830	828	821	810	810	791	791	805	815	826	822	827	830	830	831	841	858	858	857	849	840	836	846	865	865	875	866	856	832	825	838	864	875	865	850	850	837	841	846	837	838	849	864	876	877	877	862	862	856	848	849	854	876	887	862	843	824	811	793	793	793	809	832	827	836	847	853	854	851	841	838	834	843	853	851	844	844	834	841	854	863	866	859	849	843	841	854	864	873	876	871	864	866	870	870	854	851	856	861	861	882	898	877	869	882	888	895	896	905	907	896	887	880	882	897	913	913	906	907	896	903	912	919	910	901	892	894	893	895	889	868	859	877	893	894	896	902	894	893	899	894	890	891	891	893	889	889	879	869	865	866	865	870	877	886	902	922	919	888	865	849	844	838	830	836	843	854	859	863	863	862	886	894	905	913	923	927	927	922	908	900	890	881	852	834	828	839	856	854	854	859	847	872	895	912	928	935	929	929	917	905	900	923	942	941	929	915	918	922	916	921	916	913	916	910	901	898	897	905	904	893	885	892	900	907	929	932	920	898	899	915	925	934	931	907	889	872	870	882	891	890	899	912	933	939	939	931	941	941	925	906	908	915	930	938	934	913	896	889	886	876	863	860	863	863	875	890	894	888	892	900	919	911	899	885	868	883	902	922	927	917	898	875	844	838	859	876	878	866	842	827	825	825	825	833	837	845	859	868	880	888	890	889	908	927	934	926	905	879	859	861	870	882	890	892	885	875	867	861	875	889	881	872	862	855	851	845	838	834	839	838	840	848	850	847	847	852	859	858	852	859	884	896	896	898	885	881	877	874	869	850	846	841	838	834	835	842	860	877	873	857	861	875	875	874	863	852	855	861	878	867	861	854	854	855	853	847	846	863	882	889	891	866	843	826	819	814	829	850	862	878	860	854	845	830	812	812	813	826	846	854	854	845	835	826	833	849	858	859	853	844	840	835	836	836	837	827	815	798	790	785	792	803	805	795	782	780	767	782	782	790	789	771	774	802	821	819	818	827	834	837	832	832	813	793	792	783	786	787	794	800	800	799	799	799	799	796	794	803	811	817	815	808	802	797	798	798	802	800	798	793	799	805	813	813	801	801	798	789	777	763	767	782	796	792	792	781	785	793	794	785	783	783	784	796	786	783	784	797	809	810	795	795	795	787	782	776	782	789	786	785	785	787	789	795	799	800	806	806	804	803	798	794	765	757	757	757	757	764	768	769	776	782	782	803	817	816	820	820	820	817	812	817	822	814	807	807	799	789	784	805	817	817	826	821	799	792	784	784	775	784	795	803	802	802	803	798	807	820
0	0	0	0	859	879	890	890	890	885	874	0	873	888	888	887	861	822	801	778	783	783	796	794	805	826	855	880	880	894	882	887	874	846	804	804	780	772	780	789	776	767	767	784	807	823	845	862	862	856	856	843	822	821	839	867	888	902	902	902	901	899	904	889	865	846	846	836	834	807	801	805	807	804	795	795	787	786	799	815	829	828	826	827	827	827	822	822	826	844	849	846	848	867	875	875	884	875	856	832	841	860	875	866	844	828	828	808	814	819	829	827	833	847	853	863	853	840	840	837	831	837	848	874	890	891	864	825	810	798	792	797	797	812	827	836	802	808	832	847	846	840	831	837	851	856	847	847	837	842	850	851	851	835	830	837	843	846	845	856	864	859	856	857	860	860	859	856	859	855	857	875	889	882	847	848	856	880	896	905	885	875	867	861	861	866	877	889	889	893	890	899	905	915	910	900	881	871	868	862	860	851	856	867	895	909	914	901	881	874	882	889	896	899	902	894	876	862	862	853	850	850	857	863	876	884	896	907	896	889	860	849	856	842	835	836	841	849	853	860	862	863	886	894	905	920	922	923	914	914	899	895	887	876	856	844	844	849	859	850	839	839	826	849	872	912	926	923	912	912	894	877	880	901	919	931	926	922	923	927	922	912	905	906	907	910	903	893	889	892	895	882	872	868	880	886	891	902	896	885	870	874	901	915	911	903	880	864	861	865	873	877	892	918	932	937	926	917	921	924	922	907	895	902	911	915	912	898	878	872	868	868	863	862	874	880	878	877	879	868	869	876	893	902	895	883	871	876	891	909	905	899	895	890	867	846	854	869	873	862	847	828	821	821	810	817	827	839	851	872	881	890	888	892	909	927	933	926	893	851	838	839	849	857	864	874	868	875	867	861	860	868	866	857	850	848	849	841	827	828	828	832	839	844	843	834	833	843	846	851	857	868	890	904	904	906	896	885	875	869	857	839	826	828	831	834	838	853	867	882	888	878	873	880	889	883	869	854	857	856	857	851	845	844	844	844	851	851	847	843	836	842	891	866	841	824	811	804	805	830	852	848	833	828	820	802	802	787	795	817	846	858	852	833	819	818	831	847	848	827	818	811	816	823	823	836	836	828	812	796	780	779	789	795	804	806	782	780	788	782	782	770	764	767	787	811	834	842	828	826	826	826	820	820	808	791	782	785	778	782	796	805	804	801	802	802	797	792	788	795	808	811	815	808	789	785	785	781	780	787	787	786	794	803	809	808	804	804	796	790	778	749	752	770	786	785	785	771	767	772	776	772	776	781	784	784	782	780	780	782	782	773	771	771	771	780	783	787	791	786	781	774	774	774	783	793	798	804	807	807	802	796	798	794	786	772	772	733	725	739	749	763	760	760	762	784	793	798	803	806	806	803	801	805	805	805	795	795	787	789	784	797	813	813	813	780	781	785	791	791	790	794	802	803	809	809	805	813	823	833
0	0	0	0	0	827	841	856	856	854	858	856	873	888	846	846	0	0	0	788	779	779	785	793	814	834	878	896	896	900	893	890	880	859	817	817	802	802	807	789	776	776	776	795	811	829	834	842	837	824	824	818	808	799	800	815	885	902	902	909	903	902	884	859	842	838	838	838	834	807	783	776	792	792	798	796	796	799	808	821	829	833	830	818	806	806	793	791	805	824	839	852	855	860	870	870	879	878	868	848	841	863	858	843	816	806	806	802	809	813	816	808	810	812	829	836	828	813	807	807	808	824	841	858	880	887	876	847	825	819	815	810	810	815	823	814	802	802	818	841	843	833	828	836	848	851	850	841	841	845	846	845	840	832	823	834	846	842	836	840	848	848	853	856	868	869	869	861	852	847	847	857	873	869	842	837	850	861	883	892	885	875	858	854	857	855	867	874	874	879	882	886	896	898	894	876	867	865	859	856	855	853	857	869	880	903	907	890	866	864	877	894	910	915	919	912	880	859	859	852	851	850	853	858	867	878	890	894	893	876	864	865	876	860	854	848	855	854	853	858	860	874	892	906	916	920	922	923	899	899	892	885	894	894	882	878	862	865	863	854	838	834	840	854	879	895	907	907	894	876	876	857	861	881	903	918	919	921	927	924	905	889	878	875	881	886	879	870	865	880	891	890	868	855	861	861	860	868	873	872	868	857	862	886	900	893	881	860	854	848	853	867	886	908	915	920	914	906	905	914	914	905	893	890	892	898	894	878	861	853	850	850	865	881	886	876	870	866	869	857	847	849	861	876	878	870	863	865	867	863	852	846	862	869	860	843	850	860	871	868	856	845	845	832	818	811	817	836	853	867	883	882	888	893	904	905	901	887	853	837	827	837	843	848	864	874	868	864	858	856	856	859	851	837	834	839	837	833	823	824	828	827	829	837	840	835	830	840	842	845	856	864	866	866	858	834	836	855	857	856	845	822	806	808	819	834	844	845	856	870	879	880	873	877	880	868	854	846	835	835	831	826	820	820	823	832	846	852	843	824	836	842	850	840	833	828	813	802	795	801	816	823	815	809	804	795	795	774	785	804	829	833	816	799	805	814	826	837	826	804	802	806	811	801	801	809	812	809	799	786	784	774	775	775	804	806	808	810	803	803	807	801	787	776	779	802	827	828	820	809	811	808	803	803	802	798	783	772	773	786	799	810	809	808	802	802	793	782	771	786	808	811	811	802	790	783	783	770	765	761	760	770	777	786	790	790	790	788	791	797	793	779	756	755	767	768	768	764	770	779	779	773	776	781	784	784	782	777	773	773	769	747	741	741	745	758	770	796	800	788	776	776	770	764	763	777	791	795	795	795	796	796	792	787	789	790	790	771	729	731	748	753	756	756	764	780	784	782	783	785	785	784	784	786	787	781	781	795	787	781	775	776	780	780	759	758	772	784	805	805	804	792	805	804	798	798	806	821	829	835
0	0	0	0	0	796	815	820	842	842	846	846	854	860	846	846	0	0	807	797	784	782	782	784	799	834	866	883	883	891	890	889	883	871	844	844	837	834	829	802	782	776	795	829	841	848	834	824	820	817	817	810	816	812	814	827	852	896	896	899	893	871	846	832	828	829	843	843	827	804	783	759	779	796	799	802	802	807	811	819	831	835	832	806	793	793	788	789	800	821	845	842	846	846	859	863	863	874	869	856	855	863	858	825	805	803	809	809	810	812	802	798	798	800	808	808	802	797	800	800	811	822	832	844	858	870	867	854	848	840	833	828	824	824	819	803	791	802	818	829	824	812	812	825	834	845	840	839	839	845	842	834	830	830	831	842	845	842	834	842	846	845	849	861	863	867	867	857	849	841	843	843	849	862	847	843	848	864	875	876	871	863	858	854	861	860	859	861	865	865	866	866	881	886	881	870	863	862	872	874	868	855	857	860	863	887	887	865	854	857	877	894	908	914	921	907	893	869	862	862	854	853	847	846	851	855	871	880	881	870	867	875	872	874	870	874	864	855	851	852	860	871	886	907	920	918	909	902	899	899	892	880	889	900	895	876	866	862	862	850	846	842	848	858	862	871	879	879	876	859	859	842	845	863	883	894	911	918	915	906	888	864	836	837	845	851	861	861	868	877	896	897	874	858	859	851	844	847	864	881	874	865	859	880	888	890	876	863	848	837	843	859	877	891	897	892	892	894	897	900	901	896	888	878	881	880	872	864	849	840	834	837	848	862	863	857	852	852	846	836	832	832	847	867	883	881	871	872	867	854	842	831	832	845	840	830	844	855	863	858	855	848	848	843	828	816	819	829	846	855	862	860	864	861	870	874	861	840	833	834	832	837	843	848	851	849	848	847	858	863	863	846	823	810	808	819	826	819	824	830	831	825	816	828	834	835	838	844	839	831	842	855	856	856	846	824	823	837	841	837	831	814	803	804	821	834	841	844	845	853	862	867	864	865	858	848	834	833	832	827	824	804	796	796	796	803	820	830	843	824	819	820	818	823	822	821	816	806	800	798	805	809	800	796	800	800	797	793	792	791	789	783	788	787	793	808	816	812	805	797	801	809	808	808	796	785	778	784	788	795	790	781	775	775	778	792	803	803	800	800	800	803	789	770	768	787	803	810	796	792	793	803	803	804	806	807	793	786	785	789	794	801	800	801	801	801	787	771	771	786	797	799	795	795	790	785	785	779	767	760	759	760	766	772	773	768	768	768	778	789	790	775	764	759	768	769	769	765	767	772	779	773	771	772	773	773	778	788	782	774	763	750	729	729	733	748	769	797	801	782	773	773	766	761	758	766	770	768	765	795	796	790	781	780	780	781	781	774	756	750	759	766	768	768	774	780	793	788	779	777	777	775	775	777	775	781	781	787	784	776	772	766	768	768	757	754	770	794	805	805	758	723	716	725	725	761	787	805	792	772
0	0	0	0	796	784	796	811	834	834	844	833	827	830	821	821	0	0	806	799	790	780	780	774	777	793	819	839	864	864	875	887	879	865	859	859	859	861	842	823	811	815	829	829	841	851	832	818	805	807	814	814	823	831	834	836	857	871	877	877	858	835	813	809	807	828	844	844	827	797	762	759	779	792	798	796	796	802	800	812	821	836	834	812	791	801	801	808	821	825	836	840	834	838	838	839	839	846	859	854	854	852	850	825	805	814	804	804	808	804	804	798	805	802	801	802	793	794	799	799	809	817	822	831	837	834	842	839	853	853	845	838	828	828	807	792	786	805	822	829	824	790	785	784	798	811	821	832	832	843	839	823	818	821	832	843	841	832	832	834	836	836	842	848	860	859	862	862	861	851	847	844	840	855	870	870	864	865	867	862	856	854	851	854	861	872	864	859	852	852	848	847	865	874	866	853	852	866	878	879	865	846	829	827	849	871	867	852	844	853	868	882	890	898	898	892	868	859	861	861	847	842	834	833	830	831	840	847	858	866	859	858	863	862	858	850	842	840	847	849	852	855	868	888	901	901	892	882	881	881	881	880	889	900	880	863	847	843	840	834	833	828	833	835	843	852	855	862	858	848	834	834	836	856	867	878	887	895	891	875	861	838	838	834	831	835	846	862	878	892	901	898	881	871	872	857	840	838	848	865	870	869	867	874	889	889	880	860	839	824	827	843	865	870	872	875	878	881	876	863	878	874	873	868	870	869	865	854	842	829	824	828	838	846	852	844	840	828	823	815	820	831	838	859	876	875	867	869	861	848	834	829	836	833	828	832	849	863	860	857	851	851	845	841	834	831	827	831	837	835	827	820	817	812	821	816	816	827	833	834	832	837	844	847	837	825	820	825	834	832	829	831	816	800	798	804	814	823	826	835	832	820	808	822	829	839	856	868	839	819	809	825	825	836	849	858	859	858	850	834	827	817	827	835	839	841	838	838	834	832	832	838	845	841	833	826	815	821	830	823	814	804	802	802	809	815	820	830	827	817	815	817	815	810	811	814	816	815	804	797	802	804	803	794	795	795	814	826	825	812	782	767	750	749	754	768	788	798	804	800	804	807	809	809	801	781	767	762	775	790	790	781	769	757	762	773	790	795	795	785	787	795	786	769	764	771	785	787	776	778	784	790	790	792	799	802	801	799	793	785	775	776	785	781	781	782	787	771	759	763	778	776	776	781	785	785	790	783	765	751	757	761	772	777	771	766	766	762	769	780	776	768	760	762	766	766	768	767	767	772	772	771	764	760	760	758	769	782	785	776	768	758	745	745	744	761	783	783	779	778	775	775	764	759	756	757	759	768	768	765	766	766	767	773	778	777	777	767	754	752	753	764	775	775	776	785	796	791	791	791	782	773	767	777	775	776	776	775	772	765	760	758	758	756	753	751	765	779	779	783	751	734	729	721	721	730	744	748	792	772
822	825	825	825	817	803	800	820	834	834	835	819	809	801	800	800	796	798	806	799	795	790	790	781	768	755	765	791	824	824	854	866	864	854	852	853	853	847	834	825	812	826	842	842	854	851	826	807	798	798	809	809	821	838	835	836	841	847	849	849	836	819	799	782	786	814	830	830	820	788	771	769	788	792	798	793	793	792	798	803	815	838	841	832	827	822	822	824	828	836	828	824	835	844	843	832	832	824	830	828	839	839	834	826	815	814	804	791	791	803	805	811	806	799	793	792	800	800	798	800	800	810	820	822	814	801	792	801	822	839	851	849	823	823	796	778	766	770	783	800	802	790	785	775	782	799	819	840	847	847	837	822	815	816	832	837	834	829	825	825	824	820	826	838	851	856	857	857	860	858	858	850	848	851	855	866	877	873	864	850	840	842	850	864	873	872	864	864	851	838	838	841	853	854	842	837	839	856	871	865	850	833	819	814	835	859	863	852	840	831	843	860	867	866	857	845	839	850	835	824	824	825	824	822	827	830	837	837	843	843	840	837	844	843	839	827	815	818	833	844	849	845	842	857	875	884	877	861	859	860	874	878	885	888	880	863	847	825	818	819	821	819	817	825	829	831	845	856	856	850	837	837	839	851	853	863	862	860	858	851	834	831	841	848	849	838	848	868	887	886	879	877	880	879	870	852	831	818	821	839	855	866	871	882	893	889	872	854	830	807	801	810	828	839	851	867	878	882	854	842	842	849	854	851	849	856	854	848	839	828	827	838	845	847	844	838	834	818	812	809	815	819	832	841	843	826	825	830	832	842	851	858	854	848	838	843	852	857	856	851	842	842	842	839	840	838	836	832	828	810	808	806	803	798	821	816	816	827	829	830	835	835	827	830	818	818	824	828	825	831	829	826	826	806	789	799	809	828	837	835	831	826	814	824	827	841	864	853	832	815	808	819	819	830	844	852	858	856	845	843	839	847	846	857	847	837	828	822	813	811	809	800	801	812	811	804	807	814	821	821	811	805	805	812	809	815	822	817	812	812	821	819	809	799	797	798	807	813	809	804	811	818	823	813	813	812	826	827	819	807	796	784	782	779	776	755	749	785	802	795	798	803	809	809	801	781	757	755	763	790	798	791	765	752	756	766	776	779	779	777	777	773	775	770	764	769	775	771	764	767	776	779	779	777	782	789	789	788	783	762	747	752	763	771	771	782	785	765	760	763	771	768	772	778	786	786	784	770	756	740	744	760	776	781	780	780	771	770	768	778	777	776	767	763	768	768	768	767	756	758	759	759	755	749	749	745	750	760	766	759	749	752	752	768	780	771	756	755	756	769	769	765	760	752	752	757	759	755	755	743	737	735	744	758	769	769	773	760	751	748	742	754	754	767	773	786	793	794	793	793	788	773	767	765	764	764	764	762	753	741	747	752	752	753	744	748	743	752	752	771	758	747	733	736	736	734	744	748	754	745
799	800	819	819	823	815	817	830	841	841	841	820	797	782	783	786	786	787	793	793	795	790	795	776	747	728	729	753	791	791	822	842	841	829	825	817	817	805	800	796	799	813	832	832	845	841	826	807	793	796	803	803	817	821	821	818	818	820	826	826	823	814	786	771	769	781	804	816	816	797	781	777	787	792	794	793	792	789	794	803	814	834	838	830	817	821	821	825	834	831	820	820	829	846	843	823	806	806	796	810	824	826	826	821	826	816	804	791	791	793	804	807	804	795	791	796	804	801	798	809	809	831	837	828	809	785	794	798	801	810	822	834	824	798	798	784	777	782	789	803	812	800	784	775	782	805	824	846	851	851	838	823	812	820	832	843	839	825	816	817	813	815	823	829	837	836	846	852	852	860	854	863	860	860	853	851	865	867	853	833	826	831	846	868	878	881	874	864	851	838	838	838	841	831	819	815	839	860	856	850	843	833	819	818	832	845	841	839	828	810	794	815	833	840	848	851	852	854	844	834	832	832	834	849	860	852	836	830	830	831	825	822	824	829	824	807	800	797	810	830	846	840	837	848	865	878	873	856	843	847	861	869	873	869	868	848	829	825	818	819	821	819	814	820	823	833	852	864	869	845	831	824	824	827	828	833	835	833	831	831	829	837	849	851	851	849	860	872	874	876	874	878	878	864	856	838	820	802	804	809	827	842	866	880	888	877	863	848	822	798	795	800	816	832	851	864	880	892	873	845	845	837	842	840	836	840	843	855	851	852	846	839	844	842	847	842	835	826	819	819	827	838	845	844	843	831	816	814	830	855	858	864	861	858	853	845	845	851	846	835	835	821	810	810	825	840	842	843	833	824	815	806	803	798	797	808	821	836	845	842	836	815	803	800	801	810	821	828	826	824	824	828	830	808	796	802	818	834	847	843	838	828	826	839	845	850	847	835	821	806	803	803	807	818	828	831	837	833	829	824	837	845	853	848	839	824	804	801	796	797	792	790	791	789	788	794	798	814	819	814	809	806	805	812	819	825	816	811	804	806	813	811	799	789	781	778	787	808	814	819	822	824	829	825	825	823	823	821	809	798	797	797	797	797	783	762	753	772	785	788	791	801	801	806	796	775	754	755	763	781	796	793	778	757	761	764	770	771	771	772	771	773	758	749	754	760	757	758	756	757	766	766	770	770	772	775	778	771	744	724	727	741	756	771	771	768	770	773	761	769	771	775	778	776	785	785	788	775	755	737	742	757	773	782	781	781	776	773	773	778	786	782	778	779	768	768	768	756	750	748	747	749	740	733	733	734	736	739	741	741	730	740	740	736	736	739	750	753	756	760	760	750	745	752	752	755	758	755	755	744	726	718	724	739	748	748	748	752	752	754	754	757	757	769	776	774	778	784	781	793	788	769	758	748	745	745	745	739	736	744	749	745	745	740	732	734	737	736	736	738	731	719	721	743	736	734	745	753	750	755
777	778	802	813	813	826	832	844	850	843	843	824	797	781	771	776	776	784	788	780	783	795	776	776	744	724	722	736	763	763	793	820	817	793	790	790	790	783	779	773	792	805	817	823	823	822	828	809	793	796	809	809	811	808	801	790	790	792	801	808	808	799	782	764	758	781	806	829	829	813	799	791	786	789	786	783	789	789	794	791	798	816	820	818	815	826	836	836	842	829	811	810	823	839	829	811	800	800	796	805	817	823	820	812	811	801	791	785	785	793	800	803	796	785	793	802	810	810	805	798	798	805	807	811	810	806	797	789	790	802	815	825	822	808	808	794	786	789	802	811	818	800	778	771	781	805	824	840	836	824	824	807	817	824	833	843	839	825	812	808	808	812	824	833	834	833	832	836	836	847	857	867	878	872	868	867	869	874	857	838	825	832	843	854	869	869	858	851	845	838	838	838	836	823	811	813	829	851	851	845	838	831	829	823	826	827	824	820	822	805	791	794	818	830	834	836	836	840	849	832	828	828	835	861	870	858	831	824	815	816	811	808	807	821	819	810	798	795	797	820	827	838	835	838	854	866	872	857	841	840	852	853	851	848	837	826	816	815	811	812	818	819	814	820	823	855	869	886	880	843	820	811	811	808	804	811	823	823	820	822	829	837	842	845	839	842	849	867	868	873	877	881	870	848	832	820	806	795	789	799	804	821	831	850	858	860	852	840	827	826	823	821	829	836	845	858	875	891	884	865	855	845	842	833	826	833	855	876	874	867	851	837	825	836	840	842	845	835	835	834	836	836	845	850	850	842	834	829	851	850	845	842	844	844	844	840	818	807	810	803	803	795	794	810	821	821	815	843	833	824	815	809	794	789	809	842	864	863	851	844	832	818	803	795	798	802	804	803	810	809	816	833	838	812	805	809	824	825	822	823	829	827	820	830	848	838	826	815	805	802	795	795	794	791	792	814	823	826	821	819	829	836	838	837	822	804	790	785	788	792	798	800	797	784	782	794	797	813	815	808	809	809	806	811	826	827	815	798	793	798	806	800	788	776	780	779	778	783	809	820	815	821	820	825	825	820	816	810	798	794	795	797	808	808	797	782	776	771	781	783	790	798	798	798	783	775	754	748	749	767	781	791	789	780	777	766	759	759	760	766	768	766	752	736	726	726	734	739	755	779	777	777	765	764	768	772	772	767	739	722	728	741	756	756	767	762	758	764	770	771	772	770	772	776	776	785	792	785	767	744	744	758	770	775	772	772	773	770	773	780	786	785	787	779	779	772	762	760	755	751	744	735	731	731	727	735	737	738	738	734	727	728	728	732	733	739	747	753	756	754	754	750	745	742	741	751	759	759	759	754	733	718	719	724	729	729	736	742	752	757	759	761	761	770	774	768	764	784	781	781	776	763	744	741	739	739	736	738	741	738	749	745	745	733	718	719	733	737	737	737	722	710	721	743	743	756	765	752	748	748
777	764	778	796	796	823	839	857	859	845	845	833	813	792	772	772	772	785	776	766	772	774	763	763	744	724	731	738	762	777	777	801	808	781	758	759	763	763	766	773	786	799	809	807	807	820	822	819	804	806	809	811	815	801	786	770	762	773	781	793	793	788	777	768	757	775	829	844	844	821	805	803	794	784	775	772	784	784	787	791	798	801	810	804	801	825	837	837	846	836	817	814	816	824	818	805	802	802	809	815	825	814	807	797	787	783	788	790	798	798	800	803	791	800	800	807	809	807	801	795	797	797	801	801	795	798	794	786	783	793	804	821	814	801	802	802	793	793	804	819	821	791	773	769	785	808	827	840	818	807	807	800	809	825	829	829	825	817	812	806	801	806	827	837	838	837	838	840	840	846	858	874	881	880	874	872	868	859	842	826	822	833	839	839	832	818	817	830	830	833	839	839	836	823	815	813	820	822	822	815	819	830	835	830	824	814	810	810	811	800	795	800	809	818	821	819	820	818	814	820	826	831	831	846	853	836	814	796	798	802	803	803	811	821	827	822	803	797	803	810	822	818	818	813	818	845	868	867	858	850	835	821	811	812	818	831	838	838	837	839	838	832	820	821	837	855	869	886	880	848	817	809	806	806	806	797	810	814	813	809	820	829	840	840	838	839	848	853	860	859	871	873	856	835	806	802	803	794	796	811	819	827	837	845	840	832	824	825	836	838	836	831	832	837	840	852	862	875	873	861	856	848	840	837	829	846	864	876	882	869	846	830	820	826	833	832	833	839	844	842	836	833	832	836	846	847	849	843	842	831	818	816	823	824	823	812	800	812	822	822	808	790	794	810	821	821	815	822	822	829	814	805	789	790	824	856	861	861	845	840	827	811	792	788	789	796	792	785	782	785	806	830	834	818	814	812	828	824	815	825	828	818	804	816	828	819	802	793	792	791	791	788	782	778	781	800	810	825	829	836	841	829	826	816	799	790	780	779	785	796	813	823	818	812	794	793	803	809	815	808	800	800	804	813	816	807	800	792	786	794	799	790	778	768	772	779	776	780	794	809	809	816	815	815	819	816	806	794	787	781	781	790	801	810	802	790	778	768	775	782	787	787	795	798	783	758	741	738	742	753	761	765	768	774	774	762	752	752	742	742	751	753	740	728	719	717	713	729	775	785	779	779	759	760	766	775	778	777	771	722	728	737	758	758	763	755	753	756	761	762	759	760	760	750	750	750	745	741	745	748	754	765	768	765	765	746	726	730	745	758	754	785	787	774	774	766	763	769	774	758	738	727	718	718	718	734	742	747	750	742	745	743	743	742	733	731	732	738	745	754	754	735	729	723	729	745	760	760	761	752	738	724	717	716	714	714	719	737	749	756	758	766	766	766	760	768	764	764	764	765	760	751	742	743	744	744	743	735	725	728	724	724	719	713	720	727	740	740	750	745	722	710	705	705	716	732	741	732	721	721
760	764	778	787	787	806	839	853	856	834	834	817	816	804	784	780	790	790	781	749	745	745	737	737	731	730	731	738	764	783	783	804	811	770	752	753	762	762	764	765	769	775	786	799	799	812	815	807	803	807	824	815	815	801	781	762	758	765	781	785	785	779	767	748	759	796	817	824	817	817	813	815	801	780	761	760	771	780	780	777	786	801	805	800	809	818	840	840	849	846	834	820	802	806	792	789	796	808	808	828	829	809	798	788	776	785	794	794	794	794	785	787	791	800	805	804	808	804	797	789	794	794	797	801	802	797	792	777	776	783	798	809	806	804	802	802	802	796	796	795	792	792	790	789	786	800	812	821	818	807	791	791	807	821	822	820	820	816	816	806	798	798	815	824	816	813	825	843	849	849	863	874	877	873	852	830	823	816	814	811	821	833	839	827	816	807	799	808	825	828	836	831	831	825	815	813	824	825	818	806	801	821	835	839	831	818	804	799	801	803	804	808	804	800	804	808	808	809	812	823	827	828	828	812	813	809	805	788	784	795	805	814	821	827	833	826	813	806	808	819	824	819	829	833	843	862	878	880	866	852	834	815	809	805	812	826	837	844	839	838	823	815	807	820	829	853	876	895	879	848	817	809	806	811	810	805	807	812	799	794	799	814	825	836	837	835	831	820	794	782	794	800	784	769	770	791	809	814	814	817	821	831	837	836	828	821	821	825	826	837	832	828	831	833	828	826	828	834	827	818	823	823	830	845	848	846	847	859	872	865	848	825	818	818	811	805	810	819	832	835	828	820	817	816	821	830	840	839	829	815	803	803	800	806	807	802	802	819	818	822	808	790	794	798	801	795	797	793	801	809	802	795	784	787	817	848	842	797	791	796	797	793	786	782	785	785	778	781	794	810	820	815	813	809	809	813	814	829	823	825	828	807	805	813	817	806	784	773	770	770	783	781	774	774	771	779	797	813	825	838	849	843	827	804	795	791	777	771	774	793	808	823	831	831	819	809	803	809	804	793	793	793	793	796	796	793	793	788	792	801	791	778	765	759	772	781	776	775	771	771	789	802	803	803	809	802	795	788	776	772	770	775	781	796	793	781	770	766	775	781	785	787	795	791	768	748	744	740	746	752	760	760	756	759	760	760	745	745	729	722	720	721	725	718	713	705	712	735	778	786	786	774	750	750	759	766	772	777	771	772	751	745	756	756	761	761	754	758	760	755	747	744	736	732	732	735	735	734	739	743	752	761	763	759	759	732	719	696	696	758	754	749	743	722	722	702	705	733	754	757	738	721	713	713	718	735	753	762	768	758	753	753	754	760	758	747	733	738	745	745	745	723	714	713	727	744	756	756	757	746	734	722	711	700	700	706	709	711	728	746	749	749	756	751	760	759	752	747	747	746	749	743	743	750	752	752	752	739	728	713	701	701	698	706	726	735	744	744	750	745	730	717	715	715	719	723	724	718	705	705
759	753	767	787	787	801	834	841	831	807	807	803	812	814	800	790	782	782	769	751	738	731	730	730	731	745	755	763	764	783	784	806	812	791	765	754	768	768	762	755	752	766	783	792	794	794	795	795	794	798	809	804	804	801	781	762	770	775	782	788	788	775	765	753	769	792	812	817	815	815	821	822	806	774	750	754	761	766	766	769	782	801	805	800	811	811	811	831	831	843	845	834	807	782	767	767	776	797	797	814	814	799	780	766	781	791	803	798	788	788	780	778	788	798	805	804	800	796	788	783	782	786	786	796	810	786	750	754	771	784	795	800	800	803	806	806	803	774	759	748	749	759	774	788	783	787	795	799	791	790	791	791	800	815	813	811	819	822	820	801	802	803	796	781	777	781	799	830	866	866	875	867	848	826	814	801	796	790	793	801	815	822	820	813	796	783	785	794	810	817	822	832	832	834	825	824	824	825	822	803	799	821	835	839	828	813	803	797	799	803	808	800	784	769	762	775	795	807	817	828	826	818	804	804	798	804	800	794	798	796	808	806	812	819	820	822	813	807	815	827	830	837	842	840	847	860	874	870	858	850	836	820	808	803	810	816	824	828	827	816	808	798	803	822	839	846	847	835	830	826	819	815	811	810	810	805	807	812	793	785	785	795	812	826	821	815	798	782	774	785	795	784	768	757	777	805	809	813	806	809	811	814	816	813	815	811	816	815	811	806	807	814	816	820	822	821	815	793	780	779	779	778	788	807	827	834	829	842	856	854	844	831	816	799	798	796	803	821	836	836	817	802	801	796	802	815	823	831	826	820	809	804	809	807	807	802	802	819	819	818	804	794	794	800	800	794	780	783	786	791	790	785	780	775	781	784	785	780	771	771	787	796	793	778	773	775	777	789	813	829	833	822	816	810	816	820	812	797	784	789	795	803	810	812	808	804	775	757	757	757	769	776	779	769	769	768	779	793	810	833	839	836	820	800	791	786	777	769	769	779	799	817	823	814	819	809	805	797	791	777	777	773	776	783	787	789	791	790	801	793	774	756	750	759	766	778	770	759	751	748	760	788	788	793	796	797	787	780	765	759	755	753	758	768	773	764	757	764	765	781	785	785	783	763	752	736	735	737	739	745	753	758	753	748	752	749	749	740	726	714	707	702	706	708	711	716	727	748	782	779	779	763	750	752	755	758	772	776	772	766	746	742	742	749	757	763	762	760	754	748	733	722	719	719	720	727	733	738	736	734	745	754	754	755	755	737	708	696	696	711	718	734	757	757	767	766	749	734	724	720	717	712	712	708	711	733	757	765	761	753	751	751	752	758	750	747	733	738	745	745	738	726	715	718	727	744	753	753	744	739	727	716	705	701	701	705	704	711	722	738	744	744	756	751	747	739	736	731	731	730	731	730	743	756	756	765	762	750	737	726	718	718	712	718	723	722	744	744	753	748	741	729	722	722	722	730	720	708	700	700
752	747	763	774	801	801	834	827	805	783	793	793	819	835	814	789	775	775	764	762	747	732	731	741	741	762	771	773	768	784	784	799	803	783	763	764	770	770	770	761	763	799	819	812	792	792	783	780	781	784	787	796	793	793	796	790	770	775	801	806	801	801	788	775	780	799	805	803	808	808	816	819	805	772	755	756	761	763	763	763	781	804	816	819	811	811	802	809	809	823	826	824	799	764	748	738	744	764	764	776	783	770	763	767	783	791	799	800	788	776	776	772	782	792	796	795	800	796	783	776	768	756	756	751	745	739	736	746	766	780	793	805	805	812	809	804	804	779	752	740	738	743	757	771	781	777	775	779	774	774	782	782	800	815	802	809	820	821	802	793	798	808	805	799	790	797	801	816	847	859	859	856	844	825	812	800	794	784	790	800	808	814	805	793	784	775	782	795	800	807	809	823	835	835	833	836	841	836	822	803	815	820	831	823	811	802	798	800	808	809	803	791	776	762	750	759	776	791	820	819	814	801	793	793	792	799	803	812	811	809	805	799	792	801	809	815	813	807	815	829	836	844	844	849	851	855	859	851	847	844	836	830	819	812	805	801	803	811	811	805	795	794	811	834	848	847	828	811	811	805	806	815	822	822	822	818	813	803	793	785	785	795	812	826	802	797	787	770	773	788	791	791	793	764	750	779	800	811	810	808	803	794	795	800	801	809	806	802	795	793	793	802	816	824	825	819	801	782	774	775	775	769	769	790	802	807	810	822	830	847	841	834	818	800	789	788	802	826	834	836	820	790	782	779	786	799	813	822	826	820	809	804	809	807	801	796	792	792	792	799	797	792	799	800	799	782	770	773	776	780	779	780	769	766	766	770	769	772	766	765	783	795	788	781	776	779	779	793	813	825	836	830	809	808	819	818	806	790	781	782	789	798	805	813	815	802	781	748	748	752	764	781	787	778	770	770	775	779	794	810	820	822	805	800	791	790	782	772	772	779	793	806	823	814	800	792	789	786	775	775	763	762	770	788	787	785	788	795	795	778	756	748	751	759	768	773	769	757	745	749	759	772	772	779	783	787	785	773	757	746	738	737	739	745	747	741	743	764	765	760	760	746	737	733	732	725	728	724	725	734	748	755	760	748	744	739	739	733	725	713	706	710	719	721	716	723	741	769	782	782	778	766	750	742	755	758	761	763	754	742	728	730	730	739	749	757	761	756	752	736	723	721	718	718	717	724	725	726	727	725	736	743	743	743	739	737	708	702	709	712	708	715	736	736	753	752	739	722	709	719	726	718	718	708	701	709	723	737	749	738	732	732	738	744	750	739	727	734	738	738	742	739	733	731	741	743	743	741	736	732	723	710	708	709	709	718	724	731	737	737	744	744	744	741	733	729	721	716	716	720	722	719	725	745	745	769	770	758	739	722	722	719	722	723	723	722	733	733	735	737	733	722	715	715	715	714	712	695	695	690
751	748	758	778	797	797	828	827	805	781	798	798	829	844	829	792	772	772	772	775	763	750	744	746	746	770	774	774	769	781	799	799	803	782	759	756	769	781	781	784	786	805	814	811	797	797	790	779	777	777	771	771	780	780	802	798	797	799	801	806	800	800	791	785	791	801	797	791	796	812	812	814	803	782	766	768	771	764	768	768	785	813	825	818	812	796	802	809	797	814	816	805	776	753	746	740	736	738	741	741	759	770	767	768	778	787	787	777	769	780	780	779	778	780	771	771	783	787	783	777	772	761	761	751	748	744	741	752	765	780	788	799	812	813	810	798	798	788	768	756	746	740	746	760	769	769	776	771	765	763	771	801	801	806	802	809	810	802	794	793	797	806	804	803	802	808	806	815	825	838	838	841	835	816	804	804	800	791	793	804	804	805	798	790	786	787	792	801	797	792	793	809	818	818	830	838	849	849	835	815	815	820	814	805	793	786	799	811	813	814	801	792	783	772	764	765	770	770	777	775	778	784	788	794	794	800	809	815	819	812	804	804	801	801	809	813	813	811	816	821	829	833	835	834	838	833	826	819	806	810	821	828	829	817	807	794	792	798	803	800	798	804	828	841	831	814	793	790	796	806	813	822	830	829	819	819	806	800	797	791	784	791	795	803	802	797	787	770	773	788	791	785	788	784	759	755	780	801	815	812	805	796	790	794	800	808	801	794	790	792	797	807	819	822	823	817	795	781	768	775	780	782	783	784	791	803	807	813	811	830	835	817	800	777	771	777	795	814	821	823	804	790	782	779	786	799	813	822	837	831	822	820	826	816	803	787	777	777	780	775	771	771	776	787	781	767	754	755	768	772	775	777	770	761	759	768	773	771	760	756	770	787	789	776	772	776	783	789	798	809	813	802	796	791	795	790	785	775	777	778	766	766	786	803	812	804	788	768	768	760	765	784	790	779	767	766	769	770	779	788	795	801	798	796	793	791	782	775	770	779	793	806	806	786	773	765	770	773	765	765	767	771	783	788	789	786	790	793	784	759	753	752	752	759	767	766	764	757	755	756	765	765	764	757	760	769	770	766	753	750	743	740	745	741	726	725	743	750	754	752	752	744	739	742	747	737	724	710	714	728	733	743	750	753	739	739	730	723	715	709	708	715	721	723	722	723	742	761	773	773	773	757	750	742	742	747	747	744	735	721	718	718	725	734	745	754	758	753	746	733	724	724	723	723	719	724	720	716	712	711	721	727	729	743	739	748	743	717	721	709	699	698	718	718	735	735	729	707	703	728	739	736	736	708	706	704	711	722	728	722	722	726	738	744	734	726	723	725	725	737	741	747	744	737	735	732	732	728	730	727	720	715	712	712	718	719	729	733	737	737	739	739	736	730	722	714	708	708	711	717	718	712	712	729	729	757	763	749	717	691	691	697	722	723	722	719	719	714	706	703	703	704	704	694	703	709	709	698	698	692
745	753	768	780	806	806	821	824	798	781	798	803	823	835	821	798	772	770	770	770	768	746	741	752	752	763	766	767	765	778	790	790	794	782	759	770	772	794	794	805	806	792	778	794	793	793	773	775	773	773	760	757	755	755	769	793	799	806	801	811	800	787	784	780	794	798	794	785	786	798	798	814	810	796	784	781	779	772	777	777	802	822	826	815	800	793	786	797	814	814	806	786	751	731	734	742	747	752	763	763	776	779	776	771	775	777	772	756	759	783	783	793	785	782	776	780	785	787	784	777	772	770	760	760	755	759	766	768	769	771	785	800	811	810	802	785	777	777	766	760	748	742	744	749	753	760	763	769	760	759	769	779	779	791	798	805	810	802	782	787	806	811	811	811	816	817	825	815	817	816	813	813	811	798	800	798	794	790	788	797	805	803	798	798	799	805	808	809	797	782	778	782	794	802	802	808	817	843	843	831	827	827	814	805	782	799	803	806	811	809	807	802	788	782	779	781	780	782	787	796	789	795	806	811	811	810	811	814	809	809	810	813	817	817	811	790	793	799	810	818	819	816	807	794	789	791	791	789	801	804	804	805	811	808	805	807	807	808	800	801	813	823	824	826	816	801	785	776	788	803	811	812	819	820	809	809	801	800	797	794	791	782	782	787	788	790	784	767	773	783	785	785	788	784	759	755	780	801	815	812	805	804	797	798	801	804	801	789	789	800	810	814	824	824	818	804	791	774	768	775	779	782	780	783	782	782	784	782	777	771	771	817	800	777	771	777	795	814	821	823	804	770	757	769	783	796	813	821	829	826	818	815	821	814	808	787	777	777	771	774	775	774	773	769	764	750	747	746	760	775	785	789	784	785	793	795	787	788	778	764	769	776	778	771	761	773	784	797	796	786	771	758	753	759	753	745	753	766	777	772	758	759	778	795	799	797	791	791	778	768	770	779	786	779	763	766	763	758	764	770	779	780	784	790	784	783	779	775	770	774	784	787	780	766	759	752	754	763	763	777	778	777	772	771	767	763	751	736	733	736	731	728	737	753	766	772	768	757	748	752	754	754	755	749	751	754	764	763	755	745	735	742	744	739	726	725	727	752	763	763	757	747	741	742	743	732	715	706	722	728	727	731	737	738	739	739	720	710	705	700	700	713	717	715	720	725	733	741	753	753	773	757	742	729	727	734	740	737	720	713	722	722	738	744	750	756	756	753	748	735	724	724	724	717	718	718	714	707	702	701	709	712	729	729	718	718	747	767	772	734	707	679	679	664	663	672	680	695	713	728	745	745	738	713	704	705	709	714	706	692	722	726	729	734	730	731	722	726	726	735	743	749	748	740	721	712	712	716	723	721	715	709	711	711	717	720	729	733	736	742	742	742	740	728	714	702	702	702	709	711	712	708	711	726	726	743	748	725	686	675	691	697	724	735	725	712	712	694	682	682	680	683	683	683	686	711	729	725	725	712
755	769	789	803	824	824	831	823	808	787	803	803	823	803	812	800	772	771	771	765	754	743	733	736	736	757	776	781	780	786	798	798	795	792	778	770	772	806	806	827	821	805	793	786	776	769	769	774	774	775	760	746	734	734	745	769	788	796	795	795	787	784	784	778	794	805	796	780	781	793	793	804	805	801	793	789	790	782	787	787	800	810	806	800	785	776	770	794	802	802	806	786	733	726	727	750	767	777	778	778	773	764	760	755	758	765	763	750	750	776	789	789	788	783	785	782	779	778	778	782	779	770	760	774	778	782	789	788	772	767	765	779	794	792	794	781	780	780	776	769	753	742	740	739	738	735	742	749	751	755	767	777	786	786	794	797	791	781	782	787	799	800	794	801	815	819	821	807	799	797	802	802	799	789	792	785	781	781	784	796	795	798	800	806	806	813	811	799	786	775	775	778	795	805	805	812	809	808	833	842	840	829	804	793	782	799	803	802	804	810	809	803	788	781	778	776	783	782	781	789	797	813	813	810	815	815	814	811	801	787	792	819	821	798	771	759	768	791	814	815	821	808	795	781	774	773	770	786	797	796	786	778	780	783	784	784	788	791	788	781	805	811	814	817	811	799	784	776	779	793	798	790	792	794	795	794	794	792	795	796	789	780	774	776	787	787	780	769	774	779	780	776	778	775	765	747	750	782	809	815	812	804	797	798	801	804	801	789	789	800	810	814	824	824	818	804	791	774	768	775	779	782	780	783	782	782	784	782	777	771	771	776	781	772	771	774	788	803	814	800	774	746	746	769	782	801	808	815	819	818	812	808	806	807	800	790	790	771	764	763	772	776	775	769	757	741	740	742	758	781	794	791	787	790	795	802	798	797	801	803	794	780	774	761	756	759	775	795	800	790	787	788	779	760	736	725	740	767	775	771	754	747	763	775	778	782	786	786	777	778	779	781	785	778	758	759	760	754	754	766	770	785	783	778	772	783	779	778	771	766	760	759	755	753	751	750	752	768	768	778	779	774	767	762	755	747	730	739	759	758	752	744	745	754	768	771	769	760	747	739	739	745	752	752	756	759	763	761	734	714	715	724	744	739	725	714	724	747	761	761	758	745	740	735	729	716	701	702	717	724	726	726	720	723	723	723	720	704	695	694	694	701	705	711	722	727	728	728	741	753	747	743	734	721	715	723	728	727	723	717	722	722	738	751	758	755	758	751	746	729	718	709	709	706	710	712	711	704	701	699	709	712	712	714	708	714	717	737	768	768	769	755	755	731	697	672	668	681	691	708	724	724	728	723	722	721	720	713	706	692	692	690	698	710	721	722	716	707	707	730	745	748	746	733	714	706	706	712	718	721	709	678	674	674	717	720	724	721	728	740	740	749	748	741	714	701	700	700	709	716	711	713	716	716	721	724	717	709	686	675	675	696	721	738	736	717	717	692	678	672	676	672	672	669	680	706	727	727	727	712
779	804	812	830	839	838	838	831	806	785	785	795	795	803	812	781	772	767	767	758	743	739	735	749	769	769	792	803	804	801	808	813	813	806	802	793	789	806	827	816	826	813	793	778	764	761	761	765	769	766	756	741	733	750	750	773	797	797	782	775	770	767	767	778	794	801	786	778	776	786	791	791	793	790	782	780	785	783	748	746	746	751	749	748	745	745	754	765	789	789	787	760	733	726	746	769	768	762	759	754	754	740	719	723	740	764	764	754	748	764	780	780	788	784	780	777	770	773	779	784	781	778	774	778	778	781	784	778	761	746	747	762	772	772	777	778	789	789	784	774	756	742	737	737	730	722	715	719	736	750	760	774	783	783	790	785	779	764	758	777	799	800	779	774	780	793	800	787	780	783	787	783	783	789	781	771	768	766	773	781	785	789	794	801	803	805	801	782	775	776	773	776	788	802	804	804	799	790	797	832	838	824	803	792	789	796	799	802	804	801	801	797	789	780	774	767	763	767	773	773	775	788	804	797	795	798	798	805	791	774	764	776	786	771	756	751	766	790	815	820	820	807	787	773	763	761	756	774	789	786	778	769	766	768	774	787	800	796	789	777	771	788	801	802	806	806	799	787	788	789	788	779	781	781	781	782	782	784	783	784	782	776	772	773	779	780	778	775	777	783	782	771	772	774	769	760	744	754	796	815	812	806	799	800	796	795	791	788	790	800	817	824	822	823	815	803	785	769	772	776	785	786	787	785	786	778	778	772	768	759	758	757	762	762	772	780	791	791	775	754	738	739	750	772	788	803	806	812	813	812	807	800	792	792	787	781	781	763	755	756	764	779	777	773	762	742	752	764	778	781	787	789	790	782	781	779	774	766	772	790	792	784	776	768	761	752	761	769	769	780	789	790	783	758	733	721	740	756	761	758	747	731	726	748	769	776	776	773	772	774	779	780	771	759	750	750	753	749	750	766	782	786	781	778	772	760	759	760	753	750	745	738	740	746	746	751	757	757	764	765	766	767	763	758	747	734	738	754	760	754	749	743	743	755	766	768	764	751	747	741	741	741	741	748	762	768	761	737	713	705	715	724	734	734	725	716	719	737	737	757	759	751	740	724	711	699	692	701	712	728	729	721	711	705	705	705	705	697	691	686	687	692	702	708	715	724	723	728	728	725	721	726	715	713	705	704	715	723	720	722	722	722	732	745	751	753	743	729	729	723	711	701	701	700	705	708	703	703	701	699	703	701	701	703	700	712	721	729	738	750	755	757	757	751	730	710	686	678	685	693	711	711	723	725	721	718	720	713	702	702	696	698	704	713	724	726	709	697	697	706	728	737	740	718	703	703	701	715	720	719	700	668	674	674	700	725	721	717	721	738	738	748	747	743	728	713	705	705	707	715	716	717	716	716	711	701	717	709	679	679	668	685	716	737	739	723	723	709	693	678	667	665	665	664	676	687	700	700	706	712
790	812	832	839	834	839	839	824	799	771	761	763	763	767	782	781	772	757	757	752	742	750	761	782	796	796	812	823	824	820	814	823	823	828	816	803	795	803	816	816	826	799	787	757	742	741	741	742	748	748	730	726	734	756	756	780	797	795	777	763	752	755	755	770	790	801	786	768	774	779	780	780	774	762	762	764	764	749	750	752	752	756	754	749	747	741	740	749	763	765	765	743	729	726	746	762	758	752	751	741	741	724	713	710	723	753	768	765	757	761	771	771	774	778	768	765	764	766	773	776	777	780	779	783	783	781	784	774	749	738	734	737	746	749	757	757	770	775	775	763	745	730	740	745	738	730	720	717	727	741	755	774	783	787	787	779	762	758	769	777	790	788	779	774	761	775	780	778	768	768	770	765	765	768	767	763	757	762	766	776	776	784	792	793	785	782	772	773	772	777	778	779	783	792	793	793	789	781	782	803	819	802	789	782	784	789	784	789	792	801	801	791	780	781	774	761	758	758	765	759	747	743	753	758	769	770	770	787	802	802	791	792	802	805	797	787	781	788	804	815	809	799	781	765	760	759	756	756	775	790	786	786	786	792	792	795	796	797	785	767	763	765	776	781	787	795	799	797	795	795	790	779	774	776	777	782	782	780	779	774	773	777	774	770	770	767	756	761	774	775	782	776	768	765	765	756	751	750	766	809	807	801	796	794	789	786	782	781	791	798	812	814	809	808	804	795	782	779	778	783	787	781	781	784	784	776	770	764	761	756	745	741	745	756	770	787	793	782	768	752	740	742	757	770	785	794	796	788	783	791	786	784	778	780	776	776	765	750	749	763	768	777	783	778	769	770	781	779	767	758	761	757	757	758	761	769	756	741	721	721	741	754	764	767	768	766	750	737	754	767	788	789	771	746	732	723	735	741	748	744	729	718	713	732	761	785	785	791	780	735	719	724	732	738	741	740	735	740	742	757	782	786	781	775	755	752	748	748	748	748	746	755	754	753	751	755	755	758	761	751	752	753	752	741	736	733	736	757	752	741	728	721	719	713	715	716	727	744	746	746	742	739	739	743	741	733	727	738	713	705	697	710	724	727	727	726	733	738	738	745	743	741	727	708	698	693	694	702	716	730	737	736	704	695	695	691	692	688	682	680	685	694	706	704	710	724	723	712	712	703	700	706	717	728	722	714	715	720	724	723	723	723	727	732	733	728	729	718	693	673	672	672	701	726	733	738	703	703	707	706	700	692	692	688	695	704	714	727	735	733	727	727	723	723	715	715	709	694	696	704	704	707	709	711	721	718	719	714	704	704	701	697	704	716	727	733	733	733	702	691	708	718	724	708	700	700	706	716	720	716	700	668	668	668	693	720	720	716	710	710	705	702	710	717	717	711	711	703	699	705	711	705	696	696	711	701	700	692	679	679	678	686	703	713	723	723	728	714	706	684	676	676	671	670	677	685	691	700	706	701
790	815	827	832	836	832	832	812	791	756	742	744	744	757	765	760	762	757	752	738	741	757	783	801	808	808	815	812	819	817	810	816	816	820	811	787	772	775	793	793	808	799	787	730	712	713	727	727	733	717	709	713	726	746	746	768	784	784	773	756	756	764	773	773	782	784	777	768	774	778	766	766	756	748	750	762	758	749	748	757	757	757	758	760	752	744	738	742	746	747	747	738	728	733	750	762	758	748	744	737	718	718	702	699	716	741	761	766	762	762	767	766	766	760	757	759	764	763	765	768	771	781	781	782	782	787	784	774	749	727	722	718	721	719	716	727	739	749	749	748	733	718	733	743	744	739	730	746	747	755	753	745	745	735	735	731	738	751	766	774	773	773	763	761	761	775	774	771	754	758	759	763	761	761	769	766	766	762	763	771	776	783	792	789	775	759	759	765	775	776	771	761	768	775	779	777	777	774	768	772	788	780	774	767	780	777	774	776	784	793	794	791	780	781	759	759	762	773	775	766	743	734	733	728	746	770	799	799	820	816	803	789	786	795	795	791	792	790	800	805	794	782	777	763	762	765	767	769	778	797	801	799	798	801	802	805	796	784	773	765	763	763	755	753	761	773	784	796	796	800	791	778	767	773	777	783	778	778	773	770	770	775	772	769	766	756	752	754	762	770	778	778	771	754	745	739	740	748	754	780	806	797	788	786	780	777	775	776	784	785	791	795	799	796	786	769	775	779	777	779	768	767	771	775	776	768	758	753	752	752	748	741	740	752	768	787	797	787	770	747	741	747	751	755	757	763	763	764	768	776	772	764	765	760	757	757	750	745	753	768	772	776	779	779	778	781	778	767	745	742	749	745	741	748	749	756	757	752	750	751	753	744	733	733	737	744	756	747	753	767	779	772	754	737	724	721	727	732	746	738	720	709	714	738	759	759	764	761	759	752	734	731	738	746	742	732	726	724	742	757	778	782	776	754	746	743	746	748	746	750	758	760	762	757	752	752	752	749	749	742	736	738	734	729	726	725	731	734	750	754	755	749	738	722	714	715	725	745	749	749	736	738	739	740	735	725	727	738	733	729	706	700	704	714	729	737	739	739	740	741	738	732	721	705	691	691	699	712	723	736	736	732	711	711	696	694	690	680	669	669	680	699	706	704	710	711	708	708	702	696	697	701	722	733	738	735	729	723	727	724	724	717	702	699	700	710	714	707	689	676	680	680	686	691	733	738	718	716	723	722	709	709	692	685	689	699	708	712	722	716	714	714	710	710	711	719	717	711	707	708	708	711	709	711	721	716	714	706	700	700	693	684	685	691	730	741	734	734	726	708	698	710	724	732	723	723	708	706	720	716	704	679	679	662	683	708	684	684	688	688	691	693	699	704	700	690	690	682	678	699	708	711	706	696	695	695	695	687	684	684	689	691	695	702	706	706	704	700	694	688	683	683	677	678	683	685	691	691	686	690
791	792	797	808	815	818	818	812	788	756	739	739	757	757	758	751	739	742	738	738	741	759	793	806	804	791	791	805	805	801	799	798	798	805	790	772	753	755	763	770	770	769	752	730	712	707	721	721	726	721	717	716	726	738	758	758	774	777	762	764	772	777	776	776	781	774	767	771	773	778	766	753	753	755	760	764	757	748	744	747	752	752	755	758	761	754	748	748	744	731	731	725	726	731	745	749	749	748	744	734	718	718	705	701	712	740	750	763	763	760	759	753	753	743	746	760	764	754	748	753	761	768	776	781	788	788	782	768	749	727	717	706	703	700	698	706	714	721	729	729	724	717	724	746	756	765	772	762	733	733	741	754	753	747	747	749	750	754	766	770	769	767	766	761	762	767	774	771	753	760	768	766	768	768	776	771	766	758	766	766	771	777	792	789	756	740	749	750	754	755	754	756	766	768	767	762	762	757	757	761	762	766	761	761	769	771	765	770	773	776	781	773	766	769	759	759	771	790	797	787	760	749	739	732	748	771	801	801	817	817	802	777	769	777	780	788	788	789	793	797	787	781	772	767	773	780	786	785	787	796	804	812	806	805	810	807	795	775	759	759	764	751	740	732	736	746	760	777	788	796	785	765	751	760	775	787	787	787	778	768	762	770	772	770	766	755	748	747	753	758	768	774	773	755	748	741	736	744	751	769	792	794	778	772	764	761	764	771	778	774	778	786	787	779	761	759	761	771	773	760	754	751	757	761	762	755	747	744	743	743	749	750	749	753	764	775	787	790	774	752	739	738	739	732	722	720	733	748	761	767	763	755	743	735	735	755	757	747	750	767	779	778	770	769	771	772	764	741	740	752	753	747	740	741	746	752	756	752	751	751	754	729	725	730	731	739	745	753	765	766	774	770	745	726	710	707	728	751	755	734	715	706	719	742	742	763	763	758	755	751	742	740	750	757	755	732	726	724	727	729	729	733	736	745	748	752	758	754	751	752	755	758	757	758	754	754	749	741	737	738	741	724	726	725	728	724	729	729	737	748	754	752	739	727	715	714	723	736	736	737	735	746	747	747	735	725	722	733	737	726	722	718	713	707	722	725	728	728	729	735	736	732	722	706	692	687	717	744	752	740	727	716	715	715	710	701	689	674	661	663	678	699	706	708	706	706	700	700	698	693	698	707	720	734	741	742	735	728	726	726	728	723	705	691	691	690	694	695	688	688	681	681	686	691	701	707	714	722	722	719	715	715	709	707	698	695	701	706	703	700	701	701	699	704	713	724	726	719	706	700	700	711	714	713	708	703	696	682	682	683	691	706	718	724	722	736	738	738	723	704	695	694	701	712	712	707	708	706	706	703	700	692	692	672	657	659	683	692	689	689	691	694	699	700	691	685	685	674	674	699	720	711	711	706	695	697	703	698	694	694	688	686	686	685	687	687	681	681	678	673	675	675	680	678	683	691	688	688	685	681
776	776	780	777	797	802	806	806	785	760	754	761	770	770	751	739	722	721	728	728	743	759	778	790	778	783	783	788	792	786	778	778	781	781	776	752	738	747	750	740	740	729	713	702	706	707	721	729	740	737	733	730	728	737	745	745	755	761	753	771	781	787	780	780	781	776	766	767	773	771	759	753	753	760	767	762	753	740	736	742	742	742	747	756	761	765	756	752	738	722	714	714	712	722	736	739	737	740	742	734	718	723	720	720	728	745	749	757	762	760	749	739	730	730	735	756	757	750	735	736	751	762	771	782	787	787	786	775	750	727	717	706	758	721	701	702	706	714	715	715	723	726	735	739	720	726	733	738	749	752	755	752	749	742	753	753	761	771	772	774	775	770	764	759	760	765	770	764	753	760	769	770	771	756	756	743	735	742	751	754	745	724	719	725	744	746	745	738	744	753	760	762	768	769	765	756	734	734	733	742	770	776	772	767	765	763	759	759	762	764	766	759	747	733	727	744	771	790	797	813	797	784	776	752	748	753	783	799	799	805	784	763	753	752	769	777	782	781	784	787	779	772	764	767	775	789	801	795	793	795	798	797	798	795	798	794	780	762	746	740	740	737	729	723	727	733	753	767	761	756	750	736	734	750	764	771	772	765	765	756	751	754	762	768	765	761	743	742	739	736	752	759	771	772	767	749	742	748	759	772	786	779	766	753	744	744	751	765	780	786	785	790	789	773	763	761	757	764	780	777	745	743	747	749	752	744	742	741	741	743	744	750	754	756	759	768	768	772	769	753	742	733	728	721	715	714	723	745	753	752	745	740	755	798	798	784	765	748	749	759	764	746	712	721	730	742	742	740	742	750	756	757	758	749	745	749	751	750	736	724	710	710	718	724	725	733	740	749	766	762	763	758	745	723	710	711	727	748	753	734	717	704	727	750	750	763	756	744	747	744	745	745	751	757	755	741	730	730	733	733	734	732	727	751	763	767	773	769	765	755	750	750	749	752	745	745	748	745	748	758	753	752	735	734	736	736	730	726	722	733	736	731	725	720	718	717	716	725	725	727	739	742	747	747	739	725	713	713	724	731	726	722	729	726	712	709	710	710	711	717	723	726	723	726	737	730	720	711	701	697	686	684	684	698	706	703	685	668	660	663	678	702	712	708	698	695	695	691	689	691	699	703	712	725	735	737	726	705	705	705	711	717	701	686	676	683	701	705	701	693	693	681	686	689	704	711	715	713	710	712	709	709	704	702	701	700	698	697	698	694	694	699	694	700	715	724	720	718	706	706	700	701	706	704	702	706	705	704	704	706	715	724	721	732	737	734	734	726	718	707	699	694	694	696	696	707	698	690	684	692	701	701	694	680	674	673	680	684	690	690	692	694	696	691	687	687	684	680	680	699	720	715	715	705	700	704	712	703	703	688	676	673	677	683	676	676	677	676	674	674	674	675	680	680	688	691	691	686	682	678
776	776	755	759	771	782	781	781	775	749	751	762	767	767	753	728	712	708	709	709	732	750	778	790	754	762	762	768	766	756	750	758	769	769	762	736	724	727	733	720	720	704	694	694	695	715	729	740	748	748	744	730	722	718	730	730	741	746	751	774	782	779	774	762	762	753	744	744	751	751	750	752	752	760	764	763	750	741	740	738	734	734	741	747	766	770	764	747	735	715	703	703	709	716	729	736	740	736	741	733	723	720	720	733	738	747	757	768	768	763	747	727	715	715	716	732	753	744	724	723	735	748	762	771	777	769	769	759	748	740	753	757	758	721	711	703	703	708	717	717	727	734	735	717	708	719	728	743	753	756	754	750	745	746	754	754	765	776	770	764	751	751	751	752	749	751	761	758	748	760	769	770	759	754	754	759	752	743	735	732	733	728	732	740	751	755	745	739	751	762	771	775	773	772	765	750	757	757	747	745	749	764	781	776	758	747	737	737	742	743	748	750	737	728	736	756	788	814	825	813	797	783	770	754	737	731	758	780	780	777	766	750	739	744	761	771	766	761	766	768	766	757	757	764	771	777	781	784	787	787	788	783	778	775	776	772	764	747	727	712	720	725	719	712	718	740	774	768	759	748	740	742	751	759	764	766	762	758	758	745	738	735	742	742	727	720	733	738	738	735	731	754	768	775	772	761	750	754	763	770	778	769	754	734	732	748	764	766	759	753	750	766	775	778	769	757	751	760	773	778	775	750	747	747	746	745	745	744	737	734	739	748	754	754	755	756	754	748	754	752	744	733	733	732	728	732	743	752	754	747	734	753	787	787	804	790	760	741	736	742	740	717	683	684	710	731	735	732	734	744	750	759	751	737	744	744	746	740	733	733	723	720	723	726	727	730	737	750	758	755	753	748	738	728	718	714	724	736	737	723	708	703	706	706	718	728	728	723	728	732	745	745	751	752	755	756	754	748	744	737	735	730	723	721	756	777	779	771	760	749	741	739	743	744	744	746	730	727	726	733	738	741	741	743	746	745	734	718	710	706	716	717	719	718	715	719	730	730	725	727	739	742	735	734	727	720	714	719	726	733	726	722	728	729	723	711	711	706	704	710	712	712	720	737	735	723	715	706	696	692	690	690	690	690	692	695	672	668	660	662	678	706	716	710	696	690	690	685	686	686	693	696	701	704	716	710	684	675	675	682	697	708	707	679	674	685	700	705	704	693	693	692	693	695	709	714	713	709	697	697	697	700	698	701	703	705	705	694	692	702	702	705	696	696	700	711	710	718	706	706	696	699	697	692	701	706	703	706	706	708	716	722	719	721	729	728	728	716	709	707	705	703	698	696	696	701	697	693	694	704	703	703	693	685	682	675	678	676	676	678	684	690	692	687	684	684	682	680	680	705	723	720	720	708	704	710	719	705	705	683	670	662	667	676	676	681	712	723	718	698	674	669	658	654	676	680	680	684	678	676
760	760	755	744	750	756	753	753	735	723	723	730	741	741	735	719	698	692	690	704	704	730	749	759	754	762	737	738	739	738	742	749	750	750	738	722	717	724	725	710	710	694	684	685	698	707	737	748	748	748	745	733	721	713	719	735	735	743	751	764	774	768	746	733	733	740	734	728	723	728	732	744	761	761	764	763	744	736	735	732	731	736	736	748	769	777	773	761	726	711	705	705	710	716	723	727	732	728	733	738	735	733	733	733	733	740	749	756	767	757	739	719	709	709	712	725	734	730	712	708	714	726	741	751	743	733	733	728	729	739	752	765	762	740	711	703	703	711	718	726	726	731	738	734	711	723	740	746	745	740	741	739	738	739	747	756	756	747	736	727	730	743	741	745	741	744	750	746	732	717	727	750	759	754	749	749	751	747	742	739	736	736	739	748	757	758	748	742	756	769	779	778	766	762	761	773	757	748	748	747	757	748	745	734	725	717	720	737	755	755	752	746	734	733	741	770	792	809	817	811	797	783	770	754	727	726	728	744	752	752	753	744	735	736	756	761	750	739	749	752	753	743	737	747	750	753	758	762	775	776	771	759	758	761	762	755	746	734	717	707	710	715	709	709	716	734	759	763	761	748	741	744	749	760	762	762	757	752	733	733	723	716	720	720	713	713	722	740	745	743	738	748	764	779	776	763	752	752	753	763	768	757	733	717	730	742	759	761	744	715	730	748	754	749	741	735	741	755	768	772	766	752	752	758	754	756	759	747	739	727	733	745	752	752	747	743	737	734	743	743	739	733	727	724	721	721	726	740	739	738	740	755	761	761	756	757	742	725	724	732	721	700	691	701	713	724	728	723	728	734	743	750	744	738	737	731	730	723	723	729	728	731	737	733	734	735	740	748	752	753	744	736	729	719	714	713	717	720	714	712	705	698	700	700	708	717	718	720	728	732	737	742	742	742	737	740	747	743	737	735	738	738	728	717	720	742	761	759	750	737	743	743	741	739	739	733	721	717	718	723	731	737	741	744	747	751	734	712	697	699	703	706	710	713	715	725	731	731	725	727	738	743	734	734	729	721	718	724	730	727	716	707	716	717	716	713	713	711	711	709	705	704	704	725	726	716	708	703	693	691	690	691	691	690	698	695	672	675	681	684	690	702	704	704	691	683	683	671	656	654	668	682	682	687	693	667	660	662	662	667	682	696	683	674	674	682	689	705	704	704	700	700	699	700	706	702	699	699	690	693	693	695	700	703	702	706	704	691	690	699	699	704	701	694	691	711	710	709	699	699	687	677	670	665	662	671	687	687	696	700	697	704	696	705	711	707	707	698	695	706	710	703	698	698	699	698	685	672	675	688	697	697	690	683	682	676	669	664	664	656	669	674	684	679	678	684	682	680	684	699	711	711	703	696	693	700	710	705	705	686	665	658	665	679	679	694	715	731	718	698	698	672	658	652	655	673	673	680	700	700
753	753	743	744	750	740	731	731	719	716	709	719	721	709	709	705	695	689	684	692	692	703	724	733	733	737	738	738	710	726	738	743	736	723	723	711	704	705	710	712	695	695	685	689	698	710	730	752	752	758	745	733	721	708	724	748	748	747	753	750	753	747	729	729	729	737	736	726	719	711	711	718	741	741	749	750	744	736	719	720	729	736	736	750	762	773	763	754	719	709	711	718	718	718	718	716	711	725	736	735	736	737	737	734	733	740	733	734	738	739	727	713	710	710	710	716	722	716	706	703	705	717	723	726	723	717	717	714	714	725	742	756	751	730	704	698	703	711	724	726	726	733	739	738	740	746	749	748	740	730	729	724	725	727	727	723	723	730	733	725	732	749	758	756	744	726	722	728	731	726	732	736	742	745	749	749	747	749	744	739	738	738	744	750	759	757	747	742	751	766	778	776	763	758	758	764	763	752	752	758	744	744	755	756	761	764	770	770	761	754	745	737	730	735	747	766	789	802	806	795	784	775	760	746	727	726	727	723	722	722	722	724	726	729	737	739	734	732	737	748	747	741	740	741	738	738	739	741	748	749	743	742	747	749	745	735	732	728	713	711	713	717	709	705	722	731	735	744	748	738	731	733	739	746	753	746	746	739	734	734	728	722	714	709	714	716	726	734	746	754	760	766	775	770	769	760	753	749	746	750	751	745	747	745	748	743	732	725	720	728	741	748	753	750	739	736	741	751	756	761	746	741	746	753	756	762	757	748	733	723	731	745	745	740	734	722	720	721	732	736	739	733	724	719	709	708	708	716	721	720	721	720	727	727	729	729	723	711	714	723	726	708	697	702	709	714	719	717	721	729	736	738	741	739	733	719	703	695	695	707	722	734	742	743	742	743	742	745	742	740	736	724	712	706	704	707	707	702	702	704	695	695	695	694	702	717	718	720	721	725	731	733	733	729	724	723	728	727	724	727	731	740	732	702	686	702	738	742	737	732	732	731	729	729	726	729	726	721	720	720	727	734	740	744	749	753	741	718	698	691	694	695	698	703	716	718	725	731	725	720	735	734	734	730	731	735	739	736	730	715	698	693	697	705	712	712	712	714	718	716	707	701	698	707	719	710	700	696	692	693	694	694	695	706	698	675	678	694	694	687	690	700	704	696	684	684	662	652	643	647	654	665	664	661	658	658	660	653	653	657	674	682	677	671	670	682	689	699	697	697	696	693	694	690	698	698	696	694	687	690	690	699	705	703	700	704	704	696	693	693	695	701	701	694	691	687	686	692	692	698	691	686	678	668	663	668	677	677	685	688	678	668	673	681	684	684	683	677	671	706	710	705	700	700	701	700	683	666	664	672	679	679	677	682	675	675	664	654	654	650	652	659	654	679	678	678	677	673	676	688	691	691	683	678	676	688	692	690	690	678	663	655	650	659	659	671	715	731	729	707	707	677	663	646	657	657	666	685	693	693
748	735	735	729	734	740	731	709	709	721	719	720	710	698	698	693	689	698	699	695	695	701	708	710	708	701	700	700	710	726	746	742	727	710	710	692	685	688	701	709	703	703	705	708	713	720	738	759	759	756	753	731	721	708	732	731	731	725	719	720	734	736	740	742	744	744	735	726	710	700	696	709	722	722	736	739	724	708	719	720	733	740	740	742	743	747	735	720	703	703	712	719	719	724	717	707	698	713	729	731	732	733	727	727	722	727	733	734	711	713	706	705	700	702	702	707	712	712	703	694	697	706	715	723	715	705	696	696	702	714	730	741	734	713	696	699	709	719	724	726	731	731	733	731	703	709	729	744	746	738	727	726	719	720	719	714	718	718	727	732	736	742	750	748	737	734	739	739	736	734	736	734	732	736	743	747	747	749	749	741	736	735	738	743	756	752	747	742	745	764	769	766	764	763	760	752	756	748	741	741	732	746	757	760	763	767	772	773	762	749	741	726	721	735	752	758	778	794	792	778	759	748	742	741	736	732	727	723	722	727	727	733	734	732	738	737	730	724	727	732	735	737	743	740	738	735	732	735	740	738	731	725	729	729	725	733	739	739	729	720	719	722	723	718	720	724	733	728	723	720	717	724	727	729	733	730	728	731	731	737	737	732	719	717	719	723	731	733	730	733	758	768	767	763	755	746	743	741	740	742	732	727	727	735	743	744	744	735	737	740	747	751	752	745	739	740	742	749	750	739	722	721	728	738	743	745	747	742	733	736	738	742	733	728	726	718	712	711	721	737	742	736	722	713	704	702	709	718	721	718	712	710	710	716	722	724	722	710	713	726	728	715	700	699	692	676	678	692	711	721	722	728	733	732	720	696	673	666	669	693	714	730	736	743	747	743	747	744	740	731	722	710	699	699	699	704	701	703	700	701	700	689	695	694	702	713	719	713	712	714	722	721	719	712	718	713	709	704	706	713	721	734	730	697	683	683	710	727	729	722	723	723	725	725	724	723	725	722	721	721	722	724	728	736	739	742	727	705	697	690	686	689	694	700	716	718	718	715	712	715	707	705	705	705	707	709	711	727	720	705	691	689	693	700	701	701	701	708	716	718	711	701	695	698	707	713	704	693	689	688	690	690	695	706	702	677	681	688	695	687	691	698	703	699	676	676	656	640	636	644	650	644	641	643	653	669	664	664	656	642	653	669	672	671	670	674	682	686	685	685	682	680	682	683	684	696	697	690	687	687	696	703	704	693	694	702	699	698	690	690	687	701	701	693	680	673	671	681	681	693	692	687	679	673	663	657	659	659	666	674	668	659	663	667	664	664	660	677	671	681	696	697	698	698	701	702	690	667	654	657	657	667	671	681	677	674	659	659	650	646	642	659	654	661	661	664	670	665	666	671	674	674	671	668	672	677	679	679	671	665	654	648	646	646	659	671	680	681	681	681	675	672	662	664	661	661	665	676	676	678
744	733	733	716	708	710	714	709	709	724	735	737	721	704	704	696	707	710	716	711	712	712	713	711	695	673	674	674	697	724	746	742	718	694	694	685	677	684	698	720	739	739	739	733	730	737	747	754	756	756	744	731	722	722	732	731	714	714	709	709	718	732	744	751	748	748	733	719	704	695	686	694	711	725	725	727	718	703	708	718	733	740	733	733	727	725	721	710	700	696	711	718	720	720	717	703	691	699	714	720	721	717	713	713	708	715	716	715	711	713	696	699	701	700	702	702	704	707	706	694	690	695	704	710	708	696	685	685	689	706	723	726	715	696	698	705	715	722	732	733	731	731	727	718	702	704	725	743	743	737	732	724	717	708	706	702	707	707	715	725	727	728	733	736	733	731	734	742	741	738	741	737	729	726	733	742	742	747	749	741	737	736	736	740	742	749	744	747	753	761	765	762	763	763	755	751	745	730	711	711	708	722	733	733	744	750	746	741	737	735	725	723	725	733	739	750	762	780	782	762	735	721	722	735	746	748	743	728	722	727	733	733	748	745	749	740	725	719	711	720	726	728	731	740	750	754	753	740	731	730	723	713	714	717	724	736	748	750	739	730	723	722	719	713	708	711	731	726	722	718	723	729	728	730	726	730	719	727	737	746	746	741	730	724	727	726	735	727	718	720	737	753	754	749	744	740	746	741	746	734	725	721	722	727	730	735	735	735	736	742	746	730	707	704	713	724	731	727	724	719	714	711	716	724	733	740	737	736	741	742	742	735	728	725	722	718	708	706	721	733	747	741	722	701	697	704	710	718	718	716	705	701	701	703	714	721	723	711	712	723	726	717	704	688	677	671	673	690	708	724	712	705	708	714	704	676	656	649	653	683	713	725	725	732	737	734	748	743	736	723	712	701	696	696	703	704	708	708	708	708	700	700	689	691	696	709	713	706	694	689	693	699	707	714	720	717	708	698	698	705	709	719	720	706	683	693	712	718	712	708	715	718	718	718	719	717	716	717	715	711	715	710	706	704	710	706	697	687	680	677	686	684	694	700	709	716	716	706	704	705	706	710	707	702	699	702	713	714	704	689	673	670	683	690	690	695	695	699	708	710	708	700	697	694	688	685	679	674	679	682	688	690	693	697	701	699	679	685	693	696	699	709	708	697	697	675	657	640	636	639	642	636	636	640	657	666	661	661	643	630	625	656	672	666	667	672	676	690	690	700	690	677	676	681	692	700	695	686	683	683	686	694	688	680	685	689	696	689	675	675	687	689	694	690	675	667	666	673	673	691	694	687	679	669	661	649	649	651	652	654	653	648	653	658	662	664	660	656	659	674	690	692	692	686	682	678	679	667	654	655	655	665	676	680	687	694	681	681	682	646	642	643	644	653	653	662	671	666	660	659	671	671	678	679	683	682	672	672	661	652	649	649	646	646	645	645	650	656	655	655	658	659	666	666	664	664	667	674	673	665
736	710	710	686	669	679	695	711	711	724	735	740	738	731	731	716	700	690	696	696	713	713	721	706	688	673	672	701	701	727	742	737	718	694	704	698	695	698	705	727	745	758	758	757	746	746	747	747	741	741	721	710	709	707	709	708	714	714	711	711	715	725	737	747	740	740	726	721	710	704	693	691	700	715	715	721	718	718	716	723	732	734	733	703	704	711	716	708	700	703	712	721	719	719	712	700	687	684	692	700	709	706	697	697	695	697	701	701	698	698	696	699	695	694	698	698	707	706	698	683	675	680	693	695	689	682	682	686	686	699	702	697	699	698	701	713	726	732	735	730	729	727	727	718	713	714	724	730	734	727	722	718	707	701	700	698	706	715	715	721	715	709	710	718	724	724	728	732	733	739	741	736	727	724	731	741	756	756	760	745	737	736	735	735	731	730	739	748	760	762	762	760	761	752	753	750	740	725	719	721	721	716	715	715	719	726	726	718	713	714	714	715	721	732	744	751	761	771	772	748	718	700	703	727	747	762	754	745	734	741	746	746	748	745	749	742	720	704	700	715	723	722	728	739	762	763	749	735	730	730	718	707	705	712	721	735	748	746	741	731	719	716	717	711	711	711	722	725	720	729	749	757	751	742	727	726	725	728	735	745	745	736	724	721	721	727	732	720	706	708	723	724	725	730	731	737	738	741	740	735	723	721	714	710	714	719	725	727	729	710	707	704	699	697	698	702	703	704	709	723	731	727	719	728	733	739	738	736	736	739	732	725	719	714	717	717	703	698	711	731	742	734	708	693	698	700	709	713	715	710	698	698	691	693	704	718	716	713	708	712	716	716	702	692	685	683	683	693	708	718	714	698	685	693	688	673	656	655	661	690	716	726	725	719	720	714	720	714	717	713	707	698	696	701	705	704	713	708	708	708	708	702	693	691	698	700	703	699	694	685	682	694	705	715	723	719	713	710	716	715	707	701	691	683	689	700	715	703	695	700	707	716	716	711	710	706	702	699	697	697	696	702	690	689	690	688	689	685	672	675	686	684	683	699	715	715	717	709	702	700	701	701	704	698	695	699	708	711	702	686	672	669	677	685	685	689	682	680	687	701	703	698	693	687	680	671	663	670	679	682	682	679	689	691	690	684	679	684	689	690	687	683	683	681	681	673	663	659	660	665	672	674	654	652	657	662	662	652	632	620	625	656	667	666	669	671	670	690	690	696	695	678	671	679	689	703	698	693	693	690	681	670	665	664	667	676	674	673	689	675	655	660	672	678	676	672	671	671	681	699	694	688	676	666	660	650	650	645	644	642	644	643	646	658	658	662	650	641	651	672	692	693	693	686	676	676	671	667	662	662	662	671	680	685	688	685	694	681	682	691	693	693	688	680	680	682	678	665	657	656	656	678	682	683	681	676	672	672	666	666	649	649	645	645	644	650	654	661	651	651	653	656	663	666	667	667	665	667	659	654
703	678	644	644	636	644	672	708	727	727	736	740	738	722	710	710	692	682	680	695	716	716	723	715	701	690	698	707	707	721	730	727	709	704	698	698	716	710	713	726	739	752	752	752	744	745	735	724	711	711	697	699	702	700	692	692	704	704	711	711	717	722	725	728	720	720	720	716	712	709	690	688	693	706	706	719	728	725	716	717	716	713	703	703	704	700	705	715	715	711	711	714	711	711	708	692	681	676	676	680	688	695	691	686	686	691	695	698	702	698	697	696	695	694	681	681	700	712	705	677	672	679	683	683	677	677	678	687	687	692	695	692	690	700	713	716	725	730	728	722	720	720	720	714	713	714	723	721	716	709	704	700	699	697	698	706	715	720	720	718	707	696	698	700	706	713	714	716	712	722	732	728	724	718	719	727	734	734	743	744	743	743	735	735	702	706	721	748	758	766	765	758	742	734	734	736	725	714	708	716	716	715	716	712	716	721	722	716	714	712	711	713	720	729	742	748	755	750	753	742	710	686	692	715	744	758	759	760	753	758	756	763	763	765	758	742	720	704	707	728	730	726	720	727	735	737	737	723	716	711	707	706	701	708	718	724	731	737	737	726	709	698	698	702	699	700	704	700	705	722	740	754	759	749	737	730	729	729	735	731	724	724	715	707	706	715	710	706	702	697	696	701	705	712	720	730	735	729	730	724	718	719	703	694	700	707	713	722	722	717	712	708	701	699	704	707	708	708	717	722	728	733	728	731	736	738	740	735	726	724	722	715	708	708	710	710	696	683	690	701	704	691	685	692	696	698	702	705	706	702	694	694	688	692	696	704	704	703	697	694	701	702	706	703	693	689	691	695	702	709	707	692	682	692	690	680	668	672	678	694	722	727	728	720	711	706	702	709	714	714	710	704	701	697	705	704	713	713	709	705	705	697	693	688	695	695	693	693	690	683	677	683	700	707	693	698	708	717	718	713	708	700	695	704	713	717	713	703	699	695	709	709	708	703	695	697	691	689	686	685	682	692	687	684	686	691	689	686	672	675	675	681	689	698	714	714	724	719	708	702	696	694	697	695	691	694	701	702	695	683	671	669	674	674	675	667	667	676	679	680	689	700	708	700	671	665	663	670	681	681	679	677	675	663	661	664	664	665	673	677	679	681	680	680	678	672	672	670	676	687	701	706	694	684	682	673	673	663	632	620	624	662	673	677	675	673	669	673	673	677	689	675	666	669	680	703	700	694	694	686	678	668	658	650	658	664	674	673	673	651	643	647	660	665	671	670	673	673	686	700	689	680	671	663	660	654	654	645	643	641	647	650	646	658	658	655	645	637	652	663	677	681	681	681	677	673	670	670	670	670	669	672	674	681	677	685	685	694	691	691	701	700	696	696	693	689	680	663	657	661	661	670	663	657	663	665	665	664	666	666	668	671	666	666	663	677	681	680	668	668	658	655	659	663	663	668	672	664	659	654
660	649	629	629	622	640	670	695	721	721	728	729	728	722	710	682	678	678	692	712	725	725	736	726	724	725	718	710	710	711	718	709	706	714	720	720	716	710	709	719	734	738	738	735	727	728	721	706	696	701	701	704	705	698	689	684	697	708	708	715	717	713	710	704	709	713	713	713	709	702	691	684	679	687	699	699	711	717	713	707	703	696	693	695	695	700	705	709	712	716	717	712	707	697	697	681	681	676	674	676	686	705	699	698	698	709	707	710	711	701	700	696	689	687	681	693	693	717	714	687	673	678	681	672	667	672	679	681	681	686	690	690	685	689	700	709	714	717	715	716	713	708	707	707	709	713	723	708	693	684	688	696	693	696	703	722	732	729	719	719	707	696	696	696	699	696	698	699	695	704	716	718	716	716	717	715	720	728	728	735	732	731	717	706	702	706	708	741	753	761	758	736	710	701	702	700	695	699	699	706	709	709	709	707	706	714	708	712	714	713	713	714	719	723	728	731	715	717	730	740	722	707	696	714	725	739	753	764	764	768	766	767	767	764	758	742	719	703	707	728	730	721	719	718	718	712	702	699	698	696	695	697	705	712	719	726	729	732	724	712	700	694	695	693	696	695	699	700	696	707	720	723	734	739	743	742	734	725	727	735	732	732	726	722	722	723	723	713	701	691	687	687	693	703	718	731	731	723	718	712	703	695	689	689	695	702	711	723	730	725	721	716	709	704	706	710	717	720	719	718	724	725	721	720	725	729	727	727	722	719	717	707	702	702	703	698	688	672	676	685	676	671	670	687	691	694	696	696	694	682	679	679	685	693	698	701	699	699	694	694	696	703	701	704	701	697	693	697	695	700	695	686	680	691	704	684	677	687	686	701	722	730	730	726	714	702	697	698	699	705	710	704	701	697	690	695	705	707	705	705	700	689	677	667	677	680	682	686	688	684	678	680	684	693	690	691	705	712	713	704	696	690	693	704	710	711	705	700	696	695	704	704	700	691	685	689	690	685	682	680	678	684	684	679	680	691	689	686	677	671	676	685	688	701	701	709	718	711	706	703	697	697	696	696	687	680	685	687	683	677	673	671	668	668	665	662	672	678	679	678	680	688	698	707	671	665	669	680	688	688	695	692	677	664	660	662	656	659	668	676	685	690	693	693	688	671	660	654	664	679	698	706	703	700	695	691	673	663	654	660	669	685	682	682	683	682	676	676	677	678	682	676	668	668	675	687	695	689	689	679	671	662	649	640	658	664	663	658	658	651	646	648	649	655	662	662	669	669	690	694	687	672	659	654	655	655	649	645	640	645	647	650	657	667	667	668	657	647	655	664	669	667	667	666	665	663	671	678	680	680	668	659	662	668	677	668	668	665	666	680	695	706	708	708	702	692	676	658	652	647	647	644	638	638	645	654	665	664	663	661	666	668	668	678	683	677	674	678	678	679	672	655	653	668	668	675	675	664	659	656
665	656	654	654	646	660	685	709	719	719	729	720	708	698	682	682	678	691	693	711	724	737	737	748	743	738	735	742	742	738	725	710	704	711	727	727	722	712	709	724	731	730	719	719	710	703	697	694	701	712	712	714	711	703	688	677	686	702	702	708	715	713	710	683	693	704	704	710	700	690	686	684	680	684	691	691	697	698	686	684	689	687	687	686	686	685	693	709	712	699	705	704	696	685	685	680	681	684	691	693	701	718	708	711	722	722	739	734	722	707	701	695	682	665	669	693	693	715	721	703	687	686	685	672	669	673	677	680	683	683	682	680	678	681	686	690	696	703	705	701	698	691	695	695	701	708	711	708	693	668	676	694	703	704	712	717	725	727	723	723	717	710	703	696	688	685	686	686	686	696	709	715	713	709	709	706	706	712	712	720	717	712	700	691	691	693	708	741	738	741	732	713	694	683	685	682	680	685	692	699	702	702	701	698	693	696	706	721	717	713	710	711	719	713	697	684	686	697	715	733	736	730	712	706	701	705	706	730	743	759	757	756	758	758	753	742	720	700	708	722	728	721	719	718	718	699	687	682	686	687	685	699	712	724	727	733	731	726	719	711	700	693	693	695	693	692	697	699	700	704	711	720	722	729	733	732	728	725	722	724	723	722	722	724	732	736	731	722	710	704	694	701	713	719	723	733	729	719	716	709	700	689	689	691	700	705	706	707	724	728	730	726	724	707	710	720	731	733	727	720	715	713	719	718	711	709	715	722	718	722	716	702	694	690	698	702	709	707	704	709	699	685	672	675	684	688	687	684	673	664	664	659	675	687	695	701	704	701	694	695	698	701	704	706	709	707	699	698	694	698	691	686	685	690	699	685	683	685	689	696	717	728	728	704	686	676	686	698	699	705	704	703	699	694	686	689	696	699	696	696	691	683	671	666	667	670	678	686	692	690	681	674	673	680	676	684	700	711	709	696	683	685	691	696	694	679	667	672	679	680	680	672	665	664	670	681	684	677	675	685	687	689	686	679	680	687	689	684	677	670	675	681	690	700	700	710	712	700	696	697	705	704	698	689	672	664	667	674	677	677	679	682	682	679	678	677	677	684	678	671	668	673	698	707	707	688	681	682	689	689	693	693	677	668	660	651	656	662	668	675	682	695	683	683	675	674	666	654	659	675	692	695	686	683	695	695	691	692	688	683	672	670	676	677	676	683	678	678	678	678	680	680	674	668	667	672	676	676	677	677	674	665	649	640	635	640	643	643	649	647	645	645	643	648	643	650	650	671	678	680	665	648	646	649	650	650	642	631	640	645	655	660	667	667	670	672	668	660	662	663	657	657	657	661	663	679	683	684	681	681	672	660	662	668	665	658	658	661	663	675	689	691	687	687	678	671	665	662	654	654	656	649	637	633	645	654	654	662	660	663	663	663	663	669	675	674	665	672	672	671	660	644	645	657	657	675	675	666	658	655
