0	0	0	0	0	0	0	0	0	0	0	0	0	0	0	0	0	0	0	0	0	0	0	0	0	0	0	0	0	0	0	0	0	0	0	0	0	0	0	0	0	0	0	0	0	0	0	0	0	0	0	0	0	0	0	0	0	0	0	0	0	0	0	0	0	0	0	0	0	0	0	0	0	0	0	0	0	0	0	0	0	0	0	0	0	0	0	0	0	0	0	0	0	0	0	0	0	0	0	0	0	0	0	0	0	0	0	0	0	0	0	0	0	0	0	0	0	0	0	0	0	0	0	0	0	0	0	0	0	0	0	0	0	0	0	0	0	0	0	0	0	0	0	0	0	0	0	0	0	0	0	0	0	0	0	0	0	0	0	0	0	0	0	0	0	0	0	0	0	0	0	0	0	0	0	0	0	0	0	0	0	0	0	0	0	0	0	0	0	0	0	0	1325	1313	0	0	0	0	1196	1229	1278	1278	1304	1291	0	0	0	0	0	0	0	0	0	0	0	0	0	0	0	0	0	0	0	0	0	0	0	0	0	0	0	0	0	0	0	0	0	0	0	0	0	0	0	0	0	0	0	0	0	0	0	0	0	0	0	0	0	0	0	0	0	0	0	0	0	0	0	0	0	0	0	0	0	0	1219	1211	1221	1204	1193	0	0	0	0	0	0	0	0	0	0	0	0	0	1321	1330	0	0	0	0	0	0	0	1316	1290	1303	1349	1385	1394	1358	0	0	0	0	0	0	0	1343	1367	1380	1364	0	0	0	0	0	0	0	1342	1319	1312	1311	1319	0	0	0	0	0	0	1340	1348	1354	1344	0	1294	1261	1232	1221	1217	1237	1246	1249	1264	0	0	0	0	0	0	0	0	0	0	0	0	0	0	0	0	0	0	0	0	0	0	0	0	1257	1266	1270	1272	1271	1248	1221	1221	1212	0	0	0	0	0	0	0	0	0	0	0	1224	1219	1229	1241	0	0	0	0	1258	1262	1257	1243	1225	1213	1200	1184	0	0	0	0	0	1167	1200	1225	1229	1209	1179	0	0	0	0	1208	1225	1248	0	0	0	0	0	0	1265	0	0	0	0	1207	1202	0	0	0	0	0	0	0	0	0	0	0	0	0	1263	1273	1272	1272	1290	1291	0	0	0	0	0	0	0	0	0	0	0	0	0	1177	1184	1190	1160	0	0	0	0	0	0	0	0	0	0	0	0	0	0	0	0	0	0	0	0	0	0	0	0	1079	1099	1098	1078	1040	0	0	0	0	0	0	0	1087	1105	1123	1108	1068	1035	1057	1083	1101	1089	1089	1071	1057	1066	1076	1075	1060	1032	1005	1021	1050	1050	1077	1069	1060	1050	1050	1048	1042	1020	991	989	989	990	1012	1027	1024	1042	1049	1061	1051	1039	1039	1022	1021	1028	1041	1045	1043	1030	1007	1007	1002	999	1000	1000	995	995	984	985	985	985	997	1008	1012	1014	1010	1025	1025	1046	1061	1079	1075	1069	1058	1043	1043	1040	1038	1045	1050	1045	1044	1044	1053	1026	994	1041	1019	1025	1025	1051	1066	1069	1051	1011	976	976	0	0	0	0	0	0	0	0	0	0	0	0	0	0	0	0	0	0	0	0	0	0	0	0	0	0	0	0
0	0	0	0	0	0	0	0	0	0	0	0	0	0	0	0	0	0	0	0	0	0	0	0	0	0	0	0	0	0	0	0	0	0	0	0	0	0	0	0	0	0	0	0	0	0	0	0	0	0	0	0	0	0	0	0	0	0	0	0	0	0	0	0	0	0	0	0	0	0	0	0	0	0	0	0	0	0	0	0	0	0	0	0	0	0	0	0	0	0	0	0	0	0	0	0	0	0	0	0	0	0	0	0	0	0	0	0	0	0	0	0	0	0	0	0	0	0	0	0	0	0	0	0	0	0	0	0	0	0	0	0	0	0	0	0	0	0	0	0	0	0	0	0	0	0	0	0	0	0	0	0	0	0	0	0	0	0	0	0	0	0	0	0	0	0	0	0	0	0	0	0	0	0	1281	1253	1225	1224	1235	1244	1224	1212	0	0	0	0	0	0	0	0	0	0	0	1319	1297	0	0	0	1185	1224	1265	1265	1289	1289	1262	1234	1199	1197	0	0	0	0	0	0	0	0	0	0	0	0	0	0	0	0	0	0	0	0	0	0	0	0	0	0	0	0	0	0	0	0	0	0	0	0	0	0	0	0	0	0	0	0	0	0	0	0	0	0	0	0	0	0	0	0	0	1224	1250	1263	0	0	0	0	0	0	1219	1211	1221	1181	1180	1195	0	0	0	0	0	0	0	0	0	0	0	1294	1292	1317	0	0	0	0	0	0	0	1311	1288	1297	1304	1334	1346	1343	0	0	0	0	0	0	0	1332	1339	1331	1334	1338	0	0	0	0	0	1314	1302	1307	1302	1303	1299	0	0	0	0	0	0	0	0	0	0	0	0	1233	1209	1210	1212	1204	1198	1216	1238	0	0	0	0	0	0	0	0	0	0	0	0	0	0	0	0	0	0	0	0	0	0	1271	1247	1227	1220	1230	1231	1226	1215	1214	1214	1227	1232	0	0	0	0	0	0	0	0	0	1224	1197	1193	1203	1233	1239	1231	0	1231	1252	1261	1257	1244	1220	1199	1192	1206	1211	0	0	0	1125	1134	1165	1213	1225	1212	1172	0	0	0	1181	1193	1207	0	0	0	0	0	0	0	0	0	0	0	0	0	0	0	0	0	0	0	0	0	0	0	0	0	0	0	0	1262	1272	1272	1272	0	0	0	0	0	0	0	0	0	0	0	0	0	0	0	1161	1164	0	0	0	0	0	0	0	0	0	0	0	0	0	0	0	0	0	0	0	0	0	0	0	0	0	0	0	0	0	0	0	0	0	0	0	0	0	1087	1105	1116	1092	1044	1011	1015	1024	1021	1010	1010	1006	1017	1044	1050	1042	1034	1016	1002	1011	1055	1055	1067	1047	1030	1020	1028	1037	1044	1038	1017	996	996	989	988	992	996	1014	1017	1021	1022	1022	1022	1022	1020	1028	1041	1039	1024	1016	1005	1005	999	997	992	1002	1002	1000	983	970	970	974	992	1008	1023	1025	1025	1033	1033	1045	1059	1061	1056	1051	1042	1027	1027	1011	1011	1022	1030	1032	1021	1021	1017	1026	994	966	971	984	984	982	0	0	0	0	0	0	0	0	0	0	0	0	0	0	0	0	0	0	0	0	0	0	0	0	0	0	0	0	0	0	0	0	0	0
0	0	0	0	0	0	0	0	0	0	0	0	0	0	0	0	0	0	0	0	0	0	0	0	0	0	0	0	0	0	0	0	0	0	0	0	0	0	0	0	0	0	0	0	0	0	0	0	0	0	0	0	0	0	0	0	0	0	0	0	0	0	0	0	0	0	0	0	0	0	0	0	0	0	0	0	0	0	0	0	0	0	0	0	0	0	0	0	0	0	0	0	0	0	0	0	0	0	0	0	0	0	0	0	0	0	0	0	0	0	0	0	0	0	0	0	0	0	0	0	0	0	0	0	0	0	0	0	0	0	0	0	0	0	0	0	0	0	0	0	0	0	0	0	0	0	0	0	0	0	0	0	0	0	0	0	0	0	0	0	0	0	0	0	0	0	0	0	0	0	0	0	1283	1281	1281	1253	1213	1208	1204	1209	1193	1167	0	0	0	0	0	0	0	0	0	0	0	0	0	0	0	0	0	1220	1256	1285	1285	1290	1267	1235	1204	1191	1229	0	0	0	0	0	0	0	0	0	0	0	0	0	0	0	0	0	0	0	0	0	0	0	0	0	0	0	0	0	0	0	0	0	0	0	0	0	0	0	0	0	0	0	0	0	0	0	0	0	0	0	0	0	0	0	1183	1204	1233	1244	1231	1216	1221	1237	0	1218	1207	1203	1197	1181	1180	1195	1269	0	1336	1335	1313	1298	1276	1269	1262	1276	1287	1303	1298	1296	0	0	0	0	0	0	1337	1316	1300	1294	1297	1300	0	0	0	0	0	0	0	0	1340	1331	1315	1308	1297	1307	1312	1312	1314	1295	1276	1288	1294	1304	1310	1311	1311	0	0	0	0	0	0	0	0	0	0	0	0	0	1203	1203	1194	1191	1181	1199	1238	0	0	0	0	0	0	0	0	0	0	0	0	0	0	0	0	0	0	0	1220	1193	1210	1215	1210	1204	1193	1188	1188	1185	1185	1185	1198	1224	1247	1258	1258	1265	0	0	0	0	0	1250	1211	1201	1182	1191	1198	1224	1226	1226	1236	1246	1248	1250	1227	1201	1182	1179	1198	1213	1225	0	0	1138	1132	1145	1187	1214	1206	0	0	0	0	1175	1191	0	0	0	0	0	0	0	0	0	0	0	0	0	0	0	0	0	0	0	0	0	0	0	0	0	0	0	0	0	1262	1258	1258	0	0	0	0	0	0	0	0	0	0	0	0	0	0	0	0	0	0	0	0	0	0	0	0	0	0	0	0	0	0	0	0	0	0	0	0	0	0	0	0	0	0	0	0	0	0	0	0	0	0	0	0	0	0	0	1075	1084	1056	1005	991	994	1009	1032	1030	1030	1018	1008	1016	1042	1069	1080	1064	1043	1031	1041	1058	1058	1068	1057	1028	1014	1015	1032	1046	1044	1037	1017	1017	987	962	959	972	988	999	1002	1004	1004	1015	1022	1020	1034	1040	1049	1038	1015	1001	1001	995	995	994	994	998	1007	991	991	969	964	980	997	1010	1021	1022	1030	1030	1038	1046	1046	1043	1043	1032	1032	1011	994	983	993	1016	1027	1022	1021	1017	984	960	0	0	0	0	0	0	0	0	0	0	0	0	0	0	0	0	0	0	0	0	0	0	0	0	0	0	0	0	0	0	0	0	0	0	0	0	0	0	0
0	0	0	0	0	0	0	0	0	0	0	0	0	0	0	0	0	0	0	0	0	0	0	0	0	0	0	0	0	0	0	0	0	0	0	0	0	0	0	0	0	0	0	0	0	0	0	0	0	0	0	0	0	0	0	0	0	0	0	0	0	0	0	0	0	0	0	0	0	0	0	0	0	0	0	0	0	0	0	0	0	0	0	0	0	0	0	0	0	0	0	0	0	0	0	0	0	0	0	0	0	0	0	0	0	0	0	0	0	0	0	0	0	0	0	0	0	0	0	0	0	0	0	0	0	0	0	0	0	0	0	0	0	0	0	0	0	0	0	0	0	0	0	0	0	0	0	0	0	0	0	0	0	0	0	0	0	0	0	0	0	0	0	0	0	0	0	0	0	0	0	1225	1233	1229	1229	1223	1213	1208	1172	1167	1167	1142	1134	1156	0	0	0	0	0	0	0	0	0	0	0	0	0	0	0	0	0	1266	1266	1270	1263	1238	1212	1211	1237	1264	0	0	0	0	0	0	0	0	0	0	0	0	0	0	0	0	0	0	0	0	0	0	0	0	0	0	0	0	0	0	0	0	0	0	0	0	0	0	0	0	0	0	0	0	0	0	0	0	1263	1264	1262	1243	1214	0	1173	1193	1216	1239	1224	1216	1217	1235	1223	1212	1198	1202	1197	1188	1190	1231	1269	0	1336	1335	1295	1276	1265	1248	1248	1265	1286	1311	1296	1283	1297	1307	1305	1298	1330	1335	1338	1324	1304	1296	1287	0	0	0	1303	1311	1295	1276	1282	1314	1330	1324	1300	1267	1262	1263	1266	1255	1252	1247	1242	1261	1298	1308	1321	1332	1332	1319	1305	1310	1298	0	0	0	0	1311	1300	0	0	1198	1187	1197	1210	1191	1181	1199	1238	0	0	0	0	0	0	0	0	0	0	0	1267	1265	1275	1294	1290	1271	1233	1198	1160	1135	1149	1178	1183	1186	1181	1169	1177	1179	1177	1177	1182	1196	1226	1248	1244	1247	1247	1244	1248	1253	1254	1238	1208	1193	1166	1159	1171	1191	1195	1213	1228	1239	1239	1214	1184	1168	1160	1162	1179	1206	1236	1261	1253	1212	1162	1160	1177	0	0	0	0	0	0	0	0	0	0	0	0	0	0	0	0	0	0	0	0	0	0	0	0	0	0	0	0	0	0	0	0	0	0	0	0	0	0	0	0	0	0	0	0	0	0	0	0	0	0	0	0	0	0	0	0	0	0	0	0	0	0	0	0	0	0	0	0	0	0	0	0	0	0	0	0	0	0	0	0	0	0	0	0	0	0	1011	976	945	946	965	0	0	0	1061	1083	1041	1007	983	987	992	1007	1029	1031	1031	1011	1000	1002	1033	1064	1078	1064	1038	1030	1034	1045	1045	1051	1046	1037	1023	1015	1017	1033	1051	1052	1052	1042	1008	960	940	957	971	989	1002	1001	1004	1015	1026	1031	1033	1039	1049	1045	1019	1019	1002	998	988	986	983	998	1019	1014	1014	980	968	967	979	986	998	996	996	1000	1012	1028	1031	1036	1032	1025	1025	1006	974	952	964	1016	1027	1022	1022	0	0	0	0	0	0	0	0	0	0	0	0	0	0	0	0	0	0	0	0	0	0	0	0	0	0	0	0	0	0	0	0	0	0	0	0	0	0	0	0	0	0
0	0	0	0	0	0	0	0	0	0	0	0	0	0	0	0	0	0	0	0	0	0	0	0	0	0	0	0	0	0	0	0	0	0	0	0	0	0	0	0	0	0	0	0	0	0	0	0	0	0	0	0	0	0	0	0	0	0	0	0	0	0	0	0	0	0	0	0	0	0	0	0	0	0	0	0	0	0	0	0	0	0	0	0	0	0	0	0	0	0	0	0	0	0	0	0	0	0	0	0	0	0	0	0	0	0	0	0	0	0	1138	0	0	0	0	0	0	0	0	0	0	0	0	0	0	0	0	0	0	0	0	0	0	0	0	0	0	0	0	0	0	0	0	0	0	0	0	0	0	0	0	0	0	0	0	0	0	0	0	0	0	0	0	0	0	0	0	0	0	0	1184	1187	1184	1168	1168	1171	1170	1169	1172	1167	1152	1134	1126	1147	1182	1211	1242	1250	1239	1218	1208	1203	0	0	0	1207	1246	0	0	0	0	1247	1245	1245	1239	1228	1217	1216	1224	1256	0	0	0	0	0	0	0	0	0	0	0	0	0	0	0	0	0	0	0	0	0	0	0	0	0	0	0	0	0	0	0	0	0	0	0	0	0	0	0	0	0	0	0	0	0	0	1255	1222	1236	1248	1263	1267	1231	1186	1177	1199	1223	1224	1212	1203	1204	1227	1223	1205	1203	1204	1198	1204	1226	1250	1289	1308	1325	1316	1295	1276	1265	1248	1248	1239	1272	1295	1289	1259	1255	1266	1269	1280	1287	1296	1313	1314	1314	1297	0	0	0	1297	1295	1286	1260	1233	1245	1278	1303	1298	1261	1238	1218	1213	1201	1196	1199	1207	1223	1241	1286	1316	1324	1330	1327	1320	1308	1301	1299	1266	1259	1246	1258	1273	1280	1258	1218	1198	1187	1197	1210	1214	1195	1210	1251	0	0	0	0	0	0	0	0	0	0	1220	1203	1201	1207	1207	1196	1201	1178	1159	1126	1118	1136	1151	1171	1179	1176	1188	1187	1202	1202	1191	1183	1185	1190	1211	1207	1160	1138	1139	1170	1193	1181	1166	1148	1145	1151	1150	1167	1168	1175	1191	1205	1198	1177	1150	1129	1136	1143	1155	1179	1205	1246	1280	1278	1261	1213	0	0	0	0	0	0	0	0	0	0	0	0	0	0	0	0	0	0	0	0	0	0	0	0	0	0	0	0	0	0	0	0	0	0	0	0	0	0	0	0	0	0	0	0	0	0	0	0	0	0	0	0	0	0	0	0	0	0	0	0	0	0	0	0	0	0	0	0	0	0	0	0	0	0	0	0	0	0	0	0	0	0	0	0	1012	1008	994	980	977	981	980	946	965	965	986	1020	1058	1056	1035	1014	998	987	988	997	1004	1022	1022	1006	998	995	1021	1048	1062	1046	1025	1016	1015	1015	1023	1026	1029	1030	1027	1025	1012	1025	1045	1054	1054	1048	1031	993	946	947	978	998	1002	1001	1001	1017	1032	1034	1036	1030	1038	1031	1024	1024	1013	993	971	965	969	994	1021	1033	1033	1019	988	986	985	976	977	979	979	982	991	1006	1014	1026	1034	1026	1026	999	0	952	964	0	0	0	0	0	0	0	0	0	0	0	0	0	0	0	0	0	0	0	0	0	0	0	0	0	0	0	0	0	0	0	0	0	0	0	0	0	0	0	0	0	0	0	0	0	0
0	0	0	0	0	0	0	0	0	0	0	0	0	0	0	0	0	0	0	0	0	0	0	0	0	0	0	0	0	0	0	0	0	0	0	0	0	0	0	0	0	0	0	0	0	0	0	0	0	0	0	0	0	0	0	0	0	0	0	0	0	0	0	0	0	0	0	0	0	0	0	0	0	0	0	0	0	0	0	0	0	0	0	0	0	0	0	0	0	0	0	0	0	0	0	0	1084	1084	1084	1085	0	0	0	0	0	0	0	1110	1103	1103	1087	1082	0	0	0	0	1122	1139	0	0	0	0	0	0	0	0	0	0	0	0	0	0	0	0	0	0	0	0	0	0	0	0	0	0	0	0	0	1080	1065	0	0	0	0	0	0	0	0	0	0	0	0	0	0	0	0	0	0	0	0	1163	1164	1158	1154	1148	1144	1144	1152	1157	1163	1163	1152	1133	1125	1142	1182	1215	1243	1256	1232	1183	1158	1148	1134	1118	1114	1144	1179	1234	1261	1240	1230	1217	1217	1217	1218	1210	1210	1200	1205	1230	1256	1272	1269	1236	1216	0	0	0	0	0	0	0	0	0	0	0	1161	1172	1201	0	0	0	1257	1252	0	0	0	0	0	0	0	0	0	0	0	1281	1311	1313	1289	1257	1236	1228	1228	1230	1240	1235	1212	1191	1199	1220	1247	1243	1212	0	1171	1189	1217	1204	1189	1191	1204	1221	1220	1198	1175	1184	1192	1216	1236	1255	1281	1303	1319	1311	1296	1281	1251	1234	1230	1239	1272	1295	1289	1259	1255	1249	1264	1263	1264	1264	1281	1276	0	0	0	0	0	0	1289	1278	1254	1229	1235	1260	1270	1262	1227	1191	1159	1150	1136	1137	1154	1178	1202	1244	1258	1274	1288	1277	1253	1212	1230	1251	1230	1202	1189	1246	1258	1273	1280	1258	1218	1193	1183	1190	1204	1212	1212	1215	1248	0	0	1207	1160	1157	1169	1204	1243	1228	1213	1190	1177	1150	1131	1131	1146	1138	1125	1108	1100	1109	1128	1138	1149	1157	1168	1177	1194	1194	1207	1202	1182	1165	1150	1127	1108	1078	1080	1103	1123	1154	1160	1149	1117	1114	1145	1168	1178	1188	1191	1195	1208	1192	1171	1122	1108	1126	1143	1174	1240	0	0	0	0	0	0	0	0	0	0	0	0	0	0	0	0	0	0	0	0	0	0	0	0	0	0	0	0	0	0	0	0	0	0	0	0	0	0	0	0	0	0	0	0	0	0	0	0	0	0	0	0	0	0	0	0	0	0	0	0	0	0	0	0	0	0	0	0	0	0	0	0	0	0	0	0	0	0	0	0	0	0	0	1048	1048	1059	1060	1032	1013	997	989	977	966	970	983	981	980	985	994	994	1012	1024	1033	1039	1031	1015	1005	998	1002	991	1004	1004	1010	1008	1001	1000	1022	1042	1049	1030	1008	997	998	998	1003	1002	1005	1015	1029	1020	1012	1022	1034	1041	1041	1041	1018	983	952	947	978	998	1008	998	998	1000	1012	1023	1021	1012	1016	1015	1016	1016	1006	991	960	947	953	974	995	1007	1007	1020	1010	1008	1001	980	967	975	975	984	989	976	965	0	0	0	0	999	0	0	0	0	0	0	0	0	0	0	0	0	0	0	0	0	0	0	0	0	0	0	0	0	0	0	0	0	0	0	0	0	0	0	0	0	0	0	0	0	0	0	0	0	0	0	0	0	0
0	0	0	0	0	0	0	0	0	0	0	0	0	0	0	0	0	0	0	0	0	0	0	0	0	0	0	0	0	0	0	0	0	0	0	0	0	0	0	0	0	0	0	0	0	0	0	0	0	0	0	0	0	0	0	0	0	0	0	0	0	0	0	0	0	0	0	0	0	0	0	0	0	0	0	0	0	0	0	0	0	0	0	0	0	0	0	0	0	0	0	0	0	0	0	0	1085	1067	1067	1052	0	0	0	0	0	0	0	1098	1082	1082	1052	1034	0	0	0	0	1112	1126	0	0	0	0	0	0	0	0	0	0	0	0	0	0	0	0	0	0	0	0	0	0	0	0	0	0	0	0	0	1080	1078	1092	0	0	0	0	0	0	0	0	0	0	0	0	0	0	0	0	0	0	0	1172	1156	1157	1168	1161	1158	1158	1157	1158	1179	1165	1144	1133	1125	1144	1164	1215	1239	1234	1214	1172	1144	1131	1134	1116	1111	1119	1151	1193	1213	1200	1181	1182	1195	1200	1200	1194	1185	1166	1164	1186	1217	1239	1228	1208	1198	1177	1170	1180	1186	1196	1180	1155	1126	1109	1118	1132	1154	1182	1191	1183	1178	1187	1201	1230	1239	1253	0	0	1210	1196	1190	0	0	0	1211	1274	1300	1294	1250	1221	1202	1203	1204	1204	1212	1218	1195	1177	1169	1183	0	0	0	0	0	0	1178	1182	1173	1170	1195	1219	1225	1197	1161	1161	1179	1209	1235	1264	1278	1293	1306	1315	1306	1284	1255	1227	1207	1202	1220	1261	1272	1245	1235	1249	1264	1263	1264	1264	1281	1276	0	0	0	0	0	0	0	1283	1265	1245	1237	1244	1239	1211	1171	1150	1148	1144	1138	1134	1146	1177	1198	1220	1229	1245	1251	1277	1253	1212	1230	1251	1230	1202	1189	1196	1210	1247	1245	1217	1180	1144	1159	1169	1177	1182	1182	1185	1188	1203	1196	1184	1159	1146	1135	1130	1142	1182	1179	1187	1166	1139	1125	1140	1153	1144	1123	1099	1088	1102	1120	1129	1125	1124	1117	1132	1153	1153	1166	1167	1168	1162	1147	1132	1098	1077	1081	1102	1123	1144	1157	1149	1129	1123	1152	1184	1205	1201	1212	1217	1241	0	0	0	0	0	0	0	0	0	0	0	0	0	0	0	0	0	0	0	0	0	0	0	0	0	0	0	0	0	0	0	0	0	0	0	0	0	0	0	0	0	0	0	0	0	0	0	0	0	0	0	0	0	0	0	0	0	0	0	0	0	0	0	0	0	0	0	0	0	0	0	0	0	0	0	0	0	0	0	0	0	0	0	0	0	0	0	0	1025	977	972	1006	1006	1022	1033	1034	1028	1004	982	970	971	974	983	983	973	973	973	984	997	999	1010	1007	1012	1013	1009	1013	1009	997	995	995	999	1001	1010	1013	1027	1030	1021	1005	988	983	979	979	987	985	981	993	999	1003	1005	1014	1022	1028	1028	1025	1001	968	952	947	979	1003	1007	1000	1000	976	971	982	991	1006	1012	1018	1010	1010	1000	989	961	944	935	931	948	980	980	997	1001	1005	996	971	957	956	956	971	0	0	0	0	0	0	0	0	0	0	0	0	0	0	0	0	0	0	0	0	0	0	0	0	0	0	0	0	0	0	0	0	0	0	0	0	0	0	0	0	0	0	0	0	0	0	0	0	0	0	0	0	0	0	0	0	0
0	0	0	0	0	0	0	0	0	0	0	0	0	0	0	0	0	0	0	0	0	0	0	0	0	0	0	0	0	0	0	0	0	0	0	0	0	0	0	0	0	0	0	0	0	0	0	0	0	0	0	0	0	0	0	0	0	0	0	0	0	0	0	0	0	0	0	0	0	0	0	0	0	0	0	0	0	0	0	0	0	0	0	0	0	0	0	0	0	0	0	0	0	0	0	0	0	0	0	0	0	0	0	0	0	0	0	0	1063	1031	1031	1022	0	0	0	0	1095	0	0	0	0	0	0	0	0	0	0	0	0	0	0	0	0	0	0	0	0	0	0	0	0	0	0	0	0	0	1098	1097	1104	1114	1134	1124	1090	0	0	0	0	0	0	0	0	0	1205	1192	1178	1173	1187	1197	1193	1178	1152	1137	1163	1177	1172	1172	1172	1172	1181	1164	1135	1113	1125	1144	1164	1184	1189	1203	1175	1154	1142	1156	1158	1151	1128	1123	1151	1169	1178	1161	1145	1157	1171	1189	1189	1180	1157	1122	1109	1128	1158	1187	1182	1180	1187	1177	1172	1170	1163	1163	1161	1141	1113	1092	1086	1118	1157	1192	1195	1180	0	0	0	0	0	0	1238	1228	1216	1211	0	0	0	1173	1206	1258	1282	1266	1221	1189	1178	1180	1185	1185	1195	1202	0	0	0	0	0	0	0	0	0	0	0	0	0	0	0	0	0	0	1163	1158	1177	0	0	1275	1287	0	0	0	0	0	0	0	1185	1173	0	0	0	0	0	1271	1270	1255	1243	0	0	0	0	0	0	0	0	0	0	1283	1265	1245	1237	1244	1239	1211	1171	1150	1148	1144	1138	1134	1146	1177	1198	1220	1229	1245	1251	1238	1202	1177	1168	1177	1158	1155	1146	1149	1157	1156	1163	1152	1134	1128	1144	1158	1168	1169	1168	1172	1185	1206	1203	1195	1179	1165	1138	1109	1098	1109	1146	1203	1186	1160	1134	1147	1159	1152	1127	1088	1080	1104	1115	1117	1110	1100	1107	1122	1122	1141	1148	1156	1160	1162	1155	1142	1116	1095	1089	1099	1120	1141	1154	1170	1168	1183	1231	1248	1272	0	0	0	0	0	0	0	0	0	0	0	0	0	0	0	0	0	0	0	0	0	0	0	0	0	0	0	0	0	0	0	0	0	0	0	0	0	0	0	0	0	0	0	0	0	0	0	0	0	0	0	0	0	0	0	0	0	0	0	0	0	0	0	0	0	0	0	0	0	0	0	0	0	0	0	0	0	0	0	0	0	0	0	0	0	0	1011	1007	1009	1022	1016	1017	1008	1013	1014	1014	1016	1019	1026	1024	1008	997	974	963	971	974	983	980	975	968	968	972	974	968	973	981	986	1000	1013	1019	1013	1002	999	999	1004	1004	1008	1010	1016	1011	996	979	972	967	968	968	963	963	960	969	979	987	996	1004	1006	1006	1018	1013	1001	968	953	954	978	999	1011	1011	993	970	956	963	981	1000	1015	1007	987	987	978	983	989	976	939	916	917	917	946	970	987	979	924	900	917	925	925	940	0	0	0	0	0	0	0	0	0	0	0	0	0	0	0	0	0	0	0	0	0	0	0	0	0	0	0	0	0	0	0	0	0	0	968	971	979	984	0	0	0	0	0	0	0	0	0	0	0	0	0	0	0	893	881	890	926
0	0	0	0	0	0	0	0	0	0	0	0	0	0	0	0	0	0	0	0	0	0	0	0	0	0	0	0	0	0	0	0	0	0	0	0	0	0	0	0	0	0	0	0	0	0	0	0	0	0	0	0	0	0	0	0	0	0	0	0	0	0	0	0	0	0	0	0	0	0	0	0	0	0	0	0	0	0	0	0	0	0	0	0	0	0	0	0	0	0	0	0	0	0	0	0	0	0	0	0	0	0	0	0	0	0	0	0	0	1032	1032	1019	1009	0	1017	1045	1083	0	0	0	0	0	0	0	1117	0	0	0	0	0	0	0	0	1118	1112	1101	1100	1109	1109	1104	0	0	0	0	0	1067	1100	1113	1106	1111	1125	1123	1104	1080	1063	1063	0	0	1124	1137	1142	1143	1150	1153	1150	1146	1153	1170	1178	1158	1127	1113	1127	1149	1176	1179	1179	1184	1181	1150	1119	1094	1099	1125	1147	1184	1189	1140	1147	1143	1147	1171	1182	1167	1137	1139	1161	1175	1167	1143	1135	1144	1160	1164	1164	1157	1126	1091	1068	1074	1106	1138	1148	1165	1181	1186	1170	1155	1142	1142	1139	1132	1109	1086	1080	1123	1189	0	0	0	0	0	0	0	0	0	0	1222	1218	1231	0	0	0	0	1199	1251	0	0	0	1173	1169	1180	1183	0	0	0	0	0	0	0	0	0	0	0	0	0	0	0	0	0	0	0	0	0	0	0	0	0	0	0	0	0	0	0	0	0	0	0	0	0	0	0	0	0	0	0	0	0	0	0	0	0	0	0	0	0	0	0	1319	1294	1275	1265	1240	1217	1197	1182	1155	1148	1150	1149	1139	1132	1138	1154	1172	1187	1202	1220	1227	1208	1178	1156	1149	1148	1128	1109	1095	1122	1119	1135	1139	1133	1124	1111	1126	1146	1156	1156	1151	1159	1169	1181	1195	1199	1187	1171	1130	1078	1043	1054	1123	1209	1235	1204	1154	1146	1151	1149	1122	1095	1081	1099	1109	1109	1101	1091	1102	1117	1117	1130	1136	1143	1152	1163	1163	1153	1140	1134	1129	1142	1196	1213	0	0	0	0	0	0	0	0	0	0	0	0	0	0	0	0	0	0	0	0	0	0	0	0	0	0	0	0	0	0	0	0	0	0	0	0	0	0	0	0	0	0	0	0	0	0	0	0	0	0	0	0	0	0	0	0	0	0	0	0	0	0	0	0	0	0	0	0	0	0	0	0	0	0	0	0	0	0	0	0	0	0	0	0	0	0	0	1079	1087	1071	1032	997	973	957	953	961	975	1005	1022	1029	1027	1022	1022	1018	1016	1021	1026	1007	983	974	963	966	982	994	995	987	969	969	956	958	954	947	952	967	984	1006	1018	1025	1025	1020	1020	1011	1007	999	1001	1003	988	973	965	961	960	960	958	951	944	943	955	976	983	985	984	996	996	1018	1013	992	971	956	962	980	1008	1009	1009	996	970	948	954	967	994	1006	993	993	971	960	965	981	984	965	923	901	901	916	949	974	965	914	896	896	896	909	913	924	0	0	0	0	0	0	0	0	0	0	0	0	0	0	0	0	927	957	978	978	976	964	954	951	937	931	931	928	931	938	955	987	987	1013	971	979	984	984	996	996	1002	1018	1014	996	966	966	950	935	931	941	937	937	910	894	897	900
0	0	0	0	0	0	0	0	0	0	0	0	0	0	0	0	0	0	0	0	0	0	0	0	0	0	0	0	0	0	0	0	0	0	0	0	0	0	0	0	0	0	0	0	0	0	0	0	0	0	0	0	0	0	0	0	0	0	0	0	0	0	0	0	0	0	0	0	0	0	0	0	0	0	0	0	0	0	0	0	1025	1034	1032	1013	986	984	0	0	0	0	0	0	0	0	0	0	0	0	0	0	0	0	0	0	0	0	0	0	0	1036	1036	1016	1003	993	1006	1030	1071	1103	0	0	0	1112	1103	1103	1098	1121	1142	1133	0	0	0	0	1086	1080	1061	1046	1056	1085	1085	1103	1091	1056	0	993	1000	1037	1078	1081	1086	1080	1101	1116	1112	1096	1064	1064	1057	1073	1082	1093	1101	1111	1117	1124	1116	1109	1118	1128	1137	1126	1110	1100	1105	1116	1118	1130	1130	1143	1143	1133	1123	1128	1129	1108	1081	1085	1099	1140	1147	1124	1118	1117	1104	1124	1132	1144	1131	1107	1098	1110	1118	1125	1142	1143	1145	1145	1110	1069	1053	1047	1069	1105	1131	1171	1217	0	0	0	0	0	0	0	0	0	0	0	0	0	0	0	0	0	0	0	0	0	0	0	0	0	0	0	0	0	0	0	0	0	0	0	0	0	0	0	0	0	0	0	0	0	0	0	0	0	0	0	0	0	0	0	0	0	0	0	0	0	0	0	0	0	0	0	0	0	0	0	0	0	0	0	0	0	0	0	0	0	0	0	0	0	0	0	0	1200	1158	1129	1145	1163	1171	1189	1219	1229	1207	1188	1170	1167	1154	1156	1169	1168	1153	1135	1135	1139	1146	1156	1176	1189	1199	1181	1170	1153	1158	1151	1126	1090	1074	1087	1109	1114	1119	1122	1113	1110	1110	1127	1139	1139	1131	1126	1134	1146	1156	1166	1165	1140	1109	1049	1018	1032	1099	0	0	1224	1164	1143	1136	1133	1114	1092	1094	1105	1115	1121	1113	1107	1103	1103	1110	1117	1117	1127	1151	1160	1172	1194	0	0	0	0	0	0	0	0	0	0	0	0	0	0	0	0	0	0	0	0	0	0	0	0	0	0	0	0	0	0	0	0	0	0	0	0	0	0	0	0	0	0	0	0	0	0	0	0	0	0	0	0	0	0	0	0	0	0	0	0	0	0	0	0	0	0	0	0	0	0	0	0	0	0	0	0	0	0	0	0	0	0	0	0	0	1080	1040	1006	974	1016	1016	1002	997	1013	1028	1021	998	960	928	913	914	922	944	965	991	1012	1014	1008	1008	996	987	997	1011	1007	983	955	950	958	972	987	992	989	989	985	969	959	948	940	945	956	985	1002	1008	999	1011	1011	1017	1015	1008	1000	993	989	975	967	973	978	972	972	949	945	934	948	967	975	973	970	972	996	996	1014	1006	987	965	966	971	982	999	1002	1002	993	964	942	939	941	945	944	934	934	933	925	928	933	937	933	934	912	912	913	929	940	952	971	979	972	972	945	913	924	944	960	969	966	966	958	952	970	968	958	940	940	940	945	968	985	981	983	978	978	966	956	955	954	934	934	920	917	926	936	952	985	987	1013	1020	985	966	947	947	947	955	982	989	977	957	957	940	923	926	937	946	946	935	912	896	902
0	0	0	0	0	0	0	0	0	0	0	0	0	0	0	0	0	0	0	0	0	0	0	0	0	0	0	0	0	0	0	0	0	0	0	0	0	0	0	0	0	0	0	0	0	0	0	0	0	0	0	0	0	0	0	0	0	0	0	0	0	0	0	0	0	0	0	0	0	0	0	0	0	0	0	0	0	0	0	0	1040	1033	1026	1003	989	999	1018	0	0	0	0	0	0	0	0	0	0	0	0	0	0	0	0	0	0	0	0	0	0	1041	1041	1023	1001	983	987	1015	1055	1085	1118	1135	1133	1109	1088	1088	1087	1097	1103	1097	1072	1050	1053	1077	1086	1080	1015	1019	1028	1054	1054	1064	1067	1053	1031	1024	1028	1042	1040	1033	1031	1049	1076	1098	1109	1101	1062	1017	1017	1003	1007	1029	1043	1059	1069	1069	1055	1059	1038	1028	1061	1098	1130	1121	1087	1047	1083	1114	1144	1144	1153	1139	1112	1106	1093	1073	1050	1067	1086	1109	1120	1124	1109	1100	1089	1102	1120	1137	1129	1110	1106	1113	1123	1130	1125	1122	1120	1120	1095	1074	1064	0	0	0	0	0	0	0	0	0	0	0	0	0	0	0	0	0	0	0	0	0	0	0	0	0	0	0	0	0	0	0	0	0	0	0	0	0	0	0	0	0	0	0	0	0	0	0	0	0	0	0	0	0	0	0	0	0	0	0	0	0	0	0	0	0	0	0	0	0	0	0	0	0	0	0	0	0	0	0	0	0	0	0	0	0	1251	1192	1176	1164	1135	1146	1158	1141	1112	1078	1073	1086	1123	1135	1131	1144	1166	1176	1163	1155	1161	1163	1154	1164	1184	1185	1171	1155	1141	1140	1141	1142	1144	1157	1165	1151	1151	1155	1151	1152	1133	1098	1084	1093	1103	1110	1114	1121	1112	1113	1117	1120	1122	1120	1111	1110	1106	1115	1114	1122	1118	1103	1082	1052	1017	1025	1057	1161	0	0	1150	1136	1127	1110	1096	1093	1099	1114	1146	1149	1164	1146	1154	1154	1137	1129	0	0	0	0	0	0	0	0	0	0	0	0	0	0	0	0	0	0	0	0	0	0	0	0	0	0	0	0	0	0	0	0	0	0	0	0	0	0	0	0	0	0	0	0	0	0	0	0	0	0	0	0	0	0	0	0	0	0	0	0	0	0	0	0	0	0	0	0	0	0	0	0	0	0	0	0	0	0	0	0	0	0	0	0	1106	1062	1014	1000	1026	1044	1061	1071	1048	1012	984	980	980	980	992	1001	1024	1026	1007	965	931	919	914	923	938	950	970	996	1002	1002	991	963	950	997	1011	998	969	952	946	948	954	973	982	987	987	982	970	960	956	954	948	956	957	954	952	958	939	939	930	931	939	960	981	992	989	981	975	958	948	948	967	962	948	937	948	958	955	970	972	959	959	950	946	937	931	934	940	942	964	972	972	964	956	968	969	948	945	942	933	933	934	928	918	920	920	920	930	922	922	924	934	944	959	976	981	972	972	945	931	939	943	952	951	947	947	942	947	958	966	958	950	950	949	954	972	983	989	991	991	979	965	950	951	949	938	938	917	886	867	901	952	985	985	1012	1013	981	937	913	913	911	919	933	944	935	935	922	921	913	927	943	943	950	940	928	918	907
0	0	0	0	0	0	0	0	0	0	0	0	0	0	0	0	0	0	0	0	0	0	0	0	0	0	0	0	0	0	0	0	0	0	0	0	0	0	0	0	0	0	0	0	0	0	0	0	0	0	0	0	0	0	0	0	0	0	0	0	0	0	0	0	0	0	0	0	0	0	0	0	0	0	0	0	0	0	0	0	0	1036	1021	1008	1006	1013	0	0	0	0	0	0	0	0	0	0	0	0	0	0	0	0	0	0	0	0	0	0	1027	1030	1019	1019	1020	1008	997	993	1003	1055	1082	1111	1104	1084	1062	1056	1056	1045	1050	1044	1023	1007	1029	1053	1044	1025	1015	1019	1042	1039	1048	1048	1066	1076	1079	1061	1056	1054	1034	1034	1020	1032	1034	1044	1048	1037	1029	1023	1023	1005	995	998	1008	1004	1002	999	1004	1017	1020	1035	1073	1096	1096	1081	1042	1047	1093	1076	1055	1055	1054	1047	1043	1057	1087	1069	1043	1055	1082	1110	1116	1113	1109	1100	1085	1092	1111	1130	1140	1144	1140	1145	1161	1145	1130	0	0	0	0	0	0	0	0	0	0	0	0	0	0	0	0	0	0	0	0	0	0	0	0	0	0	0	0	0	0	0	0	0	0	0	0	0	0	0	0	0	0	0	0	0	0	0	0	0	0	0	0	0	0	0	0	0	0	0	0	0	0	0	0	0	0	0	0	0	0	0	0	0	0	0	0	0	0	0	0	0	0	0	1195	1147	1118	1098	1099	1113	1118	1125	1104	1070	1076	1098	1105	1104	1113	1119	1101	1088	1086	1102	1119	1125	1119	1134	1155	1155	1152	1142	1141	1150	1150	1162	1174	1184	1181	1167	1159	1151	1150	1126	1108	1102	1103	1116	1129	1135	1139	1138	1124	1105	1095	1093	1108	1117	1121	1125	1130	1131	1118	1115	1105	1107	1101	1102	1100	1086	1076	1068	1069	1072	1060	1049	1034	1035	1068	1161	0	0	1185	1145	1121	1099	1087	1077	1097	1130	1222	0	0	0	0	0	0	0	0	0	0	0	0	0	0	0	0	0	0	0	0	0	0	0	0	0	0	0	0	0	0	0	0	0	0	0	0	0	0	0	0	0	0	0	0	0	0	0	0	0	0	0	0	0	0	0	0	0	0	0	0	0	0	0	0	0	0	0	0	0	0	0	0	0	0	0	0	0	0	0	0	0	0	0	0	0	0	0	1096	1066	1073	1089	1088	1043	986	978	980	995	1006	1009	996	981	972	983	983	996	1008	1013	1026	1028	1015	980	965	954	951	942	949	951	950	942	941	941	946	947	950	968	973	967	963	954	953	949	940	936	943	950	950	964	970	981	983	987	984	985	980	994	991	972	950	950	938	932	931	947	968	982	982	977	968	952	950	950	968	958	947	927	931	941	955	954	963	963	950	947	944	936	927	934	937	942	962	962	964	960	966	970	979	960	946	945	943	943	946	948	942	923	913	911	927	927	929	939	955	970	982	976	981	972	972	952	934	944	941	943	938	938	923	917	923	932	936	951	965	965	969	965	949	952	974	981	981	962	941	915	924	936	928	928	895	855	867	901	941	967	967	985	979	958	935	921	921	918	932	933	919	913	913	918	915	916	929	939	939	936	926	924	0	0
0	0	0	0	0	0	0	0	0	0	0	0	0	0	0	0	0	0	0	0	0	0	0	0	0	0	0	0	0	0	0	0	0	0	0	0	0	0	0	0	0	0	0	0	0	0	0	0	0	0	0	0	0	0	0	0	0	0	0	0	0	0	0	0	0	0	0	0	0	0	0	0	0	0	0	0	0	0	0	0	0	0	0	0	0	0	0	0	0	0	0	0	0	0	0	0	0	0	1043	1043	0	0	0	0	0	0	0	1003	1020	1025	1046	1046	1054	1038	1013	998	1000	1019	1024	1025	1033	1049	1066	1070	1070	1065	1045	1013	1009	1024	1036	1023	1000	994	1001	1033	1042	1039	1033	1033	1049	1067	1074	1065	1069	1060	1043	1034	1027	1025	1015	1012	1016	1018	1025	1022	1022	1013	1002	995	996	986	976	983	997	1003	1004	1031	1066	1088	1083	1054	1019	989	1021	1017	993	1040	1040	1028	1032	1046	1083	1073	1051	1069	1093	1112	1114	1111	1099	1086	1085	1092	0	0	0	0	0	0	0	0	0	0	0	0	0	0	0	0	0	0	0	0	0	0	0	0	0	0	0	0	0	0	0	0	0	0	0	0	0	0	0	0	0	0	0	0	0	0	0	0	0	0	0	0	0	0	0	0	0	0	0	0	0	0	0	0	0	0	0	0	0	0	0	0	0	0	0	0	0	0	0	0	0	0	0	0	0	0	0	1156	1102	1066	1038	1048	1071	1093	1095	1089	1081	1086	1088	1093	1085	1082	1077	1086	1100	1103	1106	1109	1101	1095	1094	1103	1109	1110	1117	1135	1147	1148	1144	1138	1137	1126	1123	1129	1145	1169	1173	1174	1161	1153	1138	1109	1080	1063	1068	1088	1106	1111	1108	1103	1108	1109	1107	1105	1106	1113	1120	1133	1135	1126	1104	1090	1084	1093	1098	1103	1090	1067	1060	1046	1052	1055	1047	1046	1044	1037	1095	0	0	0	0	1196	1195	1188	0	0	0	0	0	0	0	0	0	0	0	0	0	0	0	0	0	0	0	0	0	0	0	0	0	0	0	0	0	0	0	0	0	0	0	0	0	0	0	0	0	0	0	0	0	0	0	0	0	0	0	0	0	0	0	0	0	0	0	0	0	0	0	0	0	1114	1051	1003	1004	0	0	0	0	0	0	0	0	0	0	0	0	0	0	0	0	1094	1094	1040	1057	1068	1042	994	961	971	982	986	989	994	989	986	984	977	969	956	942	939	951	951	986	1012	1029	1011	973	948	949	960	953	956	955	954	953	955	943	943	937	937	946	947	948	948	949	951	957	956	957	952	944	941	947	947	950	958	969	982	988	990	988	991	995	1001	996	977	955	955	939	936	932	936	958	977	984	944	904	882	882	879	886	897	915	929	931	941	946	934	914	914	914	951	972	985	980	968	945	936	956	956	942	929	937	963	976	966	944	924	924	926	938	941	939	917	903	906	916	916	919	929	940	970	982	980	975	975	957	947	939	932	933	933	925	925	919	914	923	920	920	929	948	948	960	956	937	927	944	941	941	938	914	900	896	898	898	928	895	855	855	888	934	934	961	979	981	969	961	954	954	949	953	933	921	918	918	918	915	921	917	916	916	914	918	918	0	0
0	0	0	0	0	0	0	0	0	0	0	0	0	0	0	0	0	0	0	0	0	0	0	0	0	0	0	0	0	0	0	0	0	0	0	0	0	0	0	0	0	0	0	0	0	0	0	0	0	0	0	0	0	0	0	0	0	0	0	0	0	0	0	0	0	0	0	0	0	0	0	0	0	0	0	0	0	0	0	0	0	0	0	0	0	0	0	0	0	0	0	0	0	0	0	0	0	1014	1015	1015	1008	1012	1022	1026	1030	1021	1003	1011	1005	1022	1045	1045	1047	1037	1010	1004	1015	1023	1017	1010	1019	1033	1053	1064	1064	1058	1044	1012	1020	1027	1028	1019	989	990	1005	1036	1061	1041	1033	1009	1015	1035	1045	1046	1049	1037	1034	1029	1030	1023	1008	1003	998	1009	1020	1016	1014	1014	1008	1009	1003	986	976	980	988	997	1000	1005	1058	1054	1044	1033	1017	995	1019	1016	975	975	975	950	1019	1102	1141	1141	1143	1142	1133	1108	1105	1117	0	0	0	0	0	0	0	0	0	0	0	0	0	0	0	0	0	0	0	0	0	0	0	0	0	0	0	0	0	0	0	0	0	0	0	0	0	0	0	0	0	0	0	0	0	0	0	0	0	0	0	0	0	0	0	0	0	0	0	0	0	0	0	0	0	0	0	0	0	0	0	0	0	0	0	0	0	0	0	0	0	0	0	0	1119	1122	1138	1146	1121	1079	1045	1054	1090	1088	1073	1067	1082	1093	1090	1069	1066	1069	1084	1101	1104	1089	1078	1078	1088	1097	1100	1098	1093	1084	1096	1108	1112	1106	1118	1133	1134	1135	1138	1136	1125	1099	1080	1091	1111	1140	1149	1150	1140	1132	1126	1109	1082	1066	1072	1085	1095	1088	1076	1075	1091	1115	1111	1109	1103	1109	1115	1125	1094	1075	1058	1053	1055	1060	1073	1079	1068	1059	1046	1040	1045	1046	1043	1042	1045	0	0	0	0	0	0	0	0	0	0	0	0	0	0	0	0	0	0	0	0	0	0	0	0	0	0	0	0	0	0	0	0	0	0	0	0	0	0	0	0	0	0	0	0	0	1186	1160	1126	1086	1057	1052	1053	1043	1031	1043	1090	1073	1051	1032	1038	1055	1064	1055	1021	976	928	928	894	908	967	1000	1024	1024	1008	975	962	956	1004	1057	1070	1039	993	954	927	933	941	947	936	942	1015	1043	1050	1046	1048	1052	1052	1023	1002	990	973	971	976	979	984	993	992	995	999	994	983	975	962	951	939	938	951	951	989	1021	1036	1006	964	937	928	937	934	951	973	985	980	965	954	947	943	937	944	949	947	945	951	952	956	958	970	988	1003	999	1002	1002	991	1005	1008	1002	966	964	959	968	971	968	943	938	938	935	927	927	932	937	944	958	958	944	908	894	894	887	890	891	915	929	934	938	945	949	942	942	944	947	958	976	993	997	976	960	955	955	939	929	927	949	961	955	937	923	923	929	931	943	940	923	902	902	907	907	912	929	940	957	970	970	962	962	962	952	939	929	921	930	933	933	933	934	929	915	910	915	928	928	943	933	922	915	912	908	908	905	897	881	874	898	898	898	880	851	858	883	913	913	943	965	977	982	982	970	970	951	919	898	888	904	904	918	927	923	918	903	903	900	903	906	910	0
0	0	0	0	0	0	0	0	0	0	0	0	0	0	0	0	0	0	0	0	0	0	0	0	0	0	0	0	0	0	0	0	0	0	0	0	0	0	0	0	0	0	0	0	0	0	0	0	0	0	0	0	0	0	0	0	0	0	0	0	0	0	0	0	0	0	0	0	0	0	0	0	0	0	0	0	0	0	0	0	0	0	0	0	0	0	0	0	0	0	0	0	0	0	0	0	0	1014	955	968	968	988	1022	1046	1054	1051	1023	994	988	1010	1033	1038	1038	1025	1006	1000	1015	1024	1017	1003	1003	1020	1036	1037	1037	1037	1021	999	1000	1017	1019	1009	990	984	998	1023	1031	1019	1009	1015	1015	985	1007	1012	1010	1008	1013	1033	1036	1017	1000	987	991	1001	1005	1006	997	997	1004	1009	1005	994	965	974	976	974	959	963	1044	1054	1044	1037	1054	1060	1059	1016	962	957	957	984	1090	1133	0	0	0	0	0	0	0	0	0	0	0	0	0	0	0	0	0	0	0	0	0	0	0	0	0	0	0	0	0	0	0	0	0	0	0	0	0	0	0	0	0	0	0	0	0	0	0	0	0	0	0	0	0	0	0	0	0	0	0	0	0	0	0	0	0	0	0	0	0	0	0	0	0	0	0	0	0	0	0	0	0	0	1181	1159	1147	1144	1100	1099	1099	1092	1091	1074	1053	1042	1037	1063	1077	1072	1043	1049	1068	1067	1066	1060	1070	1079	1074	1058	1056	1060	1080	1100	1107	1086	1076	1071	1082	1089	1087	1080	1071	1079	1089	1104	1110	1106	1109	1109	1112	1124	1121	1122	1110	1092	1073	1077	1093	1113	1125	1129	1107	1103	1112	1110	1096	1083	1078	1087	1083	1069	1053	1052	1068	1087	1100	1101	1096	1102	1106	1097	1085	1057	1035	1016	1016	1028	1039	1047	1040	1041	1031	1024	1018	997	983	1001	1044	0	0	0	0	0	0	0	0	0	0	0	0	0	0	0	0	0	0	0	0	0	0	0	0	0	1103	1078	1044	1004	995	1010	1033	1057	1060	1039	1023	1022	1037	1032	1016	1017	1027	1031	1006	978	960	963	975	995	1012	1017	1009	982	961	952	955	978	985	994	1009	1006	1000	982	959	938	938	925	912	909	921	934	941	940	934	943	962	956	960	954	947	952	961	951	931	930	917	918	925	946	983	1006	1011	1014	1014	1014	1033	1021	997	984	972	971	977	984	994	993	986	1009	1065	1069	1058	1041	993	986	982	978	985	985	1007	1050	1045	1028	1000	975	945	925	919	932	957	993	986	968	954	947	947	939	933	934	934	945	955	958	957	946	945	941	946	953	967	967	977	992	988	955	925	919	926	931	926	913	917	920	920	930	937	939	939	948	952	956	952	931	910	900	900	895	890	891	895	918	936	951	951	956	944	944	939	934	947	965	977	970	951	941	927	927	929	924	925	933	931	924	927	921	921	924	929	947	942	925	910	912	910	907	912	910	911	928	929	934	944	944	953	963	956	926	920	924	937	937	948	953	938	918	908	909	909	914	922	920	906	893	885	885	887	884	870	881	874	875	875	872	870	861	863	874	897	897	924	937	955	956	956	956	947	914	881	851	851	884	884	903	914	920	923	925	925	924	903	906	910	910
0	0	0	0	0	0	0	0	0	0	0	0	0	0	0	0	0	0	0	0	0	0	0	0	0	0	0	0	0	0	0	0	0	0	0	0	0	0	0	0	0	0	0	0	0	0	0	0	0	0	0	0	0	0	0	0	0	0	0	0	0	0	0	0	0	0	0	0	0	0	0	0	0	0	0	0	0	0	0	0	0	0	0	0	0	0	0	1018	1008	1008	1009	1011	1005	989	988	986	962	952	955	981	981	996	1013	1034	1057	1059	1037	1006	998	1003	1016	1022	1022	1012	997	991	1002	1012	1006	998	986	997	1007	1009	1008	1008	990	979	983	991	1000	989	983	979	980	999	1008	990	970	970	970	985	1007	988	987	993	1017	1045	1042	1027	1009	992	986	994	1008	998	994	994	996	1008	1009	993	963	974	972	971	950	951	984	989	982	985	1043	1082	1094	0	0	0	0	0	0	0	0	0	0	0	0	0	0	0	0	0	0	0	0	0	0	0	0	0	0	0	0	0	0	0	0	0	0	0	0	0	0	0	0	0	0	0	0	0	0	0	0	0	0	0	0	0	0	0	0	0	0	0	0	0	0	0	0	0	0	0	0	0	0	0	0	0	0	0	0	0	0	0	0	0	1062	1070	1070	1085	1091	1090	1098	1087	1073	1044	1033	1036	1041	1039	1058	1067	1059	1033	1005	991	1010	1029	1038	1041	1032	1029	1041	1033	1028	1037	1053	1069	1067	1062	1054	1061	1079	1089	1093	1079	1062	1065	1073	1066	1073	1063	1062	1073	1091	1102	1104	1091	1081	1082	1089	1104	1098	1103	1102	1098	1089	1081	1080	1069	1065	1056	1057	1076	1100	1115	1117	1102	1105	1102	1089	1069	1049	1041	1055	1066	1076	1081	1081	1079	1083	1084	1074	1049	1016	990	991	1002	1017	1027	1034	1035	1025	1024	1015	987	973	993	1038	1041	1026	1017	1016	1020	1052	1049	1036	1008	979	974	994	1023	1039	1034	1034	1012	1006	999	999	992	975	965	965	973	980	979	989	997	1018	1030	1033	1028	1007	954	947	944	955	946	937	945	953	955	939	939	944	949	963	971	988	997	993	972	953	946	951	969	979	990	1011	1011	994	984	965	948	948	934	928	919	921	935	945	941	934	943	947	941	940	945	944	954	967	958	945	937	930	924	933	955	988	1003	1004	997	980	980	956	938	935	966	997	1024	1037	1036	1024	1004	967	941	929	930	927	940	951	952	954	952	952	952	959	957	959	949	935	925	912	911	903	918	945	968	986	968	952	933	933	924	916	917	925	931	942	948	947	943	931	926	929	928	938	938	941	944	940	923	904	903	902	911	902	885	892	909	909	922	929	945	950	949	941	938	930	920	908	908	900	895	899	897	900	919	950	971	968	956	956	947	929	921	918	932	949	936	910	899	899	906	912	917	919	912	903	898	897	907	907	915	922	937	943	934	917	912	912	910	908	895	899	894	876	894	910	910	932	949	954	937	922	928	946	946	957	952	933	916	902	910	910	921	916	909	901	884	884	884	894	884	870	869	863	866	866	865	876	874	872	875	893	893	907	920	927	924	919	919	909	881	846	820	828	828	853	861	878	899	918	918	925	924	921	916	914	914
0	0	0	0	0	0	0	0	0	0	0	0	0	0	0	0	0	0	0	0	0	0	0	0	0	0	0	0	0	0	0	0	0	0	0	0	0	0	0	0	0	0	0	0	0	0	0	0	0	0	0	0	0	0	0	0	0	0	0	0	0	0	0	0	0	0	0	0	0	0	0	953	959	978	991	1000	1005	1010	987	987	955	909	917	950	990	1013	1012	1000	1005	1005	1005	1008	1005	1004	1002	983	962	956	969	981	981	1007	1006	1020	1044	1054	1046	1025	1000	987	994	1000	1000	990	985	975	994	1008	1006	993	981	988	990	989	976	976	963	959	961	966	979	977	969	961	971	981	982	962	939	931	931	952	980	988	987	996	1014	1051	1055	1034	1007	990	988	996	995	983	981	992	992	1012	1028	1005	971	973	982	975	943	950	1021	1057	1101	0	0	0	0	0	0	0	0	0	0	0	0	0	0	0	0	0	0	0	0	0	0	0	0	0	0	0	0	0	0	0	0	0	0	0	0	0	0	0	0	0	0	0	0	0	0	0	0	0	0	0	0	0	0	0	0	0	0	0	0	0	0	0	0	0	0	0	0	0	0	0	0	0	0	0	0	0	1124	1145	1159	1151	1123	1054	1023	1007	1029	1053	1053	1062	1060	1072	1064	1058	1036	1024	1020	1027	1031	1033	1037	1031	994	942	956	984	1014	1028	1038	1039	1029	1020	1025	1021	1014	1005	1035	1054	1061	1070	1059	1062	1064	1065	1068	1064	1046	1037	1026	1018	1011	1025	1026	1032	1037	1047	1056	1060	1056	1070	1068	1062	1050	1036	1027	1022	1024	1030	1024	1022	994	976	981	1002	1025	1037	1044	1037	1041	1026	1014	1001	1000	1003	1012	1020	1022	1024	1003	984	997	1052	1053	1030	998	978	983	1000	1015	1034	1033	1025	1007	982	964	970	988	1019	1047	1051	1029	1017	1017	1034	1039	1030	1016	1008	1011	1012	1012	1010	1012	1012	1011	1005	998	995	989	985	978	980	987	994	992	988	995	1003	1016	1029	1035	1039	1021	966	950	951	950	944	940	940	948	945	933	930	935	942	936	936	954	965	966	960	948	942	950	950	965	982	998	1002	988	975	974	974	966	959	946	940	947	956	945	941	940	944	948	927	923	926	969	999	1007	999	968	953	939	937	955	965	988	1004	997	993	993	972	943	927	927	950	982	1006	1019	1025	1014	991	952	915	893	899	902	918	942	947	947	947	947	952	950	954	946	935	926	918	908	911	912	930	944	968	977	968	951	951	937	922	908	903	899	915	917	927	926	929	921	916	906	911	911	926	939	935	932	918	897	891	892	897	883	875	880	880	890	902	911	934	933	925	925	916	907	897	908	908	899	897	909	922	929	936	947	969	973	953	953	930	909	895	895	908	909	891	879	879	879	893	907	912	912	903	889	878	881	881	888	903	918	932	929	934	917	913	913	919	912	902	893	873	867	867	867	876	895	917	934	926	915	925	925	933	938	927	914	905	899	912	912	925	931	918	905	897	907	884	894	886	875	868	871	879	879	873	876	872	875	880	896	896	908	910	900	885	874	874	863	851	825	817	828	828	838	840	843	858	918	918	933	934	919	902	895	895
0	0	0	0	0	0	0	0	0	0	0	0	0	0	0	0	0	0	0	0	0	0	0	0	0	0	0	0	0	0	0	0	0	0	0	0	0	0	0	0	0	0	0	0	0	0	0	0	0	0	0	0	0	0	0	0	0	0	0	0	0	0	0	0	0	0	966	973	993	1012	1012	1016	1007	1003	1001	1002	1005	988	968	949	949	941	947	962	989	987	971	972	992	994	994	1003	995	997	997	989	975	971	984	994	1007	1007	1006	985	1015	1045	1049	1024	998	980	972	978	978	967	953	953	977	1002	1011	1002	993	987	982	978	970	960	960	952	956	955	964	974	964	963	960	962	947	929	922	931	951	951	982	993	984	996	1014	998	1016	1022	1013	996	958	0	0	0	0	0	0	0	0	0	0	0	0	0	0	0	0	0	0	0	0	0	0	0	0	0	0	0	0	0	0	0	0	0	0	0	0	0	0	0	0	0	0	0	0	0	0	0	0	0	0	0	0	0	0	0	0	0	0	0	0	0	0	0	0	0	0	0	0	0	0	0	0	0	0	0	0	0	0	0	0	0	0	0	0	0	0	1132	1132	1109	1095	1089	1082	1060	1055	1044	1053	1051	1042	1033	1025	1030	1037	1042	1038	1056	1060	1060	1054	1045	1039	1020	1010	999	1012	1015	1007	990	979	978	985	989	984	990	1012	1028	1040	1043	1036	1038	1049	1054	1035	1027	1025	1032	1028	1016	1008	1002	1015	1021	1020	1002	982	969	965	971	994	1000	994	986	981	975	976	998	1025	1033	1035	1015	994	979	987	1002	1006	1012	1025	1024	998	981	980	995	1011	1030	1037	1041	1037	1019	1005	992	983	995	1002	1011	1015	1015	990	980	984	1031	1023	1012	1002	1002	1002	1019	1027	1035	1031	1015	996	979	958	962	983	1018	1040	1042	1019	1004	1026	1042	1051	1046	1029	1008	1020	1022	1016	1025	1029	1029	1030	1021	1013	998	983	985	985	992	1006	1012	1006	1004	1009	1009	1009	1014	1038	1055	1051	1029	996	968	962	968	974	984	977	965	952	955	963	960	959	959	976	981	979	967	953	952	957	945	949	968	956	954	965	965	974	974	974	965	958	959	947	956	966	970	976	974	969	958	957	961	976	988	994	988	966	947	934	939	953	962	973	987	996	992	992	970	945	931	930	942	961	962	977	966	958	957	945	889	859	864	881	909	926	938	941	941	934	920	917	916	921	932	935	938	929	923	924	930	944	964	974	963	947	947	935	931	921	909	895	898	899	893	882	871	894	902	900	906	906	918	936	933	929	908	898	895	891	886	875	881	886	886	893	887	888	911	903	907	900	898	907	897	894	894	891	896	907	918	928	918	930	933	936	929	929	907	884	856	865	879	885	876	869	876	876	892	895	897	902	895	876	872	869	869	878	892	907	932	929	921	908	909	909	919	913	907	891	881	870	874	874	875	873	882	894	898	900	902	902	905	903	903	899	899	906	917	917	928	933	918	903	897	907	907	906	892	882	882	893	900	900	892	868	863	866	878	878	895	904	891	872	858	838	838	834	822	813	826	839	839	853	840	843	858	894	894	903	893	893	882	871	871
0	0	0	0	0	0	0	0	0	0	0	0	0	0	0	0	0	0	0	0	0	0	0	0	0	0	0	0	0	0	0	0	0	0	0	0	0	0	0	0	0	0	0	0	0	0	0	0	0	0	0	0	0	0	0	0	0	0	0	0	0	0	0	0	977	967	966	973	974	988	988	989	986	979	990	998	999	986	972	952	952	942	943	963	983	981	969	970	982	985	985	988	983	990	992	990	975	981	989	1005	982	982	968	985	1015	1026	1028	1012	997	974	965	970	962	962	942	946	964	993	1002	1010	997	989	983	977	968	965	965	974	989	988	981	974	963	960	958	950	927	913	918	938	967	967	992	1004	1003	1005	997	998	0	0	0	0	0	0	0	0	0	0	0	0	0	0	0	0	0	0	0	0	0	0	0	0	0	0	0	0	0	0	0	0	0	0	0	0	0	0	0	0	0	0	0	0	0	0	0	0	0	0	0	0	0	0	0	0	0	0	1030	1076	1117	1117	1131	0	0	0	0	0	0	0	0	0	0	0	0	0	0	0	0	0	1072	1040	1023	1013	1028	1027	1021	1004	994	972	985	998	991	993	987	985	987	993	986	971	961	953	946	941	939	948	956	956	948	974	999	1017	1017	1019	1013	1010	1005	1002	993	995	988	979	984	992	1001	996	995	995	1010	1029	1038	1034	1027	1029	1039	1047	1046	1034	1031	1017	1006	999	992	991	1006	1019	1021	1003	980	958	954	961	991	1000	999	992	987	980	971	985	1006	1014	1017	1005	991	976	980	980	990	1006	1030	1033	1013	992	978	973	995	1025	1040	1044	1044	1044	1053	1050	1032	1009	976	960	983	1024	1051	1051	1031	1010	1001	1011	1023	1038	1039	1044	1045	1035	1029	1012	989	964	955	969	980	991	985	984	991	992	1011	1039	1051	1051	1040	1029	1021	1016	1019	1034	1034	1044	1045	1032	1021	1003	989	981	981	998	1011	1005	997	993	994	1000	999	1015	1036	1044	1036	1019	993	979	980	983	988	996	995	972	950	955	969	975	981	991	1002	1005	996	975	954	945	959	960	947	951	947	940	929	946	969	969	974	966	958	959	970	969	961	958	945	932	945	961	969	968	973	980	991	991	970	949	948	960	960	955	959	973	980	979	979	962	949	941	942	946	945	935	925	927	939	953	957	945	873	864	877	899	920	927	930	930	920	900	892	902	911	934	939	938	929	923	924	940	945	957	960	960	942	942	932	922	923	922	907	903	907	892	872	862	896	907	904	911	911	913	927	932	926	908	898	893	890	886	881	898	910	910	895	884	871	881	884	882	882	898	899	891	887	887	890	897	898	902	908	897	875	886	903	903	900	881	853	834	837	862	865	857	858	866	866	881	884	874	876	890	872	861	855	855	860	872	907	918	918	898	886	889	889	902	907	898	893	880	878	882	882	895	897	886	870	859	866	868	868	880	883	881	885	896	912	912	922	927	919	918	903	891	894	894	900	889	887	894	899	901	901	884	845	839	837	859	859	883	894	883	853	823	805	805	810	805	808	835	862	839	853	835	832	834	859	859	863	870	858	855	857	857
0	0	0	0	0	0	0	0	0	0	0	0	0	0	0	0	0	0	0	0	0	0	0	0	0	0	0	0	0	0	0	0	0	0	0	0	0	0	0	0	0	0	0	0	0	0	0	0	0	0	0	0	0	0	0	0	0	1066	1058	1051	1018	998	998	965	960	964	970	975	974	988	953	953	956	962	966	973	978	970	968	956	956	941	942	951	962	971	965	964	971	967	967	964	967	980	987	985	975	979	973	954	946	946	954	982	1019	1026	1028	1004	999	981	969	970	952	952	932	940	962	986	1002	995	995	981	971	968	973	975	975	979	996	991	984	976	960	954	952	935	921	917	950	966	991	991	1012	1002	1002	0	0	0	0	0	0	0	0	0	0	0	0	0	0	0	0	0	0	0	0	0	0	0	0	0	0	0	0	0	0	0	0	0	0	0	0	0	0	0	0	0	0	0	0	0	0	0	0	0	0	0	0	0	0	0	0	0	1095	1056	1021	1017	1030	1076	984	1020	1020	1048	1012	992	992	1007	1010	1009	988	953	944	982	1022	1059	1070	1071	1062	1037	1015	993	979	968	958	965	981	997	1009	1006	996	980	978	988	988	981	986	983	981	967	954	954	946	936	935	939	948	943	940	963	989	999	999	1001	1003	1007	1009	1005	998	992	988	983	992	1004	1016	1013	1008	1002	1013	1029	1035	1029	1012	997	1011	1027	1023	1011	1014	1006	999	980	951	981	1004	1027	1033	1022	1005	983	943	951	974	1020	1058	1066	1076	1083	1059	1007	982	996	1025	1034	1030	1024	1030	1039	1028	1018	1002	994	997	997	994	1015	1051	1083	1099	1099	1069	1054	1050	1051	1066	1058	1045	1013	1009	1035	1052	1050	1036	1006	999	1011	1038	1049	1058	1057	1047	1033	1024	1019	995	973	960	971	993	1007	989	978	993	995	1004	1021	1027	1029	1031	1037	1025	1018	1015	1024	1024	1039	1043	1033	1031	1007	992	992	994	1004	1000	994	978	975	980	989	999	1015	1022	1024	1017	1010	1004	1000	1004	1007	1014	998	977	955	935	938	957	973	991	1011	1022	1021	1000	979	960	957	957	964	966	961	931	927	930	945	945	967	974	966	961	960	964	966	961	963	953	943	946	963	972	982	980	987	1000	998	989	969	961	949	943	940	945	957	967	967	964	955	944	934	936	938	929	918	916	921	939	946	944	937	924	914	900	903	912	911	915	915	906	895	889	891	911	936	937	938	929	928	932	953	953	947	941	928	928	922	913	913	915	912	912	911	910	904	890	888	905	922	924	924	914	914	916	926	920	915	906	908	913	909	907	911	911	917	900	878	860	857	867	882	882	889	896	896	896	892	897	905	897	902	909	893	875	864	878	878	874	861	846	823	837	859	853	835	833	833	844	853	870	863	872	872	864	852	843	843	860	872	884	893	891	885	866	866	867	874	884	888	893	888	891	906	906	914	913	881	854	837	837	846	846	865	868	861	868	885	907	907	917	927	919	909	893	875	875	875	876	878	882	885	889	889	883	861	838	820	829	860	860	885	894	889	858	826	826	803	797	804	807	835	862	862	869	852	826	813	822	822	832	842	852	846	846	850
0	0	0	0	0	0	0	0	0	0	0	0	0	0	0	0	0	0	0	0	0	0	0	0	0	0	0	0	0	0	0	0	0	0	0	0	0	0	0	949	963	0	937	932	925	917	917	886	866	869	895	931	929	921	921	911	916	915	893	903	924	937	937	937	948	961	967	960	956	953	953	953	930	938	940	946	955	953	965	976	976	962	932	930	940	948	952	953	956	960	960	954	951	969	987	991	977	961	952	944	945	945	952	981	1012	1025	1019	1004	999	999	989	963	926	926	901	923	955	983	997	991	982	964	952	962	962	963	968	968	967	970	966	965	963	927	876	860	878	912	938	949	976	982	982	980	983	0	0	0	0	0	0	0	1002	993	985	979	977	958	932	932	925	917	928	948	984	1016	1049	1034	1013	992	992	1021	1075	1128	1159	1147	1077	1018	1000	999	998	998	989	972	963	943	942	963	992	1008	1006	997	984	990	1011	1026	1031	1031	1026	1026	1022	1002	982	985	974	961	937	947	984	1020	994	1014	997	966	965	989	1012	1023	1005	988	983	986	990	988	1003	1010	1018	1017	1010	993	982	976	965	972	980	1000	1013	1010	986	972	977	996	999	991	973	956	960	977	988	996	989	995	957	956	952	979	973	976	974	973	969	969	977	988	1003	1002	1006	1006	1001	990	974	983	1005	1000	1003	994	991	980	980	982	978	977	967	961	949	940	945	974	975	981	1014	1037	1050	1046	1048	1041	1030	998	995	998	1030	1072	1076	1054	1035	1028	994	976	969	991	1019	1033	1027	1026	1037	1043	1051	1037	1011	994	998	1004	1008	1018	1052	1081	1090	1090	1069	1061	1041	1038	1046	1057	1053	1036	1011	1013	1031	1035	1028	1008	1003	1009	1027	1041	1051	1049	1035	1030	1019	1007	986	973	966	993	1019	1027	1019	1005	998	993	993	1001	1002	1000	1006	1035	1043	1033	1015	1015	1019	1029	1027	1025	1018	1010	1002	996	1001	998	991	972	965	963	969	980	987	1000	997	998	997	999	1004	1010	1026	1033	1028	1003	968	932	915	928	944	968	995	1024	1035	1025	997	983	981	977	971	977	978	984	979	962	941	947	945	967	968	960	965	966	967	967	969	978	973	963	968	966	977	981	988	989	997	1003	981	963	949	940	927	932	945	956	965	965	956	943	924	917	901	903	913	918	918	923	935	935	925	909	906	904	902	904	898	894	894	894	889	884	887	906	926	940	937	943	936	929	933	942	935	910	888	883	883	879	878	884	896	900	907	903	901	901	895	898	913	920	920	920	912	907	912	910	915	909	923	923	913	896	905	915	915	917	908	883	866	857	867	868	875	882	888	889	889	895	904	907	906	904	912	902	888	868	868	868	870	862	842	834	861	874	885	873	864	864	857	848	851	858	863	864	849	837	852	843	839	843	857	858	863	868	862	862	856	852	859	873	892	895	882	880	880	888	893	878	848	833	832	832	845	857	853	849	853	884	902	907	917	912	904	899	882	875	875	850	847	852	857	863	869	869	861	846	828	817	826	863	863	889	899	900	890	867	867	864	846	804	807	828	828	864	883	864	826	802	802	799	822	843	856	852	852	852
0	0	0	0	0	0	0	0	0	0	0	0	0	0	0	0	0	0	0	0	0	0	0	0	0	0	0	0	0	0	0	0	0	0	0	0	0	930	949	949	963	961	940	939	953	948	948	921	897	890	912	936	932	924	924	921	908	896	882	895	920	934	934	937	947	959	962	951	928	917	922	922	930	938	926	904	905	947	979	985	972	972	939	913	916	923	935	939	947	954	952	952	958	973	977	969	956	945	944	943	939	951	951	976	1003	1016	1003	990	987	999	921	916	915	907	907	916	925	945	973	982	989	976	943	929	939	954	957	957	955	958	963	964	957	929	867	849	862	891	917	930	943	956	956	964	974	975	982	975	959	964	979	997	1002	993	953	947	931	933	933	940	940	934	920	920	936	952	964	969	967	968	979	967	969	993	1004	1007	1010	1003	996	988	979	979	972	982	999	1002	1005	1014	1022	1023	1013	1000	990	993	1006	1014	1005	986	966	953	954	951	962	964	960	940	918	924	952	994	1014	1014	976	954	946	961	996	1008	1006	986	972	973	968	968	968	970	981	988	990	993	983	972	966	965	971	977	983	987	970	966	974	992	1012	1011	993	985	988	992	985	984	988	1003	1028	1040	1025	1003	979	967	962	966	961	961	967	981	995	1004	1008	1001	986	977	973	977	990	999	1012	1010	1002	998	996	1004	1003	1001	990	988	986	966	965	983	1012	1043	1054	1055	1039	1029	1033	1029	1018	1003	996	995	1025	1069	1070	1048	1025	1015	983	971	972	989	1010	1016	1017	1028	1041	1059	1067	1056	1025	1005	1009	1015	1021	1028	1054	1071	1068	1057	1067	1063	1043	1026	1024	1046	1047	1030	1010	997	1007	1017	1017	999	994	997	1007	1022	1026	1022	1015	1004	1000	983	965	958	975	1000	1021	1025	1011	1009	996	990	988	982	980	978	991	1026	1046	1037	1037	1024	1018	1016	1013	1001	999	996	1002	1006	999	999	983	963	960	953	957	970	966	964	965	967	967	978	991	1003	1022	1028	1022	994	958	921	899	905	929	953	980	1019	1014	1000	984	980	984	979	980	979	982	990	987	974	941	941	947	958	961	956	964	963	972	972	971	980	988	986	974	971	971	978	973	987	996	998	969	952	940	928	912	913	929	943	943	958	947	931	902	883	873	874	889	906	911	918	919	912	904	886	887	886	885	898	894	886	886	875	869	873	888	930	926	940	940	936	933	934	927	928	914	891	883	884	884	880	882	882	890	903	907	895	887	879	877	885	891	901	899	899	891	886	884	874	870	881	894	908	909	899	902	910	910	914	898	883	866	851	855	867	880	882	868	863	863	871	884	889	904	913	919	909	891	860	862	862	869	860	848	847	861	882	889	875	870	870	862	853	843	844	846	849	849	837	837	827	825	824	829	834	845	855	850	850	838	832	834	845	850	850	838	838	852	869	888	876	861	854	858	858	857	856	846	849	859	884	902	902	907	901	892	886	886	868	868	857	837	833	834	842	847	847	844	844	842	824	835	858	858	876	885	888	891	897	897	864	846	830	826	844	844	871	874	867	838	815	815	807	825	842	853	860	860	855
0	0	0	0	0	0	0	0	0	0	0	0	0	0	0	0	0	0	0	0	0	0	0	0	0	0	924	943	970	978	983	968	968	947	943	944	957	967	979	979	975	961	940	965	963	963	963	954	941	941	945	946	941	939	939	933	916	895	890	905	929	957	964	964	965	966	957	933	903	896	909	924	924	924	926	904	912	930	947	946	928	928	924	920	906	897	892	897	911	940	965	965	979	982	971	940	912	893	894	901	920	940	940	960	964	945	918	901	897	907	921	916	916	914	914	914	929	946	956	976	988	983	968	950	937	928	927	927	928	915	905	892	898	901	894	872	867	872	889	910	917	902	902	902	912	928	944	948	953	957	960	958	961	962	953	947	929	922	930	940	940	933	922	929	940	957	960	960	964	960	972	956	955	981	986	998	1010	1010	1002	999	986	981	981	999	1013	1011	1010	1014	1028	1026	1017	995	980	991	1009	1016	1000	969	956	948	950	963	962	959	950	930	918	919	942	973	990	990	976	954	921	933	967	996	1006	991	971	960	955	945	947	953	957	971	978	979	972	972	969	970	971	972	980	981	967	968	967	984	1004	999	983	973	973	980	978	976	987	1000	1018	1034	1032	1009	975	960	960	965	977	973	973	980	986	999	991	988	978	971	970	977	982	998	1012	1007	1011	1010	1017	1022	1018	1012	1011	1029	1032	1030	1003	1018	1037	1057	1067	1042	1018	999	1003	1011	1005	992	977	973	986	1019	1048	1046	1022	999	991	990	997	996	1004	1006	1016	1029	1047	1061	1067	1052	1035	1021	1014	1011	1016	1027	1034	1035	1026	1038	1047	1043	1019	1004	1001	1024	1031	1017	999	984	982	988	987	983	981	976	982	999	1007	1008	1000	988	976	958	945	947	964	992	1003	1004	994	1002	999	988	982	977	967	972	979	1013	1030	991	991	999	1021	1020	1004	984	976	989	1009	1009	1001	980	964	957	941	944	937	948	942	945	948	945	944	948	958	981	997	1008	1000	973	952	915	899	897	910	931	957	965	959	960	962	966	975	973	969	966	977	983	987	974	950	950	950	956	956	959	960	965	978	979	972	974	976	973	980	967	967	962	963	975	985	986	957	945	933	920	911	917	918	931	931	931	918	892	892	864	859	860	878	893	898	904	908	901	886	875	870	866	870	880	897	890	890	877	865	869	888	930	955	954	941	933	946	964	938	917	897	887	891	891	892	893	882	887	894	901	899	886	862	848	852	862	871	877	877	874	872	868	864	854	846	854	863	889	899	901	895	895	890	914	898	881	876	875	876	877	886	880	870	870	860	860	871	886	905	915	927	918	896	872	872	869	867	857	844	844	855	867	870	861	861	859	859	851	829	830	846	849	845	841	841	825	821	822	826	827	837	852	853	853	843	836	832	839	836	828	820	820	849	868	878	882	871	860	867	867	863	857	857	849	859	882	882	897	898	893	891	886	880	873	873	853	851	840	842	839	840	840	834	847	856	847	850	850	855	867	871	877	877	897	897	906	906	893	875	870	870	861	848	837	831	833	833	838	853	866	861	859	859	861
0	0	0	0	0	0	0	0	0	0	0	0	0	0	0	846	881	908	908	931	932	937	957	963	956	956	945	937	927	931	937	945	945	930	914	907	907	942	966	966	973	975	965	965	963	954	960	960	961	955	946	939	947	959	967	967	967	941	928	937	957	957	955	955	940	922	911	912	922	917	907	901	901	900	895	901	912	930	943	939	913	913	909	915	903	899	899	899	912	937	960	960	969	977	962	934	906	889	885	900	915	929	929	948	952	939	913	898	896	909	922	926	916	914	923	923	935	940	956	974	989	990	975	961	953	944	930	918	918	899	889	880	893	899	901	893	888	894	905	922	915	903	894	894	905	922	932	946	951	957	952	954	956	957	958	950	929	865	867	881	881	907	929	950	973	976	975	972	968	963	945	926	929	950	970	987	1000	1009	1033	1045	1055	1068	1068	1058	1037	1018	989	972	986	988	975	954	953	967	997	1009	997	975	946	946	948	958	964	967	947	936	921	926	939	956	967	956	956	930	921	933	941	974	996	994	978	956	941	933	933	944	952	954	963	960	961	970	978	974	975	970	980	977	970	972	975	987	989	986	967	955	960	973	977	977	985	990	999	1007	1018	999	974	955	955	970	991	994	994	986	982	978	978	987	984	972	965	972	987	1002	1011	1013	1005	1005	1016	1034	1016	1007	1022	1048	1063	1067	1056	1054	1040	1029	1032	1008	989	978	996	1013	1005	992	976	975	989	1012	1034	1044	1032	1017	1002	1000	1003	997	995	997	1007	1021	1037	1047	1043	1029	1017	1007	995	993	1000	1014	1032	1030	1011	1011	995	994	982	984	992	1007	1007	998	983	974	964	962	958	951	941	936	926	938	958	979	986	982	965	956	939	944	947	959	972	976	987	997	993	986	980	971	961	962	981	984	972	972	954	961	991	1011	1003	978	975	980	997	994	981	958	941	934	931	930	925	929	932	936	946	943	925	924	933	946	964	975	972	970	956	941	910	898	902	922	930	938	936	937	941	960	969	967	963	955	977	983	982	976	976	959	953	954	964	953	967	980	987	990	975	960	946	949	965	976	968	943	935	934	939	954	943	932	906	902	907	920	923	923	923	909	888	869	851	853	853	862	874	890	892	897	904	901	891	879	878	881	880	890	906	906	895	883	865	869	896	932	943	942	929	923	937	953	945	912	878	851	845	845	854	870	874	887	891	895	897	877	851	831	824	845	861	864	864	858	859	869	870	858	839	833	840	862	873	877	876	895	890	887	882	877	875	871	869	875	881	878	869	869	860	857	868	885	901	912	918	917	902	886	886	871	848	838	837	838	850	864	871	852	852	848	846	841	829	830	833	851	864	860	860	851	841	834	828	823	828	841	841	851	847	832	834	833	818	807	801	801	831	846	861	860	865	870	870	870	864	857	857	859	875	887	887	890	891	890	885	879	871	871	865	854	855	864	871	860	860	846	826	833	840	858	867	867	870	869	857	877	877	877	886	907	905	900	875	868	868	851	830	810	806	824	824	851	871	867	848	831	831	833
0	0	0	0	800	782	782	812	857	906	918	871	871	836	843	846	881	916	916	924	925	937	961	980	968	968	956	948	925	926	942	939	939	932	910	899	908	942	955	955	966	965	960	950	953	954	960	967	969	960	943	929	938	962	986	986	985	966	943	942	945	935	935	935	925	918	916	921	926	917	905	898	898	898	898	905	913	930	943	825	817	831	831	848	870	899	937	942	933	921	889	874	874	862	859	865	884	910	945	938	922	925	932	932	923	895	876	870	880	906	923	933	928	923	923	923	917	926	922	927	960	968	969	969	963	956	934	909	909	891	879	876	896	911	921	925	927	925	935	938	947	934	926	926	918	905	901	917	920	937	949	959	957	952	934	913	894	865	867	857	882	882	916	941	959	971	975	970	978	968	956	927	931	939	960	962	969	974	997	1028	1046	1061	1066	1066	1027	992	965	959	969	977	974	961	952	946	962	984	989	963	945	943	947	951	955	958	950	938	929	930	941	948	945	934	934	915	899	909	941	974	970	984	978	948	932	930	940	961	963	964	955	953	957	971	978	981	973	965	970	978	979	991	994	990	982	973	956	940	956	971	986	988	982	975	980	980	989	989	978	964	972	985	1001	1006	996	996	976	969	976	983	988	973	970	974	983	993	999	1002	999	997	1000	1004	1000	1002	1020	1040	1057	1071	1065	1042	1015	1006	998	991	971	970	984	1010	1022	1007	999	999	999	1004	1016	1021	1016	1005	1000	993	991	993	988	978	988	1000	1011	1014	1005	995	981	982	985	980	987	1005	1020	1014	1001	985	978	970	961	963	982	993	992	983	969	959	962	961	954	948	939	932	928	937	949	961	968	974	972	969	954	951	938	934	938	966	982	992	991	987	985	974	973	977	982	969	941	941	929	949	974	996	994	985	976	971	966	968	965	955	941	933	931	935	936	933	936	941	950	948	933	924	930	938	946	955	961	980	972	951	928	910	912	917	924	920	911	911	931	943	955	959	963	955	951	959	968	965	965	962	954	961	954	951	958	969	975	963	952	935	923	926	929	943	936	913	898	900	905	905	909	900	890	887	881	897	914	914	908	894	863	840	826	832	843	868	886	901	904	916	912	904	896	889	884	882	885	898	905	905	895	883	864	862	881	909	917	923	915	909	909	918	922	903	874	843	843	828	827	843	867	886	902	894	886	869	848	840	837	844	855	865	865	853	847	861	878	879	843	825	826	836	852	856	876	876	875	874	874	872	867	869	872	876	880	873	867	867	859	863	868	874	889	899	897	892	869	860	860	845	836	825	826	833	843	860	868	857	857	848	846	841	837	829	834	877	886	886	886	875	862	846	820	800	803	816	816	829	831	834	831	831	814	794	794	792	811	822	832	841	852	866	866	870	864	861	851	854	871	880	880	878	870	848	852	858	854	854	854	851	842	857	858	850	850	839	816	806	826	831	855	855	870	869	857	841	843	843	862	874	880	870	860	860	856	854	828	806	797	816	816	850	868	853	840	840	820	810
0	0	0	0	820	809	809	829	876	907	925	915	915	892	867	876	899	916	924	911	914	931	963	994	1005	1005	1002	973	933	933	945	954	954	951	935	922	927	948	959	950	950	933	923	930	937	950	967	967	969	931	923	921	951	970	986	986	979	964	930	904	883	848	844	844	872	909	923	924	923	922	936	956	956	977	989	973	952	901	860	825	817	875	875	902	910	904	891	878	869	855	860	863	863	876	866	862	878	889	915	921	949	952	937	937	919	900	884	889	900	906	925	931	928	913	915	915	917	926	891	897	915	945	950	959	963	956	934	915	915	899	890	892	904	925	932	938	930	928	925	932	937	927	916	916	900	898	904	915	930	944	957	962	949	941	920	888	854	834	834	857	882	878	908	933	952	957	965	971	983	979	951	934	926	930	949	949	946	949	973	1002	1031	1047	1026	1026	1005	990	958	957	966	973	974	965	957	947	948	958	961	949	931	926	928	940	945	954	949	948	951	953	955	944	926	923	908	908	899	901	915	942	970	984	964	937	916	930	957	977	981	974	958	954	953	963	969	971	975	963	957	953	973	990	995	988	969	949	940	941	953	969	987	980	969	952	954	967	980	985	986	987	975	982	999	1004	989	968	968	951	958	971	987	996	995	984	980	972	968	976	991	998	1003	1010	1007	1008	1012	1020	1032	1052	1061	1044	1011	990	992	981	969	969	982	1009	1027	1030	1032	1010	993	982	992	994	984	984	979	971	966	970	968	963	953	966	976	977	972	971	966	977	978	980	986	993	1009	1007	996	986	971	960	950	952	972	986	980	965	962	965	974	972	962	953	939	939	940	940	949	948	953	962	975	975	974	962	941	925	940	970	990	989	984	982	977	975	974	974	983	965	965	936	918	927	950	975	981	979	976	966	964	965	963	958	947	937	939	943	949	941	944	949	953	952	941	933	927	929	931	942	961	978	979	962	931	919	916	917	917	903	890	897	915	925	955	959	952	945	940	946	951	951	952	951	958	958	953	945	950	947	943	937	935	932	918	902	896	907	914	908	898	892	893	890	897	899	902	898	883	869	859	859	846	842	830	810	804	819	842	869	893	906	904	912	913	910	895	889	883	878	870	857	857	905	901	888	860	862	868	884	898	905	906	897	883	882	876	874	858	832	832	821	820	834	855	891	905	900	889	874	858	852	845	843	855	855	854	842	839	860	877	875	839	816	821	832	852	856	857	857	858	862	861	859	867	877	876	876	876	869	854	854	849	843	851	865	867	870	863	856	851	851	842	841	828	823	828	829	837	851	864	864	857	848	842	842	842	845	857	875	885	885	885	883	870	850	814	789	785	788	788	799	804	826	839	832	814	797	797	789	811	826	822	831	844	866	866	864	852	842	831	834	840	847	847	833	813	803	808	822	834	834	837	829	825	819	817	824	824	817	798	777	773	795	855	855	872	862	847	834	829	829	839	850	855	849	857	857	860	860	846	821	802	802	812	845	860	854	842	842	819	805
0	0	0	0	0	0	0	878	907	918	917	926	926	913	893	890	905	920	911	911	914	899	918	944	940	895	895	0	0	897	944	969	969	969	0	915	904	917	924	915	915	894	883	895	905	921	943	943	945	931	923	935	955	972	968	968	949	938	907	895	884	864	847	840	840	854	874	892	903	922	941	964	972	972	974	952	924	878	839	831	846	875	875	905	905	896	889	875	863	851	854	867	867	864	865	875	877	881	870	878	904	926	936	936	918	902	888	893	902	901	911	916	901	892	894	894	896	894	891	848	867	895	914	941	950	949	940	918	911	911	898	893	912	926	937	932	927	917	925	925	924	916	903	899	899	887	901	916	939	944	949	950	944	926	912	892	871	845	840	855	878	908	908	931	941	942	948	960	980	978	955	929	926	928	934	932	935	941	955	972	971	962	983	983	998	1001	987	980	982	976	977	974	963	950	936	939	942	931	915	913	907	924	926	943	942	951	958	961	955	942	924	916	912	912	906	895	902	919	953	976	964	937	915	935	958	971	968	963	960	962	951	958	963	969	967	968	953	937	947	971	983	969	942	936	927	939	948	963	967	962	944	927	940	959	977	982	988	979	969	962	971	981	971	950	950	939	952	980	1008	1014	1004	993	970	951	939	955	979	996	1004	1009	1006	999	991	993	996	1011	1012	994	979	972	981	987	978	974	982	992	1017	1024	1034	1001	975	963	965	957	963	956	960	961	954	951	950	943	949	950	956	965	962	963	968	976	978	985	980	988	1001	1004	998	981	967	950	935	940	960	969	963	951	958	964	979	980	972	956	956	967	979	969	963	953	969	970	980	983	981	978	959	938	937	962	982	982	978	970	970	963	964	965	967	952	952	921	917	923	938	949	962	971	971	965	961	968	957	944	930	933	939	953	953	952	953	953	951	956	944	934	928	914	911	919	944	965	960	942	927	914	915	924	913	900	880	897	915	925	935	927	929	926	923	924	926	926	931	937	951	956	956	944	933	926	918	918	924	935	922	896	896	899	900	901	893	892	886	884	887	895	897	893	881	868	868	866	852	833	830	832	829	829	827	844	852	859	874	889	898	891	886	877	875	865	858	857	857	857	885	884	881	870	881	884	884	900	893	880	865	857	855	852	837	813	813	806	819	834	863	888	901	896	891	881	874	857	851	844	848	848	843	832	841	852	860	840	824	808	821	832	851	867	867	880	892	887	877	868	871	878	882	882	865	850	850	839	829	816	824	839	845	845	839	834	840	840	840	840	841	835	833	832	830	839	864	864	864	859	843	836	841	853	860	864	865	865	859	863	859	843	807	779	763	773	773	783	803	833	835	834	825	805	805	803	806	814	818	831	844	853	853	854	835	817	798	794	787	787	786	785	784	782	790	797	813	813	812	813	811	806	810	811	811	806	793	781	773	795	795	824	855	857	838	821	820	820	820	834	843	848	853	853	862	868	848	830	819	819	822	841	862	864	856	856	819	805
0	0	0	0	0	0	0	0	0	0	0	0	0	0	0	0	0	0	0	0	889	899	918	896	888	0	0	0	0	0	0	0	0	0	0	0	0	871	870	867	867	860	874	893	893	891	882	859	859	891	929	935	955	966	969	952	952	924	903	883	869	865	851	846	846	855	870	884	900	912	929	939	953	953	955	949	924	876	838	826	846	881	881	905	905	883	882	872	855	853	851	866	853	853	851	875	884	882	867	850	874	887	899	888	888	886	873	866	867	880	895	903	897	884	886	871	871	852	835	848	867	870	877	906	942	947	932	918	899	899	885	876	887	899	915	913	910	910	915	927	926	915	895	885	885	885	889	912	929	939	936	926	918	910	903	909	912	894	871	874	892	907	907	931	941	895	899	942	971	977	958	935	935	929	944	954	966	971	952	926	881	911	945	981	981	998	1001	1015	1017	1001	983	967	962	943	930	918	914	909	902	903	899	911	917	923	929	953	954	952	951	947	934	923	917	913	913	904	904	929	949	965	948	925	915	935	952	943	941	945	956	958	952	948	963	967	972	966	952	935	940	959	960	951	926	915	918	926	935	942	937	923	914	914	929	950	969	981	976	968	957	944	936	947	952	944	940	940	955	982	1005	1005	993	980	966	931	912	937	958	987	997	1000	994	970	949	947	966	973	977	955	944	948	965	976	963	941	936	944	933	942	937	934	927	936	939	943	943	945	946	949	945	943	935	933	938	947	970	971	969	957	955	970	975	975	976	984	1001	1004	996	981	961	948	931	932	936	941	935	925	944	956	978	980	973	970	985	1011	1026	1031	1029	1012	999	988	980	975	969	970	970	940	930	936	954	968	965	960	942	940	951	953	935	935	924	912	906	909	917	926	935	947	956	956	964	958	940	921	911	917	934	947	963	955	950	943	929	914	894	886	898	889	879	887	911	933	931	911	900	907	931	941	938	900	880	885	899	909	906	905	899	901	910	918	918	922	921	920	930	945	948	935	921	909	904	909	930	932	917	898	882	889	887	886	886	886	887	891	884	886	882	877	875	878	878	863	852	838	842	848	843	829	827	829	835	846	856	873	882	881	868	864	865	865	858	852	852	850	857	880	893	890	880	876	892	897	892	873	859	850	848	840	829	829	814	804	813	821	837	878	888	891	884	887	880	859	842	831	805	805	802	815	822	833	840	834	824	808	824	836	854	869	869	875	889	888	876	871	872	884	883	882	860	848	848	833	817	814	822	835	834	833	825	829	830	830	834	840	846	841	844	834	830	839	855	855	861	860	846	835	842	857	850	840	840	833	831	833	833	834	811	781	765	765	775	797	816	823	813	811	823	822	822	810	806	814	818	826	836	843	843	841	818	799	784	781	775	775	778	776	781	782	788	790	790	792	797	803	806	803	811	811	805	802	793	781	781	795	795	818	842	856	834	821	812	812	818	840	862	866	861	861	856	846	834	820	819	819	827	845	862	863	856	856	839	812
0	0	0	0	0	0	0	0	0	0	0	0	0	0	0	0	0	0	0	0	0	0	0	896	888	0	0	0	0	0	0	0	0	0	0	0	0	860	858	857	857	850	868	884	893	886	0	0	0	877	913	939	956	966	958	941	941	909	887	867	864	864	856	852	852	857	872	881	888	892	903	920	933	933	944	955	930	881	839	827	843	864	894	894	895	883	882	864	851	834	820	799	810	810	845	868	894	884	857	853	878	881	881	876	876	868	846	843	854	867	885	889	889	891	890	866	866	841	834	845	860	870	877	905	935	935	916	898	881	881	861	858	852	864	876	886	893	906	925	932	935	932	925	903	882	882	890	904	918	918	909	894	888	885	896	905	927	934	928	908	902	912	912	920	909	895	879	903	936	952	945	929	927	936	950	982	993	984	948	903	856	877	913	959	959	986	1008	1031	1032	1020	983	944	925	910	909	912	916	915	915	910	902	885	889	902	919	932	938	940	929	933	926	929	925	923	923	933	927	938	953	959	942	926	928	941	952	943	941	930	951	947	939	942	954	972	965	961	941	930	935	956	954	939	917	913	914	923	926	918	905	888	882	896	914	939	956	964	962	959	949	944	932	933	947	941	945	945	955	981	989	981	967	959	944	929	912	914	947	974	986	995	991	976	959	951	960	983	980	959	934	944	955	961	942	909	889	886	898	909	922	928	930	929	931	938	930	927	934	936	937	928	922	920	932	961	984	986	978	960	937	930	937	945	968	982	986	986	982	977	963	946	941	929	923	912	896	898	910	936	955	960	974	973	986	1013	1057	1075	1063	1038	1014	981	958	956	959	953	942	920	907	908	933	950	957	950	938	938	933	929	929	910	899	893	899	903	899	894	893	906	918	942	948	947	924	900	881	889	916	939	959	950	938	930	916	898	887	876	866	860	853	860	879	897	904	877	884	908	927	941	938	915	896	894	903	908	898	890	883	900	911	911	921	921	903	898	910	918	918	906	896	882	887	905	917	911	887	893	884	890	881	878	877	884	899	904	899	883	873	861	854	854	852	844	852	853	858	858	854	832	826	830	839	850	853	867	877	874	861	864	865	866	864	864	864	856	864	871	884	882	869	864	873	884	884	865	851	846	852	846	841	841	833	813	799	793	810	844	866	868	877	875	874	853	831	815	815	810	809	800	805	817	840	834	819	805	825	839	853	854	854	869	866	857	853	856	865	877	881	876	863	855	855	845	837	835	830	829	822	822	823	817	818	818	825	833	845	848	846	834	830	820	827	827	842	846	841	843	859	857	843	824	824	810	802	802	813	812	805	800	816	816	828	817	821	807	804	804	819	819	829	810	806	791	785	801	823	823	833	828	816	804	794	789	791	791	788	787	795	792	796	792	792	794	802	811	814	819	815	815	805	802	798	794	803	808	808	826	837	848	836	820	820	806	812	824	833	834	831	831	826	812	804	805	811	811	831	849	862	863	866	866	858	822
0	0	0	0	0	0	0	0	0	0	0	0	0	0	0	0	0	0	0	0	0	0	0	0	0	0	0	0	0	0	0	856	0	0	0	845	853	872	874	862	853	853	867	885	898	886	0	858	858	881	909	916	934	951	958	941	938	910	883	861	848	853	853	854	869	869	881	883	879	870	881	894	919	919	944	948	935	901	863	844	849	863	866	866	872	879	873	864	851	836	835	809	801	801	829	870	903	895	873	874	875	884	884	870	870	853	833	825	834	853	873	884	884	888	890	859	859	837	839	857	877	870	878	905	935	915	887	868	856	846	846	828	816	817	830	851	890	914	921	922	927	926	919	901	886	886	885	907	907	896	874	858	855	865	877	899	919	931	916	878	876	890	897	897	887	871	879	903	909	924	925	915	911	933	957	959	948	935	921	889	871	892	918	947	980	980	994	1000	995	978	954	934	918	913	912	919	923	928	928	918	898	885	880	886	908	928	923	916	907	905	904	915	933	957	960	960	945	937	950	955	948	937	940	942	938	919	919	930	951	937	919	916	927	948	955	950	940	925	935	939	935	921	911	914	917	923	922	917	902	881	873	878	895	918	930	936	935	943	954	953	947	941	943	938	937	958	958	970	968	954	952	945	936	925	922	928	947	952	947	968	980	979	970	959	970	979	987	965	939	942	943	936	913	900	880	884	895	914	924	937	931	932	930	927	920	918	925	934	938	928	912	914	930	957	982	989	972	952	929	915	912	925	946	958	958	954	949	947	955	955	949	939	919	895	878	881	886	894	915	924	940	949	970	1013	1054	1075	1062	1033	980	947	923	912	905	908	913	901	885	896	926	943	940	940	928	924	919	917	917	902	893	898	896	890	880	852	849	857	871	894	913	909	898	882	883	887	905	931	939	937	926	920	908	901	898	883	865	853	854	853	859	869	874	883	894	908	927	938	934	915	907	911	916	916	898	888	884	897	913	913	919	912	897	886	885	883	879	874	879	866	872	890	915	910	890	887	888	889	885	868	869	894	907	911	898	889	870	854	838	838	831	830	837	858	874	868	851	829	821	830	843	855	859	858	873	874	861	855	862	868	869	869	876	873	868	858	858	858	851	844	852	859	868	859	855	852	860	861	854	854	844	830	802	799	809	827	840	833	847	853	848	839	823	812	812	825	825	806	803	817	822	821	809	805	812	827	831	831	817	816	828	833	834	827	824	826	837	857	865	865	872	871	867	864	845	817	806	804	808	813	813	816	822	824	834	848	846	847	834	814	814	804	809	819	834	853	871	871	850	816	816	796	786	801	809	816	811	814	829	829	837	839	825	809	803	802	813	819	829	811	793	778	781	800	828	828	834	831	821	814	819	819	809	809	805	795	795	792	792	803	803	806	812	812	818	820	815	815	807	792	787	796	809	816	816	831	832	819	797	792	792	794	799	799	796	803	803	789	783	772	772	781	781	801	831	849	849	849	849	856	852	836
0	0	0	0	0	0	0	0	0	0	0	0	0	0	0	0	0	0	0	0	0	0	0	0	0	0	0	0	0	872	860	858	849	851	851	858	876	890	902	891	876	876	865	880	892	888	876	868	868	886	897	898	918	933	947	938	938	910	874	865	863	855	858	852	870	870	876	881	882	856	851	884	916	934	934	936	930	904	878	867	854	860	868	868	871	873	864	854	836	836	858	852	830	830	836	865	890	892	877	862	874	875	879	865	865	849	828	824	836	849	865	866	876	882	880	863	840	840	854	870	877	874	881	903	926	915	887	858	844	834	834	830	819	811	816	846	886	912	908	903	912	918	907	887	876	876	882	893	901	884	853	843	843	854	876	885	895	889	879	872	866	873	887	887	891	878	879	887	909	924	921	922	922	944	958	956	938	912	892	886	894	915	944	969	974	974	967	959	950	950	951	936	928	926	922	927	931	936	934	918	897	882	875	883	906	918	915	914	906	893	899	909	943	964	968	968	954	938	937	943	951	962	961	949	934	914	897	918	940	937	919	916	894	921	940	942	934	936	926	928	914	908	897	902	911	925	923	924	910	890	875	867	875	894	912	910	908	928	945	946	943	935	930	927	927	936	936	942	934	934	938	935	938	936	936	949	947	938	935	941	957	955	953	966	969	988	982	971	942	920	918	920	913	894	883	882	894	916	927	934	937	935	929	914	903	912	924	937	936	925	915	907	917	933	949	953	949	933	915	902	903	913	927	936	926	916	909	911	928	947	951	941	920	886	865	863	871	882	902	910	919	925	938	951	961	962	956	933	902	882	877	868	874	872	872	875	888	918	929	934	928	916	905	901	900	900	900	902	898	904	907	900	869	849	835	837	841	853	859	873	883	882	884	895	899	914	925	923	915	900	896	907	900	890	870	868	871	869	864	861	874	883	894	912	920	921	914	905	901	906	918	916	895	881	884	910	910	915	915	904	890	881	874	864	855	863	866	863	865	875	895	910	912	901	889	892	882	864	850	866	894	903	906	885	861	849	849	833	820	819	837	850	859	857	845	833	827	828	841	842	839	858	873	886	887	858	862	874	874	873	877	879	871	856	842	836	835	832	834	840	848	847	844	853	862	861	861	853	841	828	819	820	821	829	829	816	807	814	822	826	818	818	816	816	813	806	803	805	808	804	795	798	805	811	790	790	788	790	806	815	821	826	828	834	838	846	843	843	844	845	849	856	843	820	806	806	817	828	828	829	825	824	834	845	857	847	820	795	795	777	778	787	810	829	854	861	837	804	804	783	779	798	807	813	812	808	812	812	818	819	818	812	800	802	813	813	823	803	785	778	780	800	828	828	834	825	822	821	831	837	837	832	817	807	798	792	801	809	809	815	805	807	818	820	811	811	805	788	779	784	801	801	810	808	809	797	790	782	782	796	811	815	788	767	767	751	734	737	757	771	781	801	820	831	831	831	831	834	837	832
0	0	0	0	0	0	0	0	0	0	0	0	0	0	0	0	0	0	0	0	0	0	0	0	0	0	0	0	0	872	860	843	835	839	839	850	862	872	885	885	871	871	857	864	873	872	866	865	892	892	888	895	912	926	939	933	901	901	874	865	871	878	868	862	863	863	874	882	871	852	851	882	908	929	929	928	917	890	868	852	857	856	860	869	869	873	855	833	832	846	858	852	836	828	828	852	871	877	857	840	851	860	862	855	849	849	838	839	847	851	859	864	861	867	871	864	851	851	854	857	864	864	887	906	914	898	877	858	840	834	834	834	827	829	831	846	856	862	876	884	890	906	896	876	861	865	865	886	887	881	871	863	866	865	874	873	873	873	875	890	900	903	903	897	897	886	887	889	907	919	921	922	943	960	965	953	936	913	890	883	887	908	938	960	956	942	942	921	911	927	945	950	940	932	919	920	927	930	920	907	886	869	875	887	905	917	914	913	909	900	902	923	955	969	961	947	947	929	908	916	937	956	956	945	931	907	904	914	928	924	904	893	894	921	928	943	946	956	952	938	905	897	892	897	903	911	919	928	926	903	884	861	863	869	864	849	846	869	883	896	897	897	897	910	909	913	915	915	918	921	918	930	933	935	943	944	934	923	916	912	919	929	934	946	961	972	979	966	945	919	917	923	916	909	894	883	896	912	916	933	933	924	908	894	883	901	915	933	936	922	909	895	887	901	916	926	925	920	904	901	898	911	923	924	911	887	875	893	920	940	947	941	924	882	864	860	871	880	889	894	907	917	930	941	941	930	918	915	894	888	870	860	848	844	845	869	896	927	938	937	928	910	895	885	885	885	888	883	883	885	884	874	860	847	831	837	839	850	864	872	878	884	883	890	894	911	914	921	912	903	893	899	904	893	886	886	889	887	864	861	868	877	889	896	908	906	896	888	883	894	899	889	877	876	891	912	912	916	912	890	876	872	870	860	856	863	874	885	872	866	876	900	908	905	895	883	885	857	849	872	888	900	882	870	852	852	852	835	827	829	840	844	849	852	848	841	842	838	841	831	839	846	863	886	891	884	879	886	886	886	877	878	866	854	841	838	842	839	835	833	830	825	832	844	850	849	849	839	827	830	830	842	843	838	823	805	787	794	811	822	823	823	814	816	813	810	810	805	807	799	797	804	804	796	789	789	780	784	798	808	825	820	820	824	837	838	833	833	827	826	832	838	834	822	813	818	835	840	840	829	825	833	837	845	852	841	819	799	799	800	799	796	795	808	820	821	813	813	795	771	775	792	806	815	811	798	798	792	798	798	795	812	800	805	815	815	840	820	791	778	781	789	803	803	814	813	818	838	847	852	852	844	823	806	808	800	812	820	820	823	805	807	808	813	813	804	789	783	783	785	794	794	799	799	793	785	785	788	788	803	810	807	799	775	775	747	743	752	757	771	771	787	797	812	814	813	813	810	818	825
0	0	0	0	0	0	0	0	0	0	0	0	0	0	0	0	0	0	0	0	0	0	0	0	851	878	897	897	901	883	857	843	835	839	839	843	846	851	857	860	852	852	840	847	843	837	834	843	872	872	879	885	910	925	915	882	849	849	843	848	871	878	871	872	874	874	873	863	845	840	850	877	901	906	906	913	890	867	831	828	825	836	856	868	868	862	843	822	832	858	873	869	836	828	835	852	872	876	859	840	837	843	849	851	845	845	850	857	869	871	865	861	850	851	855	858	851	851	835	839	848	857	877	895	900	885	862	848	840	834	834	834	841	841	841	840	836	841	847	863	869	882	874	862	850	865	865	872	874	873	870	881	896	906	893	879	867	865	875	894	909	905	897	883	883	865	865	870	888	913	920	925	943	960	958	945	930	916	894	878	879	894	928	946	942	925	925	895	889	913	948	955	942	922	906	902	915	915	906	893	879	872	876	890	904	917	928	925	913	908	906	926	937	927	915	895	895	875	871	884	902	922	930	929	920	919	915	923	931	920	908	895	892	903	928	943	946	933	931	926	907	896	889	892	902	907	923	922	917	897	873	854	863	865	860	843	833	846	866	875	874	872	886	898	906	906	900	900	897	903	909	904	913	918	926	931	921	909	903	893	898	903	912	926	936	950	950	944	926	919	921	925	922	906	889	877	887	898	902	909	911	903	890	872	873	882	909	922	926	904	897	894	894	893	900	909	910	907	904	908	914	926	927	921	899	875	856	877	912	930	939	934	910	887	872	872	874	886	888	887	889	896	907	912	922	920	911	903	900	887	873	857	841	832	843	869	908	940	948	937	918	900	884	883	883	881	874	869	861	857	859	863	861	854	837	841	839	856	874	885	882	873	879	884	906	910	915	915	907	895	882	883	890	890	890	886	889	887	871	861	853	848	854	857	855	856	867	876	871	869	872	866	867	876	885	885	896	909	910	885	857	857	860	864	862	861	876	883	874	868	865	882	899	894	888	879	886	883	876	873	881	878	862	854	849	849	846	840	843	838	837	840	840	846	846	852	853	852	841	831	834	840	852	875	885	885	879	879	890	895	877	860	855	846	847	844	852	852	844	834	819	812	818	821	826	826	830	817	813	816	838	834	815	808	799	785	777	791	807	815	817	823	814	798	791	803	812	816	813	809	816	820	819	813	813	793	783	782	797	821	825	825	816	820	822	828	828	822	811	810	817	828	825	813	805	814	821	835	840	833	819	818	824	838	848	836	812	807	807	801	801	802	800	805	811	810	805	805	794	776	767	773	795	808	797	784	784	773	775	798	795	785	784	795	795	810	829	828	814	817	818	805	805	792	778	787	797	805	821	829	829	823	800	796	803	812	824	824	820	823	810	789	779	771	771	778	779	784	794	803	804	804	801	800	794	803	817	817	810	803	802	793	790	783	783	747	743	752	764	770	770	776	785	796	806	802	802	798	800	811
0	0	0	0	0	0	0	0	0	0	0	0	0	0	0	858	865	0	0	0	0	0	811	823	839	851	858	858	852	833	834	826	835	839	839	862	845	842	842	850	847	832	832	830	824	811	804	816	834	834	846	863	884	884	862	847	830	830	825	835	843	856	871	872	874	856	856	838	828	841	851	862	879	883	885	885	872	842	819	792	784	810	841	867	867	863	859	849	845	862	878	874	848	835	835	852	869	878	869	849	833	833	842	847	844	844	853	859	868	871	862	847	837	833	843	843	836	825	825	819	832	856	872	878	876	870	857	839	827	832	834	834	834	841	843	835	828	829	838	847	849	851	846	836	844	848	848	848	851	854	854	871	892	917	912	888	866	863	880	893	904	898	880	859	859	842	833	844	868	890	899	920	940	957	958	945	921	909	884	872	871	886	904	920	917	908	891	891	886	949	976	970	941	908	886	890	899	903	891	882	883	883	888	890	902	919	927	930	934	914	908	909	916	904	883	874	868	868	869	878	888	891	898	902	907	919	919	923	925	912	903	893	897	903	920	925	930	933	931	894	891	878	876	880	889	902	915	918	912	891	867	854	853	864	859	842	837	850	867	882	877	879	890	901	915	906	892	881	881	881	889	889	872	883	903	914	914	897	894	892	887	891	900	911	913	912	905	905	905	914	921	925	921	895	869	862	875	886	888	883	884	878	875	865	865	894	920	932	916	896	886	892	894	895	894	893	895	898	900	914	919	925	923	914	895	875	865	882	897	919	928	921	903	883	871	876	885	897	896	879	867	872	877	881	898	911	908	907	900	897	879	863	858	862	871	890	904	918	923	919	895	868	877	886	886	887	872	864	852	848	854	867	871	869	855	858	863	878	888	894	880	875	877	895	914	913	908	906	890	874	855	868	890	890	890	891	885	885	879	866	852	841	831	829	823	830	840	852	860	855	854	867	866	870	872	872	883	896	895	880	848	837	848	854	852	847	847	857	862	864	864	872	885	885	875	876	874	868	871	868	877	860	852	842	837	837	842	845	858	857	852	840	837	835	843	850	853	852	836	828	833	843	866	879	878	874	860	860	842	833	834	822	829	841	856	859	858	857	847	835	813	797	790	800	815	815	818	815	808	799	805	806	799	796	783	786	787	801	806	815	815	817	806	783	782	817	834	839	827	816	814	820	824	814	814	793	784	785	818	829	828	828	822	816	812	810	810	798	794	800	814	821	813	806	805	806	821	821	823	810	795	795	803	818	820	817	810	810	804	802	803	813	814	812	813	809	804	804	789	771	761	763	769	776	779	776	776	773	775	779	774	773	772	780	780	792	807	809	812	810	809	804	804	792	791	789	792	792	794	794	794	800	796	784	785	789	824	824	823	827	811	797	778	772	772	764	753	762	797	804	805	805	807	803	805	808	821	821	815	798	788	780	784	790	783	781	777	770	770	764	764	763	775	785	792	792	792	786	788	791
0	0	0	0	0	843	834	0	0	0	802	0	0	834	834	879	908	916	0	0	848	848	831	813	813	829	826	822	822	808	812	823	844	857	862	862	845	834	843	848	853	841	841	828	818	795	791	806	821	821	837	847	846	844	846	840	830	825	825	822	829	848	864	880	874	856	834	816	823	826	847	848	858	869	877	877	865	845	817	785	776	802	840	872	872	872	874	873	871	874	874	872	852	847	858	858	869	878	849	843	831	828	826	831	826	831	831	841	857	862	853	833	816	819	824	827	831	818	818	815	838	859	862	861	844	833	822	821	818	820	831	831	834	841	839	829	826	830	836	838	837	832	827	823	830	837	832	832	822	824	832	860	889	907	911	897	877	877	876	895	896	886	864	843	825	825	816	847	878	888	893	911	937	945	938	932	921	909	870	858	870	881	895	902	895	882	885	885	910	946	956	954	929	894	876	878	891	892	878	872	872	872	868	878	894	904	913	918	906	899	905	906	901	890	870	865	862	862	868	873	873	879	891	902	909	912	916	916	913	899	888	882	882	883	883	893	898	896	900	894	891	878	863	872	883	898	902	899	898	884	867	867	882	882	859	848	852	865	887	895	894	899	897	906	910	899	887	874	868	868	875	870	861	868	889	898	895	892	894	895	889	885	887	889	893	892	896	903	908	924	938	933	924	892	871	862	877	892	880	870	868	868	860	853	873	903	931	927	910	892	879	884	890	897	897	888	886	885	895	911	918	911	903	892	891	886	886	890	896	908	916	909	895	883	875	873	883	889	879	870	849	850	854	848	850	865	865	883	897	893	882	868	860	863	868	862	855	854	852	844	835	845	864	864	883	881	873	862	861	857	862	879	892	890	881	877	879	879	889	883	874	863	872	894	906	909	894	884	871	841	855	868	878	879	880	877	875	877	886	878	867	855	837	824	813	813	822	837	843	850	861	866	866	858	858	856	858	870	870	862	846	819	827	837	843	838	838	846	858	865	874	880	881	877	871	869	857	844	849	859	862	858	852	841	841	830	829	836	850	859	851	841	831	831	843	850	853	850	836	830	837	849	866	867	866	854	837	837	825	830	828	829	832	844	858	867	865	861	846	822	794	777	775	783	800	800	811	807	795	785	781	789	793	790	783	776	778	782	806	807	807	805	801	801	813	822	833	827	815	798	794	804	814	814	812	800	786	786	811	826	829	827	820	810	807	805	805	793	789	792	802	808	802	798	805	806	813	813	804	789	778	773	781	793	803	807	801	801	798	797	801	811	817	820	817	812	812	803	787	770	761	764	764	769	770	779	776	771	776	783	782	770	767	771	771	778	792	799	802	800	797	795	795	791	790	788	783	783	784	784	789	796	798	795	785	789	796	796	815	811	805	795	790	779	779	768	748	746	783	793	793	804	807	810	809	807	802	802	794	789	776	780	784	784	779	783	774	766	763	763	762	764	764	775	782	782	787	782	782	778
0	0	0	0	849	829	820	813	813	804	802	0	800	848	848	887	929	940	917	875	844	844	816	799	804	816	819	809	809	801	808	826	854	885	874	874	853	834	843	852	866	866	866	843	824	806	802	816	838	844	844	836	824	824	834	837	844	837	837	833	832	840	865	885	864	834	834	816	811	825	830	828	827	829	840	840	847	847	827	800	791	819	851	876	890	890	894	890	881	869	869	861	852	854	856	856	863	864	849	843	815	819	813	811	809	808	808	813	827	844	840	825	808	798	810	826	830	817	817	825	841	857	850	829	813	807	807	808	815	816	822	834	834	841	839	829	826	829	837	842	843	834	829	826	826	828	816	816	811	810	820	849	883	904	898	888	884	880	888	895	887	875	849	823	808	808	808	831	853	861	878	896	919	926	922	913	909	898	870	858	847	861	881	883	874	861	867	895	895	921	930	924	907	883	876	878	885	886	879	866	862	850	852	855	881	900	906	896	880	884	893	904	899	879	863	852	857	858	858	853	854	859	885	903	919	917	917	907	892	889	875	857	845	844	852	860	861	862	863	870	865	859	863	872	883	892	895	888	879	880	864	868	880	876	856	849	855	868	889	901	905	912	907	895	892	890	883	875	874	874	872	858	857	870	877	881	879	875	872	870	864	861	860	876	888	897	902	914	927	936	946	943	933	904	883	873	880	896	896	879	880	873	861	861	868	896	915	921	907	880	868	873	886	895	894	885	878	882	897	905	907	892	872	872	873	880	889	898	901	906	908	906	896	883	879	881	877	877	861	847	847	841	832	824	826	831	838	840	843	853	852	851	855	855	849	841	837	837	840	834	833	834	858	858	876	889	878	868	859	861	870	890	899	901	896	886	879	878	858	836	836	839	855	877	899	889	867	884	871	841	831	854	869	871	862	854	856	870	879	880	874	865	855	839	824	814	817	834	846	861	868	871	859	842	842	828	830	845	854	848	840	823	817	826	833	838	838	845	858	865	877	880	875	871	866	862	852	838	836	841	843	852	853	844	844	828	818	813	823	842	846	845	831	831	834	837	836	835	839	835	832	842	847	845	843	827	827	812	812	819	830	830	831	848	865	870	867	845	822	799	784	768	767	769	769	785	797	796	781	764	767	778	789	790	780	768	778	782	779	780	780	792	806	814	815	816	817	809	800	792	786	788	797	797	806	806	790	789	806	818	823	825	816	805	803	803	802	787	775	775	781	794	802	798	793	795	795	795	786	772	759	765	773	779	786	788	791	791	791	787	794	804	810	812	811	808	808	804	789	775	771	767	774	771	770	770	779	784	786	786	774	769	763	758	758	764	780	787	796	786	785	785	785	785	788	774	771	772	771	771	777	786	798	795	791	786	786	781	772	776	781	781	788	788	781	768	744	754	766	778	778	783	786	791	794	791	777	777	775	789	776	776	777	777	779	773	765	754	760	760	762	757	765	773	784	784	781	777	771	766
0	0	0	0	837	827	810	793	793	773	776	782	800	848	881	881	919	929	899	867	831	831	800	785	795	808	810	803	803	803	815	841	865	889	884	884	854	835	838	852	866	882	882	867	845	830	823	839	851	856	856	854	819	807	816	832	860	856	856	847	840	841	853	872	849	818	800	800	811	825	814	807	794	787	812	823	823	831	825	806	806	834	860	878	887	887	897	891	881	864	851	849	841	840	838	838	835	831	827	816	815	797	800	801	794	796	796	802	817	835	831	821	800	792	812	829	825	822	821	821	825	831	843	842	842	828	812	811	816	825	829	835	835	842	840	834	826	833	843	849	849	843	837	838	840	833	818	809	809	791	798	831	868	889	886	877	878	874	870	873	874	865	849	824	807	803	803	813	834	841	857	876	892	905	901	904	901	885	868	850	847	861	864	871	859	855	866	885	885	895	894	889	877	870	868	875	883	885	879	865	850	838	837	855	871	894	891	881	871	882	891	893	885	872	866	866	862	851	851	831	827	839	864	891	910	919	916	906	898	884	868	844	836	828	834	840	837	829	834	841	847	846	853	862	881	892	895	888	873	880	875	879	885	865	854	847	845	867	883	894	879	856	852	852	866	878	885	883	878	871	871	857	863	874	879	878	865	860	863	860	858	855	855	870	888	902	915	926	940	946	949	950	937	919	889	875	891	909	904	895	888	878	878	869	865	863	871	877	876	861	861	875	899	903	895	888	885	885	897	902	896	870	851	846	857	875	896	904	911	908	901	891	883	877	886	896	888	866	843	821	823	837	850	867	874	855	842	831	824	827	831	837	842	842	843	829	826	828	838	838	833	844	844	849	867	884	879	871	864	862	868	882	887	901	898	890	870	849	836	840	859	873	872	870	899	889	867	853	819	805	840	864	856	839	820	820	832	850	858	867	868	863	856	850	832	824	822	838	855	862	869	862	843	843	816	815	821	837	851	849	838	824	815	813	827	836	853	848	850	865	866	868	859	855	851	842	830	819	812	812	820	831	838	838	833	819	807	805	813	826	846	845	837	835	837	834	833	829	839	850	856	849	840	832	822	807	807	789	786	796	807	817	817	824	842	843	838	810	800	792	786	771	769	776	776	786	797	793	768	758	770	795	803	804	780	768	769	767	768	768	774	780	798	806	808	798	791	791	796	792	787	777	778	778	788	798	790	787	796	811	821	820	808	801	798	798	787	779	765	769	781	794	791	787	781	775	775	770	769	765	763	777	781	779	771	772	772	774	784	784	788	794	795	787	778	783	783	799	806	800	797	787	774	771	764	764	770	775	779	780	775	764	748	748	740	755	768	780	788	782	777	777	784	788	782	762	752	747	755	755	765	786	793	793	790	782	782	771	760	759	759	772	775	775	762	748	741	759	763	764	764	766	768	775	779	773	773	777	775	771	771	767	776	776	780	776	772	761	768	768	763	760	770	778	776	776	765	754	749	749
0	0	0	0	0	840	821	799	775	775	775	778	791	834	881	881	892	896	890	851	828	801	801	781	784	805	812	821	821	820	830	842	867	883	872	872	853	840	845	865	881	882	867	872	861	852	848	847	861	870	870	859	844	819	808	836	863	880	880	869	848	838	847	856	846	819	804	804	814	822	814	792	773	761	781	802	802	812	819	811	819	842	859	861	870	870	883	875	864	854	838	827	824	819	820	815	815	805	795	790	795	797	800	816	818	822	821	821	832	832	826	814	797	800	809	808	808	796	796	796	802	827	839	850	849	846	835	818	817	825	825	835	845	845	839	835	829	833	843	840	843	844	841	846	850	843	827	795	795	773	790	819	847	870	873	872	863	858	854	860	861	858	851	830	807	801	801	808	817	828	836	848	863	880	883	884	887	882	867	853	840	846	864	871	849	849	870	879	877	877	871	861	853	851	854	867	873	872	865	854	841	833	847	860	865	885	885	875	875	883	885	882	870	864	866	867	861	851	819	819	811	819	838	857	886	902	907	902	893	873	859	838	824	827	830	835	824	816	812	821	836	846	851	860	877	880	879	875	873	880	875	876	868	863	857	852	852	867	881	875	843	817	816	823	838	853	870	870	866	869	869	866	869	871	867	866	865	861	856	857	858	861	866	881	892	902	913	914	916	919	925	941	929	917	880	875	904	917	917	903	890	886	881	880	862	862	865	864	860	851	854	871	884	885	879	878	883	888	896	897	869	856	844	841	857	874	894	906	909	899	887	871	858	864	875	900	907	873	831	817	821	828	842	853	872	872	855	832	812	817	829	841	845	846	839	842	844	839	850	850	849	844	844	846	862	867	875	870	864	861	857	868	875	875	868	857	851	847	848	863	871	873	872	870	869	853	839	818	802	825	854	863	842	817	800	808	818	832	842	856	861	852	847	847	844	833	825	831	848	858	861	852	830	830	808	813	830	843	854	845	837	825	814	807	820	839	846	845	850	853	859	858	852	851	844	837	831	832	825	818	818	818	812	812	796	787	791	803	813	826	831	834	830	830	829	822	818	826	837	850	855	854	841	833	822	822	799	781	780	783	788	788	797	813	827	833	816	804	800	800	793	787	783	783	793	802	803	801	795	800	803	809	803	804	795	782	772	766	765	765	755	756	778	793	798	790	779	784	793	795	786	775	775	772	774	781	778	778	790	806	813	811	806	793	790	790	781	769	765	769	770	780	782	780	774	769	769	766	766	778	783	791	789	778	763	755	755	758	764	770	773	773	768	774	782	786	786	789	790	787	797	787	778	769	763	763	763	772	777	769	757	742	729	729	726	738	760	773	786	778	777	777	779	786	777	760	745	743	749	755	765	773	776	784	784	782	782	771	756	757	760	756	750	750	744	747	759	765	771	768	768	762	754	757	764	773	773	770	772	773	771	769	770	770	781	783	779	788	775	775	746	745	748	761	761	740	727	729	727	743
0	0	0	0	0	854	853	821	809	809	784	776	787	815	859	859	892	896	888	896	873	828	828	804	791	802	816	826	829	829	838	850	855	858	862	850	850	843	851	876	886	887	872	872	861	859	850	851	858	858	856	856	841	820	815	815	864	882	881	881	860	841	835	844	847	834	819	819	819	819	815	792	773	764	764	786	786	802	809	807	811	824	831	835	827	831	831	839	843	829	817	813	810	802	799	791	791	788	784	779	782	797	812	816	818	839	832	832	834	837	825	808	797	800	801	803	792	785	791	791	800	819	833	844	850	842	835	825	821	841	864	866	858	858	845	833	834	828	829	840	843	820	831	843	854	848	832	799	799	775	783	813	841	850	853	850	840	828	826	831	848	852	847	832	812	806	812	812	822	822	828	836	842	861	875	872	873	879	874	850	841	844	853	857	849	844	858	874	864	864	861	852	852	852	849	854	859	860	852	831	834	842	858	869	869	869	879	881	877	877	865	857	837	846	860	868	861	830	816	816	806	817	823	830	841	856	874	884	877	868	848	828	825	843	849	848	835	817	808	817	839	856	863	865	854	859	860	862	870	879	872	876	868	863	844	845	851	868	878	869	846	820	809	808	826	837	849	855	858	864	872	872	879	872	859	856	859	862	861	857	857	866	878	887	892	890	882	886	878	880	893	909	907	880	861	880	899	904	910	902	891	886	888	883	875	869	867	861	856	849	855	869	866	856	851	861	875	876	874	842	851	840	846	850	858	873	892	904	898	883	874	866	863	863	881	895	903	877	832	816	816	821	825	838	854	859	842	824	812	815	832	841	843	831	832	862	871	869	871	871	863	863	851	841	849	850	854	854	849	853	861	859	860	860	856	839	834	839	848	863	871	873	873	851	831	820	817	818	824	833	844	848	838	804	790	795	814	829	836	844	843	836	832	840	846	836	827	828	823	828	838	836	836	826	816	819	830	842	852	850	836	819	811	805	809	823	835	840	848	848	849	852	857	850	842	839	838	843	843	833	830	823	818	818	807	801	791	803	803	813	815	823	822	821	815	808	804	817	827	840	842	837	834	822	812	812	809	804	792	778	765	759	771	794	815	823	818	807	802	800	795	789	783	783	792	792	791	785	792	798	803	809	815	814	813	797	783	771	771	755	751	744	755	769	780	781	776	774	783	782	777	766	766	767	772	773	764	764	770	779	789	790	788	785	785	788	781	769	768	764	767	772	775	776	776	776	773	771	769	779	791	792	786	773	751	738	738	733	743	742	745	743	747	763	772	772	777	781	790	787	782	778	772	767	767	761	761	765	762	757	744	727	711	711	720	742	768	783	784	780	775	775	777	780	778	767	756	743	743	749	760	771	770	774	772	772	772	760	754	747	742	745	754	754	758	760	767	772	779	779	770	748	732	757	764	766	766	770	778	779	771	765	765	766	774	774	772	780	780	780	751	751	756	735	735	711	705	727	727	743
791	0	812	812	841	856	852	852	845	845	828	807	798	810	838	838	865	876	888	896	899	860	860	819	804	814	822	839	841	841	853	851	852	850	841	847	847	847	851	857	860	873	870	870	858	859	846	837	841	842	840	840	836	825	815	809	821	831	829	829	814	812	820	828	838	833	828	828	825	816	811	799	773	764	764	778	778	798	799	800	804	809	806	802	787	786	786	796	810	819	807	802	800	798	792	788	788	783	783	780	786	797	816	828	832	839	832	828	828	825	815	804	790	793	794	781	771	787	798	795	795	803	818	830	839	833	820	810	814	833	846	846	837	837	834	827	826	820	819	821	817	820	831	836	851	846	825	799	789	789	790	811	830	837	836	831	827	822	820	826	838	849	848	832	816	808	814	814	819	819	818	819	827	844	864	869	874	874	866	851	841	840	843	837	834	844	858	864	861	852	852	852	855	849	844	842	840	830	821	815	818	826	841	849	858	852	857	879	881	870	853	830	820	834	846	845	831	830	830	835	835	839	832	824	829	847	863	874	874	862	852	845	840	846	852	854	844	830	822	824	849	869	869	859	854	844	840	846	843	836	853	853	853	854	844	845	851	857	866	865	851	833	817	823	828	838	846	847	842	852	870	870	878	877	865	859	858	858	857	856	860	857	865	880	887	876	866	850	839	838	847	862	869	864	859	865	880	890	890	900	898	893	890	889	884	880	876	871	865	865	866	870	862	848	838	831	848	862	854	830	826	836	849	851	845	863	883	893	887	866	863	876	884	881	879	884	876	849	834	823	827	812	802	789	791	798	809	808	812	827	839	834	822	812	833	864	879	879	877	879	872	872	856	845	842	834	816	815	824	831	842	840	838	837	856	839	834	839	854	865	868	863	838	837	827	817	807	806	816	826	837	842	836	806	793	802	817	827	828	832	828	819	819	834	838	839	826	816	816	816	811	823	823	828	821	823	824	839	848	845	827	813	800	799	798	807	823	832	840	844	840	834	837	841	841	837	842	849	849	843	838	836	836	830	807	801	808	813	806	801	802	808	806	803	799	799	799	807	814	816	815	820	814	802	802	793	795	796	794	783	772	763	765	766	778	779	773	770	778	790	795	786	783	783	780	783	780	783	785	798	804	814	823	824	818	803	783	766	766	753	750	744	749	760	771	771	762	760	760	756	770	783	783	790	787	776	761	758	756	761	761	763	766	771	771	788	773	760	763	758	759	765	767	772	781	781	786	786	782	781	791	790	781	760	742	742	729	730	735	740	742	738	731	743	759	759	777	781	780	774	766	760	759	758	758	765	768	763	753	751	745	743	743	740	747	757	768	783	791	782	782	767	768	769	775	767	756	757	757	762	767	770	773	767	760	760	754	749	746	738	724	734	734	755	765	765	771	772	774	774	762	748	732	739	745	755	755	764	779	786	758	757	757	758	761	760	751	754	754	770	773	761	757	734	734	697	705	727	752	782
