267	264	261	262	266	266	266	262	262	269	269	269	269	265	263	258	258	258	261	265	264	260	261	261	262	270	269	266	265	265	267	268	271	273	264	262	262	263	259	260	263	263	263	261	260	264	267	264	265	265	265	257	257	261	264	258	258	258	263	264	258	258	268	269	268	268	266	264	259	265	266	258	262	262	257	261	260	259	260	264	264	264	266	266	267	265	262	267	263	267	267	266	262	260	263	258	257	256	256	256	259	260	261	260	262	265	266	271	272	270	270	273	269	265	267	266	266	264	261	262	262	260	260	259	260	262	262	264	267	264	267	263	263	264	262	266	265	262	260	260	262	265	264	263	263	264	262	263	265	265	262	264	265	266	266	270	271	264	268	264	264	263	267	272	261	269	262	264	268	274	273	269	265	265	267	266	266	267	267	268	266	268	270	272	272	273	274	275	269	266	266	266	270	272	271	265	267	270	269	268	270	277	280	277	274	270	269	270	275	275	275	275	276	278	277	277	276	276	276	276	274	273	271	270	271	269	276	271	271	270	270	265	269	271	271	274	276	275	270	271	271	274	275	274	272	272	274	274	272	274	276	276	276	275	275	270	272	276	280	282	281	277	273	273	271	271	273	275	273	275	274	274	273	274	274	277	275	271	276	275	276	276	274	272	269	270	275	279	279	279	274	274	271	274	274	273	271	271	273	271	269	271	272	269	269	267	268	267	268	269	274	273	272	272	272	271	272	274	277	277	277	277	277	275	274	271	271	275	284	281	279	275	277	277	277	280	278	278	276	275	274	277	279	279	276	273	272	269	268	271	274	273	272	271	271	268	268	269	269	264	267	270	270	271	274	274	271	271	271	271	270	272	273	264	264	264	260	262	271	273	273	264	263	262	264	263	268	267	265	264	264	262	263	267	269	271	267	268	268	268	273	269	270	270	270	269	273	272	274	274	272	271	270	270	268	265	264	264	266	266	268	268	266	267	269	266	263	262	263	270	268	265	266	260	259	265	268	267	266	265	266	266	265	265	263	262	265	268	265	265	265	264	266	265	268	268	268	265	264	264	262	264	265	263	260	260	261	262	265	267	269	270	268	265	265	265	266	265	264	264	266	267	268	265	265	262	261	259	259	260	258	259	261	260	263	261	261	260	262	259	261	263	266	266	264	261	260	254	257	260	260	266	266	268	266	261	260	260	259	256	253	250	253	255	257	257	258	262	262	261	260	260	260	256	259	263	260	263	263	264	263	263	262	264	265	264	258	259	259	256	256	254	256	256	258	262	255	256	262	262	261	260	261	261	258	261	257	257	257	257	258	259	257	260	260	260	257	258	260	261	254	252	252	256	255	251	249	248	252	252	254	258	258	258	258	260	260	260	256	256	255	254	254	249	246	247	249	250	250	263	262	264	256	253	256	256	256	258	253	252	254	254	252	252	253	256	256	259	255	251	252	254	254	257	257	255	255	255	251	248
259	264	261	258	261	261	266	263	263	274	273	273	272	265	263	258	258	258	261	265	260	258	256	256	260	260	261	261	262	262	266	269	271	267	264	262	263	258	259	262	264	261	259	259	260	264	263	263	262	264	264	257	257	260	259	258	258	258	262	264	259	260	269	267	266	266	266	264	260	265	266	259	258	258	262	261	260	258	259	261	263	263	263	266	265	263	261	260	263	267	263	264	262	257	250	253	258	261	263	263	263	264	264	263	265	266	266	269	270	270	270	273	266	262	262	264	265	262	261	261	261	262	261	260	260	261	259	260	261	260	263	263	263	264	262	262	262	261	259	261	261	259	265	263	263	263	266	266	266	265	265	264	263	263	264	263	264	268	268	266	263	265	268	271	270	261	261	264	268	267	270	266	261	261	262	260	265	266	267	269	268	266	269	269	268	272	274	275	269	264	264	264	266	265	264	258	258	267	269	267	268	267	273	276	268	267	269	273	274	274	275	275	276	276	277	275	275	276	275	275	276	276	274	272	271	269	276	271	270	269	266	265	267	271	271	272	275	271	271	271	271	270	271	273	273	277	276	276	274	270	269	269	270	270	270	270	270	270	278	282	279	277	278	278	274	274	273	273	276	276	276	271	272	272	273	273	271	268	267	272	272	270	268	264	265	265	265	264	268	271	272	270	271	271	271	270	270	270	268	268	269	274	272	269	269	267	268	267	268	269	274	273	272	272	272	271	272	274	277	277	277	277	277	275	274	271	271	275	284	284	281	280	277	276	276	275	275	274	274	271	276	281	280	275	273	273	269	269	269	274	277	278	277	273	272	270	268	268	269	267	266	271	273	274	273	274	272	270	270	270	268	272	268	268	270	271	270	273	274	275	273	270	272	272	271	269	267	266	264	264	263	262	263	263	265	270	270	270	268	267	269	269	266	269	270	269	273	273	273	273	272	271	270	268	267	266	265	266	265	266	267	267	271	270	265	265	267	266	266	263	263	266	269	267	268	268	266	265	263	263	264	264	265	265	263	263	262	259	262	264	264	262	263	265	266	268	267	265	265	260	266	266	266	262	261	260	263	266	270	272	272	273	268	268	265	262	260	260	262	264	266	267	264	263	263	262	260	260	260	259	259	259	258	261	263	259	258	260	262	259	259	262	263	264	263	261	255	259	261	263	262	262	262	263	262	261	260	258	256	255	253	250	250	252	253	254	258	263	262	259	258	258	258	259	262	258	254	253	254	255	258	263	262	262	260	258	254	254	252	249	249	250	251	249	256	255	254	252	252	253	261	260	263	261	258	256	256	253	253	255	255	256	257	256	256	255	256	256	260	261	263	263	261	254	252	248	243	245	245	254	253	252	256	253	257	258	260	256	254	253	253	250	250	248	248	248	248	250	250	257	260	261	256	253	253	253	253	256	250	248	248	247	246	246	253	252	252	252	255	251	249	250	250	254	255	254	249	249	250	247
246	251	255	258	261	252	262	263	261	268	278	278	278	274	264	264	266	266	268	265	260	255	254	254	255	260	262	263	263	267	267	271	268	265	266	263	263	257	258	261	259	258	258	258	259	264	264	260	253	255	255	260	259	260	259	261	259	259	259	261	265	269	269	267	264	264	264	265	265	259	258	259	258	261	263	262	260	256	255	260	264	263	263	259	256	255	255	254	258	263	264	264	260	256	252	257	262	263	265	265	265	262	263	264	265	264	265	266	270	273	273	273	266	260	264	265	260	260	262	260	263	263	262	262	265	262	260	258	257	258	262	263	263	267	262	262	263	261	261	258	258	261	260	259	260	260	263	263	265	266	265	266	267	270	270	269	268	268	266	266	263	265	269	269	269	266	259	259	266	266	270	265	262	262	262	261	265	266	268	270	271	269	266	265	266	268	271	273	269	264	264	264	260	263	263	262	266	265	265	266	265	265	262	262	266	269	270	269	271	272	275	275	277	275	274	273	274	274	275	276	278	277	275	273	276	276	274	270	270	269	266	265	267	270	273	273	275	272	272	271	270	269	271	273	275	278	280	279	275	269	269	267	265	264	272	273	268	270	272	276	276	277	278	278	275	274	274	274	277	276	271	267	270	272	273	271	268	267	265	262	265	263	264	265	264	265	268	265	265	269	269	270	269	271	272	271	265	265	267	270	267	268	268	269	269	270	268	268	266	264	271	272	272	271	271	271	270	270	271	274	276	276	276	272	275	275	275	280	282	281	280	278	270	272	272	273	273	273	270	271	279	278	273	271	272	269	268	270	273	277	276	275	273	272	270	269	270	272	271	269	267	270	273	274	274	271	271	270	270	269	270	270	268	267	269	270	272	273	275	271	267	267	273	274	273	271	268	266	264	267	265	262	264	264	262	261	266	266	265	264	269	269	266	269	270	268	273	272	271	270	268	268	266	265	263	264	263	265	265	266	266	266	268	272	270	267	265	264	263	261	265	267	269	269	267	266	268	267	266	263	263	264	266	268	267	266	264	266	265	262	264	262	263	262	266	267	265	261	261	265	266	266	267	263	263	260	261	262	265	265	272	273	270	270	269	262	262	262	262	260	261	262	261	262	262	260	260	260	260	259	259	259	256	258	261	259	258	260	261	261	262	258	260	262	262	262	259	257	261	262	262	262	261	261	261	261	261	261	256	255	255	255	254	254	255	254	256	258	260	259	258	258	257	258	259	257	254	252	254	255	258	258	261	260	258	256	252	254	247	247	250	250	251	256	254	254	252	251	252	253	258	262	265	261	258	256	256	256	254	252	255	256	254	254	253	250	256	256	256	259	259	259	258	255	251	249	247	254	254	253	252	252	253	252	257	257	263	255	252	251	250	250	250	249	249	250	250	254	254	256	260	261	256	253	253	251	250	252	250	243	243	241	240	246	251	251	252	252	249	250	249	249	251	255	255	249	250	250	249	248
251	254	253	251	252	262	262	260	261	260	270	281	281	274	268	261	260	262	262	265	262	255	254	258	258	262	262	261	259	259	259	258	257	256	258	257	257	257	258	257	254	253	256	257	257	262	264	260	254	256	261	261	255	254	259	261	259	258	258	256	262	267	266	263	261	266	266	265	263	259	257	258	261	263	263	261	259	257	255	255	259	258	258	256	256	254	252	255	256	261	263	263	260	256	256	257	261	262	263	262	262	262	258	261	260	258	260	262	260	262	262	262	261	260	264	262	260	261	260	261	261	261	260	261	264	264	260	261	258	257	262	261	266	266	262	263	263	261	264	261	261	264	263	263	262	262	259	258	257	263	268	268	272	273	272	271	271	265	260	260	261	265	269	269	264	263	261	259	260	267	263	262	262	263	263	265	265	267	271	271	271	271	267	265	265	268	271	269	269	266	264	260	260	263	263	265	268	264	266	263	263	262	263	265	267	268	269	268	270	274	274	274	274	271	273	272	271	271	272	271	274	277	277	277	279	278	277	274	272	269	265	265	267	270	273	273	274	275	275	272	271	266	267	273	276	280	282	277	272	270	270	269	262	261	272	271	269	269	265	266	268	270	272	271	271	274	274	275	273	272	272	268	267	270	274	271	270	267	263	263	266	266	264	265	265	267	268	267	268	273	270	269	269	274	270	267	266	267	267	268	268	268	269	272	274	275	273	270	269	268	262	267	270	271	271	271	270	269	269	266	264	263	263	271	273	273	274	273	274	274	274	273	268	268	268	269	268	267	268	271	274	274	271	269	270	268	269	269	271	269	268	267	267	267	269	268	269	270	272	268	268	272	273	273	273	269	274	274	274	273	270	269	265	262	263	267	266	268	268	271	272	272	274	278	277	273	271	265	266	264	265	263	264	262	260	260	261	266	265	264	264	266	265	266	268	271	271	269	267	264	263	265	267	267	267	266	264	262	261	260	260	263	266	269	265	269	267	264	258	263	265	268	268	265	265	262	264	267	266	265	265	261	259	260	259	259	261	264	266	265	263	263	264	264	261	263	263	263	262	264	267	267	267	267	263	263	261	262	265	265	271	271	271	271	265	262	262	262	262	261	262	259	258	258	259	258	258	258	257	257	258	257	256	258	261	263	262	257	262	262	261	258	260	261	261	262	260	259	261	262	262	260	259	261	261	260	261	261	261	260	260	260	259	258	256	253	252	255	260	260	259	259	258	258	258	258	257	252	254	257	257	257	258	259	257	256	254	253	252	252	252	254	252	255	255	252	252	252	251	255	261	261	261	260	258	258	257	256	254	251	253	254	251	251	253	250	251	253	255	258	258	259	256	251	251	252	251	251	253	254	252	252	253	252	252	255	261	256	251	250	250	250	250	250	250	252	253	253	254	256	260	259	255	255	247	244	245	244	251	251	248	244	242	242	251	251	251	244	245	249	251	251	254	254	249	250	250	250	250	248
253	253	253	250	252	254	254	260	261	261	258	264	264	269	270	266	263	262	262	262	259	255	255	258	258	263	262	261	258	258	258	258	257	252	255	255	255	255	257	257	254	254	257	261	261	262	265	264	261	260	259	259	265	255	248	253	257	258	256	259	259	262	262	261	262	261	261	260	261	260	261	263	262	262	262	261	259	258	255	257	257	256	256	256	255	255	254	255	255	257	260	257	257	254	256	257	260	262	262	262	259	259	258	259	259	259	259	260	265	267	267	267	267	265	266	262	260	258	260	259	260	261	261	263	265	262	262	262	262	259	260	263	257	257	260	264	264	264	264	261	261	262	261	260	261	261	261	260	259	260	262	263	262	264	263	267	265	260	258	259	259	262	266	266	264	263	261	259	260	260	259	261	264	267	266	266	264	264	266	270	272	271	268	266	264	267	267	268	263	263	263	259	259	258	262	265	268	264	263	262	263	264	263	266	267	268	266	267	271	274	273	268	268	269	272	269	267	270	269	271	273	276	276	275	272	272	272	271	270	268	265	265	267	269	274	274	274	275	275	272	271	269	268	271	272	274	273	274	275	270	270	264	263	273	270	268	266	270	266	267	268	273	273	272	272	272	271	272	273	272	271	271	266	271	276	272	271	267	266	266	267	266	266	265	265	267	270	267	272	272	270	269	269	273	266	262	266	266	266	268	267	268	270	272	270	274	275	271	269	267	262	263	266	269	271	271	270	269	271	271	273	270	264	269	274	273	272	272	269	268	269	270	267	267	267	267	267	267	273	275	275	273	269	269	270	269	268	268	268	268	266	267	267	267	268	268	270	270	268	268	269	272	271	268	266	272	273	273	273	273	271	267	262	261	261	261	262	261	267	277	278	273	271	269	268	268	269	264	265	267	270	263	264	262	260	260	260	261	264	264	264	265	264	266	266	266	264	263	265	265	266	266	268	267	268	266	264	260	262	262	262	262	262	266	266	267	264	267	269	263	266	267	266	262	265	262	264	266	267	267	266	261	255	254	250	252	258	262	264	267	265	264	264	263	259	259	260	260	262	264	266	267	266	265	265	263	261	259	260	262	266	271	271	270	264	256	260	262	263	262	262	261	259	259	258	258	258	258	255	255	257	257	256	257	258	256	259	260	260	256	260	259	260	260	260	261	262	259	259	263	263	261	255	255	261	260	261	261	261	261	261	260	260	259	256	254	253	258	260	261	261	259	258	260	260	258	257	256	255	257	257	257	252	253	256	254	254	253	256	256	255	254	256	256	255	252	253	253	254	256	264	261	258	256	257	257	257	257	254	252	253	256	251	251	250	249	250	252	252	255	255	256	253	251	250	251	254	254	253	253	252	252	252	252	252	250	252	257	252	250	250	251	250	250	249	249	253	253	254	258	260	254	255	255	252	249	250	250	250	250	249	247	242	242	245	245	250	249	253	257	257	257	254	249	249	249	249	250	250	250
254	254	253	250	251	257	259	259	261	261	258	259	259	259	263	267	264	263	263	260	259	256	256	259	263	263	262	261	258	256	254	254	253	255	251	251	253	253	253	253	253	254	257	262	263	263	262	259	255	255	258	262	262	256	245	252	255	258	259	259	259	260	259	261	262	263	260	260	258	258	263	263	261	262	261	261	260	258	255	259	258	255	257	257	258	256	256	258	258	257	257	258	258	256	257	257	260	262	260	258	255	258	258	258	259	259	263	266	269	268	269	268	268	267	263	262	258	258	260	259	258	258	258	260	261	263	263	264	262	259	256	256	259	263	263	264	263	264	264	264	263	262	261	261	262	266	266	267	267	263	263	263	263	263	262	264	262	258	257	258	258	261	261	262	262	261	260	259	260	260	259	260	261	262	262	262	259	261	263	265	265	268	268	267	263	263	266	262	265	262	262	261	258	258	261	266	265	264	263	262	263	265	262	266	268	267	264	263	270	272	266	265	264	264	264	265	267	268	271	274	276	273	270	272	272	270	270	270	270	267	265	265	264	268	272	271	271	271	272	273	271	269	268	271	272	269	269	271	272	275	271	267	272	267	267	265	270	271	271	270	268	271	271	272	271	271	271	271	272	271	269	268	266	272	273	271	271	267	267	268	267	267	266	264	265	265	267	269	271	269	268	267	267	268	264	266	267	267	267	266	264	267	267	270	269	271	276	272	269	266	265	263	262	267	268	270	271	269	271	271	273	272	266	267	273	272	271	271	269	267	267	268	267	267	267	267	264	268	271	273	274	274	273	273	272	270	269	269	267	267	267	265	265	266	267	269	274	273	272	270	268	267	267	261	263	268	271	271	271	273	269	266	262	261	263	264	265	267	267	272	274	273	271	268	264	261	266	264	265	267	270	266	264	264	264	264	260	261	263	264	264	263	262	263	265	264	262	265	267	265	267	268	266	264	264	267	267	266	264	264	262	263	263	265	263	262	261	262	268	266	266	267	266	262	261	260	261	263	267	267	266	262	260	260	253	254	255	259	267	265	266	265	265	261	255	258	258	259	261	262	265	265	266	265	265	265	265	264	262	263	267	267	269	264	258	256	256	260	263	262	262	262	261	261	259	259	257	254	255	255	257	256	258	258	258	257	259	260	260	257	257	257	257	257	259	259	261	261	260	260	261	264	255	255	255	256	257	256	257	258	258	259	259	260	260	260	258	258	262	261	261	259	258	260	260	258	255	253	254	254	254	251	251	250	254	253	253	252	252	253	257	254	256	256	252	252	252	252	247	254	261	257	256	255	254	254	254	253	249	255	253	256	256	253	253	254	250	252	251	250	250	249	251	251	250	248	252	252	253	253	253	251	250	248	248	248	251	252	249	248	248	251	251	249	249	249	249	250	254	257	251	251	258	258	256	254	254	253	249	249	249	247	244	245	245	246	245	245	248	254	254	253	251	251	249	249	249	248	248	250
255	255	256	255	252	254	260	260	262	264	265	259	259	258	259	260	264	262	259	259	255	254	255	261	262	262	262	261	258	256	253	253	252	253	252	252	254	254	254	253	254	256	259	262	263	256	256	253	253	256	251	252	252	254	254	253	256	257	256	256	258	260	259	262	261	262	260	260	258	258	264	268	266	265	262	262	258	262	261	259	258	257	256	256	256	257	257	258	256	256	258	257	257	257	258	258	258	259	260	258	255	259	259	258	259	261	263	267	268	265	267	264	264	263	263	260	260	258	257	254	258	258	258	258	259	260	263	263	259	256	256	261	264	264	264	266	265	266	266	264	263	261	262	261	262	264	266	266	267	265	265	264	265	264	264	263	258	258	257	256	257	257	260	263	263	260	260	258	261	260	259	260	265	266	263	260	260	260	258	260	263	264	266	264	264	263	265	263	261	261	261	262	259	259	261	265	264	262	261	259	261	265	262	266	266	262	261	261	261	266	262	264	264	264	262	261	263	267	270	273	273	272	268	268	266	263	263	262	263	265	266	268	267	267	261	263	264	264	267	269	269	269	269	271	269	269	269	271	272	275	268	268	264	267	266	267	270	271	270	270	267	270	271	271	272	272	269	267	268	268	266	268	266	269	267	267	266	265	266	268	269	268	266	265	264	265	267	267	266	271	267	267	267	269	273	268	262	264	264	263	262	264	268	267	268	273	276	272	267	266	266	264	262	266	266	270	271	271	269	272	271	268	269	267	273	273	270	268	267	265	265	266	268	268	268	266	271	266	268	270	273	275	275	273	270	269	268	268	267	266	263	263	261	264	269	269	266	268	268	267	265	263	261	261	259	262	270	270	270	266	265	262	261	262	263	265	266	264	267	269	267	266	271	268	264	261	266	264	264	270	268	269	268	268	263	263	263	263	264	263	261	260	260	261	261	262	263	265	269	271	267	266	265	263	266	272	272	268	268	266	263	263	266	267	265	262	262	262	268	266	265	268	262	260	259	262	260	261	261	263	264	0	0	0	260	261	260	258	261	267	265	266	264	263	256	256	258	259	260	262	265	265	266	264	264	265	268	263	262	264	267	267	266	261	256	256	258	258	256	256	256	263	262	262	260	260	257	254	253	253	255	257	256	256	257	257	260	260	256	256	257	255	255	256	255	257	259	260	260	260	261	264	260	259	257	256	255	254	254	254	252	252	257	259	259	259	258	260	263	263	261	259	258	259	259	255	253	254	253	253	251	252	250	251	253	254	252	244	244	246	257	254	255	252	254	255	255	257	251	252	257	254	249	248	248	250	250	251	249	255	256	255	255	256	254	253	254	251	249	249	248	249	249	249	248	247	248	252	253	251	251	251	250	250	247	248	250	251	250	249	249	248	251	249	247	247	247	250	250	251	250	256	256	254	251	249	248	247	253	249	244	244	246	247	247	245	243	244	244	244	244	243	247	252	249	249	246	244	245	248
252	254	254	260	258	253	252	252	261	266	266	263	258	258	259	258	260	262	260	260	259	260	264	269	270	270	269	256	256	256	253	251	251	252	253	260	262	263	263	263	264	264	262	258	256	256	256	251	253	256	259	256	256	256	255	252	252	251	254	256	256	259	261	262	261	258	260	258	258	254	260	261	260	257	258	259	259	260	266	266	259	257	256	254	254	255	257	256	258	256	260	263	263	263	263	263	265	266	258	258	254	259	259	263	262	260	258	265	264	264	261	264	262	262	260	261	260	258	256	259	257	256	258	258	258	257	259	262	257	256	257	261	265	266	266	266	267	267	268	266	264	261	260	261	263	264	266	266	266	265	268	267	264	261	260	260	260	255	257	257	259	259	262	262	260	258	260	261	260	260	261	263	265	266	262	261	259	259	254	256	259	261	262	263	260	256	260	261	259	259	260	258	256	257	257	263	262	261	261	260	260	266	262	265	266	262	261	257	258	257	257	263	263	261	261	260	262	264	269	270	267	263	262	264	263	264	263	263	263	264	266	273	272	270	264	260	261	261	263	265	269	269	268	268	269	266	268	270	271	270	268	268	264	267	266	266	270	270	271	269	268	268	270	270	267	267	264	263	263	264	264	267	265	265	264	261	261	264	264	265	272	270	268	265	266	266	267	266	267	271	266	261	257	258	271	268	263	264	264	264	264	265	267	267	272	275	271	268	265	267	267	263	263	265	265	269	270	269	268	269	271	270	269	271	272	272	268	267	266	265	263	266	260	260	266	267	271	268	268	265	267	268	269	269	270	270	267	264	263	265	265	266	268	269	268	268	267	264	264	266	265	263	261	259	260	262	262	264	265	262	262	262	260	261	263	265	266	264	267	269	267	266	272	269	263	263	264	263	265	267	267	269	269	268	268	268	269	268	264	263	261	259	258	261	260	262	266	267	268	269	267	261	260	262	265	270	268	268	268	264	264	263	262	261	265	262	262	262	262	266	267	269	261	260	260	261	262	265	265	262	0	0	0	0	0	0	0	260	260	260	260	263	260	263	256	256	258	259	260	262	264	263	264	263	263	263	262	257	263	263	263	264	261	261	258	258	260	256	251	247	250	258	260	260	262	260	256	253	253	255	258	261	257	257	259	259	255	255	256	258	257	256	255	254	254	255	257	260	260	260	259	260	261	261	258	256	256	256	255	255	253	253	252	256	258	258	260	260	255	263	261	261	261	260	258	257	256	254	254	252	253	252	252	253	253	251	245	245	244	246	251	255	255	254	254	253	253	257	255	255	254	255	251	249	249	247	249	251	250	250	253	253	255	254	253	252	247	248	247	247	246	246	248	248	248	247	247	249	250	251	251	250	249	249	247	249	249	249	252	252	249	248	250	246	246	246	246	249	250	250	249	249	249	249	249	246	248	247	247	241	240	243	246	248	248	248	246	245	244	244	244	244	247	252	249	249	247	242	242	243
252	252	252	257	260	255	256	260	260	268	271	266	261	258	258	258	260	260	262	263	263	263	265	267	269	266	266	261	259	259	257	251	258	254	259	260	259	259	259	259	258	258	257	255	251	249	249	251	253	258	259	259	256	256	254	256	255	253	255	255	255	259	260	260	257	258	260	253	253	256	256	254	255	258	258	258	258	259	265	265	258	257	255	254	255	251	251	251	257	257	253	260	263	262	262	261	262	262	260	257	259	260	263	263	262	258	257	253	254	258	256	256	258	258	261	259	259	259	259	256	254	255	256	258	258	257	260	260	255	255	256	260	264	266	267	267	268	268	267	266	261	261	261	263	264	266	267	266	266	265	267	265	262	259	258	258	259	256	256	259	259	260	260	260	260	257	260	262	265	269	271	268	266	265	262	261	259	258	254	255	258	259	263	264	261	256	260	258	259	255	256	256	257	256	256	256	260	263	263	261	259	261	261	263	260	258	256	257	258	257	257	260	262	260	260	260	261	262	261	261	262	262	265	268	271	272	272	270	270	269	270	269	267	265	268	268	257	256	256	257	259	269	266	266	266	265	265	264	267	269	264	261	268	266	265	266	270	270	271	269	268	267	269	265	264	265	265	261	260	262	266	268	264	266	265	262	260	265	265	265	265	266	264	266	266	267	267	266	263	261	259	256	259	260	264	268	267	267	267	266	264	268	268	272	274	269	267	264	263	263	266	264	262	263	267	267	267	269	268	268	268	267	268	270	271	268	268	265	265	261	262	264	264	264	265	271	270	271	270	269	269	265	266	267	269	269	269	264	265	266	267	267	266	267	268	262	266	267	264	266	266	267	262	261	260	261	261	262	264	262	260	262	260	261	263	265	265	266	265	268	268	266	263	265	262	262	265	267	265	264	264	267	267	263	263	262	264	263	264	264	260	259	260	262	264	261	263	267	268	267	264	266	262	263	264	270	266	266	266	266	264	263	262	261	259	258	260	261	262	266	273	269	262	256	262	262	264	264	261	260	0	0	0	0	0	0	0	0	258	260	260	258	257	258	263	256	258	259	261	262	262	262	261	262	263	263	259	260	256	259	259	260	261	260	259	259	257	253	250	251	255	258	260	260	260	259	259	260	260	262	263	257	256	257	259	259	259	256	257	260	257	255	255	254	255	255	257	258	258	258	259	258	260	261	261	259	255	255	255	252	251	251	253	255	255	254	260	260	260	255	253	254	256	254	252	253	253	254	254	252	253	252	252	254	255	253	245	245	250	246	251	257	263	260	252	252	247	245	249	251	252	255	256	256	250	247	249	249	251	250	249	249	252	251	247	247	247	249	249	249	248	247	248	248	251	251	248	247	250	252	252	250	250	248	246	247	246	250	251	252	249	246	248	246	244	244	243	245	244	244	243	246	246	248	249	246	244	240	240	241	241	244	247	247	247	249	247	246	244	244	244	244	245	248	249	249	240	240	239	242
246	252	252	254	260	258	257	258	258	263	266	268	268	263	263	256	256	260	261	260	260	260	260	259	257	258	258	259	256	258	260	258	254	254	258	259	258	256	255	255	254	254	255	253	252	250	250	253	255	258	259	255	255	255	251	254	256	259	253	251	257	257	260	256	255	249	246	253	253	256	254	254	255	257	258	254	256	256	259	256	255	255	254	254	251	251	251	248	248	250	252	253	261	259	259	259	260	261	257	257	259	261	263	263	262	258	257	252	256	253	252	254	256	261	261	259	259	257	257	254	256	256	257	257	257	258	260	260	254	255	258	260	263	263	263	262	262	260	257	257	259	260	262	262	265	268	267	266	266	267	267	265	258	257	257	254	258	259	255	254	254	258	258	258	259	259	259	260	262	267	269	267	264	264	263	262	258	254	254	255	259	262	265	264	262	256	258	259	260	262	261	260	261	260	258	258	262	263	262	258	259	262	263	258	258	257	256	256	256	257	257	260	262	260	259	259	259	259	260	262	260	262	268	270	270	271	272	270	269	266	264	260	263	264	264	265	262	260	260	264	259	260	260	265	266	263	262	262	263	261	267	269	268	266	265	267	270	270	270	268	268	267	269	265	264	265	265	261	262	268	269	270	267	268	266	261	263	260	262	261	261	259	260	265	265	265	266	262	260	257	257	258	260	264	267	261	266	267	267	267	267	265	266	267	268	267	266	262	262	262	262	261	262	263	266	266	267	267	267	266	265	267	268	268	268	268	266	266	260	260	261	261	262	262	265	266	268	268	274	272	273	267	267	267	268	269	269	268	262	262	263	261	259	258	264	268	268	267	265	264	263	262	262	261	260	260	261	262	264	262	260	257	261	262	265	265	265	267	265	267	265	262	262	263	262	261	266	266	265	263	259	261	263	263	261	260	258	257	261	262	259	260	265	264	264	262	263	265	253	257	265	265	264	262	266	266	265	266	266	266	264	253	251	251	256	255	261	261	260	261	266	270	265	262	260	260	260	259	258	258	0	0	0	0	0	0	0	0	0	0	0	258	257	258	258	263	260	260	260	259	257	258	258	259	262	261	259	258	257	257	257	257	256	257	257	258	258	256	252	251	255	254	257	257	259	259	263	258	256	254	252	253	255	256	256	255	255	255	254	255	255	255	255	254	255	256	255	255	255	255	257	259	261	261	260	258	253	250	250	249	249	251	248	252	255	254	256	252	252	249	250	252	253	253	253	253	254	254	254	251	248	247	251	254	255	253	253	249	248	250	251	250	254	251	250	250	250	247	248	249	250	254	255	256	250	246	247	250	258	253	250	250	248	247	247	247	249	251	251	253	248	247	247	250	250	250	246	246	248	252	252	249	249	248	249	249	250	250	251	251	247	248	247	245	247	247	249	247	248	249	247	247	248	248	245	241	241	241	239	242	241	245	248	248	250	249	247	247	244	244	245	246	245	245	245	242	240	241	245	245
246	249	254	254	260	256	256	257	257	258	257	261	263	263	263	262	260	261	261	260	261	259	254	253	254	258	259	259	260	255	255	260	257	257	258	259	248	249	256	254	254	254	254	252	252	253	252	252	254	259	259	255	255	249	249	251	254	260	257	254	257	257	256	252	250	245	249	254	256	256	254	254	255	257	257	255	254	254	255	261	256	257	258	254	252	248	248	248	248	249	252	256	256	256	256	258	261	260	257	259	258	257	257	256	256	256	256	252	256	254	254	253	253	256	256	259	258	257	256	254	258	256	257	257	255	255	257	259	254	255	258	260	258	257	258	258	258	257	258	257	259	261	262	262	266	270	268	267	263	263	257	256	258	257	257	258	259	255	252	252	252	255	257	257	258	257	256	257	260	263	265	265	263	263	262	262	262	259	259	258	259	262	265	263	263	255	260	259	259	258	259	260	261	261	261	261	261	262	261	260	259	261	264	262	260	259	258	258	259	260	260	257	259	260	259	259	259	259	263	263	266	264	267	267	267	270	270	269	266	264	262	260	260	264	263	262	261	263	266	266	265	266	267	265	262	262	262	265	265	264	266	266	265	265	265	268	270	268	267	266	268	267	265	265	264	263	261	261	262	268	269	270	267	268	266	265	260	261	265	262	258	260	262	268	266	266	262	263	266	259	259	259	261	260	262	267	262	263	261	261	262	261	265	268	267	265	261	259	261	260	260	259	261	265	265	267	268	266	264	264	266	267	269	269	268	268	266	262	261	261	261	262	267	267	270	271	268	267	264	263	264	266	267	266	266	264	268	267	266	261	262	262	261	262	263	267	268	267	265	264	263	262	262	261	262	262	261	263	261	262	259	258	261	261	262	263	263	263	261	261	260	261	263	266	263	261	262	263	262	264	260	259	257	257	258	257	256	258	260	261	262	259	260	263	263	261	259	253	254	265	266	263	263	265	266	266	266	265	262	259	259	256	254	259	261	262	258	261	259	260	263	262	263	263	263	261	261	260	262	259	0	0	0	0	0	0	0	0	0	0	0	261	258	258	258	257	260	263	260	254	255	255	256	257	259	259	257	257	256	256	257	259	256	253	257	258	258	256	252	256	256	258	258	258	257	258	260	257	254	252	251	254	256	256	255	255	255	256	256	254	253	255	255	255	254	254	255	255	255	257	257	258	260	255	248	249	248	248	244	246	248	247	248	252	252	253	253	253	250	247	250	252	253	253	253	254	254	254	252	251	251	247	251	254	253	250	250	249	250	249	248	244	245	246	246	248	251	250	246	245	249	254	254	255	254	255	253	250	253	258	258	254	249	252	250	249	252	252	251	253	250	247	246	247	250	250	249	247	248	250	250	250	247	250	252	249	250	254	254	252	250	244	243	244	247	247	248	248	245	246	247	247	248	251	247	245	242	242	243	241	242	245	248	248	250	248	247	247	247	248	249	248	257	255	255	240	239	240	244	244
248	251	257	257	259	256	256	255	254	254	256	261	261	260	260	260	259	260	259	261	259	259	259	251	253	256	257	257	254	257	255	254	259	259	256	254	248	249	248	252	252	254	257	262	261	258	256	256	260	261	258	254	248	249	249	257	259	256	252	249	252	257	257	255	250	249	256	257	254	254	254	254	255	251	251	251	253	253	255	262	257	259	259	257	251	247	247	246	248	249	252	252	256	254	252	252	253	254	256	257	256	253	253	254	254	255	255	254	254	254	254	253	252	255	254	254	258	255	254	255	259	260	259	256	254	254	255	257	254	256	258	260	258	256	257	257	259	259	259	257	259	260	258	261	267	267	261	257	255	255	255	255	256	256	254	258	259	252	251	253	253	255	257	257	257	255	254	256	259	260	262	263	262	262	260	260	260	260	257	257	259	261	263	263	263	255	257	260	257	256	257	258	260	259	260	259	259	259	260	259	260	261	260	260	261	262	261	260	260	263	262	258	259	261	261	261	261	261	263	263	266	267	264	263	265	267	266	265	263	264	263	263	264	263	262	260	261	264	265	265	267	266	265	264	263	265	262	264	266	268	268	267	263	263	266	266	266	267	266	266	263	261	264	265	264	263	261	261	261	265	266	268	267	268	268	265	260	261	265	262	258	260	262	268	268	267	267	265	265	265	263	261	262	260	262	262	265	267	266	266	265	262	261	265	262	260	260	261	261	259	258	259	261	263	268	268	267	267	266	267	267	267	267	266	267	266	263	263	259	259	258	263	268	268	272	268	264	265	264	263	263	266	265	265	264	262	261	267	266	261	262	262	261	262	263	267	268	267	265	262	260	259	259	260	259	259	259	260	264	262	259	260	260	261	260	261	265	266	261	259	259	260	264	266	262	260	260	261	262	260	257	259	259	260	261	263	266	263	263	263	260	260	259	260	261	259	255	256	257	262	266	263	263	265	261	261	258	255	254	254	256	260	261	262	261	261	263	261	258	258	260	259	254	257	258	258	259	259	258	259	0	0	0	0	0	0	0	0	0	0	0	259	258	258	256	260	260	259	258	258	253	253	256	258	259	258	255	256	256	256	257	257	256	254	257	258	257	255	253	255	258	258	258	256	257	256	257	257	256	255	254	254	256	256	256	257	256	256	256	254	253	252	251	256	255	253	253	254	255	257	255	257	256	251	249	249	249	249	247	243	248	247	248	249	250	251	251	251	252	252	253	254	256	256	252	252	252	253	247	247	251	247	247	251	252	252	251	249	248	250	250	250	251	252	252	254	255	250	248	245	249	254	254	255	252	254	251	248	250	254	254	258	254	254	253	253	252	252	254	257	254	250	247	248	248	246	246	246	247	248	246	246	248	250	252	250	250	252	252	252	250	246	243	244	244	243	244	247	245	246	246	247	247	253	255	249	249	247	242	238	244	249	249	251	250	248	247	248	248	250	247	250	255	255	255	245	244	242	239	244
253	254	258	259	259	256	254	255	254	254	257	261	260	260	259	259	259	259	259	259	259	259	259	251	255	254	253	253	253	252	256	256	253	256	256	252	245	246	248	252	253	253	256	257	255	257	256	256	256	262	255	250	244	247	257	257	259	253	246	248	256	256	256	251	251	255	257	255	254	253	253	253	252	251	251	249	250	254	254	258	253	253	259	255	250	245	245	246	246	249	252	252	256	251	252	252	250	253	255	256	253	253	253	254	253	253	257	254	252	252	253	253	252	249	250	250	253	252	253	257	258	258	256	254	254	252	252	254	254	254	256	256	256	256	257	257	259	259	259	259	256	253	251	252	254	255	253	253	253	254	254	252	252	253	253	256	257	252	251	253	255	257	254	252	252	252	252	251	254	255	260	261	261	261	259	256	261	259	257	257	260	257	259	260	261	254	257	260	257	254	255	255	256	258	259	258	258	258	258	257	259	259	258	259	260	262	262	261	259	259	262	257	256	260	262	262	263	263	267	268	271	267	264	263	265	264	264	263	263	263	261	261	260	261	262	261	261	264	266	267	267	266	263	261	261	265	268	267	263	264	266	266	267	266	263	263	265	267	266	264	260	261	259	262	258	257	255	255	261	262	263	265	266	264	264	260	265	267	269	265	265	266	267	269	268	267	267	265	265	265	263	261	262	260	262	262	265	267	270	270	267	266	264	264	260	260	260	261	260	260	258	258	261	262	264	269	272	267	267	271	272	267	265	262	262	262	262	261	261	260	261	264	271	271	272	268	264	265	264	263	263	266	265	265	264	262	261	265	266	262	263	262	261	260	262	264	266	265	263	261	259	257	256	260	260	260	255	260	259	260	261	260	260	261	261	260	266	266	263	260	258	259	263	264	260	261	261	267	260	260	258	259	259	259	258	259	259	259	262	263	260	258	254	257	260	260	255	256	257	262	265	264	269	265	268	268	259	254	254	258	260	262	263	262	260	265	263	261	260	258	258	254	252	253	257	257	259	259	261	258	0	0	0	0	0	0	0	0	0	0	260	257	257	257	257	260	263	261	260	257	258	258	258	258	257	257	255	253	253	252	255	257	256	254	257	258	257	256	253	256	260	260	260	257	257	257	257	258	256	256	257	256	255	250	250	253	256	256	255	253	252	250	253	254	257	255	255	253	254	254	255	255	253	253	252	251	251	249	247	243	248	247	247	247	248	248	248	247	250	253	251	250	251	251	249	249	249	249	247	247	247	249	250	252	251	251	247	245	249	251	253	254	255	255	0	0	0	250	248	245	249	249	250	249	252	250	253	250	248	248	249	253	247	242	253	253	252	252	255	255	253	248	247	247	247	251	251	252	248	246	246	246	248	252	251	250	250	250	250	249	249	249	247	244	244	243	244	247	245	243	243	242	242	245	246	243	243	243	242	239	240	245	249	251	249	247	241	239	239	244	247	249	251	251	246	244	243	242	239	239
257	257	259	258	258	257	257	256	254	257	257	259	259	258	254	254	254	256	257	258	262	260	260	253	255	254	253	252	252	252	255	253	254	251	251	247	246	246	248	250	253	253	252	251	253	254	254	254	254	252	250	244	247	257	261	261	259	253	246	251	253	254	254	251	252	253	257	256	252	250	250	249	247	245	245	249	250	253	253	255	247	252	249	249	248	248	245	245	249	250	250	252	253	251	252	252	252	253	260	255	255	254	254	251	252	252	254	256	252	251	253	254	255	249	250	250	249	252	255	258	256	257	256	254	250	252	252	254	254	255	256	255	255	255	255	257	259	259	252	253	252	250	251	251	254	255	255	251	252	251	251	251	250	250	250	251	252	250	253	255	255	257	254	253	253	254	250	250	254	258	256	257	256	259	256	262	260	259	258	262	262	257	257	258	254	251	254	258	258	254	255	255	256	254	255	257	258	258	259	258	257	256	256	256	258	260	262	262	260	260	259	255	257	259	261	262	263	263	267	266	274	274	264	262	264	264	264	263	263	261	258	257	255	256	258	258	256	260	263	263	263	265	261	261	265	265	268	264	262	263	264	264	264	262	260	263	264	264	264	264	263	259	260	258	258	256	257	259	259	260	263	263	260	259	260	264	267	267	264	265	265	268	268	265	265	265	265	265	264	262	265	262	262	262	259	261	263	267	270	270	267	266	264	264	260	260	260	261	260	260	258	258	261	262	264	269	272	267	267	271	272	267	265	262	262	262	262	261	261	260	261	264	264	271	266	265	265	264	260	261	263	266	267	265	262	260	259	261	261	262	264	261	261	261	261	260	261	262	262	261	260	259	257	261	261	265	259	256	259	259	260	259	256	256	257	259	262	263	260	261	261	259	260	261	260	264	267	264	269	261	258	258	255	255	255	256	257	261	260	261	258	257	254	257	260	260	255	254	255	259	264	265	266	258	258	260	262	260	255	261	259	265	265	265	261	263	264	261	262	258	254	254	258	253	253	256	258	260	261	259	0	0	0	0	0	0	0	0	0	259	256	256	256	256	257	262	263	260	259	259	260	259	257	257	255	255	255	255	252	252	255	256	255	253	256	258	257	256	256	255	258	258	258	257	256	255	256	256	259	257	257	258	255	255	250	253	253	253	253	253	254	252	252	256	256	256	255	251	250	249	254	255	253	253	252	248	251	249	248	250	252	248	247	246	246	247	247	246	250	250	250	247	248	248	249	249	249	249	247	242	244	245	247	251	251	250	245	243	246	249	251	250	0	0	0	0	0	0	0	0	0	0	249	249	249	249	249	251	253	253	249	248	247	242	246	247	247	251	253	252	249	246	247	247	247	251	252	250	247	246	246	246	247	249	249	249	249	249	248	248	246	247	247	247	245	243	244	239	242	241	241	241	239	241	239	243	243	247	246	243	240	240	245	246	245	243	242	242	244	240	244	251	247	247	245	244	243	246	246	245
259	258	258	257	257	257	261	254	251	255	255	259	259	253	251	250	250	251	256	260	263	259	259	256	256	255	253	252	252	252	252	250	251	250	247	247	246	247	249	251	251	251	252	251	251	251	252	251	251	249	247	248	264	261	260	260	256	246	244	251	253	252	252	252	251	255	257	253	254	251	251	251	249	249	248	247	247	253	255	252	250	249	251	249	250	252	250	250	250	251	251	252	253	251	250	252	252	253	252	257	256	256	255	252	251	253	253	254	255	251	252	253	251	250	246	249	249	252	257	260	258	256	256	254	253	253	255	255	255	255	254	255	250	251	252	255	255	252	252	253	248	247	247	252	251	249	249	247	249	249	252	252	251	250	251	250	247	249	252	256	253	256	254	253	254	251	249	254	254	257	258	255	254	255	258	256	262	259	259	259	259	257	254	252	254	250	252	251	254	253	254	255	256	254	255	259	260	260	260	257	256	255	255	255	257	259	261	261	260	257	256	255	256	258	259	262	266	265	265	264	267	272	270	264	261	263	262	262	261	261	258	257	255	259	257	256	257	260	261	263	259	259	258	259	261	264	265	264	261	262	263	262	261	260	260	261	261	263	263	262	261	259	260	258	256	255	253	256	256	259	259	257	258	258	258	260	262	264	264	264	269	269	268	266	265	262	262	260	261	260	262	262	261	260	259	262	263	265	266	266	266	265	265	265	261	261	265	264	263	262	260	260	262	263	264	262	262	264	268	265	266	267	261	262	260	261	261	262	265	272	271	270	270	261	260	260	260	259	255	262	263	267	267	264	262	260	259	261	260	260	264	266	262	262	260	262	256	256	256	257	260	265	265	265	265	263	260	256	259	260	259	259	257	257	259	259	260	262	267	265	265	262	260	254	252	252	263	269	265	261	255	255	253	254	255	256	259	259	260	261	258	257	256	251	256	259	256	254	254	257	259	265	261	264	264	266	260	259	259	259	261	262	264	259	255	259	259	261	255	258	252	253	255	259	259	261	258	260	261	259	259	260	256	254	253	253	255	256	257	256	256	256	256	258	256	258	263	262	259	255	255	256	256	256	253	253	255	255	252	251	252	253	255	254	256	256	256	255	253	253	253	255	256	255	252	252	251	251	254	252	252	258	255	255	250	253	253	253	253	253	252	252	252	256	256	256	255	251	248	248	252	253	254	253	252	252	248	249	252	251	251	252	251	247	244	244	244	251	251	251	250	246	246	247	249	249	248	248	246	246	245	247	250	249	249	245	242	244	245	249	249	0	250	0	0	0	0	0	0	0	0	0	0	249	249	248	249	252	252	251	249	248	247	246	240	242	242	246	249	252	250	250	250	250	251	250	250	250	247	246	246	249	247	247	249	249	249	247	247	245	246	246	246	247	245	246	243	241	240	240	239	237	237	236	241	241	248	246	246	243	243	243	246	246	247	245	242	242	244	244	243	246	246	247	245	245	245	247	247	245
257	257	256	251	258	258	257	251	249	253	253	254	255	253	251	249	249	252	254	258	259	256	256	255	255	256	255	252	252	252	249	246	248	249	248	248	247	247	248	250	252	251	251	248	251	251	250	255	249	249	247	257	259	256	257	254	254	247	243	251	250	252	252	250	250	252	255	250	253	252	249	249	251	251	248	246	247	252	252	252	250	253	250	251	255	252	253	253	253	254	253	252	251	252	252	255	252	252	252	257	251	253	254	253	252	251	251	250	248	251	254	251	251	252	245	246	246	251	257	260	260	256	253	255	253	254	253	253	254	255	254	250	249	250	252	252	254	248	248	248	248	247	252	253	254	253	251	251	251	249	249	250	250	252	252	249	246	251	252	252	252	254	253	255	251	249	249	254	254	255	257	257	258	259	256	261	261	257	256	255	255	255	251	253	252	253	251	251	251	253	254	255	254	255	256	259	260	260	259	255	255	253	251	255	257	256	255	257	257	256	255	256	257	258	262	263	265	264	264	262	262	264	268	264	260	260	261	259	258	262	261	259	257	259	257	256	257	260	260	260	259	259	257	258	261	267	266	264	262	261	261	260	259	259	259	260	261	261	261	259	260	260	260	259	256	254	253	254	254	257	257	255	258	258	258	257	255	261	265	262	265	268	266	265	265	259	256	257	258	259	259	259	257	255	260	262	262	264	264	264	267	267	264	262	261	262	264	262	261	260	259	260	262	264	265	264	260	260	260	261	262	262	264	259	259	260	261	262	267	268	267	263	263	258	255	255	259	259	262	260	265	269	268	265	262	260	259	259	259	261	263	263	266	265	263	259	260	258	256	256	261	262	263	263	265	261	261	260	258	260	260	260	257	256	257	258	256	257	265	264	262	261	255	252	256	264	265	269	264	259	259	253	253	252	255	256	259	259	259	259	257	256	255	253	254	254	258	258	257	256	255	259	264	264	258	263	261	260	262	258	256	256	256	255	259	257	259	255	255	251	251	252	255	255	259	261	258	259	259	259	260	260	258	256	257	257	259	258	257	256	256	257	256	256	256	257	257	256	253	252	251	250	255	256	253	253	253	252	252	251	252	252	253	255	255	254	255	253	252	252	252	254	254	253	248	248	248	252	245	252	252	254	254	256	254	254	255	256	253	252	251	252	252	251	251	252	246	244	244	247	247	253	254	251	248	248	248	248	252	252	252	251	252	251	248	248	249	252	252	251	248	246	246	247	247	247	247	245	243	245	247	249	248	248	248	248	242	245	246	246	249	0	0	0	0	0	0	0	0	0	0	0	0	247	248	247	248	250	252	251	248	248	248	245	250	250	244	242	244	249	247	244	244	244	249	250	250	247	246	246	248	249	249	246	246	248	248	248	246	244	244	246	246	246	245	247	245	243	242	242	239	238	237	237	244	244	248	246	246	243	244	244	245	247	247	246	246	246	244	241	240	246	246	245	244	245	244	244	245	239
257	257	250	252	251	251	252	252	250	248	249	249	252	249	248	249	252	252	254	256	256	254	252	252	252	253	252	252	251	251	249	246	248	250	248	248	248	246	248	251	249	249	249	242	246	249	250	255	245	245	245	252	252	249	251	250	250	247	241	245	249	252	250	250	250	246	248	250	252	251	249	249	249	253	251	248	247	251	249	253	253	253	250	246	248	250	254	254	254	255	250	248	244	246	258	257	254	254	250	250	251	253	254	255	252	247	248	248	253	252	251	250	250	248	250	242	245	245	251	257	260	256	253	253	250	250	250	251	251	249	246	243	245	248	252	254	254	247	249	249	249	250	252	253	254	255	254	252	252	250	248	249	249	251	252	251	249	246	251	250	252	251	251	251	246	250	250	253	254	255	258	258	257	259	259	258	256	256	255	254	253	254	254	251	252	253	253	252	252	252	255	255	255	256	257	257	256	259	255	255	255	249	249	255	259	255	254	251	255	255	255	254	258	260	262	262	262	262	261	261	259	260	261	263	262	262	258	257	257	262	260	257	257	256	257	253	255	253	260	260	259	257	257	256	259	266	264	265	261	259	259	258	258	258	258	260	261	262	263	260	258	259	259	259	257	256	254	254	254	254	255	256	258	256	257	255	256	260	264	262	262	262	264	263	261	259	256	257	257	258	259	258	255	254	260	262	262	262	262	266	266	265	262	263	262	262	261	260	260	258	257	257	257	258	259	262	262	260	260	262	264	262	260	258	258	258	256	260	259	261	260	259	259	256	253	254	256	258	260	262	261	261	262	264	262	261	260	261	261	261	261	261	262	265	265	261	261	258	256	256	258	261	262	262	263	261	260	260	260	262	261	260	258	257	257	258	259	259	261	259	259	257	255	260	256	263	269	266	263	259	259	253	253	252	255	258	259	260	257	257	256	256	259	258	254	254	257	257	257	255	254	253	249	249	253	255	259	260	258	262	256	255	255	255	258	258	256	253	253	251	251	252	255	255	257	258	256	254	258	257	257	255	257	257	256	256	257	256	257	261	261	0	0	0	0	0	0	0	247	256	257	250	255	256	252	252	251	251	252	252	252	251	254	251	252	253	253	254	254	254	255	255	255	249	249	250	248	252	245	248	249	250	250	254	253	252	250	252	253	253	252	252	250	249	249	244	243	243	242	247	247	251	250	249	249	248	248	247	246	253	252	251	250	248	248	250	251	251	252	251	248	246	247	246	246	246	241	243	240	240	246	247	248	248	250	248	245	243	246	246	246	0	0	0	0	0	0	0	0	0	0	0	246	246	246	247	248	248	250	250	247	247	246	248	250	250	245	241	243	241	240	240	240	244	249	249	248	245	243	243	243	242	244	245	244	247	247	247	244	244	244	243	243	245	246	247	248	244	244	243	240	241	240	239	237	244	246	247	250	250	250	250	250	250	251	246	246	241	241	241	240	239	239	242	244	245	245	245	238	240
248	248	250	252	250	250	252	250	249	247	244	244	245	244	246	249	252	252	254	255	258	252	249	249	247	251	253	252	251	251	247	244	248	250	243	242	242	241	240	243	243	248	241	241	240	243	250	248	245	245	247	251	247	245	246	248	248	248	239	238	246	245	241	240	240	246	248	249	251	251	248	248	248	249	250	250	247	246	249	248	248	246	245	246	248	250	254	255	256	256	252	253	250	250	248	259	250	249	249	248	250	253	254	255	251	252	252	252	252	247	252	250	251	246	250	240	241	241	246	250	253	251	253	253	250	247	248	247	247	249	249	246	252	251	251	254	255	249	251	251	251	252	254	256	255	255	254	254	250	248	249	250	253	253	250	252	247	247	248	247	248	251	248	246	250	255	257	257	257	258	258	258	257	254	258	255	253	253	253	254	255	256	256	254	253	253	252	254	255	255	254	252	251	251	251	254	253	253	253	253	248	249	249	255	256	256	251	249	254	256	255	254	256	260	262	258	258	259	259	259	256	256	254	256	262	260	255	256	256	258	259	256	254	253	255	253	253	252	253	254	256	256	256	256	259	266	264	265	263	258	257	257	256	256	258	259	259	259	259	261	259	259	257	258	259	259	257	259	258	258	258	259	258	257	258	256	257	258	259	263	261	261	260	257	260	257	254	257	258	258	258	259	260	262	264	264	263	261	258	259	259	260	261	260	260	261	261	261	258	256	255	255	254	254	256	256	259	260	259	262	261	259	261	261	259	258	258	257	259	259	257	257	257	258	255	254	255	253	255	259	253	253	259	262	263	261	261	261	261	260	259	260	261	261	266	262	260	258	256	255	258	260	260	262	260	261	261	261	261	261	262	261	260	259	260	259	259	261	260	258	258	258	256	256	256	263	269	266	263	263	258	255	253	255	253	256	259	260	258	254	255	259	258	257	254	254	255	255	254	253	252	249	249	248	251	253	254	259	263	260	255	260	261	264	262	258	256	253	253	251	251	252	252	253	256	249	255	255	257	257	257	255	255	255	257	256	253	0	0	0	0	0	0	0	0	0	0	0	247	256	257	253	251	253	251	251	249	249	249	250	251	254	257	256	255	254	251	250	249	249	251	254	254	252	249	250	253	246	246	246	248	248	248	247	247	247	244	246	249	253	252	249	249	249	243	241	244	243	242	244	246	246	248	244	244	247	247	247	245	251	251	247	248	249	249	249	250	251	252	250	248	247	246	246	245	243	243	242	242	241	245	247	247	247	249	248	245	243	247	248	244	244	245	244	246	247	247	249	249	249	251	247	245	244	246	247	248	248	249	248	247	251	249	243	243	245	244	244	240	239	240	240	240	244	246	250	245	243	242	242	240	239	239	240	242	242	242	247	244	242	242	241	241	243	245	249	250	246	246	245	247	249	240	239	239	241	244	245	247	248	248	247	248	246	246	243	243	241	241	240	239	239	241	242	242	244	241	241	236	238
246	246	249	249	250	252	254	250	251	249	247	247	247	245	245	248	253	253	255	255	255	248	248	247	247	250	250	252	248	245	245	249	247	246	243	242	244	244	245	251	252	246	245	245	245	247	242	241	243	247	247	251	245	242	245	247	247	247	239	236	241	240	239	240	247	247	248	249	251	247	246	245	245	246	247	247	251	247	247	243	244	244	243	244	249	250	254	254	255	255	255	251	252	252	249	250	250	250	250	248	247	249	249	248	251	252	251	250	250	246	250	250	250	251	241	240	242	244	244	248	247	249	248	248	250	247	248	248	250	250	254	255	252	252	249	251	251	250	251	252	252	252	254	255	255	255	254	254	250	248	251	251	252	252	249	248	246	244	244	243	246	246	245	244	251	255	257	257	258	257	256	254	254	254	258	255	252	251	251	253	257	258	255	255	254	249	253	255	256	254	250	249	249	255	250	249	251	250	248	249	249	250	251	253	256	256	251	249	252	255	255	253	254	256	260	257	255	255	256	255	255	254	251	253	261	262	255	254	254	255	252	253	253	253	255	255	252	253	248	253	252	253	253	253	257	260	262	263	263	258	257	257	256	256	257	255	254	257	256	256	257	254	256	258	260	259	259	260	260	260	258	258	256	255	258	261	260	260	260	260	258	256	256	256	257	254	259	261	260	257	257	257	260	263	264	264	262	259	257	257	257	260	262	259	260	262	261	261	259	259	257	257	260	260	263	263	262	258	257	258	255	256	259	260	260	260	258	256	258	259	259	259	259	258	254	254	257	256	255	253	251	251	256	259	261	261	259	259	261	260	260	264	262	263	264	260	259	256	255	256	258	254	254	260	262	266	265	264	264	264	264	263	259	258	259	264	263	260	260	258	258	258	256	256	255	261	263	260	261	261	256	255	255	255	255	256	257	259	254	254	254	259	258	255	252	254	253	251	252	252	253	253	253	255	255	253	254	264	260	258	258	254	261	265	262	258	256	250	251	251	252	252	254	255	254	254	254	257	257	256	256	253	251	251	255	256	0	0	0	0	0	0	0	0	0	0	0	0	0	246	256	256	251	250	250	251	251	250	251	250	251	251	250	251	252	250	249	245	245	244	244	249	254	252	251	255	254	246	246	246	248	248	246	248	246	246	247	248	248	250	253	251	251	245	243	241	244	243	242	241	245	246	247	247	244	246	246	247	246	246	251	241	243	243	247	249	250	252	252	248	246	246	244	244	244	245	245	245	243	244	245	246	246	243	249	248	246	246	245	244	244	244	243	244	245	245	243	245	249	249	250	247	245	244	244	246	244	244	245	243	242	244	246	244	244	242	240	240	240	239	240	240	240	243	245	245	241	240	240	239	238	238	238	239	239	242	242	243	244	241	240	240	240	243	247	247	240	240	240	239	247	249	244	242	242	244	246	246	243	240	240	241	242	241	238	246	243	237	237	240	245	245	245	245	244	242	242	240	237	238
246	246	248	251	253	254	254	249	250	249	248	248	248	247	247	246	248	256	256	259	255	248	246	248	248	248	250	246	244	244	244	246	243	245	246	244	244	244	249	250	250	248	246	246	245	240	242	243	246	247	247	247	245	242	242	245	247	246	246	243	238	243	242	241	246	246	248	247	246	247	246	245	244	244	243	244	244	246	244	246	243	243	243	243	248	250	250	254	255	253	253	250	251	251	248	250	250	250	250	250	249	248	248	249	249	252	251	250	242	248	247	248	246	242	244	244	245	250	249	249	247	248	248	248	248	250	250	248	250	251	254	255	254	252	248	252	252	252	252	252	252	252	254	255	255	257	252	249	250	251	251	251	248	248	248	248	246	244	244	245	246	245	244	249	250	252	254	251	251	249	250	250	250	253	256	253	252	251	251	255	256	257	258	258	258	251	249	252	254	252	250	249	249	255	254	249	249	247	247	245	246	246	249	253	254	254	249	248	252	255	255	251	249	250	255	254	253	255	254	254	254	254	250	252	257	255	254	252	253	254	250	252	252	256	256	255	253	251	250	246	252	252	253	253	256	257	257	258	261	258	256	255	256	256	257	255	254	257	256	255	253	252	255	258	260	259	259	260	260	259	259	257	254	254	257	259	259	258	257	258	257	255	256	255	256	261	264	263	259	258	256	257	259	260	262	262	260	258	257	258	258	258	261	260	261	260	261	263	262	261	260	260	261	263	265	262	263	261	257	255	254	253	255	255	256	257	256	259	259	259	257	256	256	258	258	258	259	258	259	258	260	252	254	255	255	258	256	259	259	261	260	264	264	264	257	253	253	259	259	259	255	254	254	256	254	258	259	260	261	260	260	259	258	258	259	264	263	260	255	256	261	254	255	255	254	256	255	261	261	256	255	255	254	255	254	254	253	252	253	254	254	258	257	253	251	252	252	251	252	253	253	253	254	255	253	253	252	255	257	254	258	254	261	265	261	257	255	251	249	252	256	256	256	255	250	248	252	259	257	257	258	256	251	252	255	253	0	0	0	0	0	0	0	0	0	0	0	0	0	250	254	254	249	245	245	249	246	250	257	257	250	248	247	246	250	249	248	243	243	244	244	249	253	254	254	253	251	250	245	246	246	248	245	246	246	246	245	246	245	246	248	248	251	245	243	244	241	243	242	242	244	247	247	247	245	246	247	248	246	246	244	246	247	243	247	250	250	249	249	245	243	242	244	244	243	245	246	249	249	249	247	243	246	243	244	249	248	244	245	242	242	244	244	244	246	244	244	240	240	244	250	247	244	243	242	244	244	245	243	245	250	248	244	244	244	243	242	240	240	239	238	238	240	242	242	238	239	233	233	239	238	238	237	239	239	239	240	242	242	239	238	238	240	242	244	238	232	232	231	239	244	241	246	246	245	246	244	244	240	240	239	241	241	241	238	238	238	237	240	246	246	246	246	244	243	242	242	238	237	238
247	247	249	255	252	251	249	249	250	247	245	245	245	247	245	245	250	255	255	252	249	248	246	248	241	242	241	242	238	242	244	244	243	244	245	248	247	247	249	250	242	242	244	246	246	245	243	242	247	249	248	248	245	241	242	245	242	243	243	248	247	243	241	244	246	246	246	246	246	251	247	245	244	246	245	242	243	243	247	244	245	243	243	245	249	249	250	252	254	253	253	250	250	245	248	248	250	250	250	250	249	248	250	252	255	252	248	242	248	248	247	241	243	242	244	250	251	249	246	246	247	249	252	250	249	251	251	249	251	254	254	255	255	253	254	252	256	258	256	254	251	250	250	254	259	258	250	246	248	249	250	248	248	248	248	250	248	246	247	246	245	244	245	247	248	249	247	248	248	251	250	250	252	252	252	252	251	251	253	255	256	257	253	254	254	252	250	253	253	251	253	253	252	252	253	252	249	249	248	246	245	245	249	253	254	251	249	250	254	254	251	251	249	250	255	250	250	250	251	253	253	253	250	252	255	252	252	252	254	257	258	258	254	255	256	256	254	251	251	250	249	253	256	257	257	258	255	255	253	253	253	250	251	253	252	253	258	259	256	255	253	252	255	258	260	257	259	260	259	259	259	257	255	255	257	258	260	259	257	254	253	257	257	258	259	259	259	257	259	258	257	256	258	259	259	260	259	258	258	259	259	258	260	260	259	256	259	265	266	262	259	260	261	262	263	260	260	258	254	254	254	260	261	260	259	259	258	260	259	256	255	256	256	258	257	257	259	259	260	260	256	256	252	259	260	253	257	256	260	259	259	257	255	255	254	252	253	254	256	256	253	253	255	255	255	258	259	260	261	260	260	259	258	258	259	260	261	257	254	254	255	258	259	256	252	254	255	255	255	255	257	254	254	253	254	252	253	252	252	251	252	256	256	252	249	250	250	249	252	254	254	254	253	254	258	255	254	255	257	254	254	259	259	260	258	254	254	248	249	253	253	254	253	251	251	253	253	254	255	253	253	252	251	252	255	253	251	0	0	0	0	0	0	0	0	0	0	0	256	255	253	248	247	247	244	244	243	251	252	251	250	243	242	243	252	252	248	248	243	243	242	241	246	249	249	248	249	247	247	246	246	245	245	249	250	246	244	242	243	245	248	248	248	247	247	244	241	243	243	244	247	247	247	249	248	246	247	248	243	243	244	246	246	247	247	247	246	246	246	244	242	241	241	242	245	244	243	240	239	245	247	247	243	242	245	243	249	247	246	243	243	243	245	245	243	243	243	239	240	244	242	233	247	244	246	245	245	244	243	245	247	244	244	244	241	243	242	241	240	240	240	238	240	239	239	238	237	237	239	239	239	238	237	238	238	238	239	240	238	238	238	238	236	244	240	242	240	232	231	234	242	240	239	239	244	244	244	241	240	240	238	239	241	242	242	241	241	243	246	247	247	244	243	242	241	240	242	238	237	238
250	250	253	253	254	251	251	251	249	247	245	243	241	241	242	246	252	256	254	254	247	245	242	241	242	242	242	240	238	240	239	239	244	244	244	245	247	248	248	243	242	242	244	245	245	241	240	243	247	251	246	246	242	241	240	241	242	243	248	248	245	244	244	248	251	250	250	252	249	246	252	254	246	245	245	241	241	243	245	245	246	244	244	245	248	250	247	249	251	253	250	250	250	243	243	251	247	246	244	244	244	244	246	250	252	252	251	250	248	248	242	241	243	244	247	248	252	245	246	246	246	248	250	250	250	249	249	248	249	252	252	255	255	253	251	251	252	256	262	257	249	246	246	249	251	250	248	250	249	250	249	248	246	247	250	250	248	247	247	246	246	245	244	247	248	247	248	251	252	252	252	253	252	251	251	252	252	253	254	255	254	254	253	254	254	254	254	255	248	248	251	254	254	253	254	252	249	248	249	248	246	248	248	255	253	250	248	250	254	251	248	246	248	248	251	250	250	250	251	254	249	249	249	249	251	250	252	252	254	257	257	258	255	255	256	255	255	252	252	252	250	251	250	251	251	252	253	254	254	250	248	248	254	255	255	258	258	260	257	252	251	248	252	255	257	257	259	260	259	259	257	257	255	255	259	261	260	257	257	255	258	258	258	258	258	256	254	253	254	259	258	256	256	256	258	261	260	260	258	260	260	260	257	257	259	258	257	260	263	263	260	258	259	260	259	258	258	256	253	252	255	260	262	262	261	261	260	260	258	256	255	255	254	255	256	255	255	259	260	258	257	255	251	258	261	255	251	255	260	260	258	255	253	253	251	251	253	254	256	256	253	253	255	255	255	258	259	260	262	260	260	259	257	255	252	254	258	259	255	252	249	250	254	255	255	258	255	255	254	256	257	254	253	253	254	254	253	253	252	252	254	254	255	253	250	249	250	251	252	251	251	253	255	254	258	255	254	252	252	258	260	259	258	257	253	252	249	248	249	251	251	250	249	252	253	254	253	252	251	252	252	249	249	251	251	250	251	251	0	0	0	0	0	248	253	255	256	256	249	244	246	249	245	245	244	243	242	242	248	248	244	242	242	243	252	252	250	250	245	244	244	244	245	249	249	250	246	246	246	246	246	246	248	251	250	248	242	242	243	245	244	244	245	247	248	248	247	244	245	246	247	248	248	249	247	246	247	246	243	243	244	244	244	245	245	245	245	249	250	245	242	246	246	246	246	245	244	243	239	245	246	246	244	239	244	243	244	249	245	245	243	243	0	0	0	238	243	243	239	238	237	246	239	244	242	242	243	242	244	242	241	243	241	244	241	240	241	241	239	240	240	240	240	237	238	238	238	238	240	239	239	238	239	239	239	238	238	239	238	239	239	238	238	240	243	242	242	240	238	238	236	232	232	234	236	237	241	239	239	240	238	239	241	241	241	242	241	244	247	245	245	242	240	240	241	241	240	238	238	240
245	246	246	251	251	250	249	249	248	244	244	243	241	241	244	249	253	249	249	249	245	243	242	243	248	248	242	240	243	241	237	243	243	243	243	244	246	243	243	240	241	242	244	245	240	240	240	242	248	250	246	242	242	240	241	241	240	246	248	248	241	242	243	243	247	245	245	247	248	246	245	252	252	247	247	241	241	244	247	247	242	242	244	244	249	249	249	249	248	249	247	247	242	243	243	233	236	235	233	232	232	235	239	239	241	242	247	250	242	239	239	239	240	244	247	242	243	247	247	245	245	246	249	247	246	245	247	250	248	250	251	251	253	253	251	251	241	245	254	249	247	246	245	245	247	249	250	250	250	249	250	250	250	249	249	249	246	247	247	246	243	242	246	249	250	252	253	254	256	256	254	253	253	253	252	254	253	254	253	254	256	253	253	254	254	254	254	255	252	247	249	252	255	258	256	254	252	251	251	248	245	247	247	251	253	251	251	250	252	254	249	258	257	256	256	256	255	249	249	254	249	249	248	248	249	249	250	250	254	256	256	257	253	255	254	254	254	250	251	251	250	251	251	252	252	252	252	254	252	250	250	254	254	254	257	259	259	256	256	253	252	251	251	253	254	256	257	259	258	256	254	254	255	255	259	261	260	257	257	255	258	258	254	255	254	256	254	251	250	258	258	257	258	258	258	259	259	258	257	260	260	260	259	258	259	260	258	256	257	258	259	257	258	258	257	259	256	255	255	253	254	256	256	263	260	254	253	252	253	255	255	255	258	259	260	261	260	261	261	261	257	253	250	256	260	255	250	251	257	260	258	255	253	253	251	251	253	254	255	254	255	255	255	254	253	253	258	258	261	259	259	259	258	257	253	253	257	258	256	251	248	252	255	254	253	261	259	259	254	257	257	257	254	254	255	256	254	250	249	251	252	253	254	253	252	250	250	250	251	251	251	253	255	256	258	257	253	251	251	257	259	259	258	255	251	250	252	249	249	249	250	249	248	252	251	253	253	255	254	250	249	249	248	250	251	250	251	251	252	251	252	251	250	250	252	252	252	251	249	248	246	247	247	247	244	243	244	244	243	245	243	242	242	243	244	244	244	245	248	248	248	246	248	247	250	250	248	244	245	245	245	245	250	249	249	248	242	241	243	243	243	244	244	248	248	244	247	246	245	247	248	248	246	248	246	242	247	246	246	247	246	246	246	245	244	244	245	248	247	248	246	246	247	246	246	243	244	243	241	240	240	239	239	240	241	245	247	245	244	244	245	243	0	0	0	238	238	238	242	239	238	239	241	244	241	241	242	243	242	240	239	243	243	241	240	240	239	241	239	239	240	240	237	236	238	239	239	238	240	239	237	239	239	239	240	240	236	235	240	242	242	241	239	240	243	240	240	237	245	239	233	230	230	232	231	233	233	237	239	240	238	238	237	238	238	239	240	244	246	246	245	242	240	240	237	237	237	239	241	240
245	240	240	247	247	243	244	243	243	243	242	240	241	244	244	240	238	236	238	243	243	246	248	250	252	243	243	242	243	241	238	242	242	244	242	244	244	239	239	238	238	240	242	241	240	240	240	243	247	251	249	243	243	240	237	243	244	242	240	240	241	242	247	242	242	244	244	244	244	241	241	246	250	250	244	244	242	244	247	241	243	243	244	244	246	250	250	250	249	248	241	244	244	247	247	233	236	235	233	234	234	234	233	237	241	242	244	243	243	242	242	240	241	244	246	242	243	245	242	241	242	242	245	244	240	239	246	247	249	247	246	246	249	249	244	240	241	245	254	248	249	251	245	245	244	243	245	248	245	249	250	250	250	248	246	247	247	247	247	246	243	242	246	249	249	249	252	255	255	253	253	253	253	253	254	253	252	249	247	251	256	253	255	257	253	253	254	253	252	247	249	245	247	247	250	253	254	254	255	255	249	248	250	250	248	251	251	253	253	261	253	258	255	253	248	248	251	250	246	250	250	248	248	248	249	249	251	251	254	255	254	254	253	252	253	254	254	254	251	251	251	253	253	253	252	252	252	252	254	251	250	253	254	254	251	253	254	252	252	252	253	253	251	252	253	253	253	256	253	252	252	252	254	257	259	261	259	257	254	254	254	253	254	255	254	256	254	251	250	258	258	257	258	258	258	263	261	258	255	257	257	259	260	259	260	258	259	257	260	259	261	256	256	255	255	253	252	254	255	256	252	254	255	259	256	253	252	251	248	248	253	253	259	259	257	261	260	261	261	261	257	253	250	256	260	255	250	251	257	260	256	253	252	251	251	253	254	254	253	253	253	251	254	255	254	251	252	253	255	257	258	260	260	257	255	256	257	257	253	248	250	252	253	251	251	250	250	255	256	255	254	254	253	252	250	249	251	250	248	247	248	251	253	252	247	250	250	250	251	251	252	252	254	255	257	253	249	251	257	249	257	257	253	253	253	254	252	251	248	248	243	249	247	250	252	254	254	254	256	253	251	249	248	250	250	246	246	251	251	250	245	249	252	250	248	248	250	249	251	246	247	247	247	246	245	244	244	243	245	245	243	243	243	243	243	243	243	245	248	247	248	246	248	246	248	244	244	244	244	244	244	248	248	249	249	248	243	243	241	242	242	242	246	248	246	243	245	244	243	242	242	242	243	243	246	242	246	246	249	252	248	248	248	246	243	242	247	248	247	247	247	247	245	244	246	243	243	244	243	240	240	240	239	239	240	242	245	243	243	242	243	243	0	0	0	0	0	0	0	240	243	244	240	241	241	238	239	242	243	240	239	240	240	238	237	241	240	242	241	241	241	240	238	236	235	239	239	239	240	239	237	238	238	238	237	237	235	233	238	238	243	241	239	240	237	237	235	244	236	237	236	238	238	235	231	231	233	237	237	239	238	236	235	235	237	239	239	240	243	243	245	242	238	238	238	237	237	240	239	239
244	240	247	240	241	238	238	240	240	240	244	243	244	244	244	240	238	235	240	244	244	245	247	246	246	246	246	247	245	243	238	242	243	243	241	243	242	237	237	237	237	239	240	239	238	240	240	243	244	242	241	240	239	239	240	245	246	245	240	240	240	246	247	242	243	243	244	244	245	243	239	239	245	250	246	246	243	240	240	241	243	246	243	243	243	248	249	252	253	247	246	248	248	248	245	241	236	233	233	234	234	234	235	244	246	246	248	247	245	242	240	240	240	246	245	244	244	245	242	241	241	241	242	242	239	240	242	243	243	243	243	244	244	245	243	243	244	244	244	248	249	245	248	249	249	248	248	245	247	248	250	252	250	250	247	245	247	247	248	248	247	250	250	249	249	246	249	251	252	251	251	251	252	253	254	252	250	247	248	249	253	251	252	254	253	252	252	254	248	246	244	245	247	247	248	249	251	252	252	252	250	250	246	246	250	248	251	254	260	256	259	255	252	251	251	252	248	247	248	250	250	250	251	251	250	250	251	251	254	255	254	250	250	249	252	253	254	255	254	252	252	255	256	255	254	253	253	254	254	251	250	252	253	255	249	251	249	251	252	253	253	252	254	252	252	253	252	253	250	249	250	250	250	255	258	259	259	256	252	253	252	253	254	254	254	255	252	251	254	256	257	258	259	260	262	263	261	258	255	257	259	259	260	259	260	258	259	257	260	259	261	256	256	255	255	253	252	254	255	256	252	254	255	259	256	253	252	251	248	248	253	253	259	259	257	261	260	260	260	257	252	250	252	252	250	250	250	249	255	256	256	253	246	245	242	245	246	248	253	253	253	251	249	249	253	250	250	253	255	253	254	254	255	254	253	255	252	251	250	249	253	254	252	249	247	247	247	247	251	252	251	252	252	250	246	246	250	249	249	250	251	251	253	252	247	247	248	251	251	251	256	254	254	254	254	255	251	249	249	256	255	255	254	252	251	255	255	253	253	247	246	244	248	250	252	253	251	252	256	253	251	250	252	253	252	249	249	251	249	244	245	248	252	249	249	250	249	249	246	247	248	248	247	246	245	245	244	243	245	244	246	244	245	243	241	241	240	243	245	248	248	247	247	245	245	245	246	245	245	246	244	248	248	248	245	245	244	244	243	243	241	241	246	246	246	246	245	247	246	244	244	240	243	243	245	243	245	246	246	249	249	248	247	245	242	241	241	244	241	244	244	247	245	244	244	243	243	244	246	246	241	240	239	241	241	243	245	245	245	240	243	243	239	239	238	0	0	0	0	242	245	243	240	240	240	240	239	242	243	239	238	238	237	236	236	240	240	239	239	239	238	236	238	236	235	239	239	239	239	238	237	237	237	237	234	235	232	235	234	238	243	242	240	240	236	236	236	235	237	236	237	237	236	234	231	231	233	233	235	240	240	237	237	237	238	238	238	239	243	243	241	237	237	237	237	233	232	232	232	232
245	242	240	240	241	236	236	242	242	242	242	240	240	237	237	235	233	235	240	242	242	244	245	243	243	243	243	244	243	241	241	243	243	243	242	241	238	239	234	234	234	238	241	239	238	239	239	243	244	242	240	238	240	240	247	247	247	247	242	244	244	247	250	243	243	243	245	244	244	238	237	238	239	243	246	245	245	244	244	243	244	246	243	243	240	242	246	249	253	249	242	244	246	246	246	239	237	237	234	234	234	235	243	249	249	245	244	245	243	240	237	237	236	241	245	244	243	240	240	239	241	242	241	242	243	243	242	242	241	240	243	246	246	245	242	243	244	246	244	247	247	245	248	249	254	251	249	245	245	248	249	249	250	250	250	247	247	247	250	252	252	250	247	245	246	246	249	251	250	251	252	252	251	253	254	252	247	246	247	246	246	243	250	252	249	251	251	250	248	247	242	243	244	246	248	249	251	250	254	255	252	247	245	246	246	246	249	252	257	257	256	253	249	249	253	253	252	248	247	247	250	251	255	255	252	254	250	252	255	254	251	250	250	249	252	246	245	248	253	253	251	254	256	257	256	256	256	256	254	254	250	250	253	253	254	252	249	250	252	253	254	252	253	251	249	253	252	253	249	250	248	250	250	254	259	259	257	256	253	252	253	255	257	257	256	253	253	254	254	255	255	255	255	254	258	259	260	259	256	254	254	254	256	259	259	257	256	257	261	261	259	254	252	253	252	250	252	253	255	254	254	252	258	255	256	255	253	254	253	252	253	253	255	254	252	254	251	249	254	252	249	249	248	247	245	242	245	246	250	253	252	252	248	246	242	244	245	249	250	250	250	249	249	247	249	247	250	254	254	252	251	249	246	253	254	257	251	246	251	252	252	252	249	245	247	246	246	248	249	251	248	250	252	247	245	245	250	249	249	250	251	252	251	247	246	245	248	252	252	255	256	253	255	256	256	255	255	254	253	252	249	249	250	252	252	252	256	254	254	251	248	247	249	250	252	253	251	252	252	250	247	247	249	253	253	253	251	249	245	244	243	249	246	246	249	249	249	249	246	246	246	247	248	246	245	245	244	246	245	249	247	245	246	245	245	244	244	246	249	252	252	252	246	244	242	244	244	244	245	246	247	248	245	244	244	241	242	242	244	244	241	243	243	246	246	243	245	246	244	244	244	240	241	243	246	242	239	244	243	244	244	243	245	245	242	240	240	241	240	244	244	242	241	242	241	241	242	241	241	241	240	243	243	244	244	246	250	250	245	240	238	241	239	234	237	240	240	239	242	245	239	237	238	238	237	240	239	243	243	240	236	236	236	236	236	237	239	238	238	237	236	236	238	238	237	237	239	239	239	238	237	237	237	237	234	235	233	235	235	234	236	241	240	240	242	242	235	234	235	232	237	237	236	234	230	231	235	235	240	241	240	240	238	238	237	238	238	239	239	240	239	235	233	234	234	232	231	231	232	232
244	243	240	240	237	236	236	234	236	236	233	228	232	236	235	235	234	236	241	242	244	241	243	243	241	237	238	238	237	237	239	240	246	246	242	241	240	240	238	238	238	240	240	237	238	238	238	240	245	243	240	238	240	240	246	248	246	245	243	243	247	247	249	248	243	243	245	244	238	237	235	235	237	240	241	242	242	243	246	249	247	245	242	240	240	242	240	242	241	239	240	243	244	244	244	244	244	244	238	236	235	243	243	249	238	240	244	244	238	243	244	239	239	239	245	245	242	239	240	241	241	241	241	242	245	247	244	242	240	242	245	247	246	246	246	241	242	244	247	249	250	250	251	254	251	251	247	245	244	245	248	246	248	250	250	253	253	253	253	252	251	249	245	243	243	245	246	249	250	251	252	252	252	252	253	247	247	246	246	247	247	247	245	244	248	248	247	247	248	247	247	247	246	247	246	248	250	250	254	255	251	247	245	247	247	246	246	249	255	253	254	252	249	249	253	255	252	249	246	250	252	254	257	256	256	254	250	249	251	249	250	249	247	248	248	246	245	248	253	253	251	252	253	256	258	258	258	255	255	254	252	251	255	255	254	254	253	253	256	256	256	256	252	252	250	252	252	252	250	248	249	252	252	255	258	257	254	253	255	254	256	256	255	256	256	253	256	255	255	255	256	257	257	257	253	256	256	257	250	252	256	256	257	257	257	251	250	254	263	260	253	252	250	251	250	247	247	251	254	253	253	252	252	253	254	254	252	252	252	255	253	253	254	254	256	252	251	250	253	254	254	253	251	249	247	245	247	247	249	252	254	253	249	250	244	243	251	252	250	250	248	248	249	248	245	246	246	251	250	251	252	249	249	252	253	251	250	250	247	247	246	247	247	247	245	245	248	250	251	252	253	250	252	247	245	245	246	247	251	251	252	251	248	247	243	248	252	253	253	253	252	251	252	255	256	256	256	255	253	253	253	253	252	251	252	252	251	251	255	254	250	247	249	250	249	246	244	242	245	243	243	243	248	250	250	251	250	247	247	244	243	246	250	245	246	249	249	249	248	245	246	247	248	249	247	247	246	247	245	245	244	245	248	249	249	247	245	246	246	249	250	250	246	243	242	244	244	244	244	247	247	248	244	242	242	242	241	242	242	247	242	240	241	243	246	243	245	246	244	244	243	240	240	244	247	248	240	240	242	242	243	244	244	244	242	239	238	241	240	240	242	240	240	240	241	240	237	246	246	239	243	245	240	241	239	246	250	250	244	239	236	234	236	236	234	234	235	237	235	236	237	240	236	238	237	237	238	240	241	243	243	237	236	236	237	237	239	238	238	237	236	233	236	237	239	239	241	239	239	238	237	237	237	238	237	235	233	236	236	233	234	237	236	235	235	240	236	236	231	231	232	237	234	234	229	232	232	237	240	238	238	233	233	235	237	238	238	238	238	239	239	239	238	238	237	237	237	236	232	232
244	242	239	239	239	236	237	234	236	234	233	230	236	235	236	236	235	238	240	242	241	241	243	245	238	235	233	233	234	236	241	244	243	242	242	240	240	240	237	235	235	239	240	239	237	238	242	242	244	242	240	238	240	246	240	241	240	239	243	244	244	244	245	246	244	241	239	238	237	237	232	235	238	239	240	239	240	240	245	247	245	237	235	236	240	240	240	242	237	238	239	239	243	243	243	244	240	239	239	243	244	247	244	244	238	240	244	238	240	245	244	242	242	239	245	244	239	238	239	242	245	242	242	242	245	247	243	241	238	242	245	246	245	243	243	244	245	246	248	247	247	249	249	249	249	249	247	245	244	245	245	247	249	249	250	254	252	254	254	251	248	245	244	243	243	244	244	246	249	250	251	252	252	252	245	247	246	244	245	245	246	247	251	246	244	248	247	248	248	247	247	246	245	246	244	245	247	248	252	253	251	247	245	247	244	244	247	248	248	253	250	252	253	253	254	253	248	249	249	250	248	251	256	255	255	254	249	248	250	251	251	250	249	250	247	246	241	242	248	250	251	252	253	256	258	258	257	257	255	255	255	255	252	252	252	253	253	255	255	255	254	256	256	253	251	249	253	252	252	251	251	252	252	254	255	255	255	255	255	253	254	254	253	252	251	250	248	247	248	252	255	255	253	254	253	256	254	252	250	250	251	251	253	255	257	253	256	258	259	253	252	249	247	246	246	248	246	249	252	253	252	254	252	252	252	250	247	246	245	246	248	248	252	253	257	256	252	251	252	253	253	255	254	251	248	251	254	254	252	251	254	253	248	251	247	248	254	250	249	249	248	248	248	249	246	247	249	249	251	251	248	249	251	251	247	248	248	248	246	247	247	246	248	249	247	247	248	250	251	252	253	249	249	249	251	250	249	251	249	251	251	251	247	246	250	251	250	250	251	250	249	248	249	251	253	255	252	254	252	252	253	253	251	250	251	250	250	250	255	254	250	248	248	251	244	237	236	237	239	243	243	244	244	245	245	249	248	247	247	245	243	245	248	249	249	247	249	248	248	248	245	246	250	249	249	250	250	249	246	243	242	244	245	245	245	243	242	242	243	243	244	243	246	243	242	243	243	242	243	246	247	243	243	242	243	243	243	243	243	245	246	244	241	240	243	243	245	245	243	243	240	241	245	247	250	243	238	241	239	239	242	242	243	241	239	239	238	239	241	241	240	238	237	238	238	240	237	235	235	242	241	239	239	241	239	240	240	243	243	241	237	237	239	240	237	237	230	230	235	234	241	240	240	236	237	237	237	238	237	241	241	237	236	236	237	239	239	239	238	239	233	233	233	235	235	238	239	242	243	241	238	238	238	238	237	239	237	236	236	236	234	236	233	231	231	231	235	236	231	231	231	234	239	236	233	230	230	235	237	239	235	237	233	235	235	237	238	238	239	239	240	240	239	239	237	237	237	236	236	234
241	239	238	237	237	232	233	236	234	233	233	235	239	242	239	238	238	238	241	246	245	244	244	245	238	235	238	235	235	234	241	243	245	243	243	244	239	240	237	235	236	236	233	234	238	240	243	243	243	241	238	237	239	240	240	241	240	240	240	238	238	240	240	243	242	235	234	233	231	231	232	235	238	239	239	238	240	240	241	242	239	239	240	242	242	242	242	240	237	238	234	238	240	246	246	240	239	239	241	243	245	244	240	240	242	242	244	238	240	243	245	242	246	246	245	239	239	237	239	242	243	245	242	242	241	246	243	241	238	242	241	244	243	245	245	247	247	248	248	247	247	245	247	248	247	248	248	245	243	245	245	251	251	253	256	258	257	255	251	251	248	244	243	243	242	243	244	244	245	245	246	244	245	245	245	247	246	243	243	245	246	250	251	246	246	248	248	248	248	246	245	243	243	246	248	248	247	247	248	249	254	252	247	246	244	244	247	246	247	248	251	249	248	248	244	244	244	246	247	245	245	249	249	250	248	248	249	250	252	253	251	252	251	250	247	246	245	244	246	245	248	247	247	251	255	258	257	257	255	255	249	249	249	249	251	252	253	253	252	250	252	254	256	250	249	250	251	251	253	253	252	252	252	252	251	251	252	249	249	246	250	250	252	251	251	252	251	248	249	249	252	249	246	251	253	254	255	252	250	248	251	251	255	257	260	258	259	258	255	252	247	248	247	246	248	246	247	246	247	249	250	251	251	251	247	248	247	246	245	242	245	245	255	256	258	257	253	249	250	252	254	256	256	252	248	250	250	251	252	251	251	251	251	248	249	251	253	250	247	247	247	245	247	246	245	247	249	256	256	255	251	251	251	250	249	249	247	246	245	248	247	246	248	249	249	247	251	251	252	252	253	252	254	252	252	251	249	247	249	248	248	248	244	246	246	248	249	249	249	247	244	245	247	251	253	254	252	252	249	251	252	252	249	249	251	250	250	250	249	251	249	247	248	250	245	241	241	241	244	244	244	245	244	244	245	245	245	243	243	241	242	243	249	248	248	247	249	248	248	248	248	246	245	247	247	249	246	239	236	236	242	243	242	242	240	241	241	243	244	242	244	243	246	246	243	241	241	242	241	242	241	239	242	241	243	242	242	242	243	246	249	252	241	240	243	245	245	244	244	244	243	244	249	247	246	246	244	240	240	239	238	235	238	241	239	239	240	241	241	245	246	242	240	239	240	239	237	237	235	235	235	239	239	239	233	232	232	235	236	236	237	236	236	236	236	236	233	234	236	234	241	240	240	237	239	238	237	236	236	239	239	241	236	234	236	239	239	239	236	235	233	233	233	234	234	235	238	236	240	243	240	238	238	239	239	242	245	245	238	238	236	235	234	234	233	230	235	236	237	236	236	239	239	235	230	229	229	233	235	231	235	235	237	239	239	237	234	234	233	235	236	236	236	235	237	237	237	235	235	233
233	237	236	233	233	233	233	236	236	233	233	235	245	244	243	241	241	239	238	241	245	248	248	246	237	235	238	243	243	238	241	246	247	245	245	245	243	241	237	237	236	236	229	227	234	241	246	242	242	240	238	238	240	241	239	239	240	240	238	237	235	240	240	239	237	235	234	234	233	238	238	240	240	239	239	238	237	240	240	240	242	243	244	242	241	241	241	240	235	233	234	238	244	246	241	241	239	241	244	243	241	241	243	243	243	243	242	237	240	243	245	244	244	244	241	237	239	239	238	239	241	242	243	236	236	238	240	240	240	242	241	243	243	245	248	248	245	245	246	246	243	245	247	244	243	239	239	240	248	248	250	251	251	253	252	252	253	251	248	248	246	243	242	243	243	242	243	243	245	245	240	239	239	239	240	245	245	243	243	245	247	247	247	246	247	248	248	246	246	246	247	246	252	252	251	248	248	247	247	248	251	252	247	246	246	246	246	246	247	248	251	252	252	254	253	247	247	243	243	243	244	245	245	244	241	241	246	250	252	252	250	251	251	251	249	247	247	246	247	249	252	252	246	249	251	252	251	252	252	252	249	249	249	249	251	252	251	250	249	250	252	252	254	255	248	248	249	250	252	252	252	250	247	247	248	248	246	249	246	250	252	252	251	253	251	251	250	250	251	251	251	248	247	247	251	251	252	252	251	254	256	256	257	255	254	254	256	255	254	252	251	248	250	250	248	247	246	247	247	247	248	246	247	253	253	251	249	248	245	244	244	245	251	253	257	251	252	253	252	252	252	251	250	250	250	250	250	250	250	249	249	246	246	247	249	251	252	248	248	245	248	243	243	244	245	242	246	249	251	252	250	247	247	250	251	249	247	246	245	248	247	247	246	246	246	251	252	252	252	253	248	248	250	250	249	247	247	245	246	246	246	247	243	245	246	248	248	247	246	244	242	244	247	250	253	254	252	252	250	250	252	252	249	249	249	249	249	251	249	246	248	246	248	249	248	243	243	245	245	247	244	244	246	246	245	245	243	243	242	239	241	242	249	248	248	246	249	246	246	243	240	239	240	240	241	240	238	233	233	237	241	242	242	243	243	244	244	243	244	242	242	242	244	241	241	241	240	240	241	241	241	240	240	240	242	239	238	238	240	246	249	252	250	247	245	244	244	243	243	243	240	240	246	247	246	241	238	239	239	236	238	235	238	239	238	240	241	244	244	243	244	241	240	240	239	240	238	238	237	235	235	236	239	234	234	234	232	235	236	236	237	236	235	233	233	230	233	234	236	238	238	239	239	240	239	241	240	238	235	235	237	239	239	234	236	235	235	236	236	236	235	236	237	237	237	233	233	232	234	243	243	240	239	239	242	239	243	243	239	240	239	239	236	236	233	230	230	232	233	233	234	234	233	229	228	228	229	232	235	231	232	232	235	238	238	232	230	230	229	230	231	231	236	235	237	238	237	237	235	236
237	229	231	229	233	233	237	237	235	233	235	235	245	244	246	246	246	241	240	238	243	245	245	245	244	239	240	243	238	238	241	246	247	245	242	242	240	242	240	238	236	236	229	227	236	239	244	241	241	240	239	240	240	235	236	236	237	236	238	237	240	243	239	239	236	235	235	235	235	239	239	241	240	239	238	238	237	239	239	243	243	241	242	242	240	234	234	232	232	232	234	237	244	246	242	242	242	244	242	242	244	242	243	243	243	243	241	238	235	237	241	244	244	236	236	238	236	237	239	240	238	240	240	240	240	235	234	235	235	237	241	243	243	245	244	244	245	244	246	248	248	249	249	247	243	237	243	243	247	248	249	249	249	249	252	252	241	239	239	243	243	242	241	240	243	243	243	244	245	241	239	239	237	239	239	242	244	241	241	243	247	247	247	243	246	248	249	248	247	247	248	252	251	252	252	248	247	247	247	248	249	248	246	244	243	246	246	248	246	245	251	252	252	254	253	246	240	241	246	246	249	249	247	243	241	245	245	246	249	250	248	247	247	248	248	247	247	247	247	248	249	251	251	249	251	252	250	249	249	248	248	248	246	247	249	251	251	250	249	250	252	252	254	249	250	246	244	247	250	248	246	244	244	244	244	245	244	245	249	250	252	252	253	253	250	250	250	251	252	251	250	248	247	248	251	250	248	250	251	253	255	255	254	254	253	254	256	255	254	253	251	249	247	247	247	247	245	247	245	244	244	246	250	249	250	247	249	250	249	249	249	250	252	252	250	251	253	253	252	252	249	247	248	248	247	246	245	249	250	250	249	246	245	245	249	251	251	248	248	250	248	245	240	241	245	245	244	245	251	252	250	247	247	250	251	256	250	247	246	246	244	246	245	245	245	250	252	253	251	246	244	241	243	247	247	245	247	246	245	244	245	247	248	250	251	248	248	244	243	239	239	242	243	245	251	253	252	252	250	250	251	252	250	249	247	247	249	249	248	246	245	247	251	249	247	245	245	246	249	248	246	245	245	244	245	245	245	244	240	239	241	242	243	244	244	245	246	243	243	242	239	237	239	240	240	237	237	234	235	242	242	242	242	242	243	244	244	244	244	242	241	240	241	237	237	236	238	242	244	243	238	243	244	242	241	238	238	238	240	246	249	250	248	247	247	245	239	239	239	237	237	238	242	240	236	237	237	237	239	236	234	233	234	238	238	239	240	240	241	240	243	239	239	239	239	240	240	238	237	233	229	232	237	236	234	234	233	236	237	237	237	235	234	234	233	230	229	233	234	237	239	239	236	238	237	237	238	237	240	240	236	239	239	236	235	235	235	235	237	236	237	236	237	237	233	231	232	232	234	237	237	237	239	239	238	239	239	241	236	235	234	232	236	236	236	233	227	227	229	229	231	230	230	224	224	224	229	232	231	233	233	236	236	234	233	232	232	230	229	229	230	231	231	231	235	234	232	232	228	227
237	229	230	229	232	232	237	242	241	233	235	235	240	248	246	246	243	243	241	238	241	241	242	242	246	248	249	243	238	238	241	245	246	243	243	243	239	241	241	238	235	230	230	226	236	239	240	241	239	239	239	239	236	235	235	236	236	237	239	238	240	243	242	242	240	238	238	236	235	241	244	244	241	238	238	237	237	239	243	244	243	241	239	240	237	235	233	233	231	232	233	238	243	243	242	242	242	248	242	242	242	241	242	240	243	243	241	239	238	235	240	241	240	236	236	235	239	240	240	239	239	240	238	237	233	233	229	229	232	236	240	241	243	244	244	245	243	245	246	246	248	249	242	242	239	242	240	240	240	242	244	244	243	243	243	241	241	239	239	239	239	242	240	238	240	240	243	243	243	240	240	239	239	240	240	243	245	245	241	244	246	242	243	243	246	248	246	246	246	248	248	251	250	250	248	245	245	247	246	244	246	246	243	243	247	250	249	249	246	243	242	253	255	258	247	246	240	241	246	248	250	250	248	248	245	246	246	247	249	248	249	245	247	248	247	249	249	247	247	247	248	250	248	250	251	251	250	248	248	248	248	246	245	246	246	250	250	249	249	249	250	250	247	249	250	246	244	247	250	248	246	245	243	245	245	245	246	252	249	252	251	251	252	254	252	251	249	250	252	251	250	247	246	248	250	246	247	248	251	252	253	253	253	252	252	253	251	252	250	248	248	250	246	245	246	246	245	247	246	243	244	245	249	250	249	248	248	249	248	248	248	247	245	246	246	247	248	249	251	249	248	247	248	245	243	244	246	247	246	246	245	244	245	247	248	251	250	251	251	251	249	245	240	241	245	245	244	245	247	250	249	247	246	249	252	256	251	246	244	245	245	244	245	245	245	247	251	252	246	245	243	245	245	246	245	243	246	245	246	244	246	244	247	250	250	250	247	245	242	236	234	238	242	245	251	253	252	249	249	249	252	253	250	247	247	244	246	247	248	246	245	246	249	250	247	244	245	250	249	248	246	246	246	245	244	244	245	244	240	239	238	238	242	241	241	243	244	244	242	241	239	237	241	241	238	237	236	235	237	239	241	241	242	242	243	243	243	245	243	240	240	238	236	235	235	234	234	240	241	240	238	240	245	243	240	238	238	238	239	239	240	241	243	244	245	243	238	238	235	233	238	241	240	238	236	234	237	237	238	237	233	231	234	236	237	237	239	239	242	238	233	231	234	238	240	240	240	238	237	237	232	231	234	238	238	237	238	237	236	235	232	235	234	234	232	230	230	229	233	236	234	234	236	240	237	237	237	239	239	240	236	238	239	235	234	234	232	231	232	232	232	232	232	230	229	231	232	231	234	234	234	236	233	231	231	233	233	234	235	233	234	232	232	232	229	229	228	228	228	229	234	234	233	224	224	224	226	230	231	235	235	237	231	232	228	231	231	229	229	229	230	230	230	231	230	232	231	231	227	226
238	233	230	229	232	235	235	237	243	244	237	237	241	242	241	244	243	243	242	239	238	238	238	238	243	250	246	242	238	238	238	245	246	243	244	240	240	240	240	236	235	230	230	231	237	235	240	241	239	239	239	236	234	231	236	236	236	237	239	239	241	244	242	242	240	239	240	240	240	241	235	235	235	239	238	235	235	239	244	244	243	239	239	236	234	234	233	233	231	231	235	239	243	247	247	248	248	248	242	240	240	240	239	242	241	241	239	238	238	239	240	241	239	236	235	235	239	240	245	242	237	236	235	234	234	234	232	231	238	237	239	241	242	243	244	243	243	245	246	246	246	241	240	239	238	240	244	243	243	243	243	242	244	247	246	245	245	242	238	239	242	242	241	237	236	237	242	242	241	240	239	238	238	242	242	242	244	246	245	244	240	241	242	244	245	246	246	246	246	247	247	248	248	247	247	244	245	245	243	243	244	244	245	248	248	249	248	245	245	245	242	241	245	241	241	240	240	247	247	248	250	250	248	250	250	249	248	248	247	247	247	247	247	245	243	245	246	246	244	245	245	245	246	248	249	251	249	249	245	245	243	244	244	244	246	248	251	250	249	249	249	254	251	251	251	250	249	244	244	245	246	245	243	245	245	245	246	252	249	252	248	249	248	247	247	249	249	248	250	250	251	249	247	247	247	246	247	247	247	249	251	251	251	252	253	252	253	252	247	248	248	246	245	245	245	247	248	247	246	244	245	246	248	248	248	246	244	246	246	244	244	246	246	243	245	244	244	244	246	246	247	247	247	245	244	244	246	246	244	246	246	247	245	247	248	251	250	251	251	251	249	244	242	241	240	242	242	244	247	249	250	247	246	249	252	251	246	245	244	244	243	244	244	244	245	245	246	245	244	242	244	244	245	246	248	246	246	246	245	242	250	246	245	249	249	249	246	246	234	236	234	238	242	245	245	245	245	245	246	250	251	252	245	245	245	241	246	245	243	244	245	244	250	249	245	243	244	250	247	246	244	244	246	245	244	244	244	242	240	235	235	236	238	238	241	240	241	241	241	242	240	242	241	238	239	237	236	237	236	239	241	241	243	243	243	243	243	242	241	242	240	237	236	236	235	237	236	237	237	239	239	237	240	243	240	240	239	239	239	0	0	0	0	0	0	0	0	0	0	234	237	239	235	238	236	234	234	234	235	239	239	238	237	236	236	235	235	238	234	233	231	230	234	238	240	240	240	238	239	238	233	234	232	237	237	238	237	238	236	235	232	235	235	234	234	234	233	231	233	236	236	236	240	239	238	238	238	239	239	241	241	238	236	234	232	232	230	229	230	231	231	231	231	230	229	230	231	233	233	233	232	231	229	231	231	231	233	233	235	233	230	232	232	231	230	231	231	229	229	228	231	230	232	224	224	218	224	224	233	233	233	232	229	227	226	226	227	229	229	229	229	229	229	226	221	225	225	229	230	233
240	240	233	232	232	235	236	237	242	245	244	241	241	238	241	242	244	242	242	239	239	239	238	241	241	246	248	241	238	236	236	238	243	243	244	238	238	238	236	236	236	239	235	235	237	234	234	234	239	239	238	238	234	234	232	233	235	235	235	239	243	245	245	240	240	239	243	241	239	237	235	233	233	234	237	235	234	238	242	242	241	239	239	235	234	233	235	235	235	234	235	241	239	234	233	237	237	240	241	240	240	237	239	241	242	240	240	240	240	240	238	240	240	237	238	238	238	246	245	242	235	234	233	232	234	236	236	240	239	239	238	237	240	242	241	242	244	244	245	246	246	243	241	242	241	243	243	243	243	243	241	241	244	245	246	245	245	244	242	240	243	243	241	237	236	237	241	242	243	240	238	238	241	248	247	247	244	245	244	242	240	241	241	244	241	244	245	244	245	247	248	248	247	246	246	247	244	240	240	243	242	244	246	246	247	248	247	247	247	245	241	239	235	236	236	244	247	247	247	249	247	248	249	250	250	249	248	247	246	245	244	247	245	244	243	244	245	245	246	247	245	244	245	248	250	251	247	244	242	242	242	242	242	242	244	249	250	248	248	250	249	249	253	252	251	249	249	247	245	245	250	245	244	244	244	246	244	251	252	250	248	249	248	247	247	249	249	248	250	250	251	249	248	247	247	246	247	245	245	244	247	250	250	251	247	251	249	251	248	247	247	247	244	245	246	249	251	252	248	244	245	246	247	245	244	244	245	247	245	246	246	245	244	243	244	244	243	240	245	245	247	247	247	245	244	244	246	246	244	246	246	247	245	246	249	251	251	251	251	246	247	244	241	240	240	241	244	245	245	247	248	247	245	249	248	247	246	245	246	245	244	245	245	247	246	245	245	245	244	241	242	242	245	246	246	244	245	245	249	249	245	244	244	247	249	249	246	246	234	233	230	237	242	246	244	244	244	242	242	242	246	249	244	244	242	246	245	241	239	240	242	244	243	246	243	241	244	248	246	246	244	244	245	243	244	244	244	239	236	233	232	235	238	240	242	241	241	238	241	241	242	243	243	240	239	240	239	237	236	238	238	238	240	240	242	242	241	241	243	241	243	240	239	239	237	237	241	241	242	240	239	237	240	242	241	241	0	0	0	0	0	0	0	0	0	0	0	0	0	233	237	239	235	236	235	233	233	234	235	237	237	239	239	238	237	235	235	234	234	233	231	230	235	238	239	239	239	239	238	234	237	236	236	236	237	239	239	240	236	235	231	231	231	233	235	235	235	235	237	238	238	240	240	240	236	238	238	238	237	240	239	238	235	235	234	234	231	230	230	231	231	231	231	230	229	232	236	236	236	233	230	231	230	231	232	232	233	233	230	230	229	229	230	233	237	233	231	231	229	229	227	230	232	232	228	227	224	228	232	232	233	231	228	227	225	226	227	231	228	227	227	226	225	221	223	223	223	226	230	233
231	231	230	232	236	236	237	237	239	240	240	237	237	237	236	239	240	242	242	240	239	239	240	241	241	246	244	241	238	235	235	237	241	241	240	238	238	231	232	233	235	240	236	236	236	233	231	230	234	238	238	238	239	237	237	239	241	241	239	238	237	234	235	236	236	241	243	241	233	236	237	232	232	235	234	233	234	235	239	238	238	240	238	235	234	239	238	240	240	239	239	240	234	233	233	233	234	234	236	240	240	237	239	240	241	240	240	240	239	239	239	239	239	238	237	238	238	243	244	238	235	234	233	233	235	239	239	239	240	239	237	235	235	237	237	238	239	239	245	247	244	243	241	242	242	243	243	246	244	244	241	241	242	242	241	242	245	245	243	243	244	244	244	237	237	237	241	244	243	241	240	245	248	248	248	246	246	244	243	239	234	238	242	242	241	240	241	242	242	245	247	247	247	246	246	246	240	240	241	241	243	243	244	246	246	245	242	241	242	242	241	239	238	237	238	245	247	247	247	247	247	246	249	247	248	248	247	246	246	245	244	241	241	243	241	242	243	244	244	245	244	244	243	246	248	249	247	242	243	242	242	242	241	242	244	246	247	244	244	244	242	243	243	250	247	246	245	245	247	248	245	248	244	242	243	243	243	246	250	251	249	245	242	242	243	246	247	247	244	245	249	249	248	247	247	246	247	245	245	244	247	250	250	251	247	251	249	251	248	247	247	247	244	245	246	249	251	252	248	244	245	246	247	245	244	244	245	247	245	246	246	245	244	243	244	244	243	240	245	245	249	249	248	246	245	246	246	244	243	247	249	249	249	247	249	251	248	248	246	246	244	242	242	244	245	245	246	245	246	248	250	249	245	247	251	249	247	246	245	245	246	247	247	250	251	249	245	245	245	243	239	238	240	241	243	244	244	246	240	240	245	244	244	247	247	246	243	245	240	238	238	238	245	246	246	244	242	240	240	240	241	245	243	243	242	249	242	255	243	243	239	245	246	244	241	241	244	248	246	244	244	242	243	243	243	244	243	241	239	236	236	237	238	238	242	242	240	242	241	237	237	240	240	239	239	240	239	238	236	236	236	242	240	241	242	241	240	240	241	242	241	240	240	237	237	240	242	242	242	240	238	239	240	241	241	240	0	0	0	0	0	0	0	0	0	0	0	0	0	233	237	238	237	235	233	233	234	238	238	234	236	238	238	237	234	234	234	234	234	233	234	237	237	238	238	239	239	237	234	238	237	236	237	237	237	238	239	240	237	235	230	230	229	230	233	236	237	241	242	242	242	240	242	240	236	237	238	238	237	238	239	237	236	233	233	233	230	227	230	231	231	231	230	230	230	233	233	231	231	230	228	227	228	232	232	232	234	233	234	234	230	230	231	236	237	234	230	230	229	229	227	227	229	229	233	233	231	233	236	236	236	233	232	227	225	225	226	225	223	226	226	225	224	222	224	224	223	226	228	231
228	228	232	234	236	239	238	238	239	240	236	235	234	234	232	235	239	241	241	242	241	241	240	241	243	244	243	240	236	236	237	237	238	237	236	234	231	231	232	233	236	239	238	232	232	231	229	227	232	237	237	240	239	237	239	238	240	241	241	238	238	233	233	231	230	230	231	231	233	236	239	236	236	234	233	234	236	233	236	238	238	237	238	236	234	239	238	237	237	237	240	239	235	237	239	242	243	243	240	240	241	239	239	240	241	239	240	240	238	238	238	238	237	240	237	237	237	237	235	237	234	232	233	233	235	236	238	238	240	240	236	234	231	231	232	235	237	245	245	245	245	244	244	243	242	243	244	245	248	244	244	239	239	239	239	239	242	244	244	245	245	244	244	241	238	239	239	244	243	241	243	246	247	245	245	245	245	244	240	235	233	237	242	241	241	241	239	240	242	244	244	244	244	245	245	246	240	240	241	241	241	241	239	240	241	244	242	241	241	241	241	240	238	233	235	242	246	243	239	244	246	247	247	246	247	245	245	242	242	243	242	241	241	243	241	242	242	242	242	243	242	241	242	244	246	245	244	243	243	243	243	243	244	242	245	248	248	246	246	244	246	246	245	249	248	248	241	242	246	248	248	244	244	242	241	241	242	239	244	249	250	247	243	242	244	245	246	247	248	249	249	246	246	244	245	246	247	245	245	245	246	249	249	248	247	250	248	251	248	247	246	247	246	245	248	249	250	251	248	243	245	249	246	241	241	240	243	243	245	245	245	244	243	246	246	245	242	245	244	245	246	247	246	246	246	246	244	240	246	248	249	249	247	245	247	248	247	247	245	245	244	243	244	246	247	246	246	246	246	250	249	249	245	245	251	251	249	245	246	245	246	246	247	249	246	245	246	244	244	245	244	244	241	238	240	244	244	246	240	240	242	246	245	245	245	246	245	242	240	239	241	243	245	247	244	241	241	243	244	246	244	240	240	240	243	250	255	253	250	250	243	242	245	244	241	241	245	244	244	244	244	244	242	242	243	243	242	238	239	236	236	237	238	238	240	240	241	241	237	238	240	240	240	239	240	239	239	238	242	242	242	242	240	238	240	240	239	241	241	242	240	240	240	237	237	240	242	242	240	239	240	241	239	239	239	238	238	0	0	0	0	0	0	0	0	0	0	0	0	233	237	239	238	233	234	234	240	239	237	240	235	237	237	237	234	234	234	234	233	233	237	239	240	238	238	234	234	236	234	239	237	235	238	238	237	238	238	239	237	234	230	230	229	231	235	238	239	240	240	240	239	240	242	238	234	236	236	236	236	237	236	234	232	236	236	234	231	227	230	233	235	235	234	231	233	233	232	231	231	231	230	225	228	232	232	236	240	238	237	231	231	231	231	233	234	233	234	230	229	230	229	228	229	229	229	230	229	229	229	231	228	233	232	234	234	234	230	227	225	223	223	224	222	224	224	224	224	225	226	229
237	235	235	234	236	238	233	233	237	236	236	235	228	228	227	238	240	241	243	243	242	242	244	243	244	244	236	236	236	237	238	238	238	237	236	231	228	228	232	233	236	240	240	230	230	226	230	231	232	237	240	240	240	239	239	238	230	231	231	237	237	237	235	232	232	232	232	233	234	233	239	236	234	238	232	232	238	240	239	235	237	237	236	236	240	238	240	237	237	237	237	238	236	237	239	242	242	241	241	241	240	241	241	238	239	239	240	240	235	236	238	237	237	240	239	238	237	237	236	234	231	231	230	231	235	236	238	239	238	239	240	238	236	234	230	232	240	240	240	243	242	244	244	244	242	242	244	245	248	236	236	240	235	234	237	238	241	243	242	244	244	240	241	241	238	237	238	241	242	241	243	246	247	245	244	245	243	243	239	236	234	240	242	239	240	241	239	241	242	244	244	244	244	242	244	246	242	240	241	241	241	241	235	237	245	249	249	245	243	242	242	242	241	240	238	241	243	238	235	238	242	243	242	242	241	245	242	241	241	241	242	243	241	239	238	240	242	242	242	243	242	240	241	242	240	240	243	244	244	245	246	246	243	242	245	245	247	248	248	250	251	252	251	249	248	246	245	243	248	245	249	241	243	243	244	244	242	238	241	243	245	247	245	246	248	248	249	247	247	248	248	246	240	240	244	244	246	246	247	248	249	248	248	248	248	246	246	248	247	247	248	248	249	245	244	248	250	249	248	245	249	248	248	244	245	250	248	244	242	245	245	246	245	245	246	248	244	243	245	243	244	243	244	245	245	244	243	241	245	250	249	247	245	245	245	245	245	245	244	245	244	244	245	245	244	244	245	245	243	245	247	245	246	246	246	249	249	244	244	246	245	245	251	251	250	246	244	245	244	244	244	244	241	238	240	243	242	239	240	242	242	243	245	245	245	244	242	242	239	236	238	241	244	245	243	241	241	241	242	243	244	246	246	242	246	249	254	255	251	250	243	242	245	243	241	239	242	242	240	240	242	244	242	243	243	242	241	237	236	237	237	238	238	239	239	241	240	242	237	238	240	240	240	239	238	238	236	237	237	238	242	242	242	240	240	240	240	239	240	241	238	238	240	237	237	238	241	240	239	239	238	239	239	239	236	238	236	235	236	237	238	238	239	243	0	0	0	0	0	238	241	239	233	236	236	237	240	247	242	237	237	237	235	237	237	234	234	232	230	233	233	234	236	236	230	230	231	233	237	243	239	235	235	238	235	233	235	237	236	235	235	231	229	230	235	236	236	237	240	240	239	239	241	236	236	235	235	238	239	238	237	234	231	231	230	234	231	227	233	235	235	241	239	238	231	229	230	230	233	237	230	225	226	227	227	234	236	236	235	235	235	231	231	231	230	233	233	234	234	230	230	229	229	229	229	231	231	230	230	231	228	233	231	233	233	234	232	229	227	227	225	221	222	224	225	225	224	219	219	225
