349	346	341	341	349	357	360	362	363	363	372	375	374	360	364	364	342	340	340	345	348	348	357	364	364	367	368	368	368	364	353	353	352	352	351	351	347	347	357	363	362	365	365	362	360	357	354	355	358	358	360	358	352	350	347	346	350	350	354	356	356	350	350	358	362	361	361	351	349	353	352	348	344	345	345	351	353	352	348	349	352	349	350	350	354	356	355	355	349	350	349	350	349	349	350	352	355	355	349	354	362	358	358	352	352	346	344	343	345	349	354	356	356	358	354	354	350	347	349	351	350	348	346	345	342	339	342	346	346	353	356	354	353	353	353	354	357	358	354	358	359	353	353	352	354	362	363	364	363	358	354	353	352	357	361	364	366	367	367	370	368	366	363	361	364	368	374	379	380	375	380	375	374	370	369	372	383	383	379	380	393	404	392	384	384	383	389	393	395	399	404	408	410	409	410	405	392	400	402	394	394	398	399	397	395	393	394	391	392	389	391	392	391	392	394	398	399	400	409	403	406	407	407	406	400	395	397	402	403	401	402	408	408	400	401	401	397	390	390	381	371	372	379	379	372	378	379	379	378	377	378	381	385	385	386	377	378	380	379	372	375	378	381	375	377	386	388	386	384	385	392	393	394	382	375	368	372	383	391	394	393	393	382	377	375	372	372	376	386	386	387	389	389	391	394	392	391	389	389	389	388	389	386	378	379	384	385	390	388	389	383	390	391	395	395	392	389	388	390	389	390	384	384	386	389	388	379	380	383	386	384	384	386	385	375	375	375	380	379	383	381	377	372	383	377	376	375	384	387	392	393	393	385	382	377	375	374	379	378	380	384	384	382	379	376	374	378	383	384	383	380	375	373	372	369	368	366	365	363	362	373	379	385	386	382	379	379	380	384	385	384	379	374	373	361	360	371	373	373	372	372	374	379	378	377	375	374	373	376	376	375	376	369	371	372	376	379	385	387	386	384	382	381	383	382	383	379	372	359	357	363	363	371	369	366	363	363	363	362	360	360	363	364	366	371	368	369	370	365	360	350	359	372	372	367	367	372	377	382	379	370	364	364	365	366	367	366	363	361	358	354	349	340	340	342	344	347	336	333	333	337	341	344	343	345	344	348	340	340	340	341	343	339	338	340	332	338	339	337	336	334	335	332	332	341	342	352	347	345	340	335	323	318	331	337	338	338	336	341	336	335	330	333	330	327	333	328	329	329	331	332	334	337	340	341	334	332	335	335	336	338	337	335	332	335	335	327	321	321	321	321	325	329	331	339	341	335	335	335	331	325	329	330	330	328	328	328	325	332	332	328	325	327	327	327	331	336	334	320	331	326	326	326	327	334	337	339	345	345	345	342	337	335	333	332	334	334	334	332	330	335	333	334	334	335	334	328	328	332	331	331	330	327	328	329	338	338	339	333	330	328	331	330	330	328	326	326	321	320	320	315	316	319	330	330	331	332	332	335	333
354	355	353	353	354	361	363	360	362	362	369	372	362	360	364	348	340	335	337	345	352	352	361	368	367	352	351	350	350	346	349	351	347	347	348	348	347	347	366	363	363	364	364	354	352	352	350	346	348	348	348	350	351	351	351	347	349	353	353	357	356	349	348	355	357	349	349	350	351	351	345	339	335	334	340	340	343	344	342	339	342	345	353	355	355	356	355	349	350	349	351	350	351	351	351	352	344	342	344	351	354	364	347	342	342	342	353	353	346	347	351	352	355	357	354	342	342	343	350	349	349	343	338	341	339	340	343	349	349	357	359	353	346	348	347	342	347	350	352	359	358	353	352	352	352	357	363	359	357	348	343	343	349	357	362	364	367	368	369	369	366	359	362	359	360	365	368	370	372	369	374	371	370	368	368	370	382	381	381	387	387	394	394	387	384	383	386	392	395	401	405	404	400	399	394	384	385	398	399	391	395	395	399	396	394	393	389	389	388	391	390	386	386	389	393	396	387	386	391	404	395	395	390	386	380	381	385	394	396	399	397	404	404	405	401	398	394	389	390	381	371	376	378	380	378	368	367	367	367	370	370	375	376	369	367	369	368	368	368	370	377	377	377	381	377	376	374	373	372	372	374	376	370	377	373	371	372	377	392	395	395	395	380	375	372	370	367	369	374	381	390	392	385	384	385	388	377	388	388	387	386	384	388	383	376	378	383	388	384	388	382	382	391	396	396	396	391	384	386	387	387	384	385	389	391	383	377	383	378	383	379	379	381	372	368	368	366	363	366	373	377	376	371	375	381	375	369	370	374	376	376	376	375	367	363	372	373	374	376	375	373	384	383	378	372	372	375	384	384	386	379	374	375	378	372	362	360	360	358	365	373	380	388	398	397	389	384	384	379	380	384	379	374	373	373	374	369	368	372	372	372	373	375	376	371	372	372	371	372	370	367	361	365	371	369	373	379	384	387	387	382	381	381	383	382	384	380	373	362	358	364	364	360	353	355	356	361	362	360	356	351	352	356	361	359	368	369	370	367	357	355	357	359	367	367	371	368	368	374	372	375	364	363	365	362	361	358	356	354	355	356	351	349	349	345	343	340	336	337	337	341	341	338	337	345	344	342	337	332	332	333	337	337	336	335	332	332	330	335	334	333	334	335	335	338	343	345	345	343	335	338	335	324	335	336	334	338	336	336	332	332	335	333	331	329	327	329	329	329	331	332	333	338	338	331	329	332	336	336	339	340	335	330	325	335	335	330	322	322	323	323	326	325	330	339	340	333	333	334	324	330	327	328	326	326	326	324	326	324	331	328	325	324	326	326	326	336	336	330	318	319	321	321	321	317	318	336	339	337	337	333	334	336	333	332	329	329	327	322	320	323	329	334	334	334	335	337	337	329	326	326	320	320	329	338	341	338	339	337	335	325	327	327	330	332	329	324	324	324	326	323	325	327	324	324	328	328	332	335	333
347	354	360	360	356	351	355	357	354	354	349	350	361	357	348	348	340	353	347	351	356	366	366	360	348	341	338	344	344	350	353	354	354	355	351	351	358	362	366	356	360	357	346	346	341	340	340	340	342	343	343	348	350	351	351	347	349	355	355	355	354	349	348	349	348	347	347	348	343	341	340	332	332	335	338	338	335	335	337	342	348	348	345	347	347	352	349	349	350	346	349	350	350	351	351	352	344	340	341	348	350	355	346	339	339	339	354	357	357	351	349	347	350	347	338	342	342	344	349	344	342	337	335	333	338	340	345	352	357	357	357	346	345	341	345	340	335	339	351	354	356	353	351	351	352	354	358	359	357	341	337	343	349	356	363	366	364	363	363	363	358	355	356	358	359	362	364	365	363	364	366	368	370	371	374	378	380	383	383	386	387	392	392	396	390	381	386	392	393	400	403	401	400	396	393	376	374	375	383	390	398	398	388	384	384	385	390	387	376	373	376	376	377	376	381	387	389	391	389	390	383	382	383	378	368	365	369	378	388	390	394	396	400	400	398	393	389	390	382	367	367	376	378	380	378	373	366	365	367	368	372	373	370	368	367	367	372	371	370	371	377	379	377	375	375	373	373	371	370	370	373	374	373	368	373	379	382	383	391	393	392	384	384	387	388	386	376	376	379	372	369	370	369	365	364	371	372	373	376	382	380	381	383	383	380	372	372	384	388	388	380	380	383	382	391	401	392	387	386	383	377	372	376	390	391	384	384	378	389	388	374	362	367	370	374	374	369	367	364	358	356	359	359	358	362	366	360	358	364	364	364	364	363	362	363	369	372	373	374	374	373	381	376	374	372	370	374	382	387	373	376	379	380	382	381	361	359	360	365	368	369	372	373	384	393	395	394	384	379	380	378	377	375	373	373	373	372	368	368	368	371	373	376	370	369	366	366	368	370	366	364	362	356	369	369	361	363	371	376	371	366	362	361	375	384	380	376	370	364	365	365	359	352	355	355	356	363	365	357	352	351	351	357	361	359	366	367	369	367	359	358	357	356	349	349	361	363	364	367	370	369	364	358	359	359	356	354	350	344	344	348	349	349	348	347	342	340	342	341	342	343	341	338	337	341	341	339	332	332	332	331	333	336	335	334	335	335	333	330	331	329	329	323	323	326	331	336	336	334	335	337	335	325	326	336	336	334	334	334	336	338	338	338	334	329	327	328	328	328	331	334	336	340	333	329	325	324	324	325	326	324	324	330	325	325	328	333	333	334	325	326	327	326	330	333	341	341	326	322	327	326	326	327	327	321	321	319	323	324	331	328	325	323	323	322	325	331	335	332	322	321	321	322	316	312	313	325	323	331	331	329	328	336	333	327	321	321	324	326	326	322	318	317	317	321	324	327	329	326	326	322	318	320	320	338	341	341	343	337	334	327	327	327	329	328	330	323	324	324	327	325	328	330	322	322	328	328	329	327	329
339	341	351	351	351	348	350	358	365	365	362	346	342	347	361	360	360	353	347	353	358	350	350	345	343	341	351	353	354	354	355	354	356	358	358	350	350	347	349	356	360	355	353	353	348	343	341	340	342	345	345	354	352	352	349	347	347	351	351	352	353	353	351	349	348	344	342	342	338	335	327	328	339	338	335	335	335	338	339	336	342	343	344	354	352	352	352	349	349	346	349	351	349	346	346	341	339	337	339	338	339	334	334	333	335	335	351	355	357	353	348	347	344	336	336	342	344	344	349	337	337	338	349	348	343	343	350	356	357	357	355	344	339	341	343	343	330	325	340	351	354	351	348	348	348	352	356	356	352	341	337	349	357	363	366	364	360	357	350	351	351	349	353	355	359	361	361	360	360	359	360	367	369	369	374	376	379	383	385	385	387	391	393	396	396	391	384	388	393	400	403	383	383	376	376	374	369	376	383	387	392	383	383	382	387	391	389	384	380	371	370	372	371	377	385	391	392	393	390	383	373	366	374	369	365	366	374	374	372	374	374	378	388	388	393	389	385	389	383	370	365	373	376	379	379	373	366	365	366	369	372	371	370	371	374	378	380	378	377	377	377	376	373	374	374	370	370	368	364	365	364	368	368	371	372	380	381	382	384	383	380	382	382	384	387	381	379	379	373	370	367	367	362	361	360	363	365	365	371	372	377	379	382	372	373	371	372	372	385	383	380	381	382	381	378	375	394	380	385	381	387	387	387	388	389	382	377	388	391	373	366	362	366	367	369	370	364	363	359	364	368	367	362	366	365	361	361	361	360	363	363	368	364	365	370	365	358	362	366	370	375	368	370	374	373	369	363	362	367	373	373	370	374	375	371	362	361	363	370	373	372	384	383	385	393	395	394	389	381	377	378	376	372	372	372	371	369	367	367	368	370	373	376	367	365	353	357	363	365	364	356	352	353	358	359	353	353	356	355	355	355	355	355	366	369	365	366	365	366	364	364	360	356	357	360	363	365	366	360	353	353	351	357	356	351	351	352	355	357	357	354	356	345	345	354	360	361	362	367	364	364	363	362	360	359	354	351	351	348	342	339	338	338	333	331	338	332	338	338	340	343	341	331	329	331	331	329	331	331	330	330	336	338	338	341	342	339	334	329	328	329	326	326	329	328	331	335	335	335	337	336	329	325	326	321	321	319	323	328	332	334	333	331	327	327	330	330	332	331	327	326	332	331	331	326	322	320	320	318	318	324	324	324	321	314	323	331	331	334	331	328	322	324	328	330	329	329	321	321	324	319	318	315	317	316	316	319	323	323	329	329	325	322	322	321	323	328	335	332	329	321	321	318	318	312	314	317	320	320	327	329	328	328	326	322	318	318	322	326	326	328	330	330	330	328	322	322	323	323	323	321	318	320	320	330	341	341	340	332	333	329	328	328	327	329	329	324	321	321	321	327	325	324	322	322	321	324	324	323	323
327	328	337	342	342	342	348	358	363	365	365	354	346	345	359	361	361	356	351	353	358	344	344	344	342	344	356	356	355	355	356	355	356	354	347	337	337	337	344	354	358	355	353	352	348	344	342	347	351	353	354	354	353	352	350	344	347	349	352	352	350	351	345	346	343	344	342	327	322	320	321	337	336	333	333	336	336	339	339	340	341	343	345	353	352	352	353	351	350	347	349	351	349	341	337	337	334	337	335	334	336	334	328	324	333	333	337	349	349	346	344	346	340	335	336	341	348	348	338	337	337	340	350	350	348	346	347	352	354	352	352	342	337	340	340	333	329	326	342	350	353	351	346	341	341	345	351	351	341	338	342	349	357	366	364	357	352	344	344	343	343	346	351	353	360	356	356	358	356	356	357	362	367	367	367	370	378	379	382	382	384	386	391	392	394	395	386	383	381	379	381	383	383	355	354	365	381	383	384	380	374	372	377	377	382	388	387	379	375	364	365	366	368	381	383	388	391	393	391	373	374	375	376	376	374	373	372	373	369	370	370	373	377	385	385	386	391	384	373	366	366	372	375	375	377	376	373	367	366	369	372	371	364	364	366	374	380	380	376	376	369	365	368	371	374	372	376	364	358	360	365	369	370	374	378	381	382	382	374	372	375	379	379	382	383	379	380	379	371	369	368	363	364	362	361	364	363	364	367	369	372	374	374	374	370	369	372	372	379	381	384	384	384	374	364	362	368	374	380	380	389	389	379	375	376	376	387	396	374	369	361	362	366	365	366	364	364	363	361	367	369	368	358	359	360	362	361	360	361	361	363	369	373	374	379	374	366	367	378	388	390	384	384	384	384	371	369	365	363	368	371	369	371	369	369	361	363	367	370	369	372	384	383	385	390	394	394	390	383	374	375	382	382	380	376	369	368	364	364	367	365	364	361	359	359	359	358	357	357	354	353	351	350	351	352	350	347	345	347	348	353	352	352	349	356	355	354	352	346	346	337	341	346	363	361	365	364	364	363	353	353	353	352	346	345	347	348	351	354	354	350	346	346	346	358	361	358	358	363	361	360	359	358	354	353	356	357	356	348	339	339	339	333	328	332	330	336	338	338	340	342	340	339	335	334	331	327	330	330	329	327	323	322	326	331	343	338	330	327	325	326	328	328	328	329	328	333	330	335	334	336	329	325	322	322	316	315	315	321	323	327	321	318	320	327	331	331	332	331	330	327	331	330	330	325	320	318	318	319	318	320	323	324	318	316	321	321	327	333	335	335	330	328	326	324	322	322	319	317	318	317	317	316	315	317	316	315	317	321	329	327	324	319	319	318	321	326	327	329	323	318	318	318	320	318	318	317	317	320	327	327	325	324	323	324	324	324	320	322	324	327	332	332	333	331	330	324	324	321	321	321	318	320	323	326	326	327	327	330	329	328	328	325	319	320	322	325	325	326	325	324	324	324	324	319	320	323	328	326	326
327	318	327	333	333	337	346	357	362	360	360	350	347	353	361	361	361	353	341	339	343	344	344	340	339	339	342	342	349	349	349	353	353	353	349	341	341	342	344	352	355	356	352	348	348	342	344	347	351	351	351	351	350	348	344	343	348	351	345	345	334	338	345	344	335	329	327	327	322	335	333	333	331	334	333	336	336	338	337	335	345	349	347	346	351	351	353	345	345	345	349	346	345	341	337	335	335	333	333	331	335	331	327	327	325	336	336	340	339	340	339	340	342	345	343	344	337	337	334	334	332	340	350	348	348	346	346	346	350	346	346	345	336	333	333	332	322	330	342	347	349	348	340	336	336	340	342	334	332	343	347	355	362	366	364	352	347	344	343	343	341	341	347	352	356	355	353	357	358	356	357	361	362	363	365	369	375	379	377	374	374	382	382	379	375	363	360	360	360	361	368	362	357	355	354	351	371	376	374	370	357	366	371	371	379	379	375	374	370	364	364	361	369	376	379	385	386	379	369	369	371	373	374	376	374	368	358	363	368	378	379	373	373	380	383	383	382	376	363	367	372	373	374	373	372	378	379	379	377	375	373	370	364	364	366	374	365	370	372	372	366	366	370	372	374	378	370	358	363	360	365	371	373	373	376	380	376	376	374	374	369	373	376	376	377	377	369	370	372	372	366	363	359	359	359	357	361	365	370	372	372	371	366	366	365	365	367	369	372	380	383	382	384	366	363	354	360	364	371	380	382	385	380	378	384	388	380	376	372	355	356	366	360	361	361	364	366	365	367	370	378	375	365	365	367	371	360	358	358	358	358	371	379	375	378	378	375	369	378	382	389	391	395	400	393	389	387	388	387	388	375	376	371	372	356	357	363	367	370	369	373	383	385	385	389	389	385	385	381	377	373	372	372	374	373	371	365	365	362	366	363	360	354	346	346	347	352	352	352	354	352	349	347	345	347	345	345	346	352	354	359	359	358	344	339	341	345	347	347	339	329	330	335	349	355	366	364	364	363	358	356	351	344	345	347	351	350	349	349	350	348	347	347	347	359	362	357	357	362	360	358	356	354	352	354	357	360	353	345	340	335	335	334	331	332	332	336	338	338	339	339	337	335	333	332	331	329	329	325	325	321	321	319	320	325	336	339	335	326	324	326	326	327	327	323	325	328	335	324	334	328	320	325	322	322	326	315	317	322	326	323	320	319	321	325	329	329	331	334	333	331	330	327	325	321	317	317	318	319	318	319	319	324	323	324	325	325	326	327	329	332	330	329	326	320	320	318	316	313	317	317	317	316	315	315	313	315	316	327	320	325	320	320	317	316	321	325	326	324	321	321	320	319	324	326	324	317	317	317	320	323	324	323	323	324	324	323	318	322	324	325	324	324	326	320	319	327	330	321	321	321	319	324	326	324	324	323	325	326	327	324	324	317	317	318	320	324	324	325	324	324	324	318	318	318	321	322	308	307	307
315	318	327	347	347	347	347	347	349	348	348	343	345	348	347	341	338	338	338	339	342	343	340	340	339	338	338	339	335	342	342	346	351	354	351	346	342	342	347	352	353	353	351	347	347	342	344	339	340	343	346	346	346	343	336	338	348	340	328	328	331	352	349	338	335	339	340	338	338	335	333	335	333	330	331	330	330	326	333	341	346	350	348	347	346	344	344	342	340	345	347	348	346	341	335	335	337	331	329	323	318	323	323	323	332	331	331	334	331	337	337	332	336	334	340	341	338	332	332	332	334	336	348	348	348	346	342	341	341	341	335	335	333	331	333	328	325	326	333	342	344	342	337	335	332	332	329	336	346	350	347	346	346	349	351	352	347	347	342	342	347	347	357	357	353	355	356	356	358	356	356	357	359	360	361	363	370	376	374	372	372	371	374	369	366	355	356	357	356	359	363	360	359	356	359	351	371	366	366	362	357	353	365	371	371	375	375	371	367	366	366	370	374	376	378	378	375	363	358	362	365	367	368	370	369	361	354	361	361	367	376	373	368	370	375	375	377	375	372	362	358	363	367	366	368	366	366	364	362	364	367	364	365	369	372	371	365	370	372	372	370	368	369	371	374	374	365	358	363	360	362	371	372	375	374	368	369	371	374	377	373	365	366	366	368	366	363	361	369	371	357	355	355	356	357	362	364	365	369	370	372	371	366	366	364	364	362	363	368	367	376	374	356	363	353	354	349	360	363	366	381	381	377	366	364	369	361	358	351	343	349	352	350	342	353	364	362	357	362	373	374	371	366	360	360	361	353	355	358	358	361	364	355	367	373	375	374	362	376	381	390	392	394	397	391	387	383	384	384	389	381	378	371	372	356	357	361	362	370	369	365	373	382	385	393	388	386	385	379	376	372	372	371	375	376	367	367	362	364	365	366	360	349	347	343	344	342	352	354	352	347	339	337	343	343	344	343	341	341	352	352	350	350	345	332	334	342	348	348	346	338	330	333	337	355	366	367	364	359	358	351	352	348	347	347	352	352	354	347	344	342	342	339	348	351	355	359	354	353	351	349	347	349	353	356	355	348	347	339	335	334	334	334	335	332	332	334	337	339	338	336	335	333	332	332	330	328	328	325	324	322	320	323	329	330	332	335	337	332	327	327	327	327	323	323	325	326	335	324	325	317	321	316	321	321	326	327	328	327	325	323	323	322	323	325	325	332	334	335	333	333	330	328	322	320	317	317	316	314	314	315	318	322	327	325	326	326	327	327	326	329	329	328	324	322	322	319	317	311	310	318	317	315	316	316	319	322	320	320	322	323	318	318	316	315	315	324	326	319	318	318	315	319	325	326	324	322	322	319	309	309	311	315	323	321	321	316	316	321	322	325	320	320	313	314	314	318	330	330	327	323	320	324	323	323	323	323	322	323	323	316	316	315	315	318	318	319	319	325	324	322	322	319	319	321	321	315	310	310	307
311	317	342	347	347	350	348	346	346	344	343	343	342	343	339	334	335	335	339	342	343	339	336	336	335	338	338	339	333	332	332	335	342	347	347	345	345	345	347	348	351	348	347	345	345	342	341	339	340	344	347	344	344	339	335	331	333	331	331	336	336	343	343	342	344	339	332	327	327	334	335	335	335	330	326	321	320	320	332	341	347	351	344	342	343	344	344	340	340	342	343	337	339	340	340	337	337	331	324	325	327	329	330	328	327	329	328	328	328	328	331	329	335	330	331	338	335	331	331	328	329	334	337	340	345	346	342	340	339	336	333	333	330	330	332	329	329	329	331	332	335	335	334	335	337	337	343	351	348	336	332	335	342	348	350	349	347	347	342	328	349	349	352	356	354	352	352	353	355	353	355	356	357	354	356	361	364	368	369	361	361	361	355	357	359	358	359	357	359	363	360	358	357	351	351	357	358	366	366	362	351	362	365	364	364	362	363	360	362	366	368	377	381	376	360	355	352	350	356	361	363	364	364	363	362	362	368	361	357	360	362	366	366	362	362	363	363	364	365	360	354	355	357	357	360	359	351	350	350	351	356	358	365	370	370	365	363	364	372	371	370	368	369	371	361	363	359	356	356	355	352	362	367	364	364	364	363	366	366	367	366	370	372	372	368	358	358	363	361	361	363	364	364	361	362	364	365	366	367	369	368	362	362	362	363	362	360	362	362	362	361	351	359	355	351	350	351	357	361	363	371	365	364	357	354	356	356	357	356	350	348	346	344	347	352	354	355	357	361	361	361	363	361	361	360	357	354	355	355	357	362	364	355	350	355	362	368	359	356	361	365	381	395	393	385	374	356	384	384	389	381	378	365	355	354	348	352	356	352	345	349	353	364	372	377	384	382	380	379	374	360	361	370	379	376	371	371	365	370	364	355	352	346	344	343	342	347	347	348	345	337	338	337	340	340	342	340	339	339	341	339	337	338	343	343	336	336	336	342	347	347	344	333	337	346	351	356	359	356	352	345	351	351	349	349	350	349	352	343	341	341	341	339	337	338	339	341	340	339	335	339	343	344	343	345	343	337	338	336	334	334	332	334	335	335	335	334	338	340	337	333	330	330	330	330	331	331	329	326	324	323	325	327	325	324	329	333	334	326	323	323	323	323	325	323	325	326	320	322	321	321	318	317	317	318	322	325	326	327	325	326	326	324	325	327	327	329	329	326	326	327	326	322	322	320	320	317	314	313	313	313	314	320	323	328	328	327	327	329	327	324	324	323	322	320	320	317	315	315	310	318	316	318	318	318	314	313	311	307	308	313	313	313	313	315	318	313	314	316	314	314	312	319	325	328	328	319	319	318	321	316	315	315	315	315	315	315	312	315	319	324	324	324	317	317	314	318	329	329	329	330	328	320	318	318	318	315	312	321	320	314	314	314	314	315	315	319	319	321	323	323	322	322	319	320	320	316	310	310	308
325	348	350	349	350	350	348	345	345	341	339	339	342	339	334	330	332	332	338	344	346	346	339	336	336	337	338	339	332	331	331	329	337	342	347	346	345	345	343	342	338	341	344	349	349	346	339	337	342	344	347	344	344	340	336	332	332	329	333	334	334	339	339	342	344	335	325	320	320	333	335	338	335	330	325	321	319	319	322	328	340	347	350	345	339	337	337	329	324	324	330	334	340	340	338	336	336	331	324	325	321	325	325	323	324	325	328	328	327	324	328	329	327	329	331	336	332	329	329	329	329	337	336	337	337	339	341	340	339	336	328	328	327	329	331	334	341	352	352	340	332	328	331	335	338	339	339	345	341	336	336	341	349	353	345	342	335	335	332	328	349	334	334	346	350	350	349	350	348	351	354	356	354	353	356	358	358	358	355	357	360	360	358	360	360	363	364	358	363	360	360	359	359	352	358	353	355	353	352	351	351	362	364	360	362	362	361	361	357	365	366	368	371	366	352	344	344	348	351	354	355	353	351	348	348	352	358	358	354	352	351	356	360	364	364	350	350	347	342	350	354	356	354	348	348	352	351	359	359	357	356	358	362	365	365	362	360	360	362	365	367	367	369	370	361	363	359	356	356	348	349	354	362	364	364	362	362	363	362	361	359	363	364	362	362	363	361	361	364	364	367	365	364	363	363	365	366	364	364	362	359	359	360	360	361	360	360	360	360	361	361	354	354	359	351	353	362	366	369	372	368	365	365	363	356	353	355	357	357	354	351	348	346	346	346	343	355	358	357	357	357	361	360	362	361	358	355	345	345	350	354	355	354	354	346	344	353	356	355	356	359	370	376	393	385	374	356	350	350	352	351	351	344	344	347	351	350	354	356	351	341	346	352	357	360	363	366	365	366	360	350	349	356	364	364	364	364	363	365	356	342	336	330	331	332	342	341	334	344	344	343	338	339	338	339	339	338	337	337	337	340	336	330	332	333	334	333	333	336	347	347	344	341	342	343	346	348	349	349	342	341	344	346	352	355	351	345	341	339	337	337	340	340	340	335	336	340	340	335	334	334	334	333	339	340	339	336	333	334	335	334	332	332	333	334	336	334	336	336	333	329	327	326	326	331	331	331	326	325	324	324	323	321	315	323	322	327	325	321	316	316	319	321	325	323	322	325	325	318	320	318	316	318	318	321	323	326	326	326	328	328	328	326	325	325	321	321	321	321	320	320	326	322	319	316	316	313	312	311	310	310	314	317	318	326	326	328	327	327	325	324	328	330	324	324	320	317	315	315	323	323	322	318	318	319	312	312	308	305	305	308	308	309	310	314	315	311	313	312	312	312	312	317	318	321	323	326	326	322	321	317	315	313	314	314	315	310	309	309	312	316	316	316	317	317	318	318	319	319	318	317	316	312	311	311	311	310	304	309	311	311	312	309	308	315	315	315	318	323	323	325	325	325	326	324	322	315	312	312	309
348	352	350	352	350	350	346	345	345	339	337	337	336	334	329	326	331	331	339	347	343	332	328	326	326	333	338	337	332	331	328	328	334	340	350	347	346	342	342	331	332	337	343	347	344	344	340	337	342	352	349	344	344	340	338	334	329	330	330	331	331	332	337	340	344	332	320	314	321	321	334	335	326	322	325	321	326	326	331	337	339	339	334	336	342	344	338	338	332	329	328	332	334	339	336	335	324	324	320	317	321	325	325	324	323	329	328	328	324	324	322	328	331	329	329	332	334	332	337	337	338	337	337	336	337	338	340	339	339	336	327	327	327	324	316	319	330	345	341	339	336	334	334	336	334	334	334	343	335	331	331	335	338	341	342	343	339	338	335	340	343	334	334	332	341	340	338	339	342	343	346	354	345	348	349	349	352	356	353	353	360	363	363	364	366	365	362	362	361	356	359	359	360	359	356	355	352	352	349	352	354	362	364	360	362	372	373	373	372	364	361	360	361	363	352	353	358	360	359	357	355	353	355	352	351	349	350	355	353	348	345	346	354	355	356	345	342	342	337	350	348	348	349	347	347	349	345	348	353	358	352	358	359	358	357	357	359	360	362	364	365	366	365	358	359	358	353	353	353	348	349	354	362	364	363	365	361	359	358	359	356	352	356	360	360	359	361	365	368	368	370	368	359	356	359	361	364	361	358	357	357	357	357	357	358	358	357	358	358	361	364	365	361	350	352	358	363	365	367	368	369	369	368	364	356	352	354	356	356	355	350	349	346	350	359	350	352	358	357	357	357	353	351	351	353	353	353	352	352	339	339	343	359	359	349	348	344	356	355	356	359	370	376	379	378	375	362	351	348	348	342	343	339	347	347	349	354	354	358	350	349	345	349	349	350	350	364	371	358	356	348	352	352	351	350	350	352	352	351	345	341	334	332	332	333	336	331	330	336	346	343	343	339	339	338	338	337	339	337	337	330	328	325	324	326	333	333	333	336	337	339	344	352	349	349	350	348	349	346	340	340	341	345	349	352	350	346	340	337	336	336	335	340	329	335	336	335	332	329	330	330	332	333	333	338	336	335	336	334	334	335	330	328	331	337	338	332	333	332	330	325	325	324	325	322	322	321	323	319	323	323	322	312	312	314	320	322	320	318	317	317	319	321	321	323	325	324	323	319	318	316	315	315	328	323	326	327	327	325	327	331	329	326	321	321	318	317	320	320	320	320	315	317	316	314	314	314	314	311	311	309	312	313	317	322	322	327	323	322	321	319	322	321	317	317	320	317	313	309	314	323	321	320	320	315	312	311	309	306	304	303	303	304	312	311	307	309	316	315	312	312	311	313	314	320	321	321	320	319	317	316	313	313	314	314	316	312	309	308	308	310	316	316	314	314	315	316	316	319	318	313	310	305	304	304	304	307	310	313	311	311	301	309	308	317	317	317	318	315	315	318	323	323	324	323	321	315	308	308	305
352	351	350	350	353	353	349	344	342	339	337	323	322	322	324	327	333	328	328	319	316	319	315	318	318	330	336	334	331	328	328	328	336	339	350	348	342	332	332	330	331	333	336	339	339	339	338	337	344	350	350	344	340	340	336	332	324	325	327	330	333	333	335	334	332	322	320	327	336	336	334	329	327	323	322	321	326	331	327	334	337	332	330	330	332	340	340	340	335	330	329	329	332	336	336	332	324	324	316	322	324	326	325	324	324	329	326	325	325	323	327	327	331	331	330	330	331	332	338	338	340	341	339	336	335	335	340	341	331	329	327	327	328	326	318	325	325	308	323	338	340	339	336	334	333	338	338	338	336	329	332	332	324	324	329	333	337	340	342	343	339	342	332	332	341	340	341	339	333	344	349	352	350	340	335	339	346	354	353	356	361	364	364	364	366	364	359	345	348	356	357	358	359	358	355	354	356	358	355	351	354	353	360	366	372	373	373	359	355	354	354	354	354	349	349	351	356	359	361	359	355	355	355	354	351	349	347	346	347	345	343	344	345	351	350	345	352	352	346	343	342	340	342	342	345	347	345	345	347	351	350	355	359	356	354	352	354	357	359	363	360	361	358	356	359	355	352	354	351	347	348	353	358	364	363	365	361	359	358	359	356	351	353	356	356	356	359	365	371	370	368	352	352	348	352	357	361	361	355	354	355	357	356	357	360	356	353	350	350	344	352	355	351	348	349	356	360	364	364	365	366	369	365	366	364	361	359	358	355	354	355	357	360	360	350	350	347	357	358	355	352	350	354	350	349	349	353	353	354	352	347	343	359	359	349	348	344	349	350	352	365	365	367	368	368	365	359	352	353	353	347	343	339	345	350	353	354	355	357	361	354	350	351	347	348	349	353	353	355	348	349	352	348	349	349	341	340	345	345	345	336	343	342	333	335	335	332	330	335	343	344	340	334	335	337	342	340	338	336	326	324	331	325	324	326	333	333	331	334	337	337	339	342	343	342	342	346	348	346	344	341	340	340	344	346	344	337	336	333	333	334	333	333	330	329	331	324	322	323	326	328	328	328	333	335	334	335	336	338	338	337	332	331	331	329	329	329	330	333	327	325	323	325	325	321	321	319	319	319	320	322	325	311	311	313	314	318	318	315	318	317	319	322	323	323	325	325	322	317	316	315	314	314	331	326	326	321	321	326	325	326	325	320	316	316	315	315	315	320	320	318	313	318	318	318	313	313	314	318	317	312	309	312	315	315	326	316	317	317	309	308	305	305	317	317	316	310	312	309	313	320	321	321	317	321	317	316	315	314	311	310	310	304	300	299	307	310	316	315	315	318	319	314	313	313	312	312	313	315	311	312	312	314	314	315	314	316	311	308	308	308	310	310	311	310	311	313	313	311	311	312	311	308	308	306	308	312	311	309	308	311	301	298	298	299	309	309	316	314	314	315	316	316	321	317	316	306	306	305	305
337	343	345	349	353	350	350	341	331	323	323	322	322	325	327	329	328	318	318	308	306	309	313	321	331	331	337	340	331	328	326	326	336	339	345	344	335	326	326	328	331	334	334	335	335	335	335	335	336	341	348	345	341	341	336	332	320	324	326	329	335	335	337	334	329	326	330	328	337	337	340	334	325	321	321	321	323	327	327	334	334	332	327	327	326	331	337	337	337	332	329	327	327	327	328	329	330	330	320	321	327	326	327	325	324	329	329	329	329	327	322	323	326	331	327	325	324	329	334	338	338	337	334	323	322	326	333	333	324	327	327	328	326	326	342	338	318	312	313	333	339	338	338	336	335	331	331	331	331	338	341	343	334	333	331	334	340	342	343	343	337	329	333	333	335	342	341	339	336	336	343	343	342	345	340	343	346	352	353	355	357	367	362	362	357	350	335	341	350	356	356	356	358	357	353	354	356	356	355	353	354	354	354	358	360	359	359	359	355	354	349	351	347	345	345	349	354	359	359	359	356	354	353	354	350	348	346	344	339	342	340	342	344	346	349	350	345	343	343	347	343	343	347	343	342	342	342	341	342	342	347	349	353	339	339	339	342	347	356	352	359	357	353	358	359	353	351	354	356	351	351	351	356	360	362	361	359	356	355	353	349	351	353	356	356	356	359	365	365	362	354	355	352	351	352	355	360	357	350	349	350	352	355	360	350	350	345	344	343	344	338	333	331	330	335	342	354	361	361	360	360	363	364	365	364	361	360	358	359	361	360	359	348	349	349	350	351	350	356	348	348	352	354	350	349	349	353	353	354	352	347	348	352	354	356	353	349	348	344	345	348	350	351	354	355	357	355	352	352	354	358	359	358	352	352	350	355	359	354	355	350	348	347	341	344	355	354	354	353	344	345	348	344	338	338	339	339	344	345	345	342	341	336	335	330	326	336	339	336	341	341	333	334	337	336	340	340	335	328	319	326	328	325	324	322	322	327	332	333	337	338	339	339	338	338	340	341	342	343	341	337	334	335	337	335	333	334	331	334	334	332	332	332	329	328	324	321	321	321	321	322	326	328	330	335	334	332	335	335	339	338	331	330	328	325	325	327	330	332	327	324	319	321	324	324	324	322	319	319	317	315	320	324	308	311	312	315	318	315	315	316	316	321	322	322	323	323	321	316	315	315	313	313	317	321	322	312	315	317	315	314	315	314	314	314	314	315	315	314	313	313	313	309	312	312	313	313	312	312	315	312	308	308	307	307	309	311	310	306	306	306	305	305	305	305	307	311	308	310	314	320	316	316	315	316	316	316	316	314	311	311	312	312	301	300	307	310	313	313	318	315	313	312	310	306	301	301	311	310	305	309	314	317	317	316	315	314	311	308	305	305	304	305	310	308	310	311	311	312	312	313	313	312	312	310	310	317	319	309	309	308	303	301	299	299	299	311	315	313	313	313	313	312	315	313	311	304	304	305	305
326	328	334	348	353	349	349	335	329	327	327	326	326	325	327	328	325	312	312	309	313	330	331	332	332	332	337	336	337	335	336	338	338	338	345	344	333	326	327	327	329	331	332	333	333	328	328	325	322	322	324	337	339	339	336	322	320	324	324	328	332	332	335	332	329	325	331	333	339	339	339	336	325	321	320	320	323	326	333	333	334	332	327	325	323	322	319	330	330	329	324	322	320	321	323	326	328	325	325	317	320	320	320	327	328	330	329	329	330	330	326	321	323	325	320	318	328	332	334	332	332	321	316	308	305	312	321	317	310	312	314	330	341	341	342	338	330	325	322	323	330	334	335	334	332	331	331	331	331	332	336	342	336	331	332	331	335	341	342	341	337	342	338	333	333	333	335	335	336	336	343	343	340	341	340	343	346	349	350	350	348	347	346	346	345	343	342	342	348	351	354	354	354	355	355	358	359	359	356	353	354	353	354	356	349	347	346	346	347	348	349	351	344	344	343	344	347	348	347	348	353	353	349	351	346	345	345	340	337	338	341	342	344	345	347	343	345	348	345	345	349	345	341	340	345	343	341	341	337	340	347	347	346	346	339	338	340	343	346	346	349	353	352	353	353	351	352	354	358	355	351	351	351	357	359	358	353	352	350	348	348	349	352	354	355	355	354	359	365	362	354	355	352	351	352	355	360	357	350	349	347	345	340	342	344	343	344	347	342	338	330	329	330	339	341	338	346	357	359	360	360	358	359	363	368	365	360	356	361	362	360	354	348	349	349	350	351	350	356	348	348	352	354	353	347	345	345	344	344	349	348	346	347	348	353	354	356	358	354	344	337	337	337	338	338	344	342	341	348	359	361	361	356	351	353	349	355	350	339	342	343	341	333	335	342	345	347	343	339	335	339	344	332	332	336	337	337	345	349	344	338	341	343	347	339	338	339	340	329	327	336	341	339	337	333	330	337	336	332	319	326	328	329	330	323	323	329	334	335	338	338	340	340	341	340	339	339	338	335	335	334	336	331	330	330	341	341	337	337	334	332	329	328	324	323	322	321	326	328	327	326	325	328	330	329	326	324	332	332	331	330	329	323	321	321	324	328	333	327	323	318	318	321	322	322	322	322	320	319	316	314	317	323	322	315	312	315	313	313	313	316	319	319	321	317	317	318	310	315	314	316	316	308	308	314	317	317	314	311	310	315	315	314	314	314	314	313	313	312	302	308	309	309	309	309	312	310	308	307	310	308	307	307	307	306	306	310	309	305	305	306	306	304	304	304	306	307	307	306	310	311	305	305	311	314	317	316	314	313	313	313	319	306	301	300	307	311	320	320	320	315	313	312	310	304	304	301	303	308	316	312	314	315	315	316	315	314	307	301	301	301	301	304	306	309	310	310	309	316	314	313	313	312	312	312	312	317	319	321	321	316	303	301	300	304	304	316	318	317	314	314	314	307	307	309	308	304	304	304	303
319	320	330	345	346	332	332	327	327	326	329	330	330	329	328	328	325	312	312	312	322	328	330	327	326	326	325	322	324	329	335	338	338	339	342	337	333	326	327	327	329	330	333	332	332	327	327	322	315	315	319	327	330	323	323	315	314	322	324	328	332	333	333	332	326	325	330	332	334	333	333	330	324	321	320	320	321	324	328	328	331	330	327	325	321	320	316	311	311	311	312	315	315	316	319	323	327	319	319	312	316	317	318	320	326	329	328	327	330	323	320	320	319	318	319	322	327	330	331	329	323	323	318	316	314	316	315	317	308	311	314	322	336	336	336	338	330	325	323	327	328	332	332	334	333	333	332	332	332	331	333	336	331	320	317	319	332	331	330	337	342	340	341	332	332	329	332	335	337	337	343	343	337	338	340	344	347	348	350	347	345	344	343	343	343	342	342	342	345	346	351	350	349	351	358	360	360	360	357	354	349	348	352	350	348	347	346	346	346	348	350	348	344	344	343	342	343	342	340	337	340	339	339	346	342	346	347	346	339	344	340	340	342	352	352	350	345	343	348	348	346	344	339	339	343	342	341	341	335	336	343	346	349	347	340	337	339	342	345	346	345	350	345	344	350	348	349	352	357	357	356	352	351	353	355	352	352	349	347	346	344	343	342	346	350	350	350	352	357	354	356	355	354	352	354	359	360	357	354	349	347	345	340	342	344	343	344	347	342	338	330	329	330	339	341	338	346	357	359	360	360	358	359	363	368	365	360	356	361	362	360	354	348	345	344	346	349	349	348	348	348	353	352	353	351	352	352	350	345	343	345	347	346	345	342	343	344	350	344	343	344	345	343	335	330	338	335	335	335	336	339	339	339	339	344	347	345	336	335	337	340	340	335	333	340	347	346	340	337	332	335	328	338	338	326	326	329	333	339	337	335	331	332	341	344	343	340	338	337	332	336	338	338	336	331	329	337	336	332	325	318	323	323	328	328	327	334	333	335	335	335	340	340	342	341	341	340	339	336	333	334	331	328	327	330	332	334	331	331	330	329	327	326	328	330	331	331	333	330	329	326	325	323	321	320	318	324	324	320	321	324	327	326	321	316	318	329	325	324	321	320	319	318	318	320	322	321	320	320	316	314	317	317	322	315	313	312	312	312	311	316	319	320	318	311	311	306	310	309	311	311	311	314	315	315	318	317	310	310	311	314	314	315	314	315	313	313	313	307	304	307	307	311	311	312	313	310	308	308	308	312	308	307	307	307	306	308	309	305	305	305	304	304	304	301	305	305	305	305	304	303	303	305	306	314	313	314	311	310	311	311	319	306	310	313	315	319	321	321	322	316	312	310	303	301	301	302	303	308	315	318	315	315	315	316	311	306	305	304	304	302	300	302	303	307	308	308	309	313	320	314	312	312	312	312	312	317	320	320	320	305	300	300	304	309	309	305	316	312	317	320	320	314	311	309	308	308	306	305	303
318	318	326	334	331	324	321	321	321	323	330	334	331	331	331	326	324	312	312	314	319	321	323	324	323	323	322	322	323	326	331	336	336	336	337	336	331	329	327	327	332	338	337	334	331	325	325	317	314	317	321	324	327	323	323	322	316	319	326	328	332	333	332	324	320	327	327	328	326	325	325	325	325	323	321	319	321	323	326	326	327	323	321	322	321	316	312	310	306	306	308	314	317	318	319	322	318	314	315	315	318	319	318	322	330	329	329	325	323	323	320	314	315	316	320	324	324	328	332	331	329	329	336	323	323	321	321	320	317	318	316	318	324	325	325	324	320	322	323	327	329	333	331	332	335	332	330	322	322	323	330	331	326	323	324	325	326	326	324	332	338	334	326	326	321	321	330	338	339	339	339	340	337	338	340	345	351	350	349	345	343	340	340	339	339	339	344	343	343	344	345	344	346	346	348	356	359	357	357	345	353	353	348	348	349	347	346	346	346	347	350	348	343	341	341	342	343	342	339	335	333	334	335	337	338	345	346	346	345	345	343	343	349	356	351	346	340	343	346	346	346	344	337	333	337	341	336	330	328	334	342	344	347	346	340	340	341	342	337	343	343	345	345	339	340	347	346	347	351	356	356	351	345	344	346	342	343	346	351	349	344	342	342	340	344	347	347	351	350	353	351	349	350	353	357	356	359	352	347	347	345	345	341	338	337	340	346	348	341	332	328	326	329	329	329	344	345	349	352	360	359	356	355	356	358	356	355	360	363	363	360	352	340	337	339	342	350	347	345	344	349	350	350	346	348	349	349	346	335	333	338	339	337	338	338	340	340	337	332	335	343	359	354	344	340	333	329	326	330	331	338	342	339	338	341	343	339	336	334	337	339	337	336	334	335	338	340	344	344	338	334	327	327	327	330	330	331	332	335	334	334	334	336	337	336	332	328	324	329	331	334	335	332	332	331	329	333	335	335	332	328	318	329	330	330	328	329	336	332	328	329	330	338	338	342	341	341	341	336	335	334	329	325	321	325	327	327	327	326	327	328	330	337	337	338	339	334	333	330	329	329	329	325	325	324	322	319	319	314	313	319	323	322	321	320	321	319	321	320	321	318	318	315	315	316	319	320	321	318	313	317	317	317	316	313	313	312	312	312	312	310	309	318	316	310	304	304	299	311	310	310	310	314	309	311	311	303	306	309	310	314	314	314	313	315	315	314	313	306	308	308	309	313	313	310	313	313	310	310	309	311	309	307	307	308	306	308	309	305	307	310	308	308	305	302	304	304	304	303	302	303	303	306	311	308	305	304	309	309	309	311	319	310	310	312	316	321	321	321	321	315	312	311	302	300	300	300	303	311	314	314	315	315	314	316	313	306	302	301	301	298	298	301	302	307	308	308	312	313	318	315	311	311	312	312	312	316	317	317	316	311	300	299	308	311	311	309	312	308	307	307	310	314	311	308	299	299	302	307	305
318	311	316	320	320	319	317	317	320	322	325	337	334	334	330	326	315	314	314	314	321	320	321	324	322	319	319	319	320	321	321	319	325	325	331	336	331	328	327	332	332	332	330	328	318	317	313	313	314	313	307	309	324	323	323	323	320	325	327	332	331	332	332	324	326	328	327	327	326	327	325	325	325	322	317	320	323	320	321	320	320	320	320	322	319	316	312	309	308	308	298	314	318	322	323	317	315	311	302	302	308	313	317	321	320	319	320	321	321	319	319	314	315	315	320	320	322	327	330	335	335	327	327	324	324	322	319	318	316	315	316	319	320	320	317	317	316	319	327	328	329	333	323	319	318	319	320	320	320	320	323	320	318	321	325	326	326	324	321	316	319	319	321	320	321	321	330	335	339	343	343	338	332	333	340	345	349	349	347	345	340	338	335	335	336	336	341	341	340	341	341	343	344	345	346	352	349	348	355	354	346	344	344	347	348	347	346	347	348	348	349	342	339	337	338	343	348	349	339	335	333	333	336	336	341	337	343	345	348	353	354	351	351	333	330	335	336	341	342	342	342	340	336	336	339	339	338	335	330	334	341	344	342	342	340	340	342	341	336	331	333	344	343	338	340	343	343	343	344	345	347	346	342	337	341	337	341	345	349	351	348	347	342	343	342	343	343	347	348	351	348	351	351	354	355	358	352	347	345	342	345	344	341	339	339	341	344	338	336	334	332	326	327	326	326	329	335	342	344	345	346	354	351	351	346	343	349	356	361	358	354	338	334	333	328	331	335	347	345	342	341	342	342	344	344	344	342	338	329	329	334	336	337	339	338	339	342	341	339	343	344	344	345	342	338	336	334	331	332	340	345	344	338	333	330	331	335	334	333	337	339	338	336	334	335	336	339	340	338	343	336	336	327	328	329	331	332	332	335	337	339	342	342	340	337	336	333	329	326	330	332	335	332	332	330	328	333	334	331	332	332	320	332	332	339	345	331	328	322	320	319	320	331	336	332	333	333	342	335	334	333	329	326	322	322	324	326	326	327	327	329	337	337	335	334	339	334	333	331	329	328	328	326	325	324	323	323	319	316	315	317	310	311	312	318	318	319	321	320	317	315	313	313	313	319	320	321	315	314	313	317	317	316	313	311	311	312	312	311	309	308	308	304	312	306	304	301	299	301	306	306	309	308	310	311	309	310	298	309	310	311	311	313	317	311	311	315	314	313	308	309	309	309	310	308	305	309	311	316	317	314	312	312	312	308	306	308	307	307	307	310	311	311	308	305	304	304	304	301	303	298	298	305	308	308	304	301	303	309	309	310	317	317	312	312	318	321	321	324	318	314	313	311	307	307	309	310	306	305	304	314	315	315	315	315	310	305	300	294	294	296	296	302	306	309	309	309	309	316	317	309	311	311	309	308	309	310	306	306	304	308	304	305	309	309	308	304	308	302	300	300	310	320	317	310	300	300	296	298	300
311	311	312	316	317	315	315	315	320	323	327	337	335	335	332	319	311	313	317	321	321	320	320	322	318	316	316	315	317	318	316	316	318	318	321	323	329	333	335	335	335	332	330	317	316	319	318	318	313	313	314	312	318	323	323	323	325	328	329	330	317	313	316	316	326	323	322	322	325	324	324	324	323	322	318	318	321	323	323	323	323	323	321	317	308	307	309	309	308	306	314	314	321	318	321	322	322	312	310	310	310	314	315	310	309	310	315	323	325	325	325	320	309	315	320	320	320	326	331	328	324	319	319	320	317	316	324	316	314	312	309	312	315	315	316	316	311	310	317	327	332	331	323	319	313	315	316	318	318	318	317	312	312	316	321	325	326	324	324	324	326	324	322	321	331	331	331	334	336	339	333	327	328	330	339	344	349	349	346	343	336	335	334	330	333	333	336	333	332	332	332	332	338	348	350	348	344	346	347	347	344	344	344	346	346	347	347	346	348	348	341	337	336	334	336	337	339	341	339	333	332	333	336	336	337	343	343	346	347	350	351	350	338	328	325	328	333	338	339	338	337	337	334	332	327	332	333	336	341	344	342	339	341	344	342	338	337	333	330	330	332	335	334	335	337	336	337	335	337	337	341	340	339	338	336	339	340	342	346	346	346	346	342	342	343	344	345	345	347	346	347	351	352	352	355	352	353	354	345	343	342	342	341	340	337	337	335	339	332	335	332	332	329	325	325	325	326	331	338	340	338	343	347	341	342	341	346	351	355	345	340	337	333	328	326	326	330	331	335	338	333	331	334	341	339	339	337	335	335	329	330	335	337	339	340	340	341	341	339	342	345	344	343	342	338	337	335	335	337	343	345	340	337	331	331	331	332	332	331	336	341	344	342	341	341	342	338	336	338	331	330	330	326	334	335	330	331	334	334	336	338	342	341	338	335	336	331	329	326	330	332	332	331	330	330	330	335	333	330	330	334	335	335	345	339	333	321	318	323	325	323	324	327	325	328	332	332	331	325	330	329	330	332	328	323	325	325	325	323	324	331	329	326	335	334	335	339	335	332	330	329	327	326	324	324	323	323	319	318	319	312	311	314	313	314	319	325	321	318	314	313	309	309	311	313	309	314	315	314	319	313	317	318	312	310	307	307	305	303	308	311	303	303	308	309	308	303	299	300	300	309	310	308	309	310	309	310	298	301	301	304	304	307	309	306	303	305	307	309	308	303	306	306	306	301	299	304	308	313	315	312	308	312	312	310	310	307	307	306	308	310	310	310	306	305	309	307	305	304	300	300	301	301	308	305	303	301	303	305	305	308	314	317	318	319	321	321	323	320	313	312	310	305	305	305	308	308	307	305	304	311	311	312	311	308	303	299	295	295	294	294	293	295	306	307	307	309	311	313	317	309	307	307	306	304	305	307	305	305	304	299	301	303	299	299	308	304	305	308	300	300	303	302	303	305	301	301	295	294	298
299	312	312	316	315	315	316	320	320	327	332	337	334	325	325	316	313	314	317	324	324	319	320	322	314	310	310	308	313	315	315	314	312	312	316	321	326	327	326	324	324	321	316	317	316	319	318	315	315	315	315	315	320	329	330	330	329	323	310	304	307	312	324	324	324	323	322	319	319	322	323	323	323	319	317	318	321	325	325	323	323	323	321	317	316	314	310	308	306	314	314	321	320	321	309	306	309	311	311	311	311	311	312	311	310	312	312	317	320	314	313	313	307	310	314	320	320	322	323	316	315	314	309	309	316	327	325	320	316	314	314	311	313	312	308	308	308	312	313	315	318	317	317	315	313	315	326	326	323	313	313	310	309	317	321	322	326	326	327	326	325	324	326	329	330	331	331	332	335	334	328	325	325	330	334	342	346	349	346	343	336	324	329	332	330	324	324	327	328	327	325	324	324	330	335	338	341	341	343	342	342	340	337	341	345	344	342	344	344	341	341	336	336	334	337	338	338	338	339	335	333	333	333	328	337	343	343	337	334	334	336	335	325	324	325	328	331	333	334	335	330	330	324	321	327	333	335	336	341	343	341	338	341	341	339	338	329	328	330	334	335	335	335	334	335	335	333	328	331	334	338	338	337	337	340	342	338	336	337	343	342	344	345	343	342	343	344	344	345	346	347	349	352	342	346	353	355	352	340	339	338	341	341	341	341	335	334	333	335	332	334	335	327	330	329	327	326	331	338	337	337	340	337	338	338	338	341	353	353	348	344	337	331	331	330	330	332	332	333	333	330	330	329	329	333	333	336	335	335	332	330	330	336	340	343	340	340	339	337	338	340	339	338	337	337	337	337	336	337	342	343	337	333	331	331	330	329	328	330	336	341	342	342	341	340	338	343	336	330	330	330	323	324	330	326	325	325	328	327	330	336	336	334	330	327	336	331	329	328	327	330	331	330	331	330	330	333	333	330	329	321	332	332	336	331	323	317	319	322	321	315	316	319	320	325	329	331	327	322	328	328	331	334	334	333	331	331	326	322	323	325	329	326	328	330	329	328	328	327	328	326	325	322	324	324	324	322	321	320	319	316	323	320	314	313	310	315	312	310	310	309	309	309	309	309	309	314	311	309	311	321	317	316	313	309	307	307	304	305	310	311	310	304	309	309	310	308	305	304	304	308	310	309	304	310	309	305	297	305	304	304	304	303	304	305	302	299	301	304	303	305	305	306	308	301	299	299	301	303	307	312	308	308	307	310	310	310	313	313	311	308	308	306	302	305	305	307	308	309	302	302	299	304	308	305	303	301	301	301	305	309	310	315	318	321	322	322	323	315	307	306	306	303	303	303	304	308	307	307	305	301	301	303	309	305	300	298	297	297	294	291	294	295	302	303	303	305	311	313	312	304	304	303	300	296	292	294	303	303	300	298	293	296	303	303	297	299	305	308	298	298	298	299	301	302	302	302	302	302	296
301	310	310	314	315	315	306	311	311	313	318	321	321	319	319	315	313	312	321	328	328	326	319	320	314	310	309	309	314	318	317	313	309	310	310	315	319	321	321	319	313	313	313	316	313	319	318	314	314	314	314	315	320	326	330	325	325	311	302	303	307	310	325	318	318	319	319	319	319	324	321	317	317	313	318	319	321	323	320	319	320	320	320	323	319	318	316	311	310	317	317	321	320	312	307	306	308	309	309	310	310	310	310	309	310	314	317	319	317	309	304	304	312	306	314	319	320	322	323	310	313	309	309	309	310	315	322	318	315	315	311	312	312	311	306	307	307	310	301	304	309	315	317	316	319	322	326	326	321	311	311	308	307	315	319	321	331	326	324	322	319	321	325	328	328	330	332	332	332	331	329	325	325	332	336	338	343	343	340	333	328	324	329	328	326	328	328	330	330	330	329	329	329	329	326	325	330	333	335	338	336	329	335	336	342	342	341	340	343	342	342	336	335	336	336	337	335	336	335	331	330	331	331	329	327	337	338	337	334	334	329	329	329	327	328	327	329	328	331	333	335	329	329	331	322	335	335	335	340	340	339	334	331	329	329	331	333	327	321	323	328	332	334	333	334	334	329	328	326	328	334	340	339	340	339	339	339	330	328	329	340	343	342	342	340	341	347	347	342	342	344	348	344	334	337	344	347	345	335	335	337	337	338	342	341	333	333	333	335	337	335	335	334	327	330	330	331	332	337	342	336	339	336	337	339	342	344	353	344	346	340	336	334	333	335	336	334	344	342	338	332	331	329	328	327	327	330	335	339	338	333	329	332	339	341	336	338	338	336	334	335	335	336	337	336	337	336	337	335	338	337	335	332	331	330	329	327	330	332	339	338	342	340	340	340	337	335	332	326	322	322	325	322	321	323	324	326	326	328	331	340	344	334	330	327	327	330	326	324	322	323	326	327	329	329	329	329	332	326	318	328	328	331	323	322	320	319	318	318	313	314	316	318	319	320	326	328	327	324	323	328	331	333	334	333	333	327	325	322	323	325	323	325	325	326	325	324	323	326	331	332	331	325	321	317	317	316	317	320	319	329	321	313	312	307	305	310	312	314	311	308	308	305	309	309	304	304	303	302	304	306	312	312	311	308	307	307	306	303	307	311	311	308	311	311	311	312	311	311	308	307	308	309	304	302	303	300	309	308	305	305	303	303	303	301	302	301	297	298	303	304	304	308	308	303	301	305	299	303	307	306	306	302	301	301	300	301	303	311	311	310	310	305	302	303	305	309	309	302	302	303	302	304	308	308	303	303	301	301	302	306	307	308	316	318	319	319	315	309	305	303	301	300	300	303	304	306	306	308	308	306	306	305	302	304	299	298	294	294	292	292	290	290	296	296	303	305	305	307	302	300	300	299	296	290	292	295	295	299	300	299	295	288	288	287	297	299	303	297	297	294	299	298	300	301	301	301	300	299	300
310	316	316	317	317	312	306	311	308	315	316	318	317	315	315	313	312	313	323	329	330	330	329	323	317	312	309	309	315	317	316	308	308	307	307	309	310	313	316	316	312	312	307	310	311	317	319	314	314	315	315	313	312	317	321	319	319	313	307	305	307	310	315	315	315	315	316	318	320	324	321	306	306	312	315	315	315	316	313	307	316	316	322	326	325	321	317	319	314	316	317	317	318	312	307	307	308	309	310	309	310	310	309	306	310	311	319	316	318	310	305	304	304	307	308	311	310	311	311	310	313	307	303	303	308	312	318	317	315	315	314	318	313	310	306	307	307	302	303	308	312	315	317	315	316	322	330	327	321	311	310	310	312	321	325	326	323	313	314	316	319	321	325	320	321	328	333	333	335	336	334	326	325	335	337	332	329	333	333	324	328	329	329	328	326	328	330	330	330	330	330	329	331	330	329	326	329	331	335	333	335	333	328	335	342	341	341	340	341	339	336	336	332	332	330	330	332	332	331	330	328	329	332	327	326	326	337	334	327	327	329	329	329	330	328	326	327	326	329	332	335	332	332	332	337	339	335	337	340	335	328	327	329	329	331	336	339	338	326	325	327	329	330	327	328	328	331	334	331	331	331	330	329	329	327	328	329	328	325	327	325	324	323	323	322	330	336	336	341	343	343	341	332	336	342	342	343	339	331	334	335	333	332	333	331	331	332	333	337	336	337	334	330	326	329	327	323	333	336	336	336	334	331	333	337	337	338	341	325	328	339	334	331	337	337	336	337	340	332	335	337	335	334	333	333	331	330	333	336	336	334	331	332	332	333	335	330	331	334	332	331	331	330	331	329	328	330	330	328	327	328	328	328	328	331	327	327	330	333	335	334	336	334	338	335	335	333	331	326	326	326	325	327	327	326	326	326	330	329	331	340	344	340	337	323	321	322	322	320	321	323	322	324	328	327	327	328	328	320	320	318	318	320	322	321	320	317	316	314	315	314	319	319	319	322	323	326	327	323	324	328	331	331	333	328	328	327	325	326	320	322	322	324	325	325	323	323	322	323	324	323	320	315	312	312	311	311	319	316	325	324	319	313	313	313	309	306	312	313	312	309	308	305	308	309	308	309	309	302	302	303	304	311	309	307	307	308	306	306	306	310	310	309	308	310	307	305	304	304	301	303	308	310	303	301	301	305	308	306	304	304	302	302	302	302	303	302	296	297	300	302	302	301	301	301	304	302	299	298	297	298	298	299	300	300	295	293	297	306	311	311	311	306	304	305	306	309	309	306	306	303	302	303	303	305	306	303	303	301	300	302	303	304	307	306	306	305	304	303	303	301	298	300	300	300	303	304	306	309	309	309	306	306	300	295	297	295	295	294	290	290	289	289	296	296	302	305	312	307	305	301	301	299	296	295	291	294	294	299	299	300	295	289	288	287	291	295	301	303	303	303	299	301	301	301	301	300	298	297	300
318	324	323	323	312	306	305	308	308	315	315	312	313	312	308	308	309	311	322	327	329	329	327	323	317	313	311	311	315	317	312	309	309	308	308	309	314	317	322	316	313	313	310	306	307	313	317	316	315	315	315	307	302	309	314	314	314	316	309	306	308	313	314	311	311	312	313	316	315	314	306	306	312	311	314	315	314	313	312	305	315	324	324	329	325	320	320	314	310	308	312	312	316	315	309	307	308	309	310	306	303	303	306	307	310	311	310	316	312	306	307	310	310	313	307	308	309	309	309	310	305	307	303	303	303	312	314	315	319	320	320	319	312	305	306	310	306	306	307	309	314	315	314	315	317	322	330	328	322	317	310	310	318	324	326	325	320	321	319	322	324	322	314	319	331	343	343	341	341	339	335	330	327	331	336	330	327	324	322	327	332	333	335	332	327	328	330	330	328	328	328	331	332	332	329	327	324	327	331	336	331	329	331	334	336	339	341	338	334	336	334	334	331	329	326	324	325	331	330	329	328	331	336	334	327	336	333	329	326	328	331	331	329	330	328	326	326	327	326	325	333	332	335	335	338	338	333	334	338	338	331	328	329	330	331	334	337	339	337	332	333	333	330	330	328	328	330	331	335	338	341	332	321	323	328	334	333	335	334	334	334	328	328	329	323	324	332	334	334	336	342	341	338	337	337	336	336	329	329	331	334	335	330	329	328	329	330	333	336	335	332	330	327	324	324	321	327	331	333	336	334	333	331	331	331	336	326	320	313	320	321	321	322	323	325	325	333	330	330	330	332	334	333	331	331	330	330	333	337	334	334	331	331	330	332	333	332	329	329	329	328	325	326	328	323	322	324	322	323	325	327	327	327	328	323	326	329	332	332	336	332	334	335	334	332	331	327	331	328	328	327	327	329	328	329	326	326	330	329	328	331	334	335	336	327	319	318	319	319	323	321	319	318	316	317	321	325	328	327	321	321	320	317	319	326	325	320	317	315	314	316	317	319	322	322	323	323	325	323	322	320	322	326	328	333	328	322	320	322	323	317	317	324	324	325	321	321	314	312	310	310	315	315	314	314	310	309	316	320	322	318	311	315	313	309	307	308	309	309	312	312	309	306	302	303	301	302	304	305	307	307	303	304	310	306	306	306	305	304	305	309	309	308	307	304	303	300	299	299	301	303	305	307	304	302	303	304	305	304	304	301	299	301	302	302	303	302	300	301	300	300	301	300	302	301	304	302	305	305	303	303	300	297	300	300	295	298	300	297	296	296	302	305	302	305	307	310	308	306	306	301	299	299	299	300	298	298	298	298	298	303	301	296	296	296	296	296	296	296	299	300	298	303	303	304	305	305	306	305	296	296	308	301	298	295	295	292	292	293	291	289	289	289	296	296	300	303	306	304	302	302	299	299	295	300	299	297	297	295	295	296	295	289	289	288	287	294	298	304	304	306	303	301	299	299	300	301	294	299	297
316	319	319	319	322	320	319	317	315	315	315	312	310	309	308	308	309	310	318	325	327	327	320	314	314	314	316	317	317	318	312	309	313	313	312	312	315	315	314	312	312	311	311	306	305	312	316	315	312	312	309	307	302	300	310	315	314	314	308	305	308	312	312	311	310	310	311	310	309	307	305	306	311	311	314	312	313	310	306	305	308	314	314	320	325	317	309	302	302	301	303	303	309	314	312	309	309	309	310	305	305	306	306	310	310	311	306	303	308	310	311	313	313	309	302	307	309	309	308	311	308	299	303	303	303	313	315	315	319	319	317	317	309	303	306	311	313	313	318	317	313	305	305	317	322	328	329	329	326	320	316	318	318	324	324	321	318	321	318	325	320	323	318	322	330	331	327	331	331	332	333	332	328	330	330	330	324	321	320	325	336	337	336	327	329	330	328	328	328	328	327	328	328	335	329	326	324	323	326	327	324	327	330	332	331	328	325	326	330	333	331	330	330	328	325	325	323	324	330	328	332	334	336	333	333	334	330	326	322	328	333	333	333	325	323	327	326	327	326	325	320	321	326	326	328	329	332	334	334	332	330	330	330	329	329	331	330	330	334	334	334	331	334	333	332	330	329	331	329	333	333	333	334	337	337	335	331	331	335	335	340	338	334	329	331	333	334	329	329	327	327	326	334	336	336	332	330	323	324	331	335	335	332	327	326	329	330	332	335	335	331	327	324	324	322	318	324	329	333	336	334	333	331	327	324	321	317	311	312	315	316	316	317	319	321	324	323	326	326	326	329	331	331	330	330	326	326	329	334	336	335	331	330	328	329	331	332	331	327	325	324	324	327	324	324	324	321	320	319	321	326	324	324	322	321	321	330	329	332	335	336	334	332	337	325	318	318	324	324	325	325	326	329	328	329	327	328	330	333	331	331	332	335	324	319	317	318	320	318	314	320	322	323	324	321	315	325	327	327	318	318	317	316	315	314	315	315	316	316	316	315	314	318	317	321	320	321	322	326	320	317	322	326	328	328	328	321	321	325	321	320	314	319	315	313	314	313	318	314	310	307	312	316	316	319	316	319	321	320	316	309	308	308	311	309	306	311	309	309	312	312	307	306	303	303	301	300	301	302	305	309	307	304	303	303	309	305	303	301	305	308	308	306	299	301	297	299	300	299	300	301	305	299	302	302	303	305	305	304	304	300	300	302	303	303	303	302	301	301	298	298	299	300	302	301	297	303	304	305	302	302	298	298	297	297	296	301	301	299	299	296	294	299	300	299	299	299	308	308	307	306	301	300	301	301	298	295	295	298	303	301	299	294	294	292	292	292	294	294	299	300	302	302	305	308	306	304	303	296	296	296	296	301	298	290	289	292	292	291	291	289	290	301	301	299	296	292	290	298	298	298	286	290	295	294	293	293	293	290	295	296	292	292	288	288	290	293	298	298	300	298	296	297	292	292	292	292	293	299	297
308	316	325	325	326	325	321	318	320	320	316	311	310	309	306	306	308	311	316	323	319	318	318	317	316	315	317	316	316	311	312	311	313	313	314	314	314	310	308	308	310	307	307	308	311	312	315	315	311	311	308	304	297	300	310	313	313	313	310	310	312	312	313	312	310	310	310	310	307	306	306	306	308	308	312	312	313	309	308	307	306	307	307	308	315	313	308	301	300	302	307	304	304	310	312	311	310	309	310	305	305	307	307	312	313	312	310	299	303	306	310	312	310	310	301	304	307	308	308	308	308	303	299	303	313	313	315	314	315	311	312	316	313	304	307	306	310	319	319	316	311	305	298	303	305	314	317	317	317	316	316	320	320	323	324	321	318	314	320	320	313	322	337	335	335	335	327	329	332	332	332	324	325	327	326	322	315	320	315	322	330	327	325	320	323	327	329	328	326	326	327	328	328	330	329	325	324	324	324	323	324	325	324	326	331	327	323	323	324	330	329	329	328	328	328	324	323	323	327	331	332	335	333	333	330	326	325	317	320	324	332	332	326	326	326	327	326	327	327	325	320	321	326	325	325	327	331	332	329	329	331	332	332	330	331	329	326	326	329	332	332	331	333	332	331	333	332	328	326	330	334	335	335	334	335	334	333	328	331	333	333	327	327	328	331	333	333	329	329	327	327	328	329	334	334	332	332	326	326	330	335	334	330	326	325	325	328	332	335	334	330	327	322	322	318	318	324	326	332	335	333	332	325	315	315	318	316	314	314	317	317	317	319	317	319	319	319	323	327	324	326	327	329	329	326	325	324	327	326	337	337	336	328	327	328	330	331	331	330	327	327	325	325	326	324	321	320	319	318	321	320	323	323	322	320	318	322	331	329	329	332	335	337	327	324	316	315	321	324	325	325	326	328	329	328	326	329	331	326	324	323	322	323	317	318	316	321	321	318	316	314	316	312	317	315	312	319	323	323	323	318	314	312	312	307	311	314	316	316	318	317	312	315	314	315	317	319	322	321	320	317	315	316	316	315	315	322	321	326	323	315	313	308	310	310	311	313	319	321	310	310	312	317	317	320	317	316	313	310	314	309	307	306	306	307	306	311	314	309	309	307	303	301	301	300	301	300	300	304	303	305	310	306	302	302	305	305	305	302	302	307	308	306	299	292	297	299	299	299	296	300	297	299	302	300	300	304	304	304	304	302	303	305	303	303	302	301	302	299	299	298	299	300	301	297	298	301	297	301	301	301	296	296	297	297	300	301	300	299	299	293	296	296	295	296	299	299	298	298	299	301	299	297	296	297	294	294	295	297	299	295	295	294	294	294	294	293	294	294	296	299	301	301	306	306	306	301	300	301	301	295	295	299	294	288	289	289	293	291	292	291	296	299	299	299	297	291	286	289	291	291	293	295	295	294	292	292	293	290	293	291	288	288	289	287	290	292	296	296	299	297	293	293	290	290	290	292	293	295	295
310	316	317	317	320	321	320	318	316	316	314	311	309	306	306	308	308	311	312	313	318	319	319	317	317	315	314	315	315	311	312	314	316	313	314	311	309	307	303	304	307	311	311	310	309	310	312	315	313	301	301	296	295	305	310	313	314	314	314	314	311	312	312	310	312	312	308	309	306	306	305	304	305	309	309	309	309	309	310	307	304	304	310	310	313	313	310	304	305	307	304	302	302	304	310	311	311	309	309	307	305	307	308	311	315	315	307	306	304	305	306	308	309	309	308	295	298	303	306	308	304	303	304	308	304	304	307	314	315	311	310	311	310	308	305	304	305	309	309	307	306	306	303	307	308	310	313	312	308	308	309	311	314	314	314	314	315	314	320	317	319	310	333	335	335	328	326	320	314	313	313	317	322	325	320	321	313	320	316	321	323	321	320	316	321	327	329	329	326	326	324	325	327	330	329	324	322	323	320	319	320	322	324	324	324	325	325	321	322	321	321	326	329	329	329	326	323	321	325	330	332	332	327	325	322	324	315	317	317	328	327	321	323	327	327	328	329	326	327	324	319	319	321	325	327	327	331	327	327	328	332	331	330	330	327	328	324	321	324	328	328	329	322	324	326	328	328	326	325	324	329	334	333	333	334	334	331	328	328	329	327	326	324	327	327	329	329	325	327	327	328	328	327	330	332	331	331	329	327	330	330	328	320	316	314	319	323	331	334	332	329	327	324	322	320	323	325	329	332	333	332	323	314	317	317	319	317	317	319	320	321	324	322	318	318	319	320	322	326	329	325	325	323	323	321	320	321	321	324	327	339	337	322	322	321	327	329	331	325	326	327	326	327	324	323	321	319	318	317	318	320	321	321	321	319	318	319	326	328	328	328	335	336	329	324	316	315	315	321	324	319	324	326	327	325	329	329	328	326	320	320	319	317	317	315	314	317	322	320	316	315	312	313	311	312	314	308	311	311	314	312	307	310	312	315	316	312	315	318	319	317	312	311	314	316	316	319	322	321	321	318	314	314	314	312	312	316	320	318	317	314	308	307	308	312	314	316	319	314	312	314	314	314	314	316	317	315	312	307	304	304	308	306	306	307	305	307	312	305	305	301	302	299	297	295	295	296	305	301	302	306	307	304	304	299	301	304	304	298	297	298	301	301	299	292	294	294	294	294	301	299	298	298	297	293	298	302	306	306	304	302	304	305	305	303	298	297	296	297	299	298	295	294	295	297	291	292	296	297	297	299	298	293	295	295	301	301	299	296	296	295	293	294	295	296	295	295	295	298	299	301	296	296	295	295	294	294	298	296	296	295	294	293	293	293	294	293	294	295	296	300	301	301	301	302	301	297	293	293	293	292	297	297	288	288	290	289	293	296	294	294	294	296	296	296	296	293	292	290	290	295	294	294	297	294	292	292	289	289	286	288	288	288	290	296	295	295	297	297	301	297	292	289	289	290	290	291	290	295	295
313	313	310	311	311	315	317	315	314	310	310	310	308	307	313	308	308	311	307	307	314	315	315	316	315	313	314	312	314	314	315	315	315	313	311	309	309	303	304	307	309	316	312	312	312	312	319	320	309	308	308	308	313	313	312	313	314	314	324	322	316	312	310	310	309	309	309	310	307	309	299	298	302	312	312	313	313	311	310	307	303	304	307	307	308	308	308	308	308	308	303	299	297	297	307	310	311	309	307	307	308	308	311	311	313	313	311	300	296	295	304	305	308	309	309	298	294	293	303	300	294	293	300	304	308	310	310	312	312	311	310	308	306	307	312	312	313	312	311	311	310	307	302	304	303	306	308	312	317	314	314	310	308	308	306	306	307	314	317	317	319	318	316	315	310	314	320	311	305	305	305	304	317	315	316	309	309	316	318	320	318	315	319	320	322	323	327	326	325	324	324	324	327	328	326	324	322	323	317	316	317	321	323	323	323	321	326	323	321	319	319	320	322	322	322	321	320	320	324	325	326	322	320	319	319	313	314	315	316	326	319	322	316	327	327	324	323	325	320	319	316	317	319	322	325	325	328	327	327	328	332	323	323	324	324	324	324	323	320	322	325	326	322	321	321	324	327	326	323	322	328	333	329	322	319	321	322	323	329	328	327	324	327	330	328	328	329	328	325	325	327	327	327	329	328	328	327	327	330	331	327	322	320	319	316	317	322	328	330	330	329	324	323	322	322	324	332	335	330	330	330	316	312	316	319	317	313	312	318	320	321	322	327	324	319	319	321	322	323	329	330	324	320	320	319	319	318	315	315	321	322	320	318	319	319	322	325	324	322	323	324	324	321	320	320	319	318	318	318	320	321	324	322	321	314	314	316	319	322	322	328	335	336	329	318	318	317	317	320	321	320	324	322	324	325	326	325	328	322	320	320	319	318	318	315	315	316	317	320	316	315	311	310	312	312	312	315	314	314	311	310	315	310	306	308	309	307	314	316	317	313	310	306	311	316	316	316	318	318	320	316	315	315	315	314	314	316	314	313	316	316	310	310	309	313	318	318	311	312	313	313	313	313	313	313	312	310	308	305	304	305	308	306	312	310	309	307	306	306	297	295	301	300	301	303	298	299	300	302	303	309	307	304	304	300	300	301	298	298	292	293	301	301	298	297	292	292	294	295	300	299	298	298	296	293	299	302	305	305	302	299	300	302	303	298	296	296	296	297	297	296	293	294	294	295	292	287	295	297	297	299	299	296	294	294	294	293	293	293	295	292	293	294	293	293	295	298	298	300	300	300	298	295	292	296	297	297	293	295	297	298	293	292	293	293	292	288	290	291	296	300	300	297	301	297	295	293	292	291	291	293	297	297	291	288	290	290	293	297	297	298	296	296	294	296	293	291	293	296	296	296	294	297	291	294	294	289	287	288	291	292	292	289	289	290	290	295	295	297	301	300	296	289	289	288	287	288	289	295	295
313	314	308	308	308	312	314	312	311	309	309	309	306	308	311	307	307	305	307	301	306	311	310	310	308	296	298	299	302	302	304	300	297	306	308	305	305	303	304	312	322	330	323	323	321	317	317	313	311	313	313	315	315	318	316	318	322	324	324	322	313	312	311	311	311	310	310	309	309	299	298	304	309	311	312	312	314	312	310	304	303	304	299	301	301	298	296	308	310	314	304	300	303	303	308	312	312	310	307	306	307	307	307	307	313	313	308	294	296	306	307	307	306	302	302	299	295	297	307	306	300	300	307	309	311	311	311	309	308	308	308	308	306	310	311	312	312	308	308	308	308	306	304	303	302	300	296	299	309	317	313	309	304	301	301	299	299	308	316	322	317	318	316	308	303	309	308	307	307	306	312	312	324	318	313	312	317	319	319	315	305	305	311	317	317	317	321	325	323	322	322	322	326	327	323	322	320	318	317	316	313	315	318	319	319	319	320	323	324	317	317	317	320	320	320	319	314	314	314	314	314	315	317	315	312	311	311	312	314	317	321	311	308	313	321	321	319	315	317	315	315	318	319	322	322	323	323	326	325	328	330	323	323	324	324	324	325	322	319	322	321	324	321	322	322	323	324	324	322	322	328	322	321	318	314	314	315	321	323	323	323	325	329	324	326	329	327	324	322	322	320	319	321	319	314	314	316	321	320	320	322	323	323	321	320	323	325	326	328	327	323	322	322	323	331	331	339	333	336	329	320	313	314	319	323	317	317	318	321	323	327	327	330	327	324	321	320	322	318	329	325	325	325	324	321	318	319	319	311	310	316	316	317	319	319	321	321	321	320	316	317	320	318	318	317	318	318	316	311	315	317	318	323	326	324	321	316	319	322	322	321	319	320	320	314	315	315	317	318	321	320	319	320	322	324	323	322	327	328	319	320	321	321	318	320	317	318	319	319	319	316	312	311	310	311	312	314	314	313	309	311	311	311	309	306	307	312	315	316	316	316	310	306	311	307	307	312	315	316	317	316	316	316	315	314	317	319	316	317	317	316	309	310	310	312	312	311	309	310	312	311	311	310	309	308	305	308	305	305	304	305	304	309	313	308	307	307	307	307	303	303	302	298	300	303	303	299	300	305	307	306	302	302	301	300	300	302	300	301	292	293	294	295	300	301	301	298	299	299	300	299	299	299	296	286	285	287	287	290	297	297	298	298	299	295	296	296	296	296	294	292	291	289	290	291	295	291	293	293	296	299	301	295	295	295	295	294	293	293	295	292	290	288	290	296	298	298	298	300	300	303	303	295	293	298	298	296	292	292	291	292	293	292	292	293	292	293	291	291	292	293	293	293	293	291	290	290	290	290	293	293	291	297	291	291	291	294	294	296	297	297	295	295	297	296	295	293	295	296	296	294	292	297	291	290	290	286	286	289	293	289	289	287	287	285	283	290	290	294	294	300	296	294	294	291	283	280	282	282	290
305	314	313	313	313	311	312	314	315	314	314	310	308	309	308	303	300	300	300	301	306	308	306	306	295	296	296	298	300	300	302	299	300	303	303	302	302	303	309	312	322	324	325	325	321	318	314	311	308	308	316	316	316	307	307	311	311	313	313	313	313	312	311	312	311	311	311	307	300	297	305	307	310	309	310	310	312	314	311	302	305	303	299	301	295	296	294	297	300	302	313	316	314	314	311	312	313	311	309	304	296	295	296	304	304	310	308	294	303	307	309	307	305	301	298	298	290	298	298	299	300	301	305	308	310	310	308	308	306	306	306	305	304	310	311	310	310	306	305	305	305	306	305	304	293	293	290	293	297	306	308	306	303	299	299	297	299	308	310	316	329	329	317	308	303	307	307	307	307	310	313	313	321	315	315	317	318	321	317	310	309	315	318	313	312	312	315	317	321	320	317	317	315	323	324	321	316	318	316	316	313	315	318	319	320	316	316	316	313	315	315	318	317	314	313	313	313	310	310	312	316	318	316	315	308	308	313	314	313	312	312	309	312	313	316	320	318	316	315	316	315	316	319	327	327	328	328	328	329	330	327	322	321	322	324	325	325	322	319	322	320	317	322	321	323	326	326	324	318	319	322	321	319	316	312	311	313	314	321	320	318	322	325	325	325	326	322	313	315	316	316	318	319	318	316	316	317	316	316	317	318	322	325	326	328	324	323	324	324	322	321	322	322	329	331	330	337	334	327	327	320	319	318	319	314	317	318	319	318	322	323	325	326	328	325	321	320	321	325	319	323	324	324	322	318	320	322	323	323	321	322	322	324	322	322	321	320	319	317	314	314	318	317	317	314	309	308	309	311	309	310	318	323	326	324	321	318	319	321	320	316	313	315	318	318	318	318	318	319	319	319	319	319	321	322	319	319	323	327	328	325	323	321	319	318	316	318	320	319	321	318	314	311	311	313	314	313	313	311	305	311	313	312	311	308	307	309	312	308	316	316	316	316	314	308	302	308	312	314	314	314	314	315	315	315	316	317	316	316	316	314	310	307	305	311	310	310	307	306	307	307	307	308	309	307	303	308	305	298	297	302	307	308	313	309	307	307	307	304	303	299	300	299	302	302	300	300	298	298	295	294	291	291	293	299	303	305	300	301	303	303	300	299	295	291	291	292	298	297	297	300	301	299	292	289	288	288	288	289	291	294	293	295	299	295	294	294	293	293	290	291	290	289	290	295	295	290	292	292	292	294	297	297	297	296	295	295	294	293	290	288	287	287	291	294	298	298	299	300	299	300	300	299	290	294	294	293	292	291	291	292	292	292	292	292	291	292	291	291	291	291	291	291	290	286	287	288	289	289	291	293	291	287	289	297	297	297	294	290	287	288	291	291	298	296	296	296	297	297	296	294	292	290	286	285	285	286	287	288	290	289	289	287	286	285	283	290	290	295	294	290	286	286	286	284	285	285	290	290	291
295	303	313	313	307	307	312	315	316	315	310	310	308	307	306	301	298	298	299	295	302	308	306	306	301	298	299	297	297	296	296	297	298	301	300	300	304	304	309	314	319	324	325	318	318	315	312	310	307	313	311	311	301	295	294	301	305	309	311	311	310	309	311	312	305	302	299	299	298	300	302	305	307	311	306	306	312	312	309	307	297	296	295	295	295	296	289	293	297	297	298	309	317	315	315	312	311	310	310	307	299	301	296	293	293	303	303	300	303	307	311	307	299	295	293	293	299	296	297	298	299	298	301	305	308	305	302	302	295	296	298	300	298	305	308	310	310	303	304	305	305	310	311	308	301	300	300	298	296	298	306	309	306	301	296	296	297	300	305	307	309	316	309	308	308	307	307	307	306	305	307	311	311	314	314	310	309	315	311	305	311	317	313	311	311	312	316	315	313	315	315	315	317	316	321	319	318	318	320	320	319	321	317	319	320	311	311	310	312	313	319	319	318	316	315	315	310	306	309	313	315	318	315	316	309	308	314	314	313	311	309	311	311	312	314	318	317	316	315	316	315	315	320	323	325	327	327	327	326	328	327	323	321	322	324	325	328	323	321	319	320	317	322	321	323	323	324	317	319	322	321	318	317	318	316	313	314	314	321	316	316	317	319	323	324	321	317	311	313	316	316	317	316	318	317	316	317	320	316	317	317	323	326	327	329	330	330	323	323	323	322	322	323	323	330	329	327	330	328	328	326	321	317	313	318	316	316	319	320	322	323	318	322	324	320	324	318	315	312	315	317	316	316	317	317	321	323	325	326	323	321	323	322	320	322	323	321	317	316	315	316	316	315	312	311	311	308	309	311	309	310	312	314	319	317	317	317	316	318	317	316	313	317	320	320	320	320	318	319	319	318	318	319	319	322	322	324	321	322	322	324	323	317	320	320	313	314	319	319	317	318	320	313	312	311	310	310	309	309	306	307	312	313	311	307	307	309	312	308	310	311	314	314	309	306	307	306	311	309	310	310	311	312	313	316	316	316	315	316	316	314	308	305	306	303	308	305	303	303	304	304	306	305	308	307	303	303	303	300	293	292	301	304	312	310	307	305	305	304	303	301	299	297	301	299	298	297	295	295	294	296	296	293	291	293	303	305	305	305	306	301	299	298	295	295	291	294	296	298	298	296	297	296	296	292	291	291	287	287	292	288	293	295	293	293	293	292	292	291	290	290	290	290	290	297	295	295	295	294	294	293	292	293	294	295	295	295	295	294	288	288	286	290	291	293	296	296	296	296	298	293	292	293	292	292	281	287	292	291	290	292	292	292	292	291	290	286	290	290	287	287	284	286	286	286	286	288	291	289	291	291	290	288	286	292	292	294	292	292	290	292	292	295	295	295	292	296	298	297	296	294	290	287	286	286	283	282	283	285	288	288	288	286	284	285	285	285	290	295	294	290	288	288	289	294	295	297	295	295	293
293	295	302	308	307	307	308	313	315	311	304	304	307	306	303	301	299	299	296	290	304	304	306	301	301	303	302	297	295	292	292	294	297	300	301	302	301	301	304	313	315	319	320	318	318	309	307	305	305	306	298	298	291	286	291	297	301	305	308	308	308	303	302	304	305	302	299	299	301	299	295	301	308	309	307	305	305	300	296	296	292	291	289	279	285	285	289	293	297	304	297	297	311	310	310	307	304	306	306	310	305	302	297	293	290	290	294	296	300	305	311	307	301	303	301	298	298	296	295	297	298	297	299	304	306	306	302	302	295	295	295	296	293	302	305	308	307	303	304	300	304	304	304	305	297	298	300	301	301	302	306	313	315	306	304	304	296	297	304	303	302	302	300	307	310	316	315	307	306	305	303	305	305	307	304	302	303	306	304	307	313	316	318	317	318	322	320	314	314	313	317	318	318	318	317	316	319	320	320	318	319	322	317	320	316	311	311	310	314	309	318	318	314	313	310	308	308	307	309	313	315	318	318	315	314	313	313	314	312	309	305	308	312	313	313	315	314	314	315	315	316	314	317	319	320	321	322	322	324	325	327	320	318	318	323	325	329	330	321	318	316	317	317	317	321	323	324	317	319	322	321	317	316	317	317	315	316	318	318	320	316	318	321	322	322	321	318	309	310	312	312	317	317	316	316	316	320	317	316	316	317	318	327	327	330	330	330	325	324	324	324	322	322	324	332	335	325	321	319	318	316	315	316	316	314	312	315	318	320	320	318	315	319	319	323	320	317	309	311	312	315	315	315	315	316	320	324	325	325	325	323	319	320	321	321	324	323	320	317	313	316	316	315	312	311	311	312	313	313	314	315	312	313	313	308	310	311	317	314	309	309	312	317	315	315	316	319	322	320	318	318	317	317	318	322	322	315	323	322	323	322	318	314	310	309	309	310	316	316	318	318	317	311	307	308	309	309	309	311	308	308	308	309	311	307	307	307	314	307	313	308	312	309	309	307	310	309	307	309	309	309	310	312	313	315	318	319	319	317	315	310	310	304	305	302	306	302	303	303	303	304	303	305	308	306	305	302	301	301	298	297	295	297	305	310	310	310	301	301	298	302	293	291	292	295	296	295	294	295	294	295	295	292	291	293	293	294	296	299	299	302	301	298	295	295	296	296	297	299	300	297	298	302	299	296	291	291	289	286	292	288	288	291	292	294	293	288	288	286	287	289	291	294	297	297	294	292	292	294	295	296	292	292	294	295	295	296	296	295	292	287	280	288	291	291	295	295	296	297	294	292	287	279	278	278	278	287	287	281	287	290	292	292	291	289	287	289	290	288	285	285	282	283	290	290	290	288	288	291	292	291	289	287	285	285	289	292	286	283	282	287	287	289	289	288	289	296	298	298	295	293	290	290	287	287	280	280	282	284	285	285	286	282	278	279	285	285	283	283	282	287	289	289	291	292	293	297	295	295	294
297	294	300	303	305	305	308	313	308	301	294	294	296	302	304	303	302	298	298	290	302	305	307	305	305	303	302	305	296	295	295	294	303	305	307	307	302	302	299	296	304	310	314	315	315	309	307	296	296	292	296	296	296	295	296	295	296	297	303	301	301	299	298	300	300	299	299	301	301	299	293	299	307	311	307	306	306	300	295	294	292	283	280	286	287	287	290	298	297	304	299	300	297	299	304	304	304	306	306	303	301	299	298	299	298	298	299	296	297	299	299	299	301	303	298	298	298	300	299	297	297	299	300	302	304	304	303	299	299	298	298	298	292	299	302	303	303	305	304	300	304	301	297	296	298	299	301	299	297	297	298	307	311	309	307	307	307	306	306	306	305	308	310	312	315	315	313	312	310	306	303	305	303	303	299	291	298	299	300	305	310	316	317	317	319	319	323	325	321	314	317	319	319	315	316	316	318	319	317	314	312	313	317	314	314	317	319	318	314	309	318	310	312	313	312	308	308	311	313	313	317	318	316	314	311	314	311	311	313	309	304	305	311	321	314	314	312	312	313	313	313	315	316	315	312	312	314	313	313	313	315	318	318	314	319	325	326	331	333	328	320	318	314	316	317	326	320	319	321	322	317	317	316	317	317	315	316	318	319	316	316	317	321	321	318	316	314	312	313	325	325	324	321	316	315	316	317	318	317	316	318	320	320	326	326	327	324	322	325	326	327	321	317	318	323	323	319	312	312	311	311	312	314	316	313	311	312	314	314	314	313	317	317	320	319	316	313	310	309	311	318	318	317	312	311	312	317	318	323	323	324	319	318	325	321	324	323	320	317	313	313	309	311	310	310	310	310	311	313	314	314	313	312	312	312	312	312	315	320	316	315	315	316	314	314	313	315	316	317	316	314	316	317	320	322	317	314	318	321	321	318	309	312	314	310	314	316	316	317	318	316	316	312	306	307	307	311	311	309	305	308	308	309	308	308	309	310	312	317	308	303	306	311	312	311	310	310	309	306	306	304	303	309	312	315	318	316	315	312	311	308	307	307	310	309	305	304	304	304	304	304	303	304	303	301	299	296	301	298	298	296	296	294	301	306	305	305	303	297	294	292	290	290	290	287	287	295	294	297	298	298	295	292	293	293	293	286	285	288	293	295	299	297	297	296	295	298	297	297	297	297	297	298	298	290	290	291	289	286	286	287	287	291	292	296	297	297	291	291	290	292	295	294	291	291	291	285	285	295	297	292	289	292	294	294	296	296	297	296	290	285	281	286	286	291	291	292	292	293	291	289	281	286	285	278	278	291	290	283	283	290	291	291	290	290	288	289	289	286	286	284	283	286	294	297	290	288	288	291	290	290	290	288	286	286	284	287	286	285	282	284	284	286	285	288	289	290	290	294	294	293	292	291	285	285	282	280	278	282	289	289	289	281	278	279	282	282	284	286	293	290	285	285	285	280	277	279	279	282	280
297	296	297	302	301	305	305	307	308	301	290	292	292	301	303	304	302	293	293	290	298	304	306	306	306	307	307	305	296	306	306	306	307	308	307	301	300	298	298	301	304	308	312	312	306	306	299	296	291	294	295	297	297	300	298	297	298	299	295	296	296	296	297	298	299	293	293	301	301	301	298	295	301	307	307	304	295	295	296	292	293	292	283	300	291	291	291	297	299	302	299	300	301	302	302	302	304	305	304	303	299	299	299	299	301	301	299	298	298	301	300	300	297	297	298	298	298	299	301	302	301	302	305	307	303	301	301	302	302	303	301	295	298	298	298	296	296	302	305	301	301	297	297	297	301	301	300	300	302	301	302	302	303	302	304	305	305	305	303	303	303	299	309	317	314	313	310	308	307	305	306	306	303	303	299	294	292	292	310	305	311	314	314	312	311	318	323	325	322	320	321	311	303	303	306	315	317	316	311	309	309	309	317	317	321	322	321	318	313	305	306	310	312	313	312	314	315	315	313	310	311	315	312	309	308	310	311	308	305	308	304	309	309	313	324	316	313	311	308	314	309	309	312	314	313	313	314	311	311	305	302	300	299	316	311	321	321	323	320	316	315	313	314	316	316	320	324	322	319	318	318	315	316	316	314	314	317	319	319	316	316	317	321	321	318	316	311	313	318	319	322	322	316	320	316	311	311	316	316	317	313	312	317	320	318	318	318	318	318	318	317	316	317	321	317	317	316	312	311	310	309	310	313	316	315	315	309	309	311	314	318	316	317	315	310	309	307	308	307	312	313	313	312	310	309	309	317	318	323	323	324	319	318	325	324	329	331	320	316	310	305	307	307	310	309	307	308	308	308	313	313	313	312	313	311	311	312	313	315	312	313	316	317	317	313	310	313	315	316	317	315	312	315	318	318	317	317	310	310	316	313	313	313	315	308	314	317	314	312	313	316	315	306	307	310	310	312	312	309	305	306	306	305	304	305	312	312	313	311	304	304	307	310	314	312	311	310	309	305	305	305	303	302	301	312	311	303	302	304	310	312	311	310	315	312	308	305	304	304	304	306	297	301	301	302	300	298	295	286	286	288	289	292	296	302	302	306	303	298	294	293	291	288	284	283	284	284	283	294	298	298	296	292	292	293	293	292	283	285	286	293	294	296	296	293	293	292	292	293	293	293	294	293	288	288	290	291	283	281	287	288	285	285	287	292	295	295	295	297	292	291	294	294	293	293	296	296	296	297	296	292	289	290	292	290	293	293	289	292	288	282	285	284	286	282	282	284	287	287	287	289	289	286	286	285	292	283	293	289	288	292	292	292	289	289	287	289	286	285	285	286	289	290	294	297	293	293	291	288	289	288	286	284	284	284	287	287	289	287	286	286	285	286	285	287	285	286	286	289	289	287	291	287	287	286	279	280	279	277	277	276	289	281	278	280	280	281	280	283	285	285	285	288	289	282	274	274	274	279	280
297	294	295	297	300	302	302	304	301	293	290	292	292	299	302	302	298	290	290	291	296	301	301	302	303	303	305	309	307	306	306	299	299	298	299	301	303	304	304	302	306	306	302	293	289	289	285	290	291	294	296	297	302	302	300	298	298	299	294	293	293	295	299	310	294	289	297	297	297	301	298	294	292	291	291	292	293	293	290	295	294	297	295	291	300	297	297	302	300	299	299	302	301	302	303	304	304	306	305	305	302	298	298	299	301	297	297	298	300	301	300	299	299	296	297	298	299	299	299	300	299	294	297	300	299	296	300	300	301	301	303	302	298	298	300	296	290	292	295	299	299	297	297	297	301	301	301	299	302	302	301	301	300	298	300	300	302	302	303	304	297	297	301	307	303	306	306	303	303	304	305	305	298	299	299	294	292	304	300	314	311	313	314	312	311	307	309	313	311	323	317	311	304	304	305	313	315	314	310	310	310	311	312	316	323	324	322	318	305	300	302	305	309	312	312	314	315	313	313	311	311	314	314	308	306	306	306	305	304	304	303	305	306	310	311	312	313	315	314	312	314	310	310	313	312	314	313	309	303	303	302	303	302	299	301	316	319	318	316	313	313	312	315	315	315	320	326	323	319	314	311	315	314	314	314	313	314	316	316	314	312	316	316	313	309	310	311	313	318	319	322	322	316	320	316	311	309	313	312	312	308	309	310	314	317	317	316	315	315	316	315	315	319	316	315	316	313	313	312	311	310	309	310	314	313	312	311	310	311	313	318	316	311	310	309	309	307	308	307	312	313	313	312	310	309	309	312	313	316	319	318	318	317	316	316	323	323	318	315	313	311	308	309	307	307	306	305	305	307	306	305	307	309	310	313	312	311	312	306	304	305	306	305	305	306	307	308	313	317	317	312	305	305	306	308	311	312	306	304	306	308	307	308	308	304	306	313	314	315	318	316	309	309	310	310	310	312	312	309	307	304	301	302	300	302	305	308	309	307	303	302	304	304	306	307	310	310	306	306	306	305	304	300	300	303	307	304	303	303	306	307	308	312	313	314	308	305	303	303	304	295	297	301	306	307	307	307	299	291	288	289	294	295	296	301	301	302	303	302	297	295	289	287	283	282	278	284	283	294	294	295	289	292	294	298	295	288	288	283	292	291	290	292	292	292	291	289	290	290	292	291	293	291	287	288	288	289	283	282	282	284	286	284	286	289	292	292	296	300	297	293	287	291	292	292	294	294	294	297	296	294	288	286	285	285	285	280	279	288	288	281	284	283	281	281	278	277	278	282	288	289	289	288	288	287	287	295	289	284	286	287	287	284	283	285	284	286	285	285	285	288	289	290	291	296	294	294	291	288	286	284	283	283	283	283	283	286	287	287	290	286	285	283	285	285	285	283	283	285	284	282	282	283	283	286	280	277	280	276	277	276	283	281	279	277	277	280	274	276	282	284	284	284	287	285	281	280	274	279	284
298	295	296	299	300	304	304	302	299	290	290	292	292	299	303	299	295	291	297	297	295	294	295	294	295	295	303	305	304	301	299	299	299	290	289	292	294	298	298	300	301	298	295	295	296	295	295	293	290	292	296	297	295	295	298	304	306	291	289	288	289	289	302	307	305	296	296	305	302	302	299	294	292	288	289	291	290	290	294	300	298	295	300	299	302	304	304	296	291	295	301	303	303	302	303	306	306	307	306	296	294	293	293	294	295	295	295	302	307	302	299	300	299	297	297	296	298	298	299	300	292	292	293	293	292	294	294	293	304	304	304	308	308	304	299	291	291	295	295	298	296	296	296	296	299	301	301	303	299	298	298	298	300	301	300	300	301	301	302	303	298	298	298	297	299	302	309	311	308	306	307	306	303	302	302	304	302	304	300	313	312	312	314	312	310	309	309	310	318	320	317	315	310	310	310	311	313	317	310	306	305	306	306	314	320	315	313	305	300	298	298	303	305	309	315	320	315	313	313	311	311	312	312	304	304	304	305	305	306	301	297	301	304	305	306	309	310	311	312	310	314	314	313	313	315	315	315	308	309	309	304	304	304	298	300	297	314	315	314	312	305	307	310	315	320	317	308	308	313	314	308	307	313	311	310	312	316	315	316	312	309	311	312	311	309	309	308	313	316	317	321	321	316	321	310	312	309	313	312	312	308	309	310	314	317	317	316	315	315	316	315	315	319	316	315	316	313	313	312	311	310	309	310	314	313	312	311	310	311	313	318	316	311	310	309	307	309	311	310	307	303	303	300	303	307	305	307	307	308	308	309	308	303	301	298	301	305	307	303	304	310	310	306	306	304	301	298	302	305	305	304	309	309	310	315	311	311	307	305	304	304	305	305	305	306	307	307	308	312	313	315	311	308	308	306	310	306	305	302	303	303	303	307	306	303	302	301	301	306	307	308	305	309	309	310	309	309	310	307	305	303	301	297	296	298	304	307	307	306	305	302	304	305	304	305	306	310	306	306	305	305	304	300	303	304	304	304	304	304	305	307	307	308	313	314	313	309	309	302	300	298	301	301	297	295	302	303	299	295	296	297	300	295	294	294	294	294	289	286	291	291	288	288	286	282	278	278	288	290	290	294	294	292	296	296	295	297	298	292	289	288	286	286	293	295	294	289	287	287	285	288	289	291	287	287	288	291	291	286	287	288	286	283	283	287	287	290	290	291	294	295	293	285	282	280	280	294	294	296	294	292	290	286	283	277	277	275	280	284	280	282	282	282	279	279	284	284	284	282	288	288	289	289	290	289	292	295	287	283	284	284	284	285	285	284	281	281	279	279	285	288	288	291	290	288	285	285	288	288	284	288	283	282	282	281	283	284	286	285	290	290	285	283	282	283	284	284	282	284	284	280	279	283	283	287	285	281	280	276	276	278	286	288	283	280	280	274	274	279	275	280	280	283	284	285	281	281	280	281	286
294	294	299	303	308	308	306	306	301	293	290	295	300	300	303	299	301	298	299	299	291	289	287	289	300	300	306	299	296	295	299	294	294	290	285	286	286	286	289	289	289	290	291	293	297	297	297	294	294	297	298	298	295	295	295	292	293	293	294	294	294	294	299	302	304	305	301	305	302	302	299	295	289	288	289	290	292	301	301	300	301	297	301	300	296	302	299	299	293	291	292	290	290	294	298	306	306	294	292	288	282	282	290	293	290	291	301	301	307	303	306	302	300	296	290	292	294	296	296	292	292	292	292	293	293	293	291	290	293	296	296	309	310	303	298	295	291	296	297	294	295	295	295	295	295	301	304	303	299	292	298	298	298	298	298	298	297	297	297	300	300	298	301	298	300	301	305	306	303	304	305	305	305	302	302	302	307	307	310	313	312	308	310	312	309	308	308	308	309	309	307	305	303	304	303	303	303	306	301	300	301	304	305	303	305	304	307	308	308	303	301	304	306	309	317	318	315	312	309	309	311	312	312	309	309	310	308	304	305	303	300	298	302	302	304	304	304	307	308	307	308	314	312	314	316	313	311	306	308	307	307	306	302	300	301	299	297	298	300	305	305	304	301	303	312	309	301	300	310	314	313	309	309	307	306	308	312	312	313	311	309	311	311	311	310	307	307	305	305	306	311	311	320	309	311	315	315	314	315	318	316	313	313	315	322	322	309	313	307	312	310	310	313	316	319	318	316	316	314	311	310	307	307	310	312	315	311	311	312	312	313	313	312	311	307	309	309	308	314	314	314	307	305	304	303	301	300	301	303	302	303	307	308	305	297	298	298	300	300	298	301	304	303	301	300	294	292	295	302	306	310	311	308	308	310	310	305	302	302	304	301	303	303	305	306	306	307	308	312	308	311	311	310	307	306	305	300	297	297	301	303	302	303	301	300	300	300	300	306	307	308	305	307	307	311	311	310	309	308	306	302	303	301	294	295	298	308	307	307	305	304	305	305	303	301	302	303	303	305	304	304	306	304	300	301	306	306	307	307	304	307	307	308	309	310	313	312	312	301	301	300	302	298	294	299	299	295	292	289	288	289	291	289	292	292	295	295	291	286	281	285	282	288	286	286	287	284	284	284	284	294	294	295	294	293	290	290	288	287	285	286	286	286	291	293	295	294	290	286	286	288	289	290	290	290	289	290	291	289	290	288	290	293	291	288	288	287	285	286	288	289	298	290	283	280	280	279	283	285	288	288	288	282	278	279	279	282	279	278	279	279	281	279	284	284	286	284	284	285	287	287	287	287	287	289	291	286	283	280	285	285	285	284	283	282	280	279	279	279	278	285	285	285	283	288	288	284	284	289	290	286	284	284	278	282	282	280	286	285	285	282	281	283	285	282	275	275	278	279	279	277	277	277	279	283	285	281	278	278	279	282	285	286	281	281	279	279	276	275	277	277	273	277	284	285	282	282	282	281	290
292	292	298	302	304	308	308	308	304	297	297	298	304	304	307	305	301	298	303	303	301	291	291	296	307	312	312	306	298	297	295	290	290	285	285	286	290	285	284	284	286	292	296	298	301	301	301	296	296	297	300	301	295	295	295	292	296	293	294	295	292	292	296	302	305	302	301	299	304	301	301	291	287	285	287	290	292	297	297	299	295	296	296	296	295	292	288	288	288	286	283	286	287	287	290	293	294	294	292	285	281	282	288	290	286	286	290	290	298	303	306	302	295	287	287	287	291	292	292	291	291	292	292	293	293	293	291	292	290	295	295	295	295	299	295	295	293	293	296	293	292	293	295	292	292	296	298	298	293	292	298	298	297	293	291	295	294	292	292	293	297	298	296	297	299	302	301	300	302	300	302	303	302	302	302	302	305	309	311	310	305	308	310	312	308	306	308	309	309	314	304	300	296	297	299	299	305	304	301	302	302	303	304	302	299	304	307	308	309	307	304	307	309	310	311	308	307	308	309	309	306	309	309	309	309	310	304	307	308	304	298	298	303	300	301	302	303	303	305	307	308	308	308	311	313	311	307	305	305	306	306	301	301	299	300	301	302	301	301	307	307	301	303	305	310	305	302	300	305	310	316	313	307	305	305	307	309	309	305	302	302	301	305	305	306	309	307	303	301	302	304	310	310	316	317	308	309	309	310	311	308	308	312	314	316	310	316	306	305	306	305	306	307	310	313	313	313	314	312	310	310	308	306	303	303	308	307	309	309	306	309	310	311	309	308	307	308	313	310	316	316	308	307	306	306	296	297	303	303	302	301	301	307	305	296	295	296	301	299	300	297	295	295	297	295	292	295	300	306	309	309	308	306	296	300	304	300	300	301	298	296	296	299	307	309	313	308	308	307	308	301	299	302	305	300	298	296	297	300	305	302	299	299	299	299	300	300	300	303	307	308	307	307	305	304	311	312	312	309	307	302	295	295	293	296	298	299	314	315	306	306	304	305	302	298	299	299	299	303	304	304	305	310	301	302	308	305	307	307	304	304	305	304	300	304	305	305	308	301	301	299	303	302	297	293	297	294	291	288	287	287	290	292	292	292	289	292	295	290	286	285	282	288	289	291	289	286	285	285	284	286	289	289	293	291	282	281	280	282	281	277	277	276	286	287	287	288	282	286	286	288	288	288	288	288	284	282	285	288	287	291	294	290	287	287	284	288	286	285	287	287	288	290	283	283	279	279	280	281	284	283	285	283	283	283	282	282	278	279	276	273	273	282	282	284	286	287	287	283	286	286	286	286	286	286	285	282	280	280	283	283	285	285	282	279	280	279	284	284	284	284	280	278	277	277	277	277	278	281	287	286	278	278	279	278	282	280	280	279	279	281	283	284	284	279	273	273	271	272	275	275	275	275	279	283	284	286	286	286	279	282	285	286	280	280	280	282	276	278	276	276	273	277	281	285	285	285	281	280	285
292	293	297	302	303	305	308	308	309	304	296	298	305	305	308	305	305	305	303	295	295	296	298	301	305	302	302	301	296	293	288	288	290	290	293	293	290	285	280	280	281	286	288	288	296	299	298	298	299	302	301	303	299	297	297	295	296	293	302	298	291	288	288	290	300	294	292	294	297	299	299	294	285	285	288	293	294	297	299	289	287	288	288	288	291	287	286	288	288	292	293	294	294	294	290	288	287	287	287	285	281	284	288	287	284	285	289	292	292	294	295	294	290	288	287	288	290	291	291	291	291	291	293	290	293	293	293	293	290	288	289	289	298	291	294	288	290	291	291	291	291	291	291	294	294	298	293	296	299	295	295	298	297	293	282	283	284	290	290	290	295	298	297	295	299	301	300	296	297	299	299	300	300	300	304	305	305	308	306	304	299	301	301	302	308	306	309	313	316	310	306	292	292	299	303	305	305	305	304	301	301	302	300	298	300	305	307	307	307	307	305	304	303	304	302	301	300	303	308	311	311	312	305	302	301	302	304	307	308	304	299	304	300	299	299	301	302	304	305	305	308	304	304	302	302	303	305	306	305	308	304	304	300	298	298	299	302	304	305	304	306	304	306	308	310	310	303	299	301	309	313	317	312	306	305	308	307	307	311	309	309	306	308	309	308	309	307	305	307	306	306	304	304	306	304	302	294	299	301	304	305	305	304	302	304	300	305	305	302	307	306	306	306	309	311	312	315	312	310	309	309	305	299	302	303	304	307	308	309	305	309	310	311	311	308	305	306	309	314	307	307	307	302	303	300	296	298	301	303	301	297	296	297	296	296	297	299	293	295	299	298	296	297	295	293	293	301	304	306	305	304	304	302	298	293	296	298	300	298	295	298	298	296	302	305	308	308	309	306	301	297	297	297	299	299	298	296	294	297	305	302	299	299	299	299	298	296	297	301	305	307	307	307	305	304	303	307	310	310	301	299	297	298	293	293	296	298	297	304	295	300	303	300	301	298	297	297	300	301	304	308	308	309	314	312	308	305	307	305	304	303	302	297	297	294	299	299	301	299	294	299	300	295	294	294	294	294	294	289	289	293	294	295	295	295	295	289	293	290	286	285	284	289	292	290	291	288	288	286	286	285	285	286	285	285	285	285	286	286	286	282	282	284	289	288	287	288	282	284	285	286	285	286	286	283	279	281	279	279	280	284	285	285	284	284	286	287	289	289	285	287	288	285	285	285	289	286	282	279	276	281	283	282	281	281	281	281	281	283	277	271	276	282	282	282	286	286	287	287	287	286	286	287	285	282	281	279	280	279	279	283	285	285	282	279	279	278	278	279	283	283	283	282	281	273	273	275	276	275	277	276	275	275	279	278	275	273	275	279	279	281	282	283	284	278	278	274	273	275	273	273	275	275	278	282	283	286	287	287	284	283	282	280	278	278	277	275	273	274	276	276	276	270	273	279	279	277	275	277	281
293	297	297	299	300	304	308	311	311	300	297	298	302	298	298	296	296	295	296	295	295	296	300	302	302	303	303	301	295	291	288	292	297	297	297	294	295	288	280	281	282	287	289	286	290	295	292	292	290	290	304	308	306	300	300	296	296	300	302	298	285	287	287	288	290	285	284	288	294	293	293	290	279	289	292	293	289	288	289	289	287	285	284	286	285	286	285	290	290	291	292	292	293	292	284	279	279	282	282	286	286	284	288	286	291	292	292	291	291	291	291	287	286	287	290	289	290	290	291	291	292	292	292	290	294	296	293	293	289	287	286	286	285	289	284	286	288	289	291	290	290	291	291	295	293	293	293	289	290	295	292	291	291	289	282	283	286	284	287	287	295	296	302	297	293	292	293	297	294	295	296	300	302	303	302	303	303	304	303	305	300	298	299	300	300	298	309	313	316	309	294	289	295	301	305	306	306	308	307	304	301	302	300	299	302	302	303	297	296	295	301	302	305	301	297	293	293	301	305	309	309	310	302	301	299	298	300	303	304	302	299	304	300	296	296	300	301	303	304	303	299	297	299	297	298	302	308	311	312	309	301	301	301	299	298	300	302	303	303	304	305	307	309	309	304	304	304	299	297	304	303	310	311	311	305	306	309	310	311	310	309	303	303	307	304	305	303	302	304	305	306	306	306	305	305	300	297	306	308	310	307	306	306	305	302	301	301	301	305	306	307	305	306	311	315	306	305	307	309	304	301	302	298	302	302	306	309	307	306	299	304	304	304	309	306	302	302	303	303	304	304	302	301	301	300	296	300	301	302	300	297	295	295	297	296	297	298	293	295	293	290	296	293	295	295	299	305	306	305	301	295	298	301	299	290	292	293	299	296	294	294	294	298	302	304	306	309	310	301	301	297	296	297	298	298	298	297	295	297	305	302	299	297	295	298	298	299	296	297	301	308	308	310	305	304	299	301	310	308	299	292	292	288	283	282	287	287	287	288	288	293	298	299	298	296	296	295	303	300	297	300	300	302	314	312	310	309	304	303	303	303	301	296	295	297	297	296	299	301	299	300	298	297	296	293	292	292	294	288	292	296	297	297	297	295	286	289	293	287	283	284	285	287	291	292	286	287	287	285	287	286	284	283	284	284	282	282	281	283	287	287	288	287	289	288	289	288	283	279	282	282	282	282	285	284	279	278	276	279	279	284	285	286	286	286	286	287	290	289	285	281	282	282	285	285	284	283	283	279	275	275	280	281	281	279	278	281	284	287	278	278	276	276	279	277	279	285	289	288	289	285	285	284	283	282	280	279	277	279	279	278	285	285	280	278	280	280	280	278	277	276	275	274	275	275	280	284	288	283	278	275	276	275	276	273	271	270	272	272	274	279	281	279	277	275	275	275	275	276	275	273	273	275	277	277	277	277	277	279	282	281	277	277	277	275	274	274	273	274	274	277	280	280	280	277	277	272	274	274	279
