311	310	310	310	304	305	312	312	314	314	317	317	313	314	311	311	309	310	311	308	307	307	301	299	300	302	307	316	316	321	315	311	310	312	314	314	316	316	314	315	313	308	308	298	298	301	316	321	322	322	322	318	317	312	311	315	316	316	315	308	308	307	305	301	301	301	305	306	307	307	308	311	313	313	309	309	312	314	307	304	302	300	300	302	305	303	310	314	313	314	311	311	311	310	316	315	314	309	307	309	312	313	313	312	310	311	314	308	307	310	310	312	312	313	308	308	311	311	314	320	320	312	309	317	317	319	317	311	306	300	301	304	310	308	308	307	309	309	316	314	314	310	309	309	319	323	324	323	322	318	312	312	312	313	313	313	314	315	317	321	319	312	325	329	329	335	337	333	333	326	326	333	325	325	327	326	325	324	332	323	319	319	320	321	328	332	336	337	337	331	327	324	324	325	326	329	326	324	321	321	319	323	325	325	326	327	329	328	328	331	332	334	334	332	331	331	335	333	334	334	336	335	336	332	332	331	326	323	325	325	327	332	331	328	327	325	322	323	323	327	324	324	326	326	326	328	327	321	325	332	331	330	329	328	326	326	327	326	330	333	334	332	318	319	319	321	322	328	329	330	330	331	333	325	323	324	327	330	331	330	331	329	328	326	326	333	334	333	333	330	328	328	332	338	339	337	339	339	335	334	329	329	331	333	333	336	336	337	338	338	336	335	335	335	331	330	329	332	336	339	339	337	334	330	331	330	330	330	334	332	332	332	331	329	325	325	323	327	334	333	336	333	331	326	326	324	328	336	334	335	333	332	332	335	335	332	329	325	325	329	333	330	327	326	327	333	333	327	326	332	333	330	326	322	326	331	327	327	332	336	337	340	342	332	326	324	319	313	313	316	318	322	327	326	325	325	325	327	327	332	334	335	332	327	315	320	318	321	319	315	316	322	322	321	319	321	322	321	322	316	316	313	312	314	314	319	323	322	320	317	316	315	323	324	324	326	328	328	329	327	323	316	321	324	324	321	323	327	323	323	324	316	314	318	320	320	321	322	321	310	308	311	319	319	316	310	305	305	307	316	304	306	307	308	309	317	310	307	309	315	315	314	311	307	303	301	301	309	311	311	309	312	311	310	310	302	298	300	305	308	306	307	301	298	295	298	297	298	301	311	316	310	305	304	300	302	303	305	309	309	308	306	303	307	304	304	305	306	304	302	302	305	305	302	301	299	301	307	310	306	306	300	294	294	295	300	304	304	304	304	297	296	301	305	307	305	304	306	306	306	306	302	301	300	300	300	300	300	294	297	296	302	303	303	298	298	296	296	298	302	300	301	301	299	298	296	295	298	302	300	300	301	302	299	300	300	292	292	287	289	289	288	292	292	295	297	295	294	302	302	302	301	293	296	297	298	298	299	300	300	293	290	290	291	292	291	298	303	303	303	300	298	302	303	303	306	303	299	297	293
316	305	299	299	306	313	316	315	314	314	310	311	313	314	310	310	306	308	307	304	300	306	306	301	300	300	307	315	315	320	319	312	310	312	316	316	315	313	311	310	310	301	301	297	300	305	313	313	313	313	314	315	314	312	315	316	315	315	311	305	306	306	303	299	299	299	304	310	310	307	307	307	308	308	309	309	312	313	309	305	304	301	301	300	304	308	310	315	315	309	310	309	309	310	315	315	311	308	303	309	311	314	314	313	312	312	312	308	306	306	314	312	316	316	310	307	310	309	310	316	319	310	310	318	319	319	317	304	299	294	294	305	308	311	309	309	311	316	316	316	318	316	313	308	307	309	309	309	310	311	310	314	314	317	313	313	314	314	319	323	312	311	308	331	334	338	338	332	328	328	331	324	321	322	321	318	317	323	319	319	315	318	320	325	325	325	326	331	331	331	327	324	324	327	324	325	326	325	325	323	321	326	324	325	325	329	331	329	329	331	332	332	331	331	330	329	329	331	332	335	335	337	334	332	330	325	325	326	326	325	326	332	331	328	327	326	322	323	323	322	324	324	326	323	323	324	326	323	330	330	328	329	329	327	328	326	323	324	329	332	332	329	321	323	324	322	320	322	324	329	330	333	333	331	330	329	328	330	330	331	331	326	323	323	326	331	331	331	331	330	327	326	329	335	337	335	336	334	332	332	329	330	330	332	332	335	332	333	336	336	335	331	329	330	329	329	327	330	333	337	334	334	331	337	330	329	324	328	327	327	326	330	330	330	322	319	318	321	327	333	335	333	330	330	329	326	325	333	333	330	332	332	334	336	333	329	326	324	325	327	329	329	325	325	327	331	330	326	325	329	328	325	320	320	322	330	332	326	328	331	333	335	330	323	321	320	319	316	313	316	318	322	324	325	326	331	328	325	322	320	322	324	326	319	320	318	321	321	318	318	320	322	322	321	320	318	319	319	321	321	316	312	308	306	302	309	313	320	319	318	316	315	319	321	321	325	326	324	321	327	323	310	315	315	321	324	320	326	322	321	311	317	317	316	321	324	316	313	313	314	311	313	319	319	320	318	314	308	304	302	302	303	306	306	311	317	310	303	301	301	303	304	302	305	305	302	302	306	300	303	306	306	309	309	309	303	303	304	302	296	298	305	305	298	294	298	297	297	300	305	305	303	304	302	306	304	303	303	306	306	306	304	303	302	302	302	306	302	297	297	298	305	305	303	302	301	302	302	305	308	308	300	292	294	297	301	301	300	301	301	299	302	300	301	303	305	304	301	301	300	300	297	296	297	297	298	298	293	291	293	301	302	301	301	301	298	297	296	298	298	299	297	297	296	294	295	293	295	296	296	299	297	297	297	296	293	293	291	287	288	291	295	299	299	301	299	299	297	306	307	307	294	286	286	294	293	293	299	300	301	291	289	289	293	292	290	295	301	301	302	297	296	297	302	302	305	303	299	298	298
318	311	306	306	310	317	318	316	311	311	307	307	311	312	310	306	308	304	300	295	305	306	306	304	301	300	307	313	313	320	319	315	314	314	316	313	313	311	308	305	303	300	300	301	304	305	311	313	313	313	313	312	312	312	315	316	309	309	302	300	299	303	303	303	307	307	311	316	318	317	311	305	309	313	313	314	315	313	308	307	309	309	305	305	297	304	309	310	311	310	310	309	309	304	308	310	310	305	304	304	311	314	314	313	312	312	309	308	307	311	305	305	309	309	314	305	303	306	308	311	311	310	315	311	305	305	306	304	299	304	305	310	312	312	304	301	301	306	306	309	312	312	309	307	307	306	303	301	304	301	301	311	314	314	313	311	310	314	319	311	314	309	307	331	335	313	317	325	321	318	318	319	320	320	318	317	317	321	304	314	313	317	320	322	325	325	326	329	328	328	324	323	323	327	324	320	326	329	328	327	326	325	323	320	319	328	331	330	329	327	327	328	328	328	326	325	325	329	330	333	335	336	333	326	324	324	326	326	323	324	331	330	328	328	327	326	325	321	323	321	322	320	321	323	324	324	326	329	328	327	326	323	325	327	327	324	322	319	322	329	332	323	311	316	320	322	321	322	324	326	331	334	335	331	329	328	329	330	332	331	328	326	322	323	323	324	327	329	327	327	324	324	326	330	336	333	333	331	330	330	330	329	328	331	334	335	334	329	330	335	334	334	330	328	329	329	329	329	332	335	332	330	333	332	329	324	324	326	319	317	318	321	323	332	323	321	319	321	322	325	332	331	330	330	329	329	325	331	328	327	325	326	319	317	316	320	322	322	321	324	327	327	324	320	323	324	323	323	324	323	328	325	320	320	322	325	334	334	336	335	323	322	320	321	321	320	319	319	316	314	313	314	323	326	331	330	329	326	326	319	320	321	321	319	316	318	321	321	320	319	321	322	321	317	314	317	317	319	319	318	315	305	304	306	307	307	307	314	317	318	317	316	315	319	321	322	326	324	321	321	318	316	316	318	315	319	321	313	310	308	315	314	314	317	320	319	317	313	313	311	314	314	314	313	314	312	313	313	309	303	302	304	304	306	311	312	312	307	305	305	300	299	295	297	305	304	303	301	301	302	306	303	302	302	302	304	309	309	305	298	298	297	295	298	294	293	293	296	298	300	299	301	302	306	303	299	298	299	299	303	303	300	298	298	298	302	302	300	299	297	298	298	301	300	298	296	295	301	297	297	301	298	294	291	292	295	299	299	299	299	293	291	295	301	303	300	302	302	298	298	299	296	295	294	294	292	292	295	292	296	298	298	298	298	298	298	297	298	298	298	298	298	298	296	294	294	293	293	293	293	288	295	296	293	291	291	293	291	289	290	291	295	302	302	303	305	302	299	298	298	298	287	283	287	289	293	293	293	294	296	296	293	293	290	291	294	294	295	295	297	295	290	290	290	302	305	303	301	297	297
316	310	308	309	309	314	315	315	311	308	308	308	310	311	312	308	308	304	299	290	305	307	307	306	303	300	301	310	313	313	310	310	312	314	313	313	313	310	307	304	304	303	301	301	305	306	316	319	316	312	312	311	312	315	314	313	309	302	298	297	299	304	304	303	301	302	302	315	318	315	312	309	312	316	316	315	314	311	308	307	308	307	302	302	301	303	309	311	313	316	313	309	304	304	307	309	310	308	306	306	307	314	313	313	315	312	308	302	301	303	298	297	299	303	303	299	298	301	309	319	311	304	305	310	314	312	312	311	311	304	305	295	295	298	301	298	297	307	310	310	314	313	307	308	308	309	310	307	308	307	307	308	313	313	317	319	316	310	316	311	314	316	317	327	314	307	322	323	321	321	321	322	319	319	318	315	310	302	311	306	311	315	319	328	328	327	327	326	325	323	323	321	321	324	323	320	326	329	328	327	324	324	319	318	317	319	326	329	328	327	325	324	322	322	322	320	321	324	322	321	322	324	318	320	320	323	324	322	324	320	319	326	325	327	326	327	325	323	320	321	319	319	320	321	321	321	322	329	328	327	326	321	321	324	322	322	321	318	319	327	325	319	311	313	317	322	326	322	322	328	332	336	332	329	327	327	328	328	332	331	329	324	324	319	318	317	325	328	326	326	323	324	324	327	330	329	331	328	325	326	329	328	330	331	335	336	334	325	323	329	333	329	329	336	339	340	338	331	330	332	330	330	329	328	325	323	322	318	314	315	314	318	321	325	332	325	321	319	320	324	325	328	327	327	330	330	328	327	332	327	324	322	318	316	316	319	318	318	318	319	323	324	320	314	320	320	320	323	323	319	317	324	324	324	326	329	329	329	327	323	323	322	320	321	319	316	321	321	320	318	312	313	320	325	330	330	330	330	322	320	321	322	320	320	315	318	319	320	322	319	321	321	318	315	317	317	318	319	319	318	315	312	306	305	305	306	303	309	310	309	307	308	310	317	321	322	321	319	319	320	318	317	317	320	319	316	320	315	314	320	320	319	318	317	317	317	314	313	312	314	313	313	313	310	309	307	308	313	314	308	305	304	304	311	311	305	304	306	306	305	301	303	299	294	297	303	304	304	304	303	302	301	301	301	301	303	302	299	298	303	302	297	295	292	294	298	298	301	301	298	299	299	301	303	301	296	297	299	299	300	299	298	297	296	299	300	302	300	299	299	297	297	300	296	296	297	293	298	297	297	298	295	290	291	294	291	290	295	295	303	298	291	295	299	299	300	300	300	299	298	297	295	290	288	288	291	291	291	298	302	303	297	293	298	298	298	297	298	298	296	297	297	300	298	301	296	293	292	289	289	289	294	295	290	291	291	291	291	289	292	296	297	297	301	303	304	302	299	296	296	296	293	286	290	289	289	293	292	292	294	299	299	302	292	291	291	293	293	293	292	290	292	290	290	292	294	295	301	297	297
316	306	305	306	306	309	313	314	309	307	307	309	309	309	310	308	308	302	299	290	295	307	307	307	305	301	302	304	310	310	316	311	308	308	310	311	311	310	307	306	306	308	303	303	301	306	308	311	311	308	308	309	310	313	312	309	300	298	298	297	302	305	305	305	303	303	303	305	311	309	306	307	311	312	311	311	312	309	308	307	308	307	287	298	298	302	307	307	307	312	315	312	305	305	306	311	311	311	311	310	309	307	316	316	315	312	293	298	302	308	311	307	305	301	301	300	304	308	308	317	313	309	309	311	313	312	312	308	304	299	295	295	295	299	299	295	305	307	308	308	306	303	306	306	308	308	298	299	300	303	306	311	308	310	310	312	308	313	313	317	315	316	317	310	307	311	314	314	315	315	323	323	321	316	315	314	310	302	303	305	310	306	316	323	322	322	323	319	317	317	317	323	319	318	316	318	323	324	328	327	314	311	311	314	315	316	321	325	323	325	325	325	324	321	321	321	322	319	318	318	314	314	311	315	314	318	318	315	318	320	318	311	308	313	319	320	316	321	320	321	322	320	323	323	321	326	326	328	324	323	323	321	321	324	322	322	318	322	327	328	322	315	315	316	317	323	322	324	322	328	332	331	327	328	327	324	319	322	326	328	327	322	323	318	317	317	319	322	325	325	320	321	321	322	316	317	318	323	325	325	328	328	329	329	332	335	326	324	323	323	325	325	331	331	332	335	330	331	329	331	329	322	316	324	329	324	322	319	315	315	313	317	317	321	327	327	320	319	318	322	323	323	323	325	330	329	328	331	327	331	329	323	321	318	317	319	316	315	316	316	318	319	318	314	317	319	320	318	317	315	312	315	323	326	324	320	329	329	327	323	318	317	318	319	313	318	318	319	320	321	319	318	318	319	323	325	326	326	322	322	322	321	318	318	321	322	316	315	317	320	322	321	320	315	316	317	317	317	319	318	315	315	313	312	310	310	306	308	309	311	311	308	310	317	318	316	317	317	316	317	317	317	320	322	319	320	322	325	327	327	322	319	316	319	318	317	314	311	311	314	316	316	314	310	308	308	308	309	314	308	305	302	304	311	309	307	305	304	304	303	304	306	304	301	303	310	305	304	305	304	302	302	302	301	302	302	302	300	300	303	302	300	294	293	295	295	295	299	299	299	299	300	300	301	293	292	291	291	290	294	297	297	296	298	300	300	302	302	302	298	292	291	291	294	294	294	291	290	290	289	291	293	291	293	294	294	294	298	298	303	298	294	295	298	301	299	297	297	298	298	296	294	288	284	288	288	288	287	285	288	292	297	293	293	296	297	297	297	292	292	296	296	301	307	304	293	293	291	291	290	290	290	295	290	291	291	292	292	291	292	293	292	292	297	301	302	302	295	294	294	294	291	286	290	289	289	290	291	289	293	289	289	298	292	286	286	285	285	284	285	290	292	290	290	289	290	296	301	301	295
310	306	300	303	303	303	305	306	304	309	309	307	308	309	308	308	304	304	298	290	295	308	309	309	307	304	305	309	311	311	315	311	307	305	302	309	309	310	307	306	306	309	306	306	301	300	301	303	306	305	305	305	305	297	300	297	296	298	298	298	302	305	306	306	306	306	306	305	305	301	302	304	307	309	311	311	312	309	308	306	301	291	287	298	302	306	307	307	308	314	318	309	306	306	308	311	313	311	309	300	296	296	298	296	296	294	293	298	300	306	314	310	305	301	300	300	305	309	307	308	309	308	308	310	311	309	306	306	302	296	292	293	294	299	299	295	302	307	305	304	304	301	301	304	301	299	297	298	300	302	302	309	310	299	299	298	299	308	310	311	316	316	312	310	307	310	313	311	310	313	316	316	313	307	308	310	313	311	311	314	314	312	311	315	316	319	321	321	318	321	322	322	322	315	317	319	320	323	323	322	314	311	311	311	314	314	315	317	312	313	319	325	324	324	319	319	317	315	314	313	314	313	311	308	305	303	308	312	313	313	312	307	311	312	314	316	316	319	320	322	323	324	326	325	316	312	312	316	320	322	323	321	321	319	318	316	318	322	327	328	326	322	317	316	321	322	322	322	321	325	324	323	325	324	323	322	318	315	320	323	322	318	319	319	317	313	313	319	317	318	318	320	321	319	316	316	318	319	323	323	324	325	327	327	330	329	328	323	323	322	323	324	329	328	332	333	328	330	326	327	322	318	313	320	320	313	312	314	316	317	318	318	319	318	323	317	320	318	316	317	320	322	322	323	329	326	325	326	332	331	324	322	325	323	319	313	316	315	313	314	316	314	312	314	317	320	319	316	312	312	313	315	323	326	324	320	318	314	313	311	309	315	317	314	315	315	314	316	319	321	325	323	319	319	321	323	325	324	323	322	322	319	317	317	317	319	320	313	315	321	317	322	321	318	318	319	316	316	313	306	315	313	315	312	310	309	311	315	316	311	311	307	307	309	310	310	315	315	316	316	317	317	320	319	320	321	321	326	328	326	323	325	315	313	316	315	314	308	308	312	312	314	312	309	306	303	308	309	312	317	307	303	303	311	306	306	303	303	301	298	298	295	300	303	306	305	299	299	301	300	298	297	297	300	297	295	295	300	300	306	306	303	301	300	292	292	291	293	292	291	291	293	297	297	292	292	291	291	289	292	294	294	298	298	300	301	302	299	299	296	292	293	292	294	296	296	291	289	289	289	290	295	295	296	294	294	296	294	298	295	295	294	294	296	297	298	298	298	298	297	295	293	290	282	283	283	285	288	288	288	292	289	286	286	285	281	292	293	291	291	296	296	299	298	294	287	287	288	288	288	290	290	287	289	287	287	286	287	287	288	283	286	286	293	296	296	296	291	291	291	294	291	291	290	290	290	288	287	288	290	289	289	297	291	286	287	286	286	286	285	286	286	286	286	286	296	295	291	291	292
308	303	300	303	297	297	300	299	299	302	311	311	307	304	305	305	300	300	299	291	294	308	309	310	312	311	309	310	310	309	309	308	304	303	304	308	308	308	306	304	303	309	306	301	301	300	300	300	300	297	294	294	296	292	296	298	301	301	302	302	303	304	306	306	301	302	302	302	300	296	295	296	304	311	313	313	313	311	303	298	289	286	298	302	302	306	307	309	311	308	309	300	299	300	300	300	301	301	299	303	305	308	300	296	296	292	295	296	300	306	312	311	302	303	303	303	308	306	303	307	310	309	313	314	315	315	315	315	314	302	292	290	294	299	298	295	302	305	305	301	301	304	305	305	310	300	302	302	301	303	302	302	303	301	301	301	304	307	304	309	311	313	311	313	311	310	313	312	309	308	312	311	311	311	312	310	309	311	311	316	315	311	311	310	312	316	323	323	321	318	319	319	321	317	316	319	325	327	325	319	316	317	315	311	314	311	313	315	314	312	314	313	313	314	312	312	311	310	314	314	314	314	308	308	306	303	310	312	314	316	312	305	308	312	315	318	317	321	318	321	322	325	327	322	315	311	312	312	317	321	322	322	322	321	316	318	321	327	326	322	326	322	317	316	321	317	317	314	314	314	321	322	321	322	321	317	314	314	317	316	316	314	316	318	314	313	312	316	314	317	317	318	318	318	313	314	317	320	322	322	324	328	328	327	325	327	326	324	324	324	325	323	324	328	328	326	328	324	321	318	317	314	313	313	314	308	310	314	315	316	317	318	321	320	318	322	316	315	313	319	319	321	321	325	327	325	324	324	326	323	321	324	325	327	320	313	316	315	313	312	312	312	312	314	315	316	319	316	312	312	313	313	315	325	324	318	309	312	312	311	313	315	316	314	310	310	313	315	318	320	323	322	319	319	322	322	324	321	318	317	317	316	314	318	319	318	318	312	314	314	316	319	324	323	320	317	317	316	309	303	304	305	311	311	308	308	311	315	316	311	311	310	310	310	312	311	310	312	314	315	315	315	315	318	320	320	321	322	324	322	316	313	313	309	307	310	307	304	302	308	308	310	309	307	306	303	307	306	308	309	312	306	304	303	305	301	297	297	298	295	295	296	299	303	305	306	306	307	302	297	301	301	300	300	294	295	295	296	297	305	303	302	301	299	299	296	297	297	293	291	287	290	295	296	293	292	292	290	286	289	286	294	298	298	300	301	301	301	301	299	293	292	291	295	297	296	293	293	292	295	294	294	295	295	294	294	296	296	299	292	294	292	292	295	297	298	298	298	294	292	289	290	290	287	287	282	285	288	288	289	291	292	292	292	290	285	280	286	289	289	289	291	292	289	286	284	281	282	288	288	289	289	286	283	281	281	283	281	280	281	275	275	275	279	282	285	290	287	291	291	291	290	289	288	288	289	292	289	289	289	289	288	285	284	286	292	292	286	286	285	286	287	287	288	295	296	298	297	297	295
309	304	301	298	297	297	295	296	298	301	308	308	304	300	298	295	294	294	294	290	300	306	310	312	312	311	308	307	307	305	305	302	298	302	306	304	303	303	304	301	306	307	304	301	301	297	299	299	295	290	284	284	298	302	300	301	300	300	301	301	299	295	297	298	301	302	300	300	294	290	289	296	302	307	310	309	309	308	305	299	294	299	306	295	301	301	307	309	311	303	304	303	300	298	298	304	305	307	310	319	322	311	303	298	293	293	296	297	297	297	312	311	298	301	306	305	305	302	302	302	308	308	312	313	313	316	314	314	311	308	304	292	294	299	296	293	296	305	305	291	297	297	298	297	298	302	305	303	300	299	299	299	303	302	304	304	307	308	307	306	306	306	305	304	303	306	315	312	309	308	304	310	310	313	314	313	314	309	309	310	313	314	312	311	311	314	319	321	316	317	318	318	318	322	322	323	327	326	326	320	320	319	318	314	313	311	313	315	313	309	310	308	308	311	309	310	310	310	313	315	315	314	307	305	306	308	314	315	319	318	318	308	306	313	315	317	316	321	315	317	319	322	327	321	314	313	313	313	313	314	316	317	318	317	316	318	318	319	320	320	322	327	328	327	324	317	317	314	314	314	321	321	320	319	317	315	314	316	314	312	311	312	315	315	313	312	310	310	309	311	311	317	320	317	311	313	316	321	322	324	325	323	327	324	325	326	326	326	324	324	323	326	326	318	317	320	318	313	313	316	316	315	314	312	312	308	308	312	314	314	317	317	317	312	320	317	312	306	316	322	326	324	324	326	324	324	324	324	325	324	322	322	325	327	319	313	311	309	314	310	312	312	312	314	315	316	322	326	323	320	314	311	308	312	319	314	311	309	309	311	313	317	317	315	315	314	319	322	322	319	318	317	317	317	317	317	324	318	314	312	311	313	312	314	318	317	317	311	313	314	316	319	317	316	316	313	313	313	313	308	302	306	307	311	308	308	310	316	315	313	310	310	310	310	311	310	311	310	310	313	313	312	313	315	319	321	321	321	320	317	314	312	312	307	304	306	301	301	301	301	304	304	309	307	302	302	303	304	305	306	303	297	299	305	299	297	297	295	294	294	293	295	296	296	302	303	303	305	302	295	300	300	299	300	294	289	287	287	297	298	296	301	299	298	298	298	297	297	291	290	289	292	293	297	295	295	295	293	292	289	286	291	293	296	296	296	296	296	296	295	292	291	291	292	297	296	295	295	292	294	293	294	294	295	294	294	299	299	298	292	291	287	292	295	297	296	296	296	293	286	288	288	288	281	281	278	285	283	283	287	290	290	290	291	289	284	284	285	286	285	285	283	283	284	281	279	281	281	282	278	288	290	289	286	286	280	279	280	281	281	281	281	280	280	279	285	290	287	287	287	288	290	290	286	286	288	291	293	291	287	287	286	284	279	279	292	292	290	278	274	285	287	287	291	294	297	299	298	298	296
307	304	304	298	297	297	295	296	300	301	301	301	301	298	294	289	289	288	288	285	299	306	311	313	313	311	308	299	293	287	287	287	293	294	297	292	290	290	293	303	304	303	302	300	300	297	299	300	292	287	295	298	298	306	303	301	300	297	295	285	285	286	288	293	297	299	300	294	294	289	287	294	296	302	302	302	302	306	304	298	301	306	295	294	303	303	282	297	311	303	304	304	303	300	307	307	310	313	313	312	306	301	296	294	290	290	296	296	294	292	289	293	298	301	292	295	295	297	299	298	302	305	302	298	295	295	298	306	306	306	304	304	297	299	293	290	300	299	297	291	297	303	305	301	302	303	302	296	292	292	296	304	304	301	300	298	298	297	296	296	296	299	301	302	297	299	300	306	302	302	304	310	312	312	312	310	304	303	302	307	311	315	314	311	309	310	315	320	315	314	315	321	321	324	323	322	327	327	326	323	322	322	322	312	310	310	313	314	313	309	310	310	310	312	312	307	307	307	312	312	312	311	306	305	306	306	309	316	318	318	313	313	307	307	314	317	314	311	308	306	308	320	324	321	314	311	313	316	316	318	307	306	305	314	317	316	314	314	315	316	316	316	320	319	320	314	312	310	312	314	319	321	320	319	317	315	314	316	315	314	316	316	318	319	320	318	314	310	311	313	313	322	321	318	315	314	316	322	322	324	324	324	322	320	319	324	329	329	326	325	324	327	318	311	313	312	306	308	308	316	315	315	316	308	308	308	311	313	316	317	318	315	314	314	314	314	310	313	316	319	322	322	330	325	324	322	319	319	324	323	322	321	320	322	319	313	311	309	314	310	310	307	310	308	306	310	313	317	318	313	309	306	303	308	309	308	308	306	306	303	306	308	312	309	309	315	315	313	310	312	314	313	313	315	316	317	316	312	311	311	312	312	311	312	315	314	313	310	311	315	315	318	320	314	314	314	313	308	307	305	302	306	307	307	308	306	306	307	312	305	306	308	309	310	307	311	311	311	309	309	305	310	311	310	309	306	306	308	309	309	309	310	305	307	303	300	301	299	302	302	304	304	303	303	306	305	303	303	303	304	302	296	291	301	303	296	296	296	290	294	290	290	290	296	299	299	300	298	299	294	294	300	299	301	300	299	284	286	287	294	292	293	294	294	295	295	291	297	292	292	291	292	294	294	297	297	294	293	292	291	291	287	288	290	291	290	290	290	291	290	288	289	290	293	293	295	289	289	288	289	292	291	294	294	294	297	297	291	292	290	285	287	292	292	293	293	292	290	290	287	287	290	290	288	281	278	281	282	287	288	291	291	291	289	287	285	284	286	285	285	283	281	281	284	283	279	278	278	278	276	281	288	290	293	293	284	282	283	285	284	286	286	290	289	279	285	285	285	284	279	285	286	286	286	286	290	291	291	292	289	289	288	281	279	279	280	280	279	280	284	285	279	279	285	290	298	299	299	292	291
310	309	305	302	297	295	295	300	300	301	299	298	298	296	291	290	289	287	287	285	296	305	312	313	313	310	305	299	293	295	296	296	296	293	291	285	287	289	289	296	299	300	297	298	298	298	297	300	295	293	295	303	303	303	299	301	304	305	298	292	292	288	289	292	294	295	296	294	294	294	291	290	294	295	294	293	296	296	302	295	295	304	293	286	291	281	281	295	310	301	304	304	304	304	300	300	300	303	304	306	300	299	296	294	291	291	295	297	297	298	293	290	291	290	292	295	294	295	297	298	298	297	295	292	287	288	293	301	301	304	305	303	307	305	292	293	297	300	295	297	303	305	305	301	302	301	301	300	300	298	298	303	304	303	304	303	303	301	295	294	293	293	302	303	299	299	298	297	304	305	310	312	312	312	307	303	301	301	307	310	311	312	313	311	310	308	309	312	314	314	313	319	321	321	323	322	322	320	318	320	325	325	317	310	313	313	313	313	312	311	308	310	310	312	313	307	306	306	304	310	310	309	308	308	309	309	310	311	314	312	311	305	305	307	306	306	306	307	306	306	308	309	307	320	313	312	320	315	315	309	305	303	299	302	312	312	314	314	302	300	305	305	309	311	313	315	312	313	313	312	318	317	318	317	316	317	317	318	315	314	316	316	318	319	320	318	316	317	323	321	315	315	317	316	316	314	312	316	319	321	319	319	321	316	315	321	324	325	321	320	318	317	312	310	308	312	312	311	310	311	314	314	315	323	316	312	314	318	315	314	313	311	311	314	316	318	318	319	318	317	318	318	322	322	315	316	319	319	324	323	322	321	320	322	323	313	311	309	308	305	305	306	303	301	301	304	310	311	310	308	305	300	303	302	310	310	309	308	304	300	301	308	307	307	305	307	314	313	311	307	306	307	306	307	307	305	301	302	312	316	313	311	309	312	314	320	318	313	312	313	316	317	315	313	313	313	309	308	307	305	306	299	299	298	300	307	307	307	305	304	304	302	301	305	309	310	310	307	299	299	300	303	308	304	303	302	303	305	306	306	306	304	305	308	301	300	297	299	299	302	300	296	298	301	307	309	309	304	301	302	301	297	295	294	301	301	305	296	287	286	287	291	292	293	296	299	298	294	291	294	294	293	294	299	300	297	292	283	285	287	293	289	288	288	287	286	288	288	293	293	292	293	292	292	294	297	294	295	292	292	290	288	289	292	293	292	292	289	288	286	290	290	291	295	298	298	298	293	291	288	292	291	291	291	288	286	286	291	289	285	283	289	290	293	289	289	288	288	288	289	293	290	290	290	288	290	282	284	288	291	291	291	291	289	287	286	286	286	284	284	282	281	280	284	283	280	280	280	278	278	284	286	289	291	291	292	291	290	287	285	285	286	290	289	281	281	285	285	287	283	286	297	283	283	282	289	291	293	283	283	275	288	281	278	280	280	281	279	282	281	279	279	279	281	284	290	292	292	290	291
305	304	302	297	296	297	297	299	300	298	299	298	297	295	291	291	291	290	290	288	295	301	306	312	309	309	304	296	295	295	296	305	295	295	302	303	307	306	306	304	299	294	291	291	293	293	300	300	295	293	294	295	301	301	300	301	303	305	302	298	298	299	293	289	294	294	296	296	296	294	291	290	293	294	294	295	291	291	296	299	297	302	294	291	283	293	293	295	298	301	303	305	304	304	300	299	299	301	302	304	301	297	296	292	292	295	295	297	298	296	292	290	290	291	298	294	295	295	296	297	298	295	295	294	294	292	289	295	299	299	307	314	308	300	296	295	295	294	291	296	300	301	301	301	302	300	301	299	300	298	298	304	307	307	304	300	297	297	294	291	289	291	294	301	301	302	305	303	307	311	312	313	307	307	307	303	301	302	306	309	309	306	306	309	306	305	310	313	314	310	315	319	316	316	321	320	317	316	316	318	321	314	307	312	312	313	313	310	310	309	312	312	311	310	313	307	306	303	303	307	310	311	310	311	311	310	311	310	309	306	303	305	305	306	303	299	298	305	303	308	305	307	308	309	312	320	319	310	303	303	299	301	300	300	299	310	314	315	304	299	302	303	309	311	308	309	313	314	313	313	311	313	314	315	316	316	321	319	311	311	320	320	317	317	318	318	316	317	323	321	315	315	317	316	316	314	307	309	311	313	315	312	310	310	312	315	319	322	319	317	316	317	313	310	306	312	311	313	312	311	310	310	310	318	314	315	317	318	318	313	312	310	312	315	313	318	318	319	318	317	318	318	322	322	315	316	315	312	312	314	316	316	311	307	306	309	313	315	314	313	309	300	299	301	302	305	307	306	306	308	306	307	302	306	309	308	307	306	300	300	306	303	302	302	301	300	303	313	312	310	310	305	302	302	302	302	299	300	306	310	311	309	308	309	308	308	308	309	312	312	312	311	311	312	312	313	309	308	307	306	301	295	292	291	293	300	304	303	301	303	305	306	299	301	303	302	307	302	302	299	298	299	297	300	303	303	302	303	302	302	301	302	303	308	301	300	297	300	300	296	296	291	291	293	304	306	304	302	300	297	294	291	289	290	294	294	302	300	292	286	290	291	292	293	295	297	298	294	291	291	290	288	285	289	299	294	287	286	285	292	291	287	285	285	283	283	285	286	287	294	291	291	286	290	294	294	296	289	291	291	291	291	290	293	295	293	293	291	289	290	291	289	292	294	296	296	296	295	291	288	285	288	288	289	283	283	283	285	283	285	286	288	291	288	288	281	282	286	295	295	293	290	290	290	291	292	290	286	285	286	290	290	287	280	280	281	286	286	286	286	282	281	280	282	283	283	283	284	284	286	289	287	288	288	288	287	287	289	287	285	285	286	290	290	289	280	280	280	285	288	288	285	284	284	284	289	288	292	279	283	275	281	281	279	278	278	277	282	284	282	280	280	279	283	286	289	293	292	290	287
303	298	298	297	295	296	296	296	295	296	297	297	297	295	297	297	296	291	289	289	293	295	300	302	303	303	299	299	302	304	305	295	295	298	305	310	314	318	318	319	316	297	293	292	293	297	297	299	297	293	294	295	303	303	303	299	302	307	311	315	309	309	304	302	303	297	299	291	289	289	289	290	293	296	295	294	295	295	299	303	307	303	298	294	288	295	295	292	297	301	305	308	305	304	300	298	298	297	296	296	295	293	291	291	292	296	296	298	301	296	293	292	291	297	300	298	295	295	296	297	292	293	294	294	293	293	293	290	303	303	305	307	302	294	293	291	291	290	290	294	296	299	300	300	299	300	301	300	299	301	302	303	306	311	304	299	297	297	294	293	291	292	294	294	297	297	303	305	307	308	314	315	311	307	307	302	301	302	306	309	308	305	306	305	306	309	313	313	311	311	313	316	316	318	318	316	314	315	313	311	307	303	305	311	309	308	302	301	307	310	311	313	312	309	307	308	304	303	303	307	312	313	314	313	312	311	310	309	308	304	303	303	304	303	300	299	308	308	307	306	309	305	306	309	313	317	307	293	298	298	300	303	303	300	300	316	310	316	316	316	309	304	304	305	308	309	313	314	315	313	311	309	310	312	315	315	321	310	307	305	308	310	314	316	318	317	314	316	322	321	316	316	316	312	314	311	307	309	311	313	315	312	310	310	312	315	319	322	319	317	316	317	313	310	306	312	311	313	312	311	310	310	310	318	314	315	317	318	318	313	312	310	312	315	313	309	309	310	308	307	307	307	307	306	306	304	307	307	305	303	303	303	301	300	297	300	310	316	315	304	298	301	300	301	302	302	304	307	310	310	308	309	308	308	312	307	306	300	301	301	301	306	306	302	301	302	302	303	303	303	308	310	311	311	308	307	306	302	306	308	309	311	313	311	309	306	303	301	300	305	306	304	311	311	312	309	308	307	307	307	306	300	291	291	292	300	303	306	307	307	308	303	302	302	301	299	299	302	302	299	299	297	296	300	303	301	301	302	299	299	299	302	302	308	301	299	295	295	300	298	297	293	296	296	297	298	298	297	295	291	289	288	289	290	290	289	289	292	289	285	283	287	292	293	295	297	292	292	293	293	295	294	289	288	288	288	286	292	293	292	288	289	289	286	286	285	283	285	286	286	288	286	286	290	290	288	294	288	289	290	291	291	287	295	298	298	298	287	287	288	295	293	290	288	284	284	296	295	292	288	285	283	283	283	283	283	284	279	283	285	288	289	284	279	279	281	284	287	295	295	295	293	293	292	292	293	293	287	288	289	289	289	287	286	286	287	286	286	286	286	282	280	280	283	288	288	288	286	288	289	289	287	287	287	286	283	283	281	278	285	285	283	285	287	286	285	285	280	282	281	279	279	280	280	280	281	283	292	279	279	277	278	283	283	281	281	282	281	279	279	280	280	281	284	289	289	289	293	290	287
299	299	298	294	290	293	294	294	293	295	299	298	297	297	297	297	298	291	296	296	297	298	297	294	297	297	298	306	308	306	293	289	289	298	298	301	302	308	308	308	305	298	294	293	295	297	297	298	297	297	298	301	303	303	297	296	298	298	293	289	294	294	303	305	303	304	296	290	286	286	287	285	292	296	295	294	295	304	304	302	306	304	298	293	294	298	290	290	286	288	295	298	302	303	300	298	298	291	291	289	285	284	285	290	291	294	296	296	301	297	293	294	296	302	301	296	291	291	291	290	292	293	295	297	297	293	289	290	290	293	293	288	288	288	288	288	289	291	289	288	293	295	299	299	302	303	302	300	299	304	303	303	303	306	306	305	300	300	300	301	297	291	292	288	290	291	301	304	306	308	312	314	314	310	304	304	302	298	303	309	308	304	305	305	305	309	310	313	311	313	314	314	310	304	301	301	300	302	302	302	300	301	302	302	302	299	299	300	304	312	313	312	311	309	307	304	304	308	311	311	312	313	314	311	309	309	307	307	306	304	304	305	304	301	300	299	304	308	308	307	308	307	305	306	310	306	306	305	303	304	304	304	303	301	305	302	313	311	309	313	306	305	304	303	308	305	309	308	312	315	313	314	311	311	311	313	311	314	306	305	307	309	314	316	318	317	316	313	313	315	315	315	311	311	311	312	311	307	307	308	308	306	304	304	308	308	316	322	317	315	315	315	315	309	311	314	317	315	310	310	310	309	309	310	313	315	319	319	316	313	313	319	319	314	307	307	298	297	301	300	300	299	299	302	305	303	306	305	303	301	301	300	300	300	305	307	309	309	303	295	296	301	302	302	301	301	306	308	312	311	310	309	308	309	308	306	305	302	302	302	302	303	303	302	300	301	301	302	302	303	306	298	301	308	308	306	307	306	305	304	306	307	311	307	306	304	307	308	300	305	306	304	300	300	305	305	305	308	309	310	311	313	301	289	289	291	301	305	307	306	308	308	304	301	298	298	298	298	297	299	298	298	298	300	300	303	302	300	299	299	299	302	302	305	307	301	296	296	296	296	297	297	295	295	296	296	297	297	295	294	294	294	293	296	296	293	289	287	290	292	288	283	292	293	297	298	297	291	291	293	294	291	290	288	286	287	287	287	291	287	287	287	287	288	288	287	286	285	285	288	288	286	283	286	286	289	285	287	288	290	288	285	289	291	291	291	290	279	282	282	290	295	294	288	284	284	283	287	289	286	284	278	278	279	284	284	282	284	284	284	288	281	276	279	279	284	284	287	293	293	295	294	294	293	293	293	288	288	293	292	292	289	285	285	286	287	288	286	286	284	282	283	285	287	290	290	291	289	289	288	287	284	284	283	280	280	280	281	278	278	275	273	275	276	276	275	275	279	282	283	280	279	279	280	282	281	283	279	279	285	287	290	288	281	281	280	280	280	282	284	284	281	278	284	289	290	290	293	287	287
297	297	297	294	289	294	294	294	294	296	299	301	303	303	303	304	298	291	298	298	296	297	297	300	305	307	307	307	304	297	292	292	292	294	298	301	297	293	292	292	288	286	284	291	293	296	296	298	297	293	291	294	297	297	297	296	297	290	288	286	289	289	302	305	300	298	290	287	287	287	287	290	292	290	291	294	295	298	298	299	298	298	295	295	295	296	297	297	297	289	288	290	290	293	293	293	291	291	291	287	285	283	284	289	291	294	297	297	296	295	293	298	303	304	301	297	288	288	288	290	291	293	295	297	295	293	288	290	288	284	284	279	277	286	289	290	291	290	292	290	291	294	299	301	301	300	303	304	304	304	303	306	308	301	291	292	292	292	292	291	299	293	288	286	291	292	300	305	304	306	308	308	305	302	300	300	301	299	304	308	305	304	305	305	304	305	309	309	310	312	312	309	307	307	297	297	302	302	301	302	301	301	302	300	298	299	298	301	306	313	315	314	305	304	303	301	303	304	308	308	312	313	312	311	309	309	302	305	303	300	301	302	303	306	303	302	303	306	307	306	308	305	301	303	308	306	303	303	307	308	308	306	304	301	300	308	313	315	304	301	304	299	298	298	301	305	306	307	307	307	312	309	310	310	311	311	309	307	312	310	311	306	310	312	312	304	306	304	302	302	301	305	305	304	310	312	312	309	306	302	302	302	304	300	301	304	308	312	312	311	310	310	310	311	312	310	312	313	311	308	308	308	310	306	308	309	309	313	312	310	311	316	320	310	304	301	300	301	302	307	307	302	302	302	305	302	300	300	298	297	300	301	302	308	306	305	302	296	297	302	297	301	303	304	299	304	307	310	311	309	306	306	306	305	304	304	302	301	302	295	295	295	301	305	305	304	303	302	302	304	299	294	300	304	302	302	297	300	305	305	305	302	301	301	299	304	307	308	302	302	302	300	300	299	301	302	304	304	303	309	315	303	295	287	288	292	292	299	303	305	305	305	307	303	303	299	299	303	299	300	299	299	297	298	300	300	301	301	299	299	299	302	302	305	305	305	305	302	297	294	296	297	298	295	294	296	297	297	295	294	293	293	295	295	296	291	294	287	287	287	288	283	290	293	297	300	295	294	294	294	296	291	291	290	287	287	287	287	283	282	283	283	284	289	292	292	291	285	285	288	288	287	288	288	288	283	284	287	286	286	287	289	287	284	284	283	279	272	272	277	284	286	294	288	288	289	290	292	292	286	284	284	284	286	286	288	288	285	285	287	292	287	278	278	279	284	288	291	290	291	292	288	288	288	287	287	286	288	297	289	289	286	285	284	284	287	288	286	286	284	280	280	280	281	284	284	284	282	281	283	281	275	275	278	276	280	280	277	276	276	275	275	274	273	272	273	273	279	280	283	281	280	280	280	282	282	279	278	278	282	287	290	288	281	281	280	282	279	279	283	283	281	278	278	276	276	276	282	290	286
297	295	296	294	290	293	295	295	295	294	296	299	296	296	297	298	301	299	298	293	293	296	300	303	302	297	297	299	299	293	286	289	295	295	297	297	297	293	287	287	282	279	280	289	291	292	292	292	296	289	290	293	296	295	295	296	297	290	285	284	283	293	293	296	298	284	284	292	299	300	300	294	291	289	291	293	295	298	299	295	299	295	292	294	294	293	293	292	292	289	287	288	290	292	289	287	288	288	288	287	285	282	287	288	293	296	297	295	295	294	297	301	302	300	299	296	294	288	290	290	292	292	297	299	295	293	288	287	287	286	279	279	284	282	288	292	292	292	292	291	292	294	295	295	295	285	294	301	303	306	305	306	308	301	284	291	294	292	292	292	292	302	292	287	287	292	303	305	303	303	304	302	300	299	299	299	299	300	301	304	301	302	301	302	304	305	302	304	307	307	308	305	305	309	308	306	306	305	304	302	303	304	302	300	296	296	295	305	311	318	318	308	304	304	307	308	308	306	303	303	303	303	308	309	307	301	302	305	303	300	299	303	303	302	302	301	302	304	305	305	308	304	301	298	301	304	307	305	307	308	304	304	304	301	299	303	306	309	307	306	302	303	299	299	303	307	306	305	304	306	307	307	307	311	310	310	310	306	305	301	299	302	308	311	310	301	304	301	302	300	300	305	305	307	308	309	308	301	299	298	302	305	305	302	299	300	305	309	310	311	308	307	307	307	311	310	314	313	312	309	307	306	305	306	303	304	307	309	311	309	311	312	314	309	303	300	297	302	306	305	305	302	301	299	295	295	297	300	300	300	297	297	301	303	302	300	296	289	293	299	302	299	300	299	298	295	299	307	307	311	312	310	306	304	300	299	299	300	295	290	295	295	301	304	303	300	302	303	303	301	299	299	298	298	297	297	298	298	301	305	304	301	301	301	299	300	304	305	308	303	302	301	301	300	299	300	301	301	302	309	305	299	292	287	286	293	296	298	295	293	298	302	300	303	305	307	307	307	305	300	293	293	292	296	297	300	301	301	302	303	303	303	303	303	304	301	301	301	297	292	291	296	294	295	298	299	300	299	299	298	299	300	297	297	296	292	288	288	287	287	287	285	291	295	298	297	294	294	288	288	295	297	293	292	287	287	293	298	292	289	288	288	287	287	289	292	291	285	282	285	288	288	289	289	285	285	287	287	286	286	289	288	286	283	283	283	278	272	274	278	284	286	286	290	290	296	297	295	294	288	285	287	284	287	287	287	288	288	288	284	282	284	278	278	280	286	289	292	289	285	285	285	287	286	283	282	283	285	283	283	293	283	279	284	284	286	285	285	286	286	284	281	280	279	280	280	283	284	280	277	281	279	279	278	276	276	276	277	277	277	275	275	275	274	272	272	274	279	280	278	278	278	280	281	282	280	279	278	278	278	278	275	275	275	275	276	278	275	279	283	283	283	278	279	275	275	277	277	281	285
295	296	296	277	280	290	294	293	293	294	297	298	297	297	297	292	291	291	292	293	293	299	299	298	296	295	295	296	297	293	288	292	296	296	295	294	293	291	287	282	279	281	283	292	290	289	288	288	287	288	293	300	303	301	301	298	295	286	285	284	285	284	284	281	283	281	288	294	297	296	296	293	287	292	290	292	292	292	295	295	299	288	288	293	294	294	292	291	291	288	288	289	290	292	294	289	287	287	287	288	286	282	287	287	286	290	292	293	293	294	294	294	295	294	293	291	295	294	292	292	293	292	294	295	292	287	288	287	287	287	285	285	279	285	287	291	291	292	292	292	292	294	290	284	294	294	294	294	291	297	307	305	300	289	284	291	292	293	293	293	298	295	304	302	297	298	298	293	293	295	296	288	291	293	296	299	299	300	299	300	298	296	297	299	299	299	302	304	307	307	303	303	305	306	307	306	306	306	310	309	304	306	303	298	296	297	299	301	303	304	304	300	301	299	303	303	303	306	303	304	304	306	308	306	303	299	301	304	304	299	299	303	303	301	301	302	302	305	305	305	304	305	305	301	301	301	303	309	310	310	303	303	302	300	299	301	303	304	305	306	298	296	300	300	300	299	300	306	304	303	305	307	304	305	311	311	305	304	301	299	297	299	303	308	312	307	305	305	305	307	306	302	302	306	308	306	304	306	306	306	307	310	311	311	308	305	300	303	306	308	307	304	302	309	305	306	310	314	316	317	315	311	307	306	305	302	303	306	300	297	301	305	305	308	306	303	297	297	299	304	304	301	299	296	294	295	300	301	300	300	297	295	300	302	302	300	295	290	293	294	290	299	302	298	301	305	304	301	301	298	304	302	305	305	298	294	296	302	295	292	292	298	305	307	305	313	312	302	304	307	303	299	299	296	296	296	297	299	301	305	304	301	300	296	298	299	301	303	303	306	302	302	301	301	301	303	302	301	303	301	298	297	297	288	287	287	287	293	297	294	298	297	302	301	301	301	301	306	303	293	292	292	290	296	297	300	305	305	303	303	304	304	304	303	302	302	296	297	296	291	297	296	296	295	297	294	294	295	294	293	294	293	293	291	290	285	288	288	286	291	286	285	286	288	288	289	288	288	282	282	286	288	288	287	285	282	286	289	286	287	287	284	281	287	289	290	292	290	286	281	282	287	287	288	287	285	285	287	287	285	286	286	288	288	284	283	280	276	274	278	285	289	290	290	290	287	283	284	285	286	286	284	285	285	284	283	284	283	277	272	271	284	284	280	281	280	288	291	285	285	284	284	284	286	282	280	281	280	279	279	274	283	279	278	282	282	283	283	284	287	286	285	287	283	283	281	282	285	283	280	283	281	279	277	274	276	275	280	280	277	277	277	276	277	278	278	278	279	279	278	278	278	278	281	283	283	283	283	281	279	276	274	276	276	275	274	270	269	279	279	278	277	277	278	279	279	277	278	278	281
281	278	278	277	280	283	292	293	293	294	297	297	291	288	288	291	292	291	293	295	295	299	299	295	294	301	301	301	296	295	292	295	298	298	295	293	293	285	282	279	279	281	284	287	288	287	288	288	289	288	293	301	302	299	296	296	297	300	290	287	285	284	283	283	280	287	292	292	292	294	293	293	289	291	289	291	294	295	299	299	296	288	288	287	290	289	287	290	290	287	290	288	287	292	294	295	289	289	289	289	289	286	288	287	286	286	290	292	292	292	292	294	294	290	290	292	293	295	295	295	295	293	288	287	286	287	287	285	287	287	285	285	285	287	289	292	292	291	290	293	294	291	285	290	293	293	289	291	294	300	297	290	285	288	279	284	292	293	294	302	302	301	301	299	296	293	290	288	289	287	288	291	295	297	299	299	299	299	299	298	294	298	298	298	299	300	298	299	300	307	303	298	296	295	294	295	295	295	308	312	315	314	309	303	297	296	299	299	300	300	299	298	298	303	306	303	303	304	303	304	306	306	307	306	301	298	297	301	295	296	300	303	301	301	301	302	302	299	308	307	302	301	302	300	298	297	300	307	306	306	304	302	302	300	299	301	303	304	305	305	302	297	296	295	296	293	293	293	294	303	303	304	303	300	303	306	301	304	305	304	300	300	303	308	306	305	306	306	309	309	305	303	303	303	304	302	303	304	307	308	309	311	311	311	310	305	300	299	299	303	303	301	301	303	301	303	303	305	309	310	313	312	310	307	307	302	303	303	306	304	302	302	305	302	299	301	295	292	296	296	298	297	297	296	295	296	300	301	301	298	295	294	296	300	300	296	296	296	293	293	290	295	299	296	300	300	304	300	298	294	297	298	295	295	294	294	297	300	299	298	298	301	302	311	313	305	302	299	303	305	299	299	298	297	298	296	297	299	299	301	302	301	298	295	295	299	299	299	300	301	301	301	302	301	300	300	298	292	294	294	291	293	292	291	283	283	284	287	293	296	296	290	290	290	298	298	307	306	299	293	292	292	290	290	292	293	297	297	296	296	304	303	302	295	293	293	293	294	289	295	295	296	297	295	288	284	285	289	289	289	287	288	288	291	290	285	288	291	285	283	284	286	284	286	287	282	282	281	282	282	283	286	285	284	284	283	281	284	284	283	283	284	281	280	282	281	286	285	286	286	281	283	283	286	288	284	281	287	285	285	284	285	286	286	285	284	280	276	275	277	284	287	288	288	290	288	285	284	282	282	283	281	283	283	282	284	277	273	272	272	271	281	281	280	280	279	280	287	288	284	284	284	284	281	278	279	282	282	277	277	274	277	278	280	279	279	279	283	285	285	284	283	286	283	283	282	281	283	284	280	283	283	284	276	275	276	276	281	281	280	277	275	274	274	276	276	275	275	279	278	275	275	277	282	285	283	283	283	281	276	277	273	277	277	279	278	270	269	272	272	273	274	275	277	277	277	277	275	279	279
282	277	277	273	278	283	292	293	293	295	289	287	287	290	290	290	293	292	294	296	298	298	295	295	294	291	296	296	300	296	296	293	296	294	294	295	291	289	289	288	287	287	284	287	281	282	285	286	286	287	293	294	295	291	291	291	291	289	291	289	286	283	283	283	288	292	291	291	293	293	290	290	283	290	290	292	294	295	296	290	290	286	285	287	290	291	291	292	293	293	292	289	285	290	292	291	286	289	288	288	290	288	285	284	284	286	290	291	293	293	292	292	292	289	292	295	299	295	291	287	287	286	282	282	283	285	285	283	287	290	285	285	285	287	289	292	292	292	290	290	290	283	287	288	284	285	285	291	291	292	295	290	284	282	285	285	291	291	294	302	303	301	296	292	291	290	289	287	287	288	287	289	290	292	297	300	300	300	299	297	297	298	299	299	297	299	298	297	299	296	302	298	296	295	297	295	300	300	298	306	303	311	309	306	299	294	294	294	296	297	297	298	300	303	307	304	303	303	305	306	307	307	305	304	302	299	297	295	294	293	296	296	297	296	297	297	297	299	308	307	302	297	297	298	298	298	298	301	305	306	305	303	303	300	298	297	303	304	305	302	300	302	300	299	298	294	293	293	293	298	295	303	303	300	300	300	302	303	303	303	301	301	302	303	299	299	303	306	306	307	303	302	303	303	301	299	301	306	306	308	308	310	310	311	307	306	301	294	298	299	301	302	303	305	301	300	300	300	303	301	303	308	310	311	307	306	308	307	307	306	305	304	304	301	299	298	296	294	295	295	298	299	301	299	296	295	292	293	294	299	299	299	300	302	299	296	295	295	296	290	293	296	296	295	296	299	305	299	297	295	296	298	295	292	290	293	296	300	298	298	301	301	311	312	307	301	295	295	291	297	298	299	298	297	298	305	307	303	297	299	297	296	299	298	295	299	299	300	299	297	297	301	304	301	299	297	292	288	292	295	295	292	286	285	283	283	284	285	287	292	286	287	289	291	291	296	306	306	299	293	290	294	295	295	291	290	289	289	288	284	287	293	291	288	288	287	291	292	295	292	300	298	297	296	293	293	291	286	285	285	286	287	288	288	287	283	284	282	284	283	282	284	282	283	282	281	281	282	282	282	283	283	285	284	282	281	281	283	284	284	283	282	282	280	277	280	281	282	282	284	283	283	279	279	288	285	280	281	282	279	277	278	278	278	285	284	285	282	278	279	281	283	284	284	284	284	285	284	284	287	282	281	281	282	273	271	271	273	272	271	271	271	271	273	272	274	275	280	281	281	281	282	281	279	278	275	278	281	282	277	274	278	277	277	278	281	281	283	282	283	283	283	281	281	277	279	282	283	284	284	280	280	278	278	276	271	272	272	272	273	274	273	273	274	274	275	275	275	277	275	274	274	275	280	283	281	279	279	278	279	279	274	275	275	279	278	273	270	269	269	270	271	274	276	276	274	276	277	279	275
282	278	273	273	279	286	289	293	295	287	286	286	288	290	291	291	294	296	297	300	300	300	293	287	287	291	296	293	298	299	294	288	286	291	291	294	294	289	292	288	287	287	284	281	281	282	285	286	286	287	290	294	296	288	290	290	290	286	290	289	285	283	283	283	288	283	287	290	291	290	285	283	283	283	286	288	284	291	296	291	291	287	287	288	291	291	296	296	293	293	290	287	284	287	292	289	285	287	286	286	284	284	281	282	283	285	286	291	293	291	291	289	286	285	285	291	294	294	291	288	284	284	285	283	282	285	285	285	286	290	287	285	287	287	289	292	293	290	282	282	283	285	282	278	279	280	280	284	291	291	292	291	290	287	284	288	287	290	297	303	301	301	291	289	288	288	289	289	292	290	291	292	292	291	294	296	300	299	299	294	294	298	303	300	293	298	298	294	292	298	298	297	295	298	297	295	300	297	297	301	295	300	302	304	303	297	293	292	295	298	299	296	300	302	307	307	299	300	306	305	307	307	307	304	303	300	299	295	290	292	291	295	293	296	298	299	297	291	297	297	297	297	297	298	298	299	299	301	303	306	305	305	304	304	303	297	299	303	294	295	294	303	302	300	297	298	297	293	293	295	300	306	304	304	301	303	304	304	302	300	300	299	298	299	298	298	299	303	306	307	301	303	304	304	305	305	304	305	306	307	306	306	308	308	306	304	299	293	292	289	289	294	295	299	299	300	299	294	295	296	300	304	310	310	305	306	305	308	310	310	307	306	301	299	297	299	296	295	294	294	300	305	301	300	298	298	295	293	293	298	295	300	301	299	297	293	293	293	291	294	294	294	293	292	293	297	301	304	302	299	295	296	293	294	289	292	294	295	299	299	296	304	305	298	298	295	286	295	291	297	298	299	297	298	300	304	303	303	299	298	296	294	297	298	298	299	294	295	295	293	293	299	302	300	295	291	289	290	289	288	292	291	289	288	288	290	287	286	287	287	286	285	287	288	288	296	306	302	299	293	290	292	291	290	291	288	286	287	287	285	285	287	289	287	287	287	289	292	291	289	297	297	297	294	297	296	293	286	280	285	285	286	286	288	284	282	278	283	285	284	283	282	282	282	283	283	280	281	282	283	283	282	283	283	280	279	280	283	284	284	282	282	281	278	279	277	279	280	283	286	285	285	283	287	282	286	281	278	274	274	278	278	278	278	276	277	279	279	280	281	282	282	282	284	286	284	285	285	289	285	282	280	280	274	266	271	271	272	270	268	267	267	272	273	271	271	275	279	282	285	285	286	281	276	274	273	278	281	281	281	280	279	279	277	276	279	279	281	281	279	281	278	279	279	277	279	282	282	282	286	286	282	278	278	277	268	270	270	269	270	273	275	275	275	274	275	275	275	275	277	277	275	274	278	280	278	278	274	274	276	278	276	274	275	279	279	273	270	270	268	271	273	276	275	275	274	273	276	276	275
290	288	287	287	285	286	288	290	287	287	286	286	290	290	291	291	294	296	298	294	289	289	282	279	278	287	293	298	298	296	290	284	278	286	286	291	293	292	293	294	294	294	284	281	281	282	285	286	286	287	289	288	285	283	284	282	282	285	287	285	284	283	290	289	289	283	287	285	288	288	284	283	283	285	285	288	277	278	285	289	289	289	290	291	295	299	296	296	290	288	288	284	284	283	283	285	285	284	280	280	280	283	284	280	282	284	286	288	291	291	291	288	290	286	284	287	287	289	293	295	286	286	283	282	282	281	279	281	284	287	283	286	286	286	289	292	291	292	285	282	282	282	281	276	276	277	278	278	285	290	291	290	288	284	282	284	289	294	296	302	297	291	291	289	288	288	288	291	295	296	292	291	292	277	286	298	301	300	299	299	296	294	294	294	295	292	295	295	294	295	295	294	295	295	294	294	293	297	297	297	296	295	294	294	301	297	291	291	293	298	297	300	301	302	306	301	300	300	303	302	305	306	304	304	301	300	297	299	291	291	296	293	295	295	295	296	295	295	291	296	296	296	297	298	299	299	299	301	303	305	305	304	299	299	293	292	296	298	298	298	298	298	296	293	296	295	291	288	289	294	298	300	303	306	301	301	302	302	297	295	295	298	297	298	297	296	300	299	303	302	301	303	303	303	305	305	307	308	306	306	305	299	297	304	305	303	298	293	293	287	292	295	298	300	299	300	299	297	292	292	296	302	306	307	304	304	303	300	300	304	304	302	300	297	299	299	294	296	293	293	292	290	293	294	294	295	299	298	295	292	290	297	293	290	290	290	290	294	292	289	294	295	296	298	300	299	298	298	299	299	297	295	293	289	288	289	294	295	295	293	294	298	305	298	298	295	286	280	287	291	293	297	298	298	298	297	299	300	299	298	295	295	297	298	298	293	293	293	291	291	293	289	289	292	292	291	288	289	292	290	290	288	289	289	288	287	285	285	288	287	286	286	287	287	288	291	292	294	294	294	293	292	291	291	290	290	289	289	289	289	286	288	287	287	289	290	292	287	286	289	288	284	288	292	291	291	290	286	280	282	282	283	287	288	283	279	279	283	284	283	281	281	282	282	283	283	278	279	281	282	282	282	284	286	286	279	280	282	282	284	286	286	281	280	279	277	279	280	287	287	287	285	285	284	284	286	282	281	277	274	278	278	278	277	277	276	276	276	277	284	287	285	285	288	294	292	289	286	282	282	280	275	275	274	266	268	271	268	272	269	273	273	274	271	269	269	270	275	271	271	274	277	280	276	274	273	273	273	273	276	276	275	275	275	277	277	278	278	278	276	277	279	274	274	277	277	280	281	282	285	285	281	279	278	276	266	266	266	269	271	272	276	275	275	275	275	275	275	278	277	277	272	275	277	279	275	275	273	273	272	278	276	276	272	279	277	274	269	269	269	270	275	278	277	277	274	271	276	276	276
301	295	293	293	290	288	293	289	287	287	285	286	290	292	292	292	295	292	293	290	284	284	284	288	289	283	288	298	298	296	290	285	285	289	283	283	287	284	291	292	292	296	296	294	294	290	287	286	287	292	293	289	285	284	285	283	283	282	279	281	286	300	292	279	279	278	282	285	288	288	284	283	283	283	283	288	275	275	281	285	290	290	294	297	299	296	293	291	290	288	275	279	279	280	279	285	283	283	279	283	283	284	292	287	285	285	286	286	289	289	289	288	290	284	284	285	290	285	284	284	286	286	286	284	284	280	282	286	284	282	281	282	282	284	284	288	291	292	285	282	281	281	277	275	274	277	279	279	281	286	293	294	293	288	285	283	288	289	291	296	291	289	289	287	288	288	288	290	296	297	295	289	281	275	291	293	295	293	293	293	294	295	294	293	293	295	296	296	294	291	292	293	294	293	293	293	295	295	297	297	296	295	286	287	295	299	299	302	301	301	297	296	297	296	296	298	297	296	299	302	301	300	300	300	300	298	300	294	295	292	295	294	294	295	295	296	294	291	291	296	297	295	295	297	300	299	298	299	303	305	305	304	299	293	296	296	295	293	299	299	298	298	294	293	293	293	297	290	291	293	297	298	298	299	299	297	293	297	298	297	300	300	297	295	293	297	294	299	300	302	302	302	301	301	304	306	302	302	305	306	301	298	293	294	295	294	293	293	293	291	293	294	293	295	300	299	299	295	294	293	295	299	303	305	303	301	300	296	296	297	297	298	296	299	299	299	299	295	295	290	290	290	294	295	296	298	299	296	291	288	286	293	293	288	291	292	294	295	297	297	296	296	298	297	290	290	289	294	294	293	293	293	294	293	291	289	288	286	295	293	294	298	295	292	288	285	279	281	285	289	294	297	298	298	298	297	297	299	298	297	296	294	293	295	295	289	293	293	293	289	286	287	289	288	289	289	289	291	292	290	290	287	285	286	286	285	288	285	287	287	286	286	288	288	293	291	291	292	296	296	293	293	291	291	290	289	290	291	291	289	288	286	286	289	292	293	292	286	285	288	285	284	291	283	291	291	290	283	283	283	284	288	292	290	284	277	276	279	283	282	281	283	282	279	279	278	277	279	281	281	282	282	280	286	286	286	280	279	279	280	282	283	283	280	279	277	279	285	286	286	286	283	284	285	282	282	281	281	277	274	277	277	277	277	277	273	272	271	272	284	285	285	284	279	283	281	280	283	277	275	276	280	275	273	268	269	272	274	274	276	276	278	278	278	274	268	270	270	269	269	270	276	280	276	273	272	272	272	275	273	275	275	275	274	274	274	277	277	277	277	273	271	279	274	271	271	277	279	279	280	280	281	275	274	274	273	273	265	265	264	272	276	276	276	277	273	273	272	275	274	274	272	272	273	273	279	279	274	273	272	271	273	273	275	276	277	278	269	269	267	266	269	269	269	271	274	271	272	275	275
293	286	283	289	289	293	294	288	287	288	288	290	292	292	292	290	290	290	293	292	290	286	286	287	292	288	284	287	287	291	287	285	285	290	290	290	288	283	280	289	291	294	294	292	292	288	287	292	292	292	293	271	271	275	284	283	279	279	277	276	290	298	281	276	279	279	285	291	289	288	284	281	279	279	283	278	273	277	280	284	285	285	287	290	290	292	290	284	274	275	279	279	275	276	281	287	287	287	285	285	285	289	289	287	286	287	289	291	289	290	291	291	288	284	284	285	282	280	281	282	280	284	284	283	283	284	283	286	283	281	280	280	280	277	277	278	282	287	285	282	281	280	280	273	275	278	280	281	281	283	287	289	292	292	290	289	287	288	291	290	290	289	288	288	288	286	288	290	296	291	285	279	276	283	287	290	288	291	291	292	292	293	294	294	294	295	293	293	293	293	293	293	292	292	292	292	292	293	295	297	297	295	286	287	295	295	302	302	299	299	298	299	301	301	300	299	296	296	297	299	297	295	294	294	294	295	302	295	295	295	295	295	295	296	296	294	292	288	282	286	295	294	293	296	296	297	298	297	297	300	303	295	295	296	296	296	295	293	299	298	298	298	293	293	295	295	292	290	292	296	298	298	297	296	296	298	298	297	293	293	293	295	297	298	294	294	295	297	300	304	305	303	303	303	300	304	305	297	295	302	299	296	291	292	291	294	293	292	294	295	299	294	294	296	296	294	294	294	294	293	294	295	298	299	302	302	293	295	294	294	295	295	297	298	296	297	293	291	291	288	288	293	296	298	299	299	300	295	294	293	293	297	297	289	286	284	290	294	293	294	294	296	295	295	294	289	290	290	290	292	292	296	295	293	291	289	288	288	286	286	287	293	295	288	286	281	277	283	286	287	293	297	297	297	297	296	294	294	296	296	294	295	294	293	292	293	291	294	294	288	291	287	288	288	288	286	287	292	292	291	290	287	288	287	284	281	288	285	287	288	287	287	287	289	291	291	291	291	292	292	292	291	289	289	290	291	289	290	290	289	289	290	290	290	291	291	290	286	286	288	285	283	291	283	290	292	295	294	294	294	290	289	291	290	290	290	280	276	279	280	282	284	282	279	279	277	279	281	281	281	281	282	280	281	283	288	286	286	285	283	283	286	282	281	277	277	278	283	283	283	282	279	280	281	279	282	281	281	280	278	274	274	277	278	277	273	273	274	274	279	284	284	287	285	279	275	273	279	277	275	276	276	275	274	271	271	274	277	277	276	276	280	282	281	275	274	274	274	274	275	270	276	279	275	275	273	274	274	270	272	275	273	273	272	272	273	276	277	277	277	273	271	271	268	267	269	273	270	268	268	267	266	273	273	279	275	275	273	265	264	268	269	271	271	271	270	267	270	271	271	273	274	273	272	273	273	279	274	272	274	276	276	273	269	268	268	271	271	269	265	265	262	262	269	271	271	268	265	267	267
281	280	280	285	285	285	280	282	285	290	290	292	292	292	291	290	290	291	295	296	293	292	292	286	287	287	282	283	285	285	285	282	286	290	290	288	288	285	290	291	290	291	291	292	292	289	295	283	279	274	274	271	271	282	282	280	278	278	277	280	290	289	281	277	279	279	284	287	287	285	282	281	279	277	278	279	277	274	279	281	283	283	283	285	285	286	280	275	274	275	276	276	275	276	281	281	282	285	283	282	284	284	286	287	283	287	288	290	290	288	291	291	288	280	283	285	282	283	280	282	280	285	285	283	282	284	284	286	282	281	277	278	281	280	281	281	283	284	285	283	281	280	280	280	280	280	282	283	283	281	278	277	286	289	289	290	289	287	285	288	291	290	288	288	288	286	288	289	292	291	285	279	282	283	286	287	286	287	288	290	290	292	294	293	294	296	293	293	294	294	293	293	291	290	286	289	290	292	293	293	293	297	292	290	284	295	302	302	294	292	291	296	297	299	300	300	299	300	301	295	292	291	296	296	296	294	291	293	294	294	295	296	296	299	297	295	291	295	294	294	295	292	292	293	296	297	297	298	297	297	290	293	294	297	295	295	293	292	297	298	298	298	293	293	304	298	291	287	294	298	297	295	296	292	298	297	294	292	290	288	288	292	294	297	297	291	287	286	295	302	301	300	297	295	295	297	302	303	295	297	298	298	296	291	292	297	299	300	293	295	299	301	301	299	298	293	290	291	293	294	294	295	294	291	287	286	287	292	293	294	293	294	298	297	297	293	297	293	293	291	289	295	296	299	299	299	299	292	293	291	292	296	298	298	296	283	284	288	288	291	294	294	294	293	290	288	289	290	290	292	292	296	295	296	293	291	290	290	285	285	287	295	297	291	288	282	287	288	288	286	286	286	292	295	294	293	293	293	292	292	294	295	293	289	291	289	291	291	294	294	288	291	289	285	291	291	291	293	292	292	286	287	289	287	284	281	282	287	293	292	287	287	288	289	290	291	290	289	285	281	280	286	289	287	289	289	288	284	285	285	285	285	284	286	289	285	285	288	287	287	285	283	283	287	290	291	290	289	289	291	293	287	284	289	292	290	289	283	282	278	281	281	279	279	278	279	279	280	281	281	281	282	281	282	282	283	289	289	287	286	282	280	284	280	278	278	279	278	277	277	277	275	275	277	279	282	282	282	280	280	280	280	280	279	275	275	278	277	276	277	279	279	285	288	282	279	276	279	277	275	275	275	275	272	272	273	276	276	277	277	277	277	278	280	276	275	273	273	274	275	274	273	272	275	277	276	276	274	274	277	278	274	272	273	273	274	277	275	277	277	277	277	277	277	273	270	269	270	273	273	274	271	269	271	273	269	269	273	271	273	270	270	270	269	269	269	265	265	269	269	270	272	271	271	273	273	274	273	272	270	269	269	269	267	267	266	267	267	266	263	263	260	262	262	270	271	267	265	265	265
281	282	280	281	281	277	277	281	285	290	290	294	291	288	280	283	283	291	295	294	293	289	288	288	286	283	281	283	286	286	285	280	283	288	290	288	287	286	289	290	291	292	291	291	290	287	284	279	275	274	274	276	278	282	282	280	279	282	282	283	281	281	279	277	277	277	276	280	280	280	281	279	277	278	278	276	276	271	272	279	279	283	283	282	277	277	280	274	277	279	275	275	275	282	281	281	283	281	279	278	287	287	287	283	281	282	285	288	289	289	291	289	289	287	277	282	279	283	280	280	276	284	282	282	284	279	280	282	277	281	285	284	282	285	285	285	283	284	284	281	280	278	278	280	280	277	281	287	286	286	281	281	282	282	282	282	280	278	277	283	286	289	287	285	285	283	283	285	287	287	282	282	282	283	289	291	288	286	283	286	291	291	293	296	295	295	289	289	292	295	295	288	283	287	285	288	291	291	288	286	292	292	293	290	288	287	293	293	294	292	291	292	293	292	294	293	294	295	296	294	291	291	290	290	290	290	289	289	290	289	289	290	290	292	295	294	292	288	289	293	295	291	291	293	293	295	297	296	298	294	290	293	297	299	296	296	295	290	288	290	292	294	297	301	304	298	291	287	294	298	296	291	289	292	294	293	292	290	288	284	285	288	295	297	292	285	281	289	298	300	298	296	293	292	292	291	295	300	303	298	298	295	292	290	293	297	300	300	301	293	293	293	296	297	297	293	287	291	291	292	293	293	293	293	287	288	292	292	292	296	297	300	300	298	292	292	294	298	298	294	293	294	295	298	299	294	292	288	288	290	291	292	296	292	294	292	283	286	289	293	293	294	294	293	290	288	289	290	289	291	292	295	296	292	289	289	289	288	289	289	288	293	291	288	289	290	288	289	288	288	288	289	288	290	289	290	294	293	292	290	291	292	292	289	288	291	293	293	291	296	303	300	293	285	287	290	293	292	288	288	286	287	289	289	287	286	285	290	288	286	289	289	289	288	288	289	287	287	282	278	278	280	285	286	285	284	280	279	280	281	286	286	288	287	288	285	285	288	287	287	285	283	287	289	289	289	287	288	288	293	293	288	283	282	287	293	290	287	282	280	280	281	279	279	280	283	285	280	281	281	283	283	282	285	284	283	283	284	284	286	283	279	279	280	279	278	273	274	274	274	273	273	275	277	276	279	281	283	283	277	277	273	273	273	273	274	277	277	276	276	276	277	279	284	283	279	276	276	274	273	273	271	271	266	273	276	275	275	275	275	275	277	276	275	277	280	273	273	273	275	276	274	273	275	278	276	276	275	275	278	280	277	276	276	276	275	277	275	277	277	278	278	279	277	274	270	269	270	270	274	274	271	269	269	269	273	269	269	272	273	270	270	270	270	272	271	270	263	263	260	261	266	267	271	271	271	270	269	268	265	266	266	270	270	268	265	265	265	266	265	263	260	260	258	265	267	262	263	263	264
283	282	280	278	278	278	279	281	284	288	289	289	289	280	278	286	292	292	295	294	290	290	290	290	285	283	280	282	286	278	278	277	279	281	285	287	287	286	277	277	278	282	288	288	289	286	283	280	280	282	282	281	281	282	283	280	279	279	279	281	275	274	274	276	277	276	276	276	280	281	281	282	284	279	279	276	276	276	272	279	281	282	277	277	279	280	282	274	276	276	268	277	277	279	279	280	283	281	278	276	281	281	281	278	278	279	280	280	287	289	289	286	286	285	274	286	288	279	284	280	276	280	283	283	279	278	281	281	281	281	283	286	286	286	285	284	284	282	283	277	280	280	281	280	277	277	281	286	286	286	285	287	289	287	284	283	282	282	282	279	278	279	278	276	276	272	277	286	289	287	282	282	285	288	289	291	288	283	284	280	288	288	291	294	293	289	286	287	288	286	287	288	287	276	279	282	285	283	282	289	292	292	293	291	288	288	288	289	292	293	292	292	293	292	295	294	295	296	294	292	291	290	290	288	287	287	290	288	281	286	288	292	290	289	289	291	290	291	291	291	289	289	290	294	295	293	291	296	293	293	295	296	291	294	298	294	294	290	288	291	295	300	302	301	298	286	287	292	298	298	296	291	289	292	294	293	292	290	290	286	286	286	294	294	289	285	294	296	292	289	293	293	290	292	292	292	290	293	298	297	296	295	292	292	294	296	297	298	293	292	289	288	294	294	298	294	292	291	291	291	291	292	293	294	293	293	293	295	294	297	299	299	297	294	289	289	291	298	298	297	295	295	292	289	286	296	297	293	291	286	289	290	290	289	294	292	283	286	289	293	293	295	293	290	289	289	289	289	289	290	292	292	291	288	287	288	288	288	285	286	290	292	292	288	285	286	287	287	286	287	285	286	287	285	286	286	288	288	291	289	290	291	289	288	288	286	286	286	282	284	291	290	287	287	284	287	286	292	288	288	283	288	287	289	288	285	284	284	284	283	283	283	286	286	286	286	287	286	282	278	277	283	285	286	286	283	279	278	278	279	279	288	289	286	283	285	285	287	289	288	280	281	288	290	291	290	287	287	288	291	290	287	282	284	290	291	290	287	282	280	281	283	283	283	280	283	285	281	277	280	283	285	286	286	284	283	283	282	281	281	281	279	276	280	278	278	272	272	272	272	273	273	272	272	273	274	277	279	277	277	273	268	267	267	274	278	282	275	271	271	271	269	270	284	283	282	281	277	272	272	267	264	262	270	271	271	271	272	272	272	274	276	271	270	277	280	276	276	271	270	275	275	279	279	274	274	274	275	273	278	278	276	273	273	276	275	276	275	274	275	275	275	278	277	275	271	270	269	269	274	276	275	274	269	269	269	269	265	268	268	273	271	271	268	270	270	269	269	269	267	266	266	267	269	269	274	270	270	266	268	268	270	269	272	268	267	267	263	266	265	262	260	260	261	264	264	263	265	265	267
279	277	277	278	278	280	279	280	283	284	285	285	282	280	276	284	287	287	291	292	290	290	291	291	281	277	274	280	284	283	283	278	277	281	279	280	279	279	277	277	278	277	278	277	277	278	276	279	279	282	284	284	284	284	284	280	276	279	279	269	270	269	275	276	278	278	278	281	281	278	277	278	277	275	275	276	277	276	272	278	282	278	277	277	280	284	273	273	275	271	273	274	274	277	279	282	282	280	278	276	276	276	276	272	271	274	271	274	279	282	284	284	281	281	279	276	286	287	285	275	281	280	283	279	279	279	285	287	288	288	285	285	286	287	286	284	284	282	281	279	282	281	280	282	285	287	290	286	286	282	282	286	289	291	289	288	285	284	283	280	279	277	275	275	278	278	283	285	285	284	284	285	287	290	289	285	279	283	284	286	288	292	292	295	289	290	287	289	290	289	287	288	286	276	276	278	281	282	285	289	291	293	293	289	285	285	287	293	293	294	292	293	294	295	295	294	295	290	285	286	288	289	286	289	293	287	287	280	285	289	294	294	297	294	290	291	290	289	286	287	285	284	287	293	288	296	300	284	287	292	293	294	291	289	291	291	291	291	290	292	295	298	297	295	292	289	289	295	297	295	296	291	286	288	292	291	292	290	290	286	286	286	294	294	289	285	293	292	290	293	294	293	291	291	291	291	288	290	293	293	296	294	293	292	294	292	293	293	291	289	286	285	288	298	300	294	290	291	291	291	290	291	292	293	294	293	291	293	292	293	293	294	293	291	287	288	293	293	293	294	292	284	284	283	284	291	297	293	291	286	289	290	290	289	289	291	283	285	287	291	294	294	292	290	289	288	289	289	288	290	290	288	288	290	288	287	287	286	284	283	284	285	285	284	283	284	287	284	283	283	283	283	286	287	287	286	285	286	286	285	288	289	290	287	286	286	286	286	282	283	287	293	287	286	284	287	286	286	284	285	285	283	282	284	284	286	284	283	284	285	285	286	287	286	286	286	287	287	286	283	279	279	278	281	283	280	279	278	277	279	279	283	289	286	283	279	283	288	289	286	279	279	286	288	290	291	288	288	288	288	286	279	282	284	286	289	285	279	276	277	278	283	283	283	281	281	280	275	273	270	270	273	277	281	282	282	280	280	279	278	276	273	271	271	277	272	269	268	272	272	271	269	268	272	273	274	271	271	274	274	271	271	272	274	275	276	276	274	272	272	271	269	270	276	277	276	283	279	279	279	276	271	271	269	269	269	269	270	270	266	270	273	271	270	277	280	276	276	268	269	275	276	275	270	273	273	275	273	276	272	272	268	273	273	272	275	275	273	271	271	271	272	275	273	272	272	271	268	268	271	273	275	274	273	269	269	269	268	268	270	274	274	274	274	274	273	271	271	271	267	266	267	270	272	272	275	273	273	271	275	275	275	272	268	266	266	267	263	267	267	263	261	261	262	265	266	267	267	264	270
268	270	274	280	280	279	279	277	278	283	285	285	274	270	272	275	284	288	288	291	291	292	291	281	271	269	277	282	283	287	287	288	284	282	279	280	283	283	281	280	278	277	277	274	274	271	274	274	280	284	286	286	283	282	278	276	276	274	269	269	270	274	274	277	281	282	279	279	277	275	276	278	281	276	277	277	277	277	273	278	282	279	280	283	283	276	271	272	278	273	273	274	280	280	280	281	279	277	276	276	276	276	282	282	278	275	274	272	273	278	282	281	280	280	279	279	282	289	286	283	278	280	280	279	279	278	287	289	292	290	287	286	287	287	287	283	281	281	279	279	281	280	281	283	286	286	279	280	281	282	282	286	288	290	288	285	284	284	285	282	276	279	280	281	282	282	284	285	285	285	284	284	287	285	284	281	279	277	284	286	288	292	288	290	295	291	292	292	293	291	288	288	282	282	277	280	281	283	285	289	291	291	291	288	285	285	286	293	294	292	292	292	293	294	297	293	294	290	285	286	288	291	287	294	296	294	294	290	286	287	291	295	299	294	296	295	291	288	288	286	285	283	287	285	291	289	291	289	291	292	290	291	290	290	289	288	289	289	290	292	295	289	281	285	289	289	289	291	297	294	291	289	285	283	287	289	290	290	295	295	295	290	293	293	291	293	293	292	290	293	294	293	291	291	291	291	288	290	288	291	294	297	292	292	291	294	294	294	294	294	285	285	286	293	293	292	290	289	291	292	291	292	293	292	294	292	289	288	291	291	292	291	290	287	287	288	293	293	293	294	292	284	284	283	284	291	292	293	285	288	290	289	289	287	289	291	285	286	288	289	291	292	293	292	291	288	289	291	291	294	291	291	288	291	287	287	287	284	283	280	280	280	283	285	288	288	287	288	288	282	281	283	284	286	287	285	284	283	284	284	286	287	289	285	286	286	286	285	285	284	285	293	287	286	284	284	285	285	282	284	285	283	280	282	285	286	285	285	287	287	289	289	289	288	286	282	284	283	283	279	281	278	277	278	280	280	278	277	279	279	279	283	277	278	278	278	284	284	284	280	280	280	283	284	284	283	283	284	288	279	276	274	276	280	282	283	279	274	274	282	278	278	283	283	284	282	279	276	274	273	273	275	275	279	282	282	279	277	275	275	272	273	272	271	271	269	269	269	268	268	265	265	266	268	273	275	273	274	274	273	274	274	275	277	277	273	271	271	269	272	271	270	269	267	271	272	276	279	279	278	276	271	270	268	266	268	268	266	266	267	270	273	270	268	267	268	268	270	268	265	272	272	268	271	270	270	273	274	272	271	272	268	268	266	270	272	272	271	270	270	270	270	268	270	270	270	269	269	268	271	273	277	276	273	273	268	270	269	268	268	273	273	275	277	277	273	272	271	271	271	272	272	269	264	264	260	267	269	271	274	274	276	272	271	266	266	266	263	266	268	264	264	263	264	268	268	267	267	265	264
259	263	268	274	278	278	278	277	278	278	280	274	274	264	264	272	284	285	285	286	281	277	273	271	271	269	279	280	280	285	285	285	286	284	282	280	278	278	276	273	273	276	277	274	274	269	269	273	276	276	275	272	272	272	272	270	270	268	269	269	269	274	274	282	281	278	278	278	276	275	276	277	281	282	282	282	279	278	272	278	282	279	280	280	280	274	272	272	277	275	274	276	277	277	280	281	280	277	277	276	281	283	282	282	278	277	276	277	277	277	281	279	279	279	279	279	278	281	280	280	280	279	280	278	278	278	287	289	284	280	273	269	276	281	284	282	278	278	278	283	281	279	281	282	277	278	280	281	282	283	286	286	288	290	288	283	284	283	286	284	281	278	278	281	283	283	283	283	284	285	284	284	284	283	284	281	279	279	285	287	287	288	290	290	290	292	293	291	293	292	289	282	281	277	283	284	284	281	285	289	290	289	286	286	283	284	286	293	294	292	292	293	293	293	291	292	289	287	283	291	291	291	287	294	290	291	290	290	289	291	293	294	293	278	286	288	286	285	288	285	284	283	282	287	284	287	288	290	292	289	288	288	288	289	285	285	287	287	290	290	291	288	281	284	289	290	288	286	287	289	286	286	285	283	284	285	285	284	285	290	291	291	290	291	288	291	291	293	291	288	293	293	289	286	284	284	286	284	288	291	294	297	292	292	291	294	294	294	294	294	285	285	286	293	293	292	290	289	291	292	291	292	293	292	294	292	289	288	291	291	292	291	290	287	286	287	288	288	288	290	292	287	285	282	285	287	288	288	288	285	282	286	288	289	291	291	290	288	286	286	282	284	287	291	292	289	289	292	292	292	289	287	291	286	284	284	286	282	281	281	282	285	285	286	287	289	287	288	287	285	282	282	285	287	287	286	285	282	282	283	284	285	286	285	285	285	286	285	285	284	285	284	285	285	284	282	282	279	280	281	285	285	285	286	286	287	287	286	287	287	284	284	285	286	285	281	280	280	281	280	278	273	273	278	280	277	277	277	279	279	282	281	282	276	276	277	282	282	282	281	283	280	281	282	283	283	283	282	283	279	277	273	272	270	272	276	276	273	274	282	282	282	285	284	280	279	275	276	277	274	276	274	275	279	279	281	276	275	276	276	273	273	273	275	271	269	272	272	270	269	265	264	266	267	271	276	273	273	273	271	273	273	275	278	277	277	274	271	271	269	270	272	269	273	273	272	276	278	278	277	274	273	270	269	267	268	265	265	266	267	271	273	269	268	265	266	266	266	264	269	270	272	268	270	270	269	272	272	272	271	271	270	270	267	272	271	268	268	269	269	269	269	266	266	266	268	271	269	268	266	266	266	268	271	271	273	275	276	274	264	269	269	273	274	273	273	272	272	269	269	269	271	268	268	264	255	256	260	266	266	270	274	272	271	262	262	258	262	263	265	265	265	263	263	266	265	262	262	260	264
261	263	270	275	276	276	276	277	278	278	280	279	279	275	272	276	283	282	282	277	270	266	267	270	278	278	279	280	279	281	284	284	283	284	284	280	278	272	272	271	272	272	276	274	269	269	271	267	268	273	275	278	278	277	276	270	271	272	274	274	274	281	282	282	281	278	276	276	272	275	276	277	284	286	288	287	287	277	277	275	279	277	281	280	280	274	273	274	274	277	273	276	278	279	279	279	277	277	277	277	281	283	282	278	278	277	275	278	279	277	275	277	277	279	279	270	271	272	273	274	279	279	279	279	279	279	279	280	284	280	272	267	267	270	277	279	279	286	286	281	278	281	281	277	277	279	280	281	282	283	286	286	289	288	288	283	284	288	288	287	277	276	277	279	282	282	282	279	279	280	284	283	282	280	281	279	279	287	285	285	286	287	290	290	290	292	293	286	285	286	283	281	280	279	286	285	283	280	285	290	287	286	283	283	283	285	289	290	291	293	293	293	289	289	286	282	284	282	287	290	292	290	290	290	290	291	290	289	289	289	289	291	290	278	282	285	285	285	285	285	284	284	282	285	281	283	284	286	287	288	283	283	284	285	285	284	283	283	285	286	286	285	279	279	284	286	285	286	289	289	284	283	285	287	289	290	292	286	279	280	282	285	288	290	288	288	289	291	290	287	287	288	288	287	282	282	281	280	284	288	290	297	300	293	290	291	291	297	296	295	293	290	288	285	283	285	286	289	292	287	288	289	293	294	293	293	288	285	286	290	289	288	287	287	287	287	287	287	286	288	292	290	285	285	281	287	288	288	287	283	286	286	286	287	287	289	289	291	291	287	286	284	284	285	288	288	288	289	291	292	288	285	285	285	285	286	284	285	286	286	286	286	286	286	283	283	282	283	283	283	282	285	286	286	286	286	282	279	281	282	286	288	286	282	285	285	286	286	285	283	279	281	283	280	277	276	280	283	282	283	286	285	285	285	287	288	287	285	285	285	283	285	285	285	283	279	278	278	279	279	276	277	279	278	280	277	277	276	276	278	279	281	283	277	275	275	277	284	283	282	283	281	280	281	283	283	282	279	278	274	273	271	269	268	270	276	276	273	275	281	281	273	276	274	271	271	274	275	275	271	270	270	272	274	274	277	273	274	275	274	274	274	273	275	273	273	273	272	270	269	264	266	268	269	272	276	274	274	271	272	271	272	274	274	274	277	274	272	272	269	271	272	270	272	271	269	272	274	274	272	271	272	268	267	270	271	269	265	269	269	270	271	269	268	266	264	264	265	266	270	270	271	271	269	269	269	272	272	272	272	273	274	274	273	270	267	266	267	268	268	269	268	266	263	264	268	268	271	272	270	266	266	267	267	274	275	274	271	268	265	265	260	264	274	273	271	267	267	266	265	265	263	263	263	262	261	261	264	265	265	270	274	269	266	264	264	262	260	265	268	268	268	264	262	263	261	261	262	260	257
267	267	273	278	281	280	279	279	278	280	279	279	275	273	266	265	275	279	280	280	276	273	278	281	283	283	282	276	279	281	282	282	281	282	284	283	280	271	271	268	270	273	277	274	274	274	271	267	275	277	278	273	273	277	275	275	276	278	277	266	266	269	270	272	276	278	276	272	272	273	275	280	283	289	291	289	289	282	274	276	276	277	283	278	274	274	273	269	273	276	275	269	269	271	271	273	275	277	274	275	272	273	279	281	281	276	275	278	281	281	276	276	275	275	275	273	273	275	275	273	275	278	278	275	278	277	277	275	280	279	272	267	267	264	267	276	277	279	279	280	276	278	281	278	278	277	281	283	283	284	287	289	289	290	289	288	284	288	279	280	276	276	278	278	281	282	281	281	278	279	278	279	279	280	280	276	276	277	281	284	287	287	290	293	293	296	289	286	285	286	283	282	280	280	279	278	274	276	281	280	279	280	280	282	282	285	288	287	284	288	289	290	288	286	281	280	280	284	288	289	290	289	288	286	288	288	289	289	289	289	289	279	279	282	279	281	281	282	283	283	284	279	279	276	277	280	283	284	284	282	283	284	285	285	285	282	284	283	283	281	281	281	282	282	281	282	282	283	287	286	284	285	286	287	284	286	288	290	290	292	294	287	285	286	288	280	279	282	283	282	283	286	284	286	286	286	285	283	285	284	284	287	297	294	290	290	286	287	289	287	287	286	283	285	283	287	286	288	291	287	287	289	291	295	296	296	291	286	282	286	285	287	288	285	285	288	287	287	286	287	291	287	284	284	283	286	287	284	285	284	288	291	288	285	286	286	290	290	290	287	285	284	283	285	287	291	288	286	285	285	284	282	283	288	288	285	286	283	283	286	286	286	286	285	282	280	281	279	279	282	282	285	287	287	286	284	281	280	278	292	286	288	286	286	282	279	280	283	282	284	281	282	284	283	281	284	284	284	283	284	283	285	283	285	285	287	287	285	285	285	286	286	284	283	281	277	274	275	279	278	276	276	279	278	278	272	277	277	277	278	279	278	278	276	274	273	276	280	282	281	282	282	281	282	282	282	281	276	274	272	272	268	266	268	270	275	278	275	277	276	276	277	270	270	270	271	277	279	279	275	270	269	272	272	275	275	269	274	274	274	274	274	274	274	273	272	272	270	270	268	266	266	266	268	269	268	264	264	268	271	271	274	275	274	274	273	273	273	271	271	271	272	272	270	269	266	271	271	273	271	270	270	269	267	273	271	271	269	268	268	265	268	267	267	265	265	263	266	268	268	269	268	270	270	270	269	272	270	268	272	272	272	271	269	267	266	266	266	266	266	267	268	265	263	264	266	266	267	269	269	269	271	271	271	270	269	263	260	258	258	258	260	264	267	267	267	267	265	263	263	262	262	263	263	263	263	264	264	265	265	270	272	269	262	258	258	262	264	265	265	265	266	268	266	266	261	261	263	260	259
271	271	277	281	280	279	279	279	280	280	280	278	273	273	266	260	271	275	274	274	274	277	281	283	286	286	283	276	276	276	282	281	278	278	283	282	281	276	274	274	275	278	278	278	274	275	275	275	275	277	274	266	266	266	268	271	273	279	279	274	274	270	270	271	276	275	269	272	272	274	275	277	278	280	282	281	279	279	277	278	277	277	281	281	271	271	269	269	273	269	275	273	269	269	272	272	274	275	275	273	269	269	270	273	273	269	274	278	281	281	275	273	271	273	277	277	278	274	275	274	273	275	268	272	274	274	274	275	281	283	283	272	267	264	267	268	276	276	279	279	276	278	280	280	279	279	280	279	276	277	282	285	285	284	283	281	276	278	279	280	276	274	271	271	276	281	282	282	281	279	278	277	276	273	283	284	283	283	283	284	284	281	282	285	283	283	276	283	282	283	283	282	274	273	276	276	276	283	283	281	280	277	281	282	286	286	285	283	286	286	282	283	281	278	278	278	281	286	287	289	286	287	286	286	283	278	278	281	279	279	278	279	279	282	279	277	279	279	278	282	283	275	273	273	275	278	281	283	280	279	279	280	280	282	284	286	281	280	280	279	277	278	275	273	275	280	280	279	282	285	283	283	286	282	282	284	282	288	290	291	291	296	286	280	276	275	278	285	291	292	287	280	275	278	281	281	284	284	277	283	283	284	287	289	292	290	287	285	285	285	285	283	284	284	287	285	286	286	287	288	287	287	289	294	296	295	292	284	281	284	284	284	285	286	288	288	288	286	287	288	286	284	280	284	285	285	282	278	279	283	288	288	287	287	287	288	288	288	287	284	283	279	278	279	279	281	282	280	279	276	279	280	281	281	278	283	284	283	283	279	275	275	275	275	279	280	277	277	278	277	277	280	281	282	286	285	281	280	278	292	292	289	284	284	282	280	280	281	285	282	281	283	283	282	281	283	284	284	284	284	283	283	281	282	284	285	287	287	286	283	285	285	284	282	278	274	274	275	278	278	276	276	272	279	280	278	278	278	274	277	277	276	277	276	276	276	274	276	278	282	278	278	279	279	279	278	277	276	276	275	271	268	266	270	272	281	277	276	277	277	277	276	275	270	270	271	272	276	275	277	269	265	266	266	267	266	272	274	274	274	274	273	272	273	271	271	268	271	267	268	268	267	268	267	267	277	277	269	270	270	273	274	275	274	273	273	275	275	272	271	269	271	271	271	265	269	270	270	267	267	269	270	271	267	273	271	271	269	268	260	258	261	264	264	264	264	264	266	269	266	264	268	268	270	270	268	267	268	269	270	271	271	268	265	266	267	267	267	267	266	266	268	265	260	264	264	264	265	269	266	266	270	270	270	269	268	262	258	258	258	258	259	263	265	266	266	266	266	266	267	267	265	265	265	264	263	264	264	264	264	264	271	269	267	267	258	256	259	263	265	265	265	268	266	266	265	265	261	258	257
275	277	277	278	280	279	277	277	279	279	279	276	270	270	265	260	260	264	267	267	273	282	286	288	285	287	287	280	277	277	276	278	278	278	283	287	282	277	276	276	277	278	278	277	280	280	280	278	277	279	274	266	265	265	266	267	271	276	279	272	269	269	271	275	278	271	269	273	274	274	275	278	277	276	277	277	278	278	277	277	276	281	279	279	277	267	267	264	267	269	275	273	269	270	270	270	271	271	273	273	274	266	264	263	259	259	269	274	276	275	275	273	277	278	281	281	279	277	273	273	270	264	267	272	274	273	273	273	276	279	278	268	267	268	267	268	272	273	272	272	275	276	277	279	279	280	276	276	275	276	282	282	283	283	281	275	271	275	277	279	277	274	271	275	272	272	278	279	279	279	278	277	271	267	273	286	288	290	282	281	278	276	285	280	280	280	279	275	280	283	282	279	274	273	276	278	282	283	283	282	279	279	281	282	284	284	282	281	283	283	282	282	280	280	280	281	285	283	286	286	284	284	284	284	286	283	282	279	278	278	272	271	274	277	278	277	279	279	278	282	284	278	274	273	275	276	278	279	280	280	282	279	278	278	285	284	281	280	279	279	278	274	275	273	272	277	279	278	278	279	282	282	282	286	284	282	281	287	288	291	295	295	286	276	273	274	280	287	292	288	285	283	279	277	281	284	284	281	279	287	287	282	285	290	292	292	290	284	282	281	282	284	287	287	284	279	276	272	272	277	283	285	286	290	294	293	284	280	283	284	284	283	285	287	288	286	286	285	287	282	286	277	278	282	284	283	282	276	276	280	280	286	287	287	288	289	291	290	290	287	278	277	275	274	276	279	279	278	276	274	272	269	275	275	279	277	278	279	279	278	278	277	275	277	276	275	278	278	278	274	274	275	281	282	286	285	281	275	279	280	286	286	286	284	281	280	279	278	279	285	281	280	282	280	278	276	280	282	281	280	279	280	280	281	283	287	287	289	287	279	282	286	284	279	276	274	274	275	278	277	274	269	276	276	277	278	278	278	276	278	281	276	276	276	277	277	277	274	278	282	275	274	274	274	274	276	275	273	276	275	271	267	267	269	275	280	278	277	277	277	277	275	271	270	270	270	270	270	269	269	270	270	270	270	270	266	272	273	274	275	274	270	270	270	267	267	261	260	264	267	267	266	268	268	275	275	275	269	268	270	273	273	274	273	273	273	273	272	272	270	270	272	265	271	263	261	261	263	270	266	266	270	271	271	272	270	270	269	263	258	255	259	261	262	262	262	263	267	266	264	263	268	268	268	269	269	269	267	265	268	268	269	268	266	265	269	268	266	266	267	266	267	265	262	262	262	262	262	265	266	263	264	264	266	265	266	263	258	258	258	258	259	259	264	265	265	266	266	265	264	267	267	267	267	265	263	263	263	263	263	265	264	269	267	267	255	254	260	263	264	264	265	268	268	266	266	263	263	256	255
275	277	276	274	269	270	274	270	270	267	266	267	268	260	260	260	260	264	264	267	267	282	289	291	291	290	290	285	275	272	267	269	276	276	283	287	282	280	277	277	278	276	278	281	277	275	275	272	270	271	269	267	265	265	265	266	269	272	273	271	269	269	270	277	277	271	271	274	275	275	275	278	276	275	277	276	275	275	273	274	278	279	278	277	275	267	267	262	259	264	269	273	269	270	269	274	274	270	271	273	273	272	269	267	268	268	267	261	262	266	276	271	277	278	283	281	281	270	267	266	268	263	259	270	274	273	274	274	269	270	269	271	272	269	267	267	272	273	272	272	272	275	278	279	279	276	273	274	275	281	282	282	285	285	281	274	270	271	271	272	272	273	274	275	272	268	269	269	269	271	268	270	272	274	269	271	276	279	276	275	279	274	277	280	279	279	279	276	279	279	275	273	273	275	276	278	282	283	277	280	278	280	281	283	284	282	282	281	282	285	283	283	282	282	281	286	286	283	285	286	284	285	283	286	282	282	282	281	278	273	273	273	275	276	276	274	276	279	279	282	284	278	274	274	275	276	277	282	284	285	281	279	277	277	280	282	279	281	282	282	278	274	272	275	272	277	278	275	273	274	276	276	277	279	278	274	280	285	286	292	293	287	287	277	279	277	280	286	286	282	284	280	275	277	278	279	279	282	287	290	291	284	287	287	290	294	294	284	283	281	281	285	289	291	288	280	276	275	276	275	276	282	286	288	288	286	284	283	283	284	279	279	283	286	285	283	283	282	283	286	285	284	282	284	285	281	281	278	279	277	279	279	280	279	279	282	286	288	288	282	281	280	276	275	280	280	280	279	279	281	279	277	277	279	278	278	275	275	278	275	279	278	275	277	275	273	275	277	278	274	274	275	277	276	277	281	281	275	282	275	283	284	284	284	280	280	279	277	275	278	281	280	278	275	272	271	271	278	278	278	279	279	278	279	280	285	285	285	281	277	277	285	284	279	276	274	274	276	277	276	272	273	270	274	276	278	278	279	279	282	281	275	274	274	276	277	274	271	271	275	278	272	270	270	270	272	275	273	275	275	272	270	268	271	272	276	277	276	276	278	275	271	269	269	269	269	268	266	265	265	267	269	269	270	270	270	274	273	270	270	270	269	270	276	276	275	273	270	265	264	265	265	268	269	273	273	269	269	268	265	266	265	271	271	272	272	272	271	268	269	269	272	271	265	261	260	260	258	259	266	266	269	271	272	273	273	273	269	267	261	258	255	257	258	258	262	266	262	258	264	263	267	267	268	269	268	268	268	267	268	268	268	266	262	265	268	268	268	266	267	266	269	267	262	261	261	261	260	262	264	264	264	264	262	260	259	263	263	267	267	269	267	265	265	266	266	267	268	265	266	269	269	269	267	265	264	265	264	264	265	264	262	268	268	264	252	259	263	265	263	264	264	268	268	262	262	260	259	260	255
276	276	276	274	264	264	265	266	266	268	269	266	263	261	261	261	259	259	264	267	280	290	289	288	287	283	283	283	278	273	270	272	275	275	278	279	282	278	277	278	278	281	278	274	273	272	275	275	275	273	270	266	266	265	265	265	266	270	269	268	268	273	273	276	275	272	272	275	275	275	275	276	276	275	273	272	273	270	270	267	272	278	278	275	274	266	259	259	261	264	273	268	269	270	269	269	269	268	271	271	269	271	269	269	269	267	267	260	259	264	268	274	277	278	283	281	272	270	266	273	265	264	268	273	270	271	268	271	271	271	269	270	272	272	269	269	270	272	272	272	272	273	276	275	274	271	271	273	274	277	278	277	275	274	274	277	271	270	271	270	269	274	277	278	274	268	269	269	262	262	267	274	280	282	283	274	274	276	274	276	278	281	279	279	279	278	278	276	276	275	274	274	274	276	279	279	280	281	277	280	278	281	281	284	284	282	282	282	283	283	286	287	284	282	282	282	286	285	287	287	284	280	281	280	280	282	282	281	280	278	278	276	276	278	278	277	279	280	279	282	281	279	276	274	275	276	277	282	288	284	283	277	275	277	277	277	280	280	281	278	278	275	272	272	273	276	278	278	280	281	281	284	283	284	281	279	283	288	284	286	287	290	280	279	280	282	282	285	282	280	278	274	277	279	280	280	280	283	286	290	292	293	291	289	289	289	289	285	282	280	280	286	282	283	282	280	283	284	285	284	285	288	291	288	282	280	283	281	281	275	275	274	275	275	280	284	284	281	280	284	283	280	281	283	284	282	280	278	280	279	279	279	281	279	280	280	282	283	281	280	280	282	284	281	278	274	276	279	280	279	279	279	279	279	279	278	279	275	276	276	273	270	273	275	275	273	275	277	268	270	273	274	275	276	275	275	273	276	274	283	284	284	285	283	282	280	281	278	277	276	275	280	275	270	269	268	269	269	274	274	273	274	274	277	276	276	277	279	276	276	277	285	284	279	276	276	276	275	279	273	272	273	274	273	274	274	277	276	278	279	277	272	272	273	274	274	271	270	269	268	271	271	272	270	270	272	270	272	273	275	276	272	271	271	271	270	275	275	275	275	273	269	265	264	263	263	263	263	264	264	266	267	269	271	270	272	263	263	260	261	268	271	273	277	277	284	283	273	268	264	264	267	262	269	271	273	269	267	266	266	263	262	266	272	271	270	270	269	264	264	268	271	272	268	264	264	260	258	259	257	257	263	266	268	269	269	267	263	262	263	262	264	263	263	263	259	260	262	258	260	268	269	269	270	269	267	267	267	267	267	267	267	264	262	266	267	268	268	268	269	266	266	265	264	264	261	263	258	261	263	262	262	262	262	260	259	262	266	266	268	272	273	272	270	269	269	270	271	272	271	271	269	269	267	266	266	269	269	269	268	259	263	261	261	260	259	260	263	265	265	264	265	265	266	266	263	261	259	260	260
274	272	269	269	264	264	265	267	267	267	268	262	259	262	262	260	262	263	263	280	280	290	280	287	284	283	273	273	269	268	271	272	272	272	273	274	278	278	277	281	281	277	269	270	272	274	278	278	276	273	270	267	265	265	265	265	266	259	263	264	269	273	273	270	271	275	274	273	272	274	274	275	275	276	273	272	266	266	266	264	267	268	277	277	272	264	262	262	256	260	266	272	276	274	274	269	269	271	271	270	267	265	268	270	271	274	274	274	273	267	271	275	274	273	273	272	270	270	266	266	266	267	268	266	270	272	269	272	272	272	272	272	272	270	272	272	273	270	269	271	273	273	276	270	270	270	270	270	273	276	276	276	273	271	271	273	275	277	273	270	272	276	278	281	278	271	266	263	262	262	270	263	277	281	283	269	258	267	268	272	273	275	279	277	274	276	274	274	276	275	273	274	275	279	278	281	281	276	275	276	277	281	281	284	287	285	284	284	282	283	286	287	286	283	282	282	286	287	290	286	283	279	277	281	282	281	281	281	281	280	277	277	277	279	277	276	277	280	278	279	281	279	278	275	275	276	281	284	288	284	283	277	275	275	274	275	273	278	279	276	276	274	274	274	272	277	278	279	280	280	281	280	278	285	287	285	283	273	275	282	284	284	283	282	283	286	287	286	284	282	282	283	278	279	282	284	284	282	283	284	286	288	286	284	286	286	285	281	279	280	279	280	282	278	278	279	280	280	281	285	287	285	281	281	281	279	281	282	285	285	283	276	271	274	282	282	282	277	279	281	280	279	279	281	283	285	280	279	280	279	280	281	282	279	280	280	281	283	281	278	279	284	285	282	274	275	276	280	280	280	279	279	278	278	278	277	277	278	280	276	273	270	273	275	275	274	272	269	271	273	273	274	276	274	273	274	273	269	268	268	277	277	278	279	281	281	283	280	279	275	279	280	275	269	269	269	271	270	274	275	275	273	273	273	276	276	274	279	276	276	278	275	274	274	278	276	273	276	276	270	267	273	274	272	273	273	273	274	277	277	275	270	269	270	271	271	269	270	270	270	270	271	271	272	276	270	274	273	273	274	276	272	271	270	270	271	270	270	276	275	271	265	264	264	263	260	263	263	261	264	266	266	269	269	264	265	262	262	263	264	267	268	268	268	267	269	269	272	268	267	264	260	261	269	269	271	267	267	263	261	261	260	260	266	268	268	269	268	264	259	261	264	262	265	266	264	260	260	261	260	259	260	260	262	262	263	263	263	261	259	258	261	263	263	263	259	260	260	260	265	266	266	268	269	268	267	266	264	262	262	262	262	266	265	266	267	266	266	266	265	266	265	263	263	263	262	264	259	258	260	260	260	262	262	261	259	258	259	259	262	263	262	264	267	267	266	268	271	273	271	271	271	268	270	268	266	265	265	269	255	255	258	259	259	259	259	260	263	264	264	263	265	263	263	263	262	260	259	260	263
271	268	266	266	262	263	265	267	264	264	263	259	258	263	273	273	276	273	272	271	271	271	280	287	282	284	273	273	268	264	266	271	270	269	269	269	274	276	275	281	281	270	270	270	271	275	277	278	278	274	270	266	267	264	263	263	259	259	263	265	275	275	275	267	272	276	268	261	259	269	269	273	274	275	271	269	266	266	266	266	266	268	272	272	266	267	269	267	267	266	266	269	270	271	273	270	271	271	271	266	265	262	263	269	269	271	274	274	273	272	273	276	278	277	273	270	274	274	273	266	266	266	266	266	268	272	272	272	273	273	272	270	272	272	272	273	273	273	263	266	271	271	273	270	270	270	269	267	270	276	276	274	271	270	270	270	269	275	275	272	275	277	282	282	277	273	269	268	266	270	270	263	277	272	267	269	271	274	275	271	272	269	270	267	267	270	275	275	275	274	277	275	279	280	281	281	281	278	276	275	276	281	279	281	287	285	284	283	281	281	281	283	281	279	278	280	284	287	286	284	281	275	271	274	276	278	279	280	278	276	275	275	275	275	276	275	275	279	282	282	282	281	277	274	272	273	279	282	284	284	279	278	277	275	274	275	273	278	270	274	275	275	272	277	281	275	276	281	283	282	282	279	277	276	277	280	285	276	279	279	281	281	280	284	284	287	287	288	282	281	284	282	277	280	284	284	284	282	282	281	281	283	285	283	283	279	280	279	277	279	279	280	275	276	274	276	276	280	281	279	280	280	279	279	281	278	280	282	284	285	283	279	275	276	279	279	283	281	280	278	278	279	278	281	283	283	280	281	278	278	275	281	281	278	278	279	282	284	281	279	280	278	275	273	271	274	275	279	280	278	277	277	277	278	278	277	277	278	280	278	273	270	276	278	279	277	276	273	272	273	272	272	271	271	271	272	272	271	269	269	269	270	275	278	280	285	287	287	287	284	280	275	272	270	271	270	271	273	272	269	268	267	273	274	273	276	274	270	271	272	274	265	265	268	274	278	280	278	277	268	263	267	270	274	274	273	272	272	273	274	273	268	268	269	270	271	270	269	270	270	270	270	269	270	270	276	272	273	271	272	272	272	272	267	266	269	270	270	275	275	268	264	263	262	259	262	263	263	261	261	261	264	265	262	264	266	270	270	268	268	265	264	262	262	262	265	268	268	267	262	260	260	261	268	268	265	261	261	263	259	258	257	260	262	266	266	266	265	264	260	256	259	258	265	265	266	267	268	268	263	263	264	265	265	265	266	266	265	258	258	259	259	259	263	263	257	258	259	258	265	267	267	267	268	268	268	267	265	260	260	260	260	266	265	265	267	267	267	265	263	259	261	262	263	263	265	263	259	257	257	260	260	260	261	264	264	258	258	258	254	252	251	255	260	260	261	261	271	273	270	270	266	263	264	263	264	264	260	258	255	264	260	260	259	259	255	258	262	262	263	261	263	262	262	262	261	260	261	261	260
261	268	266	266	263	263	263	262	264	257	255	259	264	270	272	272	269	271	271	270	265	265	267	272	282	284	281	268	268	267	269	269	270	268	268	268	272	273	274	276	270	270	270	270	271	271	270	272	272	273	270	267	266	263	257	257	260	259	260	265	275	269	264	264	269	273	269	259	259	270	274	274	272	272	269	266	263	261	266	266	267	272	268	267	266	269	267	267	267	267	266	262	266	267	269	270	270	270	268	266	265	265	266	267	264	262	264	264	267	268	270	275	275	274	269	269	270	272	272	272	267	266	266	267	271	271	269	270	271	271	271	269	271	272	275	271	272	273	266	263	267	268	268	270	270	270	269	266	269	273	275	272	270	269	266	266	274	270	274	274	275	278	278	277	275	273	270	268	268	268	263	263	268	272	267	269	273	274	276	278	273	272	272	273	278	283	284	281	281	279	278	280	283	282	282	281	284	280	279	276	279	280	279	281	287	283	283	281	281	281	276	277	277	274	272	275	277	280	280	280	275	274	270	270	272	275	277	277	274	272	272	270	270	273	275	276	277	279	281	282	281	279	275	274	273	273	272	272	277	279	279	275	274	273	273	273	272	271	270	274	275	275	272	277	283	285	286	285	278	277	280	278	277	277	276	276	279	279	282	282	282	279	275	275	279	284	284	280	280	278	278	279	275	278	284	281	281	281	281	281	281	280	283	280	279	278	279	280	281	279	284	279	274	275	274	276	277	279	280	278	278	275	279	279	276	279	279	281	281	279	283	277	272	275	281	281	283	278	275	274	273	274	278	279	283	282	280	273	275	275	274	276	279	278	275	278	281	283	281	278	274	273	271	270	271	272	276	276	280	278	277	277	277	277	278	275	276	273	275	274	274	273	278	278	279	276	274	272	271	271	272	273	274	270	271	273	274	273	271	271	271	273	274	274	273	279	286	285	284	281	279	277	273	272	270	271	270	268	269	269	269	267	273	274	274	274	270	272	272	272	274	272	267	268	274	278	280	279	274	272	263	263	268	271	271	272	272	272	273	272	273	273	269	268	268	270	270	269	269	268	266	266	266	267	269	274	273	271	273	272	270	271	269	267	267	267	267	269	272	269	265	263	262	259	259	262	260	261	259	258	258	257	258	261	265	266	271	271	268	268	267	265	265	263	263	262	264	267	266	262	260	257	260	261	261	266	259	260	255	255	258	259	261	265	265	266	267	266	261	259	258	259	258	262	262	265	270	270	268	261	260	264	266	266	267	268	268	266	264	261	262	259	259	259	262	260	259	259	262	264	264	269	272	268	268	264	264	264	264	259	260	260	263	264	264	264	264	265	264	261	259	259	261	261	263	263	257	257	257	257	257	259	258	259	262	259	257	257	255	254	258	257	255	253	253	261	261	265	265	263	263	260	258	259	260	261	261	254	260	263	263	260	260	257	256	256	256	256	256	259	258	255	260	260	257	255	256	261	261	261
