0	0	0	0	0	0	0	0	0	0	0	0	0	0	0	0	0	0	0	0	0	0	0	0	0	0	0	0	0	0	0	0	0	0	0	0	0	0	0	0	0	0	0	0	0	0	0	0	0	0	0	0	0	0	0	0	0	0	0	0	0	0	0	0	0	0	0	0	0	0	0	0	0	0	0	0	0	0	0	0	0	0	0	0	0	0	0	0	0	0	0	0	0	0	0	0	0	0	0	0	0	0	0	0	0	0	0	1062	1065	1060	1060	0	0	0	1009	1002	0	0	0	0	0	0	0	0	0	0	0	0	0	0	0	0	1091	1079	0	0	0	0	0	1064	1089	1107	1097	1091	0	0	1121	1142	1135	1127	1114	1084	1087	1114	1132	1132	1122	1100	0	0	1069	1092	1125	1183	1222	1244	1241	1222	1192	1174	1154	1176	1203	1224	1220	1198	1198	1190	1179	1167	1165	1165	1171	1156	1135	1135	1144	1129	1143	1152	1169	1163	1167	1182	1205	1221	1211	1200	1187	1176	1173	1171	1174	1190	1190	1203	1212	1224	1218	1205	1177	1164	1167	1173	1177	1164	1154	1145	1142	1148	1177	1200	1218	1227	1214	1207	1219	0	0	0	0	1240	1255	1234	1216	1171	1137	1121	1129	1166	1197	1195	1185	0	0	0	0	0	1253	1271	1253	1218	1172	1190	1190	0	0	0	0	0	0	0	0	0	0	0	0	0	0	0	0	0	0	0	0	0	0	0	0	0	0	0	0	0	0	0	0	0	0	0	0	0	0	0	0	0	0	0	0	0	0	0	0	0	0	0	0	0	0	1328	1321	1299	1298	1274	1224	1162	1137	1136	1133	1137	1140	1146	1154	1169	1198	1216	1208	1204	1189	1196	1193	1189	1195	1215	1214	1193	1167	1155	1150	1154	1170	1192	1198	1186	1161	1145	1138	1135	1129	1138	1142	1167	1187	1175	1142	1121	1111	1118	1139	1164	1234	0	0	1241	1224	1204	1182	1155	1140	1141	1131	1120	1112	1106	1107	1106	1116	1140	1140	1159	1168	1161	1150	1155	1165	1162	1152	1151	1154	1158	1174	1200	1229	1240	0	0	0	0	0	0	0	0	0	0	0	0	0	0	0	0	0	0	0	0	0	0	0	0	0	0	0	0	0	0	0	0	0	0	0	0	0	0	0	0	0	0	0	0	0	0	0	0	0	0	0	0	0	0	0	0	0	0	0	0	0	0	0	0	0	0	0	0	0	0	0	0	0	0	0	0	0	0	0	0	0	0	0	0	0	0	1036	1020	999	979	969	994	1019	1031	1030	1011	997	989	992	1002	1002	1003	994	975	958	951	953	972	975	957	958	960	969	971	980	980	990	1005	1001	993	986	991	1000	1011	1012	990	965	951	951	974	996	994	973	940	927	934	949	954	947	947	942	927	922	940	955	976	989	991	976	968	968	981	989	985	984	976	978	987	978	987	987	993	989	963	945	937	943	973	989	989	987	971	960	950	960	968	994	1003	1003	994	983	988	987	976	978	979	979	977	988	978	0	0	0	0	0	0	0	0	0	0	0	0	0	0	0	0	0	957	943	943	933	935	937	951	966	961	961	950	953	963	968	961	961	948	924	925	917	919	930	930	939	924	902	907	918	918	947	944	920	891	881	881	874	873	880	890
0	0	0	0	0	0	0	0	0	0	0	0	0	0	0	0	0	0	0	0	0	0	0	0	0	0	0	0	0	0	0	0	0	0	0	0	0	0	0	0	0	0	0	0	0	0	0	0	0	0	0	0	0	0	0	0	0	0	0	0	0	0	0	0	0	0	0	0	0	0	0	0	0	0	0	0	0	0	0	0	0	0	1061	1079	0	0	0	0	0	0	0	0	0	0	0	0	0	0	0	0	0	0	0	0	0	0	0	1071	1066	1063	1063	0	0	0	975	983	976	0	0	0	0	0	1053	1053	1059	1087	0	0	0	0	0	0	1069	1055	1037	1028	1032	1039	1039	1057	1082	1089	1077	1069	1062	1066	1078	1088	1106	1115	1103	1078	1051	1062	1087	1087	1090	1081	1049	1049	1057	1093	1116	1144	1171	1218	1212	1182	1156	1133	1130	1150	1189	1197	1152	1145	1145	1135	1138	1146	1138	1142	1128	1097	1077	1074	1087	1129	1143	1092	1100	1106	1118	1130	1145	1161	1145	1114	1127	1147	1154	1150	1143	1147	1172	1172	1182	1187	1205	1184	1155	1149	1152	1169	0	0	0	0	0	1179	1205	1224	1236	1234	0	0	0	0	0	0	0	0	0	0	0	0	0	0	0	0	0	0	0	0	0	0	0	0	0	0	0	0	0	0	0	0	0	0	0	0	0	0	0	0	0	0	0	0	0	0	0	0	0	0	0	0	0	0	0	0	0	0	0	0	0	0	0	0	0	0	0	0	0	0	0	0	0	0	0	0	0	0	0	0	1225	1176	1165	1158	1175	1205	1235	1264	1266	1249	1203	1161	1134	1133	1134	1125	1124	1139	1148	1161	1177	1189	1193	1178	1179	1180	1182	1189	1203	1211	1182	1156	1153	1157	1164	1166	1172	1182	1189	1177	1151	1126	1128	1123	1118	1113	1121	1142	1160	1160	1144	1113	1102	1102	1121	1131	1179	0	0	1239	1221	1195	1161	1133	1115	1126	1122	1110	1104	1114	1118	1122	1134	1134	1163	1184	1197	1188	1159	1122	1114	1103	1138	0	0	0	0	0	0	0	0	0	0	0	0	0	0	0	0	0	0	0	0	0	0	0	0	0	0	0	0	0	0	0	0	0	0	0	0	0	0	0	0	0	0	0	0	0	0	0	0	0	0	0	0	0	0	0	0	0	0	0	0	0	0	0	0	0	0	0	0	0	0	0	0	0	0	0	0	0	0	0	0	0	0	0	0	0	923	949	947	936	936	985	995	998	1007	1000	991	970	953	954	972	994	992	982	986	984	988	993	993	992	977	962	954	951	953	954	966	964	953	955	953	958	958	971	983	994	1000	991	990	989	995	1001	1002	987	962	962	958	978	983	968	945	927	925	933	952	961	963	963	954	956	971	978	978	987	983	977	969	968	968	972	982	977	974	981	988	992	997	1004	1004	1009	1015	999	986	967	953	954	971	971	966	962	954	940	932	920	930	951	951	979	998	994	979	975	985	1003	1003	1003	988	978	946	890	879	892	892	922	958	968	957	959	957	957	942	921	913	944	978	1004	1003	1003	996	974	966	970	959	959	952	947	959	971	973	969	961	948	924	926	921	926	926	945	949	924	921	925	943	943	945	927	892	884	862	862	868	876	881	892
0	0	0	0	0	0	0	0	0	0	0	0	0	0	0	0	0	0	0	0	0	0	0	0	0	0	0	0	0	0	0	0	0	0	0	0	0	0	0	0	0	0	0	0	0	0	0	0	0	0	0	0	0	0	0	0	0	0	0	0	0	0	0	0	0	0	0	0	0	0	0	0	0	0	0	0	0	0	0	0	0	1047	1059	1071	1074	1070	0	0	0	0	0	0	0	0	0	0	0	0	0	0	0	0	0	0	0	1025	1048	1058	1064	1056	1056	1017	0	0	960	976	978	975	979	1002	1044	1054	1051	1051	1049	1072	1093	1104	1093	1086	1075	1074	1069	1055	995	1011	1020	1042	1042	1067	1071	1071	1053	1038	1027	1028	1029	1056	1090	1114	1085	1059	1039	1047	1061	1072	1072	1051	1052	1055	1072	1097	1106	1119	1094	1077	1073	1086	1091	1097	1096	1113	1120	1064	1051	1046	1060	1060	1107	1116	1109	1092	1065	1069	1084	1067	1058	1070	1098	1092	1096	1088	1090	1111	1145	1167	1143	1114	1103	1119	1129	1129	1119	1116	1139	1139	1164	1176	1192	1174	0	0	0	0	0	0	0	0	0	0	0	0	0	0	0	0	0	0	0	0	0	0	0	0	0	0	0	0	0	0	0	0	0	0	0	0	0	0	0	0	0	0	0	0	0	0	0	0	0	0	0	0	0	0	0	0	0	0	0	0	0	0	0	0	0	0	0	0	0	0	0	0	0	0	0	0	0	0	0	0	0	0	0	0	0	1159	1179	1202	1193	1192	1175	1166	1162	1151	1147	1141	1139	1133	1135	1159	1200	1226	1235	1223	1195	1162	1141	1135	1132	1119	1106	1133	1145	1155	1151	1158	1153	1147	1146	1158	1176	1189	1190	1181	1156	1133	1122	1133	1150	1159	1158	1161	1151	1145	1128	1111	1111	1112	1102	1096	1094	1115	1135	1139	1126	1110	1099	1107	1106	1112	1122	0	0	0	1193	1174	1143	1107	1109	1113	1115	1107	1123	1140	1160	1186	1248	1248	1295	1322	0	0	0	0	0	0	0	0	0	0	0	0	0	0	0	0	0	0	0	0	0	0	0	0	0	0	0	0	0	0	0	0	0	0	0	0	0	0	0	0	0	0	0	0	0	0	0	0	0	0	0	0	0	0	0	0	0	0	0	0	0	0	0	0	0	0	0	0	0	0	0	0	0	0	0	0	0	0	0	0	0	0	0	0	983	993	998	1007	1004	1005	990	978	995	1016	1004	978	978	967	974	984	999	1011	1007	986	961	954	964	971	970	967	972	977	981	981	982	972	952	962	954	943	945	955	962	960	956	953	946	951	951	952	962	975	995	1000	989	986	1002	1012	1010	990	979	979	978	981	973	959	959	961	963	965	972	980	976	976	956	915	927	957	981	986	979	977	969	967	967	980	973	960	952	946	950	960	988	987	987	977	972	978	974	958	943	941	961	961	965	961	945	934	924	919	928	954	954	983	994	988	978	977	992	1003	1003	1003	979	947	921	908	900	916	916	937	955	967	961	962	964	964	948	932	928	948	977	1012	1012	1021	1023	1000	993	973	949	949	934	938	951	962	973	969	969	949	925	915	921	931	931	952	962	965	955	954	954	952	924	893	867	846	846	860	873	880	894	908
0	0	0	0	0	0	0	0	0	0	0	0	0	0	0	0	0	0	0	0	0	0	0	0	0	0	0	0	0	0	0	0	0	0	0	0	0	0	0	0	0	0	0	0	0	0	0	0	0	0	0	0	0	0	0	0	0	0	0	0	0	0	0	0	0	0	0	0	0	0	0	0	0	0	0	0	0	0	0	0	0	1049	1049	1061	1063	1055	0	0	0	0	0	0	0	0	0	0	0	0	0	0	0	0	0	0	989	1011	1025	1024	1032	1029	1040	1040	1037	1013	1017	1009	1008	1009	1007	1020	1040	1031	1024	1011	1011	1034	1060	1069	1075	1070	1066	1047	993	987	995	1011	1031	1040	1047	1047	1050	1035	1026	1018	1015	1012	1013	1051	1072	1092	1066	1040	1032	1033	1058	1060	1060	1030	1022	1031	1057	1077	1090	1067	1010	1012	1029	1044	1059	1063	1064	1064	1031	995	969	972	1031	1031	1045	1045	1048	1036	1060	1066	1083	1095	1073	1071	1088	1094	1096	1088	1080	1096	1123	1147	1136	1107	1099	1125	1143	1114	1093	1111	1166	0	0	0	0	0	0	0	0	0	0	0	0	0	0	0	0	0	0	0	0	0	0	0	0	0	0	0	0	0	0	0	0	0	0	0	0	0	0	0	0	0	0	0	0	0	0	0	0	0	0	0	0	0	0	0	0	0	0	0	0	0	0	0	0	0	0	0	0	0	0	0	0	0	0	0	0	0	0	0	0	0	1179	1192	1188	1173	1134	1066	1045	1058	1099	1104	1110	1133	1142	1132	1141	1146	1131	1129	1122	1123	1124	1124	1117	1136	1164	1195	1207	1195	1177	1170	1152	1144	1137	1110	1104	1124	1137	1142	1137	1124	1119	1111	1117	1133	1148	1161	1163	1151	1127	1108	1104	1117	1134	1145	1135	1125	1113	1101	1094	1095	1099	1104	1099	1085	1080	1082	1100	1106	1104	1101	1102	1113	1114	1103	1088	0	0	0	0	1160	1132	1108	1100	1106	1124	1171	0	0	0	0	0	0	0	0	0	0	0	0	0	0	0	0	0	0	0	0	0	0	0	0	0	0	0	0	0	0	0	0	0	0	0	0	0	0	0	0	0	0	0	0	0	0	0	0	0	0	0	0	0	0	0	0	0	0	0	0	0	0	0	0	0	0	0	0	0	0	0	0	0	0	0	0	0	0	0	0	0	0	0	0	0	0	0	0	1008	993	964	947	976	994	997	990	997	1005	1010	1009	1002	993	971	955	955	955	958	966	984	1009	1019	1010	985	953	938	937	949	952	958	962	967	967	967	964	952	945	940	944	950	948	948	944	944	945	941	932	932	935	949	960	964	964	961	946	917	937	955	960	958	958	972	978	976	968	965	966	968	967	974	980	977	977	959	908	920	952	973	980	979	969	965	965	966	975	973	962	951	948	949	958	985	985	975	965	965	960	957	939	918	908	900	900	891	887	893	902	919	933	944	944	956	968	979	981	983	977	992	1006	1006	1003	971	938	925	923	920	920	931	944	951	959	964	959	946	946	944	937	937	941	958	983	983	1005	1013	1001	976	958	930	930	910	888	951	962	965	951	951	935	912	911	909	927	927	946	969	974	959	961	961	955	923	880	844	838	838	853	875	893	0	913
0	0	0	0	0	0	0	0	0	0	0	0	0	0	0	0	0	0	0	0	0	0	0	0	0	0	0	0	0	0	0	0	0	0	0	0	0	0	0	0	0	0	0	0	0	0	0	0	0	0	0	0	0	0	0	0	0	0	0	0	0	0	0	0	0	0	0	0	0	0	0	0	0	0	0	0	0	0	0	0	0	0	1042	0	0	0	0	0	0	0	0	0	0	0	0	0	0	0	0	0	0	0	0	0	979	990	990	990	992	1011	1020	1020	1017	1006	1015	1021	1020	1027	1038	1037	1025	987	945	929	929	954	977	1011	1022	1015	1001	979	967	994	1014	1018	1031	1040	1030	1030	1024	1005	996	996	1005	1000	1014	1034	1062	1061	1041	1022	1015	1027	1047	1050	1050	1040	1028	1019	1032	1042	1045	1022	1017	1032	1047	1050	1048	1035	1039	1031	1004	1005	1008	1018	1021	1043	1043	1039	1043	1033	1047	1064	1098	1102	1099	1093	1101	1112	1092	1081	1080	1096	0	0	0	0	0	0	0	0	0	0	0	0	0	0	0	0	0	0	0	0	0	0	0	0	0	0	0	0	0	0	0	0	0	0	0	0	0	0	0	0	0	0	0	0	0	0	0	0	0	0	0	0	0	0	0	0	0	0	0	0	0	0	0	0	0	0	0	0	0	0	0	0	0	0	0	0	0	0	0	0	0	0	0	0	0	0	0	1168	1125	1075	1054	1055	1089	1111	1132	1127	1106	1078	1060	1065	1074	1075	1069	1072	1094	1113	1123	1122	1107	1100	1092	1103	1104	1102	1105	1111	1137	1163	1173	1169	1166	1149	1147	1146	1132	1115	1101	1120	1129	1129	1121	1110	1099	1099	1104	1114	1124	1136	1133	1118	1104	1095	1094	1109	1121	1126	1108	1088	1075	1073	1079	1091	1099	1107	1103	1091	1081	1078	1081	1087	1095	1103	1109	1118	1124	1098	1095	0	0	0	0	0	0	0	0	0	0	0	0	0	0	0	0	0	0	0	0	0	0	0	0	0	0	0	0	0	0	0	0	0	0	0	0	0	0	0	0	0	0	0	0	0	0	0	0	0	0	0	0	0	0	0	0	0	0	0	0	0	0	0	0	0	0	0	0	0	0	0	0	0	0	0	0	0	0	0	0	0	0	0	0	0	0	0	0	0	0	0	0	1059	1059	1058	1046	1031	1007	980	966	956	941	929	945	969	971	966	977	986	997	989	948	947	946	946	937	945	963	971	978	985	1005	1006	984	966	937	942	946	951	952	962	963	963	967	964	960	974	980	974	953	947	938	933	929	930	931	931	924	927	940	953	959	952	949	932	913	929	944	950	950	950	962	980	987	994	1003	1001	944	922	931	946	946	965	946	918	892	892	973	980	970	957	974	974	984	995	994	976	962	957	971	972	953	953	930	915	915	909	908	925	943	966	966	964	944	897	884	893	913	924	935	935	938	952	964	981	983	980	969	969	957	952	933	920	910	914	919	919	930	939	936	933	933	921	909	909	905	917	919	927	937	957	957	989	1004	989	968	933	904	930	910	888	914	935	945	945	948	933	906	893	894	911	911	930	953	960	966	956	956	946	921	888	854	833	833	0	0	0	0	0
0	0	0	0	0	0	0	0	0	0	0	0	0	0	0	0	0	0	0	0	0	0	0	0	0	0	0	0	0	0	0	0	0	0	0	0	0	0	0	0	0	0	0	0	0	0	0	0	0	0	0	0	0	0	0	0	0	0	0	0	0	0	0	0	0	0	0	0	0	0	0	0	0	0	0	0	0	0	0	0	0	0	0	0	0	0	0	0	0	0	0	0	0	0	0	0	0	977	992	992	1015	1028	1029	1011	987	975	962	952	983	994	992	992	1003	1008	1020	1033	1043	1043	1050	1049	1031	998	965	963	963	978	996	991	1001	1000	993	974	967	990	1020	1033	1038	1036	1030	1015	1004	993	983	985	988	994	998	1021	1036	1031	1015	1009	1003	1005	1024	1045	1044	1044	1031	1015	1027	1039	1039	1022	1031	1033	1020	1038	1003	992	984	993	996	1006	1013	1021	1020	1030	1030	1031	1042	1044	1046	1068	1109	1138	1154	1178	1192	1215	0	0	0	0	0	0	0	0	0	0	0	0	0	0	0	0	0	0	0	0	0	0	0	0	0	0	0	0	0	0	0	0	0	0	0	0	0	0	0	0	0	0	0	0	0	0	0	0	0	0	0	0	0	0	0	0	0	0	0	0	0	0	0	0	0	0	0	0	0	0	0	0	0	0	0	0	0	0	0	0	0	0	0	0	0	1047	1058	1080	1094	1102	1108	1106	1066	1037	1037	1059	1084	1103	1112	1114	1098	1084	1079	1079	1066	1048	1043	1057	1082	1104	1116	1115	1091	1065	1072	1081	1080	1080	1097	1121	1139	1157	1158	1148	1144	1134	1131	1131	1115	1107	1106	1119	1121	1125	1122	1109	1105	1109	1109	1111	1115	1111	1105	1093	1090	1089	1084	1098	1104	1101	1084	1065	1057	1059	1063	1077	1083	1091	1092	1096	1092	1089	1092	1091	1099	1105	1120	1130	1126	1126	0	0	0	0	0	0	0	0	0	0	0	0	0	0	0	0	0	0	0	0	0	0	0	0	0	0	0	0	0	0	0	0	0	0	0	0	0	0	0	0	0	0	0	0	0	0	0	0	963	940	962	1026	1076	1099	1086	1060	1025	987	962	957	992	1028	1023	1011	1021	1021	1033	1028	1028	1018	1021	1013	1003	994	993	978	0	0	1054	1094	1065	1018	977	964	1006	1058	1069	1041	1028	1032	1025	1010	976	1002	1002	1010	1000	978	952	944	958	964	960	951	956	972	970	966	971	985	989	981	938	934	936	936	941	949	964	974	976	980	988	999	988	971	961	949	934	916	913	916	962	963	964	966	960	977	987	985	958	931	915	915	916	910	921	921	921	927	926	927	933	956	979	1011	1012	996	961	923	923	889	893	925	929	923	920	919	908	906	911	927	927	934	927	914	892	892	908	928	928	917	922	922	938	960	958	955	944	937	941	947	939	939	932	913	906	906	905	923	940	959	959	971	948	918	900	908	915	922	923	923	917	952	964	974	983	975	962	962	947	935	925	908	901	899	902	902	914	929	933	924	907	887	878	878	878	888	903	912	918	934	934	968	982	983	955	933	904	904	881	864	886	906	928	928	929	927	902	891	890	903	903	910	930	949	944	935	935	936	934	900	0	0	0	0	0	0	0	0
0	0	0	0	0	0	0	0	0	0	0	0	0	0	0	0	0	0	0	0	0	0	0	0	0	0	0	0	0	0	0	0	0	0	0	0	0	0	0	0	0	0	0	0	0	0	0	0	0	0	0	0	0	0	0	0	0	0	0	0	0	0	0	0	0	0	0	0	0	0	0	0	0	0	0	0	0	0	0	0	0	0	0	0	0	0	0	0	0	0	0	0	0	0	0	0	0	977	1015	1028	1028	1030	1032	1017	993	978	966	967	991	998	998	1006	1006	1025	1040	1053	1052	1052	1052	1044	1030	1004	991	993	1011	1011	1023	1019	1006	1000	991	972	959	961	997	1021	1025	1026	1015	1004	1004	990	985	978	978	971	977	988	998	997	990	992	985	984	1004	1016	1027	1027	1019	1012	1020	1036	1026	1037	1035	1021	1017	999	1002	995	989	989	994	1017	1026	1035	1023	1030	1030	1072	1089	1095	1135	0	0	0	0	0	0	0	0	0	0	0	0	0	0	0	0	0	0	0	0	0	0	0	0	0	0	0	0	0	0	0	0	0	0	0	0	0	0	0	0	0	0	0	0	0	0	0	0	0	0	0	0	0	0	0	0	0	0	0	0	0	0	0	0	0	0	0	0	0	0	0	0	0	0	0	0	1136	1158	1162	1162	1133	1107	1069	1026	1006	1026	1069	1120	1129	1112	1095	1087	1087	1103	1109	1116	1114	1097	1072	1048	1028	1033	1063	1095	1106	1108	1103	1101	1096	1081	1065	1051	1039	1038	1051	1085	1110	1117	1109	1087	1072	1063	1064	1062	1074	1101	1129	1143	1153	1147	1144	1131	1124	1130	1132	1114	1092	1098	1116	1130	1132	1132	1129	1126	1117	1114	1102	1101	1098	1090	1088	1086	1079	1076	1070	1078	1076	1057	1046	1046	1057	1063	1061	1067	1067	1074	1086	1101	1104	1093	1128	1140	1127	1121	1122	1132	1125	0	0	0	0	0	0	0	0	0	0	0	0	0	0	0	0	0	0	0	0	0	0	0	0	0	0	0	0	1050	1070	1101	1141	1173	1162	1114	1079	1042	1025	1021	1034	1038	1018	998	949	930	937	949	965	976	977	979	981	988	988	977	957	941	932	929	939	950	959	951	951	951	961	983	989	989	971	956	951	965	973	993	978	958	944	931	957	986	1011	1015	1018	1006	1016	1015	997	973	958	955	961	965	965	992	1006	997	968	943	939	959	969	976	971	959	955	942	929	927	940	949	949	941	950	966	966	973	971	958	959	969	978	984	970	961	954	942	942	929	932	913	916	916	923	931	939	949	950	952	942	907	907	910	914	915	920	934	934	939	936	935	931	931	939	942	949	942	934	891	865	865	855	870	907	925	920	920	909	908	898	900	918	918	926	927	914	901	896	917	931	933	926	927	927	941	954	945	936	934	932	942	941	944	944	937	927	907	896	901	921	941	942	942	942	939	929	922	922	924	920	905	923	917	924	947	967	972	966	949	949	934	929	916	885	875	872	879	879	900	922	931	920	901	878	878	873	868	875	896	900	912	912	932	944	946	983	955	926	926	893	881	858	863	879	896	896	914	918	902	889	889	889	900	906	924	931	921	916	916	919	940	914	0	0	0	0	0	0	0	0
0	0	0	0	0	0	0	0	0	0	0	0	0	0	0	0	0	0	0	0	0	0	0	0	0	0	0	0	0	0	0	0	0	0	0	0	0	0	0	0	0	0	0	0	0	0	0	0	0	0	0	0	0	0	0	0	0	0	0	0	0	0	0	0	0	0	0	0	0	0	0	0	0	0	0	0	0	0	0	0	0	0	0	0	0	0	0	0	1061	1061	1056	1042	1027	1025	1024	1017	1001	1001	1015	1037	1037	1038	1028	1023	1006	988	986	992	995	1001	1007	1018	1018	1037	1050	1060	1052	1046	1038	1027	1015	1007	999	1005	1021	1021	1033	1034	1021	1006	988	976	955	954	973	988	1014	1015	1014	998	998	990	985	973	963	961	961	959	970	982	979	983	974	977	990	1004	1011	1011	991	988	1001	1038	1025	1035	1028	1016	1010	998	996	982	988	999	1052	1077	1107	1144	0	0	0	0	0	0	0	0	0	0	0	0	0	0	0	0	0	0	0	0	0	0	0	0	0	0	0	0	0	0	0	0	0	0	0	0	0	0	0	0	0	0	0	0	0	0	0	0	0	0	0	0	0	0	0	0	0	0	0	0	0	0	0	0	0	0	0	0	0	0	0	0	0	0	0	0	0	0	1098	1139	1154	1154	1154	1145	1136	1112	1094	1070	1053	1030	1003	976	978	983	1015	1051	1073	1098	1105	1111	1103	1106	1116	1122	1108	1077	1047	1030	1045	1071	1096	1110	1110	1102	1099	1100	1082	1057	1041	1034	1031	1059	1100	1119	1121	1102	1086	1069	1061	1055	1057	1073	1098	1121	1145	1148	1144	1136	1129	1132	1138	1132	1109	1082	1094	1113	1131	1139	1143	1143	1139	1120	1106	1093	1075	1066	1071	1067	1066	1054	1040	1036	1037	1040	1028	1029	1050	1057	1057	1050	1052	1048	1058	1070	1085	1092	1089	1134	1134	1115	1100	1092	1097	1094	1092	1105	1118	1121	1108	1101	1096	1100	1082	1059	1052	1056	1061	1050	1050	1016	986	992	1018	1038	1053	1056	1051	1046	1043	1037	1033	1036	1040	1039	1033	1028	1025	1008	984	955	944	938	945	968	968	960	947	938	927	936	955	965	970	972	971	982	983	993	994	976	947	930	928	933	939	950	947	948	948	952	974	985	982	964	960	958	965	973	975	971	963	960	935	956	981	1006	1026	1015	1013	1017	1015	1001	977	959	952	952	948	948	943	947	949	954	959	974	975	964	942	940	960	981	988	996	994	983	979	978	981	977	977	953	918	900	914	948	972	982	974	966	953	951	945	938	929	932	952	962	962	963	955	953	943	945	937	921	905	904	905	905	908	912	922	922	932	929	927	923	928	924	905	895	878	862	850	838	838	840	853	872	913	918	916	901	900	902	901	901	918	926	927	914	899	903	923	937	941	938	938	934	947	942	922	916	915	926	939	936	936	941	936	920	894	881	893	917	929	929	929	919	912	910	905	913	921	920	920	905	902	901	910	925	936	932	928	928	917	904	879	870	854	855	867	867	885	904	913	919	911	894	894	884	887	897	900	913	927	927	929	944	946	949	937	918	918	899	889	874	861	857	867	867	889	908	901	878	877	877	887	902	911	909	899	899	886	900	926	927	900	900	0	0	873	918	946	946
0	0	0	0	0	0	0	0	0	0	0	0	0	0	0	0	0	0	0	0	0	0	0	0	0	0	0	0	0	0	0	0	0	0	0	0	0	0	0	0	0	0	0	0	0	0	0	0	0	0	0	0	0	0	0	0	0	0	0	0	0	0	0	0	0	0	0	0	0	0	0	0	1012	1008	1035	1056	1066	1054	1061	1061	1058	1020	989	977	977	972	990	999	996	996	987	986	991	990	1004	1004	994	1010	1027	1037	1037	1037	1038	1025	1015	1007	1003	1007	1000	995	1000	1010	1010	1027	1038	1038	1035	1027	1014	1014	1013	1007	1001	991	1008	1008	1020	1029	1024	1007	999	987	979	963	966	977	996	1008	1009	1011	1011	1000	988	973	963	949	944	932	936	948	963	967	970	968	974	971	970	975	975	984	1017	1044	1063	1018	1025	1036	1040	1041	1047	1060	1087	0	0	0	0	0	0	0	0	0	0	0	0	0	0	0	0	0	0	0	0	0	0	0	0	0	0	0	0	0	0	0	0	0	0	0	0	0	0	0	0	0	0	0	0	0	0	0	0	0	0	0	0	0	0	0	0	0	0	0	0	0	0	0	0	0	0	0	0	0	0	0	0	0	0	0	1171	1195	1181	1135	1091	1048	1009	996	1001	1030	1070	1077	1077	1066	1043	1009	994	1003	1022	1013	1003	990	973	970	977	1009	1046	1068	1077	1076	1079	1087	1104	1115	1110	1077	1052	1034	1039	1052	1069	1096	1098	1091	1083	1064	1047	1030	1027	1026	1033	1059	1094	1114	1109	1086	1066	1038	1033	1044	1046	1054	1058	1077	1108	1104	1093	1066	1072	1071	1064	1047	1041	1043	1035	1043	1056	1065	1066	1070	1058	1031	1003	983	970	969	985	1006	1028	1033	1020	996	983	984	992	1016	1029	1049	1053	1047	1042	1030	1042	1049	1035	1030	1030	1014	1022	1016	1030	1035	1029	1028	1014	1003	1001	1004	1015	1030	1044	1038	1015	990	995	1026	1047	1047	1036	1005	979	976	985	1012	1038	1047	1037	1029	1012	1017	1019	1032	1042	1036	1029	1022	1012	995	970	950	940	943	951	966	964	956	945	936	930	936	953	963	961	959	966	977	989	1003	1002	982	948	926	921	922	934	937	938	938	937	946	963	971	963	960	960	958	967	968	976	968	977	991	1019	1034	1036	1039	1013	977	961	963	977	990	987	962	948	943	943	942	942	943	953	961	965	973	973	964	942	944	966	987	990	990	982	979	983	997	989	976	976	954	915	895	902	927	952	961	960	950	935	932	935	938	926	929	946	946	964	959	943	935	935	937	940	919	905	895	889	893	897	909	909	921	922	914	913	919	924	919	890	871	861	854	841	841	839	840	856	871	894	911	914	893	892	894	901	901	907	914	916	904	900	916	935	946	947	934	934	938	944	929	905	895	898	919	938	942	942	940	937	918	890	876	879	902	915	915	912	897	882	867	873	913	921	914	914	892	888	883	877	888	893	898	898	890	875	864	858	850	842	850	850	860	868	869	884	896	904	897	897	894	896	899	911	913	924	927	929	924	919	916	910	909	909	903	891	874	863	854	871	871	900	921	904	873	852	852	875	892	902	898	890	890	867	874	893	889	900	900	872	874	897	930	966	966
0	0	0	0	0	0	0	0	0	0	0	0	0	0	0	0	0	0	0	0	0	0	0	0	0	0	0	0	0	0	0	0	0	0	0	0	0	0	0	0	0	0	0	0	0	0	0	0	0	0	0	0	0	0	0	0	0	0	0	0	0	0	0	0	0	0	972	983	1002	1014	1014	1002	979	965	950	957	969	983	996	992	992	967	956	962	998	1020	1019	989	978	966	966	970	973	983	991	985	996	1014	1026	1041	1037	1037	1038	1006	988	972	987	1000	991	981	978	991	991	1000	1006	1012	999	991	990	999	1008	1000	987	978	976	989	989	1004	1011	1000	999	1001	1005	994	971	969	976	992	1006	1004	1004	1004	985	975	958	949	944	889	882	904	931	969	980	980	0	0	0	0	0	0	0	0	0	0	0	0	0	0	0	0	0	0	0	0	0	0	0	0	0	0	0	0	0	0	0	0	0	0	0	0	0	0	0	0	0	0	0	0	0	0	0	0	0	0	0	0	0	0	0	0	0	0	0	0	0	0	0	0	0	0	0	0	0	0	0	0	0	0	0	0	0	0	0	0	0	0	0	0	1127	1092	1089	1073	1054	1034	1056	1068	1061	1042	1026	1006	999	1009	1009	1008	998	1019	1040	1051	1043	1043	1010	974	943	951	984	1000	1009	1014	996	985	982	984	987	991	992	1006	1026	1044	1049	1032	1012	999	988	975	961	964	973	988	994	1008	1019	1012	1005	1000	1003	1002	995	1001	1001	1012	1028	1038	1041	1027	1015	1001	995	985	993	1014	1023	1028	1013	1015	1028	1043	1031	1022	1025	1029	1023	1032	1041	1045	1051	1053	1046	1030	999	973	962	962	973	1002	1021	1029	1011	994	982	984	985	1007	1028	1037	1041	1047	1029	1018	1009	1010	1016	1020	1022	1027	1015	1012	1019	1029	1033	1025	1011	994	997	997	1006	1024	1036	1030	1008	992	994	1025	1051	1051	1033	1007	988	975	975	997	1020	1030	1028	1015	1003	991	1003	1029	1044	1026	1005	987	981	971	954	935	952	989	995	991	995	1008	1022	1028	1005	967	942	938	941	948	949	967	987	998	1001	987	964	935	904	894	924	938	934	934	947	961	977	996	963	960	963	977	997	1006	1000	1005	1006	1008	1010	1011	1008	1003	987	969	959	950	970	977	986	971	953	943	943	940	943	949	953	957	964	975	972	924	917	943	987	985	975	964	961	966	988	999	999	999	985	958	935	918	910	921	919	923	920	897	886	932	935	928	918	917	940	940	946	938	923	913	924	936	933	919	898	878	866	878	890	911	911	918	913	898	892	902	914	912	893	874	859	859	849	849	858	868	877	882	887	895	889	874	892	894	898	898	902	908	907	895	890	893	918	931	932	925	925	926	923	911	891	878	892	911	923	933	933	939	934	915	890	873	865	884	894	894	904	890	870	867	873	882	892	896	896	889	878	863	856	846	854	862	862	860	841	835	832	841	851	859	859	861	843	842	846	865	875	884	884	882	881	884	894	913	924	924	918	908	896	885	884	882	882	880	874	847	845	852	852	888	926	925	895	861	853	853	864	882	895	899	887	887	869	874	893	889	872	872	868	864	873	892	919	919
0	0	0	0	0	0	0	0	0	0	0	0	0	0	0	0	0	0	0	0	0	0	0	0	0	0	0	0	0	0	0	0	0	0	0	0	0	0	0	0	0	0	0	0	0	0	0	0	0	0	0	0	0	0	0	0	0	0	0	0	0	0	0	963	975	973	972	983	990	992	992	975	952	935	922	932	945	976	991	980	980	954	943	954	1001	1010	1006	983	969	959	959	968	972	983	984	980	986	1006	1016	1023	1015	1015	1017	1006	988	953	958	978	985	968	965	972	978	978	988	984	976	961	964	987	999	998	972	960	956	963	963	985	997	990	982	987	995	990	967	957	960	979	989	1000	998	998	991	975	968	955	928	889	0	0	0	0	0	0	0	0	0	0	0	0	0	0	0	0	0	0	0	0	0	0	0	0	0	0	0	0	0	0	0	0	0	0	0	0	0	0	0	0	0	0	0	0	0	0	0	0	0	0	0	0	0	0	0	0	0	0	0	0	1028	1028	1046	1066	1093	1108	1120	0	0	0	0	0	0	0	0	0	0	0	0	0	1116	1105	1087	1055	1014	1005	1019	1043	1064	1056	1009	968	981	994	992	992	1002	1001	1002	998	996	1000	1000	1009	1008	1007	1010	1029	1042	1037	1019	987	987	958	938	947	973	1003	1012	1017	1005	993	985	981	972	972	984	999	1025	1034	1033	1018	1010	1001	987	973	971	974	976	969	967	978	1001	1010	1001	996	999	996	993	993	992	1000	1017	1038	1046	1030	1009	991	984	979	980	998	1009	1013	1002	999	1010	1015	1009	1006	1011	1016	1014	1021	1027	1027	1032	1034	1036	1034	1018	997	980	975	976	972	972	975	977	957	969	988	1010	1025	1016	1015	1023	1027	1023	1018	1006	1004	1014	1017	1016	1020	1017	1013	1015	1027	1026	1018	1000	986	986	991	994	1011	1014	993	978	975	982	1006	1006	1026	1027	1014	992	973	962	980	999	1017	1011	997	981	980	1000	1016	1017	1006	996	981	976	974	975	949	964	982	981	981	992	1013	1034	1032	1006	970	946	939	951	949	943	944	947	955	985	997	982	938	920	907	926	940	947	947	956	980	977	996	1001	981	966	986	1003	1009	1018	1022	1013	1006	991	980	978	979	977	963	965	967	979	978	980	965	945	934	934	929	943	955	950	945	945	940	927	911	918	938	972	973	939	921	924	947	979	995	1014	1014	1010	989	956	928	901	891	900	904	899	897	886	891	900	899	897	908	923	923	923	908	897	895	894	913	911	908	889	862	854	861	905	928	928	925	913	890	884	885	898	907	891	876	867	866	866	866	875	898	898	892	872	862	851	874	879	882	896	896	905	902	902	886	881	872	869	883	911	911	912	911	910	894	874	867	885	904	917	921	921	929	926	908	892	871	857	872	884	884	897	897	870	848	846	854	868	882	882	890	879	866	844	834	831	838	838	847	827	831	841	844	859	872	872	883	869	852	840	837	855	855	862	871	871	884	894	907	911	911	910	892	870	862	858	859	859	860	845	826	817	833	833	870	895	902	893	865	854	854	873	884	889	888	888	887	869	863	871	857	859	859	857	849	845	851	883	883
0	0	0	0	0	0	0	0	0	0	0	0	0	0	0	0	0	0	0	0	0	0	0	0	0	0	0	0	0	0	0	0	0	0	0	0	0	0	0	0	0	0	0	0	0	0	0	0	0	0	0	0	0	0	0	0	0	924	891	877	878	898	898	923	938	946	954	972	990	992	950	950	921	917	914	923	944	968	990	977	977	953	939	956	984	1000	980	962	948	961	961	968	983	987	972	963	975	986	987	982	980	980	971	972	959	953	958	966	981	969	960	962	966	966	969	977	964	947	955	972	990	983	962	946	943	947	947	966	980	985	975	976	977	967	956	956	962	970	972	988	1003	1003	1003	989	977	943	0	0	0	0	0	0	0	0	0	0	0	0	0	0	0	0	0	0	0	0	0	0	0	0	0	0	0	0	0	0	0	0	0	0	0	0	0	0	0	0	0	0	0	0	0	0	0	0	0	0	0	0	0	0	0	0	0	0	1101	1078	0	0	958	958	958	963	976	996	1017	1030	1025	1012	1031	1051	1062	1038	1000	982	981	1003	1007	990	967	967	969	971	981	1008	1018	1025	1006	994	962	961	970	984	989	979	990	991	991	994	997	1002	1003	1007	1014	1007	1010	1020	1028	1022	997	977	977	952	948	956	982	1012	1019	1015	1010	1005	999	981	968	954	969	996	1022	1032	1028	1021	1012	1005	990	973	969	984	981	961	951	953	996	1003	988	992	994	1001	992	982	968	972	1003	1025	1049	1031	1021	1030	1043	1059	1049	1048	1047	1059	1063	1065	1054	1053	1050	1053	1065	1062	1065	1069	1061	1052	1063	1098	1124	1099	1042	1007	983	964	970	977	996	993	973	973	981	996	1016	1027	1017	1012	1013	1017	1012	1019	1015	1010	993	987	986	991	1008	1011	1019	1024	1014	1005	996	988	982	985	987	989	995	985	982	987	993	1015	1015	1016	1017	1012	996	975	960	968	991	1009	1014	1004	986	979	986	989	990	991	996	998	997	997	1004	989	974	967	963	935	941	980	1016	1023	990	956	943	941	949	945	948	942	949	953	968	979	992	984	944	935	926	942	942	952	956	980	993	1006	996	980	971	978	988	1003	1012	1007	994	983	975	969	957	958	970	970	979	977	977	976	962	949	933	933	917	922	941	955	951	950	950	950	931	922	927	950	967	976	966	933	912	921	961	993	1010	1010	1012	999	968	918	886	882	885	904	899	885	869	867	867	871	874	875	875	903	904	894	889	884	892	887	882	884	884	869	857	889	924	924	946	946	927	900	881	877	882	878	868	867	878	889	889	899	912	917	904	876	848	862	851	847	858	870	870	891	904	906	897	881	874	862	861	867	890	890	890	889	886	873	863	857	881	896	906	906	910	909	903	888	880	873	857	878	893	893	897	897	890	875	870	854	854	854	867	879	878	865	852	836	839	850	850	842	826	827	842	848	866	875	875	889	880	863	846	834	836	836	841	871	871	880	881	886	886	892	883	872	860	854	855	855	851	855	847	829	822	831	831	854	858	872	880	884	884	875	881	880	874	888	888	888	874	862	852	838	842	842	837	837	825	829	829	855
0	0	0	0	0	0	0	0	0	0	0	0	0	0	0	0	0	0	0	0	0	0	0	0	0	0	0	0	0	0	0	0	0	0	0	0	0	0	0	959	979	956	941	938	940	953	953	982	1018	1033	1006	978	951	940	940	944	940	948	930	920	913	915	915	926	934	935	951	963	979	978	950	950	912	917	928	933	950	961	968	968	968	948	942	963	982	977	963	942	945	958	958	972	980	977	961	948	953	959	959	953	946	946	942	947	946	943	947	966	981	988	971	958	955	955	965	967	955	946	954	966	972	972	960	955	939	933	937	937	951	965	965	950	946	946	960	943	922	926	960	989	1002	994	994	980	961	944	0	0	0	0	0	0	923	919	902	869	888	915	951	951	964	948	904	882	898	951	1004	1040	1033	1025	1027	1035	1060	1092	1089	1081	1073	1062	1053	1045	1032	1032	1037	1054	1063	1060	1058	1075	1080	1071	1061	1065	1067	1059	1044	1023	1011	997	1011	1037	1058	1080	1081	1052	1018	1004	981	967	958	958	943	958	975	986	1003	1020	1021	1018	1017	1002	1000	997	976	960	944	937	948	963	959	961	959	973	979	1002	1018	1023	1017	1003	965	962	970	981	986	975	958	944	944	968	986	1011	1021	1031	1021	999	997	996	970	979	978	966	958	958	979	988	1007	1019	1023	1019	1015	1018	1019	1007	989	974	971	983	978	969	957	955	949	955	970	979	981	997	1011	1006	981	960	975	977	973	969	971	982	1009	1025	1038	1032	1018	1019	1041	1066	1087	1087	1081	1077	1067	1057	1051	1057	1059	1062	1060	1041	1044	1049	1066	1078	1074	1068	1053	1048	1058	1092	1114	1084	1041	1007	977	964	974	993	1009	1014	1002	997	1002	1008	1019	1017	1003	999	994	993	996	1006	1009	1001	979	959	959	974	987	999	1015	1014	1001	985	981	979	982	987	984	988	983	987	1003	1023	1033	1033	1030	1013	1009	1003	986	971	960	964	991	1010	1020	1001	984	971	968	959	962	983	1005	1015	1008	1011	1007	1000	993	970	942	915	910	936	965	989	972	945	931	935	940	941	945	947	959	965	969	971	976	971	961	953	950	955	942	952	946	965	979	982	974	969	978	982	979	990	987	983	977	965	957	955	952	956	967	980	984	980	973	971	957	942	925	925	909	915	931	946	950	949	951	945	933	925	934	949	959	961	958	952	935	928	937	965	965	997	1006	988	964	917	884	872	885	898	899	882	867	853	854	853	851	849	849	869	889	888	901	908	902	878	870	874	877	879	876	899	922	922	941	940	923	896	883	871	874	859	851	858	883	905	905	919	924	910	899	876	848	830	827	838	861	881	881	892	908	910	901	882	872	864	857	862	875	875	868	878	873	875	884	880	871	870	881	881	896	895	885	877	861	863	861	870	878	893	896	903	910	897	892	884	881	881	865	872	872	873	871	863	865	866	866	844	823	822	832	844	845	845	863	874	879	866	849	831	814	836	841	851	861	865	869	876	876	867	867	859	863	866	876	876	870	863	850	845	851	858	858	854	845	840	858	881	881	895	888	880	874	876	876	882	883	865	843	826	826	812	817	823	826	836	836	857
0	0	0	0	0	0	0	0	0	0	0	0	0	0	0	0	0	0	0	0	0	0	0	0	0	0	0	0	0	0	0	0	0	0	0	932	913	940	959	959	979	950	936	935	952	971	971	994	1008	1006	1011	992	973	951	951	942	940	934	929	922	920	927	927	932	936	942	950	960	968	957	928	928	912	917	948	956	956	957	947	920	912	912	931	968	973	958	940	925	924	925	946	946	950	946	937	930	937	938	934	924	925	928	928	928	930	929	945	969	985	988	905	916	934	956	956	957	955	950	952	960	960	962	956	948	940	928	929	929	946	962	955	943	935	938	960	942	912	920	951	986	1004	994	994	953	921	916	932	951	899	873	874	909	923	919	944	956	967	979	978	961	961	936	915	914	922	937	956	966	958	938	937	947	972	1004	1007	995	976	959	955	964	973	973	972	974	972	979	1000	1028	1039	1038	1028	1011	989	982	999	1004	993	986	986	1005	1028	1034	1035	1018	995	982	959	943	942	943	958	958	984	997	1005	1012	1020	1016	1013	1004	1004	1002	984	965	948	944	956	963	972	973	971	967	974	987	1002	1022	1020	1015	1002	1001	992	984	996	991	977	956	959	970	998	1010	1030	1032	1030	1012	988	959	941	959	962	973	979	979	988	994	993	999	1002	993	984	974	973	987	988	991	998	998	986	978	971	966	958	973	996	1016	1018	1011	1021	1021	1003	980	982	985	984	979	975	977	1007	1036	1042	1034	1014	1010	1027	1054	1069	1064	1064	1066	1066	1051	1046	1043	1045	1049	1051	1030	1026	1037	1059	1072	1073	1063	1046	1043	1049	1036	1019	1023	1020	1000	987	984	1005	1024	1045	1032	1031	1026	1023	1023	1006	1000	996	994	979	979	978	988	989	976	959	947	954	962	968	993	1003	996	974	976	972	987	993	987	988	991	992	994	1003	1024	1024	1037	1038	1027	1006	994	977	958	952	976	988	1015	1010	994	981	970	951	946	952	974	1004	1012	1001	991	991	996	999	981	947	910	892	905	923	932	933	924	920	937	938	950	952	960	975	977	972	971	966	964	954	956	950	950	955	951	934	929	947	949	955	961	977	979	972	969	973	971	957	950	941	947	957	963	977	978	984	975	969	966	953	944	944	925	912	904	908	933	939	938	932	931	924	917	921	932	943	945	946	949	942	928	913	930	930	953	957	949	932	909	884	872	882	887	888	883	868	855	851	847	844	843	843	841	865	882	902	920	913	887	871	867	875	888	901	903	917	917	931	927	912	889	867	860	861	849	854	858	882	888	888	874	861	910	899	864	832	827	852	886	890	886	886	889	895	894	893	884	874	864	861	866	838	838	838	849	869	889	886	876	871	863	865	865	870	870	861	851	844	849	861	870	870	881	893	895	899	892	890	884	883	883	871	861	866	886	915	925	911	911	869	817	791	807	827	835	831	831	828	850	848	843	825	831	814	814	816	823	850	865	870	859	859	861	852	862	874	880	886	886	875	862	859	851	859	870	870	873	854	845	847	874	874	895	888	869	859	865	865	875	889	870	855	832	832	818	814	823	836	848	848	858
0	0	0	0	0	0	0	0	0	0	0	0	0	0	0	0	0	0	0	0	0	0	0	0	0	0	948	933	960	985	1010	1019	1019	1006	977	945	935	952	971	971	967	950	936	931	947	970	970	980	979	981	990	1002	990	961	961	937	925	932	934	923	922	921	928	928	939	941	947	949	943	925	911	915	915	925	948	956	930	927	911	907	902	902	911	907	899	897	916	941	940	928	913	913	904	905	926	947	953	950	938	924	924	922	922	924	925	920	916	917	921	913	905	916	927	952	952	956	945	938	935	944	953	953	956	951	930	922	931	931	960	972	972	955	936	921	901	916	916	916	917	932	945	945	945	937	934	939	946	952	948	944	948	958	948	939	944	956	966	976	974	963	963	941	924	925	927	938	949	961	958	941	935	943	963	996	1002	996	976	963	955	964	964	971	971	973	968	971	991	1019	1034	1034	1030	1006	977	971	979	987	986	981	995	1006	1024	1032	1018	995	972	955	950	947	952	961	967	967	984	997	999	1005	1018	1017	1013	1009	1007	1009	996	976	960	960	980	985	989	985	976	969	969	975	990	1002	1008	1006	993	986	978	986	993	999	992	977	965	973	994	1009	1018	1025	1016	1004	976	951	946	960	968	969	986	986	986	983	974	973	971	972	966	960	969	986	994	999	1014	1007	1004	992	989	982	971	989	1004	1015	1030	1030	1032	1028	997	978	981	990	1001	993	986	987	1011	1031	1032	1010	1001	998	989	987	992	1017	1036	1042	1037	1024	1030	1027	1035	1030	1043	1030	1021	1025	1037	1049	1044	1042	1034	1032	1020	1007	999	996	995	984	985	1008	1019	1041	1049	1050	1054	1045	1047	1026	1006	994	997	983	973	970	977	975	968	945	935	943	950	958	967	982	994	988	972	966	975	983	989	992	990	991	994	993	1000	1008	1008	1018	1021	1013	1008	988	968	953	951	974	992	1002	1002	985	972	963	956	955	959	973	989	986	975	968	972	990	997	994	959	918	892	894	891	891	896	901	921	940	952	963	964	959	976	986	982	961	958	952	954	956	962	962	958	946	925	904	910	925	943	956	975	972	958	942	947	939	943	933	928	941	950	958	965	971	970	962	959	957	945	937	937	918	906	903	903	907	923	920	919	921	923	919	914	912	912	920	931	939	929	914	908	922	922	933	928	919	932	909	908	907	894	889	888	900	895	876	851	849	844	844	837	839	843	865	893	912	906	889	865	855	873	896	913	920	920	923	917	913	892	876	864	862	856	856	857	876	900	900	905	874	861	865	877	868	854	857	882	900	898	898	882	877	882	890	886	883	876	875	876	864	864	854	826	846	877	881	873	865	852	848	848	848	841	839	840	836	844	849	852	858	858	868	875	877	870	865	864	872	874	874	858	851	860	891	903	907	886	886	857	829	806	814	832	835	832	832	824	810	819	843	825	818	818	804	801	808	838	866	874	861	861	844	847	855	867	876	875	875	860	851	848	840	866	866	881	884	876	864	861	874	874	886	879	866	858	856	856	865	868	867	863	844	844	824	814	825	836	843	843	843
0	0	0	0	0	0	0	0	0	0	0	0	0	0	0	950	954	942	942	927	931	945	966	958	936	936	912	914	954	981	988	989	989	978	976	975	982	989	996	996	977	949	932	931	947	963	965	965	962	952	976	982	986	972	949	949	943	947	951	942	923	913	913	913	919	919	913	901	893	880	873	885	885	902	916	931	930	926	916	912	907	907	906	904	889	896	908	934	937	930	921	921	917	922	929	950	952	953	933	922	918	908	908	916	914	919	923	924	922	913	911	912	927	952	953	951	933	916	921	936	938	941	948	948	937	920	924	948	948	968	969	952	937	915	903	914	921	914	917	930	939	938	929	929	930	932	944	947	943	947	947	963	954	938	941	954	966	880	895	924	924	953	969	968	962	947	945	959	970	954	930	918	946	976	988	993	974	965	966	964	969	996	996	1001	980	956	951	962	984	996	988	973	962	947	955	958	965	978	992	1008	1012	1009	990	967	931	929	933	953	970	976	975	978	978	991	999	1005	997	996	995	984	989	997	998	974	965	974	984	994	995	985	981	975	972	972	981	989	991	985	971	971	963	971	996	1009	1002	991	971	968	981	993	999	997	988	977	972	960	956	972	977	980	987	1000	1000	990	971	964	964	963	963	969	975	982	991	1000	1017	1022	1011	1003	999	996	989	993	1000	995	979	981	995	994	981	971	974	993	1007	1002	985	986	1001	1017	1013	1004	997	985	975	966	968	993	1015	1014	1012	1024	1031	1040	1034	1026	1026	1019	1006	1009	1017	1022	1014	1017	1020	1022	1010	992	978	968	954	970	977	1004	1026	1037	1040	1058	1062	1058	1046	1035	1004	989	991	999	993	998	999	991	961	942	924	940	950	958	961	975	987	983	974	973	975	975	969	969	971	979	981	978	972	972	966	953	962	978	993	1002	975	964	960	969	981	982	981	973	966	964	962	957	969	975	973	961	947	951	964	980	982	974	948	920	908	911	904	892	880	891	914	947	962	963	956	959	966	982	972	953	958	952	958	959	959	954	950	934	913	890	894	909	937	964	972	956	916	889	882	893	911	915	919	927	937	947	951	947	924	927	928	931	937	937	923	910	901	893	885	896	904	909	924	936	937	927	913	904	902	909	925	922	910	898	901	901	902	898	928	919	909	909	910	911	901	900	900	897	878	864	858	853	847	847	835	836	840	848	863	881	881	870	846	836	864	896	916	921	921	919	898	886	875	868	867	868	866	868	871	885	918	900	905	886	868	858	866	861	864	872	884	900	892	892	872	867	875	880	881	884	888	884	875	868	868	853	854	862	872	872	861	846	837	827	827	825	821	817	840	836	838	850	846	844	844	845	854	850	846	841	841	849	849	850	849	838	851	872	881	870	858	858	844	824	807	816	830	835	830	830	825	810	819	810	806	805	805	795	803	812	856	880	877	877	858	845	846	856	860	857	857	854	847	840	831	837	857	857	877	885	890	864	861	861	860	870	869	857	848	839	839	837	839	839	840	836	836	843	856	853	839	830	830	828
0	0	0	0	887	936	936	964	978	956	939	915	915	929	950	950	954	930	930	913	922	931	944	937	920	920	902	918	943	976	988	982	982	972	968	964	974	984	981	981	967	944	931	927	940	963	965	946	932	913	913	938	969	965	953	953	951	959	969	960	933	910	905	905	913	917	913	905	895	877	868	873	873	890	904	914	922	926	916	917	934	935	935	919	904	901	881	852	842	867	926	963	963	973	977	957	923	894	882	883	898	902	902	902	905	917	923	923	928	917	913	920	938	953	951	951	953	931	918	913	912	909	921	933	927	919	913	923	923	939	945	938	926	917	921	936	930	904	910	931	933	899	890	890	900	915	934	933	924	930	931	939	931	901	878	864	878	880	895	918	934	934	958	959	947	938	933	944	951	946	939	942	959	975	988	982	965	963	966	971	984	1001	1011	1011	989	952	925	933	962	989	993	978	961	939	935	935	940	955	982	995	992	982	960	948	920	915	926	949	967	978	965	952	952	960	971	981	997	996	961	955	964	972	975	968	959	965	987	997	1003	993	984	986	982	982	979	968	964	959	960	953	955	970	988	1013	1014	991	967	954	957	966	967	964	964	959	955	953	959	965	971	979	992	1000	998	998	980	967	959	959	961	971	974	964	967	980	993	1006	1004	1005	996	977	965	949	941	941	951	953	955	953	955	957	971	1003	1013	1006	991	981	974	981	988	983	974	966	962	954	955	969	994	1004	1003	1019	1039	1033	1026	1015	1008	991	976	984	995	1005	997	996	1001	1007	1000	979	956	940	940	960	977	986	997	995	1015	1042	1042	1030	1027	1021	1005	994	991	993	988	988	992	990	963	943	935	940	948	957	967	981	981	981	978	975	968	959	955	957	954	952	954	950	944	944	940	939	944	958	982	993	988	976	965	970	971	962	966	972	977	969	962	956	964	966	959	934	925	930	948	961	960	945	926	921	929	935	931	912	894	895	921	937	965	957	948	936	950	959	972	953	943	947	957	965	965	954	933	917	897	885	888	904	930	952	966	933	906	903	918	933	940	940	941	951	956	950	929	905	883	875	874	880	908	908	912	906	904	893	882	884	898	924	944	948	947	935	921	910	910	923	935	936	923	911	896	896	902	898	902	907	904	908	905	908	904	906	904	892	868	858	845	843	843	841	844	848	851	849	858	862	860	849	834	828	843	869	864	861	861	863	858	856	853	850	862	871	883	878	883	890	918	918	919	901	878	858	849	859	869	872	875	875	873	873	869	862	860	865	875	892	896	895	872	834	834	825	833	843	859	865	850	825	818	813	813	815	821	817	825	829	841	857	854	854	845	836	834	839	834	819	829	839	839	849	842	840	847	861	857	847	847	835	826	804	803	810	818	825	825	830	825	823	815	805	800	798	798	799	810	834	870	874	866	866	852	844	845	846	849	850	850	848	834	834	838	848	856	856	877	885	890	877	858	858	846	850	850	848	831	831	818	815	812	820	818	828	828	842	865	881	875	875	845	830
0	0	0	846	868	906	906	946	967	945	913	907	907	914	926	941	940	930	913	882	892	927	933	908	895	895	894	916	946	971	999	1000	1000	984	954	928	916	926	943	951	951	933	911	894	914	944	946	946	932	825	819	840	886	919	932	932	928	934	956	948	939	928	928	928	921	897	915	959	970	965	941	918	918	911	916	914	920	920	916	917	934	927	927	958	969	969	947	911	886	882	903	939	939	984	1000	989	934	912	910	899	874	844	868	868	889	905	912	909	908	915	925	949	974	981	970	970	953	931	918	897	894	891	908	920	929	923	923	918	918	922	920	912	912	924	937	948	934	916	917	925	931	924	913	913	917	934	936	933	923	917	922	931	907	882	859	863	872	891	903	918	934	937	943	944	932	927	920	933	936	946	955	980	994	997	993	982	965	959	963	970	983	998	994	994	976	949	921	940	957	978	984	978	965	954	935	923	922	931	951	969	963	959	955	944	929	921	930	935	946	940	915	924	920	920	930	947	955	970	961	955	949	960	973	968	960	953	958	975	991	991	993	1004	1003	997	981	954	943	943	947	948	946	952	971	988	992	976	959	941	936	934	936	934	939	938	943	942	945	954	954	960	989	1003	1000	981	981	965	959	960	968	967	953	936	932	946	968	987	1000	992	974	965	965	937	929	925	924	922	928	936	940	969	1003	1011	1013	1012	992	979	974	959	960	965	961	957	952	939	933	951	979	992	1001	1015	1020	1013	988	987	970	950	946	959	974	985	978	981	983	985	988	970	941	928	943	968	977	972	965	952	958	967	974	982	997	1007	1011	999	991	989	988	986	977	971	958	945	941	942	957	970	989	985	980	980	979	980	977	964	957	952	950	940	947	937	937	919	919	906	917	930	954	973	979	967	955	954	955	955	961	970	979	976	959	948	951	943	926	913	901	908	917	929	929	920	917	920	938	961	952	925	906	910	922	939	941	947	939	925	950	959	950	939	941	954	964	964	967	943	915	892	885	884	883	889	918	943	947	927	916	925	938	938	938	935	941	943	944	939	926	911	892	865	853	843	840	840	842	867	893	903	890	881	903	930	954	954	952	937	917	909	911	928	942	945	932	912	912	896	874	864	877	899	906	902	894	897	907	911	898	882	858	845	838	833	833	831	843	851	856	852	851	849	847	835	821	829	839	838	838	838	830	828	836	831	820	831	846	873	864	851	883	890	914	914	918	908	881	865	861	866	866	867	862	862	860	860	864	852	847	852	872	891	893	879	850	850	833	825	827	838	854	852	843	820	809	813	813	815	816	816	819	833	851	863	864	864	846	834	831	837	827	814	826	842	842	853	852	845	850	861	854	841	841	830	826	821	801	799	803	825	825	828	825	833	836	838	826	819	819	821	838	853	863	860	858	858	844	839	832	840	845	852	852	857	849	847	838	838	856	856	873	885	885	877	867	867	852	846	842	829	814	814	808	801	797	798	810	810	835	861	884	889	880	880	856	840
0	0	0	0	860	885	885	928	949	928	899	889	889	892	913	925	919	894	882	882	892	0	0	0	0	845	845	875	0	0	0	997	986	986	943	903	0	0	972	985	985	955	904	855	839	870	877	877	867	825	819	871	908	914	899	899	857	852	851	869	891	916	925	894	894	895	899	944	966	957	939	939	934	934	928	916	916	892	871	871	890	927	927	935	948	944	926	902	895	903	929	947	947	972	986	980	936	926	929	923	890	874	871	871	901	922	918	916	915	917	933	944	946	945	950	950	945	932	918	895	889	892	898	917	936	933	930	912	901	901	894	895	907	924	945	947	943	929	913	909	914	923	921	932	932	940	931	924	911	905	903	903	896	872	862	878	889	906	914	931	937	943	943	919	912	903	907	927	946	957	967	986	1006	1002	994	980	965	959	951	953	961	971	981	981	975	957	937	940	953	970	963	956	966	957	946	931	921	925	931	947	949	947	954	954	943	927	927	929	923	914	908	899	905	905	912	917	926	940	941	938	949	960	980	991	982	967	958	968	978	991	995	1009	1018	1015	982	957	948	942	947	946	936	930	931	939	946	950	951	943	934	920	904	900	909	917	927	928	932	935	939	952	983	998	998	982	982	971	975	976	966	951	937	915	904	915	946	973	986	982	966	963	963	956	949	934	921	910	909	932	949	974	992	1003	1016	1018	1010	990	973	961	962	971	965	963	956	935	929	936	963	980	995	1009	1006	983	958	943	940	924	928	940	958	976	970	963	956	961	966	953	938	930	947	973	984	968	943	924	922	920	935	949	979	998	1010	1007	993	979	957	910	911	916	935	941	944	955	969	997	997	983	966	965	973	983	981	976	962	942	937	927	927	930	930	919	911	904	906	917	935	955	961	946	934	932	931	936	955	972	977	967	958	946	948	940	921	898	895	897	905	899	896	894	907	923	939	954	940	914	900	908	916	925	923	947	939	925	923	931	935	955	969	978	972	972	961	928	894	862	858	871	883	894	908	926	927	922	937	943	942	935	927	926	929	930	929	925	918	914	898	882	862	847	847	848	847	854	850	845	848	855	881	921	949	955	934	909	884	863	852	852	873	882	881	912	912	899	865	847	861	887	902	900	883	878	886	894	880	868	857	847	833	817	817	822	842	864	869	856	836	831	829	827	831	831	839	826	817	817	805	798	799	802	805	813	836	852	864	851	834	822	822	829	870	893	893	881	877	867	866	865	850	854	854	856	850	844	846	864	878	887	878	866	846	846	828	827	831	835	849	847	844	829	809	809	813	810	808	815	829	839	860	873	872	872	848	834	828	832	820	817	832	852	852	861	857	859	862	865	852	837	837	833	836	829	814	799	803	809	809	823	844	855	862	862	856	856	842	852	851	858	851	848	845	845	837	825	825	829	837	853	853	859	858	857	838	838	838	845	857	869	869	862	867	867	861	845	836	815	807	807	799	789	776	784	813	813	848	877	886	891	879	879	856	840
0	0	0	0	0	0	0	0	0	0	0	0	0	0	0	0	0	0	0	0	0	0	0	0	0	0	0	0	0	0	0	0	948	948	932	0	0	0	0	982	982	940	899	858	848	858	870	863	863	848	859	871	908	914	880	839	839	832	846	844	855	873	892	885	885	878	894	910	922	925	918	925	936	936	931	921	907	887	866	862	880	909	909	935	948	908	904	900	904	924	937	955	964	964	961	942	935	929	941	925	892	884	899	916	916	932	929	914	904	908	924	924	911	900	910	924	924	923	908	895	889	892	889	894	917	936	922	901	883	883	884	889	903	918	930	926	920	910	906	897	885	871	872	891	891	897	903	901	901	900	901	897	884	873	877	902	928	937	942	942	939	930	930	919	912	878	895	921	942	958	970	978	987	977	952	949	966	968	957	955	956	956	967	976	976	961	947	946	952	959	950	939	949	964	958	939	922	918	918	924	930	947	955	955	949	933	933	932	932	922	912	909	908	918	918	919	929	947	945	943	950	968	980	991	998	976	963	965	977	987	996	1012	1019	1017	993	958	949	952	954	950	930	923	918	927	930	937	947	946	934	903	890	883	898	914	921	924	923	927	928	945	962	980	985	982	986	986	987	985	960	941	928	908	903	897	903	931	962	967	957	950	973	967	953	926	919	910	925	937	939	948	954	977	994	1000	991	994	982	981	979	976	965	958	944	928	921	927	945	965	977	978	976	955	929	925	930	927	924	937	957	969	960	938	926	929	941	945	945	946	960	984	989	977	933	915	902	901	915	930	953	980	988	992	963	941	916	913	912	930	943	954	954	957	987	997	992	968	946	935	949	967	975	981	958	933	921	918	918	918	923	923	914	908	909	910	925	936	938	929	915	907	905	913	933	948	951	951	946	942	931	925	918	902	896	890	888	874	869	874	895	913	929	934	917	890	879	888	902	925	923	925	928	923	919	915	928	941	961	972	972	973	954	916	874	850	845	861	876	890	905	914	912	915	932	942	936	930	923	919	911	909	915	905	906	906	899	883	862	857	857	850	858	860	850	840	831	849	860	871	885	889	900	898	887	870	852	836	831	882	881	888	888	895	899	859	855	865	879	876	870	864	865	866	863	863	856	840	830	830	816	817	848	869	867	855	826	814	813	820	826	825	829	818	799	799	785	784	788	798	809	817	836	852	852	836	819	817	817	829	872	885	881	869	865	861	859	861	859	856	856	855	843	842	842	858	873	875	872	854	830	830	818	827	834	838	847	851	843	829	823	823	815	804	806	813	831	837	855	875	875	868	848	830	812	813	803	800	815	815	840	858	864	861	851	849	841	837	837	836	843	829	814	794	786	791	791	821	841	860	874	874	875	875	862	842	844	846	843	839	839	830	827	820	819	826	838	838	845	852	858	857	847	840	840	839	841	848	843	843	857	857	863	848	831	815	794	794	771	744	742	752	796	796	845	872	882	877	879	879	861	838
0	0	0	0	0	0	0	0	0	0	0	0	0	0	0	0	0	0	0	0	0	0	0	0	0	0	0	0	0	0	0	0	0	0	0	0	0	0	959	956	956	921	888	852	851	859	0	0	0	0	867	896	911	914	885	852	852	843	844	839	838	853	865	874	874	872	878	890	897	904	899	920	941	941	937	914	895	880	865	867	880	896	916	916	915	908	904	897	908	929	943	950	940	940	922	903	902	906	912	903	882	890	905	923	923	922	898	887	887	893	906	900	892	886	887	892	892	901	901	898	888	892	889	908	915	923	908	890	874	874	874	883	890	900	905	899	898	899	895	896	893	878	862	863	873	873	880	890	901	910	909	898	885	869	885	903	934	951	949	947	944	923	923	903	876	878	887	909	925	934	941	949	952	944	938	946	970	980	970	967	952	951	956	973	973	970	960	949	948	946	939	938	950	959	956	943	914	896	892	896	907	923	943	951	947	943	936	936	929	922	909	909	917	929	929	956	970	962	952	941	943	966	984	994	998	976	963	968	968	976	989	999	1011	1013	980	954	943	954	956	954	940	927	924	930	932	940	954	953	942	913	891	889	904	925	926	932	932	931	925	933	946	962	969	975	996	996	1010	999	966	943	926	926	918	910	906	909	929	931	934	942	945	945	936	926	921	931	941	949	944	940	936	949	965	974	972	970	968	963	956	954	953	946	939	934	931	944	951	940	949	953	950	927	916	919	927	932	929	930	942	955	946	918	896	910	927	944	953	958	969	990	997	983	947	923	912	913	923	934	938	948	964	960	956	946	949	945	950	963	978	972	971	970	990	989	964	932	911	903	920	937	951	952	946	924	912	905	905	909	914	912	913	911	915	923	925	925	922	913	900	894	890	884	889	909	931	928	934	926	920	915	908	898	890	885	882	865	845	850	870	896	915	904	894	880	862	888	902	906	910	914	917	927	918	907	906	927	949	949	966	973	950	909	873	846	840	856	867	878	892	905	898	892	900	912	911	920	919	907	894	886	875	882	886	894	889	874	859	859	855	857	864	863	850	838	830	847	865	875	876	875	878	893	889	875	847	836	831	843	846	846	868	887	895	882	869	866	867	865	862	850	844	830	844	847	844	833	830	830	827	819	848	877	880	858	831	809	809	814	814	815	813	816	816	802	796	790	801	810	809	817	831	849	855	833	827	840	840	860	883	880	857	839	837	843	849	855	860	861	861	852	839	835	841	856	864	866	858	837	817	817	814	825	833	845	848	851	843	837	832	832	820	812	812	826	832	836	848	865	865	862	840	811	807	803	795	788	800	800	825	845	851	839	840	833	838	838	844	836	843	833	809	780	774	774	791	819	844	864	872	869	861	861	846	819	823	834	838	828	828	820	819	816	813	819	825	825	845	852	857	860	853	832	832	826	824	825	825	835	835	844	849	854	837	820	803	803	791	765	745	757	789	789	824	851	882	877	873	873	855	839
0	0	0	0	0	0	0	0	0	0	0	0	0	0	0	0	0	0	0	0	0	0	0	0	0	0	0	0	0	0	0	0	900	900	909	0	0	921	932	918	895	895	858	839	841	850	0	0	0	0	891	901	916	911	885	852	878	866	850	826	825	847	871	864	859	859	865	878	888	892	897	913	938	938	938	921	894	876	876	885	892	902	903	903	900	902	889	897	908	922	931	935	908	908	869	839	843	851	860	867	876	893	913	909	909	893	862	854	868	888	898	889	879	872	870	878	878	886	892	895	899	900	899	908	915	909	904	892	885	878	878	882	878	877	875	879	890	894	899	898	901	891	870	862	853	853	861	879	897	918	919	905	877	874	885	913	939	958	955	940	925	907	875	875	853	857	887	909	909	907	916	926	933	939	942	957	967	988	996	980	968	946	947	963	976	976	984	982	958	945	938	948	960	959	952	941	906	882	876	880	886	899	909	928	936	937	939	936	920	912	892	896	913	963	986	986	987	968	951	936	937	941	953	981	997	985	975	968	968	948	951	960	970	973	959	936	939	946	949	954	942	937	938	939	936	934	949	954	952	935	917	905	921	936	940	941	943	934	925	928	935	941	943	958	979	1004	1004	997	967	943	938	939	932	921	915	909	907	915	929	936	949	951	940	926	921	925	939	939	933	928	926	925	922	942	948	948	947	946	937	944	938	942	936	939	950	962	959	946	936	936	923	917	910	917	925	923	913	914	917	939	937	921	896	910	933	951	950	948	950	950	949	954	947	953	955	948	940	938	937	919	901	928	953	963	981	990	995	993	999	987	981	972	975	967	943	910	885	879	898	905	910	901	888	889	898	904	904	912	911	904	901	907	925	939	940	935	921	908	900	893	876	862	856	872	902	922	926	920	916	911	907	904	898	892	887	875	843	834	849	878	900	904	897	880	862	869	879	889	897	906	916	925	919	901	889	901	924	924	945	959	949	917	881	858	851	861	867	860	870	886	894	882	882	892	907	917	916	895	879	872	859	861	867	877	871	861	850	850	850	861	868	865	843	833	837	863	873	882	874	866	870	889	891	875	847	827	821	823	833	833	857	871	878	863	857	857	864	864	860	847	841	824	835	834	829	828	826	826	827	829	856	879	872	860	841	814	803	805	809	810	827	822	822	816	814	813	829	810	824	830	832	843	849	849	841	841	848	855	856	843	831	832	834	831	828	838	847	847	843	827	820	813	828	832	842	841	830	817	817	812	813	828	840	845	848	848	843	837	837	839	838	836	834	831	821	819	820	817	817	820	811	812	825	833	823	814	798	798	796	823	828	828	822	825	830	838	844	844	851	832	798	772	779	779	799	826	856	866	863	860	843	843	817	800	799	812	821	822	822	817	815	810	807	813	825	825	826	824	829	836	833	812	812	798	789	792	795	803	803	803	804	819	827	846	846	845	825	800	787	777	777	791	824	851	857	858	858	854	853	835
0	0	0	0	0	0	0	0	0	0	0	0	0	0	0	0	0	0	0	0	0	0	0	0	0	0	0	0	0	0	895	883	868	878	878	889	894	899	899	894	866	866	843	835	842	841	856	874	874	877	893	909	920	909	895	878	878	866	844	818	834	872	898	894	872	872	865	889	900	890	891	909	923	925	925	915	888	877	891	899	908	906	907	907	900	899	887	891	904	922	915	908	874	874	824	787	781	798	833	863	877	882	887	877	877	855	837	836	852	884	892	886	863	857	856	863	875	875	880	887	890	909	919	924	920	909	904	895	878	872	872	878	875	870	867	870	878	887	896	900	905	903	893	873	860	860	862	865	881	905	917	901	883	877	896	922	941	950	940	915	913	905	898	898	888	888	898	904	909	907	918	925	944	941	927	930	937	933	945	949	937	924	928	943	955	955	973	977	973	956	946	943	940	947	942	932	910	885	881	874	880	886	891	902	915	923	927	932	922	933	927	902	916	956	986	986	989	968	946	927	917	912	928	955	983	998	988	978	967	948	951	960	922	930	936	933	939	934	937	937	934	933	929	924	929	935	942	955	954	938	923	913	920	934	944	935	932	930	929	920	922	917	916	923	942	965	965	962	948	944	940	940	940	936	924	914	900	911	928	936	936	935	926	925	913	922	918	918	910	905	908	905	898	906	917	935	929	919	913	922	925	929	935	940	952	965	965	946	935	920	910	905	906	915	912	905	900	895	898	915	929	921	916	917	928	938	939	927	929	932	933	934	947	954	953	946	943	935	931	916	907	900	894	911	938	963	971	977	968	966	971	977	966	949	920	888	873	879	884	881	876	864	863	874	887	887	906	920	913	901	898	909	926	929	920	922	912	902	895	891	885	863	854	869	894	913	914	916	913	906	902	907	907	904	902	888	863	853	860	870	900	904	897	883	864	857	863	877	890	898	908	916	921	894	873	886	886	901	921	936	932	916	893	875	867	866	852	844	859	879	893	887	882	888	902	916	911	888	873	861	852	849	853	847	849	851	851	853	850	860	870	862	841	832	842	862	880	885	882	871	868	889	891	880	861	834	826	830	830	833	846	847	843	835	834	845	855	858	860	851	839	826	820	824	825	820	820	813	821	836	859	866	867	856	839	818	814	815	824	833	844	844	835	825	822	813	829	832	834	838	843	843	837	836	823	823	831	839	839	831	807	803	809	818	829	833	823	823	798	790	792	811	834	834	838	848	851	830	830	817	803	828	840	840	837	823	824	834	834	842	839	828	814	791	773	771	785	798	798	801	804	816	833	838	835	817	804	804	796	805	816	822	819	825	830	830	846	858	858	840	809	783	795	795	815	837	855	857	856	854	854	843	815	796	791	796	806	821	821	820	810	802	807	813	810	810	801	797	801	810	814	814	812	797	790	785	786	777	777	775	778	794	810	827	827	844	822	791	788	791	777	791	809	816	817	811	811	823	828	829
0	0	0	0	0	0	0	0	0	0	0	0	0	0	0	0	0	0	0	0	0	0	0	0	0	0	926	926	0	0	895	842	842	834	834	851	857	871	876	874	860	860	841	842	852	872	867	868	873	873	884	916	931	913	901	890	874	874	844	818	874	887	883	880	877	877	884	888	900	894	882	894	915	919	919	905	879	874	885	894	909	906	898	900	900	897	893	884	897	902	915	908	853	813	813	791	797	836	860	872	875	876	869	857	843	843	823	830	850	878	878	865	847	836	846	860	869	869	877	871	876	896	910	916	907	902	895	895	857	850	850	858	860	860	860	867	872	871	873	887	901	907	906	899	889	866	866	868	867	885	901	898	884	882	905	928	933	934	911	894	908	922	918	914	914	899	886	884	892	901	918	925	926	918	911	905	906	913	920	919	915	909	908	920	928	947	947	960	963	958	937	923	916	924	926	924	915	901	903	893	888	880	880	887	900	914	926	930	932	943	932	909	914	953	974	974	974	962	940	921	913	910	916	929	963	993	999	978	950	917	898	913	922	930	930	946	940	923	907	909	915	919	917	917	916	930	939	943	938	923	893	863	872	885	883	867	874	897	916	904	895	885	883	895	911	920	924	924	930	936	933	931	935	933	925	907	892	910	926	929	916	912	911	905	908	906	901	893	893	894	901	899	883	888	900	908	904	896	892	895	902	911	916	924	919	919	926	935	931	922	904	893	893	902	906	904	898	897	896	909	917	925	916	918	930	927	922	927	925	923	923	930	941	956	950	936	926	924	920	916	916	914	909	912	912	909	913	927	946	961	976	979	962	935	912	897	898	903	891	877	856	843	848	863	880	880	899	909	897	890	883	889	901	905	898	900	895	889	881	881	878	873	864	869	892	905	905	903	898	898	892	899	915	914	904	887	869	864	860	870	882	890	892	888	866	850	852	868	869	877	885	892	901	899	887	877	877	871	889	900	901	893	887	873	867	854	841	843	853	873	890	888	884	887	896	899	899	882	867	858	855	852	846	841	838	852	852	854	853	857	866	862	851	846	851	862	875	874	884	888	868	885	892	886	846	830	831	828	828	833	837	840	814	812	821	830	838	846	843	845	833	812	804	814	817	816	816	810	810	822	849	866	843	843	838	827	821	829	837	853	854	854	841	825	822	836	847	840	830	833	836	842	834	816	824	824	824	829	823	806	793	795	801	817	826	819	810	810	794	789	790	808	823	829	829	827	828	829	829	817	803	802	812	819	823	824	825	832	832	842	833	819	795	775	772	782	799	799	804	799	803	815	828	840	841	824	824	804	799	801	810	822	819	820	825	825	839	851	860	855	832	819	823	823	832	837	823	810	814	830	830	842	815	790	787	786	795	810	810	820	810	802	795	801	801	795	784	776	779	786	799	799	803	799	792	785	771	762	762	763	778	787	801	806	806	802	787	775	788	791	791	792	792	793	790	787	787	805	816	821
0	0	0	0	0	0	0	0	0	0	0	0	0	0	0	0	0	0	0	0	0	0	0	0	853	885	913	913	919	898	868	842	842	841	841	841	845	856	870	863	855	855	846	847	866	881	883	877	866	866	874	897	922	922	899	880	860	860	840	839	874	887	874	859	853	853	861	873	882	876	869	874	896	900	900	881	866	863	877	890	889	888	886	888	888	891	882	876	880	896	892	877	853	813	841	850	862	879	883	876	867	863	860	857	859	859	856	857	863	868	865	853	840	842	851	861	875	875	879	872	870	879	889	896	896	891	889	876	857	850	830	830	838	841	847	859	871	864	867	873	889	899	898	905	900	893	893	881	881	885	892	890	878	871	880	885	898	897	889	889	901	909	910	909	909	893	877	863	866	888	909	922	926	918	891	880	886	900	909	909	906	901	903	906	913	921	921	941	957	953	932	906	897	904	912	912	911	907	917	917	900	888	872	878	883	902	920	929	935	940	927	912	914	937	935	916	916	896	887	900	919	942	937	921	915	933	941	948	939	913	901	902	901	912	930	946	940	908	897	903	905	912	902	899	903	917	932	933	916	890	869	859	860	870	875	871	884	904	915	900	873	860	872	878	893	899	907	907	912	913	913	908	920	925	915	901	893	914	925	922	909	900	900	905	899	895	894	890	890	893	900	890	880	879	893	907	910	909	896	887	892	897	908	910	901	905	913	931	941	931	908	897	899	900	907	907	900	904	908	909	911	909	906	910	917	920	922	912	908	907	906	908	923	940	939	923	905	905	913	918	918	909	903	906	915	918	899	902	932	956	968	967	954	934	920	917	916	915	906	886	859	845	840	856	856	878	895	898	882	873	865	873	881	888	888	881	871	864	867	867	873	865	865	871	895	908	903	891	879	879	879	892	905	910	897	887	869	864	870	880	885	896	900	892	869	849	849	849	859	866	875	870	879	883	882	882	874	870	871	880	874	871	872	866	853	842	840	845	855	873	883	890	890	885	885	878	888	886	878	862	857	854	856	850	853	853	863	862	853	845	850	860	858	849	847	852	855	864	884	888	885	884	889	855	838	829	831	831	832	830	827	809	802	803	809	810	816	825	832	835	823	804	797	802	814	814	813	809	809	819	836	839	830	818	809	795	807	825	842	855	853	854	841	828	832	846	847	838	828	822	828	832	836	832	832	831	831	823	809	796	796	804	804	815	814	803	803	799	785	788	796	803	815	813	810	803	804	828	829	821	803	794	795	807	816	818	815	829	829	838	834	824	803	795	790	801	814	814	820	815	806	804	805	834	832	819	819	794	786	801	810	818	817	814	814	820	822	827	823	824	830	829	829	819	806	797	787	784	789	793	793	796	793	785	776	780	798	798	810	820	813	801	796	784	784	779	765	759	760	769	776	776	782	789	794	794	783	783	763	768	786	803	816	803	803	802	787	775	773	781	781	776	780	784	784	796	796	806	809	805
0	0	0	0	0	0	0	0	0	0	0	0	0	0	0	0	0	0	0	903	886	886	847	823	830	849	880	880	898	887	870	845	839	841	841	855	861	867	865	861	853	853	853	859	876	881	882	877	873	873	880	883	876	865	850	844	846	846	868	875	884	881	874	859	839	843	843	857	864	855	850	850	858	861	852	852	845	847	864	872	871	873	871	877	877	872	868	864	864	876	880	874	858	841	841	850	877	884	878	871	860	857	855	864	871	871	873	874	868	863	853	847	838	838	850	867	872	877	877	869	858	857	862	866	869	874	876	859	834	832	830	830	826	832	850	861	878	880	872	872	878	876	880	881	880	877	877	880	882	893	887	880	854	839	838	848	851	876	879	871	875	885	888	894	894	885	870	850	855	881	901	916	917	904	891	880	863	882	888	893	894	888	892	892	894	901	924	924	946	924	912	899	891	891	892	902	911	915	914	909	881	862	863	871	872	877	896	908	910	902	882	876	889	889	886	879	865	865	857	866	888	902	902	891	881	891	908	926	930	920	914	904	901	904	922	925	922	908	897	892	899	894	889	880	889	898	918	917	901	877	864	855	859	871	882	879	894	916	916	897	861	857	865	872	874	883	887	884	884	884	881	885	899	900	900	886	888	903	924	922	911	906	917	921	910	895	893	885	886	893	896	886	880	885	921	941	941	927	904	890	889	890	906	915	906	904	918	944	949	926	912	910	906	912	910	911	909	909	909	908	906	901	898	889	891	902	905	901	883	879	864	878	900	918	922	905	885	890	903	913	907	896	892	888	909	919	917	904	910	923	921	911	911	910	913	913	918	920	914	892	859	832	834	862	862	883	893	893	876	862	858	858	871	876	875	871	853	842	838	838	845	856	864	880	892	901	893	866	855	845	851	883	905	910	897	877	859	854	864	870	878	888	905	902	880	855	845	856	881	878	868	867	863	876	880	880	880	878	873	869	864	860	856	849	840	834	841	850	856	875	879	886	889	880	874	870	871	873	873	857	855	856	856	858	867	867	874	869	860	838	844	854	854	842	834	830	855	864	880	887	890	885	872	855	838	834	837	837	844	831	813	784	787	796	807	808	805	814	824	827	818	803	804	815	820	820	819	804	796	804	824	836	835	813	792	786	781	797	819	855	855	853	836	813	810	818	827	828	817	816	824	830	835	834	834	828	825	824	814	799	805	813	818	818	807	793	793	782	790	802	809	806	801	796	795	784	804	804	809	804	789	784	794	807	808	801	803	803	815	829	828	820	806	799	804	809	818	818	820	816	810	802	796	785	771	766	766	794	786	796	800	809	810	808	808	810	807	814	812	802	809	809	809	812	807	795	786	783	784	786	786	781	773	764	758	759	798	798	802	813	810	803	801	787	787	768	756	751	750	754	763	763	772	780	790	792	780	780	776	778	797	815	821	816	803	786	777	767	763	769	769	767	776	777	787	787	798	803	799	797
0	0	0	864	884	882	0	0	0	0	814	786	0	0	0	0	0	0	878	892	879	879	850	822	823	837	860	876	876	880	875	860	851	854	855	855	861	874	874	861	852	852	852	861	877	878	865	865	873	873	875	874	867	857	842	837	846	860	860	879	892	884	864	844	839	843	847	859	866	837	833	834	840	839	843	843	846	855	869	872	866	867	863	858	858	858	860	867	866	867	865	858	853	851	860	860	877	884	859	848	842	838	842	852	853	866	866	865	851	837	830	831	826	835	854	861	869	858	858	852	842	846	847	852	851	856	855	847	827	820	824	824	826	832	850	868	880	882	871	868	864	860	863	859	859	869	875	875	881	886	884	870	841	814	818	833	841	844	850	848	854	864	871	879	878	878	850	847	851	870	890	902	904	898	874	861	863	882	863	867	866	869	882	885	890	890	886	886	869	884	896	898	884	876	877	888	904	917	909	889	861	855	871	894	903	893	898	909	898	871	852	844	848	861	869	863	850	850	844	847	866	876	877	872	864	872	885	906	924	927	922	910	900	886	884	894	901	894	893	892	899	894	876	871	873	884	892	889	873	867	869	883	912	926	920	911	900	892	889	879	867	866	871	875	870	868	865	868	869	869	869	876	877	880	886	879	883	896	906	913	920	927	924	920	907	899	892	892	892	890	888	886	879	896	926	940	947	940	908	889	876	886	912	932	941	925	932	930	925	917	902	901	903	913	914	911	910	907	908	908	904	884	876	868	868	881	893	878	867	846	850	864	891	910	901	884	871	872	877	884	887	881	875	868	876	888	871	875	881	883	872	858	849	854	867	874	884	900	899	887	856	834	834	834	852	871	885	885	874	859	850	854	865	875	885	885	874	856	840	837	842	851	860	869	869	874	851	841	840	841	851	883	895	897	882	871	854	848	851	851	856	864	880	893	881	850	839	843	869	869	865	856	853	857	857	872	880	872	862	857	858	851	853	846	837	837	840	854	871	881	880	883	879	875	864	846	828	813	816	828	841	844	845	859	859	871	881	879	857	839	832	841	843	830	834	830	829	837	863	879	891	889	878	857	843	834	839	839	841	823	805	784	786	794	808	810	811	807	804	820	822	814	831	836	832	832	818	798	783	785	803	814	819	808	798	797	795	799	819	836	836	833	820	796	784	798	819	818	817	825	832	829	829	829	825	827	825	817	814	809	813	821	827	821	810	795	795	791	798	817	826	817	794	785	795	784	782	782	786	788	789	789	800	811	804	796	788	788	794	808	814	806	799	799	806	807	807	809	809	810	806	801	802	799	783	771	766	767	768	779	792	790	777	765	765	767	798	815	813	806	801	805	805	810	809	799	784	785	793	793	787	774	760	753	758	759	778	778	794	800	802	802	802	793	793	773	750	746	749	753	753	761	775	789	793	789	778	778	776	783	802	815	821	821	812	798	776	762	763	763	763	768	768	769	775	775	799	806	805	792
0	835	835	860	870	868	876	870	870	835	814	786	0	0	0	0	0	0	881	895	877	877	857	843	836	840	854	859	859	866	860	862	859	871	879	879	878	874	874	855	848	843	843	855	862	864	852	847	861	866	866	868	866	858	847	835	847	861	861	878	883	878	861	851	843	847	847	859	867	849	828	828	824	838	847	847	867	871	870	867	865	855	843	835	842	842	859	866	866	858	854	845	847	854	875	875	880	875	859	848	835	837	831	826	834	833	833	831	824	820	814	815	818	829	843	852	843	834	834	828	820	831	844	843	830	833	838	835	830	829	828	831	831	833	850	868	873	865	826	825	831	849	848	852	851	857	865	865	870	872	866	850	832	813	815	832	843	840	829	839	843	858	864	870	862	862	838	834	843	861	881	892	894	882	865	852	850	861	863	867	848	848	857	869	878	874	861	866	866	873	887	892	878	856	853	846	865	877	880	872	866	864	873	888	899	901	897	901	890	872	848	837	844	861	871	868	858	846	846	846	856	860	863	853	857	865	876	893	900	916	910	907	878	860	851	854	874	883	886	889	890	884	876	871	873	873	882	876	855	850	862	891	910	919	909	897	889	880	876	875	871	879	883	874	861	853	856	854	862	862	870	876	871	866	865	868	878	890	894	895	897	906	906	907	903	903	898	904	899	898	894	886	884	900	933	942	941	930	911	886	880	889	908	925	931	930	915	903	892	887	877	877	880	890	897	901	898	898	903	905	897	879	859	847	845	855	864	867	857	846	852	869	888	894	882	876	870	864	874	888	903	883	862	842	826	837	849	854	850	845	825	818	823	837	849	859	867	871	877	869	858	831	823	823	831	856	867	874	862	855	853	855	860	876	887	892	892	873	851	841	841	846	853	849	845	836	824	841	840	841	865	889	896	887	866	854	841	838	830	832	840	854	866	872	871	845	829	831	839	841	846	844	840	835	835	837	851	851	849	850	856	851	850	841	837	837	844	854	866	866	866	869	867	858	850	838	821	802	799	807	826	837	841	851	851	871	881	874	858	839	829	836	843	830	817	809	806	822	844	868	877	875	873	856	843	837	837	837	830	814	801	800	806	820	819	821	809	801	783	778	781	802	824	836	836	836	820	794	779	774	779	789	795	797	804	807	795	799	821	824	824	822	812	788	775	778	797	807	817	826	830	820	808	808	803	806	812	810	806	800	806	815	816	807	800	800	792	797	799	808	819	825	794	785	777	770	770	769	771	781	788	801	808	809	802	791	777	777	774	783	792	789	781	783	788	797	797	797	797	793	799	808	811	808	783	783	763	768	766	765	765	774	764	761	761	758	770	806	820	802	797	797	797	797	796	789	783	789	792	792	781	766	760	753	761	773	773	783	782	781	786	798	796	796	791	770	754	765	759	767	767	773	790	801	795	791	778	778	774	783	802	818	825	825	822	816	798	783	770	770	767	763	755	759	777	777	789	803	801	783
814	814	814	831	844	849	853	840	840	809	785	756	0	0	0	0	0	0	0	901	881	881	861	856	865	864	859	859	859	851	851	843	849	862	875	875	870	876	872	855	848	824	824	837	841	848	835	828	826	837	837	844	869	870	856	834	846	857	857	870	867	864	859	853	854	861	869	869	867	849	842	823	836	845	860	875	875	872	864	849	844	833	824	812	814	814	821	845	854	844	823	826	832	845	858	858	858	851	841	831	835	843	831	817	814	821	821	822	820	818	813	825	839	841	846	832	810	799	789	789	799	813	830	825	809	806	807	825	839	837	834	831	831	834	850	866	873	854	822	811	816	832	840	840	843	842	841	849	849	848	832	827	818	813	819	834	849	857	847	851	858	860	863	857	851	842	842	838	847	866	877	880	873	869	862	855	861	853	857	853	848	848	840	845	855	859	857	861	861	868	885	887	870	847	830	839	851	867	877	876	873	865	869	884	887	883	885	887	872	856	847	830	835	846	853	874	871	862	862	857	862	863	853	847	847	860	872	872	881	889	888	874	860	842	829	828	840	863	880	885	879	874	862	855	865	873	882	876	858	855	858	884	898	887	871	868	865	865	861	861	863	873	867	843	832	832	846	856	865	876	876	877	865	858	854	865	878	888	891	891	891	896	899	903	908	905	906	912	911	909	899	886	890	902	924	935	929	924	908	894	882	875	890	908	917	904	898	880	869	861	851	854	860	864	877	887	890	889	894	902	893	874	847	835	834	847	851	849	845	846	857	863	874	870	876	865	856	852	871	887	903	899	873	851	842	830	840	848	838	827	817	812	824	846	852	845	842	840	851	854	845	834	834	825	830	845	860	860	851	841	847	852	861	878	881	880	872	863	846	837	833	829	824	816	845	836	824	836	841	853	864	876	880	868	844	832	826	832	829	829	843	848	856	861	851	842	823	813	814	821	828	834	835	835	826	828	838	837	836	839	845	845	841	837	836	842	856	857	860	849	843	850	848	843	839	837	827	806	797	808	824	831	834	834	846	860	870	867	856	841	829	836	832	823	811	806	815	832	850	852	849	829	822	825	823	832	832	834	827	812	812	822	830	832	826	821	807	783	767	769	780	794	809	822	822	821	811	798	780	768	767	783	808	819	804	807	818	819	818	818	814	811	797	777	767	763	777	791	804	814	819	815	803	803	788	781	784	785	784	787	791	801	805	797	792	792	795	801	793	798	819	825	800	779	771	771	771	767	771	777	796	805	810	806	790	781	781	766	762	768	775	762	758	765	752	755	755	766	787	800	805	807	811	808	800	800	791	764	754	759	763	769	766	766	761	756	760	785	817	799	788	788	780	778	775	770	777	782	780	780	774	766	748	745	756	778	778	792	782	775	777	787	792	792	783	767	773	776	772	767	767	771	785	805	805	794	794	778	774	781	793	808	817	817	820	820	816	801	791	791	781	770	762	764	767	767	779	796	786	765
0	802	810	810	823	837	845	828	802	802	776	734	720	0	0	0	0	0	882	886	867	855	855	862	870	877	878	874	874	863	838	814	826	848	856	856	848	848	839	829	819	824	837	810	828	832	821	814	811	815	815	833	850	864	854	837	833	849	849	859	853	839	844	855	856	856	858	858	866	863	842	835	834	839	850	864	864	860	848	832	821	809	807	799	798	798	813	838	847	830	809	806	819	827	838	836	836	833	832	837	843	843	831	829	824	832	834	834	833	831	835	842	853	852	835	811	793	800	815	815	814	820	823	809	799	795	801	816	836	848	839	827	828	828	843	863	872	854	822	812	805	802	810	823	828	823	823	827	827	822	815	806	806	813	820	833	850	860	858	856	849	846	851	849	842	844	844	849	855	859	862	860	852	857	866	867	877	876	873	860	851	844	840	845	841	851	854	848	851	851	859	861	848	827	822	831	850	865	879	879	868	846	833	840	852	874	877	872	854	844	835	826	825	835	855	878	890	884	875	875	869	864	854	844	840	848	857	857	855	859	863	858	844	829	817	818	824	846	873	878	873	863	859	854	859	866	875	868	858	855	858	876	876	869	847	835	833	853	862	866	867	866	852	824	815	826	840	855	870	876	876	876	861	850	842	850	873	887	889	889	887	891	893	906	914	913	907	907	915	915	896	893	893	903	909	905	914	917	921	905	881	871	875	893	894	892	885	870	859	853	845	840	844	856	872	882	877	877	884	895	888	868	852	842	838	835	835	830	832	839	850	847	841	847	850	855	846	840	856	877	888	881	865	857	859	853	844	834	822	807	802	808	825	840	848	844	834	826	829	833	833	828	828	833	840	853	859	856	843	834	832	844	859	858	852	856	854	837	837	843	842	829	824	816	813	814	828	835	839	834	848	857	864	858	844	834	827	824	819	823	836	851	858	856	846	840	828	806	801	808	825	836	846	846	842	837	842	838	827	827	829	834	833	829	839	848	849	852	845	837	836	838	842	840	839	837	840	839	823	815	820	818	819	819	810	827	843	850	856	841	829	811	802	813	810	810	813	828	840	840	829	820	803	795	795	795	811	826	826	825	830	836	840	834	822	813	790	768	766	777	787	791	792	792	795	797	797	801	804	798	797	802	808	819	821	817	817	815	815	815	803	789	781	769	763	758	764	774	785	797	809	813	813	803	780	771	767	774	776	772	775	787	789	788	793	793	801	799	793	798	808	810	804	795	779	770	770	772	775	792	797	805	805	791	780	775	775	773	756	749	744	762	766	759	746	748	748	765	782	791	805	807	807	804	799	799	799	776	770	764	758	756	778	778	769	759	758	785	816	794	773	773	757	752	749	754	757	767	765	780	774	754	736	741	755	780	780	795	784	776	786	788	785	785	779	767	770	771	770	767	767	767	779	801	809	794	794	775	763	770	783	798	803	803	809	814	813	805	798	798	788	774	771	759	759	759	772	777	761	753
0	780	797	797	816	826	840	831	814	814	792	768	735	0	0	0	0	0	842	852	844	843	843	853	868	885	888	886	867	867	845	826	815	816	823	817	817	816	802	799	797	798	810	810	828	806	809	805	812	817	830	830	843	854	847	831	829	838	841	841	839	823	827	841	851	845	843	843	838	842	842	835	834	824	828	836	836	837	826	815	797	796	791	791	798	815	815	834	851	828	812	809	807	806	808	809	809	816	833	847	856	858	840	829	824	839	840	840	843	849	838	838	852	841	821	800	793	811	818	818	825	828	828	810	794	793	803	817	834	844	843	830	825	825	834	850	862	858	835	812	805	824	810	805	806	809	816	816	816	815	809	804	804	808	818	834	850	859	856	836	825	827	836	837	834	839	850	850	852	856	853	845	833	844	860	870	876	883	873	863	852	843	830	829	841	842	837	832	822	822	832	836	831	819	818	826	841	865	880	873	847	820	811	821	839	862	875	871	854	842	834	830	828	830	850	874	886	877	875	875	861	847	835	831	829	833	835	844	852	853	852	849	845	843	814	811	819	837	867	873	869	861	853	849	845	859	873	875	863	853	860	876	876	869	827	819	819	859	870	875	879	867	850	818	811	819	841	857	868	870	869	869	855	842	833	840	862	878	884	882	884	888	894	904	914	907	898	903	907	906	901	892	893	885	874	873	893	905	916	907	888	877	877	880	886	879	864	846	844	847	840	845	851	860	874	878	874	875	891	904	880	866	856	847	841	829	813	809	813	832	834	828	834	839	852	864	863	840	815	824	852	859	851	849	848	843	836	824	809	800	795	801	813	828	844	854	837	828	826	816	812	812	816	825	852	871	864	853	838	824	824	836	845	834	823	809	811	818	837	843	842	839	838	836	836	835	829	813	819	827	841	848	845	849	846	840	834	825	816	819	828	838	843	850	849	842	838	822	807	806	819	836	836	846	860	861	850	836	828	822	822	819	824	825	840	843	839	833	826	824	830	840	851	845	830	829	834	836	826	815	808	805	809	809	805	808	843	850	844	832	816	800	799	807	811	808	808	814	819	822	815	806	803	792	779	779	774	783	793	796	793	801	814	816	800	793	791	776	775	775	775	777	782	782	791	787	792	793	802	800	797	802	814	817	816	817	815	817	817	803	794	777	770	768	775	768	773	772	779	786	799	804	804	793	768	753	755	763	761	759	755	764	775	779	779	787	801	799	789	776	778	791	799	795	789	789	776	768	773	786	791	792	787	788	785	783	783	776	773	770	771	767	761	756	746	746	751	766	782	791	792	787	787	788	788	786	792	785	776	771	759	755	760	760	781	791	798	809	806	787	768	768	749	734	738	739	743	767	767	765	761	750	742	744	762	777	777	790	790	786	789	788	784	784	766	760	762	760	764	764	765	767	776	801	809	798	798	779	756	755	767	777	777	787	789	787	787	786	786	780	759	743	725	709	709	715	716	725	761	753
783	775	780	780	794	810	832	836	825	825	803	800	801	783	778	778	792	812	842	852	823	830	830	847	872	886	897	881	868	868	863	843	838	818	805	796	796	789	786	778	773	776	790	790	801	806	794	805	812	821	833	833	837	837	828	824	823	821	819	819	807	805	818	837	844	837	823	823	823	826	831	834	823	824	828	815	815	820	814	802	791	784	786	794	817	832	832	845	856	858	848	827	809	796	795	800	800	814	828	838	848	849	838	833	829	839	840	833	833	841	837	829	828	825	813	797	806	821	831	837	837	841	838	811	800	800	815	817	819	818	822	828	821	821	815	815	827	844	856	846	837	824	810	807	799	808	813	816	823	823	820	811	808	813	837	853	855	856	840	824	811	817	822	827	827	830	841	841	842	837	832	829	823	834	849	852	864	873	865	852	835	825	819	822	834	842	837	814	804	807	807	812	813	808	810	820	832	852	853	841	814	797	795	802	820	853	861	862	872	871	868	857	848	843	841	832	817	808	806	814	814	830	830	823	819	821	828	839	844	841	839	843	846	844	836	824	827	835	848	856	858	859	842	827	836	847	859	861	854	841	855	869	867	857	827	819	819	856	859	867	871	867	842	828	820	827	844	856	858	864	854	854	841	834	827	841	855	866	873	876	880	883	883	892	906	904	898	898	895	891	889	880	878	869	852	841	868	896	907	908	898	880	876	874	871	855	836	823	828	842	853	857	857	860	869	863	859	860	884	882	878	859	860	854	842	821	808	805	814	822	826	825	822	841	856	872	872	847	812	794	801	812	819	824	829	825	807	803	804	810	812	813	822	834	844	832	838	831	825	810	799	799	802	827	860	879	871	852	829	820	822	832	837	822	823	809	811	818	831	847	853	854	858	856	849	835	821	808	813	828	839	847	847	846	847	842	833	823	816	809	815	819	834	846	849	841	834	816	806	792	794	804	804	821	844	861	858	847	832	814	804	804	808	824	829	829	821	814	814	826	850	862	852	837	818	810	829	833	823	818	804	796	796	797	805	808	822	833	835	829	820	809	799	803	808	808	803	800	808	813	811	811	806	794	794	787	795	794	786	781	781	790	807	817	814	802	801	802	777	764	767	767	774	774	775	777	775	779	783	800	798	804	803	806	807	807	809	804	804	794	783	769	760	766	774	779	781	780	776	781	783	786	786	774	764	755	748	752	750	741	730	732	746	752	752	787	789	779	768	752	756	775	791	797	786	786	769	760	769	771	774	775	785	789	795	795	792	782	778	776	776	765	751	742	749	749	751	766	774	775	771	772	769	769	769	770	777	777	778	768	765	764	764	769	776	780	783	784	787	783	783	769	756	745	740	739	743	750	750	752	755	751	745	741	759	759	771	779	791	786	783	781	781	774	763	758	761	757	769	769	774	767	776	788	797	794	794	773	745	734	739	762	762	769	769	771	764	756	756	749	734	719	707	708	708	709	716	725	735	748
795	768	761	761	770	803	827	841	827	827	810	808	813	801	777	769	769	782	805	813	823	830	831	847	859	874	868	855	857	857	855	857	849	825	809	796	796	784	774	770	768	766	773	773	783	786	794	805	831	838	838	838	834	821	816	819	828	825	813	813	812	808	829	850	852	848	831	821	821	827	831	834	824	812	808	815	820	807	807	794	777	780	790	801	815	828	828	833	842	853	857	837	811	782	775	786	801	801	815	820	819	819	823	828	823	827	827	833	833	826	825	813	805	800	792	802	814	824	832	845	845	854	827	809	811	817	814	810	806	809	803	791	770	768	768	780	798	825	843	850	850	843	824	807	799	803	803	805	815	815	818	819	817	834	842	852	846	838	820	811	811	817	818	816	811	814	819	815	815	813	809	798	799	820	828	828	827	831	826	822	814	806	807	814	825	826	823	814	804	796	796	793	787	793	799	808	817	825	825	814	804	790	792	803	825	838	834	819	815	828	842	853	843	834	832	824	806	785	774	801	819	819	826	832	839	838	838	838	837	834	828	833	844	846	844	836	837	837	831	843	848	854	837	817	818	837	849	855	847	839	848	858	863	848	839	826	838	856	859	867	871	845	845	841	848	849	851	855	856	853	829	820	820	806	812	822	837	850	864	877	880	875	870	873	880	885	885	872	869	866	862	866	858	848	834	829	848	872	893	902	902	882	871	863	853	829	821	815	823	837	853	856	860	853	852	846	841	832	847	868	853	854	863	863	848	825	810	803	804	818	817	817	824	832	843	857	864	831	805	806	805	800	805	810	819	823	815	811	811	817	810	811	812	808	812	820	827	838	829	809	809	793	794	814	843	863	860	848	829	820	819	832	837	822	802	795	795	813	833	854	864	841	838	841	840	832	825	818	820	825	833	843	847	843	833	827	823	811	801	802	809	813	826	845	846	823	809	800	799	797	768	768	771	798	827	840	840	828	809	791	785	785	800	810	815	809	792	790	808	833	847	846	840	823	806	801	804	825	826	817	802	797	796	797	805	806	811	821	827	826	824	813	805	802	808	804	801	794	803	810	817	811	806	803	803	808	812	805	787	775	779	792	809	820	817	806	808	813	784	765	757	762	762	760	759	752	754	779	783	783	788	787	793	795	791	793	791	785	785	768	765	761	750	755	769	779	782	781	775	770	772	772	775	776	769	759	750	740	734	726	716	725	739	752	752	751	762	758	744	743	747	768	779	782	778	778	761	752	757	759	764	763	774	791	796	796	789	782	777	779	781	771	755	748	749	749	759	768	764	760	762	762	758	755	755	760	760	764	762	769	775	778	778	780	780	777	779	782	783	782	782	775	768	745	740	736	736	742	742	751	749	746	735	734	745	745	754	768	778	784	781	768	768	762	758	756	756	758	766	769	774	776	778	775	771	771	764	748	726	723	733	755	755	774	771	764	755	747	747	738	700	688	701	722	708	709	719	729	740	758
813	782	774	785	785	815	836	840	827	810	810	799	796	788	769	747	747	758	777	798	810	831	847	847	842	845	834	834	834	834	834	846	840	842	825	815	815	795	787	780	779	783	779	767	767	776	798	814	831	838	840	840	804	790	797	808	821	817	813	814	814	817	825	841	854	853	835	829	829	837	838	831	824	819	804	800	807	807	807	783	783	787	793	804	818	825	827	827	835	842	839	828	803	774	760	769	787	787	807	810	808	807	816	812	815	811	815	827	827	826	806	793	780	779	794	800	797	792	778	772	772	779	790	802	810	806	804	802	806	808	804	787	769	767	767	779	793	805	835	850	859	851	830	812	805	803	803	788	797	801	801	811	824	835	841	843	829	816	798	797	807	819	818	807	798	799	805	807	807	801	789	781	791	815	823	824	815	814	816	824	829	827	826	818	818	817	809	807	799	796	793	793	781	788	798	804	808	812	812	807	798	793	803	820	833	834	821	801	801	812	819	830	829	824	825	817	808	790	778	795	813	813	823	831	842	844	844	839	828	819	820	826	844	853	846	845	842	832	823	827	841	863	841	800	793	796	817	835	840	846	852	857	856	855	853	849	843	843	847	846	844	845	845	841	848	857	851	857	850	832	829	812	812	796	789	792	813	838	861	880	884	870	851	849	854	866	865	854	854	850	847	844	844	831	819	824	840	858	870	885	880	882	862	854	850	835	821	826	828	840	849	858	854	844	834	834	823	826	832	836	850	860	867	866	850	831	818	814	807	811	808	810	811	821	816	817	817	820	818	823	829	836	836	834	834	837	834	829	820	813	810	814	812	811	805	807	829	841	830	827	827	831	836	828	827	832	831	848	829	820	819	823	825	812	803	806	803	813	832	840	827	820	827	831	833	831	826	821	823	824	827	837	831	807	808	813	803	788	785	785	794	798	799	811	809	803	797	789	787	792	777	777	773	785	804	818	817	810	798	787	777	779	791	803	798	784	777	787	806	826	827	829	824	806	796	792	792	808	813	812	802	802	797	798	804	808	809	809	815	814	812	802	798	800	815	815	799	789	793	810	814	816	813	818	818	816	813	798	778	769	777	790	801	807	813	810	816	804	778	761	758	761	761	755	739	752	754	759	760	757	761	770	773	778	782	780	779	779	770	763	756	750	745	745	754	768	781	783	773	768	771	771	774	774	771	760	751	749	738	728	725	725	739	739	748	748	738	739	739	744	753	758	763	762	762	754	747	740	747	751	758	761	764	774	780	780	777	774	765	765	768	770	762	748	748	743	745	739	744	755	758	756	749	749	748	752	756	758	759	771	779	782	782	781	782	781	787	787	782	772	772	775	768	760	751	742	743	741	741	753	749	743	729	724	731	731	746	757	771	770	761	748	748	744	743	748	751	758	766	766	772	766	758	759	748	748	736	729	720	727	736	760	760	782	778	766	759	756	756	753	744	750	701	722	722	725	723	733	753	753
813	805	793	799	799	825	835	849	836	828	828	797	788	780	774	741	741	735	756	795	808	815	828	828	842	845	828	828	820	813	813	807	819	838	834	819	790	790	782	797	805	800	782	777	777	789	811	832	857	858	840	804	787	764	769	784	796	807	809	811	811	817	817	838	849	833	822	819	819	821	824	822	825	830	818	803	802	802	796	783	783	792	798	807	822	823	827	827	828	829	818	809	789	778	761	766	787	787	805	816	808	801	808	810	814	822	821	817	809	809	806	793	799	804	803	798	796	788	773	766	770	770	783	796	796	798	798	800	805	803	802	792	775	769	776	776	788	797	815	842	852	838	830	813	801	791	781	788	786	800	800	811	826	829	824	813	800	777	773	787	802	817	816	801	790	787	795	797	797	793	780	774	798	820	830	827	819	819	825	837	842	838	828	817	810	806	799	805	801	791	782	782	781	788	810	814	813	802	790	783	785	789	814	838	845	829	812	802	797	800	807	811	809	809	815	815	811	806	806	808	806	808	808	809	808	827	835	830	818	808	811	827	842	850	850	849	835	826	822	827	838	834	825	783	739	732	753	790	821	832	840	842	852	849	849	837	833	829	823	829	831	834	841	845	852	857	851	857	850	838	825	811	796	796	794	786	804	824	851	877	882	870	848	837	835	838	838	838	842	845	840	825	824	815	817	829	842	849	855	864	864	845	843	839	838	845	861	864	850	848	845	851	848	840	830	830	831	832	833	839	857	865	866	855	838	826	823	832	830	812	803	803	808	808	798	786	801	823	832	839	845	846	844	841	845	847	852	845	830	817	813	818	824	826	828	827	824	806	793	793	802	804	799	828	827	832	831	836	826	816	812	816	807	804	808	808	808	817	822	828	810	804	807	810	812	821	830	829	824	825	823	807	787	779	792	798	794	778	775	781	783	775	768	769	788	796	793	792	788	783	783	782	780	787	803	809	808	801	789	782	773	777	792	798	797	781	777	785	802	802	806	811	801	796	787	779	784	799	813	812	800	800	798	802	811	808	808	801	798	794	793	791	794	795	798	802	799	792	796	815	825	826	814	814	809	818	803	777	759	752	760	764	765	762	770	784	792	782	775	769	762	762	764	755	739	734	741	746	742	736	742	748	749	756	766	771	771	771	766	751	747	742	743	747	752	764	774	779	774	771	771	771	772	772	766	754	750	753	751	728	725	732	747	747	749	744	742	738	745	750	753	760	761	759	759	750	739	734	739	746	753	754	755	757	757	755	743	735	729	727	738	770	762	761	761	758	759	753	751	753	755	752	744	744	735	736	741	751	759	768	777	776	776	772	765	764	767	768	764	772	772	772	770	769	759	753	756	756	754	752	747	740	733	729	734	734	749	762	764	766	751	737	737	732	735	748	751	751	751	758	761	746	735	729	727	727	723	716	718	732	745	745	765	764	761	755	765	765	784	790	744	750	767	767	773	765	737	723	737	737
827	805	793	821	821	818	828	839	844	834	834	808	786	776	771	757	741	741	747	771	777	786	807	807	822	822	828	828	820	793	793	783	798	815	819	806	783	783	778	797	789	780	773	775	775	787	806	828	854	864	834	787	787	764	753	763	770	780	796	804	804	812	815	833	830	813	799	793	798	798	794	805	818	833	830	813	799	781	781	780	780	792	805	816	816	818	817	817	817	807	798	797	791	787	780	778	787	803	803	818	806	792	797	805	809	812	811	808	802	802	798	797	799	804	799	791	795	793	772	761	765	765	775	787	795	795	789	786	795	795	795	790	782	776	775	775	776	777	782	793	797	791	796	793	790	785	775	780	786	800	810	810	818	821	812	800	783	776	779	794	792	788	782	781	781	783	783	787	790	790	791	802	818	834	845	845	840	833	832	842	851	849	824	806	800	801	796	802	803	800	792	789	789	800	810	814	810	792	776	760	765	787	816	839	839	826	813	804	799	798	801	805	796	793	810	814	815	815	823	829	821	816	816	816	813	824	838	837	830	821	816	824	838	848	854	844	833	830	832	834	833	823	811	779	738	735	750	780	807	829	837	845	849	847	840	829	820	811	813	820	828	826	829	838	845	852	851	858	848	838	825	811	796	797	800	800	812	814	835	852	860	863	852	835	823	811	799	805	817	823	820	810	812	820	826	832	833	824	824	817	816	821	822	827	833	843	858	861	857	849	847	848	847	844	836	834	839	842	843	839	842	845	831	812	808	800	809	824	827	819	808	801	802	795	780	783	798	815	826	838	848	852	848	839	844	852	859	853	842	827	820	820	826	827	827	824	809	799	792	793	802	804	799	790	804	818	826	821	808	809	808	803	796	799	803	809	814	812	800	801	808	813	818	814	810	804	805	816	831	845	845	827	798	772	774	790	803	795	773	770	772	753	749	753	770	792	796	792	785	785	780	785	790	797	806	806	800	793	780	770	767	775	791	806	808	794	778	774	776	791	784	783	790	790	785	779	784	799	800	800	800	795	787	791	796	801	805	793	792	783	775	775	780	776	777	787	792	796	802	822	836	832	811	811	802	797	776	767	748	741	745	748	751	748	759	766	774	776	777	779	774	762	764	751	732	732	742	750	753	750	755	750	747	748	757	764	769	769	765	753	749	747	748	754	755	755	764	771	771	767	767	766	766	769	759	745	743	753	751	750	753	761	765	765	761	753	745	742	755	761	759	760	767	766	766	752	740	732	742	747	743	742	741	745	745	752	745	740	700	727	738	754	772	788	788	797	791	772	747	748	749	752	739	739	729	731	733	729	725	725	737	737	749	757	746	737	738	768	764	764	759	758	767	769	768	769	772	772	766	756	747	741	731	731	731	743	755	760	762	762	747	747	741	739	735	739	744	740	740	745	748	746	738	728	724	724	718	717	715	727	732	732	723	717	723	734	755	755	784	790	774	769	771	771	774	759	750	743	750	750
825	817	822	821	821	819	823	825	832	828	828	808	781	780	777	762	750	750	736	737	750	757	780	780	806	827	834	834	820	793	782	760	772	789	797	794	781	781	775	775	761	757	768	776	784	784	795	816	834	834	809	779	779	756	753	763	752	766	775	794	794	816	826	824	812	791	783	777	772	772	775	790	808	835	834	812	790	772	772	769	782	795	805	816	802	798	794	798	798	792	790	793	806	807	798	791	789	803	803	803	788	786	788	792	799	805	797	794	786	786	787	795	807	803	799	791	791	797	794	769	761	762	762	766	781	780	760	753	759	773	785	787	789	790	782	782	773	768	774	778	780	776	777	780	778	778	775	786	791	801	810	810	789	797	800	795	784	776	789	798	800	790	782	781	778	776	780	790	803	803	814	824	831	843	863	871	861	845	833	833	843	841	823	800	794	795	806	802	800	805	808	809	809	818	823	820	810	792	759	751	751	763	795	822	820	813	803	791	789	791	795	797	791	787	783	788	802	815	831	841	841	833	834	834	838	843	847	848	838	830	825	821	827	843	849	843	838	837	837	838	830	804	798	793	770	753	764	784	801	825	835	843	846	845	839	827	815	811	809	815	818	813	812	821	833	856	877	873	856	837	822	813	797	800	800	800	812	814	805	818	839	855	847	832	816	805	804	796	786	781	787	791	792	796	812	818	809	798	788	796	804	812	820	819	828	838	843	847	838	830	829	830	839	843	840	836	834	832	833	833	824	807	784	771	767	787	799	811	819	813	808	804	803	795	788	784	794	806	803	805	816	820	833	832	839	844	845	846	827	812	802	807	814	826	827	824	809	799	799	792	797	796	787	782	785	804	813	812	806	802	797	796	792	786	793	799	813	811	790	773	779	790	801	803	796	782	792	813	828	837	834	824	805	784	773	771	772	772	756	751	749	750	750	755	770	789	791	787	775	775	779	783	795	799	797	793	786	775	762	761	757	772	791	804	804	784	772	766	768	777	777	774	783	782	785	779	784	793	798	792	792	785	776	782	788	791	788	786	782	775	770	768	768	762	759	775	791	804	810	820	835	829	829	806	783	768	759	759	748	740	742	742	740	737	744	749	757	768	772	779	774	774	769	750	732	729	735	747	757	760	760	750	740	737	748	751	751	754	764	761	764	758	752	747	742	738	746	755	757	751	751	752	759	758	752	739	743	749	757	758	760	771	771	772	768	760	751	750	752	759	764	759	758	758	745	740	732	727	736	741	738	735	735	739	739	752	751	740	700	683	691	719	779	779	793	798	787	759	716	721	735	733	733	735	733	732	731	727	715	716	732	732	747	754	746	737	738	747	751	751	746	741	745	756	764	774	786	786	776	767	756	739	728	730	730	737	742	749	754	753	749	749	741	739	739	740	740	742	742	743	748	748	742	736	736	730	726	723	720	723	724	724	715	711	718	728	755	755	770	781	776	759	761	761	758	759	750	749	749	749
807	817	835	836	819	819	823	804	801	801	786	786	778	781	781	782	760	760	733	736	744	756	775	802	802	827	840	834	812	782	782	761	771	781	789	791	779	779	777	766	757	763	769	779	783	783	792	797	798	789	793	783	764	764	750	746	752	766	772	792	805	805	819	810	799	787	781	778	766	766	761	777	808	823	823	811	792	777	777	769	784	796	806	807	802	798	782	782	782	786	782	787	801	807	802	796	792	798	798	786	773	764	767	789	792	789	778	766	765	769	769	784	805	802	792	787	791	797	794	787	772	764	764	768	767	766	758	756	762	775	787	795	796	796	791	781	781	773	771	770	774	774	778	768	762	762	773	786	780	784	788	788	789	797	790	793	784	778	786	785	787	782	785	790	790	774	750	756	768	785	785	795	798	820	851	867	854	832	816	810	818	823	824	813	798	797	800	800	798	805	815	828	832	832	837	825	803	780	759	751	749	763	780	797	803	795	787	779	784	787	792	784	780	773	778	775	783	802	821	834	844	855	862	862	863	857	859	853	838	837	838	824	822	836	842	838	830	827	828	820	791	783	785	795	804	808	808	797	794	811	825	836	839	844	840	834	820	819	820	815	809	797	794	801	813	840	861	857	841	827	814	804	800	803	803	804	808	802	805	818	839	855	847	832	809	808	800	790	783	785	803	808	806	797	787	782	785	781	779	791	807	812	814	818	817	828	831	830	821	813	812	817	826	834	829	823	815	817	821	821	816	801	785	783	781	793	804	811	813	806	808	811	812	808	799	793	787	784	774	773	780	786	803	810	818	822	817	809	827	812	802	807	814	826	825	817	795	778	778	776	790	786	778	773	781	796	803	802	797	795	791	794	794	788	788	791	803	798	780	767	768	776	796	793	786	781	789	806	821	832	830	824	803	785	784	771	768	770	756	756	754	755	754	760	775	780	790	785	785	771	774	781	789	787	775	774	765	757	753	753	757	767	791	804	798	780	765	760	751	761	766	775	783	782	770	766	770	781	788	788	783	769	768	772	773	778	776	773	771	764	757	759	762	753	752	767	792	805	799	806	808	808	808	790	765	753	756	756	751	748	750	749	733	731	737	744	752	768	772	781	781	788	781	761	740	722	721	721	733	745	745	744	737	733	735	731	731	729	737	763	770	763	748	728	721	729	737	743	743	743	740	740	744	741	752	739	736	746	754	758	764	773	773	781	778	769	757	751	754	757	754	739	730	730	730	728	720	715	726	742	743	736	729	729	721	752	751	731	697	685	704	737	770	770	791	790	779	760	733	724	736	741	741	739	734	731	723	717	710	721	728	728	743	752	746	737	735	739	738	738	729	726	733	743	763	779	779	785	782	767	749	732	721	716	716	712	708	730	738	744	749	749	744	746	747	745	736	740	740	744	748	750	746	744	744	738	733	729	725	721	721	722	718	721	718	728	738	738	751	760	758	742	738	738	742	747	748	746	746	744
