338	344	349	342	336	336	326	322	323	342	343	343	344	341	340	345	350	350	352	354	346	337	331	324	324	325	338	337	333	333	331	331	330	326	325	337	341	342	342	336	331	334	338	340	341	341	340	344	351	352	346	340	338	339	342	347	335	329	326	325	325	328	328	329	334	339	336	329	332	332	333	330	325	323	329	336	334	334	341	344	344	341	334	327	324	327	329	329	332	336	338	339	339	337	334	325	319	319	326	327	326	333	329	323	322	325	322	322	323	321	325	328	332	333	332	335	343	344	348	348	345	339	339	338	338	338	340	335	334	328	324	328	328	330	327	325	326	324	327	332	336	340	340	336	332	329	329	336	346	345	336	333	332	331	332	334	331	332	335	335	340	335	335	336	337	339	343	349	344	340	343	345	354	359	358	355	350	349	345	349	353	358	358	360	353	348	351	352	361	359	356	353	351	353	355	357	358	358	356	358	360	367	370	370	378	369	363	356	352	357	361	368	361	361	357	352	352	353	354	357	356	353	352	351	351	355	358	362	362	360	361	359	360	364	363	353	352	352	353	353	350	350	349	347	340	342	342	343	343	347	354	351	352	351	359	359	358	358	359	357	349	348	353	357	365	363	357	357	355	355	355	355	358	359	359	364	364	360	358	355	352	351	353	359	359	361	370	370	368	367	366	361	349	347	345	345	359	361	358	357	357	354	354	361	361	360	357	354	356	361	365	366	366	362	363	361	362	362	364	365	364	359	364	367	364	365	365	360	356	355	355	355	354	359	354	355	353	353	351	343	347	348	350	351	353	355	359	365	365	353	352	354	357	356	362	363	366	368	366	362	356	359	364	366	368	354	353	363	364	360	359	354	354	347	347	350	349	346	340	340	345	345	347	347	345	344	366	370	358	357	349	348	345	355	355	355	353	353	352	346	343	339	335	337	337	330	325	327	336	341	344	339	338	338	340	338	337	337	336	336	335	324	341	339	331	315	315	331	341	342	343	344	345	342	346	347	347	341	335	339	339	340	347	346	349	347	346	348	343	342	342	342	345	347	348	344	339	334	335	336	340	344	343	347	342	337	333	320	332	332	335	337	337	336	332	333	332	330	331	328	324	326	331	332	333	333	330	327	322	321	321	326	319	319	318	320	323	326	323	319	319	318	319	324	328	325	324	321	314	312	316	310	310	320	319	319	316	316	314	315	317	325	327	328	328	329	327	321	319	319	320	322	321	319	315	315	315	315	316	317	318	319	320	320	321	321	317	317	317	312	313	315	316	316	316	324	322	319	316	320	316	313	311	311	316	316	318	322	327	324	319	319	320	317	315	305	309	313	313	315	309	312	313	318	317	316	316	317	316	312	310	311	316	312	312	311	312	310	312	316	317	317	315	312	309	310	311	311	315	315	315	313	312	316	316	317	312	311	315	321	321	324	318	315	311	309	309	310	310	303	297	304	304	305	307	309	310	310	310	302
333	338	343	341	338	338	333	328	339	342	343	338	336	330	335	344	353	351	351	340	341	341	339	340	340	340	336	333	328	328	331	331	328	324	338	344	344	343	343	342	331	332	332	334	335	335	338	341	347	348	342	338	339	339	338	337	329	326	324	322	323	323	326	326	328	329	331	333	338	338	331	329	325	330	329	328	334	341	335	339	339	336	329	326	323	324	328	328	330	332	335	333	336	334	332	328	324	324	322	323	328	331	329	323	326	326	323	324	324	324	325	324	331	332	333	336	343	345	349	349	348	344	334	326	327	328	334	333	326	326	324	328	325	321	319	322	326	331	339	343	340	328	324	320	320	324	332	332	341	342	344	333	329	329	326	327	328	332	335	338	337	343	336	336	337	339	341	345	339	339	342	348	359	355	349	348	351	346	344	348	353	358	358	360	352	348	348	348	355	354	352	351	350	351	354	357	362	360	354	352	355	353	359	362	369	363	363	353	351	353	354	349	348	348	347	349	350	348	351	352	349	349	350	350	351	352	354	358	358	356	356	354	353	351	350	348	351	351	345	343	344	344	347	344	345	346	346	345	341	342	350	346	346	351	356	355	356	357	357	352	342	344	348	353	357	353	351	353	348	352	354	354	356	360	359	364	364	360	358	355	352	351	354	356	360	360	365	367	367	365	361	354	354	351	347	349	355	355	360	356	357	355	356	358	357	354	352	350	354	356	353	355	353	353	351	359	361	364	365	369	371	368	359	354	355	357	358	356	355	356	356	355	357	360	358	350	347	348	352	352	352	355	354	346	344	343	351	351	348	342	338	354	357	356	362	363	366	360	354	352	353	354	352	353	355	350	358	365	359	360	359	359	352	345	354	350	349	348	345	341	346	351	349	342	339	343	348	351	356	345	342	344	352	346	346	350	348	346	346	338	334	332	336	337	336	331	327	328	336	340	344	338	339	341	342	341	334	337	337	334	326	329	336	339	331	315	315	328	337	339	341	340	341	342	342	345	342	343	340	336	341	345	350	350	349	345	351	351	343	343	342	340	341	345	345	344	335	332	329	334	335	340	340	340	343	335	333	320	317	317	323	327	326	325	326	327	332	332	325	325	324	325	330	331	331	331	325	321	319	318	324	334	320	319	318	319	322	324	321	323	319	316	314	318	323	324	324	322	316	312	314	309	309	318	320	315	314	313	312	314	316	321	325	326	326	327	326	324	319	319	323	323	320	318	318	313	312	309	309	314	316	319	317	319	319	318	315	315	317	312	312	309	307	316	316	314	306	311	316	319	315	311	311	306	313	317	317	318	323	318	313	313	313	311	309	304	308	313	313	313	314	308	307	311	313	311	311	308	310	305	307	315	314	314	311	312	310	310	315	316	316	317	315	311	310	310	313	313	315	318	314	313	311	311	314	314	313	312	312	312	321	324	319	317	315	311	311	307	304	300	298	306	306	307	312	314	317	317	317	309
315	317	327	335	338	333	333	336	335	337	338	336	336	342	339	339	342	336	336	324	325	325	323	326	330	330	328	326	325	325	328	328	328	324	345	344	343	343	343	344	340	329	326	328	332	332	334	339	341	342	338	333	334	334	338	337	324	324	319	318	320	320	323	322	326	329	330	328	327	327	334	336	338	333	330	327	331	335	335	339	326	332	330	328	325	322	327	331	331	332	333	330	331	327	323	319	317	317	322	322	325	326	327	323	326	326	323	327	327	323	322	326	327	332	334	337	343	354	339	332	332	325	324	322	327	328	335	335	339	332	330	325	321	321	322	321	327	335	344	345	339	328	322	322	326	328	333	333	333	331	333	332	331	329	326	326	335	337	337	336	337	333	335	335	337	341	341	345	335	332	332	337	349	350	349	346	346	348	345	350	353	356	354	354	350	346	346	352	349	352	351	349	351	351	353	359	361	359	352	352	353	351	350	349	355	354	354	353	351	353	346	348	349	349	347	351	352	350	348	347	346	345	344	349	350	350	352	355	355	355	351	350	349	347	349	345	344	342	342	343	345	340	341	341	343	345	345	339	335	341	347	346	342	339	344	346	350	357	354	347	339	342	346	347	350	347	347	348	346	345	353	352	353	355	361	361	361	356	354	352	350	351	354	356	360	360	365	367	362	360	353	353	352	349	348	347	347	352	354	359	361	356	354	355	344	343	348	350	348	342	337	338	344	344	342	344	354	365	367	367	368	364	362	358	354	351	355	360	361	361	360	358	348	349	349	349	347	346	349	353	353	352	350	346	344	343	351	351	348	342	338	343	348	350	360	358	361	358	352	350	350	353	351	354	353	352	352	352	353	357	357	358	362	360	358	359	351	349	346	345	348	348	349	345	340	344	349	354	350	340	341	340	343	349	349	348	348	349	340	338	332	332	336	334	334	337	340	339	341	347	343	336	341	341	338	339	336	331	331	326	328	324	336	339	334	334	328	332	332	339	339	341	340	339	339	341	343	339	340	338	341	350	347	347	347	350	351	345	344	344	339	335	334	335	335	335	335	331	327	325	328	333	330	330	343	335	331	321	321	319	322	327	325	324	324	326	330	324	324	325	325	325	325	325	325	325	325	319	321	319	323	329	331	320	318	319	319	324	321	321	317	314	312	312	319	321	322	324	323	322	315	314	314	317	316	310	312	311	311	309	308	311	316	316	321	322	326	324	321	319	320	315	313	312	312	314	314	308	306	308	310	311	314	323	323	315	309	310	312	309	304	309	307	307	306	306	311	307	314	316	316	304	304	303	303	315	317	317	323	311	311	311	310	309	308	304	308	308	308	309	307	304	305	306	304	305	305	307	306	310	313	313	315	315	314	312	312	310	315	316	316	315	315	311	308	310	312	312	314	316	314	312	308	308	308	309	311	311	312	312	312	311	312	311	310	310	310	311	303	301	300	300	307	308	313	313	314	314	317	309
314	315	315	330	336	334	334	327	326	331	341	343	343	342	339	334	324	320	320	320	320	320	319	323	321	321	325	327	331	330	331	332	332	342	345	344	341	340	340	340	336	331	326	328	330	332	332	332	332	330	329	328	328	328	331	328	324	324	314	314	317	317	319	320	323	326	331	327	326	332	332	335	339	334	330	328	329	330	324	324	326	332	330	329	327	322	319	327	327	331	331	327	324	323	317	313	314	320	320	324	325	324	323	322	323	323	323	327	323	323	322	325	327	328	333	335	337	337	335	328	328	322	319	324	324	329	328	329	334	326	325	323	322	322	322	321	323	319	321	323	323	331	327	326	325	330	327	326	326	326	327	330	330	330	327	328	333	335	339	336	331	334	332	333	333	338	344	339	335	332	334	337	344	348	352	349	350	350	344	342	346	350	346	346	346	344	345	344	348	349	339	338	343	348	354	359	360	359	353	353	353	349	349	350	350	349	352	352	351	348	346	348	349	349	351	352	356	357	349	342	340	341	342	346	350	350	350	351	350	349	349	349	347	346	347	345	346	343	346	346	347	342	341	341	339	339	339	340	341	341	341	345	339	335	341	344	347	351	346	344	344	344	348	343	344	345	345	345	346	347	350	350	350	353	357	359	356	350	347	348	348	352	353	355	358	358	360	364	362	360	353	353	352	349	348	347	347	352	354	359	353	352	350	346	342	337	337	342	345	339	341	343	338	332	336	336	345	356	365	364	360	354	350	348	353	355	360	361	361	359	355	354	348	349	349	349	347	346	349	353	353	352	350	345	342	344	344	345	345	343	343	341	341	339	347	361	361	359	354	354	355	358	355	354	349	344	342	342	345	354	356	359	358	361	359	358	352	348	340	339	336	336	337	338	337	342	343	341	335	336	333	336	339	339	338	347	346	348	344	337	333	334	337	340	344	340	337	335	333	334	336	337	337	337	337	340	331	329	330	326	328	324	325	333	322	322	326	333	332	337	340	340	340	337	337	340	340	336	338	333	335	341	343	347	344	340	342	344	344	339	338	338	340	335	332	330	328	327	323	321	323	327	330	330	333	332	330	328	328	326	326	326	323	320	322	324	324	322	322	323	322	320	322	320	320	320	322	323	321	316	318	323	326	325	323	319	319	320	320	316	315	312	311	310	312	319	313	315	318	317	317	317	319	319	310	314	313	311	308	309	310	311	313	313	321	322	320	315	307	305	314	309	309	309	312	313	313	311	309	302	302	307	312	312	313	312	310	309	309	306	304	300	298	298	306	306	308	310	310	309	309	311	311	311	305	310	316	309	304	304	304	306	307	309	308	304	303	308	308	304	303	303	306	307	305	305	307	305	303	307	309	310	312	312	312	312	312	311	314	315	315	315	314	309	308	309	309	308	312	312	312	309	307	307	306	307	311	311	311	311	309	304	303	302	300	300	310	313	307	304	310	310	310	303	306	307	314	314	312	309
316	320	328	331	329	325	325	326	326	328	342	345	345	341	338	334	324	316	313	313	316	322	323	321	323	323	325	321	324	326	329	339	339	342	342	341	341	340	334	334	333	330	331	331	330	330	330	329	330	330	326	319	314	313	313	314	314	315	314	314	313	312	312	317	320	321	328	333	329	329	329	331	333	333	330	329	328	325	310	310	323	327	330	329	326	322	316	316	316	320	321	323	323	317	312	311	318	331	331	326	323	323	322	318	317	318	322	324	323	330	325	322	320	318	320	326	333	334	329	330	328	328	328	326	324	323	320	319	324	327	327	327	324	323	323	326	323	319	320	322	328	323	323	324	327	327	327	326	326	325	326	331	331	331	327	331	333	336	335	343	337	336	333	328	328	333	339	334	336	332	334	337	342	354	356	356	351	346	340	338	339	341	345	346	346	347	348	345	344	340	336	337	340	343	349	355	358	356	353	354	353	352	352	348	349	348	350	348	348	344	345	347	349	349	351	354	357	355	349	342	338	338	339	348	350	350	346	347	345	345	348	349	347	345	345	345	344	345	342	342	343	341	341	341	337	337	339	340	337	339	342	342	336	335	339	339	340	341	343	341	338	342	351	354	351	342	343	347	357	357	356	352	348	349	353	350	344	343	341	347	349	348	342	347	354	349	349	357	359	354	351	349	350	347	339	339	345	351	358	359	353	352	350	346	342	337	337	342	345	339	341	343	338	332	336	336	345	356	365	364	360	354	350	348	353	355	360	361	361	359	355	354	348	346	347	349	348	344	344	344	344	348	347	351	344	339	339	345	345	347	344	339	338	343	341	343	354	355	347	349	353	355	362	362	354	342	340	341	344	349	341	330	331	345	347	342	342	338	337	336	336	335	337	335	336	337	341	339	338	335	334	335	333	333	332	335	335	336	338	337	337	346	348	351	347	342	337	336	336	339	338	337	336	337	337	337	331	329	330	332	325	326	328	325	325	332	333	332	335	337	339	339	337	336	338	340	340	329	327	334	332	332	334	336	322	321	326	339	339	340	338	339	337	334	332	334	333	333	328	327	323	327	327	326	332	328	324	324	323	326	326	328	321	319	320	322	320	321	320	319	318	316	317	317	317	318	320	322	322	316	317	322	322	325	323	317	316	315	315	312	311	311	310	310	309	310	315	315	310	309	303	303	317	315	314	315	315	312	309	305	307	309	311	313	318	315	314	309	303	311	308	307	309	309	308	310	311	310	310	308	307	303	309	309	311	310	307	306	309	306	303	298	298	298	303	305	307	309	310	307	308	308	310	311	311	311	311	305	301	300	300	306	307	316	314	311	309	307	307	303	303	303	306	311	309	309	309	309	302	302	307	310	310	312	312	311	311	310	311	311	310	312	311	308	307	303	303	306	307	310	309	307	306	306	306	307	309	310	311	311	306	308	307	303	303	303	301	315	311	305	304	304	300	301	306	307	307	306	305	310
323	323	325	327	324	324	323	323	324	327	332	343	341	341	340	332	325	316	313	309	314	316	320	326	326	326	322	320	322	323	325	330	330	331	334	334	336	337	334	334	331	333	336	333	332	328	328	331	337	334	330	324	323	322	322	325	319	316	315	313	313	312	311	313	309	315	320	328	331	331	331	331	331	325	325	327	329	326	310	310	323	333	331	329	326	317	315	314	314	314	317	323	324	323	324	328	329	332	326	326	327	324	322	317	318	317	319	327	330	330	325	319	315	314	319	324	326	329	328	333	329	329	325	321	319	317	319	324	324	327	327	327	319	316	316	315	311	318	320	322	329	329	323	324	326	328	331	327	327	324	328	332	333	331	328	327	332	331	340	340	333	333	321	322	328	328	340	336	339	339	337	338	342	354	353	347	340	335	336	336	338	339	344	346	346	349	350	346	344	340	337	337	340	344	347	354	355	354	352	353	353	354	349	350	350	347	344	341	341	340	343	339	342	346	351	354	357	355	351	349	339	338	338	339	346	347	345	342	342	344	345	350	349	346	342	341	340	340	341	343	343	344	339	334	332	330	329	329	331	337	341	341	338	335	336	336	336	338	333	336	335	338	345	346	351	352	351	354	360	363	358	352	344	340	335	338	344	345	348	349	346	340	337	336	342	348	348	357	356	354	351	347	345	340	341	343	351	357	359	353	348	348	342	336	335	333	336	338	341	339	342	340	342	335	333	336	343	347	354	361	358	349	345	342	348	345	344	349	352	351	352	351	343	342	346	348	348	345	347	348	345	350	353	344	339	341	341	345	344	345	343	343	338	336	337	339	339	343	337	337	339	347	352	354	342	339	336	335	337	337	336	324	323	333	336	336	333	333	334	337	337	337	340	336	334	335	334	337	338	337	335	335	335	335	338	339	343	343	340	331	332	336	342	346	348	348	343	344	343	341	337	335	332	332	337	337	338	330	333	332	337	332	334	332	332	330	330	329	332	334	334	333	333	334	337	338	337	326	327	327	329	332	337	330	327	327	327	327	334	334	335	332	332	332	334	337	335	333	328	327	326	327	327	328	327	326	327	327	326	324	324	327	325	321	319	321	320	315	316	318	318	317	316	316	313	313	317	320	317	314	318	322	322	319	317	317	316	316	312	311	305	304	308	308	310	310	315	314	309	302	302	315	309	310	311	309	309	311	310	310	307	309	309	309	308	306	305	304	308	307	305	309	315	315	309	308	310	311	311	308	304	302	301	301	306	308	307	306	309	308	308	306	306	304	304	305	304	306	306	305	308	308	310	312	310	308	307	307	302	302	300	304	310	315	314	314	315	315	310	305	303	302	305	312	312	312	311	310	308	303	304	308	310	310	311	309	308	307	307	307	306	302	308	297	299	299	299	303	304	307	308	306	306	306	305	306	307	305	305	304	306	310	308	304	311	311	312	308	306	305	305	301	300	301	304	304	304	303	303	294
323	317	320	319	322	322	321	321	319	316	319	326	334	334	339	339	328	316	309	309	308	315	320	326	328	320	320	318	319	321	322	321	322	322	327	333	333	333	331	331	331	342	348	345	338	330	326	326	330	328	325	327	325	325	325	325	323	320	318	314	312	311	311	313	304	305	308	310	321	322	321	321	319	320	320	331	338	329	328	329	329	330	332	329	323	317	315	315	317	317	308	329	327	327	326	330	330	331	332	332	329	332	330	323	319	312	313	323	326	324	324	319	315	314	320	318	320	325	327	327	323	320	320	317	314	314	321	325	327	328	329	328	320	314	312	312	311	315	324	327	329	329	322	319	322	326	331	329	327	327	330	330	329	327	328	328	326	324	322	326	320	319	321	326	329	329	339	335	338	340	340	341	343	349	353	347	338	334	333	335	338	341	343	344	347	347	347	346	344	339	332	332	337	344	347	354	347	346	348	347	348	348	350	351	350	347	340	337	336	336	333	336	338	342	343	344	348	351	351	349	339	339	337	336	343	344	343	339	341	340	350	351	346	337	335	335	338	336	339	341	341	339	334	332	329	329	328	335	338	344	345	344	340	340	338	334	335	334	332	329	333	336	339	341	338	342	353	355	351	352	353	347	341	340	341	341	340	342	347	348	345	339	336	337	346	348	348	353	354	355	352	351	347	345	343	347	352	356	351	349	347	346	342	337	333	331	333	338	336	338	337	342	331	330	331	332	333	340	344	353	352	346	339	336	337	339	344	348	349	348	347	340	339	342	346	347	345	342	343	345	351	351	343	343	342	342	340	340	339	342	342	339	337	336	336	335	338	336	333	330	328	334	337	335	334	334	332	330	328	330	334	332	331	331	330	332	331	332	331	333	337	338	340	337	334	333	335	337	333	331	329	329	334	336	336	338	342	341	340	337	335	330	332	335	340	342	342	341	342	341	335	335	332	332	334	335	339	335	334	332	332	332	334	334	334	334	333	324	327	328	331	332	328	328	329	330	330	331	327	328	330	338	333	332	328	326	325	325	328	329	330	332	333	332	329	337	335	332	328	325	323	322	325	326	324	321	321	321	327	327	319	320	321	322	320	319	319	310	306	303	311	314	323	323	314	307	310	313	315	314	318	323	321	318	317	317	316	316	311	306	305	308	307	310	310	311	313	311	300	300	300	305	309	309	307	307	309	310	310	310	309	309	308	307	308	309	312	311	310	305	306	306	306	311	313	306	305	305	305	307	304	304	304	303	306	308	304	304	305	306	308	307	307	307	306	304	303	303	305	308	308	308	310	310	306	304	303	303	302	302	300	306	307	312	314	316	318	318	315	307	303	304	309	312	312	312	309	307	302	309	304	308	308	310	307	304	306	303	303	303	302	302	294	297	302	302	302	300	303	305	306	306	306	305	303	304	305	302	302	299	300	303	311	304	304	313	320	312	303	298	298	301	302	297	296	300	300	305	300	293
317	317	315	317	324	324	318	318	314	312	314	321	329	329	337	333	334	325	316	308	308	315	322	327	330	327	327	318	318	320	324	324	320	320	322	323	329	332	328	327	327	342	348	323	325	329	328	328	319	314	316	324	325	323	321	321	322	324	321	313	306	313	311	311	304	305	306	317	319	319	316	316	316	319	322	325	327	329	323	327	327	328	328	329	314	312	313	315	317	310	324	320	315	312	315	318	320	320	317	318	318	324	328	323	316	311	313	320	326	329	329	328	312	314	320	316	319	320	321	315	317	317	317	316	314	314	324	326	327	327	328	324	322	316	310	310	312	314	323	327	331	330	322	319	311	318	324	329	328	328	329	329	328	327	328	328	324	322	321	318	323	325	327	328	331	334	334	334	333	335	340	338	338	341	348	344	338	334	333	336	340	341	342	341	339	339	341	341	342	348	348	344	342	346	348	339	333	333	336	343	348	350	352	350	348	345	341	336	335	335	337	337	340	343	342	339	341	342	349	347	342	339	337	336	339	341	337	336	336	342	345	342	336	332	331	333	334	333	337	340	338	338	336	332	331	335	339	345	349	351	351	345	344	342	340	339	337	331	328	329	332	336	338	339	340	331	334	335	335	335	344	340	339	341	342	339	340	342	343	345	342	339	339	345	345	347	347	347	351	351	351	351	348	342	344	347	351	348	345	345	341	342	341	341	335	335	341	339	334	337	337	332	329	330	330	331	332	336	337	336	336	342	332	330	332	335	341	346	348	345	342	338	339	343	346	346	344	341	338	340	340	337	338	339	337	337	341	340	337	338	337	337	335	334	333	336	338	337	335	332	332	336	337	337	335	333	332	329	329	334	337	338	336	333	332	331	327	330	330	329	335	338	341	346	342	341	337	332	330	331	327	327	330	330	330	335	335	336	335	335	334	331	330	332	335	336	334	338	342	341	335	331	328	329	329	331	336	336	334	329	326	331	331	334	328	330	331	325	324	327	325	325	323	322	324	330	328	326	326	331	333	334	333	332	328	325	325	323	322	329	330	330	329	332	329	330	334	332	327	326	322	322	322	324	324	319	319	316	314	314	312	310	315	314	313	313	313	310	308	307	305	311	311	311	309	304	309	313	315	321	321	323	319	317	316	314	314	310	308	307	310	311	313	313	310	310	308	299	301	301	303	311	306	308	304	306	309	310	308	307	307	307	307	307	309	309	309	308	314	317	316	316	316	304	308	308	309	307	306	305	305	306	304	303	302	303	302	302	303	307	308	308	307	304	302	305	305	300	303	309	309	311	308	308	305	301	303	303	305	305	302	307	309	311	313	316	316	316	313	307	308	310	309	311	311	312	305	303	302	309	314	314	316	311	306	305	306	305	305	305	305	299	298	297	300	300	301	301	303	305	306	305	305	299	300	300	305	301	301	300	298	303	306	298	298	314	320	310	302	298	298	300	297	298	297	298	298	297	295	299
311	315	315	317	322	320	316	313	313	312	316	322	326	330	330	333	335	328	321	316	316	317	322	327	327	328	328	324	323	321	323	322	320	320	319	318	326	329	329	327	327	325	323	323	325	327	324	318	318	316	316	318	322	319	320	320	323	323	321	315	320	316	306	306	305	305	306	308	316	316	314	313	313	318	320	324	323	328	320	323	323	323	322	317	314	317	320	314	310	324	324	314	312	310	305	303	302	300	301	305	305	316	319	320	318	313	311	315	320	314	315	315	314	314	314	316	319	305	305	315	314	324	316	316	312	322	325	326	325	322	323	323	319	314	306	306	316	321	321	325	326	313	313	312	311	318	326	326	322	317	317	314	314	319	321	324	324	321	319	325	325	326	326	328	328	331	331	330	332	333	332	331	331	333	333	336	335	334	333	336	340	334	333	330	334	335	335	339	344	348	350	348	345	334	333	337	336	335	337	342	345	347	345	344	342	341	338	337	339	341	341	342	342	343	342	339	339	339	340	339	337	334	334	336	339	341	337	325	330	332	336	336	331	328	330	328	330	333	336	340	339	339	337	336	334	339	341	346	350	349	350	349	344	342	340	339	339	334	329	331	333	333	333	334	335	333	327	323	324	330	336	338	337	339	335	337	338	340	340	340	342	342	346	346	344	342	341	341	344	347	347	346	345	343	341	341	337	338	340	339	341	342	341	341	341	342	342	338	337	334	333	333	331	330	331	330	331	334	337	333	331	331	332	329	330	331	336	339	336	336	338	336	340	342	343	344	344	342	337	333	331	333	333	334	336	336	341	339	337	336	335	332	331	332	335	336	338	336	335	335	333	334	336	335	337	337	335	330	330	336	340	337	336	334	333	330	325	320	322	332	337	346	346	344	346	348	343	341	332	330	330	333	337	332	328	335	335	332	329	334	332	330	326	321	323	336	334	338	340	333	332	330	326	326	329	328	328	334	328	324	326	329	329	329	330	324	318	318	323	323	321	320	321	320	328	330	330	324	322	330	328	330	330	330	328	323	323	321	321	328	327	330	329	329	329	326	326	331	327	326	325	325	327	327	325	325	320	316	312	313	312	313	306	318	317	312	313	314	315	314	310	309	309	307	303	304	309	306	317	322	327	318	315	316	314	313	313	312	310	308	308	309	316	312	306	306	304	299	307	307	309	307	314	309	304	306	311	311	309	307	302	302	303	304	305	303	302	303	309	309	309	309	308	301	303	305	303	307	312	317	305	306	306	307	310	311	305	301	302	308	311	311	310	308	306	304	304	302	305	310	310	310	310	305	305	301	294	294	294	302	308	312	312	313	314	316	316	316	311	307	308	311	312	311	311	307	305	303	298	301	311	311	314	314	308	305	305	304	304	308	307	306	299	299	298	298	300	301	303	302	299	299	298	295	296	295	299	301	301	299	299	295	303	299	299	297	301	310	302	298	298	298	306	306	301	301	295	292	290	293
317	320	320	322	322	320	312	313	313	313	315	316	319	324	324	327	330	326	323	326	326	324	326	327	327	328	331	331	330	328	320	318	313	309	309	314	319	325	325	325	320	320	319	321	321	327	324	317	317	315	314	316	316	319	320	322	322	319	317	322	325	319	310	307	307	304	304	308	316	312	312	315	315	315	316	318	323	318	318	318	320	320	317	314	316	322	326	316	308	314	314	314	312	307	305	302	303	300	299	303	303	310	316	317	318	316	312	319	315	320	314	314	319	314	314	312	312	305	305	310	326	324	320	320	314	313	323	325	324	322	320	320	316	313	309	320	320	324	327	328	314	316	319	317	324	325	326	326	321	315	315	312	312	315	318	321	325	322	325	326	326	325	326	327	327	327	329	329	327	329	326	321	327	329	328	323	322	322	328	335	335	334	333	323	327	330	330	337	335	334	334	335	335	336	335	336	338	339	337	337	336	336	340	339	337	337	337	336	341	342	342	342	344	344	346	342	338	335	336	335	333	331	330	332	333	331	331	325	330	332	337	337	335	333	331	331	331	330	333	339	332	334	334	333	334	331	330	336	344	346	345	344	341	338	332	331	330	328	331	331	338	335	334	330	332	330	329	331	331	333	337	334	330	329	330	336	338	338	340	338	338	343	347	341	338	338	341	341	337	337	341	345	342	336	336	336	334	335	334	336	341	342	341	342	342	343	342	342	338	337	335	332	330	328	332	336	338	339	337	331	331	330	332	329	330	330	331	331	330	332	331	335	340	340	343	343	342	338	337	336	331	331	331	334	330	330	336	339	340	338	335	331	331	333	336	337	337	336	333	331	331	331	334	338	337	337	336	331	331	335	337	337	334	334	332	326	322	325	332	338	344	348	347	346	347	347	347	339	332	331	331	330	327	328	328	334	333	329	330	334	336	337	326	321	323	325	335	335	329	326	326	326	325	324	327	328	329	328	327	326	335	335	336	329	324	321	313	316	321	319	319	320	321	322	323	329	332	323	318	321	325	325	328	330	330	330	327	316	321	328	327	327	326	327	327	323	324	323	325	326	326	326	326	327	327	327	327	321	318	318	313	308	312	302	303	309	314	313	315	314	310	310	307	307	303	302	303	307	316	315	311	311	312	315	313	312	312	312	308	309	307	306	311	309	306	301	303	306	306	308	308	309	314	309	307	308	311	309	308	304	304	302	303	303	302	302	299	300	300	301	303	303	303	303	302	299	304	306	312	317	319	319	315	312	305	302	301	303	304	302	300	300	304	308	309	305	305	303	305	305	306	308	310	305	300	292	293	292	292	292	303	313	315	314	314	314	314	313	310	308	308	307	306	306	311	307	304	298	299	299	301	301	310	311	310	305	304	303	303	307	302	297	298	300	300	298	300	301	304	299	298	298	295	292	292	294	295	295	296	299	300	296	293	293	297	297	301	312	295	295	300	298	304	303	302	302	299	295	285	291
320	320	320	318	318	315	312	313	319	316	312	312	318	323	323	328	328	323	323	323	326	326	325	321	319	324	331	331	334	329	318	309	308	303	303	306	310	311	315	321	319	319	315	317	318	323	323	317	317	314	315	314	314	315	316	318	318	318	323	324	323	318	317	308	308	308	305	307	309	312	312	306	306	308	309	312	312	310	312	321	321	321	317	314	319	323	317	316	307	309	310	310	309	307	305	305	305	304	304	308	316	316	317	314	316	315	313	316	318	313	314	313	313	315	319	319	319	320	309	310	326	325	322	322	315	312	316	315	314	316	317	316	316	319	314	321	321	323	324	318	315	315	318	321	321	322	323	323	321	315	319	319	318	321	325	327	329	321	319	319	321	322	322	324	328	332	330	330	326	324	323	321	325	330	329	323	318	319	322	325	328	327	324	323	327	328	336	336	336	333	331	330	331	334	335	335	329	329	327	331	336	337	336	336	335	335	335	333	339	341	340	340	337	336	340	341	337	334	334	334	332	330	331	328	328	328	327	327	327	332	337	337	335	335	332	331	328	326	327	329	334	336	336	333	332	332	329	329	336	335	337	335	335	336	336	338	337	331	325	324	325	328	328	328	333	334	337	336	330	330	334	328	328	331	339	343	339	336	335	340	343	345	342	342	334	335	335	335	333	335	334	334	328	328	329	328	330	330	329	334	337	339	340	341	342	342	341	338	337	338	337	335	332	331	331	333	335	335	336	334	332	330	326	329	327	326	329	326	330	334	339	335	337	342	343	334	331	330	333	333	330	330	331	328	328	330	333	337	339	337	335	333	333	335	337	339	335	331	328	330	329	330	336	335	336	337	340	334	331	330	332	331	332	332	331	327	329	333	339	344	345	346	347	347	346	343	341	335	329	329	327	326	325	328	328	333	333	331	333	334	336	337	333	325	327	327	325	324	323	321	320	317	322	323	324	319	332	330	324	327	329	329	327	328	322	316	313	316	316	318	317	319	321	323	327	325	329	326	321	313	316	321	325	330	329	329	327	316	311	318	322	322	322	323	325	323	320	316	319	318	314	314	315	319	319	321	322	325	324	315	312	309	302	311	317	311	309	313	314	315	311	310	307	307	307	310	306	306	312	308	304	309	312	312	311	311	310	307	305	306	304	304	305	302	300	299	306	309	309	308	309	309	309	311	306	305	308	310	306	304	304	303	302	303	301	302	299	298	303	307	305	305	301	298	295	299	298	306	308	310	312	312	310	310	308	304	303	304	305	302	302	301	301	308	307	306	304	304	304	304	306	308	309	297	296	297	297	297	295	294	304	309	310	313	309	309	307	308	310	311	305	301	306	306	306	304	300	299	302	304	304	301	301	308	309	303	295	295	300	298	297	294	296	300	300	301	298	298	299	300	299	299	294	294	296	296	299	299	299	297	298	293	293	293	297	301	303	302	300	300	299	302	303	302	302	302	299	294	291	284
318	319	313	313	312	310	317	319	319	316	314	312	316	323	325	325	323	320	318	319	322	322	322	318	316	323	330	330	334	329	312	305	302	300	300	303	305	308	312	313	316	316	312	311	314	317	317	312	314	314	315	307	309	313	313	313	313	321	323	321	323	318	318	314	314	313	311	309	313	315	309	306	308	309	309	310	309	309	308	319	321	319	319	315	316	311	312	306	309	310	310	310	307	309	308	305	305	305	306	311	316	316	313	312	312	313	311	312	312	317	314	320	320	312	318	320	320	322	313	313	317	325	322	315	315	315	317	315	313	315	317	318	319	323	318	317	323	323	323	318	317	317	318	319	319	320	322	324	328	323	319	319	318	325	329	329	321	315	305	315	322	319	320	307	316	327	333	333	333	334	328	321	320	328	328	321	318	318	319	321	322	322	323	323	323	328	336	336	331	326	325	328	329	333	333	327	326	326	329	326	331	339	343	342	331	325	324	326	335	340	337	337	334	331	332	337	334	335	335	334	333	329	328	327	327	327	330	325	327	330	335	338	335	335	332	331	325	323	322	324	329	333	333	333	333	331	332	329	335	334	334	334	334	335	335	336	333	329	327	327	330	326	323	321	323	324	325	328	323	322	322	320	327	333	337	343	341	336	333	335	336	341	342	341	331	330	329	329	329	333	335	330	329	330	331	330	325	322	326	328	330	332	338	338	339	337	335	333	332	332	332	332	331	330	331	334	332	335	333	333	334	330	328	327	326	329	332	334	331	337	336	334	328	329	326	324	325	332	332	325	321	324	326	330	330	330	332	338	339	336	335	333	333	336	335	332	332	331	326	325	326	330	330	326	321	329	331	326	326	326	328	328	328	331	331	327	337	343	343	342	341	339	346	346	340	337	331	328	331	331	327	326	325	326	327	333	333	331	333	331	332	331	331	329	327	323	325	324	322	316	311	313	309	311	315	313	323	325	323	321	321	322	321	325	326	322	318	318	316	314	314	312	320	324	323	322	320	320	321	319	312	310	317	320	330	329	328	315	314	320	315	317	320	318	322	321	314	310	309	309	312	314	315	315	315	315	315	317	318	313	309	309	309	303	304	307	304	308	313	315	315	311	306	306	308	307	304	304	305	305	304	304	302	306	306	306	305	302	299	298	303	303	298	299	293	301	301	304	304	308	309	309	310	313	307	306	305	306	305	305	304	302	302	302	301	306	306	307	307	307	307	304	301	297	297	299	298	303	306	307	307	303	300	310	311	304	304	309	310	310	310	306	302	307	306	301	300	298	304	304	307	299	296	292	293	296	299	299	299	296	303	304	300	298	296	296	294	297	298	308	304	301	302	302	302	301	298	300	304	305	305	307	298	304	304	299	297	297	294	296	297	294	296	298	298	298	297	295	298	298	298	298	294	298	301	300	298	298	297	298	300	293	293	293	296	299	302	303	306	306	306	303	297	292	292	295	298	294	291	293
316	311	309	309	307	318	319	316	313	313	314	312	315	325	326	326	323	319	314	312	312	312	319	328	325	324	328	328	328	321	312	305	301	300	302	302	310	313	312	315	315	313	313	312	311	311	305	304	302	302	305	307	309	311	312	315	317	317	314	319	320	320	316	315	315	315	317	315	314	312	308	306	309	309	309	314	315	306	313	318	320	314	314	313	314	305	310	314	315	310	310	310	307	308	309	307	306	305	306	309	316	311	311	310	310	311	311	304	308	308	307	312	312	317	320	320	315	321	325	327	322	315	314	315	315	316	315	314	315	315	316	318	323	324	321	316	314	314	322	323	319	317	318	319	319	319	320	328	327	320	316	318	318	325	318	319	320	318	312	306	309	314	316	319	323	325	321	331	331	336	330	326	320	321	329	321	318	317	320	319	319	319	320	320	322	329	333	331	331	326	324	325	329	335	336	327	327	325	323	321	324	337	342	342	337	329	324	324	325	326	329	330	330	329	329	334	337	333	334	332	331	330	330	327	326	328	331	328	329	329	336	338	335	331	331	328	325	323	322	324	325	325	330	330	332	331	331	331	334	333	331	333	333	332	333	331	328	326	329	331	332	327	328	330	330	329	328	327	327	327	326	326	326	328	330	335	336	336	336	336	337	341	341	341	340	328	326	325	325	327	327	325	326	332	333	333	333	331	324	330	330	332	332	338	338	336	332	331	330	330	330	327	327	329	330	333	333	332	331	331	332	330	330	330	329	328	329	328	329	327	328	328	324	325	323	324	323	329	324	320	322	324	325	327	327	331	333	342	341	336	335	332	331	330	330	330	330	333	335	332	326	320	323	323	325	327	327	326	323	324	325	325	326	326	325	324	334	331	338	342	338	337	341	337	330	332	329	325	325	325	328	328	325	326	327	333	333	333	330	331	332	332	332	329	322	321	321	317	318	319	319	315	314	313	312	312	322	322	323	319	319	320	322	323	324	324	324	319	314	310	310	310	320	322	321	316	316	316	317	318	318	310	317	320	320	327	324	317	325	315	320	314	314	314	312	314	317	314	314	312	317	318	316	316	314	308	304	304	304	305	305	304	308	308	306	303	301	308	313	314	314	307	306	306	306	306	306	304	305	304	306	301	303	294	294	299	300	297	295	298	303	305	298	294	292	298	300	301	304	309	309	308	310	310	304	303	303	304	304	304	303	302	303	307	306	307	307	308	307	300	300	298	297	297	297	299	298	301	303	302	302	298	306	309	305	299	299	302	304	304	297	303	303	301	302	298	299	298	298	305	306	301	295	292	291	294	299	299	299	299	297	299	297	294	290	290	290	294	294	308	304	296	296	297	299	299	298	300	304	302	302	302	295	295	293	292	289	289	288	296	297	302	303	303	301	299	294	288	291	293	293	291	295	298	298	297	297	296	295	298	300	295	295	294	293	295	297	298	298	297	300	300	300	298	298	301	300	293	291	293
325	313	310	310	320	325	320	315	313	313	310	311	315	325	321	321	316	313	310	309	316	329	329	328	327	323	321	319	319	317	312	305	301	300	309	309	308	309	312	318	317	313	313	313	310	315	316	312	307	307	307	309	309	311	311	314	313	313	307	307	316	316	314	312	312	312	316	317	314	311	310	307	308	308	312	314	315	309	310	314	316	316	316	316	320	319	314	315	315	308	303	304	304	307	307	308	305	305	305	309	308	312	312	312	311	312	312	307	299	307	309	312	318	318	321	318	312	308	306	318	321	309	312	313	316	316	315	310	311	312	309	306	307	307	305	302	302	310	310	312	314	317	318	314	311	313	315	316	309	310	317	319	319	319	318	319	320	319	307	307	308	318	319	325	330	327	322	331	334	334	321	324	320	320	324	324	326	325	317	322	315	316	318	322	323	324	326	326	325	325	324	325	329	329	333	332	326	324	320	319	319	320	325	339	338	329	324	322	323	324	323	323	323	323	324	330	334	335	332	332	331	331	330	327	325	321	323	326	328	329	337	336	327	326	331	328	322	321	321	322	325	325	330	327	327	329	328	331	332	329	329	332	334	333	331	329	326	326	330	332	332	332	330	330	328	332	332	329	328	328	328	328	330	331	334	339	339	337	339	341	340	335	335	336	336	328	326	325	325	325	325	324	327	326	333	335	337	334	327	331	331	332	330	330	330	331	331	331	332	331	328	327	323	326	329	330	335	335	332	330	328	328	329	324	320	320	321	322	320	324	324	324	322	323	323	322	323	325	324	320	324	326	325	325	325	327	332	339	342	333	332	330	325	329	327	326	326	331	331	325	323	321	325	324	325	326	324	319	318	322	316	318	321	324	325	323	323	326	324	326	332	335	335	330	332	328	320	318	325	325	328	328	325	325	330	331	330	331	330	326	326	329	330	325	326	321	318	318	318	318	319	321	319	316	311	312	319	318	316	316	312	314	315	315	312	314	316	318	316	313	311	310	321	319	317	315	315	314	313	318	318	311	311	311	316	320	322	320	326	318	318	315	312	310	312	314	318	315	314	318	322	321	317	317	317	315	308	300	302	303	304	304	306	304	304	303	301	301	304	304	303	299	298	303	307	307	308	304	310	307	304	301	294	294	294	298	302	300	298	302	303	304	304	297	294	298	300	300	304	306	308	309	310	307	304	302	300	299	299	299	300	303	305	306	307	307	308	308	301	301	298	298	297	297	298	296	297	300	301	301	301	297	303	305	296	294	297	300	303	303	303	301	296	296	295	298	299	298	298	298	299	299	299	294	291	298	298	290	293	295	297	295	293	292	292	291	290	294	294	298	303	303	303	295	295	296	296	298	301	301	301	291	288	288	289	288	288	288	288	292	300	300	302	302	301	298	294	293	295	298	298	299	300	300	296	294	294	296	295	300	300	298	298	294	293	294	295	295	295	295	297	296	297	298	298	301	300	293	291	291
316	314	315	315	321	324	319	313	309	309	307	307	309	313	321	316	309	308	306	308	323	324	324	325	324	323	315	313	313	316	313	308	303	304	309	305	305	307	318	317	312	309	309	305	309	314	317	315	312	309	309	309	310	311	311	314	307	307	298	302	305	313	313	313	313	313	311	311	310	306	305	299	301	306	306	312	309	309	310	310	314	318	316	316	309	307	309	308	306	302	299	299	299	302	303	305	305	304	304	305	308	312	314	316	315	315	313	307	308	308	312	313	317	317	319	316	308	303	303	310	306	307	311	312	316	316	317	310	311	310	306	303	301	301	299	297	297	304	304	304	304	306	311	312	311	311	314	314	313	314	314	305	311	311	314	317	320	319	307	311	313	317	319	327	331	327	319	312	311	322	322	320	316	319	321	323	326	325	322	320	315	316	317	318	321	323	324	324	323	323	324	325	327	329	333	329	326	320	318	317	317	320	323	327	329	327	321	320	319	319	319	321	321	321	322	324	329	331	330	331	331	332	331	325	322	318	321	322	325	327	332	328	326	327	328	326	322	320	322	324	323	319	324	327	329	329	328	332	327	326	327	329	332	330	329	330	326	326	328	333	333	322	317	320	323	331	331	330	329	328	329	329	333	333	335	336	337	336	337	337	336	333	332	334	335	335	333	327	324	324	324	323	323	324	325	332	335	333	327	331	332	330	323	319	324	328	331	330	332	332	328	328	326	326	328	334	340	335	332	327	325	328	326	320	318	319	320	320	320	317	317	323	322	323	324	323	324	323	319	323	325	326	324	324	323	324	330	332	337	333	325	324	322	323	323	324	324	325	320	320	321	323	326	324	323	323	320	317	315	318	313	317	319	322	322	323	318	316	316	317	323	333	333	333	332	328	320	320	318	318	324	326	326	326	329	330	328	328	325	316	319	324	328	327	324	320	323	319	318	319	318	317	316	312	310	317	318	313	313	311	311	310	310	310	311	312	311	317	318	314	313	308	307	319	317	316	315	314	313	315	315	315	315	317	311	314	320	319	318	318	313	311	303	308	313	316	315	311	313	318	318	318	318	318	319	319	316	309	301	302	303	304	304	304	304	303	304	303	306	306	303	299	297	300	303	300	303	311	314	301	305	302	296	296	297	296	299	298	292	296	298	299	299	297	294	303	303	306	307	306	305	307	310	308	303	297	297	297	297	297	298	302	303	304	304	303	302	302	303	301	298	296	292	291	291	296	297	292	299	299	301	297	300	304	301	291	295	297	302	302	299	293	292	296	295	298	297	297	296	295	295	296	298	296	293	292	292	288	291	293	295	292	292	289	289	291	290	291	292	296	301	303	303	295	294	292	294	294	296	296	292	289	291	292	290	287	288	288	288	288	291	296	298	298	298	297	293	293	294	294	300	297	297	300	299	294	294	293	294	294	293	293	293	289	289	294	296	295	295	292	287	285	285	285	298	301	301	297	295	295
313	314	314	319	319	319	317	311	307	303	303	303	304	305	309	309	309	308	304	305	315	320	320	324	324	323	317	307	308	308	299	297	300	303	305	305	305	309	318	312	314	306	302	302	308	310	311	312	312	310	310	310	310	311	312	312	307	298	297	298	306	309	308	311	309	305	305	300	300	297	298	299	297	301	301	309	313	312	310	310	310	312	294	294	293	292	297	298	299	299	297	296	297	297	302	306	310	308	306	305	306	314	316	316	316	315	314	313	306	302	298	299	302	303	303	299	299	301	303	304	304	308	313	308	309	308	308	308	312	310	306	303	301	301	303	306	310	311	305	305	305	298	301	304	307	307	307	306	299	302	301	300	303	303	312	317	320	319	309	311	313	317	319	313	303	310	315	317	324	324	324	322	318	316	318	325	316	319	318	319	315	315	315	317	322	321	318	316	322	324	324	326	324	325	328	329	326	320	316	316	317	319	323	327	328	326	324	318	316	319	322	322	322	322	322	321	325	326	324	319	321	327	326	319	314	314	315	319	321	320	318	325	324	326	325	324	323	323	322	324	319	317	319	323	326	326	326	332	327	326	327	325	328	329	329	327	326	328	327	330	321	318	319	324	328	327	328	329	329	328	328	333	330	328	328	328	327	329	335	335	334	329	323	323	328	328	330	329	323	323	320	320	320	321	320	320	322	330	326	325	323	318	318	318	323	326	330	332	330	329	327	328	326	320	324	330	334	330	330	324	324	328	323	316	316	323	328	327	323	321	318	318	323	324	325	327	325	323	318	319	324	323	323	323	324	319	319	327	330	329	324	320	320	320	323	322	323	323	321	319	321	324	326	323	323	321	318	317	315	313	311	319	321	321	322	322	320	319	318	318	323	333	333	333	327	324	320	320	318	315	324	325	322	326	330	329	326	324	319	317	319	323	326	326	322	321	318	315	316	317	318	317	316	316	317	316	318	314	314	313	313	314	310	309	311	313	314	316	316	317	316	311	309	310	317	316	312	312	312	315	315	317	317	318	318	311	311	311	310	314	313	308	308	304	306	310	311	311	309	313	313	313	313	309	309	308	314	312	310	304	305	304	304	304	304	302	301	306	306	310	307	304	300	299	293	291	299	300	301	306	306	301	297	297	296	296	296	293	293	295	295	299	299	297	295	298	298	300	301	297	300	306	306	308	303	297	296	295	295	293	294	298	299	299	293	292	296	302	303	303	299	295	291	288	288	295	293	293	299	299	299	296	297	296	300	299	296	296	296	303	300	293	292	294	292	298	298	298	295	294	294	293	294	293	296	294	294	292	287	285	289	294	292	289	289	288	288	290	291	296	301	301	300	296	294	292	294	295	295	295	293	290	293	292	290	287	287	287	288	289	292	297	297	297	297	296	294	294	297	297	299	298	297	299	299	299	290	289	289	290	293	293	294	297	300	300	300	300	299	295	287	289	285	285	290	296	301	298	297	297
313	315	313	311	311	313	311	309	304	301	301	301	301	304	306	307	307	304	304	297	310	317	322	322	320	318	311	309	306	306	300	294	296	305	306	308	308	309	318	314	306	303	301	301	300	300	308	316	318	318	318	312	310	312	309	306	297	297	297	298	305	305	306	307	306	303	303	298	293	301	301	296	299	305	311	311	313	312	309	308	310	312	294	292	292	292	296	299	302	303	296	296	298	298	310	313	316	312	310	308	310	308	318	318	316	315	306	304	292	292	295	296	297	298	298	298	298	300	301	299	300	305	309	310	312	310	310	310	311	311	305	303	301	301	304	307	311	305	305	305	304	303	301	302	305	304	296	297	296	303	304	303	309	315	315	317	320	319	314	300	310	317	319	314	302	309	314	315	314	312	309	309	307	309	314	315	319	317	318	317	322	322	317	317	316	315	315	316	317	321	321	323	324	323	324	326	328	322	316	316	319	320	323	327	328	326	323	318	316	317	319	321	322	321	321	321	321	321	321	315	310	319	319	316	309	309	314	317	318	317	314	312	310	311	313	315	318	321	324	324	321	318	316	319	321	331	331	328	321	319	321	325	328	329	329	327	324	329	329	323	317	320	320	323	324	329	327	324	327	328	327	322	319	323	323	323	321	320	323	328	329	321	323	324	328	330	330	328	324	324	319	319	319	318	314	314	316	321	325	322	321	320	319	319	324	326	326	330	328	324	323	324	323	330	334	335	336	335	328	322	324	325	318	314	318	318	322	323	322	320	316	316	317	317	322	324	326	323	321	318	320	319	319	322	324	318	319	319	320	315	314	319	318	319	318	322	322	321	322	320	323	324	326	323	320	318	318	316	313	309	308	310	315	316	320	320	320	319	318	318	318	322	325	327	325	323	323	320	318	318	318	319	322	322	320	325	322	324	320	316	314	318	321	323	322	321	319	316	316	317	320	318	320	318	314	319	319	319	317	313	313	312	311	310	312	315	318	318	318	322	319	311	309	310	309	309	310	311	313	316	317	317	324	325	315	317	310	312	313	317	315	310	303	306	307	310	309	309	304	307	310	310	309	305	304	304	303	307	310	304	305	305	303	303	301	301	301	302	302	301	301	299	294	295	294	293	291	293	298	303	306	301	301	293	293	294	295	294	295	295	295	292	288	287	297	297	299	298	294	293	295	300	302	304	303	298	296	296	288	291	292	293	293	289	288	292	296	298	298	299	293	289	286	286	288	291	290	293	293	295	294	296	296	298	299	299	299	299	299	303	300	298	295	294	290	298	296	296	295	294	293	294	293	293	298	298	296	293	292	292	293	294	292	292	287	289	289	291	295	296	299	299	297	297	296	294	297	298	298	295	293	287	293	292	289	289	288	286	286	289	292	295	295	298	299	297	296	295	297	297	296	296	297	299	298	298	293	289	288	289	291	291	299	292	290	294	296	296	299	299	287	289	292	292	297	302	301	301	301	304
314	315	305	303	303	304	307	308	308	303	303	299	300	302	305	306	300	300	299	297	310	312	314	314	317	310	306	304	301	301	300	298	295	302	310	311	311	314	314	314	306	306	309	309	310	310	315	320	321	320	314	314	313	312	308	304	302	302	302	303	305	305	303	306	307	304	304	300	305	305	297	296	298	300	304	304	311	311	308	307	309	297	294	292	296	301	301	299	298	292	295	306	306	306	311	314	317	317	313	311	313	307	306	306	306	307	306	304	301	299	297	299	299	300	301	301	302	299	303	303	303	304	307	309	310	308	309	309	310	309	304	301	300	301	304	304	307	305	305	302	302	302	302	304	305	297	292	295	300	307	307	301	309	313	313	317	315	311	313	318	310	310	320	314	302	315	317	318	315	313	310	310	307	309	314	317	317	321	323	326	323	317	316	315	315	315	314	312	315	317	318	318	319	321	325	324	320	319	318	318	319	320	323	328	329	325	318	311	311	313	314	320	319	320	320	320	321	318	315	318	319	319	319	321	319	317	319	318	315	308	309	309	307	304	307	311	316	320	324	325	322	319	312	321	323	323	323	320	318	315	316	318	326	326	325	322	324	329	329	323	318	318	322	324	329	328	327	324	322	323	319	315	314	314	318	320	318	314	316	322	323	317	322	326	329	334	333	324	320	318	318	319	319	319	319	318	319	319	321	319	320	323	324	324	324	324	324	325	323	321	318	316	324	333	335	335	334	329	322	320	316	318	313	310	308	313	318	319	320	321	316	316	316	314	312	322	322	323	319	315	316	318	318	320	323	318	318	320	314	318	318	318	320	318	318	322	321	322	321	322	324	325	324	320	314	311	311	312	309	307	306	310	315	316	320	320	320	321	319	317	315	318	319	323	324	324	321	320	319	319	320	321	320	319	319	319	322	322	321	319	318	319	321	321	319	318	319	319	320	318	316	321	322	321	320	317	320	320	317	315	316	313	313	315	316	315	316	317	316	322	319	316	307	309	309	307	308	311	314	317	323	323	323	322	321	320	315	314	316	319	316	316	308	301	306	308	307	305	301	305	305	307	306	303	301	300	303	307	304	307	307	307	303	303	300	300	300	300	300	300	301	298	296	294	291	289	288	288	296	304	305	301	301	300	294	294	294	294	295	297	299	303	302	301	298	298	304	303	298	295	294	296	302	299	298	298	294	294	296	291	291	290	290	289	288	288	292	294	294	299	295	293	294	291	296	296	291	293	293	292	293	294	295	298	299	299	299	299	299	299	298	295	295	294	293	296	296	295	295	294	298	299	293	290	292	292	295	293	292	292	293	294	295	295	291	291	290	293	296	296	296	296	295	298	298	293	285	288	288	289	293	287	284	290	292	292	292	292	292	298	295	298	298	298	298	298	296	295	295	291	296	296	295	296	298	298	295	290	288	288	287	287	296	292	286	292	297	297	300	299	297	289	290	290	291	295	294	289	289	296
308	308	305	303	298	298	305	310	309	305	302	302	299	299	302	302	295	295	293	292	303	312	314	312	313	306	304	301	300	299	299	298	295	300	313	314	313	313	312	310	307	306	309	311	311	314	316	320	322	320	313	313	308	305	306	305	302	304	304	304	304	302	303	306	305	305	304	304	305	295	292	296	299	300	302	302	306	306	306	308	302	299	293	296	296	301	300	299	298	297	292	300	305	304	304	301	302	306	310	323	315	301	303	302	302	304	305	304	301	299	294	299	299	299	303	303	303	304	306	305	305	303	302	303	299	299	298	298	298	299	300	298	298	300	303	304	307	303	304	304	304	310	311	309	307	301	302	303	298	301	307	307	303	306	305	305	303	301	303	300	300	304	310	314	314	315	317	319	323	323	318	308	308	310	314	312	310	315	317	327	315	316	311	313	315	315	313	316	318	318	318	318	320	319	320	322	323	322	323	322	322	322	328	328	329	316	311	310	308	307	313	315	311	314	321	321	318	312	315	318	320	320	317	321	320	318	319	318	317	316	313	308	311	306	306	311	316	324	322	322	318	311	317	318	320	319	316	316	314	315	316	317	324	323	322	319	322	329	321	318	318	318	322	324	329	327	324	317	313	311	312	311	312	313	316	315	314	312	311	314	318	314	318	324	330	331	332	323	317	319	319	319	316	318	317	316	317	317	318	319	319	322	322	325	325	325	323	321	318	319	317	318	313	331	335	334	328	324	317	316	316	308	305	306	311	312	315	318	319	318	319	316	317	312	314	313	322	322	317	317	317	317	317	320	322	319	319	322	324	322	320	322	321	321	320	322	325	321	321	319	321	313	312	311	307	300	311	312	309	307	306	308	316	318	320	322	321	320	321	321	318	319	319	320	322	322	323	319	318	318	318	320	320	319	322	322	323	322	322	319	319	319	317	323	323	319	320	318	321	319	317	320	324	324	319	317	317	318	316	316	317	318	316	316	315	315	316	317	316	316	318	315	311	310	310	310	308	310	310	316	316	322	324	324	324	322	319	319	320	318	316	315	311	306	304	307	304	302	301	304	304	305	304	302	301	300	302	301	302	302	302	304	306	301	299	296	295	295	298	297	301	301	297	294	291	291	291	292	297	301	300	300	298	301	295	294	294	295	303	297	300	301	301	298	298	294	294	295	296	294	293	293	297	297	298	298	298	298	296	291	296	290	290	286	286	287	291	291	292	295	296	295	294	294	298	296	292	292	291	290	290	294	295	292	296	299	299	299	302	300	297	292	287	287	289	293	293	295	294	298	298	290	292	289	289	286	288	293	292	290	291	292	292	293	292	287	288	294	296	293	293	295	292	290	288	284	282	280	288	289	285	282	282	284	293	293	294	284	291	292	297	297	287	287	290	291	294	288	295	291	291	286	289	292	292	294	295	289	287	285	285	285	285	284	285	286	286	297	300	297	295	292	292	288	283	280	277	282	282	285
300	300	299	297	298	298	302	305	304	302	301	301	297	295	296	297	294	294	295	291	299	308	312	313	313	307	298	298	297	295	295	292	294	308	311	303	303	303	305	308	309	311	312	311	311	311	315	317	315	310	298	298	304	307	309	310	307	305	305	305	302	301	300	303	305	305	302	302	295	292	296	299	301	302	304	307	307	312	310	307	305	299	294	284	295	295	300	299	297	294	296	290	298	295	295	296	305	306	306	314	306	303	303	306	306	306	308	308	299	296	294	299	298	303	302	301	301	300	301	302	303	302	302	303	300	299	298	298	297	295	295	296	295	299	298	296	303	303	304	299	303	303	304	306	306	298	298	298	297	296	299	299	294	290	291	291	292	296	300	303	305	306	308	308	311	318	317	319	323	323	319	318	318	317	314	311	310	312	314	309	303	305	309	311	313	315	317	319	323	322	321	322	322	321	318	323	324	323	324	324	325	322	321	327	317	316	311	310	314	309	309	309	314	315	315	315	315	313	315	319	319	320	317	313	313	317	319	317	317	319	319	312	311	311	310	310	314	322	320	319	316	312	312	315	316	319	315	315	313	314	315	316	317	317	316	319	321	324	324	318	318	322	325	328	332	327	324	317	313	311	312	315	315	315	312	313	311	312	311	310	311	312	317	322	323	328	330	326	323	318	318	318	316	314	312	312	311	313	316	318	318	318	321	324	325	323	323	318	319	318	318	319	319	322	324	322	316	312	309	308	309	307	304	307	311	312	312	314	317	316	316	316	317	316	312	313	313	312	322	321	318	317	317	317	316	319	321	323	325	326	324	322	321	320	320	321	323	321	319	316	321	313	312	311	307	300	303	310	312	313	310	311	311	317	319	318	318	318	322	323	323	321	313	314	314	314	318	323	324	323	320	319	320	320	322	323	325	323	321	319	318	318	317	318	324	322	320	319	318	318	317	317	319	318	318	314	314	313	314	312	318	318	318	316	315	315	314	317	314	316	314	312	312	309	307	308	309	309	309	311	311	319	323	325	325	324	321	320	319	316	314	313	312	305	304	304	304	304	303	303	303	304	304	302	299	297	301	302	304	300	298	294	300	305	294	296	296	296	294	295	296	301	299	294	290	291	292	292	296	300	299	299	295	301	295	293	294	294	294	293	296	300	299	297	297	294	294	293	296	294	292	295	297	297	296	294	294	296	295	291	296	292	289	285	292	293	296	296	296	296	294	291	291	302	303	302	297	297	290	289	288	292	292	292	296	298	300	300	302	295	291	291	284	286	287	288	288	290	294	294	292	292	282	284	284	285	288	288	286	287	288	287	287	288	285	284	284	283	283	284	284	284	283	286	284	284	282	282	280	281	288	282	281	283	283	286	286	286	286	284	286	286	285	283	283	284	294	288	288	288	285	285	287	292	292	293	291	287	284	282	282	281	285	290	295	286	286	289	291	296	297	291	291	289	283	279	277	282	282	284
301	298	295	293	297	297	302	305	299	300	297	297	298	296	297	295	297	297	297	293	300	310	313	310	310	307	298	299	295	291	291	292	302	307	304	302	294	294	299	301	310	314	315	312	312	311	315	301	311	313	304	301	301	298	303	300	298	297	297	296	296	293	294	297	299	301	302	296	296	292	295	299	304	305	305	307	307	311	308	305	302	292	285	290	298	298	289	294	297	294	297	294	294	295	306	306	305	302	299	297	299	299	298	297	295	295	297	297	295	289	290	296	298	303	296	296	296	297	299	299	297	299	301	302	300	299	298	296	296	296	296	293	294	292	292	296	297	306	304	299	303	293	294	296	303	303	299	299	299	301	305	304	296	291	290	292	292	293	302	308	307	309	307	305	304	310	313	311	312	317	319	318	317	317	313	310	308	307	302	303	304	305	309	310	313	315	317	320	323	323	321	323	323	318	317	318	326	326	328	327	323	319	319	311	310	311	316	316	314	309	309	312	314	318	317	313	313	310	310	313	315	313	314	316	314	313	313	316	318	318	315	314	309	310	313	316	315	314	313	310	307	310	313	314	309	302	303	305	305	311	313	312	312	319	314	316	318	322	324	319	320	320	322	321	320	317	313	312	310	310	311	315	315	315	312	313	311	312	321	321	320	313	310	315	317	322	323	324	324	322	322	314	307	302	306	306	308	313	316	318	317	318	316	318	319	320	319	317	314	316	317	319	315	310	314	314	313	313	313	308	306	306	308	307	307	310	313	315	315	317	318	316	316	319	318	313	310	312	312	315	316	316	315	315	317	317	318	317	319	325	326	323	322	320	320	321	323	321	319	316	307	305	306	308	302	302	308	313	314	314	308	308	307	311	313	313	312	312	308	306	306	312	312	307	307	310	314	316	317	316	314	314	316	318	320	320	324	325	325	325	317	309	309	309	316	318	318	316	315	316	315	315	315	315	314	314	316	311	312	308	318	318	318	315	312	305	306	307	315	308	310	309	308	305	305	306	307	307	306	306	308	311	313	314	315	314	311	311	311	311	309	310	307	309	308	306	307	306	298	298	303	304	303	301	297	296	295	303	304	303	298	297	296	302	298	296	296	294	289	296	299	294	296	294	291	290	292	293	296	294	294	299	295	294	294	293	287	285	282	285	285	294	295	295	294	294	293	292	292	292	292	295	295	297	293	293	294	296	295	296	294	291	287	290	297	296	296	295	298	295	292	291	290	293	296	299	298	298	294	292	291	287	292	292	291	294	294	296	292	293	291	287	286	284	283	283	283	287	290	292	292	282	284	284	284	285	288	288	284	280	283	285	285	286	284	282	284	285	282	282	281	283	279	283	284	284	280	280	281	285	287	291	290	286	286	285	286	287	286	286	285	285	281	278	283	284	286	286	287	286	286	288	290	291	291	292	292	287	283	283	283	281	285	290	295	296	296	285	282	284	282	279	279	282	290	285	284	284	276	277
304	299	295	292	288	290	290	297	299	300	297	300	300	299	296	293	293	292	292	296	304	311	311	309	309	305	302	299	295	295	300	300	311	312	305	292	297	299	299	304	309	311	313	310	309	309	304	301	312	307	304	297	297	296	294	294	297	298	298	297	297	295	294	296	298	298	301	296	296	290	290	293	300	302	301	305	308	308	306	302	295	296	285	287	294	289	289	294	297	293	297	294	293	302	299	299	298	299	296	299	298	299	298	295	292	292	290	291	292	294	294	298	298	296	296	296	293	298	301	302	301	300	295	295	294	293	294	294	294	295	295	294	287	288	288	287	295	303	299	294	293	294	294	300	302	304	306	304	303	301	302	301	296	296	297	295	295	297	299	304	306	306	311	308	303	304	309	307	304	304	307	315	317	317	309	304	304	304	308	305	306	308	311	312	315	316	317	318	320	318	321	317	317	317	318	320	323	323	319	314	312	311	312	311	311	314	316	315	314	310	308	312	314	318	315	308	308	308	307	305	303	304	306	311	314	315	313	313	314	314	312	304	308	310	312	314	314	314	311	306	305	304	310	314	309	307	309	311	311	315	315	305	307	305	318	310	316	314	312	311	314	316	321	319	320	316	312	312	309	308	311	314	316	316	316	318	319	319	321	321	320	313	310	315	317	322	324	324	318	317	317	317	312	306	306	305	306	310	316	318	316	316	318	320	320	321	319	319	318	316	312	312	310	312	313	308	311	312	313	312	307	310	312	312	310	312	314	316	317	317	316	313	315	318	315	314	312	312	313	311	312	312	317	322	320	319	318	317	319	325	326	323	322	320	318	318	319	319	315	304	305	305	311	311	305	306	310	313	315	312	309	306	305	307	312	312	313	313	310	305	304	305	307	307	307	308	310	313	315	315	311	310	313	317	316	315	313	315	313	314	312	306	306	304	306	317	317	311	307	306	312	315	311	311	313	313	313	313	312	308	308	305	306	308	310	309	306	306	304	298	299	298	298	299	299	301	305	307	304	304	305	306	309	307	309	309	305	306	309	309	308	306	305	306	308	308	308	306	306	298	297	297	299	300	302	302	302	306	303	302	301	300	301	296	298	298	297	296	291	290	290	292	292	295	295	296	298	292	288	294	294	292	292	294	294	294	293	285	279	277	279	284	291	291	289	288	288	291	287	290	291	295	296	295	294	293	294	292	292	290	287	290	292	294	298	296	296	292	292	285	283	290	288	292	290	291	291	291	291	289	291	287	290	291	289	288	288	291	290	290	288	288	286	284	282	282	283	285	289	291	287	287	284	284	284	285	286	288	291	282	279	279	284	284	283	284	286	287	285	285	284	284	280	283	284	285	285	283	284	285	289	288	289	289	289	289	287	285	285	285	285	287	281	278	281	283	279	279	280	286	289	291	289	289	291	299	297	294	288	288	283	281	285	290	297	297	295	283	281	280	281	281	282	285	284	277	281	281	283	277
302	300	293	286	285	285	285	289	295	296	297	300	300	299	293	291	291	295	295	301	307	307	306	307	305	305	305	304	297	295	300	309	315	307	291	292	294	316	316	321	319	310	300	291	289	289	295	294	312	307	299	300	293	293	293	292	296	297	304	306	306	310	303	292	293	293	304	297	297	290	290	289	293	296	298	299	299	299	299	300	299	299	294	288	291	296	296	296	293	298	294	294	293	302	298	297	297	297	296	296	297	298	296	294	291	291	291	292	294	297	296	299	301	298	296	293	298	298	302	302	303	295	295	294	294	294	296	293	291	291	294	289	292	294	301	298	299	305	303	305	299	300	300	300	302	303	304	302	303	302	301	300	297	295	301	302	301	301	301	302	300	302	306	306	299	301	307	306	304	300	304	306	308	309	309	304	304	309	308	311	309	311	314	314	315	313	310	309	311	310	316	318	318	318	320	322	323	323	317	314	311	312	311	315	313	313	314	313	311	306	308	309	313	316	315	308	308	304	304	305	303	303	305	309	313	313	315	316	315	309	302	302	305	310	310	310	309	303	299	305	304	303	305	307	313	312	309	310	314	314	306	306	305	311	307	304	306	312	313	309	312	314	320	318	316	313	312	310	309	309	309	310	313	317	318	320	321	323	317	312	307	308	310	315	320	322	324	324	318	317	317	317	312	306	306	305	302	311	312	314	315	316	320	320	318	317	316	316	313	313	311	311	323	314	311	307	308	313	312	311	308	310	310	310	308	307	311	314	316	313	313	311	311	313	313	314	312	312	313	311	312	312	317	322	320	319	313	315	316	323	323	320	314	316	318	320	320	315	314	313	312	313	312	305	310	308	310	311	311	312	308	303	303	300	305	313	313	313	308	306	302	306	305	305	301	304	308	312	311	307	303	300	304	307	311	315	312	307	307	307	308	307	306	307	307	312	308	306	305	311	311	309	307	310	310	313	313	313	307	302	296	299	299	299	298	307	306	300	298	301	304	304	301	300	303	306	308	307	307	303	302	302	302	303	303	308	305	306	305	305	302	302	303	305	307	308	308	298	298	303	300	296	296	299	302	301	301	299	291	289	292	302	300	296	295	295	296	297	296	291	295	295	293	289	291	298	298	292	288	288	290	290	289	292	294	292	286	282	279	281	278	280	287	287	287	286	285	283	286	286	289	293	295	293	294	294	296	294	293	291	289	291	291	292	295	293	293	291	286	283	283	281	285	286	280	280	280	283	291	289	288	284	284	287	285	285	287	288	287	288	289	291	288	284	284	282	282	284	286	286	287	287	287	287	287	285	289	289	291	292	284	284	278	280	281	283	287	290	290	290	289	284	280	280	282	284	284	284	283	286	288	287	287	287	286	285	285	283	281	282	285	287	286	281	280	281	280	280	277	278	280	282	282	282	281	289	288	288	283	288	283	285	286	287	289	289	296	280	279	280	281	281	282	283	281	283	286	281	283	284
302	300	295	283	280	282	282	287	290	292	297	300	300	299	295	294	293	297	303	303	299	294	293	298	305	305	309	304	302	302	309	315	315	301	289	288	288	293	293	304	304	301	299	292	292	292	292	290	292	306	299	300	296	296	285	291	295	301	305	302	302	302	299	297	300	302	299	302	292	292	287	289	293	292	294	296	295	295	295	301	302	304	295	295	295	297	297	297	298	297	297	294	293	295	298	294	294	294	292	291	291	291	291	294	296	296	296	300	302	297	299	300	301	301	300	297	299	299	302	302	297	298	299	301	301	302	302	299	296	296	299	294	295	295	296	299	302	299	301	298	297	299	299	299	300	303	304	294	290	297	298	298	297	298	301	302	301	301	300	302	301	301	298	301	302	302	304	300	300	304	310	312	311	307	307	304	308	309	308	307	314	315	315	314	314	307	307	310	313	309	315	316	320	321	321	326	325	321	306	306	308	307	309	314	314	311	313	310	308	307	306	308	309	314	310	307	304	304	304	305	304	303	305	304	306	308	310	315	316	312	306	300	303	305	309	310	304	304	302	302	305	306	304	308	307	308	309	309	304	304	305	304	304	302	306	306	304	308	310	311	304	303	306	313	308	309	304	303	307	308	308	311	310	312	317	318	321	315	312	309	306	307	310	315	322	323	321	324	318	316	317	317	310	311	306	306	302	311	312	314	315	316	320	320	318	317	316	316	313	313	311	311	323	314	311	307	308	313	312	311	308	310	310	310	308	307	311	314	316	313	313	311	311	313	313	305	307	309	310	311	312	312	311	313	315	310	307	303	309	314	316	316	307	306	310	313	315	316	307	303	309	310	305	306	311	312	310	311	310	308	305	302	302	300	307	312	312	308	305	304	302	305	305	307	299	303	306	308	311	310	307	309	311	311	309	311	306	305	308	308	309	311	313	312	313	312	309	307	310	313	312	311	307	307	310	309	309	310	307	300	297	296	296	294	294	306	309	310	306	303	305	304	302	300	305	309	311	310	310	306	305	301	300	304	302	306	300	306	307	305	302	302	302	305	307	307	304	304	302	298	298	296	293	295	295	295	296	297	297	301	301	298	295	291	291	292	294	291	289	289	287	292	292	289	291	298	300	296	294	294	294	295	294	298	292	291	283	286	284	282	282	284	284	287	287	286	285	283	282	282	283	287	295	293	293	291	295	295	294	291	291	297	295	294	293	293	290	284	286	285	285	280	283	280	277	277	280	283	286	285	283	285	283	284	284	284	284	280	284	287	290	289	288	282	282	287	286	284	286	286	283	287	287	291	289	286	290	289	291	290	284	284	283	283	281	281	284	293	293	290	289	285	282	280	282	284	284	280	282	283	283	287	286	286	281	280	281	281	280	282	282	288	292	295	289	281	281	280	279	276	280	279	283	283	283	285	282	288	283	283	282	283	285	286	278	278	277	275	269	272	280	280	283	281	280	283	283	286	284	288
298	298	297	293	286	288	289	289	289	290	294	300	298	298	295	294	293	300	299	299	290	286	285	288	297	297	303	300	303	306	310	310	310	301	296	297	298	299	297	297	294	294	297	302	296	292	292	288	284	285	290	298	296	296	297	295	295	297	299	299	297	297	296	296	296	301	303	302	291	291	289	290	292	292	294	289	291	301	301	302	302	303	293	291	286	293	296	296	291	289	293	294	295	294	294	294	294	288	285	284	287	288	290	293	295	296	299	299	298	296	293	296	297	293	298	301	302	300	300	297	297	298	298	301	303	302	299	298	299	298	298	297	297	302	298	298	295	296	297	300	295	296	298	298	299	301	299	294	290	294	297	298	298	301	300	301	300	301	301	300	298	301	299	301	302	299	296	296	295	298	299	306	306	302	300	300	306	309	309	307	314	314	314	314	310	304	307	310	315	316	314	310	307	310	314	314	311	306	302	300	300	302	302	306	303	305	307	308	308	308	306	306	308	313	312	304	303	304	304	304	304	303	305	303	302	302	304	305	310	308	307	300	302	303	308	303	302	304	303	306	306	303	309	308	309	308	307	305	304	305	305	304	297	298	306	309	311	310	302	306	301	301	304	305	312	306	305	299	304	306	310	313	314	311	314	315	313	316	309	305	305	305	308	313	317	320	319	317	310	308	308	308	313	304	301	301	305	301	301	302	306	310	310	310	315	315	313	315	313	312	312	313	312	317	313	309	308	312	310	310	310	310	310	305	304	307	308	315	315	312	311	309	313	314	304	306	306	304	304	306	306	307	307	308	309	306	296	296	298	301	306	306	306	303	296	300	303	307	309	298	298	302	303	308	312	311	310	308	307	306	302	301	300	299	306	307	308	307	307	304	303	307	307	301	300	302	306	308	309	303	305	306	308	307	306	306	302	304	305	302	306	306	308	309	307	305	304	302	310	313	312	311	311	311	308	309	309	309	308	306	300	301	298	293	294	293	309	310	306	303	307	304	302	301	305	308	311	311	310	306	304	303	303	302	302	299	299	308	309	304	302	302	302	304	304	303	302	302	299	302	298	295	293	294	293	295	296	297	296	295	294	294	294	291	291	292	295	295	290	285	286	290	292	289	290	292	294	294	294	294	294	291	292	291	291	286	286	286	287	285	284	283	283	287	289	289	289	285	280	283	283	287	290	291	291	290	292	293	293	292	296	295	289	285	280	280	279	278	285	286	285	290	288	279	277	277	272	273	277	280	280	277	279	281	284	284	284	284	285	287	289	288	282	285	285	287	286	284	283	282	282	283	283	284	286	287	288	283	287	286	286	284	284	284	285	282	284	293	293	293	291	285	285	283	285	285	285	284	279	282	283	284	284	285	282	284	283	281	280	280	277	278	278	279	279	279	279	280	281	279	279	279	279	281	282	285	282	275	275	277	282	283	281	281	281	279	274	276	282	279	279	280	280	281	280	284	284	284	287	284
297	297	296	293	287	288	290	290	290	291	289	287	291	291	291	293	293	300	281	281	280	282	286	287	289	292	292	295	299	301	300	299	299	298	296	297	305	304	298	298	293	292	295	299	298	295	295	286	283	284	289	296	300	297	297	295	296	296	298	299	295	295	294	293	294	295	296	293	293	290	290	290	288	287	288	289	291	303	303	299	295	293	292	288	287	286	291	291	288	287	287	307	312	300	289	288	288	288	285	279	281	282	286	290	288	290	291	291	293	292	290	288	286	293	294	297	298	299	299	296	296	296	298	301	297	298	295	297	294	293	293	293	295	295	289	295	293	292	292	290	291	295	299	298	298	296	293	290	290	294	297	296	298	301	299	298	298	289	289	292	295	292	297	298	297	297	295	298	298	296	299	300	302	302	303	303	306	309	308	305	312	314	314	314	308	304	303	309	310	309	304	302	301	301	306	306	309	309	302	298	298	298	299	298	300	304	306	309	309	307	304	304	304	305	309	308	307	303	301	301	303	304	302	303	302	302	298	303	305	305	303	301	304	300	301	302	302	302	305	307	307	307	304	310	311	307	305	302	298	295	295	293	295	297	300	309	311	308	296	299	300	303	301	303	305	299	299	300	302	305	317	315	315	310	311	310	309	306	307	304	308	310	312	313	316	318	318	315	315	315	310	304	304	304	306	306	307	301	295	293	297	302	305	307	311	307	313	311	312	312	311	312	311	310	311	313	310	303	305	309	310	310	308	306	315	313	311	313	312	310	306	306	310	310	306	306	301	300	300	300	300	309	306	305	306	300	296	298	300	301	305	305	303	300	300	301	299	298	303	303	294	294	300	306	310	307	299	298	297	299	299	300	300	299	301	307	310	309	308	302	300	300	306	311	311	310	304	308	300	301	302	303	298	301	304	305	307	303	301	302	305	305	302	301	299	305	304	302	309	312	313	311	311	310	307	306	307	306	308	303	308	300	292	291	291	293	295	306	305	305	301	300	299	301	304	308	308	305	308	306	304	303	303	302	303	303	301	308	309	304	302	302	300	300	297	296	296	298	299	302	302	301	296	292	293	295	296	297	296	294	293	294	295	295	291	291	292	297	296	288	286	290	290	286	284	284	290	287	287	288	290	291	289	287	285	283	286	286	284	286	289	289	290	286	283	282	284	281	280	283	284	282	285	285	290	292	287	289	290	292	295	291	287	285	285	282	282	282	285	287	287	289	288	279	279	279	279	280	284	287	283	284	282	284	284	288	284	284	287	288	285	278	278	278	285	287	288	287	281	280	280	282	282	283	286	281	281	280	282	281	281	284	285	285	282	282	284	291	291	291	289	282	282	284	284	284	276	279	281	279	281	283	283	279	282	284	283	280	280	280	280	281	280	270	269	272	272	275	278	279	279	279	279	281	282	280	278	277	277	276	281	283	281	276	276	276	276	276	278	279	279	280	280	281	286	286	286	287	282	283
297	296	292	288	288	303	299	299	291	284	281	284	290	290	295	296	292	286	281	288	288	295	294	293	291	291	291	294	293	293	290	294	291	291	293	299	305	304	295	295	296	304	303	292	296	289	283	283	282	283	289	297	299	295	295	295	296	296	297	297	293	289	289	287	294	292	290	288	288	290	290	288	283	280	283	290	301	303	299	289	290	292	291	288	286	284	285	285	285	289	288	302	303	299	290	283	281	281	278	279	281	279	281	289	290	291	291	291	291	286	282	281	286	289	291	293	294	295	293	293	293	294	297	299	297	298	292	297	292	289	293	293	293	286	291	293	292	291	289	289	289	291	293	298	298	295	291	289	291	297	296	296	298	301	290	288	280	292	286	286	292	289	289	295	298	293	297	300	299	297	299	300	300	303	304	306	306	303	300	305	306	311	310	310	308	304	304	304	305	302	298	299	301	304	304	306	306	310	309	299	296	298	296	298	300	302	303	306	306	303	299	301	302	303	306	306	305	302	300	298	298	297	301	304	301	299	298	303	305	305	305	309	300	299	300	301	301	302	304	305	308	304	303	306	309	310	307	301	297	295	292	292	296	295	296	297	299	304	304	303	303	302	301	301	298	298	297	299	300	304	311	323	316	312	309	310	306	305	306	305	304	305	307	305	305	309	306	305	307	306	306	306	306	308	307	307	307	301	298	296	299	299	298	297	300	299	302	309	310	309	310	310	309	309	309	313	314	304	305	309	311	310	310	315	316	311	309	311	312	309	307	305	306	309	305	303	301	297	296	303	303	303	305	302	299	299	300	294	294	296	297	297	297	299	300	300	299	294	295	303	301	295	299	300	302	297	293	293	295	299	302	300	299	298	301	306	309	309	305	302	306	306	305	311	314	307	308	303	299	301	299	296	296	301	303	304	303	301	299	302	305	304	302	301	299	300	301	301	300	307	307	307	307	309	307	303	300	301	301	295	294	294	293	290	290	295	295	288	286	294	297	298	292	296	302	304	304	304	305	304	300	300	299	302	302	303	301	308	308	303	299	296	296	298	298	297	297	296	296	296	302	303	299	292	293	297	301	301	300	300	299	296	294	294	294	293	291	295	296	288	286	288	287	288	290	289	289	289	287	287	291	295	291	289	285	285	285	282	282	283	286	286	286	284	283	282	284	281	279	282	282	282	287	287	286	285	289	286	285	285	283	283	284	281	281	284	282	284	287	285	287	289	285	284	284	285	286	284	286	285	285	285	283	285	285	287	289	286	287	284	276	278	278	278	281	287	289	287	284	278	276	276	280	283	283	281	278	277	276	276	276	277	282	285	282	283	284	284	291	291	287	281	281	281	276	276	273	275	285	285	284	280	280	279	282	281	279	279	281	281	283	283	283	274	272	272	272	274	276	274	273	278	279	281	280	277	277	277	277	276	276	276	277	277	277	276	276	277	280	279	279	281	284	284	284	284	288	284	283	277
296	292	292	307	307	306	305	293	293	278	279	285	295	302	302	296	287	286	289	288	288	297	293	291	291	291	291	291	291	288	285	290	290	290	293	300	297	296	295	296	302	303	303	291	295	289	280	280	279	282	284	289	291	291	291	291	291	295	297	297	286	287	287	287	293	292	284	285	286	289	289	284	277	277	272	279	287	290	289	289	290	292	292	291	287	285	284	286	286	285	286	296	298	296	293	290	282	278	278	280	281	279	281	289	290	290	290	292	292	292	291	291	290	287	287	287	289	291	290	290	291	292	294	297	294	292	292	297	289	289	291	291	286	286	291	292	293	292	289	288	288	290	292	295	291	291	289	289	289	289	295	295	296	294	290	288	286	281	284	284	292	291	287	288	288	290	296	305	303	301	294	300	302	302	301	300	300	299	300	302	308	310	307	306	305	303	304	304	305	298	297	296	297	301	305	306	306	309	310	305	296	296	295	297	299	300	300	298	296	293	293	299	303	304	303	299	298	302	301	299	299	299	304	306	305	299	296	297	298	298	305	309	300	299	299	302	302	302	302	301	299	297	298	301	308	312	313	313	310	309	303	303	301	299	299	301	303	299	302	303	302	300	300	298	296	298	298	298	302	305	306	313	315	315	314	311	309	307	305	304	300	299	300	300	301	301	305	306	305	302	301	304	304	304	306	304	307	308	308	308	306	307	308	301	298	298	299	305	306	307	307	304	305	310	317	312	305	307	308	310	306	305	311	311	312	310	308	309	308	308	309	306	305	306	305	306	302	300	302	300	300	301	301	299	299	299	296	295	295	296	297	295	295	299	300	300	298	293	294	296	299	298	295	295	293	293	292	294	295	297	300	301	299	295	296	302	307	304	304	302	302	300	301	306	308	313	311	301	301	300	298	295	297	300	302	302	299	300	299	302	305	304	300	296	298	299	301	300	296	296	304	304	303	301	300	299	296	297	297	296	294	294	286	286	288	290	291	295	296	294	293	293	290	290	296	296	296	298	297	294	298	296	292	302	302	304	308	307	307	302	297	296	295	297	296	296	295	297	293	297	299	301	300	299	297	298	296	295	294	293	294	293	293	292	291	290	291	295	297	289	287	286	287	289	292	289	290	290	291	290	290	290	289	288	287	282	281	283	288	289	289	287	286	284	283	284	283	282	282	282	284	284	284	285	284	287	290	286	285	283	280	279	280	280	281	283	283	284	287	285	285	284	283	288	288	287	286	282	279	281	284	283	285	285	290	290	289	283	274	271	272	278	278	281	284	284	287	288	280	279	278	278	279	283	283	281	275	273	269	269	266	277	282	286	284	282	288	288	288	286	283	282	281	283	283	283	279	273	271	277	283	284	280	280	279	279	278	277	277	279	284	286	285	283	279	279	278	273	273	272	273	273	278	279	277	277	276	276	275	275	275	276	281	281	283	282	282	279	280	280	277	276	278	278	279	279	284	286	282	276
304	306	306	307	307	305	292	280	280	278	278	290	302	297	297	294	288	288	296	299	299	297	293	290	289	290	290	290	290	287	285	286	291	291	294	293	293	289	294	302	302	303	290	292	296	289	289	289	291	282	280	278	275	280	282	282	286	295	295	291	286	287	289	289	295	288	283	283	285	289	286	286	275	276	272	279	284	286	289	289	292	292	292	286	285	283	283	281	281	284	284	289	293	292	291	291	289	285	285	285	283	278	284	289	290	288	288	289	289	289	288	287	286	283	283	284	285	285	284	284	284	288	289	289	288	288	289	292	289	289	287	290	290	290	292	292	293	291	288	289	290	290	293	294	290	290	288	290	291	294	294	295	295	292	289	289	286	281	289	293	293	291	289	288	285	285	286	291	294	293	291	295	296	298	299	297	297	297	299	302	308	308	309	306	305	301	304	303	303	298	297	298	298	301	304	305	305	305	300	301	297	296	293	291	292	294	296	296	294	290	292	300	300	300	301	299	299	302	306	301	299	299	304	304	301	299	295	296	294	301	307	307	300	299	299	302	302	299	299	296	291	292	293	303	302	302	306	312	309	310	306	302	302	300	301	302	299	299	301	303	300	299	297	295	298	303	302	298	296	297	303	304	307	310	311	309	309	306	305	305	302	298	296	298	301	303	305	305	303	302	300	303	303	303	304	304	305	305	306	306	307	309	310	308	306	299	297	299	305	305	305	302	298	303	311	310	313	315	315	313	308	309	310	310	311	308	306	308	308	307	307	306	306	304	299	302	301	298	300	300	300	300	299	297	295	295	296	295	295	294	295	294	296	299	299	297	297	298	295	295	299	296	296	298	298	295	294	295	298	298	299	299	298	298	292	299	294	303	304	304	304	302	305	303	311	305	302	299	303	298	294	294	296	297	297	302	299	300	299	304	305	300	294	294	294	298	300	300	300	294	292	292	294	299	297	294	298	301	300	299	294	289	287	286	280	279	287	300	305	305	303	288	287	289	300	300	301	300	296	293	298	296	292	293	301	303	308	307	303	301	297	296	296	294	295	295	293	294	292	297	292	296	298	294	300	301	294	293	293	288	284	286	286	292	291	290	290	299	293	287	287	290	288	288	288	288	288	293	292	289	287	286	285	284	284	283	282	285	287	287	287	287	286	282	282	283	283	283	283	283	287	287	287	286	284	282	286	287	283	283	279	278	279	279	279	284	283	284	283	283	284	284	283	283	284	290	289	283	277	280	279	281	289	289	288	288	282	276	270	271	272	286	286	285	285	285	286	287	283	282	282	284	285	286	278	274	274	276	279	279	266	280	283	286	288	288	288	284	284	284	282	281	280	282	282	283	279	275	272	277	283	283	280	279	281	281	275	279	279	283	286	288	285	283	279	279	277	272	273	272	271	271	272	277	277	277	275	275	275	274	276	277	278	278	276	275	282	279	277	277	270	272	273	274	275	275	279	281	284	275
308	311	311	306	304	305	292	292	292	291	289	297	298	296	296	290	287	289	295	300	296	296	289	290	289	291	295	295	291	288	285	286	291	293	293	290	290	289	287	289	290	290	290	292	288	288	288	286	286	279	279	277	278	286	282	282	285	284	289	286	286	286	289	289	289	285	283	283	285	289	289	289	284	277	278	283	285	289	292	292	292	290	287	286	285	283	282	282	286	286	288	289	285	283	282	285	286	287	288	288	285	282	284	285	288	288	288	285	286	286	284	284	285	282	282	284	286	286	281	285	285	288	287	286	286	287	289	292	297	291	287	290	290	289	293	292	289	287	283	283	286	291	291	294	285	288	288	289	287	290	293	296	294	292	288	290	287	283	289	293	295	291	290	290	291	292	292	291	292	294	295	295	296	296	295	296	298	298	300	302	303	304	308	308	306	305	300	301	299	298	299	298	298	301	300	299	294	294	297	301	302	297	296	295	291	291	291	291	290	289	292	299	298	298	301	300	301	303	302	303	303	303	302	303	299	299	295	294	297	306	306	301	296	295	293	292	295	299	299	296	291	292	292	295	296	298	303	308	308	309	306	304	304	301	299	296	298	299	300	302	301	298	294	294	296	297	299	298	295	296	300	300	300	299	305	306	306	305	304	301	299	297	294	293	297	299	301	300	298	298	298	303	304	304	303	304	305	304	303	302	304	307	308	308	304	300	298	297	301	303	305	305	305	300	302	310	310	316	310	303	303	302	307	308	307	306	308	306	306	307	307	307	306	301	300	299	294	292	295	295	299	299	300	296	294	294	292	293	295	294	299	299	300	298	297	299	296	294	294	296	294	296	296	298	298	295	294	294	297	298	294	298	297	292	289	295	301	299	304	304	310	302	301	301	300	301	295	297	298	295	295	294	296	297	297	293	292	293	296	305	303	297	290	291	291	296	296	300	300	294	294	289	291	294	292	292	298	298	294	292	288	286	283	283	276	275	282	286	296	299	293	291	291	291	291	290	300	300	296	293	296	298	297	295	299	298	298	298	297	296	298	299	297	289	289	288	290	291	292	291	291	292	291	292	299	298	295	294	295	291	287	284	286	288	288	288	284	287	288	285	291	290	289	288	285	288	288	295	293	290	287	283	285	282	282	281	282	282	284	287	287	286	284	280	280	282	282	283	285	284	283	283	286	285	283	286	285	284	282	278	279	275	275	278	279	284	287	284	281	281	282	284	282	282	287	288	285	281	279	279	279	280	280	285	285	281	276	276	270	272	272	272	275	282	282	277	280	281	283	275	275	274	274	273	272	270	274	276	276	279	279	279	278	282	284	283	283	283	282	282	282	279	279	279	278	279	280	275	272	271	277	277	278	277	278	281	275	277	277	285	287	287	285	282	282	278	277	272	270	270	269	269	271	275	278	278	277	277	275	274	277	278	273	273	276	275	274	274	272	272	269	269	271	271	271	272	274	275	281	273
304	307	298	298	295	291	285	292	291	295	295	294	291	290	285	285	284	286	291	286	280	280	276	279	287	291	295	296	297	290	286	286	288	289	289	284	285	289	286	287	287	287	288	288	288	288	287	284	284	281	280	281	281	284	282	284	284	284	285	285	284	285	288	288	289	285	285	284	287	287	287	286	286	285	284	284	289	287	291	292	292	287	287	286	283	283	283	286	288	288	289	290	287	283	283	284	285	285	288	288	282	276	279	284	286	286	285	285	286	281	284	286	286	285	284	287	289	290	291	291	284	284	287	285	284	287	291	296	292	288	287	290	289	289	290	288	287	283	283	286	290	296	294	285	284	284	284	288	286	286	289	288	285	287	289	287	284	285	290	295	291	291	289	288	291	292	293	291	296	299	299	298	298	298	297	296	299	299	299	299	299	299	299	300	299	303	303	304	304	305	299	292	294	301	300	299	294	297	297	301	299	299	299	296	297	293	290	289	290	292	293	293	296	296	300	300	299	300	303	303	304	303	303	301	300	296	294	293	303	305	305	303	299	297	295	294	294	297	295	293	291	292	292	295	296	298	302	300	298	300	306	306	305	305	297	291	291	292	292	295	295	294	293	292	292	296	297	295	295	293	297	306	304	301	295	300	304	305	304	300	298	294	293	294	297	297	298	297	296	294	300	306	306	306	304	301	304	303	300	301	306	307	307	305	300	298	297	298	299	299	301	300	301	301	304	303	304	298	298	297	302	300	304	304	305	306	305	305	306	306	306	306	301	299	297	297	295	294	293	293	298	306	306	299	294	294	294	290	290	292	294	300	294	291	295	295	295	291	289	292	294	296	298	299	295	295	294	294	292	292	293	298	295	290	288	296	295	296	296	296	299	298	298	295	294	294	293	297	298	295	295	295	294	294	295	296	297	299	305	304	300	296	292	291	294	295	292	294	294	298	298	299	291	286	290	297	296	292	289	288	287	284	283	282	282	287	287	283	287	292	285	287	288	286	286	290	300	303	296	290	291	292	295	295	297	296	294	293	291	291	289	288	287	287	287	285	288	290	289	292	290	289	294	287	289	291	290	289	289	291	291	287	287	286	285	286	287	283	284	284	283	288	287	287	286	286	286	289	296	293	287	282	281	282	279	279	281	282	284	284	285	286	283	281	280	281	282	282	283	283	282	282	281	286	283	282	281	280	279	279	279	275	275	278	279	279	279	276	276	277	276	281	281	282	282	282	281	280	279	279	279	279	279	283	282	281	276	269	270	269	269	269	273	273	274	275	279	280	281	275	275	274	272	271	270	271	274	276	276	278	279	279	277	276	280	281	281	279	276	278	279	276	277	277	276	279	280	277	271	271	271	273	277	278	280	281	275	275	274	276	284	285	284	281	282	278	274	272	270	270	270	271	272	276	275	275	275	274	273	273	273	275	278	273	274	274	273	273	273	271	269	267	267	266	266	266	267	272	276	273
290	288	284	284	276	281	294	296	295	295	295	290	286	284	282	282	283	285	289	290	290	290	289	291	294	298	296	297	297	290	287	290	287	287	287	282	284	289	285	282	283	283	285	285	287	288	287	284	282	283	284	287	279	278	284	282	282	283	284	285	285	286	286	288	288	285	285	283	284	284	283	283	283	281	282	281	283	285	287	287	285	285	286	285	283	283	283	286	288	289	289	289	289	288	287	286	283	286	279	279	281	276	277	284	284	284	284	282	281	284	284	290	290	284	282	285	285	286	288	291	286	286	283	282	282	285	288	291	287	287	285	286	290	290	290	288	285	289	295	295	295	294	288	284	284	283	282	282	284	284	282	282	284	283	285	286	286	291	295	294	290	289	289	288	291	292	291	290	298	299	296	299	299	296	296	296	299	299	300	300	299	296	293	292	290	296	299	298	298	299	291	291	295	300	298	297	296	297	297	294	296	295	293	293	295	296	294	292	291	288	287	289	291	295	296	297	297	297	301	301	301	303	303	303	299	296	291	294	302	301	307	302	300	295	291	291	297	296	297	293	292	290	295	297	298	298	302	300	298	305	308	309	308	308	301	290	290	291	292	291	291	291	290	293	298	299	294	293	294	297	293	295	299	298	294	295	296	297	298	298	297	297	295	297	298	298	298	295	293	297	301	304	303	303	300	299	300	302	301	302	301	299	299	300	298	298	299	298	297	298	297	300	300	299	301	301	300	300	295	291	293	299	301	300	301	305	300	297	296	297	297	299	296	296	297	296	294	294	294	294	294	299	300	292	292	293	298	299	299	300	299	297	293	293	295	296	296	304	297	293	296	299	299	296	292	288	292	293	294	295	289	289	288	283	289	291	295	295	295	290	295	293	298	295	294	294	293	295	291	293	294	294	294	294	292	294	296	298	299	295	292	291	294	293	292	293	292	289	298	298	293	293	287	286	292	297	291	287	287	284	284	284	284	283	282	284	287	287	291	288	283	284	288	288	286	284	293	293	293	291	290	289	290	292	291	293	292	294	291	290	290	292	284	284	284	285	290	291	291	289	291	293	291	287	284	285	287	289	289	291	291	291	288	285	284	285	288	289	284	283	284	283	282	283	286	286	286	287	289	288	286	281	279	280	281	279	281	278	278	280	281	281	280	279	279	280	281	282	282	281	281	280	280	281	281	282	281	280	279	278	279	275	275	275	275	272	270	268	269	270	270	270	270	273	273	273	273	277	277	277	277	280	280	283	282	279	272	275	269	269	271	271	274	273	272	274	278	280	279	279	280	281	280	274	270	271	273	273	280	279	281	281	279	277	279	279	280	277	272	268	272	273	267	267	276	277	280	277	271	270	270	272	276	280	281	283	276	276	274	281	276	276	284	284	281	278	275	273	273	272	272	268	270	273	273	271	271	273	272	272	273	275	275	276	272	269	267	267	267	270	272	273	273	270	270	268	267	272	276	276
282	277	275	275	276	282	295	295	295	295	291	290	286	282	282	282	289	294	300	297	293	289	289	291	296	297	301	298	298	290	287	290	292	296	289	289	277	278	277	278	284	286	286	283	285	284	283	282	283	289	290	289	289	284	285	288	288	288	287	286	288	286	288	288	288	287	288	283	284	278	279	279	279	279	281	281	283	279	279	283	285	285	285	285	281	280	281	284	288	289	281	288	287	288	282	280	278	283	282	280	280	280	277	285	288	284	285	285	287	290	290	290	290	284	282	285	286	284	285	287	285	285	285	281	284	284	286	286	284	284	282	283	286	287	287	285	285	289	287	289	286	287	287	284	283	282	281	281	283	282	283	289	289	289	288	287	290	294	295	291	286	285	285	287	290	292	291	288	290	297	297	292	292	294	293	292	294	293	296	296	297	295	293	294	294	296	296	294	294	291	288	293	294	298	298	299	294	293	294	294	296	295	286	288	290	293	296	294	286	285	284	290	293	291	290	290	291	293	297	301	301	306	306	306	302	298	295	296	298	300	300	300	296	291	291	292	294	297	298	293	289	293	297	301	302	301	304	289	297	305	308	309	308	301	294	293	292	292	292	291	293	293	293	291	293	298	297	293	293	296	293	292	294	296	296	293	292	296	299	294	287	288	290	292	296	302	301	298	292	296	301	304	303	303	301	297	295	296	298	299	298	298	297	297	298	300	303	302	298	293	294	298	297	298	299	298	296	295	292	289	291	295	298	298	297	296	297	296	298	298	297	295	295	298	295	295	294	294	294	294	293	295	290	290	294	299	302	305	307	306	301	295	292	292	297	300	300	300	297	295	295	296	295	293	290	290	290	292	293	294	293	285	285	283	283	289	286	288	295	290	295	293	294	293	294	291	293	287	290	293	295	295	293	293	294	294	296	297	297	295	295	293	292	293	293	290	290	288	288	288	288	283	284	286	289	295	291	287	287	284	284	284	284	283	284	286	286	280	290	288	283	284	285	285	285	287	292	292	293	291	290	289	289	291	289	289	291	292	291	291	291	290	290	291	291	291	292	293	290	289	291	290	286	281	284	285	287	285	286	286	287	291	294	290	288	283	287	289	289	286	284	287	283	282	282	279	282	284	286	286	281	278	277	280	281	286	280	280	280	280	282	283	283	281	277	277	279	279	278	278	278	279	279	281	281	282	280	280	279	278	281	281	280	278	275	274	275	276	278	279	277	277	278	272	270	270	270	273	274	275	276	277	280	280	276	273	274	274	272	273	273	276	276	275	273	273	278	276	275	275	278	281	280	274	271	272	276	276	279	284	281	281	279	278	279	279	279	278	277	272	271	272	273	267	260	269	275	274	274	275	275	270	273	275	280	279	279	282	278	278	276	276	278	278	285	282	281	277	273	272	272	270	268	267	268	271	271	269	272	272	271	277	277	281	281	279	275	272	272	272	270	270	270	270	271	268	267	271	273	273
277	272	267	270	270	283	289	292	294	295	295	290	286	282	282	293	293	298	295	290	286	285	285	288	288	295	300	294	294	291	287	290	292	290	292	292	291	288	286	277	278	284	284	287	287	286	290	290	289	289	290	290	291	292	290	288	289	289	285	286	290	287	282	284	287	287	287	284	281	278	279	275	278	278	282	283	281	277	278	281	282	282	282	281	279	279	277	275	279	281	288	288	284	281	271	277	278	279	283	283	283	281	284	287	289	285	290	295	294	290	290	290	286	284	282	284	283	279	286	286	276	282	282	281	283	284	286	284	283	283	287	289	291	292	292	290	287	283	287	289	286	284	286	284	283	281	280	284	284	285	284	287	289	286	287	290	292	294	293	286	286	285	286	286	288	289	288	288	290	291	292	292	292	290	288	290	288	291	290	292	292	292	292	294	296	297	295	293	293	293	293	293	292	291	291	290	291	292	291	293	293	292	286	288	290	285	283	285	283	284	294	295	293	288	287	288	290	291	294	299	301	299	298	297	297	296	294	295	297	296	296	293	294	295	295	294	295	296	293	292	290	296	301	304	305	304	292	293	293	295	307	308	305	294	294	293	292	292	292	291	292	293	291	291	293	298	293	291	293	294	292	293	296	295	296	299	300	298	297	288	286	289	295	295	293	297	302	300	294	292	298	304	303	303	293	297	300	295	294	297	296	297	294	294	292	295	296	297	301	290	289	296	297	296	296	292	292	288	289	289	289	292	295	297	301	301	298	299	297	297	297	297	297	297	296	294	296	296	296	294	294	294	295	294	294	296	295	298	298	299	295	291	288	289	289	296	299	298	295	294	294	295	293	293	290	289	291	292	292	294	294	293	286	283	283	289	286	286	288	289	292	289	290	291	292	289	287	287	289	292	295	298	297	293	292	291	293	295	295	295	295	298	298	290	292	288	283	282	282	289	294	291	287	291	288	286	283	289	289	280	280	280	284	283	281	281	286	280	290	289	285	286	286	286	286	287	290	291	287	284	284	284	284	283	285	286	290	290	291	290	289	289	289	289	290	290	289	289	291	289	290	288	286	281	289	291	291	290	288	288	284	287	295	298	297	289	283	284	284	283	282	286	283	281	281	279	278	279	280	284	281	278	277	277	278	284	287	287	283	281	279	281	282	281	277	276	276	275	275	275	275	277	278	280	280	282	280	280	279	277	275	275	274	274	275	276	276	276	277	275	275	275	277	278	275	273	273	277	278	275	276	276	279	280	274	273	274	273	270	270	270	272	273	272	273	274	281	280	280	274	278	281	279	274	273	273	275	275	280	283	282	278	274	277	277	278	279	277	277	275	271	272	272	267	264	265	270	270	271	271	272	269	273	275	279	281	281	279	278	278	275	275	276	276	279	279	280	279	277	277	273	271	269	267	267	267	271	269	271	276	276	276	273	272	273	275	279	279	274	270	270	269	267	270	271	270	271	272	277	277
278	278	274	276	276	278	284	291	295	295	295	291	286	286	289	293	293	286	285	282	282	284	284	283	286	291	292	293	288	288	289	286	290	290	279	277	277	281	281	280	276	278	278	282	284	285	288	290	286	287	287	290	291	285	278	274	278	278	282	287	292	291	282	282	279	279	279	279	276	273	274	275	278	288	289	288	286	283	282	281	281	280	280	279	275	277	276	275	275	278	283	283	284	281	277	279	281	282	285	288	290	290	288	287	291	288	288	285	285	286	289	289	285	284	281	284	283	284	285	286	275	281	281	283	284	282	280	282	281	285	293	289	288	288	290	290	287	282	281	284	286	284	286	283	283	279	283	285	285	285	285	284	282	282	283	287	289	288	286	286	286	285	285	285	286	286	289	287	288	291	292	292	287	285	286	287	286	285	285	292	292	292	292	292	294	293	292	292	293	293	294	294	292	293	298	293	291	290	288	292	292	292	290	289	288	285	283	285	282	284	292	294	293	291	290	290	291	291	291	294	285	285	290	295	295	295	291	295	294	294	295	294	290	290	290	290	293	296	297	294	293	294	292	293	292	294	294	291	291	293	301	304	296	296	294	294	292	296	291	291	292	293	291	291	295	293	292	293	296	297	297	296	297	293	296	296	291	291	286	285	288	293	297	297	298	296	300	298	295	293	295	299	289	285	285	291	297	298	295	293	292	290	290	292	292	291	291	292	295	288	289	288	295	295	295	291	288	288	289	289	289	290	293	295	297	297	296	294	295	302	303	303	300	297	297	297	300	296	296	296	294	295	298	296	296	295	294	294	297	294	292	289	292	293	292	290	295	294	292	293	293	293	292	293	292	289	289	292	292	294	294	293	286	285	283	282	279	279	281	286	289	290	293	293	291	288	287	287	288	289	292	294	297	295	292	292	291	292	291	293	296	299	299	295	291	289	287	287	285	283	293	297	293	292	290	287	285	285	285	283	281	282	286	283	281	281	280	291	283	286	287	287	289	288	287	287	287	286	284	285	283	279	282	283	283	286	287	286	288	287	286	286	283	285	286	286	286	284	286	287	290	288	283	288	289	292	290	288	288	285	281	280	284	289	294	294	287	283	282	281	281	278	277	277	280	279	276	277	280	284	281	279	277	277	277	277	285	285	287	282	281	280	279	278	274	274	274	272	272	272	274	274	277	279	280	282	282	282	280	278	278	274	273	273	274	275	275	273	273	272	273	273	275	278	276	273	273	277	278	278	278	279	279	277	277	276	273	272	270	270	271	270	272	275	273	273	274	279	280	274	273	274	273	273	274	275	275	274	279	280	280	275	273	272	272	276	278	276	277	275	273	271	271	271	271	270	268	270	271	271	273	274	275	278	277	273	273	279	275	276	274	273	273	273	270	271	270	270	277	277	273	272	270	269	267	267	269	273	277	276	270	270	265	265	270	273	278	278	277	271	270	270	267	267	271	271	271	274	274	277
278	277	275	277	277	282	285	289	290	290	290	294	286	284	285	287	287	286	280	280	278	278	280	280	283	291	292	289	288	288	290	290	284	283	279	277	277	279	277	278	278	277	281	281	282	283	284	284	282	286	286	292	292	285	278	275	275	281	281	288	288	290	287	285	282	282	272	271	274	274	273	277	288	289	289	278	278	282	283	283	280	277	277	277	277	278	277	274	275	277	278	283	283	280	277	279	283	280	276	283	288	288	289	292	286	280	280	281	282	283	284	285	285	281	280	280	279	284	285	276	276	281	280	280	283	283	283	283	275	276	278	280	279	280	285	285	288	284	282	283	283	281	281	283	283	276	281	285	284	284	286	284	280	279	282	282	282	280	276	284	289	287	285	283	283	282	283	285	289	292	292	290	287	285	286	287	287	286	284	289	292	292	292	292	289	287	287	287	287	290	294	297	293	294	298	294	291	286	288	295	296	296	294	290	287	285	283	278	282	284	292	290	294	292	293	293	293	292	291	291	289	290	296	298	297	297	295	289	291	294	298	294	290	290	294	295	299	296	296	295	293	293	291	291	289	291	291	289	290	288	299	299	294	290	294	294	295	294	295	292	290	294	299	300	295	293	292	293	296	297	297	296	297	293	290	290	285	283	284	284	288	293	299	298	293	295	298	297	293	293	294	287	286	286	286	288	287	297	293	289	288	287	286	287	289	291	292	292	293	288	289	292	294	293	295	292	291	289	288	290	290	292	291	292	292	294	289	291	297	300	299	299	299	293	287	289	293	293	293	292	292	294	295	295	296	294	294	293	293	293	291	290	292	293	292	289	294	294	294	294	294	293	292	293	292	289	289	290	287	292	293	293	289	286	284	283	283	281	280	281	286	291	291	285	294	292	288	287	283	285	285	286	287	287	287	290	291	288	288	290	294	297	298	293	292	289	292	292	294	296	299	298	293	293	287	284	285	284	288	288	281	282	286	288	285	286	284	281	286	287	287	287	289	288	287	287	286	284	283	283	281	280	280	282	283	281	281	283	285	285	285	285	283	282	283	284	285	284	286	287	287	283	284	291	286	291	289	286	286	284	282	280	280	282	288	291	287	283	280	281	287	286	283	283	281	280	279	277	280	283	283	280	279	278	278	281	281	283	281	276	277	277	276	274	273	273	273	269	269	271	272	274	277	279	284	283	283	282	279	276	276	272	271	275	277	280	280	278	276	273	273	273	275	277	277	273	273	276	273	273	273	273	274	277	278	277	275	272	270	270	270	272	275	276	276	276	274	279	279	276	276	272	272	273	275	275	275	275	275	279	278	274	271	272	272	273	278	276	277	275	273	273	270	270	269	270	270	273	273	272	273	273	274	277	277	277	273	272	273	275	274	273	273	268	265	266	265	267	267	262	264	267	268	269	271	271	275	277	277	271	269	269	268	265	266	271	275	275	278	272	270	270	270	268	272	272	272	275	275	275
280	277	275	281	283	283	285	284	279	280	283	283	282	280	276	276	279	279	280	280	275	275	276	276	285	289	290	287	289	288	288	285	281	277	275	277	277	279	268	276	277	285	282	282	283	284	283	280	278	280	280	286	290	287	278	275	275	281	281	288	287	289	288	289	283	272	272	269	272	274	282	281	283	280	280	278	278	278	282	279	279	277	277	277	279	280	279	277	277	279	276	278	278	284	286	286	283	280	272	271	281	282	282	281	278	277	277	277	279	280	280	280	280	280	281	275	279	279	280	276	276	273	281	281	275	287	289	287	275	274	275	275	279	282	282	283	283	281	282	282	283	283	285	284	279	276	281	286	285	285	285	286	282	276	277	281	282	283	283	284	283	281	277	274	274	269	275	279	282	287	283	282	280	283	286	287	287	288	289	288	291	291	291	289	288	286	286	287	290	293	295	292	295	287	290	287	285	292	292	295	294	294	293	288	286	286	286	286	290	290	290	290	294	292	293	293	294	291	291	291	290	290	297	300	297	297	292	293	293	293	298	295	293	293	294	294	295	295	296	295	290	290	289	289	288	290	288	287	284	289	296	297	292	289	285	288	288	295	297	291	291	300	308	302	296	293	292	296	296	296	297	296	297	293	290	290	285	283	283	283	291	294	298	300	300	297	297	293	290	285	288	290	288	291	291	288	291	287	288	291	289	287	286	286	287	292	293	286	284	289	289	291	293	293	295	291	292	291	287	290	291	291	290	291	292	293	294	295	296	297	296	295	289	287	288	289	289	288	288	286	289	292	293	293	294	294	293	291	290	293	292	290	290	292	292	289	294	294	294	294	294	294	293	292	292	289	289	286	286	288	291	290	288	285	285	283	283	284	279	279	284	285	285	285	287	291	289	286	286	286	288	286	288	290	291	292	292	290	285	287	292	294	294	293	290	288	288	288	288	290	294	288	290	288	287	282	284	284	288	288	292	292	288	289	287	287	287	286	284	281	281	285	286	285	284	283	284	285	283	281	281	280	281	283	283	280	279	280	283	283	283	285	283	282	283	284	285	283	284	283	284	283	276	283	291	283	285	285	286	283	282	281	278	283	289	293	288	282	280	278	287	286	286	284	281	280	279	280	285	285	278	276	278	280	280	281	281	281	280	279	274	276	275	270	270	272	272	269	269	269	272	274	276	277	279	280	276	273	272	272	269	267	267	270	280	279	280	277	274	273	273	268	270	277	277	274	273	274	272	272	273	273	277	276	276	274	274	274	275	275	270	277	276	276	276	276	276	276	278	279	277	273	276	276	271	271	268	268	269	269	268	271	268	268	272	273	274	273	275	274	272	272	271	269	270	271	272	274	274	274	273	276	276	277	277	277	272	268	270	273	273	268	268	266	267	267	266	265	265	261	264	267	268	268	268	269	277	275	270	266	266	267	268	265	266	269	269	274	278	272	272	271	271	271	270	270	270	272	272	273
