0	0	0	0	837	849	0	0	793	801	801	807	832	864	880	877	877	882	876	879	891	871	856	856	825	818	0	0	0	0	0	765	757	774	796	820	819	819	834	845	838	821	808	804	804	804	811	808	806	819	823	816	790	790	799	807	807	787	766	766	800	784	784	756	739	723	721	742	774	789	780	780	764	770	770	767	750	775	802	831	831	824	814	788	771	765	760	763	768	794	820	820	826	803	778	790	808	805	790	795	805	809	809	791	757	720	719	756	779	808	828	823	787	738	727	727	741	775	781	757	750	755	785	810	844	878	817	848	884	884	913	923	912	907	918	912	912	925	970	1024	1062	1077	1083	1096	1113	1113	1121	1116	1113	1110	1118	1127	1134	1129	1131	1134	1151	1191	1240	1261	1276	1274	1255	1239	1249	1249	1287	1332	1368	1378	1377	1366	1372	1387	1394	1389	1387	1387	1384	1383	1389	1389	1377	1349	1303	1241	1202	1187	1194	1211	1244	1280	1280	1302	1305	1307	1291	1283	1265	1259	1245	1239	1276	1276	1284	1328	1351	1367	1375	1377	1375	1366	1357	1356	1342	1347	1365	1376	1382	1353	1310	1306	1332	1354	1342	1278	1230	1196	1201	1233	1267	1298	1319	1330	1322	1307	1285	1285	1241	1195	1184	1193	1204	1213	1221	1224	1223	1221	1241	1270	1302	1320	1327	1317	1291	1276	1259	1256	1261	1270	1279	1297	1311	1322	1325	1318	1324	1319	1303	1314	1303	1306	1308	1311	1328	1356	1398	1437	1451	1465	1475	1480	1466	1449	1465	1495	1508	1507	1521	1570	1623	1666	1693	1749	1755	1834	1867	1875	1878	1872	1876	1896	1919	1918	1916	1894	1888	1899	1911	1913	1920	1924	1904	1863	1840	1822	1806	1769	1760	1780	1820	1857	1887	1901	1941	1940	1902	1863	1849	1843	1854	1871	1881	1899	1881	1833	1796	1758	1725	1682	1646	1645	1638	1619	1578	1530	1483	1445	1429	1381	1349	1337	1327	1318	1293	1259	1216	1202	1202	1214	1210	1192	1121	1108	1091	1069	1056	1023	1022	1020	1019	1014	1009	997	986	978	972	969	982	996	1003	1013	1006	1035	1008	988	980	994	1017	1028	1035	1043	1048	1057	1066	1066	1066	1069	1070	1098	1106	1095	1076	1058	1056	1053	1057	1076	1093	1109	1103	1053	1065	1047	1028	1013	1002	995	1019	1031	1039	1045	1057	1087	1081	1078	1068	1069	1088	1107	1115	1113	1115	1111	1113	1112	1106	1104	1085	1069	1069	1016	1003	990	987	989	1006	1033	1051	1086	1100	1090	1079	1069	1062	1058	1058	1065	1070	1081	1090	1099	1086	1070	1035	1004	1004	976	954	947	953	950	930	917	906	882	873	880	886	904	918	932	911	893	884	855	855	832	844	862	880	894	895	885	876	864	855	854	866	866	843	806	806	785	802	835	869	869	830	780	748	740	782	798	810	814	809	809	792	787	788	793	782	762	754	747	760	764	760	760	763	757	754	751	754	754	774	784	782	756	717	717	681	682	703	739	766	787	791	799	784	784	778	769	753	744	743	748	762	776	762	762	723	709	702	698	703	694	683	675	696	693	699	711	715	688	684	683	683	678	681	681	670	662	663	666	666	675	682	707	710	704	703	721	721	721	708	689	670	675	703	703	715	713	691	670	679	693	693	698	686	665	661	684	707	707	703	673	663	659	655	655	658	677	728	725	732	724	724	715	688	657	639	637	637	662	681	688	673	663
0	837	841	840	840	830	829	807	793	801	801	795	807	818	828	840	840	854	858	856	846	831	808	808	784	789	825	858	848	780	780	740	755	790	816	816	812	812	811	815	819	792	774	770	774	774	776	783	787	797	798	795	788	788	790	802	804	796	786	774	781	784	784	756	725	710	714	725	751	754	760	760	750	758	776	773	759	776	795	818	805	805	760	733	734	733	727	724	735	757	780	780	782	764	761	769	799	796	762	738	749	774	774	772	736	710	719	747	766	787	808	805	770	730	722	722	745	755	745	740	738	748	765	786	812	810	817	848	875	875	890	902	903	940	960	946	948	975	982	1003	1030	1037	1045	1062	1084	1091	1091	1101	1112	1123	1127	1134	1131	1131	1142	1156	1181	1206	1232	1252	1269	1270	1257	1250	1263	1293	1293	1328	1346	1361	1359	1364	1382	1407	1413	1400	1392	1384	1386	1388	1376	1363	1349	1303	1240	1189	1180	1169	1172	1198	1262	1307	1307	1350	1388	1382	1378	1363	1349	1343	1343	1365	1411	1438	1432	1413	1402	1389	1394	1398	1387	1379	1368	1368	1375	1387	1395	1388	1383	1341	1310	1282	1274	1270	1257	1230	1201	1193	1202	1225	1257	1255	1247	1225	1229	1234	1229	1218	1218	1193	1187	1188	1205	1216	1224	1232	1243	1242	1252	1274	1299	1312	1319	1307	1293	1266	1255	1263	1269	1282	1298	1307	1317	1326	1332	1345	1356	1358	1352	1345	1347	1340	1333	1361	1433	1473	1506	1534	1568	1591	1600	1596	1541	1518	1510	1513	1510	1514	1520	1568	1622	1668	1693	1739	1732	1851	1878	1897	1892	1880	1886	1901	1916	1912	1912	1893	1894	1899	1902	1911	1914	1907	1885	1835	1810	1800	1779	1755	1747	1706	1673	1656	1648	1632	1614	1571	1508	1469	1437	1409	1382	1306	1263	1263	1266	1262	1253	1236	1223	1189	1154	1151	1114	1108	1104	1104	1100	1100	1078	1051	1021	1033	1058	1083	1094	1097	1107	1158	1157	1147	1134	1095	1089	1101	1089	1061	1042	1010	1008	1012	1011	1000	996	999	997	991	985	979	985	999	999	1006	1001	1027	1010	986	978	992	1010	1025	1027	1035	1049	1056	1056	1053	1061	1091	1127	1137	1135	1139	1142	1129	1111	1091	1091	1144	1165	1159	1103	1053	1044	1024	1018	1002	996	989	1009	1021	1036	1040	1067	1104	1095	1081	1071	1069	1087	1103	1112	1104	1086	1086	1086	1091	1087	1089	1096	1096	1113	1124	1135	1139	1145	1146	1146	1144	1102	1097	1098	1082	1067	1047	1046	1047	1052	1072	1092	1121	1128	1133	1130	1106	1062	1034	1034	1009	989	965	956	942	935	925	914	884	873	879	884	891	894	886	872	854	854	861	861	862	832	841	860	875	880	872	874	867	860	852	860	861	837	803	803	786	802	835	857	863	838	785	739	736	741	765	795	802	802	793	782	771	766	751	744	725	713	725	737	761	768	768	766	754	747	746	744	742	750	764	763	742	742	707	674	664	684	717	754	780	783	779	767	767	747	746	739	741	746	758	761	766	755	755	720	707	700	707	710	700	683	675	675	670	660	665	660	653	649	656	656	662	663	662	652	636	631	641	641	648	663	696	713	705	690	669	669	658	651	650	658	668	678	678	700	700	685	662	655	656	656	641	634	635	644	660	677	677	681	663	654	651	643	655	658	677	704	718	710	705	705	697	669	641	635	642	642	650	663	653	643	646
807	821	827	824	824	815	812	798	786	783	783	795	807	818	779	802	815	815	828	829	819	795	775	775	771	783	834	876	879	816	816	765	770	782	800	806	795	804	804	804	796	768	755	757	758	758	759	760	765	774	774	775	765	765	771	790	785	784	780	766	770	766	766	747	725	710	724	720	724	732	722	722	732	755	776	790	777	770	778	751	0	0	0	668	690	695	692	692	706	727	734	734	740	733	744	764	783	776	727	696	695	718	749	749	751	742	729	723	729	748	769	770	761	745	755	755	756	737	731	725	729	743	756	765	784	791	811	839	875	875	942	977	1014	1025	1037	1051	1092	1103	1096	1095	1084	1066	1066	1068	1080	1081	1081	1086	1089	1113	1148	1161	1168	1175	1178	1201	1224	1229	1237	1250	1262	1269	1253	1251	1281	1301	1301	1332	1354	1370	1402	1435	1465	1476	1482	1460	1421	1406	1400	1396	1387	1347	1307	1277	1226	1187	1180	1185	1272	1342	1425	1415	1396	1396	1388	1400	1410	1410	1406	1411	1430	1439	1445	1446	1448	1431	1410	1403	1407	1401	1401	1382	1356	1370	1385	1398	1374	1367	1356	1322	1299	1282	1274	1161	1142	1122	1123	1122	1143	1188	1238	1252	1239	1230	1227	1227	1225	1204	1204	1179	1177	1180	1195	1217	1224	1234	1251	1264	1269	1276	1292	1302	1312	1302	1285	1273	1256	1249	1251	1271	1293	1305	1312	1308	1320	1346	1364	1370	1334	1333	1352	1346	1343	1372	1433	1472	1501	1532	1571	1582	1592	1580	1526	1510	1502	1502	1485	1486	1506	1512	1518	1498	1472	1480	1537	1517	1520	1512	1434	1406	1410	1401	1386	1368	1361	1366	1393	1410	1417	1391	1349	1290	1267	1258	1276	1286	1303	1273	1264	1255	1231	1227	1232	1235	1227	1203	1187	1163	1158	1182	1210	1234	1234	1239	1251	1254	1250	1233	1219	1175	1141	1134	1099	1093	1094	1095	1090	1088	1063	1040	1014	1035	1060	1074	1088	1083	1088	1118	1121	1109	1097	1075	1046	1041	1047	1053	1051	1047	1036	1031	1021	1027	1052	1099	1131	1150	1175	1185	1169	1133	1097	1076	1072	1089	1121	1127	1116	1113	1122	1126	1128	1109	1097	1101	1101	1097	1093	1097	1114	1117	1117	1124	1129	1131	1119	1117	1141	1159	1169	1159	1137	1120	1117	1129	1143	1139	1131	1119	1107	1090	1084	1098	1113	1122	1117	1093	1081	1074	1083	1092	1105	1087	1068	1061	1064	1073	1077	1074	1084	1084	1092	1109	1118	1122	1126	1132	1139	1136	1106	1094	1065	1037	1017	1029	1035	1043	1055	1083	1107	1129	1140	1144	1148	1116	1071	1052	1052	1029	1006	968	948	923	921	906	901	890	876	871	870	868	874	868	843	824	805	790	790	790	793	784	769	761	772	792	814	826	835	830	816	808	788	775	803	786	799	828	840	823	819	805	769	725	720	739	772	787	787	782	758	741	737	741	734	716	695	693	711	733	753	753	752	743	739	732	726	721	723	731	732	714	714	690	675	664	674	700	734	768	776	770	747	747	731	719	723	732	747	751	750	743	743	731	716	707	704	707	710	700	688	688	672	655	659	662	671	668	663	657	657	663	660	666	656	643	628	624	624	622	633	636	645	654	652	644	644	640	640	627	621	617	623	623	641	650	656	642	633	617	617	594	584	602	632	626	611	611	596	587	654	651	643	643	629	624	665	679	694	678	678	668	654	631	623	631	631	625	610	610	649	649
800	808	818	820	820	819	813	805	780	791	791	809	798	787	779	802	815	804	819	827	817	798	793	793	784	816	866	904	886	826	826	786	774	775	786	782	785	799	799	805	799	770	759	759	762	762	751	749	744	751	745	723	717	745	745	754	765	763	757	746	753	752	752	744	723	718	724	720	724	682	689	689	710	749	777	790	0	0	0	0	0	0	0	0	691	691	683	693	705	722	721	721	706	703	723	766	786	776	719	665	653	685	712	712	722	710	720	752	796	794	786	777	788	800	802	802	790	742	729	718	735	745	763	778	793	802	826	856	902	942	942	977	1038	1049	1056	1080	1105	1117	1118	1121	1086	1072	1077	1083	1078	1079	1079	1085	1082	1106	1159	1191	1217	1225	1235	1280	1370	1378	1356	1345	1352	1374	1387	1390	1387	1411	1411	1432	1438	1461	1478	1506	1529	1535	1519	1495	1467	1431	1407	1390	1372	1330	1288	1274	1265	1226	1257	1301	1332	1347	1435	1433	1395	1395	1381	1392	1408	1424	1429	1450	1462	1466	1447	1425	1416	1403	1389	1380	1365	1351	1330	1310	1274	1213	1173	1166	1158	1165	1181	1205	1206	1205	1185	1161	1142	1066	1066	1065	1055	1062	1095	1122	1126	1121	1112	1101	1090	1063	1063	1058	1055	1039	1026	1027	1034	1045	1063	1066	1066	1071	1089	1101	1098	1067	1056	1051	1091	1185	1186	1185	1183	1181	1181	1174	1163	1151	1133	1127	1154	1166	1163	1182	1199	1188	1183	1193	1222	1240	1236	1219	1190	1161	1128	1107	1088	1049	1035	1124	1152	1174	1187	1197	1211	1321	1366	1453	1441	1396	1387	1349	1326	1321	1332	1337	1329	1349	1369	1383	1385	1365	1326	1290	1271	1269	1269	1305	1308	1270	1255	1248	1220	1218	1228	1237	1230	1212	1185	1169	1162	1186	1219	1235	1243	1236	1227	1203	1212	1232	1242	1238	1228	1215	1219	1257	1265	1251	1231	1219	1220	1245	1303	1349	1374	1388	1379	1352	1326	1290	1253	1243	1245	1237	1231	1224	1215	1205	1184	1157	1137	1131	1147	1169	1185	1183	1177	1191	1199	1197	1177	1140	1099	1087	1096	1114	1121	1120	1102	1107	1113	1127	1126	1099	1088	1088	1085	1084	1084	1094	1103	1103	1102	1102	1112	1109	1116	1131	1145	1159	1169	1157	1132	1118	1116	1127	1133	1137	1137	1128	1111	1098	1103	1108	1128	1138	1121	1100	1080	1065	1072	1073	1070	1068	1051	1045	1055	1067	1070	1068	1066	1066	1071	1081	1096	1106	1115	1118	1040	957	880	870	863	913	940	1004	1029	1044	1058	1073	1093	1112	1119	1120	1127	1087	1073	1073	1059	1038	1006	964	929	901	885	852	836	848	845	828	817	805	805	820	823	806	775	775	754	740	775	787	772	770	777	777	789	803	808	815	790	780	788	775	775	777	779	780	770	751	723	729	739	738	710	716	740	758	758	759	745	733	734	741	741	726	700	693	697	717	733	733	732	725	722	722	718	708	705	711	710	695	695	677	667	654	655	683	722	765	776	760	725	725	696	673	687	712	724	726	727	718	718	698	716	707	704	708	703	700	685	685	670	661	665	670	675	672	673	674	674	672	673	668	667	653	640	616	616	609	608	607	610	623	623	625	625	631	636	633	617	609	609	609	626	634	633	629	634	623	623	606	598	619	644	629	620	611	596	587	597	630	627	627	614	607	629	653	663	663	653	648	632	612	607	607	598	590	602	633	672	672
802	806	816	823	823	829	833	824	832	850	850	853	823	789	792	793	804	804	819	847	857	828	806	799	799	816	859	893	874	818	785	785	779	778	781	785	790	809	809	816	804	803	790	787	771	764	764	747	737	728	707	701	716	720	720	735	744	761	758	736	721	725	725	720	703	664	682	681	699	682	689	681	720	741	772	0	0	0	0	0	0	0	0	0	690	692	696	706	721	729	715	691	691	678	702	759	786	767	708	650	643	658	681	681	694	696	725	786	806	789	770	759	770	799	812	800	800	770	734	696	689	720	748	776	809	831	833	857	909	969	969	1022	1038	1049	1055	1074	1092	1117	1130	1139	1147	1156	1167	1179	1180	1182	1182	1179	1157	1158	1192	1232	1258	1262	1268	1322	1401	1382	1361	1343	1350	1373	1396	1418	1439	1457	1470	1470	1466	1467	1482	1534	1551	1560	1540	1511	1475	1429	1391	1364	1347	1304	1283	1288	1264	1253	1283	1304	1318	1319	1306	1294	1295	1295	1294	1308	1301	1282	1282	1290	1276	1234	1187	1161	1175	1206	1220	1207	1186	1168	1166	1169	981	951	926	960	986	1068	1079	1086	1108	1115	1100	1074	1066	1066	1066	1036	1038	1035	1044	1091	1114	1115	1107	1097	1089	1063	1059	1059	1055	1041	1022	1021	1027	1038	1046	1054	1056	1066	1083	1092	1084	1054	1044	1042	1073	1135	1152	1149	1152	1154	1158	1155	1151	1139	1123	1118	1132	1149	1146	1162	1190	1173	1167	1179	1211	1227	1229	1214	1188	1159	1120	1104	1080	1041	1025	1117	1148	1168	1189	1195	1205	1273	1284	1329	1360	1367	1361	1358	1337	1332	1341	1348	1339	1346	1359	1357	1351	1342	1311	1285	1271	1272	1279	1303	1310	1312	1296	1291	1282	1284	1278	1274	1264	1257	1258	1272	1281	1284	1292	1297	1305	1297	1266	1229	1226	1222	1226	1231	1236	1247	1258	1261	1253	1237	1220	1217	1233	1271	1313	1343	1363	1367	1360	1343	1309	1276	1242	1237	1240	1231	1220	1209	1207	1198	1175	1155	1130	1131	1148	1170	1179	1178	1180	1193	1205	1198	1167	1140	1116	1118	1127	1140	1121	1099	1084	1091	1099	1095	1105	1082	1056	1056	1056	1067	1077	1088	1093	1090	1074	1063	1067	1088	1109	1131	1145	1164	1173	1160	1133	1121	1124	1132	1124	1122	1128	1126	1105	1093	1101	1111	1120	1120	1109	1094	1084	1076	1065	1060	1060	1067	1065	1059	1061	1070	1075	1067	1067	1059	1055	1066	1081	1096	1105	1044	967	843	759	736	813	865	920	954	1012	1043	1059	1062	1063	1071	1081	1077	1042	1053	1051	1051	1031	1001	968	934	906	871	845	832	826	802	795	790	803	799	806	820	812	783	762	762	750	741	772	790	795	788	775	766	767	770	785	785	790	780	762	765	765	773	773	754	727	720	713	717	712	695	703	728	757	768	768	748	738	724	730	743	751	734	702	688	678	694	694	710	715	713	713	721	712	707	698	703	697	674	674	658	643	638	645	652	675	709	718	712	712	672	662	645	652	664	664	661	654	664	718	698	645	625	621	638	660	673	670	670	673	671	668	670	670	665	677	678	678	671	663	671	666	658	655	644	644	642	638	630	625	605	592	592	614	649	667	670	625	603	592	592	605	619	622	623	629	629	629	634	634	633	644	629	629	620	598	602	606	605	612	612	607	605	614	615	606	606	609	637	662	660	615	615	587	587	622	668	695	695
808	811	809	787	787	780	780	792	804	813	813	825	821	828	829	827	831	831	840	847	857	828	825	809	809	810	796	0	0	0	0	0	0	0	0	0	0	0	0	0	0	0	0	0	797	777	777	744	0	0	0	0	0	0	0	0	0	0	0	0	0	0	0	0	679	0	0	0	683	682	681	720	720	741	768	784	806	814	793	769	727	727	676	638	647	681	718	731	713	684	667	655	655	666	681	707	728	722	700	686	678	672	669	669	677	706	761	783	789	779	751	737	753	779	787	778	778	748	716	697	686	707	735	760	803	822	827	851	895	975	975	1030	1041	1052	1055	1074	1084	1114	1132	1138	1143	1146	1156	1159	1170	1172	1168	1168	1155	1156	1179	1207	1243	1260	1228	1165	1137	1131	1112	1103	1096	1110	1150	1178	1193	1205	1208	1208	1221	1226	1235	1268	1291	1294	1244	1171	1137	1115	1097	1094	1096	1117	1117	1111	1098	1093	1096	1090	1037	1011	985	979	986	994	994	1004	1013	1019	1022	1006	975	972	969	973	984	996	1000	1016	1024	1003	967	952	941	953	906	946	979	1047	1058	1073	1077	1089	1059	1047	1041	1043	1046	1036	1022	1018	1025	1074	1074	1084	1081	1084	1082	1075	1071	1071	1064	1060	1053	1050	1054	1060	1073	1096	1109	1111	1086	1087	1102	1117	1120	1113	1121	1142	1146	1165	1180	1191	1227	1247	1254	1269	1262	1246	1225	1222	1224	1200	1190	1182	1178	1195	1216	1242	1252	1237	1221	1205	1205	1218	1192	1146	1148	1162	1205	1223	1215	1214	1236	1243	1274	1308	1341	1321	1341	1349	1350	1349	1340	1356	1367	1370	1366	1350	1329	1315	1288	1271	1258	1266	1271	1311	1319	1315	1303	1292	1294	1308	1304	1294	1281	1263	1246	1248	1254	1254	1257	1273	1282	1276	1250	1220	1211	1216	1220	1224	1232	1251	1261	1258	1245	1228	1217	1221	1246	1283	1304	1324	1328	1334	1325	1306	1281	1255	1239	1235	1228	1216	1203	1191	1190	1188	1165	1146	1130	1137	1148	1161	1173	1172	1164	1167	1171	1176	1149	1117	1110	1118	1141	1149	1137	1099	1086	1080	1071	1049	1045	1046	1046	1046	1048	1061	1077	1094	1094	1088	1072	1058	1069	1088	1109	1120	1141	1158	1163	1153	1133	1130	1133	1132	1118	1113	1108	1100	1091	1087	1087	1096	1093	1095	1083	1078	1080	1081	1072	1065	1061	1073	1073	1076	1077	1080	1080	1071	1071	1056	1040	1044	1057	1079	1074	1032	961	840	755	736	813	873	935	962	996	1019	1039	1053	1040	1009	985	989	1006	1024	1026	1026	1007	981	945	916	893	872	841	827	815	795	780	772	777	794	805	811	790	765	750	750	754	772	785	784	782	778	750	740	737	751	785	785	758	746	731	731	733	737	751	750	721	710	705	710	710	700	692	687	697	703	703	706	715	710	706	721	731	724	701	678	664	672	672	691	704	715	714	714	714	705	702	706	700	680	680	653	653	679	684	666	646	629	634	643	643	660	659	653	657	665	669	661	654	664	664	674	669	648	631	609	599	611	639	639	662	672	670	662	655	656	672	672	669	647	627	623	628	650	666	679	679	666	638	610	577	586	606	606	618	628	644	648	639	586	575	575	589	614	628	632	633	645	645	634	634	633	644	637	637	624	622	615	599	593	582	582	583	591	600	587	570	570	585	613	638	641	626	626	612	607	618	636	674	674
798	810	809	790	790	782	785	796	806	817	821	821	824	833	844	860	854	854	868	872	872	851	825	809	809	0	0	0	0	0	0	0	0	0	0	0	0	0	0	0	0	0	0	0	0	775	775	734	0	0	0	0	0	0	0	0	0	0	0	0	0	0	0	0	694	690	723	739	759	769	774	779	779	772	768	784	755	766	785	793	781	781	757	719	689	695	706	707	706	707	712	724	724	731	733	735	740	739	733	717	711	708	710	710	707	711	739	753	752	726	686	652	652	687	715	747	747	745	720	696	692	705	730	740	788	789	797	844	897	978	978	1025	1041	1044	1043	1062	1084	1114	881	881	877	881	865	874	901	908	909	909	904	899	905	908	905	924	918	890	892	904	889	879	886	917	943	955	988	1053	1084	1084	1080	1078	1091	1098	1095	1058	1068	1098	1114	1112	1102	1098	1092	1109	1115	1101	1085	1080	1086	1088	1038	1008	980	975	980	986	986	996	1009	1017	1015	1003	970	966	971	976	984	994	1008	1024	1025	1003	965	939	931	939	957	979	996	1028	1050	1059	1066	1071	1060	1017	1014	1019	1025	1025	1022	1018	1132	1142	1145	1144	1143	1162	1180	1193	1209	1209	1209	1199	1181	1167	1152	1141	1128	1131	1145	1137	1117	1101	1106	1107	1125	1136	1144	1139	1142	1152	1176	1199	1221	1247	1256	1254	1246	1231	1223	1214	1223	1216	1198	1178	1172	1186	1203	1240	1252	1238	1216	1200	1197	1215	1238	1250	1247	1233	1220	1205	1199	1200	1228	1240	1255	1271	1276	1283	1293	1306	1317	1329	1339	1356	1363	1363	1361	1309	1288	1275	1262	1238	1203	1210	1209	1226	1249	1288	1299	1300	1301	1317	1315	1310	1304	1276	1256	1237	1224	1218	1213	1226	1240	1247	1232	1204	1208	1220	1226	1226	1240	1253	1259	1245	1240	1226	1222	1231	1254	1275	1293	1289	1290	1290	1288	1275	1260	1239	1227	1209	1192	1183	1176	1165	1174	1165	1155	1144	1144	1147	1153	1160	1156	1150	1124	1114	1104	1110	1117	1093	1087	1100	1121	1135	1123	1106	1082	1070	1049	1028	1028	1040	1040	1058	1062	1072	1072	1077	1079	1075	1073	1072	1069	1092	1111	1115	1125	1141	1146	1139	1121	1119	1133	1123	1107	1100	1090	1081	1068	1047	1036	1054	1057	1042	1056	1062	1069	1079	1073	1059	1051	1064	1081	1082	1090	1088	1076	1066	1066	1051	1041	1016	1005	1042	1052	1061	1068	962	869	869	876	965	962	980	995	1005	1026	1037	1029	1011	995	988	1000	1010	1011	1011	999	973	939	909	887	865	842	823	807	792	775	765	773	794	804	798	773	749	763	763	767	773	779	776	767	755	736	726	737	751	762	759	744	726	717	717	727	734	741	741	715	708	705	715	706	698	688	686	689	689	689	691	698	690	699	704	705	695	685	677	678	684	684	694	705	712	715	719	722	717	699	697	703	700	700	686	679	680	682	666	641	633	647	659	659	664	661	663	666	665	669	661	661	668	668	676	673	652	637	609	598	613	640	640	680	705	694	676	659	666	649	649	643	616	604	617	632	641	664	664	678	675	644	608	582	586	595	595	607	619	629	637	629	610	610	602	610	622	628	632	633	633	645	651	663	668	669	654	654	637	627	631	599	576	560	560	561	572	582	570	564	564	591	629	636	646	641	641	616	603	597	601	622	622
772	798	817	827	827	843	875	890	904	0	0	0	0	0	0	0	0	0	0	0	0	0	0	0	0	0	0	0	0	0	0	0	0	0	0	0	0	0	0	0	0	0	0	0	761	753	753	715	681	652	646	659	659	635	635	632	681	731	737	725	719	721	717	717	721	740	770	799	828	828	806	776	776	754	739	741	755	766	785	722	742	767	767	759	717	692	684	696	705	716	729	728	728	724	728	735	725	712	706	714	716	708	698	688	688	690	708	720	725	707	688	677	674	695	710	734	734	738	722	708	709	723	727	722	712	718	733	761	773	777	782	782	793	827	854	866	875	883	881	881	860	860	840	851	866	876	884	884	887	884	876	871	884	908	897	885	889	901	889	880	890	907	930	952	992	1057	1082	1082	1089	1089	1105	1108	1096	1054	1060	1091	1116	1124	1116	1102	1089	1095	1116	1111	1083	1073	1113	1111	1110	1112	1115	1115	1109	1121	1121	1141	1152	1170	1173	1159	1152	1136	1118	1107	1107	1111	1122	1126	1134	1142	1158	1144	1155	1181	1208	1212	1204	1178	1174	1182	1174	1184	1186	1191	1194	1190	1179	1141	1119	1118	1132	1142	1133	1129	1124	1146	1165	1180	1198	1201	1201	1195	1186	1176	1163	1154	1147	1140	1146	1137	1119	1107	1099	1114	1137	1150	1152	1137	1141	1148	1167	1186	1197	1201	1196	1192	1221	1215	1213	1209	1211	1205	1186	1162	1138	1153	1168	1204	1232	1227	1200	1185	1182	1206	1227	1242	1240	1231	1209	1165	1149	1161	1213	1223	1224	1235	1244	1247	1241	1231	1186	1189	1214	1241	1269	1268	1257	1253	1242	1220	1197	1187	1178	1173	1175	1210	1242	1273	1305	1305	1302	1304	1308	1310	1307	1287	1250	1222	1199	1194	1200	1199	1204	1203	1190	1196	1215	1234	1240	1241	1251	1259	1260	1248	1239	1232	1232	1241	1252	1240	1223	1254	1259	1253	1243	1228	1228	1213	1194	1181	1161	1143	1127	1136	1157	1160	1157	1157	1159	1163	1156	1152	1148	1134	1108	1086	1080	1084	1093	1079	1073	1079	1085	1095	1094	1091	1081	1071	1048	1028	1038	1038	1052	1069	1075	1073	1072	1064	1059	1065	1073	1072	1076	1097	1117	1128	1135	1132	1122	1116	1099	1098	1112	1101	1101	1103	1059	1046	1041	1029	1019	1016	1020	1034	1036	1046	1061	1048	1014	1018	1027	1051	1067	1088	1092	1086	1071	1071	1057	1040	1026	1001	992	1005	1031	1058	1071	1062	1023	998	991	994	998	1002	995	997	1002	1012	1010	998	985	985	989	993	993	997	986	958	928	893	872	851	834	820	808	788	774	768	775	785	794	793	785	774	774	778	773	774	769	765	755	749	736	726	726	737	752	748	730	717	713	713	722	727	725	732	712	708	712	712	688	686	684	684	682	682	680	686	688	683	674	676	676	664	654	655	665	667	667	678	694	698	696	700	699	692	694	694	703	703	701	697	693	677	663	642	634	642	651	665	665	667	671	663	666	670	666	659	658	661	661	673	673	646	626	608	604	617	634	634	660	670	659	646	636	622	621	621	623	607	609	612	618	634	656	656	671	665	659	626	603	602	614	614	636	644	635	629	621	604	604	601	607	622	628	632	642	642	651	660	664	646	621	606	606	598	594	601	620	625	561	561	544	588	620	613	617	617	623	628	639	640	641	641	606	589	580	587	596	596
765	800	809	817	844	844	855	855	886	0	0	0	0	0	0	0	0	0	0	0	0	0	0	0	0	0	0	0	0	0	0	725	737	718	664	634	621	626	660	660	687	700	714	726	720	714	714	685	654	625	627	650	679	676	676	667	649	634	649	664	691	722	733	733	736	731	739	734	733	729	729	734	734	734	730	734	730	721	717	722	742	762	762	753	714	691	686	698	705	716	724	729	729	721	727	732	722	704	703	715	716	709	695	689	689	691	706	720	725	704	689	679	686	701	714	740	740	741	722	715	710	718	723	715	706	714	731	752	767	763	764	764	777	816	845	857	862	867	865	863	860	860	801	834	857	868	866	866	871	867	853	838	831	849	860	861	861	874	904	933	956	968	991	1018	1049	1079	1101	1122	1122	1144	1143	1147	1142	1143	1152	1148	1169	1198	1188	1167	1157	1153	1158	1163	1163	1146	1132	1107	1100	1102	1103	1099	1097	1108	1128	1128	1142	1162	1180	1177	1159	1136	1116	1104	1099	1101	1106	1109	1114	1132	1145	1144	1160	1175	1192	1194	1178	1166	1167	1179	1175	1178	1183	1193	1204	1208	1203	1186	1148	1137	1140	1139	1133	1129	1081	1071	1070	1080	1154	1183	1181	1181	1180	1172	1166	1163	1154	1147	1142	1131	1110	1107	1109	1126	1150	1166	1174	1165	1161	1152	1154	1146	1143	1136	1135	1131	1140	1174	1184	1187	1186	1173	1154	1104	1084	1099	1118	1170	1196	1201	1189	1172	1174	1197	1208	1218	1218	1205	1165	1045	1129	1165	1188	1195	1198	1204	1223	1219	1200	1166	1163	1178	1189	1199	1224	1241	1244	1231	1219	1205	1200	1197	1185	1178	1177	1205	1232	1247	1278	1282	1279	1266	1272	1275	1277	1261	1231	1195	1185	1179	1179	1182	1187	1176	1173	1185	1214	1238	1245	1251	1255	1256	1240	1233	1225	1215	1188	1139	1183	1165	1156	1147	1179	1187	1186	1190	1192	1168	1162	1142	1128	1114	1109	1123	1133	1149	1148	1152	1158	1164	1157	1146	1134	1116	1088	1070	1066	1075	1088	1090	1080	1073	1063	1057	1063	1066	1068	1067	1059	1049	1049	1049	1066	1083	1093	1082	1070	1056	1059	1065	1073	1075	1083	1100	1115	1132	1125	1117	1111	1080	1071	1057	1047	1012	995	999	1029	1040	1042	1039	1034	1027	1035	1041	1052	1052	1045	995	989	984	1011	1030	1052	1070	1073	1069	1056	1056	1036	1019	993	978	993	1004	1030	1046	1061	1053	1015	987	986	988	997	997	990	984	981	988	975	964	961	955	940	940	940	952	970	945	921	889	860	838	831	812	809	806	788	776	771	770	777	782	791	795	795	797	787	770	759	747	755	749	733	714	718	735	752	755	741	725	713	713	721	726	717	687	667	656	660	665	673	672	682	684	680	680	676	676	671	665	660	658	649	645	638	646	653	661	661	677	689	684	672	668	659	678	690	690	690	690	695	696	695	680	660	651	646	653	656	672	672	667	671	671	673	665	657	639	632	632	621	631	631	633	621	611	608	611	611	600	645	655	650	637	628	608	601	601	588	585	615	614	611	607	627	627	646	659	652	633	621	624	636	636	643	648	643	641	626	607	607	601	607	607	619	626	634	634	641	650	649	638	620	611	611	606	594	587	588	615	615	627	622	609	612	608	612	612	619	626	629	614	582	582	543	557	567	583	585	585
732	753	769	780	788	788	777	758	742	733	702	702	691	694	693	672	665	665	685	711	723	716	702	683	683	689	715	726	735	727	725	725	737	699	669	651	650	651	662	662	684	696	710	721	718	708	708	686	653	626	630	651	678	682	673	673	655	636	645	660	688	714	733	733	737	731	730	726	725	719	726	730	730	730	736	736	730	717	708	714	733	762	762	719	717	719	716	703	700	691	681	673	673	668	672	665	662	658	661	670	692	704	704	704	704	706	709	712	696	695	689	671	664	670	677	690	706	706	707	709	712	711	690	668	649	637	654	672	702	734	763	763	785	823	848	866	880	863	834	808	787	789	801	834	846	851	849	850	850	846	835	827	820	826	837	837	850	868	898	930	942	958	970	996	1036	1067	1091	1106	1106	1124	1138	1144	1143	1143	1155	1171	1189	1191	1179	1166	1146	1150	1157	1158	1158	1149	1127	1099	1086	1086	1074	1079	1070	1084	1107	1107	1136	1158	1169	1170	1157	1127	1095	1090	1081	1088	1091	1093	1096	1098	1141	1147	1152	1159	1170	1168	1155	1154	1160	1163	1160	1161	1158	1173	1195	1218	1219	1203	1181	1158	1135	1126	1117	1097	1081	1071	1079	1090	1104	1127	1143	1143	1160	1148	1147	1145	1149	1135	1128	1105	1094	1095	1110	1129	1153	1170	1178	1179	1172	1165	1148	1127	1117	1110	1106	1111	1111	1150	1160	1170	1162	1136	1044	1034	1050	1064	1085	1110	1126	1130	1141	1157	1173	1187	1197	1193	1189	1159	1141	1049	1141	1173	1175	1186	1181	1186	1184	1177	1164	1153	1160	1167	1167	1170	1186	1213	1221	1217	1211	1199	1201	1206	1203	1189	1175	1196	1209	1211	1227	1243	1231	1224	1227	1229	1230	1219	1165	1143	1149	1151	1154	1158	1164	1162	1171	1185	1199	1217	1215	1214	1203	1197	1187	1173	1167	1148	1139	1133	1126	1123	1125	1121	1120	1129	1126	1124	1125	1130	1120	1100	1075	1074	1088	1103	1114	1127	1131	1135	1131	1129	1134	1128	1111	1087	1071	1059	1059	1070	1085	1087	1086	1070	1057	1046	1042	1056	1066	1061	1059	1058	1059	1059	1067	1079	1087	1089	1070	1056	1046	1047	1048	1043	1052	1066	1069	1074	1071	1053	1043	1035	1034	1027	996	968	972	975	998	1032	1059	1054	1046	1045	1042	1052	1050	1015	998	988	980	975	978	989	1022	1021	1015	1015	1020	1020	1006	993	985	986	994	1013	1030	1042	1042	1024	1007	978	976	978	972	962	949	937	937	943	946	954	951	947	934	924	924	913	913	911	906	883	852	831	803	790	801	802	781	765	759	749	730	751	783	805	805	792	784	757	759	747	742	738	724	713	707	725	753	762	751	730	716	716	720	714	701	684	664	658	654	651	655	666	678	687	678	678	670	670	668	657	646	636	630	624	623	632	644	644	662	680	684	675	650	629	610	616	620	615	659	659	680	685	683	669	665	665	662	652	656	656	672	686	683	668	658	654	632	620	612	612	613	625	634	617	590	580	598	596	596	593	591	578	562	567	576	580	575	575	566	567	598	603	591	578	589	589	610	631	639	629	622	628	632	632	637	636	637	640	626	607	607	596	587	595	597	602	605	605	613	627	628	634	630	619	619	608	597	592	583	586	586	596	590	592	589	589	598	598	606	610	612	601	570	570	534	547	563	574	575	575
744	760	768	772	769	769	764	748	732	726	704	704	706	710	709	687	684	707	707	727	732	725	723	714	714	713	717	723	725	732	727	727	724	699	669	651	681	689	698	698	701	686	675	659	641	635	657	657	659	659	653	658	674	673	663	663	655	653	668	680	693	697	691	691	692	687	686	701	704	698	687	668	668	651	669	690	697	696	692	703	709	721	721	719	717	678	682	677	670	639	639	644	655	655	664	663	660	655	654	663	681	690	692	690	690	695	698	692	689	691	682	675	670	671	674	681	686	686	691	695	695	706	699	678	657	642	643	653	683	715	731	731	750	777	810	837	852	837	814	788	771	776	800	823	846	837	828	815	815	805	811	808	812	821	817	821	840	868	894	913	932	942	953	979	1018	1054	1080	1089	1089	1101	1115	1127	1140	1149	1162	1180	1184	1178	1164	1147	1138	1136	1136	1137	1134	1128	1101	1078	1069	1065	1063	1055	1055	1062	1083	1083	1111	1138	1148	1135	1114	1099	1084	1067	1064	1066	1084	1083	1081	1082	1114	1130	1136	1130	1129	1127	1125	1124	1115	1116	1109	1102	1113	1128	1144	1183	1212	1203	1178	1157	1128	1105	1088	1074	1074	1071	1079	1090	1090	1082	1106	1110	1110	1117	1120	1117	1114	1105	1086	1075	1072	1082	1106	1120	1131	1146	1174	1186	1181	1158	1124	1099	1077	1072	1080	1084	1090	1118	1149	1152	1131	1062	1038	1031	1040	1052	1077	1097	1111	1114	1121	1143	1162	1171	1177	1170	1160	1139	1145	1157	1174	1186	1187	1171	1157	1143	1133	1139	1143	1150	1160	1161	1146	1142	1155	1179	1202	1202	1192	1184	1191	1201	1199	1183	1163	1150	1173	1175	1177	1182	1200	1193	1194	1184	1183	1159	1132	1126	1122	1140	1142	1148	1153	1160	1174	1188	1194	1193	1196	1194	1169	1152	1132	1123	1132	1144	1142	1134	1126	1118	1125	1122	1116	1112	1116	1123	1126	1125	1116	1092	1074	1082	1092	1109	1110	1105	1096	1095	1086	1083	1084	1061	1054	1046	1059	1065	1062	1067	1071	1072	1074	1070	1060	1075	1080	1081	1071	1058	1059	1053	1053	1056	1060	1062	1087	1089	1073	1060	1044	1036	1030	1037	1043	1046	1048	1032	1031	1029	1025	1018	962	958	958	965	952	980	1015	1045	1071	1073	1062	1048	1052	1031	1001	986	981	982	973	967	961	958	978	978	971	977	977	982	979	973	966	972	987	1008	1028	1036	1032	1020	1000	977	959	964	962	958	951	943	939	941	942	954	947	937	925	925	913	895	883	873	875	854	828	812	798	770	756	737	728	726	714	704	695	700	721	751	751	770	784	757	738	726	716	710	714	703	689	674	667	675	706	726	726	726	719	706	691	677	666	661	635	629	639	662	677	689	681	681	669	663	659	655	638	628	622	618	620	631	651	651	670	686	692	678	646	614	613	628	631	610	605	605	639	658	654	654	666	673	662	652	650	650	670	686	683	668	653	645	622	605	594	594	599	607	616	604	596	584	582	592	592	600	596	577	557	563	565	572	566	566	563	567	572	570	554	552	589	589	609	613	603	604	606	613	613	620	616	603	637	640	617	596	596	582	574	570	567	564	569	569	577	591	617	627	626	618	618	608	608	591	581	577	577	583	583	579	577	574	574	579	583	598	604	596	579	579	543	546	549	557	557	560
757	749	739	720	716	716	709	734	734	727	711	711	702	715	716	700	696	716	716	726	731	727	726	720	724	724	722	719	718	720	723	711	711	690	674	668	681	689	718	718	722	706	691	671	648	644	646	646	646	650	655	659	671	674	654	654	652	650	653	663	676	677	672	672	673	676	683	704	715	700	685	659	649	649	646	669	677	675	676	681	692	692	692	698	689	678	682	677	647	622	622	628	639	639	656	664	662	651	655	651	662	669	676	678	678	676	686	686	685	684	676	671	665	665	663	651	656	656	664	675	686	692	698	682	673	654	640	641	659	681	698	698	721	750	778	797	802	797	782	777	770	778	797	819	834	837	828	788	788	787	794	802	807	807	800	804	821	861	880	897	909	928	939	961	997	1037	1063	1075	1076	1076	1089	1115	1133	1153	1166	1176	1179	1167	1150	1130	1122	1119	1120	1113	1108	1098	1082	1065	1058	1051	1049	1045	1050	1057	1076	1100	1100	1116	1121	1115	1099	1085	1077	1061	1049	1055	1074	1079	1076	1078	1093	1110	1120	1106	1091	1088	1087	1078	1056	1020	979	981	999	1048	1083	1103	1126	1164	1165	1143	1097	1085	1079	1079	1080	1083	1088	1093	1090	1082	1046	1055	1055	1059	1054	1040	1033	1026	1016	1001	996	1011	1037	1060	1086	1099	1113	1132	1140	1121	1101	1070	1050	1044	1044	1055	1055	1088	1114	1119	1100	1068	1063	1042	1046	1056	1089	1095	1098	1101	1103	1125	1146	1154	1143	1135	1115	1131	1146	1165	1180	1182	1174	1156	1146	1132	1123	1123	1125	1136	1152	1134	1114	1112	1118	1139	1156	1177	1179	1169	1154	1159	1164	1121	1101	1096	1105	1136	1141	1140	1138	1131	1138	1125	1112	1120	1126	1117	1125	1130	1138	1143	1147	1158	1170	1179	1181	1180	1180	1179	1158	1134	1112	1124	1141	1148	1148	1135	1125	1130	1125	1124	1098	1059	1055	1058	1059	1050	1051	1055	1056	1066	1088	1106	1102	1088	1069	1061	1036	1014	1016	1029	1030	1037	1062	1073	1068	1056	1061	1063	1068	1065	1061	1080	1090	1090	1069	1052	1039	1044	1044	1043	1060	1062	1071	1074	1072	1061	1054	1046	1044	1045	1056	1052	1038	1022	1015	1011	975	966	969	969	965	970	996	1026	1046	1065	1079	1076	1072	1072	1059	1034	999	984	977	973	963	953	930	889	872	875	889	917	917	940	950	955	956	962	977	994	1003	1017	1021	1013	998	976	956	950	951	956	958	950	939	935	937	941	938	932	918	918	904	882	866	849	834	816	800	793	780	767	752	743	732	724	718	716	704	697	696	696	751	770	768	740	716	700	692	693	687	665	650	628	644	666	691	706	706	701	696	695	686	671	664	666	643	632	637	658	676	683	683	683	675	658	652	650	640	627	618	624	632	640	648	648	673	695	699	681	651	620	624	631	636	624	596	596	601	614	634	642	666	673	668	655	650	650	662	675	678	670	653	640	620	601	589	589	594	593	593	605	594	586	581	596	596	613	612	601	582	565	558	556	556	565	580	588	581	561	540	532	540	540	548	557	561	567	571	585	585	620	616	603	588	587	582	571	571	563	562	554	547	544	547	547	560	576	598	609	609	609	603	601	612	602	583	572	572	569	572	567	568	569	569	567	551	540	554	572	572	576	551	534	535	557	557	560
726	714	709	708	710	710	703	720	736	729	709	709	701	699	713	690	684	680	680	696	698	695	703	698	706	706	715	713	717	714	715	701	701	678	669	675	692	704	718	718	722	717	697	686	655	649	646	646	645	650	659	674	678	673	654	654	649	641	647	649	656	662	665	660	660	664	690	708	699	684	664	648	637	637	638	653	660	651	646	659	666	677	676	676	667	659	654	646	647	622	607	615	627	627	648	658	657	649	645	641	646	653	663	662	668	668	676	682	683	673	669	669	665	657	645	630	631	631	649	668	678	687	693	693	687	668	642	640	663	671	678	696	696	721	747	761	760	747	743	747	765	773	782	795	799	788	789	788	788	778	780	790	796	796	798	799	820	849	866	859	848	866	904	932	968	1000	1041	1065	1063	1063	1075	1109	1134	1145	1153	1153	1159	1145	1129	1103	1089	1093	1093	1089	1081	1070	1058	1035	1028	1036	1040	1044	1032	1011	994	996	996	1005	1025	1059	1061	1061	1066	1057	1054	1061	1073	1080	1077	1075	1076	1094	1100	1081	1074	1066	1061	1041	1025	1007	988	992	1014	1044	1054	1063	1074	1120	1123	1104	1086	1081	1087	1084	1095	1098	1094	1085	1068	1045	1046	1055	1049	1049	1052	1045	1039	1030	1016	996	991	994	999	1012	1014	1008	975	975	963	1019	1054	1048	1033	1026	1024	1029	1042	1056	1076	1078	1072	1056	1064	1058	1063	1075	1090	1095	1087	1082	1082	1084	1082	1075	1081	1096	1112	1131	1146	1166	1167	1161	1150	1134	1120	1115	1107	1092	1100	1106	1098	1089	1087	1087	1097	1114	1127	1142	1147	1138	1123	1112	1102	1042	1011	1014	1038	1055	1068	1075	1080	1091	1105	1107	1102	1111	1114	1116	1118	1118	1130	1140	1151	1165	1175	1178	1171	1171	1172	1170	1160	1137	1123	1125	1148	1162	1153	1133	1126	1130	1128	1102	1069	1050	1051	1056	1055	1039	1018	1023	1027	1054	1073	1090	1089	1072	1054	1025	991	983	989	999	1007	1031	1047	1075	1067	1048	1038	1041	1043	1045	1052	1056	1059	1064	1055	1027	1000	1000	1044	1043	1049	1050	1054	1055	1057	1060	1071	1072	1082	1078	1073	1062	1048	1041	1017	983	975	976	975	1017	1016	1025	1037	1051	1069	1079	1078	1074	1077	1080	1073	1057	1022	992	976	961	945	908	883	865	864	876	888	892	892	900	902	899	901	923	949	960	967	969	987	1004	992	964	936	919	909	900	896	897	885	884	879	923	920	876	859	859	852	863	859	843	822	800	781	770	763	748	733	714	705	708	709	713	704	696	696	696	700	708	718	729	723	706	691	679	667	647	638	636	646	668	692	703	703	702	697	683	672	668	671	669	646	634	630	626	631	656	656	665	665	653	647	647	647	630	616	629	641	645	646	646	642	637	633	639	644	638	630	629	632	628	628	619	591	591	634	642	642	652	639	629	632	632	640	655	671	673	663	639	625	606	589	589	578	578	574	567	558	556	580	605	605	630	624	607	584	569	548	576	576	583	596	599	598	583	554	538	538	540	548	556	566	576	573	585	585	593	594	586	576	569	558	558	553	555	559	561	552	536	539	539	549	563	578	587	588	588	580	586	596	609	595	577	577	568	561	558	566	572	572	555	543	536	546	555	555	554	551	534	535	554	554	581
689	697	698	706	716	716	708	709	718	727	730	708	708	696	696	673	662	655	655	657	668	670	679	671	685	685	687	709	715	721	716	702	702	677	668	669	684	708	719	719	723	717	697	691	676	661	654	654	662	667	667	672	671	657	650	650	643	639	640	643	644	651	646	642	642	642	645	651	657	655	649	645	653	653	658	660	654	641	624	621	635	644	648	648	635	612	610	617	625	613	607	615	614	614	637	645	645	646	639	634	633	645	659	667	669	669	672	674	658	646	642	650	659	656	646	628	628	661	661	677	681	686	689	689	676	657	650	649	660	667	671	682	682	707	732	737	741	733	732	743	764	767	763	760	755	761	770	777	778	778	780	778	778	775	787	805	824	831	826	813	808	806	818	854	892	928	968	1000	1038	1038	1072	1102	1121	1128	1129	1118	1112	1048	997	970	986	1028	1054	1056	1054	1041	1029	1017	1004	1000	996	988	988	979	973	949	949	941	960	992	1003	1008	1018	1046	1053	1065	1073	1082	1080	1069	1058	1056	1057	1047	1047	1044	1036	1028	1014	1009	1004	1017	1041	1055	1045	1046	1047	1024	985	991	1049	1076	1083	1093	1096	1091	1072	1030	983	973	1027	1045	1049	1049	1057	1066	1064	1049	1030	1012	992	989	981	976	961	935	874	854	916	944	977	999	1008	1009	1019	1039	1039	1038	1039	1045	1034	1036	1037	1038	1054	1071	1082	1089	1088	1086	1080	1084	1068	1069	1073	1085	1100	1115	1155	1165	1164	1158	1144	1115	1096	1086	1069	1077	1083	1093	1089	1074	1066	1066	1083	1099	1114	1121	1131	1126	1115	1097	1079	1020	1001	997	1017	1041	1068	1079	1085	1098	1109	1115	1110	1105	1102	1107	1104	1111	1124	1143	1160	1171	1184	1181	1172	1166	1172	1170	1164	1149	1138	1149	1164	1160	1141	1127	1132	1127	1116	1092	1057	1047	1046	1053	1048	1028	1004	991	990	1026	1063	1077	1061	1027	1018	1002	981	967	973	984	994	1007	1012	1016	943	943	938	948	964	977	1003	1034	1047	1037	1017	985	1000	1000	1007	1034	1042	1048	1050	1046	1051	1062	1102	1116	1113	1103	1068	1062	1055	1047	1026	981	971	971	1002	1015	1017	1025	1035	1047	1063	1070	1064	1063	1069	1080	1074	1054	1029	991	959	925	882	873	863	862	865	880	887	887	896	898	897	890	883	880	907	940	937	935	947	945	942	934	928	923	911	899	875	842	801	789	793	797	798	793	793	794	806	831	837	830	809	782	762	751	736	732	726	708	701	700	701	701	690	696	691	691	690	695	693	687	677	681	676	666	673	660	649	645	650	664	687	694	694	697	693	682	672	662	663	666	644	636	630	620	617	630	630	640	644	637	629	626	619	614	611	611	614	622	624	624	626	596	580	597	608	619	618	615	614	619	619	610	591	591	606	614	616	609	604	603	597	597	586	583	588	599	612	604	591	586	586	583	582	585	574	561	564	571	580	572	572	581	583	585	588	599	566	575	575	587	597	607	602	589	571	545	545	542	548	558	566	576	573	576	576	575	578	576	572	554	530	530	538	548	566	574	573	572	572	566	556	558	561	572	570	570	564	571	577	575	577	574	574	573	572	579	589	578	578	554	539	539	546	555	555	554	545	543	559	576	576	588
689	697	698	706	687	687	689	689	700	712	717	707	707	689	668	649	645	638	638	635	652	660	667	665	668	668	690	698	715	721	712	701	701	693	684	673	674	695	708	712	712	709	701	691	676	661	675	675	671	671	674	676	680	666	661	661	648	648	641	647	642	635	633	626	626	631	642	650	667	676	674	665	662	662	661	665	662	648	636	630	628	624	618	618	616	617	613	616	624	614	604	600	614	637	617	630	635	635	628	630	637	652	661	664	659	659	650	639	637	641	646	649	657	650	635	637	655	662	662	673	678	678	675	664	654	640	645	651	660	659	669	679	679	703	722	737	740	734	736	747	760	759	747	737	738	754	763	769	774	774	768	778	778	761	770	782	804	811	797	786	782	783	797	831	873	918	949	960	981	981	1021	1063	1091	1094	1082	1063	1043	1014	968	947	974	1001	1031	1050	1048	1037	1022	1007	996	984	975	968	963	966	963	950	943	943	946	967	985	993	992	998	1035	1062	1071	1080	1078	1049	1017	1014	1019	1028	1039	1031	1027	1020	1008	1004	1004	1013	1036	1044	1043	1030	1016	981	978	984	1007	1065	1069	1071	1065	1056	1027	976	965	964	995	1036	1050	1057	1057	1066	1086	1072	1059	1037	1013	994	973	962	921	900	873	846	893	917	957	957	964	972	981	997	1020	1018	1016	1003	1002	1000	996	1011	1027	1050	1075	1086	1090	1087	1080	1074	1057	1058	1062	1068	1080	1088	1104	1165	1166	1155	1118	1079	1068	1054	1049	1054	1058	1069	1071	1060	1050	1054	1074	1096	1111	1114	1115	1109	1104	1085	1042	1006	989	987	1002	1026	1054	1086	1099	1105	1112	1117	1117	1095	1091	1085	1094	1109	1115	1129	1154	1166	1177	1168	1164	1154	1168	1165	1153	1125	1129	1140	1151	1138	1121	1117	1116	1099	1059	1035	1030	1034	1042	1050	1042	1011	992	981	976	976	981	971	951	931	912	901	889	879	867	855	851	845	852	824	841	853	857	872	898	911	922	940	946	927	1017	985	985	966	954	937	947	963	985	1006	1034	1055	1098	1117	1101	1051	1047	1040	1052	1046	998	954	947	953	988	1009	1010	1022	1031	1041	1055	1047	1047	1051	1053	1058	1057	1023	955	910	889	885	878	876	873	873	881	884	889	889	889	889	887	886	876	873	873	875	874	874	885	926	933	929	930	923	909	884	859	844	799	792	794	799	803	797	797	792	803	820	824	820	805	776	755	736	730	727	721	712	702	697	692	701	690	678	673	673	663	649	642	646	654	651	650	649	652	661	652	645	644	653	677	677	687	675	659	637	621	604	597	590	596	622	630	616	611	619	619	631	630	624	614	617	622	620	621	619	618	606	606	590	574	564	569	581	599	608	610	604	594	591	619	610	598	587	592	602	605	606	597	595	595	586	575	573	592	612	611	611	599	587	587	581	588	595	591	581	579	565	562	562	568	579	586	593	601	600	598	587	587	577	575	577	581	574	563	566	566	552	548	558	566	577	580	579	579	558	558	567	563	549	525	525	539	551	569	572	567	573	573	582	573	562	558	556	561	561	560	559	561	568	574	574	574	570	571	576	578	578	578	560	539	539	546	559	559	569	559	556	570	584	584	593
659	676	694	706	687	689	680	681	678	676	677	674	674	662	641	639	646	669	669	670	675	681	691	690	687	687	687	682	686	683	684	691	691	700	699	698	687	692	700	709	709	703	702	694	684	676	675	675	681	674	674	677	693	699	682	672	672	667	668	657	649	639	629	624	624	633	647	663	673	693	689	670	668	668	675	683	679	664	652	640	624	613	616	616	616	618	628	630	633	614	597	594	602	617	617	630	631	675	665	648	629	641	644	651	645	645	628	623	620	633	648	651	646	632	632	635	645	647	647	651	658	661	662	649	636	629	634	650	656	659	657	672	672	690	714	730	735	731	739	747	755	750	735	723	731	745	756	770	772	772	762	751	757	761	770	734	741	759	766	766	762	767	790	829	897	934	956	968	991	1011	1011	1031	1047	1050	1038	1029	1014	995	964	949	960	991	1019	1034	1036	1028	1019	1003	985	975	966	946	945	953	960	962	961	961	951	953	974	977	970	964	978	1006	1017	1026	1026	1024	1020	1008	1014	1022	1029	1024	1015	1010	1008	1004	995	1001	1010	1024	1026	1021	1007	985	978	994	1025	1054	1053	1046	1035	1016	995	979	970	975	981	1006	1056	1071	1071	1085	1086	1072	1068	1050	1020	980	955	930	912	895	882	888	922	956	952	949	957	958	959	957	981	985	991	988	996	1001	992	999	1008	1037	1071	1077	1080	1072	1068	1062	1037	1035	1040	1038	1046	1056	1071	1085	1094	1090	1073	1061	1042	1024	1022	1021	1034	1044	1050	1049	1033	1035	1043	1085	1097	1101	1097	1095	1093	1069	1009	994	980	971	985	998	1033	1085	1104	1106	1108	1109	1067	1055	1042	1025	1002	993	991	998	1017	1036	1043	1061	1048	1061	1071	1059	1028	1003	998	1014	1020	1020	1020	1017	1008	951	932	913	985	994	1030	1042	1049	989	961	932	939	948	956	956	949	937	917	892	868	870	873	865	857	840	814	823	837	845	856	865	891	904	912	912	946	927	894	865	865	857	864	877	895	916	931	955	969	983	1046	1048	1033	1039	1037	1032	1030	988	974	931	933	927	938	999	1006	1019	1030	1036	1046	1038	1038	1039	1039	1031	984	948	931	907	891	886	883	889	885	883	882	882	870	870	872	873	877	869	860	859	867	875	863	846	841	867	927	931	933	925	909	884	871	869	866	863	867	867	856	833	833	817	812	813	813	813	793	771	747	728	724	722	719	706	701	697	692	680	674	669	669	664	655	643	644	647	645	647	641	638	638	638	640	632	637	650	667	667	663	618	619	619	599	567	561	572	588	605	621	631	620	620	619	620	618	616	616	623	624	623	626	626	626	617	617	596	572	566	564	573	588	598	599	604	594	591	591	592	592	593	576	574	574	581	595	597	597	587	584	583	603	612	610	609	599	587	587	559	558	559	576	583	574	562	558	558	564	578	592	618	627	622	613	589	589	579	575	580	582	576	562	566	566	552	553	562	565	575	571	564	564	557	558	562	557	552	537	537	542	548	566	570	567	574	574	587	589	567	549	546	557	557	558	555	554	567	571	571	570	565	566	565	555	554	578	560	545	543	552	565	565	576	576	572	575	586	586	587
644	665	680	677	677	680	680	681	671	668	663	667	667	658	641	638	646	668	671	671	674	672	669	669	669	669	660	657	651	655	667	683	683	692	699	707	688	687	705	714	714	718	704	690	690	690	686	681	681	674	673	676	679	689	696	698	698	698	689	676	656	647	643	639	639	645	661	671	674	679	677	674	666	674	674	682	677	671	657	635	618	620	623	623	621	618	622	631	628	614	592	584	590	609	609	616	631	675	643	629	617	610	617	616	617	617	602	598	607	624	637	633	635	639	640	639	640	628	628	626	629	640	645	637	627	622	628	651	661	660	652	655	668	668	691	707	717	716	724	733	726	710	691	700	712	724	726	710	708	709	709	723	736	745	741	734	741	752	769	760	755	756	784	823	891	937	963	984	998	1016	1016	1020	1031	1018	1002	997	996	987	973	957	960	976	993	1000	982	955	942	957	977	971	953	930	928	945	964	969	961	961	958	955	955	961	950	944	941	945	946	951	966	973	992	999	999	1010	1015	1012	1004	1009	1008	1007	1000	996	1000	1010	1016	1019	1018	1008	1007	1011	1027	1039	1038	1025	1009	981	973	975	984	985	977	978	1006	1081	1094	1094	1106	1094	1068	1050	979	954	927	907	900	911	947	973	972	964	956	956	954	940	904	893	901	933	947	964	981	995	993	989	990	1003	1064	1064	1054	1032	1024	1015	1007	983	946	926	920	920	919	929	940	946	949	955	968	968	971	959	959	969	971	969	980	993	1004	1030	1045	1050	1051	1040	1027	984	967	962	953	948	959	979	988	1014	1004	996	1010	1019	1012	1021	1002	975	958	935	932	939	966	987	996	1012	1008	1023	1039	1014	992	982	984	986	979	970	951	892	879	851	841	847	878	930	1012	1024	1035	946	923	923	926	937	950	955	954	934	909	871	858	861	870	871	860	832	816	818	827	834	837	849	882	900	912	912	901	880	851	851	838	845	870	891	894	904	911	916	910	934	937	941	944	963	986	986	979	959	930	912	917	909	910	926	997	1007	1005	1005	1015	1031	1028	993	976	964	953	939	919	906	895	900	901	902	892	892	885	870	870	855	841	841	859	862	859	861	867	874	857	847	845	859	875	934	938	928	904	879	876	871	863	863	862	866	852	832	832	812	806	805	809	807	794	775	752	725	706	692	685	706	701	688	676	667	660	659	659	654	647	638	642	645	646	637	630	626	629	632	627	620	624	633	633	633	614	619	625	622	616	580	574	579	595	595	592	585	581	581	585	602	609	615	623	623	624	625	630	631	630	623	623	609	593	578	579	577	586	598	599	594	586	586	580	581	587	587	584	576	569	574	585	597	597	591	584	586	595	610	611	607	598	578	578	559	562	559	559	557	559	559	558	558	573	584	585	572	573	568	565	556	556	558	570	579	587	576	562	569	569	561	556	557	565	569	564	564	565	562	561	559	560	559	550	550	543	549	559	568	563	571	571	582	583	554	539	539	549	549	549	552	549	555	558	558	556	559	558	565	555	554	554	550	558	562	568	568	568	563	548	535	536	559	559	563
661	665	666	668	673	678	678	676	671	668	663	675	675	663	645	646	656	671	677	677	678	665	650	644	645	648	648	641	647	654	656	659	664	664	678	687	684	687	696	706	706	714	712	703	692	679	682	683	683	672	673	676	679	674	670	674	674	684	685	664	640	639	640	637	636	636	647	659	655	656	657	658	653	665	665	673	669	656	633	611	608	612	612	612	612	606	606	616	611	601	585	572	585	623	623	641	648	648	643	629	615	606	599	601	597	595	595	600	607	621	626	621	625	642	654	652	629	618	614	614	607	608	629	645	655	655	636	648	654	656	645	646	651	651	663	679	691	698	712	718	700	692	682	674	677	677	677	683	681	684	684	698	715	731	737	736	741	752	765	746	738	743	770	822	865	922	961	995	1015	1017	1017	1019	1010	993	991	991	991	987	972	957	958	966	970	961	948	941	945	953	969	975	955	929	930	948	965	970	964	959	959	954	951	950	944	929	927	932	944	944	946	959	971	976	985	986	988	994	997	1011	1020	1020	1011	1001	997	1003	1010	1018	1020	1011	999	997	1005	1019	1025	1011	973	958	965	981	991	993	977	956	957	974	996	996	1004	989	986	988	979	954	909	891	888	907	948	966	966	957	963	964	954	919	886	880	891	923	944	952	951	961	970	956	951	974	1011	1014	966	962	951	949	942	921	873	877	891	903	915	926	938	942	941	943	948	954	958	960	965	976	976	974	972	976	981	996	1019	1026	1020	1016	989	969	964	961	949	937	951	968	975	965	929	923	941	979	1004	1013	997	961	925	920	914	936	958	977	998	1005	996	994	995	996	993	990	988	986	973	952	884	869	828	819	810	811	817	852	899	995	935	907	896	907	919	929	948	944	952	933	888	849	843	848	859	863	850	831	817	813	814	812	805	824	882	900	905	902	894	871	841	841	822	824	860	894	905	905	906	883	860	847	849	855	859	868	879	927	938	938	926	910	912	906	904	911	933	943	946	948	974	994	1002	994	979	964	952	936	923	904	900	900	902	898	892	887	888	867	867	849	833	835	846	848	859	870	874	868	856	855	857	864	872	877	896	890	878	873	867	867	860	858	859	856	853	853	837	815	813	810	807	796	786	776	758	736	712	692	685	687	696	692	676	661	655	651	651	646	634	631	637	646	648	644	638	629	630	630	626	617	612	614	610	610	613	618	620	628	619	577	573	579	595	599	594	587	585	585	590	599	603	600	608	612	626	628	626	629	622	588	588	574	570	576	581	577	586	592	596	590	583	583	574	575	580	581	578	570	571	571	580	591	591	590	582	583	589	600	608	603	589	577	577	566	565	560	555	553	553	554	558	558	570	574	570	566	563	557	551	551	547	546	552	579	587	586	585	577	577	563	543	546	550	555	556	556	561	562	561	558	561	569	579	579	577	574	569	565	565	567	567	571	567	543	536	535	537	537	539	543	548	556	552	552	556	559	558	551	541	541	537	535	536	562	563	563	558	544	532	518	513	513	524	534
687	672	661	649	650	665	665	661	662	664	664	675	675	647	649	658	667	696	691	691	690	664	648	647	658	656	656	647	637	636	638	638	639	639	654	665	669	668	662	662	662	661	656	655	658	660	656	655	655	660	658	662	665	674	670	647	647	656	655	647	631	628	639	627	615	615	623	631	635	624	618	619	625	638	638	647	654	644	621	601	599	606	607	600	600	589	590	598	601	592	579	577	592	618	618	644	641	642	635	622	615	606	599	591	580	582	582	593	605	615	619	612	612	637	654	652	627	604	591	591	593	602	617	630	636	646	642	637	639	648	645	640	640	640	647	656	675	687	701	704	695	679	678	677	677	677	679	680	676	670	670	675	699	724	739	737	740	753	765	746	725	737	773	807	849	911	959	992	1009	1007	1001	1001	991	981	986	996	1002	987	964	956	961	965	965	954	944	938	935	951	968	988	970	950	950	960	974	977	973	962	962	956	943	945	935	927	923	932	934	932	939	956	965	971	970	965	968	973	993	1013	1024	1025	1017	1004	996	996	995	1006	1007	1005	988	969	969	966	946	934	905	882	890	895	894	890	871	857	852	859	871	881	881	910	918	918	916	925	909	891	877	895	935	953	955	955	956	958	935	902	879	872	882	915	943	940	935	925	919	917	927	949	958	950	946	940	944	943	918	875	867	875	890	899	909	918	930	928	929	929	941	950	958	969	981	990	995	984	967	957	960	971	999	1012	1006	993	967	964	964	958	945	934	954	978	975	952	919	910	928	965	1000	1016	997	954	918	912	915	939	961	983	988	988	988	986	986	990	991	988	985	982	962	878	832	823	809	795	780	780	789	821	854	878	877	864	870	840	846	846	854	860	865	864	845	815	806	822	838	847	840	826	814	809	803	812	805	824	862	891	900	896	866	804	804	757	759	783	795	803	839	883	875	860	849	851	864	869	866	866	882	923	939	943	930	925	911	906	907	905	919	930	930	927	950	969	980	977	960	944	916	904	905	900	896	879	888	887	890	896	891	891	886	865	845	837	838	840	852	866	869	868	857	859	862	863	869	862	854	854	856	861	852	850	849	853	854	850	838	838	836	835	836	822	802	780	768	769	763	736	712	697	685	692	701	691	677	661	652	652	645	634	628	628	637	647	652	653	648	644	641	637	628	622	613	606	606	603	607	612	612	598	589	580	588	609	603	600	595	590	588	588	590	596	597	596	603	609	609	599	586	589	582	570	570	567	569	576	581	580	585	589	592	586	582	582	572	570	571	573	566	553	542	546	567	584	584	584	579	582	588	594	584	563	552	552	563	579	588	584	572	558	551	548	549	549	559	563	557	546	548	548	539	539	547	546	552	559	562	558	535	535	531	534	535	537	540	552	558	558	566	570	561	557	559	569	569	575	571	562	554	542	539	535	535	553	553	534	534	533	533	528	530	543	564	558	552	552	550	548	550	548	547	547	528	530	532	553	559	559	552	537	522	514	509	509	524	546
681	667	652	636	627	625	625	631	640	649	652	657	647	647	649	658	685	719	717	717	690	669	647	651	665	661	661	647	626	621	625	626	628	628	636	648	653	657	645	629	629	616	628	638	644	645	639	632	632	639	642	642	644	649	648	647	647	632	633	632	629	651	646	618	599	599	595	612	614	604	591	595	604	625	625	637	644	638	617	601	603	603	601	583	583	576	583	588	590	588	578	570	589	599	602	602	607	614	606	600	598	598	599	591	578	577	577	593	605	613	611	603	591	624	645	645	636	623	620	620	601	584	586	594	607	612	611	597	587	599	612	619	617	613	613	619	637	646	652	646	654	665	674	679	677	677	674	669	667	655	655	656	661	678	696	708	711	716	720	726	725	737	777	816	849	898	919	945	953	970	967	967	964	965	947	909	892	883	880	924	942	956	963	945	929	923	921	932	957	977	986	975	967	971	979	982	973	956	915	915	903	912	928	942	937	921	902	910	922	944	959	966	966	967	959	955	974	989	988	968	960	952	950	951	956	976	976	969	914	875	876	897	909	900	885	864	850	856	859	866	869	858	857	864	877	889	889	919	921	921	920	917	903	882	877	895	935	858	875	885	898	919	916	898	874	861	864	895	934	923	913	900	898	906	907	905	902	906	923	938	939	924	883	840	833	828	834	853	899	901	905	907	908	918	933	944	958	968	978	995	996	978	964	946	941	933	930	925	919	917	935	947	953	949	937	938	951	977	969	934	910	901	919	955	995	1015	970	927	915	917	924	944	947	959	971	963	962	970	977	979	983	975	958	908	855	830	814	810	808	801	795	792	802	823	847	866	864	854	831	840	831	818	806	807	809	800	789	778	778	808	830	838	831	819	810	809	803	797	793	800	835	834	835	820	798	798	773	753	750	767	784	786	795	806	817	820	822	851	871	876	883	894	908	918	938	944	943	930	913	906	904	905	913	913	905	912	929	948	954	951	939	929	904	898	899	897	890	872	868	871	886	897	899	899	886	870	857	846	834	834	848	862	868	863	847	847	848	844	833	827	833	831	837	832	827	831	839	849	854	841	829	829	824	829	834	827	797	774	759	763	763	741	721	698	693	702	698	689	669	650	642	642	637	629	626	629	637	651	659	660	659	654	649	640	632	613	593	591	591	591	591	595	597	594	590	585	592	610	595	590	588	588	588	587	585	591	592	593	601	609	608	595	575	567	566	566	567	567	569	575	582	588	587	586	590	584	576	576	569	565	565	560	552	541	533	540	562	562	578	578	555	559	568	572	569	542	538	538	552	576	586	581	565	546	539	533	533	538	551	561	555	545	545	551	539	539	534	536	538	540	546	546	531	531	530	531	530	530	535	553	568	568	574	575	566	551	553	556	556	553	544	538	533	534	521	521	516	526	521	521	524	528	528	528	533	543	564	558	551	551	545	542	542	547	551	551	549	539	539	548	553	553	548	539	530	523	524	524	531	548
667	641	625	615	614	597	597	583	592	607	620	629	634	634	634	645	685	719	702	702	677	640	635	649	667	658	658	645	629	616	618	622	621	621	624	634	648	643	629	605	591	591	600	615	633	637	641	632	632	635	634	627	622	622	625	626	632	632	633	626	641	657	653	622	590	590	581	597	606	590	574	581	602	613	613	627	631	626	609	598	608	606	594	581	581	577	582	589	596	588	576	565	565	580	592	592	594	598	599	598	593	591	590	588	578	577	595	594	590	577	555	545	560	612	617	619	620	622	609	609	581	583	597	621	639	639	616	604	588	580	583	589	604	613	613	632	645	644	638	626	638	645	665	678	676	669	666	661	656	652	649	649	655	666	682	694	702	707	714	717	719	744	777	816	808	833	847	872	897	921	937	937	942	939	931	892	879	874	869	901	914	933	917	919	913	900	903	902	900	946	961	973	974	970	979	969	953	918	893	893	890	903	922	932	928	916	899	890	903	923	949	957	965	966	958	947	949	956	952	948	943	946	938	932	931	948	953	937	896	878	885	906	914	890	873	853	845	845	854	866	868	868	890	901	915	922	922	922	917	919	927	930	922	907	892	869	852	858	875	864	866	857	853	842	832	832	833	835	852	871	884	892	892	880	853	839	817	817	823	836	858	859	854	849	848	835	842	864	897	899	906	913	910	909	921	938	947	957	964	973	972	963	952	944	936	930	927	917	908	909	916	931	933	933	935	934	938	937	932	918	906	901	912	942	958	957	940	922	910	918	925	923	924	945	959	949	926	897	891	882	883	837	822	820	813	797	794	803	805	796	796	796	808	842	860	871	870	869	847	842	831	824	813	813	809	797	783	776	774	817	824	829	820	819	810	803	801	794	793	799	811	821	821	814	793	793	771	755	752	765	780	784	785	794	803	811	817	828	863	877	881	887	895	912	934	946	933	924	897	899	901	890	891	888	889	894	911	922	917	926	921	914	910	906	900	895	890	873	865	870	868	880	889	889	877	866	860	852	841	835	847	861	868	858	847	843	841	837	831	829	831	829	824	816	806	801	813	834	853	851	851	833	819	812	797	782	743	724	759	763	765	743	710	697	701	698	689	670	644	635	633	633	631	625	625	627	633	636	635	626	622	623	619	612	599	594	589	586	586	583	579	579	583	586	579	570	561	562	571	577	586	588	588	585	585	585	584	581	593	600	600	586	567	554	558	566	567	568	572	582	589	591	584	578	583	579	571	571	567	567	562	557	543	535	529	536	554	554	569	544	539	542	554	566	568	538	521	521	511	509	512	522	527	532	528	521	521	526	536	550	550	549	545	551	552	552	551	546	536	528	524	524	540	540	545	546	543	536	540	547	559	559	576	568	556	533	536	543	543	549	547	538	530	526	524	524	525	527	539	516	516	520	520	528	533	535	546	539	516	516	514	518	532	538	545	545	532	506	520	527	540	540	539	542	541	537	538	538	542	539
620	607	604	610	627	622	622	610	595	583	599	619	622	622	627	641	677	707	702	702	677	630	628	642	658	663	663	648	627	614	611	614	626	626	629	634	638	633	615	592	579	579	586	601	617	629	629	629	628	628	628	617	607	597	597	604	612	612	618	626	641	657	587	591	593	593	590	588	581	574	568	578	592	606	606	606	589	570	561	558	568	577	576	570	570	568	576	584	589	591	591	585	575	581	582	582	592	588	593	586	568	573	578	590	596	595	594	594	563	560	542	539	566	587	590	587	583	588	585	579	579	581	595	615	631	633	622	612	618	585	580	589	600	614	614	626	641	641	647	649	650	664	671	666	661	659	648	646	643	646	647	647	654	672	674	681	690	701	712	699	682	688	722	775	808	818	841	866	893	910	925	930	930	928	923	920	915	903	891	883	894	877	865	868	873	854	848	841	824	831	893	953	961	959	959	941	911	883	882	882	889	898	907	919	922	916	902	895	898	912	930	943	955	955	936	932	936	932	927	930	933	922	881	888	898	920	941	930	895	886	897	907	886	875	858	842	837	836	843	856	863	883	893	899	913	920	917	917	901	889	879	872	870	867	867	869	862	861	860	864	866	857	854	842	824	825	835	839	855	886	897	896	885	861	851	852	838	814	818	838	853	860	864	864	895	903	905	903	903	901	912	916	914	904	899	913	926	935	949	960	960	949	933	926	925	923	922	916	905	899	898	907	916	920	922	909	877	873	870	867	869	885	898	919	935	935	923	907	896	896	908	906	908	912	915	912	899	887	867	839	821	819	816	814	804	795	795	797	797	797	807	832	838	849	862	872	885	895	889	855	860	858	844	822	812	799	803	817	842	851	824	829	820	813	809	810	812	819	815	807	811	821	808	809	809	809	817	821	852	832	791	785	788	790	793	800	810	827	852	862	869	867	868	871	858	863	865	879	882	883	883	872	878	871	872	882	902	914	916	913	908	909	910	907	901	893	886	879	877	882	880	875	875	870	852	854	855	852	840	840	849	861	863	846	839	835	838	839	840	839	844	844	839	827	818	808	811	819	835	841	841	837	825	809	793	760	743	724	709	711	710	692	689	691	694	690	680	660	646	641	637	637	628	611	612	620	631	635	629	627	626	622	613	601	590	590	595	595	589	577	570	572	574	576	575	569	555	555	560	564	569	570	570	568	570	579	564	568	582	592	582	564	551	554	558	558	568	574	576	587	592	591	580	571	573	575	575	566	560	558	564	565	552	544	545	540	546	546	557	556	547	548	550	547	546	546	537	537	529	527	522	519	520	521	516	513	513	509	523	538	550	549	548	553	555	555	552	547	537	529	526	527	538	538	545	545	544	541	538	542	547	547	550	554	533	516	517	531	531	539	536	522	511	502	523	523	533	520	512	502	516	520	520	535	553	556	512	510	510	512	525	531	514	520	529	529	508	498	490	512	525	525	536	541	550	550	543	543	524	536
600	600	598	608	631	639	634	634	607	589	592	612	615	615	615	621	627	641	637	621	621	630	628	638	651	654	654	643	626	606	598	608	638	673	673	670	658	635	605	582	575	575	577	586	600	616	619	622	622	622	615	598	595	606	612	608	612	612	611	616	609	598	587	591	585	594	594	594	589	574	563	562	581	592	583	583	573	565	563	564	572	583	584	583	575	575	591	594	592	589	595	602	581	581	586	586	588	583	578	561	583	596	595	594	586	577	565	565	563	560	590	577	594	594	590	585	581	579	581	570	570	573	585	602	607	612	622	620	624	585	581	589	598	607	607	620	626	633	648	648	650	666	668	647	637	628	634	638	638	647	658	658	675	687	675	678	684	699	702	692	684	695	737	770	794	818	841	869	893	915	924	924	924	928	928	929	923	910	895	885	841	803	798	820	828	816	790	778	777	814	828	889	938	941	936	913	875	869	871	883	883	888	895	908	917	916	911	902	902	914	918	921	925	909	886	900	901	893	885	874	853	822	815	829	838	887	904	901	870	871	867	872	868	861	847	840	834	836	836	839	852	873	885	902	911	873	832	823	823	826	840	849	861	873	875	879	873	867	870	876	878	867	854	842	838	831	838	849	869	902	901	900	883	851	856	866	867	850	829	835	848	858	871	886	887	890	886	908	924	932	933	917	917	902	889	896	899	914	934	948	951	931	911	894	884	899	905	903	891	871	855	845	857	875	880	866	851	816	811	822	836	856	873	898	915	914	902	869	871	857	862	876	885	884	894	900	893	878	855	830	814	810	804	800	800	799	799	806	815	823	830	831	833	842	854	867	887	896	892	892	870	862	846	824	810	811	811	817	842	851	851	835	824	812	810	815	824	829	828	821	813	812	798	803	803	809	827	848	854	837	798	791	792	787	784	788	806	827	839	851	844	835	823	825	813	819	826	837	848	855	853	838	835	838	851	869	895	911	889	862	838	831	831	833	839	849	876	889	894	897	888	872	872	848	837	834	837	828	805	788	803	814	815	799	793	812	826	842	853	857	861	861	842	820	810	804	806	812	821	826	826	831	824	813	793	760	734	733	742	730	708	689	679	682	681	683	675	657	644	640	640	633	624	610	612	620	629	632	623	622	624	622	611	599	588	595	596	596	591	579	572	570	573	577	577	568	561	562	561	566	571	572	572	576	568	561	554	558	577	578	567	564	551	549	560	560	578	577	573	572	573	578	578	574	569	559	559	556	560	564	565	570	569	561	549	542	548	548	554	552	545	543	544	538	532	533	538	538	532	530	532	524	509	506	511	511	511	512	523	538	544	545	547	554	554	553	541	525	515	518	524	538	542	542	556	562	556	537	533	529	529	531	526	522	521	529	529	525	525	516	501	501	497	488	503	503	495	499	512	502	494	509	509	528	540	507	495	476	476	512	530	532	515	525	534	534	537	525	517	506	488	488	491	507	508	502	484	484	483	503
609	609	601	610	630	641	639	639	618	605	604	602	601	601	596	591	590	599	609	613	613	621	632	638	651	654	640	640	626	609	605	613	629	637	637	645	639	629	614	597	582	582	580	588	593	601	603	603	590	590	581	576	581	593	601	612	612	612	613	610	598	575	571	575	585	594	585	591	586	574	559	553	559	568	571	571	563	557	555	561	570	582	590	583	580	580	580	581	557	565	595	607	618	618	606	593	593	582	567	585	609	608	612	608	585	559	551	551	572	561	590	577	591	590	585	580	575	578	576	566	566	566	572	579	581	571	581	591	606	616	608	594	597	602	606	606	603	607	618	635	653	653	622	620	626	625	616	619	629	640	660	678	678	688	682	679	686	697	703	700	694	729	745	765	790	816	842	869	893	908	916	920	920	926	935	933	924	919	874	794	780	777	805	817	816	797	781	775	776	777	796	829	896	902	886	864	844	840	834	833	833	839	861	890	912	917	916	910	913	918	895	861	844	844	846	832	833	821	818	805	791	789	795	805	812	823	838	856	874	877	864	858	856	853	848	834	833	829	832	826	837	848	861	857	839	821	814	823	823	830	844	858	871	883	887	883	876	872	887	896	891	880	866	849	838	831	838	854	882	915	908	893	862	839	852	872	884	875	846	811	841	857	873	878	874	873	892	907	922	932	936	928	905	896	890	891	898	903	916	923	912	893	863	863	873	880	890	892	893	878	864	848	844	849	852	852	851	828	823	824	835	841	839	853	892	895	859	851	852	850	853	868	882	885	891	893	875	851	834	820	808	803	798	790	793	796	805	813	824	827	831	829	821	827	833	838	850	904	899	885	861	854	828	811	804	811	811	826	852	861	855	848	831	818	811	814	820	819	818	823	806	790	782	782	781	810	827	831	820	808	802	797	792	788	782	790	804	827	835	842	831	817	808	801	808	822	823	830	837	825	812	813	821	827	812	797	810	817	825	808	800	791	793	795	790	785	790	824	838	838	836	836	822	818	823	823	822	821	798	786	793	802	799	793	792	812	825	829	834	834	842	837	822	798	796	795	796	805	813	813	818	814	801	813	786	739	728	736	743	737	717	691	677	670	671	670	659	645	629	626	626	618	616	616	618	629	626	621	608	606	604	602	574	572	585	596	590	590	583	582	576	571	576	578	572	572	571	570	567	570	575	575	579	578	568	540	538	549	559	557	567	552	550	558	558	571	580	565	552	549	551	553	552	553	561	557	557	556	564	566	561	553	558	558	542	539	549	549	551	548	537	532	529	517	509	504	504	500	504	523	539	528	501	494	500	511	511	512	517	527	536	540	544	549	549	549	539	521	515	516	519	538	538	545	534	511	502	522	528	526	526	519	518	531	559	548	528	520	520	513	501	501	502	492	503	503	495	499	512	509	521	521	524	526	511	495	497	493	493	512	529	501	518	566	566	626	584	535	522	494	478	478	464	462	441	405	405	391	388	385
615	615	611	609	619	634	632	632	626	621	616	602	579	579	560	556	564	575	576	591	591	604	617	628	629	640	640	640	623	615	615	618	625	624	624	625	618	620	612	601	597	597	580	563	555	568	584	586	575	575	568	566	571	581	601	610	614	614	610	598	584	560	566	570	575	585	585	591	575	564	563	554	553	553	553	553	547	542	542	551	558	568	577	579	571	571	579	581	554	557	587	603	610	616	604	579	579	565	561	592	606	614	628	630	601	572	574	574	576	594	593	585	591	590	573	572	569	568	568	567	567	566	569	560	554	558	566	580	587	591	592	591	602	608	605	605	595	585	591	606	619	614	604	608	615	624	620	607	607	622	640	655	655	674	677	686	689	690	701	712	725	724	735	742	770	809	843	862	879	908	916	855	892	892	909	921	890	871	803	759	764	772	786	801	802	789	779	776	775	778	784	795	812	826	822	813	805	788	781	771	772	772	790	814	834	847	847	845	852	855	854	847	840	824	822	819	795	780	780	786	783	783	789	793	806	813	835	855	877	883	863	852	843	845	843	838	823	821	821	831	845	844	854	826	815	814	819	828	847	847	867	873	878	884	887	872	868	866	882	895	899	878	868	855	844	837	842	854	882	915	871	868	839	824	831	826	830	835	831	816	811	854	867	865	863	873	888	903	914	927	919	902	892	890	889	894	901	906	911	913	907	891	875	865	865	870	879	888	899	889	882	865	853	855	860	865	867	855	843	834	835	837	833	829	830	836	845	850	849	847	851	873	886	890	892	887	872	845	835	823	816	807	793	786	787	791	797	805	819	825	828	825	809	796	797	801	815	843	851	857	847	833	828	811	804	804	811	823	836	852	856	852	838	820	794	785	798	804	810	813	794	774	764	764	761	803	821	817	805	801	801	797	795	787	788	796	810	832	843	838	804	795	787	792	795	810	813	811	795	772	782	792	789	778	765	759	754	761	778	786	789	780	783	784	782	776	773	766	782	792	793	793	788	794	806	816	823	815	798	788	789	793	796	793	801	815	820	820	827	832	837	827	810	791	791	788	785	788	794	794	803	814	801	778	749	725	717	719	730	731	721	696	676	663	659	652	645	630	618	615	615	609	609	612	616	620	615	599	592	604	606	597	583	572	580	579	579	579	573	573	575	573	572	565	569	573	578	582	583	590	590	590	585	574	548	531	529	533	559	557	551	565	569	575	575	584	569	553	545	541	528	511	509	529	547	549	549	553	564	569	559	543	532	531	531	528	528	522	521	527	522	527	537	533	521	516	516	518	516	511	507	501	493	494	500	500	523	524	518	513	513	521	537	543	543	547	539	526	511	491	492	505	505	527	538	531	532	533	533	526	526	523	522	524	551	547	530	530	519	511	504	508	509	492	492	503	494	494	513	509	520	520	522	523	515	499	491	507	507	552	525	482	477	475	475	464	453	0	473	477	477	487	487	476	455	427	427	418	416	417
628	628	620	622	629	627	622	622	622	619	616	602	579	559	559	553	559	568	577	582	582	593	600	608	614	621	626	626	623	615	610	618	620	614	614	610	604	608	613	605	577	552	552	534	538	552	565	573	570	570	572	566	557	568	583	587	577	568	568	550	548	553	555	554	558	574	574	578	575	564	566	569	566	558	554	554	543	531	527	537	553	563	573	575	570	570	565	572	574	564	564	588	600	603	590	573	573	559	549	578	591	609	627	630	629	601	587	581	581	594	601	596	590	578	573	572	562	564	566	563	563	563	567	566	553	548	552	561	571	574	582	592	607	615	611	611	593	581	586	601	611	609	593	602	618	616	614	605	600	601	618	635	635	628	632	640	644	639	665	686	699	705	712	726	738	747	789	823	827	809	825	855	892	784	794	766	766	761	761	752	758	757	760	770	776	778	780	784	790	787	786	794	812	831	830	820	801	790	785	770	761	761	763	777	781	789	791	805	818	847	846	840	834	817	806	793	782	784	786	787	786	785	790	801	809	814	837	859	871	875	869	850	844	840	841	827	807	807	824	840	856	867	845	824	816	821	827	833	852	852	864	871	869	870	859	855	851	858	877	892	886	872	865	852	828	813	798	800	816	858	871	868	839	763	771	784	797	801	810	811	832	852	858	859	856	867	878	888	889	890	871	867	867	863	873	893	899	904	910	912	912	894	881	848	834	848	872	875	891	897	893	889	884	870	870	873	876	865	847	842	841	840	831	824	826	831	841	845	846	843	846	867	886	889	893	892	878	866	851	837	827	823	808	781	778	782	785	796	802	817	823	820	813	797	794	795	799	825	853	857	847	833	810	807	807	808	803	795	787	801	822	846	836	798	786	780	787	793	804	800	786	765	765	751	747	768	801	800	795	794	794	797	791	789	793	817	819	801	786	787	783	781	776	770	768	774	769	758	759	765	771	783	792	787	777	759	745	748	766	776	778	772	768	774	770	762	755	760	774	777	774	774	774	776	790	809	813	806	794	782	782	798	830	840	845	839	827	827	832	836	838	818	800	784	782	783	777	779	785	794	803	802	787	765	741	718	707	699	707	717	712	697	676	661	633	607	596	602	610	610	606	604	608	602	604	606	599	589	582	580	588	605	605	573	578	589	589	581	570	572	573	572	568	558	565	574	576	566	555	560	565	565	563	551	542	531	529	533	535	534	548	564	575	568	568	558	539	525	527	521	516	518	526	538	533	533	537	535	531	529	530	529	526	524	526	524	524	522	517	517	520	528	537	534	523	521	521	525	520	511	509	501	493	488	493	493	517	531	530	524	521	519	517	516	516	516	517	515	515	518	521	523	523	527	526	527	528	529	528	528	528	523	519	518	520	512	505	505	505	501	497	508	509	509	509	500	490	491	497	493	494	494	517	539	542	553	556	471	471	470	505	494	482	459	459	453	456	0	0	0	0	514	523	517	459	441	441	418	416	417
627	627	638	644	637	621	611	611	596	601	605	599	586	573	573	566	574	582	584	578	578	580	580	587	589	605	603	603	602	608	610	618	608	597	597	576	591	604	602	596	590	579	579	561	554	553	567	576	580	586	586	568	566	574	582	567	561	552	552	543	542	545	550	542	534	540	540	550	558	563	566	569	579	567	553	551	551	546	528	529	538	561	567	564	559	537	537	550	566	560	559	572	579	581	577	574	574	561	551	556	572	596	610	611	610	599	583	581	581	589	600	599	587	569	561	563	562	564	565	562	558	558	559	564	555	545	548	550	559	559	571	586	591	597	605	605	593	581	577	591	596	587	592	607	609	611	608	605	594	593	593	604	611	611	623	627	623	628	652	678	694	700	706	714	723	731	730	725	714	717	730	746	784	784	742	712	712	732	746	749	753	756	761	768	769	773	791	801	813	802	793	795	815	843	844	829	821	800	793	770	755	755	754	754	754	756	770	781	796	828	837	831	827	821	812	804	786	788	788	787	786	797	808	817	823	832	848	861	869	874	868	853	845	844	837	808	795	803	819	837	844	837	826	820	813	813	814	825	828	851	851	853	853	851	851	849	842	848	866	875	863	849	838	811	777	767	756	742	725	725	731	738	748	763	771	784	797	767	777	791	828	848	857	853	842	846	852	843	859	835	829	819	820	823	841	856	888	896	904	907	913	909	854	839	828	831	848	870	875	887	895	892	888	876	875	877	869	854	844	842	843	844	835	827	828	827	834	843	844	843	839	860	871	884	893	890	897	900	893	882	841	821	806	784	778	774	770	777	789	801	815	813	810	802	790	795	799	825	853	852	843	815	802	804	807	805	804	787	780	780	789	802	806	801	795	784	784	788	771	761	754	742	742	734	740	759	779	788	791	787	780	791	787	782	792	778	759	748	737	755	773	775	777	771	764	759	754	751	751	749	758	777	784	786	782	774	762	755	760	765	760	747	748	757	762	754	749	748	759	762	762	763	762	765	778	785	796	799	778	765	796	817	835	841	851	848	846	846	846	871	878	857	822	781	756	754	769	779	779	785	793	785	771	756	738	719	703	691	691	696	699	692	674	656	631	606	594	600	609	609	605	605	604	597	592	598	589	584	580	592	599	618	620	621	613	595	595	614	617	612	595	583	574	572	580	581	570	562	551	557	559	559	558	549	542	531	524	531	546	532	513	513	513	517	517	517	515	512	511	513	514	517	523	530	538	538	534	521	519	523	537	541	540	536	531	521	521	517	516	515	517	527	534	533	532	533	533	532	526	511	509	508	508	510	511	511	510	508	507	514	512	515	515	516	516	514	515	514	515	519	521	524	524	524	520	517	515	521	524	521	521	519	515	512	514	506	505	505	504	501	497	482	492	502	502	517	522	505	477	473	480	480	487	481	499	525	530	540	540	530	525	506	481	460	460	454	457	0	0	0	0	492	492	472	442	441	441	433	444	435
591	591	595	616	621	602	584	572	572	579	585	588	580	575	575	573	577	587	583	577	577	565	571	573	579	575	576	576	577	586	598	606	608	597	597	548	563	576	589	595	598	587	587	571	566	560	571	581	592	580	580	559	559	567	576	563	546	541	541	537	533	536	540	533	533	529	540	540	549	560	576	581	579	567	552	553	553	553	547	541	549	563	558	552	532	525	525	541	558	544	546	557	554	555	558	568	568	562	550	546	557	576	587	590	586	579	568	572	572	582	594	600	582	566	555	553	558	560	565	557	555	555	557	561	553	544	542	547	551	555	559	567	578	575	573	568	568	575	584	588	589	589	605	603	599	593	599	598	592	588	592	605	615	615	622	621	614	622	643	670	690	700	703	707	713	714	716	711	719	735	746	756	761	742	742	712	717	724	738	745	751	752	757	763	765	768	790	809	808	801	800	806	826	844	840	823	816	822	813	793	767	755	755	753	752	752	749	748	778	811	834	821	820	818	823	820	803	783	780	779	791	809	829	833	834	838	856	867	877	879	884	889	876	861	842	806	796	799	801	797	806	814	817	818	813	806	802	802	799	812	830	830	840	844	840	825	814	801	789	778	775	771	772	773	776	768	758	743	730	722	727	745	758	764	764	762	767	767	777	791	816	833	854	852	833	811	782	791	808	822	822	817	801	796	823	835	841	847	873	894	902	842	845	839	830	832	836	849	867	874	882	882	877	874	865	855	849	841	832	836	838	843	842	833	820	821	826	837	843	841	837	835	863	875	887	885	890	889	887	872	825	806	784	787	784	779	771	775	781	793	798	813	810	802	790	802	811	836	850	845	834	800	789	795	797	797	790	775	768	767	772	747	723	731	746	756	760	759	737	731	718	718	715	715	725	756	785	804	799	787	784	786	781	781	770	759	749	732	717	726	756	768	773	771	763	750	746	746	743	743	741	742	749	762	762	743	743	750	757	758	749	739	734	751	752	779	814	774	764	754	754	766	764	766	769	769	769	770	773	784	802	820	831	845	858	861	864	864	864	895	911	912	901	881	840	820	769	768	768	771	774	787	798	802	771	716	699	684	684	687	680	660	602	606	609	604	589	583	601	601	596	589	566	554	548	590	618	622	619	613	605	598	598	598	607	611	611	616	628	622	607	560	525	566	573	582	572	563	554	556	556	543	558	549	546	560	535	527	554	526	530	524	520	520	516	517	527	529	526	513	503	503	514	520	530	530	535	524	518	523	533	534	535	533	529	522	522	518	513	515	518	523	532	521	525	525	532	532	526	517	513	509	507	507	507	507	507	504	503	499	503	511	517	517	515	518	515	511	511	514	517	517	517	513	511	504	507	512	516	516	501	510	506	506	509	512	521	505	504	500	487	482	492	511	511	522	526	478	449	457	473	473	475	500	520	537	549	549	548	546	525	506	473	446	446	456	462	474	463	443	443	449	492	472	442	441	441	454	462	455
591	569	569	575	580	586	573	563	563	562	569	568	568	566	566	563	567	565	548	541	547	547	559	568	570	570	571	568	568	580	588	594	589	559	548	548	563	568	581	588	586	570	570	563	554	556	574	583	582	573	573	559	558	561	558	541	537	531	531	531	533	531	530	529	531	548	563	563	569	570	569	569	565	559	552	553	551	554	555	557	554	551	549	545	538	525	525	520	541	552	553	550	545	544	542	544	537	537	528	527	541	549	553	572	569	562	540	549	549	567	589	595	579	573	562	567	564	563	558	557	555	538	541	548	547	544	544	545	542	547	546	555	561	565	559	557	557	565	579	585	585	599	595	590	588	586	577	572	577	596	622	646	631	631	608	609	609	612	639	664	687	696	701	703	704	705	698	707	717	726	735	749	751	725	725	714	717	724	736	744	735	733	735	749	755	762	785	802	802	800	798	806	819	839	837	821	806	820	827	822	811	771	771	762	756	756	752	750	763	809	829	829	828	826	827	825	817	795	779	786	805	832	843	842	840	841	847	865	876	882	890	897	898	866	843	808	800	788	780	783	791	798	804	806	794	789	790	789	798	794	802	802	817	807	803	800	802	786	777	773	771	776	773	774	771	768	756	740	728	728	734	750	766	770	762	756	754	756	759	766	816	833	854	852	794	793	795	800	809	816	815	812	802	794	809	802	801	794	793	796	817	830	834	831	830	831	837	841	845	858	859	848	838	831	834	831	830	826	823	821	828	832	832	823	809	801	809	827	841	843	838	833	839	852	855	860	861	860	846	823	796	770	777	791	794	791	779	775	781	793	798	797	796	806	802	815	825	838	838	834	804	789	777	775	780	775	769	764	757	755	737	718	713	696	699	722	729	722	724	719	704	704	702	706	713	722	754	778	791	790	782	778	779	776	746	737	728	721	708	709	736	759	764	765	751	726	722	721	718	712	697	697	701	715	728	733	734	745	738	772	779	773	764	770	795	867	916	887	869	869	870	886	886	874	865	862	896	931	945	964	995	1025	1028	1013	996	1000	1005	1033	1057	1059	1061	1076	1127	1150	840	820	830	830	862	887	911	920	925	919	858	820	809	793	801	798	788	759	703	695	693	679	655	634	634	618	586	573	575	578	603	639	655	642	626	613	608	602	596	598	600	600	601	605	618	619	606	557	521	530	497	507	510	516	524	525	556	543	508	525	546	546	505	502	502	517	527	527	522	522	511	512	521	527	525	517	509	507	504	503	509	509	511	520	518	512	507	509	512	518	522	522	518	519	521	522	517	509	504	510	519	525	532	535	529	524	516	511	506	503	503	500	504	505	502	500	502	510	522	522	525	519	514	509	507	506	507	507	506	503	498	497	500	505	506	506	496	499	488	482	509	512	521	521	504	490	499	503	512	531	531	503	488	479	467	448	437	437	458	509	541	551	556	556	559	529	504	487	450	451	451	457	469	475	481	481	443	449	450	444	416	426	426	451	469	471
557	569	569	575	562	560	543	531	531	533	553	557	558	558	558	560	557	554	538	539	566	566	564	558	554	554	556	559	559	572	586	592	585	547	548	548	556	568	581	569	555	551	551	556	555	563	577	580	576	565	565	558	546	540	542	541	534	531	531	527	528	528	524	537	536	546	561	561	565	558	558	558	549	546	550	551	551	554	548	542	540	543	544	539	540	538	538	543	551	554	544	536	532	529	529	527	529	529	535	540	546	543	521	515	512	511	505	519	534	534	554	563	568	564	560	552	542	540	543	546	538	541	541	526	545	551	553	546	544	544	538	550	554	555	550	542	542	554	564	570	572	570	581	586	591	584	576	576	576	581	590	586	592	594	594	598	612	637	659	667	675	681	689	689	683	684	693	709	721	728	732	739	739	721	721	714	715	728	736	744	725	717	722	735	745	754	764	772	778	783	791	798	801	802	798	792	801	818	830	826	809	767	764	764	764	759	761	772	798	805	826	833	829	830	828	821	810	792	784	799	814	838	850	844	845	842	837	835	833	853	868	875	868	844	826	811	785	785	772	772	777	788	786	778	777	776	795	795	796	788	790	791	791	779	779	785	788	792	785	774	777	780	776	772	769	768	750	730	729	734	738	760	770	772	765	754	751	748	750	762	794	811	811	805	794	793	795	800	809	808	808	800	794	782	768	762	769	758	704	697	759	815	832	831	833	837	841	845	843	843	821	817	814	813	816	817	813	812	804	794	799	800	802	808	799	789	787	789	817	839	838	832	838	837	837	836	834	834	830	824	803	787	787	791	794	791	779	766	772	778	786	790	794	805	808	815	830	838	836	823	803	772	745	743	733	727	727	723	720	723	720	713	702	695	695	702	721	725	720	708	708	697	689	696	701	699	700	699	701	727	746	737	727	718	648	643	643	658	692	712	727	725	717	704	701	701	721	724	721	713	699	700	704	716	719	727	742	792	861	954	979	1008	1017	1031	1042	1121	1167	1167	1170	1170	1177	1191	1278	1305	1329	1357	1405	1442	1452	1443	1438	1430	1389	1270	1199	1201	1243	1316	1344	1336	1270	1244	1127	1150	1115	1033	1009	1009	1103	1164	1161	1143	1133	1119	1107	1106	1105	1118	1095	1030	985	933	880	851	815	796	774	750	750	697	652	636	634	641	638	639	650	637	619	612	607	599	592	577	571	571	573	559	551	577	563	521	513	513	510	512	512	514	524	525	525	520	508	508	504	498	499	501	504	517	524	525	521	521	511	510	515	515	515	515	513	512	507	506	506	507	511	513	517	518	518	514	505	505	502	502	501	499	503	509	509	503	495	510	519	519	528	536	539	527	514	507	501	496	496	496	499	499	500	498	495	498	502	502	510	504	509	504	501	499	498	498	498	495	493	493	493	497	500	500	495	462	488	482	479	499	499	508	479	458	507	466	449	456	456	470	473	481	479	458	458	447	463	512	553	562	552	552	540	508	473	472	458	458	451	461	473	483	481	481	481	474	440	419	412	412	422	428	439	460
539	545	545	553	562	560	548	543	543	548	560	569	569	562	562	561	566	558	546	541	566	566	567	567	553	531	539	553	553	566	576	582	580	558	548	548	556	557	564	569	555	534	536	536	547	567	584	578	563	554	554	547	537	532	534	536	529	525	524	524	560	560	551	538	526	533	544	544	549	550	553	559	543	543	546	552	553	553	548	542	533	536	542	542	539	531	525	525	518	518	518	522	527	533	534	540	539	539	546	546	550	541	521	515	513	512	508	515	521	521	526	538	553	557	552	538	537	538	539	540	529	526	526	526	545	555	562	553	546	541	546	550	558	559	550	546	550	550	557	553	535	539	567	577	586	586	577	574	576	583	583	580	582	586	586	598	613	638	657	665	663	660	668	682	682	681	696	713	723	726	725	723	722	719	715	715	719	725	740	738	725	706	710	720	734	740	735	735	753	773	780	785	786	768	755	751	756	768	778	775	764	752	751	751	760	759	770	782	800	809	804	804	812	827	805	778	760	760	780	806	821	832	835	825	811	795	780	767	769	765	756	760	768	768	769	768	770	771	759	760	764	774	781	776	775	777	790	792	780	772	761	758	758	758	761	766	774	786	781	773	771	777	774	770	762	750	734	717	711	718	722	724	741	757	760	756	753	752	753	763	780	793	802	795	790	789	792	799	806	808	808	800	794	782	768	762	768	757	701	690	749	797	828	843	846	847	848	846	842	836	815	809	803	801	796	798	779	755	743	721	735	737	743	758	758	718	713	715	724	742	755	769	777	778	778	772	766	834	830	824	803	787	787	795	804	800	782	757	740	743	757	747	728	680	701	713	725	763	772	763	752	735	724	701	681	688	678	669	669	671	678	687	690	690	689	691	696	701	709	709	706	687	685	693	700	706	709	697	690	687	706	697	688	672	668	665	678	686	693	713	730	730	729	704	706	699	727	741	750	783	867	917	930	950	970	1011	1024	1086	1389	1377	1348	1302	1269	1242	1246	1257	1292	1452	1484	1484	1504	1522	1565	1565	1499	1424	1427	1441	1450	1447	1442	1446	1438	1393	1325	1296	1300	1326	1344	1342	1270	1244	1241	1251	1257	1259	1238	1238	1236	1211	1206	1182	1169	1155	1138	1139	1171	1188	1134	1065	990	907	858	813	810	815	803	774	774	745	710	675	652	641	648	655	658	639	613	603	566	531	507	492	505	505	525	538	544	537	515	501	501	509	514	517	512	514	513	506	506	508	503	498	498	494	498	502	510	518	520	524	524	518	512	515	513	515	511	510	514	520	524	514	514	511	515	515	512	511	513	511	505	506	503	503	502	500	496	494	493	503	495	488	490	490	515	525	517	503	487	475	471	474	474	478	484	482	492	503	509	497	492	492	494	500	503	501	502	495	495	495	493	494	499	487	486	497	491	491	495	462	431	438	474	489	489	515	526	535	529	472	461	461	456	468	474	482	480	471	471	450	467	515	557	555	531	531	485	460	449	461	474	474	468	461	473	483	503	503	510	498	471	432	404	404	405	433	445	454
537	539	539	557	568	563	548	543	540	547	561	573	566	555	555	555	553	550	538	536	544	544	559	559	539	524	519	535	535	550	556	564	567	557	547	547	546	546	549	549	536	534	536	528	525	531	548	558	558	553	541	541	531	526	523	522	503	512	539	539	554	543	538	528	520	523	530	527	527	529	543	557	556	548	547	548	544	544	528	530	533	536	542	539	530	504	513	513	510	512	515	521	533	545	552	552	546	547	547	546	546	535	528	525	522	518	517	517	520	520	521	522	528	539	535	520	529	544	545	537	528	522	522	527	546	555	562	557	549	562	569	574	575	577	588	586	573	573	546	525	520	528	545	568	580	585	580	577	576	577	578	577	580	586	586	601	613	632	650	657	650	643	646	663	678	682	700	712	719	718	724	718	717	717	718	718	720	726	729	722	707	706	710	708	714	721	720	709	699	722	750	755	759	754	742	735	740	746	748	737	725	722	740	749	749	761	770	782	792	794	777	726	731	745	744	721	708	703	702	715	729	732	733	731	732	739	746	761	768	768	760	756	747	741	729	729	737	745	750	752	755	758	762	764	754	747	739	743	749	750	748	744	747	747	751	757	766	772	771	764	761	761	763	760	760	746	730	711	706	711	719	724	739	749	754	758	759	759	759	776	777	784	790	788	786	790	795	796	801	801	794	794	792	780	765	762	768	757	701	690	749	797	828	918	925	922	898	851	844	838	819	803	798	785	771	745	728	737	732	703	701	719	737	744	738	727	718	714	719	742	755	769	777	778	778	772	766	756	752	761	760	757	753	742	729	722	715	714	719	736	743	720	699	672	681	681	693	698	717	747	741	736	716	715	703	700	692	678	672	674	682	689	695	695	689	686	679	679	689	689	687	689	693	698	705	705	701	692	669	675	671	698	687	677	674	670	681	701	705	716	741	785	800	806	823	885	992	1027	1039	1090	1210	1357	1429	1451	1463	1461	1441	1418	1396	1378	1334	1297	1259	1240	1247	1266	1326	1435	1435	1471	1502	1530	1569	1573	1529	1474	1430	1414	1415	1426	1434	1440	1438	1403	1374	1331	1319	1320	1344	1342	1330	1304	1265	1239	1229	1243	1243	1274	1282	1286	1265	1236	1216	1199	1180	1186	1225	1202	1155	1094	1004	910	848	819	816	805	799	799	767	737	703	674	650	661	659	628	619	594	524	541	569	535	503	492	498	498	498	502	510	513	513	511	505	496	492	517	519	515	511	511	508	501	495	494	492	496	499	501	503	511	511	511	511	509	504	511	510	507	503	502	509	516	507	508	508	511	508	499	496	501	504	505	500	497	497	497	496	495	491	494	493	493	496	490	488	488	491	496	488	478	462	459	460	466	466	471	473	474	484	499	504	492	473	473	485	487	499	497	501	493	480	480	476	485	508	514	452	453	491	491	533	558	545	515	496	494	494	515	534	544	544	535	510	510	486	453	439	424	402	390	390	391	417	476	509	498	477	477	463	448	464	492	512	474	468	456	453	477	485	485	488	488	487	472	467	467	452	467	467	464
540	554	554	563	555	538	535	540	540	547	561	571	566	555	545	545	539	531	517	515	526	526	543	544	531	519	516	520	520	531	539	542	543	542	540	540	536	536	539	541	543	537	528	528	525	531	504	505	515	527	522	522	515	514	508	506	512	523	538	538	540	528	517	516	519	524	518	511	511	511	511	513	520	540	548	550	545	545	531	512	521	530	542	539	539	534	535	535	518	511	512	522	534	549	556	555	546	537	537	528	519	522	527	529	525	521	517	522	521	519	519	517	515	516	504	502	526	543	541	533	524	526	537	537	551	562	560	557	549	565	560	558	556	556	563	585	578	578	566	551	527	528	537	556	573	584	587	578	569	566	575	583	589	594	603	603	615	626	641	641	620	604	602	644	667	676	684	695	706	719	728	723	723	718	720	723	723	715	709	701	694	692	702	708	714	645	624	623	661	701	716	743	751	734	721	715	721	730	734	728	718	714	722	741	741	753	764	769	734	710	701	703	714	718	724	709	701	693	694	695	697	707	716	722	725	728	743	762	772	776	768	759	747	740	733	729	731	738	744	750	753	753	757	754	745	740	734	738	742	742	743	743	744	744	747	753	758	764	764	753	752	756	758	764	773	781	786	789	783	770	767	757	740	732	734	745	759	764	768	784	798	796	780	774	775	800	801	804	805	804	799	836	836	819	801	780	745	739	736	743	810	828	896	918	925	922	898	851	844	838	819	803	798	785	771	745	728	737	732	703	701	719	737	744	738	727	718	714	719	723	729	736	737	739	742	737	728	722	719	720	730	737	740	730	710	697	686	697	713	714	709	711	703	697	695	691	700	706	709	729	746	767	791	735	711	707	699	688	679	678	686	696	700	701	694	689	680	677	677	685	687	692	695	699	700	704	697	697	663	666	663	696	701	702	718	768	789	813	840	861	893	960	1027	1098	1135	1262	1442	1431	1413	1428	1466	1511	1528	1518	1491	1466	1439	1422	1402	1373	1330	1289	1266	1259	1261	1279	1317	1375	1375	1451	1500	1525	1555	1554	1497	1450	1405	1378	1371	1371	1388	1380	1392	1393	1384	1362	1303	1320	1330	1327	1327	1310	1287	1250	1248	1260	1260	1282	1305	1314	1301	1258	1230	1202	1184	1169	1195	1198	1135	1069	1014	926	825	784	777	789	741	741	680	647	628	588	509	506	553	559	543	516	499	522	546	531	521	518	518	511	503	505	509	516	520	516	508	496	492	494	516	516	506	506	495	485	484	498	503	501	499	501	500	501	504	507	507	500	500	504	501	501	496	494	501	501	498	498	498	499	502	498	493	492	500	500	496	493	493	495	493	495	491	486	487	493	493	493	493	489	489	492	485	474	466	463	468	473	473	477	474	464	469	496	504	496	496	474	485	485	488	480	475	494	491	491	481	486	507	513	452	453	453	459	525	565	553	524	506	506	506	508	507	505	502	502	471	471	435	407	404	418	427	424	424	430	450	485	491	476	476	480	474	475	471	492	512	512	523	506	526	510	485	485	459	464	482	486	516	516	504	491	474	460
541	554	554	565	549	535	530	536	559	559	568	571	566	546	532	532	524	519	503	503	524	529	529	526	518	515	519	531	531	531	527	527	534	527	527	528	528	527	524	517	524	537	550	550	543	526	504	505	530	534	526	526	510	505	509	515	521	528	535	535	531	521	510	511	513	519	509	504	504	506	516	521	519	533	540	540	538	538	535	529	529	526	528	535	539	534	539	539	532	514	513	521	532	543	546	545	542	533	533	520	514	512	516	516	511	512	518	522	522	519	519	515	509	489	479	485	506	540	536	527	519	524	536	536	550	565	569	566	568	565	541	537	540	546	550	554	552	550	550	546	546	537	541	549	562	576	584	578	556	560	571	588	598	604	600	600	601	600	604	594	586	578	583	602	621	640	660	679	701	726	736	736	727	722	708	698	698	684	669	653	648	649	651	661	659	645	624	608	622	649	694	720	723	715	685	669	665	669	665	666	701	712	720	731	731	738	708	684	681	687	690	692	697	703	704	698	693	689	688	681	686	695	704	714	715	723	733	742	774	796	799	789	765	754	759	764	759	757	761	762	758	751	750	743	735	731	726	723	721	718	734	747	762	793	793	792	787	790	794	797	808	809	812	828	858	867	862	854	841	833	864	877	867	851	849	871	889	895	893	895	910	919	925	934	946	942	900	884	851	847	862	952	992	993	984	968	981	933	915	869	856	839	895	924	932	922	893	851	846	839	823	786	771	751	746	726	699	695	695	696	707	725	743	745	738	731	725	728	728	729	731	732	731	732	736	737	724	711	716	729	741	746	743	731	711	700	693	703	705	707	706	707	708	705	705	706	705	706	710	736	769	834	828	820	732	705	703	698	690	695	710	720	721	719	710	699	686	681	681	679	679	686	693	696	698	696	689	680	668	676	733	790	799	793	835	951	1013	1031	1028	1116	1199	1329	1360	1389	1423	1433	1429	1424	1407	1421	1454	1490	1509	1508	1489	1462	1434	1422	1394	1359	1315	1278	1272	1275	1293	1306	1336	1336	1376	1417	1450	1479	1490	1488	1462	1424	1381	1349	1311	1302	1314	1325	1310	1308	1293	1362	1303	1304	1293	1297	1313	1316	1296	1271	1278	1276	1276	1292	1308	1319	1294	1245	1209	1176	1113	1066	1011	895	835	787	743	701	669	647	619	614	597	597	559	542	539	542	526	508	514	515	503	512	517	510	508	505	507	505	505	499	495	495	496	501	502	516	508	487	480	474	470	488	485	485	475	478	485	496	499	498	495	496	496	494	490	485	485	485	489	496	499	494	489	488	494	495	493	493	490	492	495	495	489	492	498	496	492	489	489	495	493	494	485	484	480	481	494	492	492	490	487	491	489	485	469	471	484	484	489	487	485	478	475	478	490	498	498	487	470	486	485	477	475	496	496	491	477	460	507	513	449	444	444	489	520	514	502	487	483	466	466	468	469	459	460	440	426	426	445	443	428	428	431	452	452	466	475	485	474	465	465	444	474	475	471	464	466	466	468	481	491	486	479	479	471	467	461	455	463	463	465	455	451	451
537	550	562	562	564	548	546	554	565	565	566	570	561	546	532	537	528	518	515	540	545	528	528	496	489	502	524	532	537	537	537	533	525	523	529	529	529	529	530	521	522	537	547	547	540	523	513	520	530	534	527	527	513	508	505	512	521	525	517	500	500	501	504	505	504	513	511	512	512	518	529	540	529	526	528	532	538	538	538	533	532	526	539	540	544	542	539	532	512	510	510	517	527	531	530	521	516	522	522	519	507	504	492	485	490	506	517	521	522	520	520	511	499	483	480	480	493	513	532	523	520	533	542	542	543	546	548	542	543	541	541	537	520	534	537	524	509	494	494	506	524	536	536	544	552	559	555	544	536	549	564	578	589	603	614	614	622	617	597	589	573	570	578	598	607	615	632	640	676	688	699	684	668	657	670	676	676	673	664	654	613	603	605	616	604	606	606	608	622	659	664	665	665	662	645	632	630	617	618	628	642	653	662	665	667	667	662	647	666	685	690	693	702	704	713	716	725	726	722	711	699	708	720	732	758	769	779	807	826	834	841	855	873	905	933	928	917	904	879	860	847	838	838	830	819	805	794	782	772	777	799	821	857	912	912	933	945	936	921	918	934	951	980	981	991	1004	1011	1002	984	977	982	1042	1098	1149	1196	1225	1242	1253	1255	1246	1237	1234	1224	1233	1123	1000	961	896	875	852	868	948	994	1001	992	979	985	934	915	888	871	884	896	875	846	838	790	758	759	761	757	751	739	735	731	712	694	691	692	699	708	735	748	748	739	737	737	740	742	735	731	712	693	695	705	712	712	696	702	710	728	729	729	727	719	706	700	699	700	700	701	704	702	708	713	709	704	703	708	719	765	894	885	818	743	708	701	700	694	702	718	726	725	722	716	710	705	705	706	707	705	716	735	752	760	754	781	835	891	963	1015	1066	1094	1114	1201	1248	1277	1293	1353	1367	1364	1360	1367	1387	1409	1421	1425	1418	1407	1409	1435	1464	1477	1472	1468	1451	1433	1410	1366	1311	1284	1268	1268	1274	1294	1325	1340	1340	1351	1377	1397	1453	1455	1446	1428	1385	1331	1277	1203	1090	1052	1047	1060	1308	1293	1264	1253	1212	1193	1181	1181	1185	1215	1259	1248	1248	1216	1164	1129	1102	1040	1007	1013	1014	939	835	756	732	694	661	583	566	550	541	530	507	507	482	478	482	492	506	513	516	516	515	493	495	497	503	503	502	495	491	491	491	490	494	496	501	502	500	506	495	482	475	472	473	473	478	483	483	481	486	490	499	506	505	497	486	474	474	474	478	487	489	488	489	485	486	501	499	483	483	475	475	473	478	476	466	473	468	461	489	489	490	485	484	479	472	470	467	466	465	465	468	471	471	468	475	474	481	480	480	473	473	475	464	463	456	458	471	471	471	471	466	461	451	472	471	471	470	477	460	456	453	445	436	436	445	462	467	455	446	436	436	447	474	478	483	482	476	455	455	442	426	419	428	433	433	445	461	475	481	471	463	465	444	454	471	465	452	452	450	455	468	491	486	479	479	471	464	459	455	453	453	455	449	448	451
