780	761	761	743	736	738	752	773	773	781	760	751	752	760	760	759	748	742	728	709	709	669	636	615	637	671	693	693	708	712	713	706	706	710	710	694	675	667	690	709	718	718	721	731	732	737	743	755	755	762	758	753	747	743	756	754	754	746	733	717	720	736	754	748	741	741	728	722	719	722	724	738	747	747	752	744	732	725	734	742	729	721	721	716	713	727	728	727	726	726	725	719	719	719	729	734	720	710	700	703	706	708	710	710	711	707	706	703	706	715	718	720	713	702	702	705	714	714	711	719	719	717	720	727	732	740	746	746	741	738	726	720	725	736	743	746	748	744	744	749	740	740	733	726	721	719	709	699	685	687	702	731	750	756	746	737	742	742	757	765	763	757	752	747	743	736	750	761	770	773	775	776	772	755	743	740	740	752	750	741	731	721	727	730	733	721	708	697	697	705	715	722	739	740	736	741	762	772	774	774	778	781	775	771	768	764	759	757	760	746	737	734	733	752	770	769	769	777	786	788	781	761	752	755	759	752	739	727	729	730	730	737	739	738	743	741	733	725	725	732	736	739	749	744	743	741	733	726	724	728	734	742	752	757	766	773	768	749	738	733	730	715	707	715	719	724	729	730	724	723	727	744	742	746	745	744	744	741	738	741	741	744	745	751	747	741	740	737	743	741	730	717	716	726	736	726	711	712	723	739	737	738	749	767	761	753	748	747	743	727	711	713	722	725	726	731	729	735	737	745	741	741	742	742	738	732	735	738	733	732	722	729	738	745	737	721	722	725	731	738	733	733	735	732	736	740	746	744	734	731	736	735	735	733	725	725	727	731	729	731	727	709	694	689	708	725	732	725	716	710	706	707	700	694	689	689	696	701	707	717	729	725	721	731	737	742	755	757	750	742	735	722	715	713	717	714	716	715	720	729	736	728	731	727	721	715	714	709	707	715	728	734	732	727	730	726	730	726	737	746	747	736	723	713	706	704	704	705	708	703	703	708	711	711	709	707	707	728	748	759	759	751	734	721	718	707	694	701	703	706	711	713	712	706	723	723	723	714	725	724	722	725	716	718	729	737	734	734	728	724	713	701	697	696	689	689	684	686	689	696	701	698	698	698	703	723	727	716	708	694	689	689	684	680	694	700	688	690	696	694	695	692	688	680	670	670	666	675	684	691	686	680	681	686	689	691	685	685	674	668	680	679	684	699	703	704	699	692	683	683	679	678	681	682	681	687	691	684	677	677	681	680	678	677	680	683	681	683	678	678	672	691	697	699	696	691	686	684	684	685	682	680	683	688	689	686	679	679	670	664	665	659	661	673	682	682	697	708	699	692	682	670	675	675	681	679	672	661	657	653	653	656	662	672	681	671	657	657	665	673	665	660	663	683	683	699	708	708	706	695	695	695	697	700	704	702	707	707	716	715	714	712	713	713	737	725	717	716	707	707	703	698	694	681	684	684	686	688	689	690
792	771	771	742	731	737	752	773	773	772	753	736	735	747	747	758	752	724	712	705	684	684	642	628	645	680	709	709	717	718	713	706	731	731	731	727	698	689	710	723	735	735	741	745	738	737	742	750	756	756	746	742	739	749	756	754	728	728	723	717	721	734	735	726	715	715	709	710	710	711	716	731	733	732	732	727	727	720	728	732	729	721	715	715	711	720	727	726	726	722	719	715	714	714	715	713	713	712	709	703	693	689	692	692	697	696	698	700	706	715	713	710	701	699	698	698	709	718	720	721	718	712	717	715	710	711	727	727	731	721	709	706	719	733	743	750	746	735	740	741	740	740	735	733	722	720	708	694	680	683	700	729	743	745	733	724	722	722	731	732	738	746	750	751	747	742	741	753	763	766	772	778	776	754	739	734	734	736	750	741	707	709	720	732	728	722	708	702	701	707	710	725	741	747	736	736	740	739	733	733	722	733	750	761	770	765	753	744	735	736	747	748	735	746	751	750	744	740	776	776	769	756	746	748	749	743	739	726	722	730	737	737	735	733	738	741	738	731	724	730	736	735	735	730	727	719	708	706	706	711	717	720	727	743	752	771	771	759	752	747	745	734	712	693	687	709	719	719	717	719	727	733	733	734	739	745	743	737	732	733	733	730	734	739	738	726	721	718	718	723	715	705	707	729	743	734	725	715	738	733	729	731	746	760	753	751	750	752	748	729	710	703	708	713	717	725	729	726	719	716	724	735	745	743	738	736	738	747	747	736	729	735	743	747	736	723	723	729	739	740	744	742	725	708	707	715	724	723	717	720	720	723	723	715	714	716	717	723	730	731	725	712	698	696	703	713	714	714	729	726	720	714	697	691	691	690	692	701	705	710	717	712	707	710	729	736	753	751	744	738	728	717	708	708	712	712	715	717	726	738	736	736	728	724	715	713	713	714	718	724	719	717	715	718	725	731	734	729	737	746	748	738	726	715	707	705	705	704	707	711	708	705	705	705	703	700	706	723	739	752	756	737	723	704	690	692	704	695	688	698	712	711	712	706	701	700	700	693	689	687	695	709	708	712	714	712	713	721	727	728	716	703	695	690	690	685	678	675	681	692	699	704	705	700	700	699	706	702	697	688	694	689	677	668	673	683	679	672	678	682	682	677	671	671	671	670	669	674	673	677	674	680	683	691	692	692	681	681	666	660	674	699	684	690	698	700	697	689	689	682	677	677	679	680	682	683	684	687	690	690	691	681	676	672	672	671	669	666	664	664	672	679	690	700	701	697	687	686	686	690	689	688	687	690	694	685	685	683	674	667	659	655	657	667	688	682	697	708	697	684	676	669	669	675	677	671	668	665	652	645	645	644	653	659	667	676	668	668	662	673	665	656	660	668	668	686	703	707	705	695	687	687	686	687	690	698	707	707	710	708	700	690	713	713	694	664	666	675	683	683	679	675	675	679	684	684	692	696	704	709
797	776	776	746	734	735	751	771	771	772	753	704	704	727	727	751	752	729	706	698	700	700	683	660	665	695	718	727	727	727	729	720	731	731	757	748	743	738	736	745	748	750	750	739	736	735	742	751	744	744	730	721	713	723	729	730	728	728	715	714	725	731	733	726	718	718	705	701	701	709	719	718	710	708	708	710	707	702	712	728	731	722	715	724	726	734	732	729	723	713	713	715	720	720	715	703	707	713	712	705	698	692	689	689	690	692	690	696	703	708	713	710	695	693	702	702	712	721	723	717	708	705	709	706	696	693	696	702	702	703	703	701	717	729	737	738	732	721	715	716	726	735	735	733	727	712	701	682	677	684	702	723	733	729	721	707	703	712	712	713	715	724	734	744	749	740	737	738	749	759	767	772	766	751	733	724	724	724	725	720	707	709	733	734	725	714	711	712	713	710	715	727	748	749	743	740	730	723	721	721	721	724	722	723	735	744	750	751	747	750	756	752	736	740	750	750	738	734	748	759	757	747	743	739	736	737	733	732	726	728	732	732	735	733	738	748	746	730	721	726	727	724	718	713	713	711	700	699	701	708	707	715	719	729	732	755	760	757	753	746	744	737	723	706	691	682	693	702	708	720	728	715	704	711	729	737	737	735	733	726	726	722	728	740	734	718	699	694	703	714	712	707	715	731	742	736	724	730	738	736	724	727	740	744	745	739	741	745	742	728	711	709	708	716	720	729	732	704	687	695	713	724	738	741	738	737	745	747	748	745	744	747	743	742	736	727	724	727	732	742	742	732	699	690	691	695	703	708	709	713	710	710	704	700	700	703	705	713	725	735	730	720	706	710	717	723	717	710	722	736	731	724	713	703	697	693	692	706	704	702	701	700	697	704	720	722	725	726	729	728	722	720	720	714	718	713	713	717	726	738	738	732	722	718	711	708	711	711	714	720	707	704	707	711	723	728	725	711	704	704	724	723	725	731	727	717	706	705	708	718	715	711	711	699	701	702	701	711	724	736	737	727	704	693	690	699	696	687	681	685	712	711	702	699	694	694	693	690	683	684	689	692	696	698	693	693	698	713	724	726	719	709	701	693	693	689	686	685	682	691	696	693	694	693	689	686	687	689	697	688	688	685	675	662	651	655	662	668	674	675	678	681	687	700	700	702	694	686	681	674	663	671	684	691	696	692	692	674	660	679	674	699	691	689	689	683	686	682	682	674	667	664	670	678	679	679	677	673	673	680	682	678	672	669	666	660	656	664	666	664	662	673	687	695	695	692	691	691	693	691	686	691	692	688	688	686	686	681	676	670	670	662	663	667	667	688	702	709	689	681	675	672	672	675	674	673	673	672	657	650	650	644	645	662	668	674	671	668	662	657	654	649	645	649	649	674	687	698	702	696	696	682	677	678	676	665	663	663	667	665	700	690	678	678	665	659	663	669	665	665	665	666	670	674	678	678	689	704	708	710
794	777	747	747	723	719	732	749	749	749	727	704	704	706	744	744	747	723	701	705	716	716	720	702	685	710	724	726	726	734	747	752	759	757	748	748	753	747	747	742	737	737	737	734	735	737	741	734	735	735	723	704	691	704	707	707	712	712	715	714	717	725	734	731	716	707	707	696	691	704	708	709	706	703	703	706	694	695	699	728	738	735	724	724	726	762	756	736	716	704	705	715	721	721	714	702	702	707	712	707	706	700	700	695	695	688	688	690	698	699	707	705	695	693	719	719	744	740	724	708	699	701	706	705	694	688	692	694	694	697	701	704	717	727	736	727	719	709	696	697	715	733	733	740	727	712	682	677	683	690	699	707	710	714	704	701	703	707	707	706	707	713	719	730	733	733	737	736	742	748	746	745	747	741	733	730	729	729	723	726	740	751	733	734	719	713	707	709	712	713	717	727	742	743	730	726	720	725	734	737	737	735	724	717	721	734	743	746	753	756	758	755	737	735	748	745	738	725	739	750	751	747	740	735	729	723	722	729	731	727	731	734	734	734	738	748	746	730	716	731	734	726	709	705	709	708	705	701	702	702	711	713	713	710	708	708	725	732	733	733	735	735	731	726	723	725	698	687	694	710	707	690	683	701	721	736	736	729	726	711	708	708	716	725	719	699	690	685	701	714	717	720	723	730	727	730	723	726	739	736	729	720	716	724	725	722	721	728	729	724	721	715	712	716	722	726	721	706	694	693	703	720	728	735	735	738	744	744	737	736	739	737	740	740	737	727	721	723	726	717	701	686	670	672	683	691	697	703	708	708	694	694	690	694	692	691	692	703	714	731	735	734	730	729	730	728	720	709	708	722	730	725	708	699	690	686	689	701	697	699	695	690	693	699	713	719	708	706	709	713	721	725	731	727	718	713	713	726	733	735	735	712	705	702	706	706	708	708	701	695	688	696	704	711	717	714	699	690	697	706	707	698	692	700	713	723	717	705	705	717	725	725	720	709	706	709	705	707	713	717	711	707	698	694	696	700	696	692	681	685	696	699	695	689	686	686	691	692	689	685	683	685	685	690	688	688	691	708	721	724	719	712	700	700	694	688	681	684	683	676	671	674	675	675	677	677	687	689	683	683	670	660	645	634	634	647	681	687	685	675	674	681	690	690	707	712	710	696	687	684	670	645	641	651	659	674	674	688	660	679	702	715	700	684	671	667	669	671	671	664	656	657	666	677	679	679	672	669	669	672	674	674	669	661	658	653	656	664	664	664	658	667	682	674	664	659	671	671	682	683	680	683	685	684	679	678	678	675	672	668	663	668	663	678	678	686	698	701	693	687	677	673	673	672	669	672	674	672	666	666	653	644	650	668	674	674	674	671	662	653	642	639	641	641	643	651	670	684	693	690	690	683	676	671	659	645	645	630	667	665	660	658	656	656	657	667	671	662	657	657	651	655	660	658	658	666	682	690	694	710
782	767	744	744	727	709	707	709	704	704	685	678	685	706	744	702	700	684	692	705	722	722	728	728	717	709	699	705	705	728	756	776	779	769	759	759	753	747	738	731	725	722	722	727	742	741	730	722	728	722	722	707	692	703	703	705	709	709	709	707	717	727	731	732	715	699	699	693	689	694	709	719	715	713	721	721	722	717	719	729	734	734	737	748	748	762	756	731	719	713	708	720	721	707	707	702	700	708	709	707	709	707	706	704	704	697	686	686	688	696	697	689	690	697	719	716	716	719	706	693	690	700	706	704	697	687	685	688	688	694	699	705	702	709	710	710	700	694	683	686	700	722	735	735	720	701	682	681	689	694	688	686	685	694	705	720	719	715	707	707	706	707	718	722	726	732	735	741	738	731	731	735	738	736	734	732	728	728	728	740	748	760	758	732	719	713	712	713	713	710	708	713	702	708	718	722	717	730	737	740	735	735	729	714	706	717	724	731	720	732	737	729	714	703	704	720	720	719	719	743	746	748	741	735	717	715	720	729	724	721	720	721	721	725	735	741	746	729	716	731	734	727	724	723	723	722	712	706	703	704	706	707	700	697	690	687	685	683	685	700	717	733	740	738	744	748	740	721	717	713	700	687	679	687	712	728	726	709	699	703	710	710	715	719	713	712	724	725	720	714	717	724	721	715	711	709	711	722	734	741	730	720	715	719	713	710	708	711	720	728	732	729	719	713	712	716	717	705	702	700	704	716	732	734	738	743	739	733	724	718	727	727	730	728	725	716	700	688	677	693	699	700	704	702	685	685	698	706	711	715	719	719	725	726	713	691	685	694	711	726	731	734	734	737	733	724	719	708	701	704	706	696	695	691	683	679	678	695	697	700	694	694	696	708	721	719	708	694	696	701	721	725	731	727	712	705	704	718	732	732	713	691	681	688	694	701	700	688	679	675	684	695	700	699	703	706	696	691	701	705	708	698	688	698	706	716	717	706	708	725	733	733	729	715	711	712	713	709	709	688	668	673	681	692	700	700	696	692	685	685	693	693	683	684	684	686	695	697	701	690	676	678	678	682	679	682	689	706	712	705	696	692	685	685	684	668	669	674	676	674	663	657	663	669	677	677	680	677	669	669	660	652	642	636	640	650	668	678	682	676	678	686	700	700	711	706	695	683	682	679	679	669	665	664	655	642	674	688	700	709	712	709	693	675	661	654	655	655	659	657	657	663	674	678	679	676	670	669	669	665	654	651	648	657	658	653	651	657	657	664	661	661	657	653	654	654	665	665	671	667	666	668	670	669	668	668	668	666	662	656	663	668	673	690	690	689	692	694	688	681	672	656	656	645	639	642	655	653	653	653	648	656	668	684	674	673	673	670	668	661	652	645	651	651	658	656	657	664	682	688	688	681	673	660	647	633	645	630	631	636	649	663	663	665	667	659	649	647	647	639	637	644	648	653	653	654	661	690	694	697
756	746	736	736	721	708	696	691	670	670	658	663	682	690	702	702	700	700	697	706	719	726	726	721	705	684	679	688	688	706	747	769	775	757	741	741	739	742	738	733	734	729	734	734	732	723	714	707	708	716	716	715	719	719	719	719	717	716	716	711	714	727	731	716	697	683	683	677	671	686	712	717	715	709	712	712	716	710	695	691	692	704	729	746	746	748	739	731	719	717	719	714	712	702	702	699	700	700	702	700	701	697	701	699	693	693	693	690	690	692	692	685	685	692	706	716	716	695	680	678	681	691	696	689	684	680	677	680	691	691	692	688	688	701	707	703	693	687	680	678	693	706	716	716	716	696	683	681	689	681	673	670	678	695	738	736	724	714	710	710	707	706	717	724	724	727	736	736	732	719	714	716	729	744	746	739	731	729	729	738	750	762	754	732	720	710	712	713	717	711	709	704	699	700	713	716	725	729	732	736	733	733	724	706	700	704	712	706	708	713	716	714	706	690	696	714	724	723	721	736	751	749	738	725	715	717	722	718	701	698	701	709	709	709	723	737	726	714	718	726	729	727	724	723	723	728	715	704	699	703	701	700	693	682	681	679	683	679	679	695	711	729	739	746	748	748	744	727	721	710	699	688	679	684	699	710	713	712	710	712	714	714	714	721	728	742	742	738	728	717	712	714	713	712	712	706	701	707	724	735	733	722	717	714	711	708	705	698	713	726	736	731	718	698	700	703	711	713	716	720	719	722	733	729	725	722	714	721	710	709	705	708	715	713	703	702	707	707	703	697	696	700	712	711	691	681	697	709	720	722	722	724	724	717	710	701	688	690	703	718	729	726	730	734	732	721	708	699	697	699	694	691	691	688	676	670	676	691	700	701	701	715	733	735	731	718	704	694	696	701	710	717	721	701	678	671	686	705	707	707	693	676	677	687	694	693	682	665	664	669	683	691	692	693	686	686	697	708	706	710	708	704	693	686	695	704	697	695	704	720	720	729	725	717	713	713	713	705	686	674	656	653	676	692	700	703	703	696	696	694	700	684	675	679	679	686	695	700	698	689	680	677	674	677	672	673	684	705	701	691	681	674	674	667	666	664	661	664	663	657	652	650	663	669	674	672	669	666	663	663	652	652	651	652	648	649	663	672	675	670	677	688	694	694	705	702	688	681	683	688	693	689	684	676	655	655	642	644	653	667	675	673	664	657	648	649	651	651	653	651	654	664	672	679	677	671	660	660	654	646	642	643	648	657	654	644	640	640	648	651	658	656	650	649	650	658	658	660	659	653	653	658	660	662	661	661	659	656	662	656	659	659	674	674	684	677	692	693	684	672	657	657	650	641	630	631	641	649	660	660	657	659	668	684	685	678	678	677	676	672	659	655	661	661	669	672	663	659	658	658	651	650	654	651	647	633	633	623	625	637	651	660	660	661	660	655	644	637	637	633	638	644	655	648	648	654	661	671	674	678
728	708	703	703	708	704	696	682	657	657	625	642	671	690	711	705	705	700	697	697	709	720	720	709	691	670	661	659	682	682	722	731	733	722	712	708	708	709	721	733	734	744	749	749	734	712	687	683	690	703	703	713	718	725	732	738	739	737	737	727	727	734	731	716	697	668	659	659	664	684	707	715	693	688	699	699	708	704	695	686	690	700	716	728	730	730	725	717	719	717	719	717	709	699	699	692	695	690	687	688	689	682	680	683	692	692	698	700	705	701	697	692	690	687	688	696	695	695	680	666	671	674	675	672	662	661	667	672	683	683	676	672	682	700	710	705	695	684	673	672	690	697	710	710	703	696	683	687	688	681	673	670	679	715	727	729	718	708	699	700	700	701	709	710	715	715	723	721	717	704	696	709	728	747	755	744	729	723	732	732	746	753	746	728	720	716	724	721	717	711	709	705	699	695	707	716	718	719	710	718	721	720	720	702	692	693	698	700	700	701	708	705	695	682	687	706	729	734	726	732	746	744	743	730	724	726	727	699	674	677	687	687	697	697	707	714	710	699	707	717	717	723	723	726	730	728	715	704	693	696	695	699	692	679	675	681	689	688	688	697	711	725	729	729	738	735	733	724	719	710	695	685	686	687	692	701	703	710	714	716	708	708	708	711	718	727	726	727	720	714	713	710	715	718	719	714	700	694	698	709	723	720	708	707	701	694	696	695	693	718	722	718	707	691	689	689	705	713	736	727	717	708	713	715	715	715	709	712	702	700	701	709	706	701	705	707	704	700	695	692	698	708	708	706	691	674	679	686	692	704	704	708	710	708	700	694	688	688	692	698	706	716	728	734	733	723	704	690	692	693	696	691	693	689	677	666	674	687	694	696	722	746	756	755	731	718	704	692	680	674	686	694	694	674	659	660	679	696	696	696	686	675	677	685	688	686	672	658	656	668	692	697	693	662	651	663	685	700	707	713	713	698	670	657	663	676	688	673	682	706	706	720	716	708	702	694	694	689	680	670	658	653	676	694	703	699	700	700	702	700	698	668	666	666	667	678	684	690	693	686	681	684	683	678	672	664	674	687	685	679	675	670	670	665	666	662	657	652	650	652	652	650	656	666	672	671	663	659	659	652	648	650	659	664	655	649	653	659	658	664	667	676	676	684	698	694	687	677	670	664	667	670	684	676	659	659	645	635	640	661	679	678	663	651	647	648	648	652	653	650	649	658	669	673	670	661	647	647	632	631	642	643	652	657	665	652	638	638	636	633	631	630	626	637	657	664	664	666	662	660	652	651	656	664	667	667	659	656	655	648	645	646	656	656	661	659	671	682	656	645	645	645	642	638	629	635	645	658	658	658	657	659	660	672	681	686	686	688	683	676	668	658	658	657	660	661	656	649	643	643	643	644	654	651	645	637	637	626	625	636	642	649	649	648	643	639	631	632	632	635	645	659	662	648	648	641	643	649	656	656
706	695	683	690	690	704	704	692	655	628	628	639	668	690	711	719	719	710	699	697	709	697	697	698	684	664	655	652	653	653	679	693	695	682	670	666	666	679	704	728	739	744	749	751	732	703	674	662	670	686	702	702	712	722	726	741	743	746	742	742	746	743	728	708	682	668	659	658	673	701	714	705	691	681	687	700	700	699	696	693	691	697	701	713	713	713	713	708	713	718	718	717	709	689	683	683	682	677	672	670	671	676	677	683	693	693	704	707	715	716	711	706	699	688	679	674	661	661	661	666	671	682	676	664	655	656	663	671	664	665	665	668	677	698	707	707	700	681	673	682	690	700	705	704	704	696	684	681	678	674	665	670	679	700	715	707	700	693	690	683	683	682	689	688	692	697	705	707	694	687	686	698	724	742	748	737	721	715	721	721	733	738	732	718	712	716	714	714	712	705	707	705	699	673	674	700	699	693	694	696	700	704	697	697	689	693	696	698	700	696	702	696	680	665	667	689	717	727	722	720	727	730	732	732	734	736	719	692	659	646	665	678	684	700	700	700	696	689	695	700	707	714	724	731	732	725	712	694	693	696	695	699	700	690	681	686	696	697	696	698	711	716	717	713	704	706	709	717	719	718	717	708	693	688	691	696	704	713	713	713	705	697	697	696	698	702	703	704	700	701	707	709	717	717	714	708	695	685	686	690	697	700	701	693	687	682	685	687	684	701	704	706	700	685	696	695	693	711	733	725	714	704	697	706	709	714	726	721	707	710	713	705	710	710	708	699	693	690	686	687	698	708	706	695	673	668	675	677	684	684	691	697	697	706	709	707	703	697	693	680	680	685	702	718	725	719	701	685	684	698	706	702	695	691	674	669	675	680	682	682	722	746	756	755	742	715	686	687	689	692	688	688	690	680	666	664	678	688	688	688	684	687	692	686	681	667	658	647	647	673	673	669	670	672	670	674	679	682	685	710	717	703	685	670	666	677	688	691	687	687	690	702	703	696	678	680	681	680	677	670	658	661	675	696	702	687	686	688	697	698	687	652	652	650	657	667	678	683	685	683	682	682	682	680	672	663	668	674	676	670	671	671	667	666	665	659	654	646	650	652	658	667	669	666	672	680	688	656	656	647	647	649	668	671	663	648	643	647	652	655	657	655	655	671	679	681	672	668	652	642	667	670	669	677	677	668	669	664	668	677	682	671	658	646	647	656	656	656	654	656	659	665	667	664	661	654	648	648	644	631	642	651	654	658	663	660	660	651	638	641	654	653	649	649	658	667	667	670	669	655	645	647	654	665	664	667	668	676	670	659	638	637	644	644	648	640	636	639	640	638	636	636	639	642	644	650	655	660	658	658	660	659	665	666	671	671	675	680	687	686	671	659	659	654	653	653	645	639	635	635	643	644	643	648	651	651	646	636	631	632	643	643	648	643	636	632	630	630	626	630	637	655	662	662	653	642	636	645	654	654
706	683	679	690	690	705	710	702	678	654	654	652	688	697	705	701	701	695	686	679	691	697	698	686	687	675	671	658	653	653	651	676	676	667	658	649	649	667	693	716	734	745	751	732	732	686	661	656	672	684	704	704	706	707	713	724	740	755	752	752	752	746	731	705	674	656	658	658	673	718	717	706	690	681	684	690	690	690	688	690	690	688	685	681	697	697	699	699	704	713	718	708	698	689	683	683	679	671	665	663	670	681	683	685	693	697	697	711	720	726	727	723	718	705	684	664	657	657	660	671	677	682	676	661	653	650	659	668	663	660	660	664	674	693	698	702	693	679	677	680	687	696	699	702	702	693	679	674	666	664	661	668	679	700	715	691	676	661	664	665	669	669	672	667	673	680	685	686	681	677	684	695	711	726	728	716	710	704	712	724	724	729	722	711	691	681	684	692	706	707	702	682	675	673	674	664	686	686	687	693	691	688	688	688	689	694	696	700	699	701	707	699	673	658	653	673	696	704	703	701	697	702	704	713	721	711	697	688	670	658	647	670	680	686	681	681	680	675	679	687	692	705	725	732	728	718	701	684	679	678	686	697	700	690	681	686	694	698	700	701	699	704	708	700	693	691	699	706	713	717	715	710	698	692	693	703	711	722	719	716	702	690	686	686	681	683	681	680	684	688	700	706	712	705	694	678	663	670	677	688	697	704	698	691	681	674	676	676	680	684	692	692	690	699	690	680	677	678	707	719	705	690	672	692	705	724	728	726	711	692	696	699	710	717	705	691	686	683	684	691	696	699	695	680	662	674	684	690	691	691	695	696	711	715	708	698	690	698	695	695	692	693	699	713	718	704	682	670	675	686	705	714	692	679	668	670	675	680	682	682	717	753	764	764	743	713	696	703	702	704	702	699	698	694	682	682	683	683	689	703	723	718	705	690	677	669	658	654	674	670	649	651	651	645	643	647	656	674	694	692	677	673	674	675	681	690	684	681	681	680	683	691	694	688	675	672	681	680	677	669	665	669	680	681	679	673	672	677	688	691	678	647	647	643	651	668	672	675	677	676	678	680	678	678	671	661	662	664	665	666	671	671	668	664	662	658	654	646	645	653	668	672	678	681	686	694	697	697	679	646	640	656	671	669	664	651	641	645	651	650	643	643	640	640	650	658	658	649	644	642	638	655	663	659	659	660	665	672	679	680	675	661	649	639	644	645	645	650	651	661	665	671	668	664	659	656	656	648	644	645	650	653	653	654	661	665	665	663	654	661	664	663	658	654	657	657	663	665	655	643	640	642	654	665	665	665	670	677	673	641	635	636	636	642	642	633	632	639	645	644	644	646	647	646	647	656	655	660	660	659	660	663	665	665	660	660	662	663	681	687	671	657	657	650	652	656	648	644	635	635	638	643	643	654	660	660	661	655	643	640	645	645	649	649	641	632	625	625	625	623	637	655	662	662	663	654	643	657	656	656
688	683	679	682	682	694	701	699	694	688	688	692	704	688	683	670	664	664	657	659	663	679	686	686	687	691	685	670	659	654	654	670	679	669	658	650	662	662	683	705	718	730	740	731	731	686	661	664	675	690	697	697	700	700	701	713	732	751	750	750	742	733	717	693	671	662	687	708	708	718	717	705	691	679	680	686	686	689	689	689	690	678	666	659	668	680	680	693	699	717	719	713	698	687	683	679	672	665	657	662	674	690	696	687	682	684	684	700	711	722	721	716	715	703	686	675	671	672	672	682	687	687	676	661	653	658	660	662	660	657	657	657	660	670	686	690	686	679	674	675	682	685	687	688	683	683	674	672	677	682	677	679	682	700	709	691	676	661	664	668	667	667	660	652	658	672	685	686	686	680	675	685	694	706	710	708	705	704	703	715	715	722	715	702	691	676	671	669	667	675	674	682	675	666	666	664	686	683	686	688	688	686	684	687	687	695	697	694	689	700	707	700	678	661	653	665	679	687	687	680	677	683	684	684	686	688	692	684	673	668	678	698	703	700	684	684	681	680	672	668	676	697	723	721	709	690	676	664	665	667	671	680	688	688	691	691	694	698	700	701	699	701	702	696	684	684	687	686	688	687	688	693	694	696	702	709	712	715	712	705	698	685	680	680	674	672	670	670	673	686	693	701	702	688	675	661	661	666	677	691	703	709	703	696	688	677	671	677	680	686	686	692	697	688	675	678	684	677	671	677	686	700	703	701	695	689	681	681	690	687	689	691	703	700	707	689	678	679	685	687	681	663	653	655	663	666	678	688	691	691	693	699	706	705	695	685	682	691	697	693	689	689	693	707	711	703	681	671	671	684	703	693	692	679	668	670	671	672	672	670	689	705	734	742	749	724	713	711	711	707	706	706	705	701	690	671	671	674	698	728	741	731	715	696	679	674	662	686	689	678	662	658	650	645	642	642	650	663	684	691	678	664	659	667	682	683	685	680	680	669	667	675	689	693	675	672	680	679	670	660	660	671	683	681	670	662	661	670	682	682	672	672	648	647	656	663	665	662	661	662	662	665	670	673	664	657	650	654	658	666	674	674	668	667	662	658	657	649	651	655	666	674	682	682	687	690	692	692	679	644	640	655	670	663	655	650	648	657	654	646	638	638	633	637	639	644	640	649	644	645	643	642	654	658	658	653	653	663	670	667	663	657	639	633	631	631	642	640	645	655	664	667	666	658	660	656	656	653	642	642	647	651	650	647	647	656	656	663	666	671	674	668	663	658	658	658	662	663	652	642	642	642	653	663	663	653	652	644	645	640	634	638	638	640	639	640	640	649	651	653	653	663	661	653	647	656	661	661	665	661	656	658	661	662	657	657	651	652	659	677	669	656	656	656	666	664	662	644	644	639	641	646	652	651	662	662	663	659	651	647	645	645	649	648	643	630	625	625	625	623	628	649	662	662	664	663	663	656	656	652
664	676	684	682	694	685	683	689	690	691	704	704	701	680	665	657	653	653	650	638	641	654	678	678	694	691	689	682	669	660	660	673	688	682	669	667	678	678	689	694	700	711	720	712	712	691	668	664	675	698	692	684	684	684	690	694	706	708	718	715	715	708	696	683	664	660	678	694	694	704	711	705	680	672	672	681	682	682	685	689	686	680	660	650	659	682	682	694	706	715	717	707	693	685	682	672	672	665	634	647	666	697	697	680	667	666	673	673	673	680	697	704	700	695	685	679	676	684	684	685	676	673	676	668	658	658	660	659	659	657	656	656	653	662	676	680	683	677	670	667	677	676	677	683	688	688	691	687	683	681	685	688	693	705	710	690	666	661	664	673	672	672	667	673	672	680	687	693	693	688	673	660	674	682	694	703	706	702	698	703	702	702	706	707	701	687	672	665	662	658	666	675	672	662	659	655	658	683	686	688	696	690	689	689	689	689	688	681	677	683	695	699	689	671	660	662	675	683	684	677	668	670	674	685	688	696	692	682	676	676	687	693	692	690	692	684	684	682	674	664	674	710	721	713	697	679	664	661	662	660	661	670	678	685	686	688	689	690	691	698	699	701	702	696	682	681	679	673	671	667	664	670	688	696	702	704	707	701	697	697	691	684	682	682	676	671	670	674	679	683	686	690	688	677	664	655	663	670	679	693	700	705	705	699	692	680	673	676	680	686	687	689	684	670	673	682	694	701	703	705	703	702	706	704	695	684	675	689	690	686	682	676	670	686	696	694	681	688	687	688	678	663	658	651	652	658	669	681	681	683	685	692	690	687	683	673	680	688	694	698	686	678	679	694	704	695	670	671	671	684	703	693	672	670	666	661	659	664	670	678	682	682	681	694	704	709	700	693	693	697	698	699	695	681	664	655	655	662	678	699	712	714	708	699	693	688	698	689	680	675	666	663	657	647	641	644	650	662	679	686	678	666	661	665	674	683	680	680	677	666	660	662	689	693	679	680	684	677	656	655	657	674	683	678	671	664	663	672	681	680	664	664	649	649	654	655	654	650	647	644	649	648	652	651	654	646	646	653	656	668	668	671	668	667	659	662	663	659	658	655	655	663	672	679	677	681	681	684	680	659	641	648	654	646	637	641	662	668	679	659	659	649	635	633	635	644	640	635	637	644	645	646	655	655	653	648	648	648	655	653	656	655	637	624	625	625	623	627	636	648	658	661	656	658	660	660	662	654	644	636	636	640	644	641	639	639	649	658	666	674	671	669	659	649	649	649	652	649	635	642	642	652	660	660	656	647	647	644	638	634	634	636	636	641	646	648	650	659	667	675	675	672	661	653	658	666	666	666	663	641	622	628	649	658	658	654	649	646	649	660	670	670	680	678	676	664	662	659	659	653	657	654	649	649	649	652	653	655	655	651	644	644	643	645	635	625	625	625	625	624	628	638	638	654	663	664	657	650	650	645
650	663	677	675	685	685	683	672	681	694	697	697	692	668	661	657	658	658	658	642	631	648	675	693	693	695	689	682	680	676	676	677	691	690	685	687	694	694	698	694	690	701	709	714	714	705	685	685	688	698	692	669	669	666	675	684	693	703	704	702	702	692	683	667	653	649	662	678	678	693	706	696	680	672	666	679	684	684	684	686	690	686	671	661	661	671	671	689	688	674	670	670	678	676	670	662	662	651	634	647	656	678	680	666	650	639	639	639	646	654	659	667	682	686	683	684	682	682	670	670	664	662	665	672	666	662	656	659	659	666	658	658	656	658	666	669	671	668	663	667	673	673	683	691	701	708	708	699	690	683	675	673	683	696	701	693	676	665	670	673	672	673	673	678	682	681	686	694	698	689	670	657	660	671	685	697	700	700	694	697	701	701	708	715	708	691	678	663	659	659	662	676	675	666	654	641	648	666	687	698	696	690	684	681	682	682	676	671	670	676	688	697	688	677	666	665	676	680	695	691	683	685	692	695	694	694	690	684	672	674	680	683	680	684	687	691	691	684	676	675	693	711	717	710	688	674	668	661	658	655	654	661	669	678	683	683	679	677	679	687	693	701	698	691	682	681	679	673	671	676	673	677	682	691	694	693	692	695	692	688	681	680	680	680	680	674	675	680	685	681	672	670	667	667	662	648	654	666	685	692	695	696	699	695	691	683	678	675	679	679	678	675	664	662	672	677	683	683	680	687	692	696	700	702	706	702	695	690	690	682	677	671	665	667	683	686	684	689	694	693	685	671	663	654	649	652	674	675	675	678	677	677	679	674	670	675	680	689	690	692	682	671	665	694	704	695	670	683	700	713	701	678	667	666	654	656	660	662	672	679	686	687	678	671	674	682	681	678	683	680	665	659	666	673	675	675	670	669	685	680	675	676	672	663	670	682	686	683	672	667	663	661	662	655	647	651	658	665	682	682	682	673	664	661	672	675	680	680	673	666	660	662	681	688	701	699	678	662	645	651	661	671	681	681	673	673	672	673	672	665	665	663	658	654	654	651	657	657	654	650	642	646	651	652	651	646	647	649	661	666	668	671	671	664	658	665	663	657	652	641	644	645	653	653	658	669	669	672	672	662	651	649	640	634	638	642	655	657	651	640	640	642	641	633	635	641	637	630	623	631	642	652	655	655	653	650	647	647	648	654	657	650	636	629	629	622	621	619	627	640	652	661	656	652	655	655	662	658	644	632	630	634	639	636	639	639	645	652	662	667	661	656	652	644	644	647	647	649	635	647	655	658	658	658	657	657	653	641	636	629	629	629	636	647	645	644	646	655	660	660	666	672	651	647	653	655	653	653	639	628	623	628	644	647	647	648	644	638	644	654	660	660	676	678	676	670	661	661	661	662	674	671	652	639	639	637	642	648	651	645	645	639	636	635	635	625	625	620	628	632	633	636	636	647	654	652	647	639	639	638
640	655	666	661	661	661	659	672	681	687	685	685	677	662	657	670	680	680	675	661	641	645	672	688	688	698	692	688	680	676	693	693	693	685	681	689	695	701	701	692	691	696	709	710	705	705	701	701	702	703	685	669	659	658	672	679	687	694	696	688	688	683	669	652	636	622	635	660	678	678	686	681	661	659	666	679	676	676	674	674	677	679	670	666	661	660	660	660	656	652	646	650	657	668	664	655	645	645	632	642	656	678	666	658	643	637	628	628	631	638	648	658	669	679	681	680	685	678	665	665	655	651	663	666	663	655	655	655	660	666	663	661	661	657	653	652	653	654	656	654	658	669	681	695	725	729	729	709	692	678	670	672	677	675	676	676	679	686	694	695	679	673	673	676	677	677	666	658	658	661	668	672	666	668	674	678	687	691	689	694	697	705	705	716	713	700	681	669	659	664	671	676	675	667	662	655	650	667	692	703	698	693	684	681	682	678	678	671	658	659	670	674	665	655	647	654	668	683	689	685	680	679	687	686	683	686	687	685	676	664	664	661	663	674	684	691	692	692	684	683	685	696	698	682	663	663	659	658	649	648	649	655	668	679	682	684	677	665	663	668	682	692	690	685	681	680	681	679	681	676	673	677	682	691	685	686	685	688	690	686	676	668	669	675	675	668	671	680	677	676	659	655	652	652	655	651	652	668	685	688	684	683	691	693	691	683	681	676	680	678	669	660	659	662	668	670	674	676	681	682	684	688	693	704	708	705	699	689	683	677	666	658	654	663	675	686	680	683	687	687	684	683	687	682	685	686	682	686	686	688	688	684	678	672	668	667	672	689	690	692	682	671	665	665	670	666	669	676	682	682	678	673	666	667	659	662	664	669	672	673	682	683	677	664	658	656	660	672	667	658	650	664	673	695	709	709	715	708	694	690	690	677	661	652	650	651	652	658	659	662	663	662	663	663	652	654	654	656	672	683	677	666	653	658	655	671	671	680	673	666	661	660	664	672	680	680	670	654	646	644	656	668	678	673	665	671	671	669	666	665	665	665	662	658	654	646	654	662	658	647	636	641	648	657	661	655	652	655	661	661	666	671	663	653	643	637	624	627	630	631	629	637	634	636	639	639	651	667	668	660	651	643	631	635	638	645	650	652	648	640	640	642	641	642	643	643	636	634	633	644	653	658	658	663	658	651	644	642	646	657	664	655	642	633	633	624	619	616	620	640	652	652	640	638	645	645	656	659	649	641	633	634	640	643	645	645	650	653	656	646	643	644	642	641	641	647	647	640	624	626	644	650	651	651	655	662	664	655	638	623	624	624	631	636	637	630	625	622	626	660	666	666	645	639	641	642	642	643	640	635	632	637	637	640	640	641	644	642	642	645	652	660	676	680	681	671	657	657	653	665	669	662	651	640	640	639	647	650	653	641	641	626	636	635	627	622	622	626	633	642	648	648	648	652	657	652	645	637	637	634
651	656	656	642	640	640	647	657	678	687	685	679	657	646	651	668	683	691	691	668	656	659	678	698	698	702	701	686	683	683	693	693	689	672	670	683	697	703	703	702	697	694	701	703	702	702	702	710	707	695	676	659	658	658	668	679	682	678	677	675	671	671	660	638	617	609	623	650	667	667	675	670	662	657	665	673	676	674	667	670	666	664	660	663	661	657	646	646	637	636	640	646	655	666	667	662	650	650	631	633	646	660	666	658	647	638	633	633	633	634	640	648	661	671	675	673	675	670	659	659	655	658	662	662	652	640	634	642	656	664	663	661	660	651	649	650	648	646	650	642	640	644	658	700	710	708	691	691	674	661	663	663	660	662	658	662	668	683	695	696	682	673	676	676	677	677	663	664	662	667	678	685	689	680	672	673	681	687	695	692	690	688	688	699	697	690	676	665	664	672	676	676	674	675	672	673	674	679	687	693	694	684	679	675	678	678	678	662	653	666	673	671	657	644	641	660	677	681	684	678	674	677	682	677	676	684	689	687	674	656	644	642	653	668	679	685	688	688	683	677	681	676	666	649	641	637	640	645	650	639	643	652	670	686	695	691	681	664	650	655	669	678	678	677	677	683	687	693	691	687	683	684	688	690	685	686	685	688	690	686	676	664	664	668	663	663	667	667	667	666	654	647	648	659	660	657	663	679	685	680	675	676	684	690	694	692	688	685	685	680	671	662	672	692	691	676	670	674	681	684	676	671	683	694	709	714	715	711	698	677	656	645	650	666	685	688	680	674	673	676	675	676	687	693	693	678	676	676	677	688	686	684	678	672	668	667	672	677	676	671	669	658	648	654	677	673	667	664	663	664	667	668	674	673	671	670	671	666	666	668	672	675	670	659	656	659	675	670	660	654	654	663	676	677	677	676	671	676	682	682	675	670	657	652	650	648	648	651	652	658	664	666	666	647	646	651	649	651	659	676	672	664	652	652	655	671	671	670	660	658	650	648	658	669	676	676	669	655	647	650	657	669	671	664	660	659	665	664	662	662	663	663	666	662	657	653	651	660	657	644	631	629	643	659	671	666	652	655	661	661	659	650	638	627	628	628	623	623	621	623	626	631	631	626	632	632	644	654	652	649	646	636	628	632	635	637	638	642	642	648	640	636	639	640	643	642	637	632	632	639	648	657	657	666	659	649	637	628	633	654	666	659	645	634	634	627	622	617	620	637	660	657	652	638	638	639	648	657	659	658	650	645	644	650	650	657	655	643	641	624	624	627	635	641	641	643	641	633	619	625	631	635	635	629	620	626	647	649	644	642	637	637	636	638	637	635	634	622	626	626	643	652	639	627	624	625	625	638	640	637	640	643	640	640	640	645	647	645	647	645	645	652	662	677	682	671	654	654	651	662	662	655	647	647	638	636	641	644	643	639	641	626	620	623	623	622	622	624	630	637	641	646	646	654	657	645	626	626	612	608
664	659	660	642	637	637	637	657	678	688	679	657	657	640	643	651	667	678	678	671	656	656	674	694	706	706	702	693	691	688	696	696	689	672	656	670	691	698	698	697	700	696	691	686	683	683	687	696	698	683	667	655	659	659	668	679	675	672	672	670	663	663	652	629	611	606	624	650	668	668	670	666	660	655	665	669	670	667	667	670	656	646	647	653	656	648	642	637	637	639	650	653	659	670	674	678	662	662	640	628	634	647	660	660	647	638	642	644	644	645	646	648	652	659	661	660	663	661	649	645	645	648	656	649	636	621	616	619	639	652	664	660	651	651	658	658	650	649	647	655	656	668	679	690	694	684	675	675	667	658	654	654	653	651	651	654	663	678	685	686	679	673	677	677	676	673	663	664	667	658	662	670	684	685	686	685	695	705	705	699	683	667	661	661	659	661	659	659	661	672	674	676	680	680	682	679	676	675	681	691	691	690	681	677	677	673	673	662	653	666	671	665	660	660	663	671	675	675	669	666	669	677	677	678	678	683	690	686	670	651	638	641	653	668	680	680	682	675	675	670	681	679	669	661	654	652	653	653	652	653	645	657	667	677	699	690	677	663	646	644	655	664	666	667	673	684	691	702	700	692	690	684	683	679	675	669	670	677	685	685	671	664	664	668	663	663	667	667	657	659	656	652	652	660	669	665	669	673	677	674	672	673	671	674	678	693	690	686	681	671	665	663	674	681	703	706	680	682	684	679	672	665	660	663	689	702	710	706	691	669	656	661	665	678	686	689	676	665	662	665	670	669	670	693	693	678	676	676	677	688	686	687	680	670	665	665	671	674	669	662	650	646	659	677	678	669	662	649	645	648	652	662	673	675	674	670	665	661	661	661	658	658	651	651	658	670	671	664	658	652	663	672	676	676	676	671	668	667	670	677	674	673	664	655	647	637	635	638	647	653	663	670	653	647	644	643	637	636	649	663	668	667	652	652	655	655	668	657	650	647	648	653	662	668	673	680	670	656	653	659	659	665	664	659	654	655	657	657	657	657	660	662	666	661	665	662	654	654	654	640	624	627	640	662	671	666	658	659	659	660	653	643	632	622	615	619	623	624	618	622	632	636	643	639	639	638	643	649	648	645	644	636	632	622	629	618	626	642	642	642	634	633	641	643	643	641	636	630	624	631	642	647	647	654	648	636	626	624	622	622	630	644	646	646	644	635	622	617	620	647	656	651	655	656	656	651	653	659	659	659	652	643	637	637	637	630	632	628	620	613	612	627	635	635	638	641	646	645	641	634	632	627	627	618	614	618	639	643	644	641	641	638	637	637	637	635	634	623	623	615	631	639	633	619	610	617	617	633	638	636	640	641	649	649	648	649	652	645	647	644	644	646	656	669	674	675	664	664	657	653	649	644	635	635	633	630	635	633	643	643	639	632	628	627	633	633	630	625	624	625	630	630	635	646	644	627	613	613	612	608
665	670	670	659	659	671	671	677	686	682	661	650	650	640	643	642	655	662	662	660	654	657	669	689	700	700	706	703	695	701	692	676	676	657	656	670	677	683	682	682	683	682	670	662	662	661	661	663	663	655	651	648	655	655	665	672	675	672	677	670	663	663	647	626	606	604	621	640	658	660	660	658	659	659	664	672	674	671	667	667	656	646	636	642	647	643	634	638	638	650	659	665	670	677	682	688	670	647	647	633	633	640	650	661	656	649	642	644	662	662	662	657	651	650	648	650	653	647	645	652	652	659	666	662	648	631	614	616	633	662	672	668	666	666	658	658	655	646	651	655	661	660	664	672	677	681	676	666	666	663	658	658	653	649	653	658	664	668	670	670	670	669	672	671	671	668	668	669	667	658	657	667	671	679	687	692	697	707	712	702	678	658	648	648	648	650	649	646	653	663	671	677	675	677	682	681	677	673	671	679	685	684	684	676	674	666	663	663	665	669	671	665	658	661	662	659	664	664	660	658	663	670	669	675	678	685	689	682	662	646	635	641	656	666	676	679	676	671	680	680	687	683	675	667	661	659	655	655	655	648	648	650	661	670	678	673	665	651	640	639	642	648	658	657	662	678	689	694	694	686	678	675	674	671	664	652	647	660	673	672	663	661	662	664	665	665	661	659	657	659	656	652	652	660	669	665	669	673	677	659	651	643	643	652	658	669	675	677	672	652	650	651	650	659	668	678	694	680	675	666	661	649	642	636	639	655	677	686	674	651	646	652	665	678	686	689	676	665	662	665	670	669	670	669	669	670	670	661	650	658	659	652	649	646	648	660	669	672	671	668	658	664	669	674	672	663	648	638	627	636	647	660	669	675	670	663	657	658	654	651	646	662	670	658	657	653	656	657	654	654	665	670	672	672	675	671	664	663	665	667	672	671	671	663	656	642	636	644	652	653	652	657	655	650	645	639	635	636	647	663	668	667	664	661	657	657	646	638	641	644	648	653	661	664	668	669	664	652	651	653	658	663	658	659	658	654	653	645	645	647	649	649	648	661	667	663	654	646	643	633	632	641	640	662	671	668	661	655	655	650	643	640	631	614	619	618	625	624	619	619	623	633	640	639	639	641	644	647	646	644	643	638	635	626	611	618	626	637	637	640	638	640	641	645	643	643	634	619	618	622	636	636	644	644	632	633	630	627	623	615	609	612	623	623	644	635	624	620	625	641	648	645	649	649	652	649	653	652	652	651	647	637	631	631	625	620	617	620	616	609	612	616	627	627	635	636	642	649	653	650	640	627	627	623	620	627	641	646	637	630	630	620	613	637	637	635	640	627	627	629	631	631	624	607	605	605	610	631	638	638	634	637	638	638	647	649	652	652	647	642	642	638	643	656	664	666	666	660	651	641	635	631	629	629	630	631	635	633	635	635	631	626	621	611	606	606	615	624	622	620	613	613	610	610	626	623	613	613	605	604
643	662	672	677	678	677	677	680	680	666	646	638	638	633	633	642	655	657	656	656	651	661	667	683	701	701	708	711	710	696	682	663	663	649	648	669	677	683	665	665	672	665	649	637	638	638	638	640	642	636	637	638	644	654	654	666	683	685	677	670	659	643	643	627	610	602	608	622	623	632	632	647	655	661	665	670	675	671	665	665	653	638	636	642	640	638	634	635	635	647	662	665	664	665	678	672	666	655	655	639	638	641	650	656	658	653	652	654	662	666	667	655	645	640	641	645	646	645	650	657	668	668	678	682	675	658	650	650	654	661	666	672	668	660	660	658	655	646	633	633	636	637	649	664	675	677	675	672	672	667	664	673	672	661	653	657	665	660	662	661	661	659	659	656	656	659	662	662	663	655	657	667	657	670	684	691	691	695	702	694	678	662	653	651	651	649	646	648	652	659	667	671	672	672	666	663	655	646	647	666	672	676	672	666	665	663	669	670	670	672	672	664	658	661	662	647	646	651	658	656	657	657	664	670	678	682	684	675	657	639	628	635	651	663	662	664	668	676	680	680	681	674	674	666	665	661	658	656	649	644	634	634	653	663	668	640	631	634	630	635	628	640	646	644	657	673	684	684	679	671	664	665	664	660	652	644	637	653	658	657	656	656	661	667	669	670	670	663	659	660	660	657	656	666	666	656	658	657	658	659	651	643	643	652	658	669	675	677	672	652	650	651	650	659	668	678	694	680	675	666	661	649	642	636	639	655	677	686	674	651	646	652	666	676	680	676	676	664	659	664	665	670	663	660	659	660	660	652	642	636	635	647	651	651	650	649	658	665	663	666	663	656	658	657	660	649	630	614	618	633	660	665	664	658	640	629	631	636	631	631	645	665	674	678	658	650	646	644	652	657	660	664	661	661	655	647	641	647	656	656	652	644	633	624	615	615	620	632	640	640	644	648	653	650	645	639	635	636	647	649	655	661	660	659	659	641	636	634	636	636	639	647	654	660	665	665	656	649	651	651	650	652	654	652	643	638	635	633	633	633	622	622	633	653	658	652	641	637	630	629	632	641	647	653	654	654	658	658	654	652	652	650	648	639	622	626	624	624	623	620	624	631	635	635	637	642	644	642	641	636	634	634	634	626	611	612	619	635	635	639	640	642	646	647	646	644	628	620	622	616	616	616	620	617	614	623	619	622	617	610	603	602	612	623	634	639	633	629	629	640	644	638	641	641	640	644	649	647	647	642	642	631	625	625	621	619	623	626	616	609	605	609	609	624	626	631	638	643	650	650	640	640	633	627	630	637	639	647	638	630	630	620	613	619	626	629	636	640	640	638	637	623	610	603	598	598	614	632	636	633	626	623	623	638	647	647	646	647	641	641	634	629	632	639	645	649	649	646	639	629	620	623	625	625	630	631	630	624	623	623	625	621	610	602	601	601	605	614	615	613	608	608	596	591	626	623	623	611	603	604
661	661	671	672	665	669	672	672	673	657	635	629	630	630	640	650	659	657	656	644	647	649	658	673	690	690	702	707	702	694	675	659	659	647	648	660	661	667	665	665	660	653	636	628	623	626	626	635	643	638	633	626	627	637	637	664	678	687	681	670	659	643	644	629	614	599	599	619	625	632	632	640	648	654	659	664	664	661	659	659	652	646	634	639	640	633	633	635	639	639	650	658	653	645	655	663	661	661	650	650	652	654	655	660	660	650	651	660	666	666	667	651	636	630	633	635	640	650	659	664	671	671	669	653	652	661	657	649	641	640	651	655	646	638	638	634	636	639	633	633	638	643	647	661	670	675	674	672	672	667	672	682	680	668	655	649	651	657	658	654	651	645	643	644	649	649	656	659	658	650	642	646	657	670	679	685	679	676	677	672	670	664	664	660	660	656	658	663	657	658	666	670	669	661	658	657	652	649	649	653	665	670	665	659	663	666	670	673	673	674	667	660	660	658	652	647	646	651	650	649	647	647	656	666	673	676	675	669	653	640	629	645	657	661	652	646	648	658	666	673	673	669	660	655	651	654	653	648	638	635	624	627	648	654	627	627	628	629	625	632	640	638	641	637	644	661	666	666	666	659	654	653	651	648	646	651	657	651	651	652	648	655	661	665	674	672	672	674	666	665	661	660	661	661	658	646	641	641	642	648	645	640	637	635	643	655	670	675	662	652	646	641	640	637	638	647	668	666	657	652	646	633	624	622	634	653	669	675	659	638	634	639	655	660	660	652	654	656	659	662	669	665	660	649	649	651	651	651	647	651	659	669	668	663	656	642	636	639	641	643	648	664	671	671	662	648	633	622	625	638	652	659	652	642	640	640	639	635	629	631	646	662	677	674	660	651	646	648	654	656	651	646	646	641	640	643	656	658	654	651	645	637	629	621	616	612	617	630	636	639	635	637	639	637	645	639	637	641	646	649	654	656	659	651	651	644	640	642	635	626	625	635	647	653	658	664	651	649	650	651	651	648	648	650	636	624	624	624	629	627	620	618	624	636	642	640	637	637	630	629	629	629	633	631	632	642	651	651	653	646	641	642	643	636	628	622	623	629	625	619	617	625	628	628	634	637	643	641	636	628	624	634	634	630	621	619	624	624	635	647	651	644	644	645	636	620	622	627	621	610	610	610	614	618	618	618	618	615	616	612	603	602	602	604	617	630	628	625	628	636	637	635	634	634	633	639	643	640	637	634	638	631	623	623	622	624	623	626	621	615	614	614	614	623	627	627	627	635	637	632	634	634	636	632	632	634	636	640	645	645	630	622	612	617	625	634	642	642	641	641	636	623	610	601	594	594	609	628	634	631	622	617	623	628	639	644	641	639	631	631	621	619	623	627	630	629	629	628	624	616	612	613	613	625	628	628	626	620	620	618	620	622	612	599	599	599	602	612	611	607	607	605	596	591	591	602	602	608	605	598
661	658	664	651	642	644	656	656	658	650	636	634	636	636	645	661	662	653	644	644	636	636	643	656	672	687	687	695	693	681	665	656	648	648	643	646	648	648	653	660	660	650	639	625	622	630	638	638	652	650	650	641	633	641	641	650	669	677	672	662	649	644	644	629	618	611	622	629	629	634	643	643	652	659	662	665	653	644	643	646	646	645	637	634	628	633	633	628	630	630	634	636	628	625	634	648	655	656	651	651	651	651	659	658	650	625	633	652	662	661	661	651	636	625	627	633	643	656	664	660	655	649	649	640	643	644	639	633	628	628	637	646	644	632	636	636	636	635	635	633	638	643	655	662	668	673	672	667	662	662	653	651	652	648	639	640	648	658	659	652	651	640	642	644	648	648	655	659	653	645	636	634	646	663	679	685	664	660	657	660	662	664	664	661	657	657	663	670	669	664	660	671	668	662	660	673	675	667	659	666	670	665	658	655	656	667	675	675	670	670	663	657	659	653	642	636	639	645	650	649	647	643	657	667	676	674	667	661	653	647	650	661	666	663	651	644	644	648	655	661	661	656	638	631	635	642	644	643	635	620	622	632	639	629	626	624	628	626	625	630	641	648	640	634	631	637	650	652	647	639	646	644	642	639	643	642	640	641	639	641	642	648	659	665	671	674	674	674	669	666	661	661	655	657	646	641	639	638	638	646	652	651	654	635	640	648	659	668	663	651	638	637	621	621	622	623	626	635	647	643	630	622	614	617	636	661	671	670	656	637	627	627	643	649	651	646	639	646	652	649	655	658	643	644	644	644	645	650	647	656	666	668	668	670	655	637	634	632	637	643	643	651	658	655	649	640	631	618	610	610	618	633	645	649	649	654	647	644	640	637	644	657	671	672	659	650	648	649	654	656	647	647	638	639	636	645	658	660	657	658	659	653	652	640	632	625	618	629	638	640	632	637	639	637	638	638	642	642	646	648	650	653	655	655	652	655	652	645	629	621	622	623	629	640	647	659	664	646	646	650	653	657	656	650	628	620	623	623	626	622	617	610	611	612	618	640	637	633	628	627	625	622	621	621	623	630	630	637	642	624	615	608	609	606	608	619	627	639	639	636	637	646	646	646	640	641	640	634	625	628	624	619	622	621	618	619	625	625	639	650	658	655	641	629	614	610	614	624	618	606	606	608	619	622	623	621	624	625	616	612	604	604	599	604	609	615	617	620	621	627	632	631	631	629	624	624	631	633	633	634	628	625	625	623	622	624	628	632	628	623	620	623	623	631	630	625	619	616	622	625	630	630	633	632	631	631	629	629	645	645	636	625	617	613	615	622	635	635	639	644	638	625	615	609	609	607	608	619	624	621	622	617	617	620	629	637	639	625	614	614	606	608	613	619	625	625	618	614	609	604	599	613	613	620	618	619	616	614	614	613	620	620	614	597	597	596	608	626	629	610	610	605	602	594	592	604	604	618	606	600
658	658	657	638	623	615	628	628	650	653	650	648	647	647	658	667	666	652	638	636	636	636	628	639	651	670	670	677	678	665	653	643	644	644	641	638	638	645	647	651	651	650	639	625	613	627	646	646	662	661	659	653	642	640	646	646	653	663	655	641	637	633	628	628	618	624	617	620	625	631	638	638	646	655	669	670	665	640	636	633	633	631	624	624	617	618	625	628	630	622	630	630	628	636	644	647	644	630	623	624	624	628	632	628	621	611	620	642	660	667	667	649	627	625	627	637	650	661	663	644	639	636	636	638	643	639	635	625	620	617	629	640	648	647	642	642	635	632	634	641	651	657	655	662	659	662	661	651	631	631	625	630	633	633	635	639	647	657	662	662	657	646	647	645	651	654	654	661	661	651	640	637	643	656	667	667	664	660	650	651	654	659	664	661	657	657	663	656	658	661	662	660	658	657	660	662	668	671	669	670	666	663	652	649	657	667	674	665	655	655	641	651	654	650	647	643	646	642	643	643	642	643	657	667	677	669	663	659	653	652	661	668	670	664	655	643	638	639	642	646	640	640	624	619	632	642	646	646	628	620	623	628	630	629	629	630	630	623	619	624	633	641	637	632	638	639	641	638	640	634	634	631	632	632	634	642	644	644	634	631	633	645	657	663	664	668	663	663	664	660	658	654	653	647	642	638	641	643	642	653	660	662	665	638	632	640	647	648	647	644	625	610	605	610	614	612	619	632	648	652	631	620	616	619	644	661	668	668	658	642	628	636	640	645	649	646	641	637	637	636	632	633	639	638	641	641	648	652	658	661	662	662	656	657	647	635	634	634	635	642	645	642	646	645	641	636	626	616	614	620	625	634	644	652	658	657	654	648	641	637	631	635	632	641	648	648	643	648	650	652	642	642	636	639	639	640	641	645	650	661	663	656	647	640	630	624	615	635	638	640	632	627	629	632	636	637	645	646	648	647	638	638	638	644	649	650	647	637	631	629	623	621	619	620	628	646	647	631	638	648	652	655	655	650	637	624	624	624	626	622	615	610	610	612	618	629	635	635	630	628	625	626	626	624	619	617	617	624	614	613	599	598	608	627	634	621	614	614	617	620	629	632	632	634	643	630	619	634	625	620	611	606	609	613	614	619	619	630	642	653	653	646	635	623	612	608	607	613	617	617	606	603	607	622	625	624	624	625	622	619	618	618	633	636	631	620	615	607	611	620	621	617	617	613	611	615	623	629	632	627	620	616	625	623	623	624	634	636	631	625	628	628	633	622	618	621	611	603	602	615	615	621	625	629	627	627	629	629	637	637	639	633	620	610	601	603	603	613	627	637	637	627	624	626	626	621	615	613	624	621	619	619	619	617	608	599	603	599	599	603	603	605	611	617	611	611	609	605	603	604	599	607	607	608	606	602	603	606	606	615	620	620	607	591	591	593	599	629	638	610	610	606	601	602	604	616	616	620	620	600
656	657	657	638	615	605	616	644	644	654	659	658	648	660	660	667	670	653	639	631	631	626	628	639	636	653	653	656	656	651	643	640	635	635	639	647	659	656	654	651	651	651	645	625	613	622	641	661	661	664	664	656	643	635	635	635	639	636	633	628	630	630	630	630	623	624	617	611	618	626	633	640	640	649	665	677	673	654	638	629	629	620	614	609	614	614	612	616	622	630	630	630	634	645	658	649	635	624	617	619	619	624	629	628	624	614	611	621	640	648	648	648	636	625	627	637	650	664	652	634	630	634	647	647	648	645	634	622	616	611	622	634	647	647	637	637	628	629	632	644	657	660	661	657	659	662	645	629	625	622	622	622	621	626	630	636	644	652	661	656	650	652	651	647	646	649	649	659	664	658	649	641	643	652	654	653	652	651	650	651	654	652	656	630	624	629	629	633	638	636	638	644	645	643	647	652	654	652	648	644	644	645	647	653	661	670	666	653	633	632	632	641	650	650	651	654	652	646	641	638	639	654	671	679	677	669	663	633	616	626	647	664	670	661	648	643	639	634	639	640	634	634	624	635	645	652	654	643	629	619	620	619	623	624	630	634	637	636	623	622	620	626	634	637	644	647	648	647	648	652	647	634	629	632	639	648	648	643	631	626	630	643	658	659	656	649	652	652	647	652	655	655	659	651	646	646	647	656	657	661	656	652	643	630	626	627	632	641	642	637	626	615	612	621	624	622	622	640	656	663	656	628	622	623	630	651	659	662	654	644	637	637	641	642	645	646	641	635	629	628	631	635	637	634	637	637	651	659	660	661	662	648	648	646	644	634	633	629	636	636	638	634	631	631	632	629	627	623	626	639	641	637	644	651	657	656	655	650	639	606	613	615	622	632	639	644	638	632	638	649	649	644	639	638	638	637	630	631	642	653	653	653	638	624	617	624	615	635	638	634	627	622	626	629	638	645	649	649	647	644	635	630	630	632	639	640	641	640	639	629	620	620	625	616	617	617	622	619	624	644	649	652	645	644	638	635	635	628	626	621	616	610	610	610	613	623	629	639	638	637	642	646	647	635	625	625	620	615	608	604	602	609	622	630	632	625	620	617	613	599	597	600	600	605	615	630	619	613	609	603	598	597	599	607	615	627	627	637	646	640	629	628	625	615	608	610	608	611	614	614	611	608	609	614	625	624	625	629	632	629	628	628	629	628	627	616	614	616	620	621	614	614	595	591	594	601	609	610	611	611	620	616	616	616	619	627	637	628	620	609	609	609	608	610	610	612	615	612	594	604	604	609	612	612	627	627	617	615	615	624	633	632	623	603	591	587	587	596	616	628	630	626	627	630	630	628	615	613	612	620	624	624	628	623	609	588	587	593	593	604	607	615	611	612	604	604	604	605	603	598	593	593	598	595	593	587	595	603	603	606	610	611	602	597	597	591	596	629	638	633	633	616	604	597	599	599	610	621	620	606
649	656	656	639	615	605	611	645	645	658	659	648	638	642	642	650	668	660	655	644	644	629	622	626	636	653	636	636	638	637	635	633	633	639	639	643	655	660	655	654	653	653	643	629	614	622	641	654	654	654	656	646	629	630	633	632	632	629	620	624	632	627	628	621	621	609	606	611	618	617	627	631	631	638	652	666	664	656	643	629	623	623	611	606	611	610	602	605	613	627	627	630	634	659	656	646	638	629	623	619	619	623	630	635	628	615	601	603	611	612	630	630	631	638	645	649	656	664	652	634	637	646	656	656	658	653	639	627	614	609	616	631	640	641	632	622	622	616	627	639	646	650	650	648	654	650	645	629	626	617	617	612	613	620	622	632	642	646	647	641	641	646	647	642	639	642	655	655	656	654	649	647	650	653	645	640	644	640	642	642	644	652	656	607	616	624	624	629	632	629	632	639	642	648	646	640	643	647	644	641	640	636	638	647	663	665	655	633	618	610	610	627	640	648	652	657	653	652	636	628	628	643	657	665	661	653	641	633	616	626	640	649	653	649	648	642	639	634	633	634	632	637	637	639	647	654	652	641	631	621	617	615	617	620	625	631	638	637	630	625	626	630	633	636	640	644	645	646	653	655	649	639	629	632	639	646	648	642	629	622	629	642	649	649	642	637	644	644	637	654	662	661	666	666	666	664	657	660	665	664	656	642	635	626	623	626	632	638	641	641	631	627	621	625	641	650	653	658	664	664	655	640	629	626	630	630	636	650	647	644	635	638	640	635	642	642	636	630	629	630	635	636	635	636	634	634	642	653	661	663	657	643	644	644	642	637	633	629	628	627	629	627	623	623	623	627	630	634	639	649	649	639	641	642	645	647	646	641	598	595	606	621	633	639	645	647	632	623	640	644	644	640	635	634	635	636	630	626	637	647	654	643	638	624	617	611	626	631	630	623	620	621	626	634	641	651	652	652	646	640	634	634	626	625	629	630	638	639	633	620	619	620	624	620	620	618	612	610	623	636	644	646	641	640	637	637	637	638	626	621	616	615	614	614	614	618	626	626	625	629	638	640	641	637	627	627	621	614	606	604	617	621	623	629	629	626	623	622	620	615	609	609	604	605	615	615	618	639	630	616	596	591	597	606	621	632	632	639	637	617	611	612	610	607	607	608	615	620	620	619	619	613	609	614	618	618	624	626	627	624	624	620	620	624	617	613	610	616	618	620	609	609	598	593	588	591	597	594	611	611	613	613	606	602	598	599	609	608	595	592	594	594	595	604	605	611	613	611	603	603	591	597	612	612	620	616	606	604	604	607	615	621	616	602	590	583	583	591	605	617	621	615	617	617	630	628	623	616	615	619	628	628	636	631	616	594	583	590	590	599	607	608	595	590	590	604	604	605	603	599	598	598	589	582	583	587	590	590	595	600	604	597	594	594	599	591	596	632	638	638	632	618	604	597	598	598	609	616	620	602
657	666	666	644	621	604	611	645	648	658	656	643	631	633	633	643	662	668	667	654	636	636	631	629	635	634	636	636	616	622	634	635	640	637	637	639	645	650	653	658	652	652	643	632	617	619	641	654	654	650	639	630	625	623	632	638	638	633	629	629	635	622	616	612	612	609	600	600	607	617	627	628	628	629	633	646	648	647	638	634	629	629	620	613	610	608	603	601	616	630	634	634	643	659	656	649	646	643	637	625	621	621	622	625	610	602	590	588	587	610	635	638	638	642	660	655	657	654	640	634	637	655	666	666	665	661	648	627	612	603	611	625	634	631	625	613	613	604	626	639	643	638	634	636	635	635	634	630	626	617	607	607	605	612	622	631	638	630	624	624	627	633	637	634	630	631	633	633	634	641	642	647	652	650	638	636	641	641	638	636	633	625	613	607	616	629	636	636	636	631	632	634	647	650	645	643	644	642	643	639	638	639	639	646	659	655	639	621	609	609	616	616	626	642	645	649	655	652	638	629	624	631	649	655	651	640	624	617	621	627	640	649	653	645	640	639	639	637	637	634	645	644	644	640	643	650	646	634	630	626	621	618	618	620	623	628	634	632	632	629	631	632	634	636	637	639	646	655	651	642	635	629	625	629	632	639	640	627	625	622	621	629	638	643	637	633	639	639	647	660	666	666	655	655	662	667	664	665	664	664	650	640	631	628	627	630	634	637	638	640	639	635	637	639	646	653	655	659	662	660	653	643	629	625	625	631	639	647	647	641	638	637	638	635	635	631	628	624	627	633	633	635	635	635	635	636	641	647	652	655	656	645	638	637	639	638	635	630	627	623	620	620	621	621	622	631	639	640	640	643	643	634	627	626	632	637	633	609	589	594	610	631	640	650	657	650	628	622	631	631	640	638	632	630	628	631	627	624	627	647	654	643	630	650	626	606	597	603	608	612	614	619	626	631	645	653	654	641	620	616	612	612	616	619	618	623	628	633	624	617	609	612	616	624	623	618	615	616	615	628	629	625	626	631	633	633	637	638	632	628	620	620	621	619	619	616	617	615	616	619	624	629	630	627	627	621	616	610	611	621	622	623	620	627	629	629	628	628	621	619	612	609	604	600	612	614	616	629	653	633	611	599	599	610	621	621	634	629	616	604	597	599	600	599	596	593	606	613	613	620	621	613	613	612	612	615	623	623	621	618	618	617	617	618	616	615	615	615	618	615	608	608	597	596	600	601	596	594	595	593	596	596	591	585	584	587	591	592	587	582	582	585	588	597	605	610	612	611	608	608	591	597	599	599	598	595	596	596	596	596	599	604	606	600	591	591	582	586	595	604	597	594	617	617	625	625	625	621	622	624	624	628	630	630	624	599	587	587	590	596	596	590	585	590	590	596	608	618	623	619	606	606	591	583	589	595	594	594	595	591	592	578	580	594	599	612	627	630	628	628	629	619	606	596	594	594	608	618	613	603
651	659	645	645	624	612	628	648	648	658	658	644	633	631	633	633	647	661	654	644	636	636	633	635	640	629	621	621	616	622	629	638	642	641	641	634	638	644	652	658	657	657	643	632	624	625	653	654	650	650	639	619	620	626	634	643	643	647	642	649	638	623	619	618	618	612	603	607	610	621	622	628	629	621	618	622	626	630	628	634	643	633	633	621	614	608	605	618	625	630	638	638	649	659	656	649	646	645	638	630	618	618	615	615	614	602	587	577	584	596	626	633	633	663	650	647	645	645	635	635	645	655	666	657	657	651	646	621	604	596	604	617	623	622	611	604	601	601	621	635	636	627	622	617	608	616	625	630	631	615	607	607	599	605	621	631	638	631	622	617	622	623	627	619	620	618	617	621	621	625	628	642	653	643	635	636	637	638	637	634	632	622	613	610	620	629	636	636	640	633	631	636	639	647	644	644	642	641	639	636	638	641	645	654	653	636	624	607	605	614	616	616	617	622	632	638	648	650	638	628	622	624	632	638	643	633	626	621	618	624	633	645	645	645	640	639	640	642	638	633	637	643	636	636	636	638	637	631	628	630	631	627	623	624	628	631	633	631	628	628	634	633	634	633	638	668	688	679	668	659	652	641	619	624	631	633	626	628	626	624	616	611	617	632	631	628	633	645	645	653	641	639	637	639	647	652	661	663	663	660	646	637	631	630	634	632	630	628	631	638	641	643	640	639	644	645	649	650	655	655	655	648	636	634	630	632	634	633	645	658	650	649	639	632	625	622	622	621	625	629	631	631	632	633	633	634	634	641	645	646	646	640	634	629	633	638	642	638	628	616	613	614	616	617	625	627	631	631	630	625	626	623	622	622	625	625	619	594	587	592	611	631	641	651	665	647	624	615	625	625	633	633	630	625	625	631	627	624	627	642	655	660	661	654	640	622	619	617	615	610	609	619	624	630	640	647	640	630	625	621	621	619	608	609	613	617	620	621	617	610	609	611	620	625	623	618	617	618	622	624	621	612	611	620	631	633	636	638	637	631	622	621	629	627	624	619	614	612	609	608	611	614	620	622	622	618	611	618	620	621	627	624	622	624	628	628	622	617	620	619	619	612	608	604	606	603	607	615	628	639	628	610	603	607	612	612	618	615	606	598	593	589	590	595	592	589	587	594	594	620	621	618	620	621	619	620	622	621	618	618	615	611	611	615	615	616	615	617	617	617	617	604	597	596	603	601	596	595	591	592	592	591	588	586	592	600	590	582	580	585	585	581	582	595	603	611	614	612	608	608	585	587	588	586	591	593	594	594	592	595	600	602	600	599	591	591	589	585	578	577	578	594	601	601	605	615	624	625	616	615	615	618	617	620	619	614	597	597	596	596	592	590	585	585	585	590	605	615	622	624	624	612	598	589	594	598	600	600	592	587	586	578	580	580	599	617	621	616	609	609	611	613	606	599	599	594	603	607	606	592
637	638	639	639	627	624	631	645	657	657	658	644	639	633	631	631	638	646	642	633	623	623	626	632	636	625	615	616	616	622	629	638	636	634	631	631	630	637	648	652	649	643	643	634	633	645	658	663	645	645	631	619	620	621	632	643	646	646	657	650	635	626	626	623	616	616	612	609	613	619	623	622	621	621	618	612	607	607	616	628	642	645	645	639	625	614	613	619	624	633	642	642	648	649	648	645	645	645	638	631	619	618	618	619	621	611	597	581	582	595	616	637	637	618	626	634	635	629	621	622	636	647	652	657	657	642	635	623	608	598	599	608	617	617	615	609	608	608	620	630	629	619	614	606	595	603	622	630	633	621	603	599	599	605	618	632	636	633	624	623	619	614	601	618	629	625	622	624	624	638	638	637	645	640	633	632	635	636	639	636	633	627	619	623	637	643	646	640	640	633	628	630	632	638	635	638	638	635	636	636	638	639	648	649	644	630	614	605	614	631	628	616	616	617	622	627	635	641	639	626	623	620	624	628	631	629	627	624	623	621	628	634	637	641	638	637	640	642	638	633	613	613	622	622	627	629	638	635	634	640	642	636	629	625	629	632	631	627	627	630	632	633	630	628	638	665	669	674	672	666	655	644	641	641	643	640	627	629	630	629	625	625	629	627	619	613	610	609	609	622	626	629	630	631	631	638	648	655	653	650	642	635	633	631	634	629	623	622	620	634	643	644	639	637	627	630	635	642	644	646	646	645	641	642	640	630	623	619	624	631	630	628	631	627	619	618	616	618	623	619	625	626	629	630	630	630	626	628	629	631	639	635	627	622	623	633	641	641	633	622	617	615	618	616	620	630	629	624	619	614	616	615	620	623	623	619	612	594	589	588	608	622	635	646	646	620	610	606	606	617	625	625	630	625	625	626	624	620	621	634	648	653	656	642	629	624	622	615	614	611	615	625	627	625	623	623	617	614	619	621	621	616	610	607	608	613	620	617	615	610	612	613	623	624	618	614	617	618	619	622	623	612	611	620	620	629	632	638	646	645	643	632	638	633	626	618	614	606	605	599	598	598	605	605	614	618	620	619	619	620	622	627	628	624	620	610	607	617	620	616	616	613	609	604	604	602	598	605	611	613	614	610	604	602	602	606	607	604	597	594	587	587	589	590	595	586	586	587	594	606	622	622	623	623	619	622	623	620	614	614	608	605	606	607	605	608	609	612	617	615	615	615	604	596	603	606	603	598	598	600	600	598	592	593	606	607	601	594	590	590	590	603	612	616	604	609	610	612	612	611	594	591	585	588	595	593	593	593	596	595	596	603	605	603	597	597	589	579	574	577	578	579	579	582	593	610	625	617	613	611	611	612	605	604	609	608	600	600	593	596	592	585	581	581	585	589	597	609	613	620	620	613	599	593	594	601	601	602	597	587	586	582	582	584	596	613	616	606	606	594	588	592	596	596	596	594	593	589	606	592
619	616	611	611	615	621	628	639	657	657	657	651	639	633	623	623	621	629	628	618	616	623	623	623	631	629	628	626	626	628	630	634	636	634	625	625	617	621	627	632	635	637	637	638	643	651	664	665	649	649	628	616	616	621	627	634	640	640	647	641	631	625	628	627	617	617	614	612	609	612	616	615	613	613	612	612	607	585	595	612	633	643	643	640	629	618	619	623	625	627	633	635	635	640	638	633	631	634	638	631	624	629	629	631	630	622	605	591	588	596	619	620	612	612	616	625	628	619	612	611	625	628	637	640	642	642	635	622	611	601	597	600	611	617	624	623	625	625	625	628	629	637	647	639	610	592	591	606	627	624	605	595	595	594	618	632	636	631	629	628	616	620	624	630	631	628	622	629	644	644	642	644	639	630	623	626	640	646	646	642	636	635	635	641	651	657	654	643	633	633	628	630	632	630	630	627	626	626	628	630	635	633	629	621	608	605	608	614	627	636	630	620	616	616	617	622	627	627	623	620	617	619	617	621	623	620	625	628	629	625	626	630	630	631	633	634	636	638	632	622	613	613	622	617	617	627	634	639	643	644	644	634	628	626	628	631	628	625	623	629	633	632	627	623	630	642	651	657	664	662	654	647	643	644	644	640	637	633	635	635	626	625	619	615	613	607	604	606	606	608	618	622	630	623	624	629	642	647	645	641	640	634	627	625	621	621	618	618	622	630	637	642	634	620	614	615	623	628	634	633	628	627	635	644	645	635	615	607	610	613	618	622	623	622	617	615	617	624	619	614	619	625	628	628	627	626	620	614	607	619	630	636	626	622	621	627	634	636	635	628	622	621	618	617	622	628	628	623	611	604	604	610	617	623	625	621	609	607	595	594	593	601	615	623	608	608	601	606	606	617	625	625	621	620	625	624	619	615	617	623	632	643	640	632	630	627	629	623	616	613	617	623	613	609	607	612	613	613	617	617	620	618	607	604	613	618	620	617	614	611	613	619	625	618	610	607	610	615	613	622	623	622	617	617	609	615	626	636	643	641	643	648	647	634	626	609	604	605	613	620	617	606	599	599	608	615	617	612	607	610	615	622	632	638	631	610	607	612	602	602	595	599	598	598	601	601	600	601	608	608	607	607	599	596	596	592	585	587	585	584	584	581	587	588	595	586	586	586	594	604	622	624	621	617	619	622	624	618	608	608	603	597	596	593	594	597	600	603	609	609	613	615	604	601	603	604	610	609	609	608	608	604	598	597	606	608	602	596	594	594	595	605	615	619	616	609	610	610	610	607	605	603	605	607	601	592	592	592	588	589	596	604	607	609	609	606	598	579	574	576	570	572	572	578	590	613	621	616	609	609	605	594	591	594	600	600	600	597	593	589	583	578	582	582	592	598	599	595	599	599	599	597	598	597	600	603	603	602	597	589	581	579	579	587	598	603	596	592	592	583	577	577	581	589	589	587	593	589	587	587
605	599	598	598	600	614	623	637	651	651	657	658	643	628	623	621	612	607	601	604	616	623	623	622	624	631	642	640	640	638	628	625	624	622	625	612	601	602	616	621	628	631	631	637	644	651	662	668	656	634	634	624	627	625	627	634	623	623	626	620	618	620	623	622	616	616	606	601	602	608	606	611	610	608	608	595	585	585	611	619	632	634	637	637	634	631	625	624	618	617	620	622	622	624	622	614	610	613	618	623	624	629	634	641	633	623	608	601	603	609	621	625	620	620	628	630	628	621	608	606	606	608	618	623	630	630	629	622	611	614	605	597	604	613	616	610	604	598	598	600	620	643	657	650	633	616	616	622	637	640	626	617	620	620	622	629	633	631	629	625	623	622	626	628	632	629	619	615	632	640	640	643	634	627	624	629	641	650	644	636	632	638	648	652	662	664	657	649	636	636	626	624	627	630	630	620	614	617	621	625	628	623	614	605	601	603	601	610	622	629	629	621	617	617	618	621	623	619	611	612	617	618	613	611	602	606	627	634	633	630	627	624	622	631	636	636	631	628	626	615	609	610	611	617	627	627	634	635	638	640	635	623	623	620	620	624	625	625	624	627	628	623	617	615	622	629	633	639	646	647	645	646	652	648	643	636	635	632	636	636	628	620	608	607	604	607	613	613	613	613	621	622	623	614	616	622	638	641	635	627	633	626	613	612	608	614	614	614	614	620	623	624	606	600	599	611	620	624	625	621	611	608	619	629	633	622	610	603	606	613	616	620	624	625	622	621	625	628	620	613	615	622	621	621	623	624	619	609	602	603	618	624	621	616	609	616	621	628	626	621	616	618	618	620	628	630	628	620	611	608	600	606	612	620	623	622	614	608	605	601	597	600	599	599	608	608	601	601	606	609	617	617	617	622	627	626	614	604	609	621	630	635	629	624	621	630	631	626	621	615	617	613	606	600	600	607	608	605	605	608	607	602	594	593	596	597	608	616	611	602	600	607	612	612	606	604	610	615	613	620	622	622	622	621	621	611	613	623	624	618	616	627	632	625	609	607	608	612	620	621	619	610	610	606	608	612	612	607	600	601	607	616	626	638	631	615	609	601	594	594	587	591	582	584	589	592	594	599	603	604	608	605	599	599	598	595	591	584	571	566	568	577	583	588	595	602	602	604	606	617	624	619	610	609	611	615	617	615	615	605	597	592	587	588	590	594	594	599	607	609	613	613	609	601	597	598	614	616	618	618	616	610	610	600	596	603	601	595	589	589	593	598	605	619	616	601	599	599	603	606	606	607	615	616	607	580	580	584	583	586	594	603	610	610	610	606	598	585	580	578	574	576	576	580	587	598	600	601	602	602	598	591	590	590	592	593	600	597	589	578	578	581	592	592	599	605	601	594	593	593	596	596	597	603	602	603	603	608	606	599	591	595	595	595	586	574	571	576	576	580	581	573	575	575	589	587	583	579	566	566
598	586	585	596	596	610	615	629	642	650	650	657	648	634	624	612	612	607	585	596	616	624	624	630	627	639	647	647	640	640	627	619	618	616	612	601	601	600	612	624	628	632	635	635	641	641	654	666	660	645	645	644	640	639	631	621	623	626	613	607	603	604	608	608	605	597	597	593	595	603	608	609	605	599	599	600	614	614	611	619	619	623	624	624	628	633	629	614	607	604	604	606	609	609	609	600	594	594	603	613	623	634	641	641	634	618	605	603	613	621	628	628	629	634	634	638	638	633	624	610	601	601	613	623	627	625	625	621	618	614	605	594	599	604	605	598	586	576	586	586	604	615	623	631	626	618	615	619	631	632	622	612	616	616	623	624	626	626	630	625	623	627	620	617	619	622	611	608	625	641	641	639	641	635	633	636	644	645	638	627	623	633	645	659	664	663	658	649	639	630	630	625	622	624	623	620	614	617	615	621	618	615	607	601	597	595	596	602	614	629	634	622	618	623	623	624	622	612	603	605	615	618	617	599	598	615	628	635	635	631	628	622	618	629	635	634	625	617	607	608	610	612	612	616	622	622	628	635	638	640	635	627	624	620	617	620	629	638	629	622	624	618	619	621	622	624	631	634	634	636	635	641	645	645	641	630	626	628	632	633	629	616	611	608	610	612	621	624	625	625	629	629	624	615	610	621	632	637	629	616	606	603	607	605	604	605	607	604	599	604	608	605	598	597	608	619	626	626	626	612	606	606	615	625	623	619	609	605	609	615	617	618	623	623	629	628	630	627	622	615	612	614	615	615	619	622	619	614	610	608	606	613	605	600	600	604	610	616	609	596	589	602	612	620	623	622	620	620	618	618	609	604	607	612	614	613	613	612	608	597	597	600	599	599	598	602	602	602	604	611	611	612	615	629	631	621	608	597	600	617	629	629	619	616	615	620	619	620	620	615	613	609	601	598	598	602	600	603	603	613	618	621	609	600	595	591	590	594	599	600	601	601	601	604	606	604	606	604	604	611	618	623	623	626	626	623	609	601	598	591	601	615	612	606	607	612	612	616	619	626	620	620	613	608	610	612	613	609	602	601	604	616	626	634	631	628	619	613	613	597	590	592	584	582	585	586	588	591	597	606	608	607	602	602	600	599	599	590	585	576	577	577	583	593	599	603	603	607	611	616	614	610	601	599	602	601	604	608	608	602	598	591	588	588	591	593	591	599	607	607	609	611	608	595	591	590	604	610	612	612	608	604	600	599	591	584	580	579	579	583	584	598	605	611	600	594	593	593	599	604	608	606	610	606	600	569	569	575	585	587	586	584	602	610	610	610	601	594	584	583	583	583	584	587	588	594	595	596	595	595	594	591	589	587	592	593	593	588	580	571	579	589	589	598	605	604	597	595	597	597	598	599	606	606	602	602	602	603	604	600	595	595	595	596	577	566	564	564	569	584	598	598	575	575	580	579	583	580	552	552
598	583	584	597	597	612	614	595	595	626	626	645	643	639	625	610	610	589	585	595	618	633	635	635	628	634	629	606	598	598	612	607	610	614	609	597	597	600	612	632	633	627	621	621	611	607	607	617	644	660	660	653	651	649	634	617	617	613	613	607	605	604	605	599	595	592	592	590	595	599	610	610	602	595	608	608	624	630	629	620	619	623	608	617	617	616	603	595	587	596	600	598	600	600	599	595	586	584	591	603	616	630	639	639	634	618	613	610	611	619	627	628	626	625	625	626	631	623	608	605	606	614	625	631	633	628	628	621	616	609	598	594	599	597	591	580	573	579	596	596	608	613	618	617	609	604	604	610	611	605	599	597	604	606	606	613	613	621	628	626	627	627	620	583	595	615	620	624	624	617	615	615	615	619	616	617	628	626	624	614	627	641	648	651	645	638	638	651	641	630	630	620	617	615	616	615	613	612	615	621	614	607	606	607	601	597	595	601	610	618	628	624	623	624	624	630	628	615	603	606	620	627	620	608	609	620	632	631	628	621	624	617	613	615	630	630	617	602	596	603	614	618	614	614	613	619	619	627	629	626	628	627	624	620	617	620	631	640	625	619	616	621	626	634	633	632	632	632	631	631	629	628	635	634	626	623	620	624	628	627	629	625	621	617	617	621	624	619	631	631	634	634	630	628	626	628	627	625	621	614	606	607	606	599	598	597	601	598	594	597	600	605	603	604	615	627	631	626	626	615	610	615	625	633	631	618	613	612	610	608	610	616	622	623	625	628	626	623	615	612	607	605	605	610	616	624	624	619	616	618	614	603	595	593	592	597	602	602	594	583	582	589	606	609	611	611	612	614	616	613	610	603	601	605	606	609	613	612	608	597	590	595	598	598	596	593	593	598	606	610	612	615	616	628	633	623	612	598	600	612	626	625	619	616	615	615	616	618	620	618	612	607	602	598	598	600	595	595	603	605	608	606	603	594	589	593	597	601	603	606	607	601	601	604	602	601	602	604	599	610	614	614	618	624	626	625	607	597	592	593	595	603	608	612	612	617	617	618	619	620	617	617	613	611	611	611	610	603	602	601	604	610	617	626	620	607	610	612	612	610	606	604	594	599	599	593	585	582	596	607	614	612	612	605	603	603	603	597	591	576	577	584	598	604	603	603	593	600	607	608	606	606	595	590	586	589	589	589	590	591	591	591	587	592	597	593	591	596	596	603	607	609	607	600	594	590	589	599	599	594	587	589	593	588	588	580	576	574	574	583	584	588	592	593	592	588	584	584	591	597	601	604	602	596	596	596	575	569	579	586	585	584	602	602	609	613	608	600	592	586	587	587	588	588	589	587	590	595	595	590	583	584	589	587	586	586	585	577	572	566	573	583	583	596	598	597	594	592	599	599	599	601	606	606	605	605	602	603	602	597	594	594	596	590	580	573	570	570	581	587	598	598	580	580	571	571	575	584	584	576
589	583	598	620	620	617	589	576	577	588	588	611	634	642	629	608	582	582	574	595	618	632	632	632	617	611	606	595	591	591	600	603	603	605	600	594	594	596	611	632	633	625	607	607	601	599	607	622	648	658	657	657	655	642	630	626	613	611	611	605	605	604	599	598	596	595	595	595	593	603	612	608	603	595	611	611	621	627	628	619	616	610	608	617	597	601	597	593	596	603	597	590	589	589	588	588	583	584	587	597	609	617	623	623	623	615	613	610	620	625	627	629	624	616	604	604	608	616	608	603	607	612	622	629	629	625	619	619	616	610	600	595	598	597	591	573	572	583	600	612	612	618	619	613	603	593	591	599	610	611	602	596	594	591	591	591	595	605	620	619	612	603	591	583	595	615	612	603	592	586	588	588	598	601	602	600	600	606	609	611	627	636	644	644	634	622	623	623	624	619	612	612	602	603	607	614	616	619	619	618	614	607	606	624	620	605	606	619	620	617	602	591	588	605	624	624	623	607	604	605	606	613	615	619	619	620	626	628	620	608	605	600	599	606	619	625	611	594	588	603	614	620	617	608	605	610	610	620	626	628	628	631	628	618	613	616	631	640	625	619	615	619	630	636	636	634	630	628	628	630	623	620	621	607	606	616	620	620	625	624	627	627	629	627	621	622	617	609	621	632	632	630	631	636	640	631	625	617	616	612	609	611	610	603	598	592	591	589	588	589	597	604	610	612	618	629	629	627	627	621	615	620	627	636	628	610	611	612	607	603	602	620	626	625	621	624	621	617	611	606	604	602	602	606	619	628	622	621	618	621	610	601	600	594	599	600	599	596	593	587	592	598	607	600	597	594	598	608	608	608	601	603	601	605	606	609	610	610	603	593	592	602	604	596	589	589	585	592	604	611	612	608	615	624	632	627	616	605	604	612	616	620	612	614	615	614	615	620	621	619	611	610	607	602	606	604	603	603	584	587	601	603	597	588	586	589	593	600	610	606	607	602	598	596	597	602	602	601	605	606	610	610	612	618	624	620	604	590	589	594	599	605	609	613	617	618	619	616	616	616	616	613	611	612	611	607	610	603	595	599	601	607	610	614	603	599	603	603	605	605	604	595	592	592	589	589	591	598	610	618	619	615	615	607	595	592	595	597	591	591	589	591	601	603	595	595	592	596	602	606	600	597	589	578	579	582	581	581	581	584	586	586	593	592	597	593	593	594	594	599	603	601	601	597	598	595	588	593	593	590	579	579	581	587	586	580	576	576	574	575	575	577	578	580	579	581	581	578	580	584	591	592	593	588	588	588	584	576	581	586	585	586	589	589	597	602	604	603	593	583	585	585	586	584	585	585	587	593	593	585	583	584	581	577	566	566	565	567	582	594	568	573	573	580	580	580	587	594	594	602	599	601	601	603	598	598	598	596	597	594	592	592	595	592	581	577	576	576	580	587	588	588	570	570	563	562	569	577	577	588
591	595	598	620	601	601	590	576	581	579	593	593	614	623	627	606	586	586	575	591	618	632	632	617	601	591	597	599	592	593	593	590	597	598	592	585	592	592	610	631	635	625	607	597	597	602	616	634	648	653	645	645	626	623	621	615	614	610	615	615	608	603	599	598	602	605	601	601	597	599	603	602	596	599	605	605	614	617	614	615	610	605	599	597	597	601	609	611	612	635	636	621	609	596	596	587	586	592	599	603	611	617	615	608	608	607	611	616	620	625	635	633	624	595	597	597	608	612	607	603	610	612	616	619	618	614	614	614	609	610	609	606	603	597	588	573	572	587	601	611	611	620	615	604	599	602	607	609	606	615	617	617	612	608	609	609	615	619	608	603	605	604	593	589	610	615	612	594	585	580	581	592	592	609	609	601	595	593	596	600	608	624	632	632	623	616	617	618	619	612	601	601	588	587	597	612	622	623	613	600	601	613	623	624	620	620	621	626	626	619	606	585	579	580	591	591	593	598	607	607	609	612	616	622	625	621	625	622	618	615	614	600	597	601	613	619	615	606	595	600	613	615	609	596	595	604	615	615	624	630	632	632	627	617	611	616	629	627	610	612	615	619	630	636	636	625	616	616	616	617	617	612	611	610	610	613	616	624	628	623	621	624	629	629	624	619	612	603	614	625	625	625	622	631	634	629	622	618	617	613	611	613	612	610	609	614	602	594	588	587	592	601	609	613	615	616	618	625	620	615	610	621	627	626	619	611	612	611	607	601	599	606	625	630	628	621	617	611	608	606	603	603	603	610	620	627	625	619	615	612	609	606	598	603	607	603	599	591	590	592	601	613	614	596	589	584	598	608	608	608	601	598	598	601	605	609	610	610	598	595	605	611	606	595	583	583	581	587	598	605	606	603	607	615	625	622	619	613	610	611	613	613	607	616	619	613	614	622	622	617	611	609	612	614	612	611	611	612	603	580	576	587	591	587	584	586	593	600	610	613	611	608	598	585	583	590	599	599	600	607	607	609	607	614	619	613	594	586	587	593	600	607	615	613	612	613	611	609	608	609	609	607	610	614	611	607	603	594	591	595	603	606	609	605	588	588	591	591	602	603	602	596	589	588	586	588	590	597	603	601	586	586	575	572	571	592	595	600	597	596	589	591	596	593	593	586	589	590	592	591	588	588	580	576	578	579	579	577	575	578	581	586	593	594	596	593	589	589	588	591	599	597	597	596	596	592	589	589	590	588	583	583	581	581	582	580	576	576	573	571	572	572	573	570	571	573	573	571	570	574	575	578	581	584	584	583	582	576	581	588	589	589	589	591	590	583	579	580	590	574	574	575	579	582	582	585	586	589	593	585	580	580	578	572	572	572	568	571	579	586	583	583	555	558	563	570	583	598	594	602	603	596	592	595	595	590	595	597	602	597	597	592	587	584	578	574	574	576	580	581	584	579	579	570	566	563	570	582	582	594
594	601	620	625	601	601	589	585	581	578	580	580	596	603	609	598	585	585	578	590	604	624	617	601	601	590	593	601	602	588	588	583	582	589	585	585	594	594	609	630	630	623	605	597	597	603	612	624	632	630	613	613	602	605	608	601	599	607	615	615	611	601	599	598	602	605	603	603	589	586	585	590	594	600	607	613	613	611	606	606	612	608	605	600	609	609	609	611	604	612	630	635	634	624	624	618	616	617	609	598	593	597	596	597	595	595	598	611	617	628	635	633	599	596	601	611	611	610	610	604	604	605	608	609	608	610	603	603	605	604	608	609	605	598	594	581	578	587	601	612	600	600	587	591	595	603	603	599	595	598	606	617	614	607	606	606	601	597	596	598	605	614	617	616	621	617	606	594	585	580	578	591	591	604	613	607	601	593	589	590	595	604	611	612	611	612	616	621	618	608	596	585	585	585	596	615	623	618	611	601	607	621	634	640	633	620	621	626	616	620	614	600	577	574	580	588	588	597	604	611	610	615	619	626	628	627	624	618	619	621	621	611	596	602	609	618	613	611	609	615	617	611	605	593	592	602	614	614	622	630	630	632	623	609	606	611	616	609	599	597	607	620	628	629	628	625	616	616	616	617	617	614	617	616	615	616	615	623	620	621	621	623	620	621	623	623	613	599	595	615	615	621	621	617	619	621	624	622	618	612	604	600	604	612	618	618	612	604	595	595	597	603	607	607	606	607	609	612	607	614	627	625	625	618	609	606	607	609	607	598	593	599	614	625	632	627	618	613	612	612	611	606	606	611	619	627	626	615	610	610	609	604	602	603	603	601	597	593	593	593	601	613	614	596	589	584	593	601	605	604	600	598	599	604	607	610	609	614	613	612	613	611	609	595	595	586	582	585	592	597	597	597	599	605	611	614	616	616	615	615	614	610	606	611	616	618	622	618	615	612	611	603	602	604	614	618	618	617	614	602	585	577	581	587	584	586	589	596	606	609	608	607	597	583	582	588	595	597	597	602	602	606	608	612	616	609	593	586	584	593	600	609	616	613	612	604	600	598	598	598	599	602	610	614	611	605	598	589	590	595	607	607	604	601	582	579	579	583	588	595	593	573	573	575	585	583	586	593	597	591	581	581	571	572	571	568	573	587	593	594	590	590	590	587	587	585	584	584	582	577	571	571	572	575	577	576	576	572	568	578	581	586	591	591	592	593	587	587	582	580	580	594	593	589	587	585	587	587	585	582	579	578	572	581	582	579	578	578	574	572	574	576	571	564	563	567	567	572	575	569	562	557	564	576	576	588	582	581	577	588	591	591	591	589	583	574	569	568	573	578	578	570	568	578	580	585	586	586	589	584	580	582	575	576	576	576	575	573	571	573	571	571	560	551	558	573	583	598	598	607	599	589	582	579	579	581	590	598	604	598	598	583	576	570	563	574	574	576	577	573	573	574	574	572	563	563	571	583	583	596
606	608	618	607	599	599	589	585	584	568	565	565	582	598	603	597	582	571	571	573	599	610	604	596	596	590	593	603	590	575	575	565	572	582	596	594	599	599	614	627	631	617	605	598	598	603	612	615	620	622	609	600	600	593	595	589	589	594	600	600	600	596	597	601	609	607	603	575	575	569	571	577	587	600	610	614	614	607	604	601	607	594	590	597	599	599	596	599	604	612	616	615	628	632	635	635	635	631	621	612	612	617	603	595	589	589	588	588	589	591	594	608	599	596	601	612	612	613	610	609	608	611	609	603	600	600	598	600	600	599	600	599	601	597	594	585	580	589	607	612	600	572	569	570	582	596	600	594	593	596	604	612	609	594	587	582	582	579	591	603	613	624	631	633	628	620	612	595	579	574	578	591	598	598	606	599	598	590	582	584	587	593	604	606	603	607	617	626	624	613	590	586	586	590	604	611	617	616	609	599	604	622	638	636	626	606	606	609	616	620	614	619	596	584	588	591	591	593	600	599	602	605	616	625	624	615	612	615	618	626	621	608	603	610	613	620	618	624	633	635	618	613	612	602	593	593	610	620	620	649	646	624	602	600	602	605	601	601	596	595	609	624	637	638	631	616	609	607	606	606	607	614	617	616	615	616	615	623	604	604	606	611	614	618	620	622	617	599	591	598	598	603	612	614	612	618	625	626	618	610	605	591	594	602	617	635	637	627	618	613	608	608	609	609	613	607	605	610	620	631	630	627	621	612	597	591	597	610	609	600	594	593	602	618	619	619	615	615	617	619	619	619	617	608	616	620	619	612	605	604	606	605	603	605	603	601	597	593	593	593	607	615	611	597	588	584	590	597	600	601	606	604	603	603	603	604	608	610	614	613	607	603	602	594	594	589	585	586	589	590	595	597	603	607	607	609	612	614	613	614	612	600	602	610	622	627	622	616	610	608	605	600	596	597	606	606	620	619	614	602	585	577	581	581	580	579	585	593	600	599	602	598	593	587	585	592	595	595	592	592	596	600	605	607	604	602	598	592	591	591	596	609	615	611	600	596	592	589	589	589	599	602	607	616	612	605	595	588	590	598	607	610	604	596	577	574	574	577	581	574	566	554	550	564	574	583	586	587	594	585	585	581	571	574	580	585	581	584	586	581	587	588	589	589	585	580	578	577	576	571	565	563	561	570	573	573	574	572	568	572	572	571	572	579	586	590	590	586	586	579	573	568	581	577	576	580	580	580	575	572	573	568	572	574	579	580	580	578	576	572	575	572	568	558	557	557	567	579	581	576	579	576	576	579	576	588	584	582	579	584	596	591	591	585	580	573	566	567	565	565	569	566	564	568	572	585	585	585	586	582	577	574	576	578	578	577	574	575	571	567	563	563	560	559	558	573	588	588	597	597	595	584	577	574	574	576	585	589	594	594	594	583	571	570	563	565	565	571	573	569	561	552	552	555	546	551	564	564	578	592
609	613	613	611	596	590	590	589	584	568	570	583	583	601	603	596	579	560	560	564	587	601	607	606	606	597	600	603	590	571	562	562	565	589	596	597	607	613	613	626	630	623	614	604	605	605	606	615	613	620	618	604	604	599	594	592	592	595	596	592	592	586	593	604	614	610	593	575	575	562	561	570	582	602	615	620	613	613	606	596	594	584	580	588	592	593	593	596	595	606	616	615	601	608	615	615	622	627	619	618	616	613	600	592	585	585	584	584	586	590	595	603	606	600	601	612	608	609	612	609	606	605	601	594	588	587	588	583	583	584	587	591	594	599	595	585	568	558	571	578	572	569	569	584	598	603	597	586	583	587	599	605	604	601	596	594	594	592	593	599	600	603	612	621	624	623	616	603	592	580	578	586	598	598	610	604	605	590	586	591	588	590	594	595	597	601	612	621	624	596	584	586	597	597	604	606	609	606	602	595	602	614	623	622	603	600	596	600	611	618	621	619	596	584	593	595	598	598	598	595	591	592	591	594	597	598	592	592	604	611	611	612	611	616	617	618	617	613	620	623	608	604	608	617	617	613	623	641	641	645	627	604	593	592	597	601	603	602	593	591	596	601	608	618	623	619	613	610	605	604	603	611	621	621	617	616	616	606	604	604	606	611	614	618	620	622	607	598	588	582	584	584	605	611	615	616	619	622	614	607	605	603	597	589	597	614	621	621	617	612	607	602	600	600	602	600	602	608	617	628	631	621	616	607	595	589	592	607	610	601	594	591	596	608	607	606	598	598	601	608	609	609	603	600	604	608	619	612	605	604	606	605	603	605	601	599	593	589	589	596	609	614	608	594	590	594	596	595	596	603	608	609	606	602	597	600	605	607	601	594	596	598	601	601	597	597	597	589	584	586	588	593	603	607	606	607	607	603	600	597	598	613	617	617	618	624	618	610	603	602	603	599	592	594	604	604	614	615	614	602	594	581	580	583	593	598	598	595	595	594	597	588	577	578	580	589	593	594	587	587	587	592	593	589	589	587	586	587	587	590	598	606	607	589	584	583	584	589	589	589	583	589	603	610	616	606	594	578	577	585	593	585	586	586	577	577	570	574	572	563	551	544	546	557	567	579	586	586	581	585	585	573	571	575	582	589	592	585	579	574	575	583	586	586	582	576	575	574	575	572	566	562	560	564	569	573	574	566	568	569	567	565	567	577	587	587	587	585	586	581	571	563	569	579	588	600	600	583	574	571	573	568	562	564	567	575	575	578	574	573	569	570	566	559	555	555	571	578	581	582	586	582	576	576	579	583	579	571	569	572	583	583	589	585	580	575	572	567	565	565	568	568	561	568	572	582	582	585	585	586	584	576	574	574	574	573	573	571	567	564	564	559	560	559	566	573	584	584	591	585	579	575	575	575	570	566	574	580	575	575	569	583	571	561	557	557	562	568	573	568	556	556	552	560	566	572	587	587	606	592
604	610	610	603	601	590	590	586	570	569	570	583	583	589	592	593	573	560	560	565	589	607	615	611	608	608	608	603	587	571	562	572	580	589	580	579	586	601	601	617	624	629	621	615	607	607	606	606	613	620	613	608	600	600	591	588	591	597	597	586	586	582	586	600	604	591	582	574	574	562	561	568	581	593	612	617	614	614	605	601	596	589	579	586	589	585	585	581	587	605	613	604	601	608	606	613	613	619	615	613	611	607	596	591	588	584	584	588	592	595	598	603	608	609	610	608	609	609	596	587	591	581	583	585	586	593	602	599	584	584	583	577	578	571	565	562	562	573	583	590	587	583	583	584	598	605	595	584	583	591	596	604	603	600	601	601	596	596	596	598	597	597	601	605	605	610	603	593	590	595	602	602	604	610	610	604	605	599	592	593	589	589	590	591	583	584	602	614	617	593	591	597	604	604	603	601	600	596	594	591	596	610	610	607	604	597	596	596	605	613	622	620	603	589	593	595	598	602	602	598	591	588	589	588	589	590	590	588	592	601	604	608	607	606	607	603	597	599	600	605	592	594	597	607	617	625	636	640	627	627	617	605	598	591	587	602	607	601	597	588	586	589	596	602	611	613	619	615	610	606	598	602	611	613	612	611	605	602	602	604	610	618	615	617	619	622	607	598	588	582	584	584	605	611	615	616	615	609	601	603	602	601	587	578	582	601	611	612	613	608	601	592	595	597	594	594	593	604	611	613	613	611	605	597	593	591	593	598	601	598	595	593	594	601	600	606	598	598	601	608	609	609	603	600	604	608	609	606	600	599	602	606	606	605	602	594	593	594	601	611	616	613	595	595	597	596	595	589	590	601	606	610	604	594	586	592	597	597	591	589	590	600	603	603	607	603	608	604	592	581	581	587	602	606	610	608	605	597	594	608	620	625	625	618	605	598	594	596	598	602	602	595	593	595	595	604	614	615	609	601	587	583	582	583	590	597	599	594	589	583	582	579	574	577	576	579	587	589	589	586	586	584	581	581	577	583	593	592	590	595	603	607	598	586	581	583	584	583	583	580	577	580	585	592	595	593	583	577	575	576	583	592	592	596	582	582	565	566	566	559	551	548	550	552	563	570	586	586	581	581	574	565	559	568	582	589	586	578	575	572	565	570	576	576	578	573	572	574	579	580	574	567	557	559	569	569	570	567	570	571	566	568	571	579	587	587	587	583	585	579	573	565	569	580	589	583	583	573	574	571	571	564	556	553	558	558	569	572	573	572	570	570	566	556	556	565	570	576	580	581	586	582	578	578	579	583	584	572	563	567	578	578	583	585	583	573	568	567	569	569	569	568	561	559	567	573	573	582	589	588	588	580	573	573	567	563	562	564	562	558	564	559	559	563	564	565	573	573	576	573	566	563	562	562	557	556	553	555	551	575	569	562	571	576	571	571	566	573	578	567	556	556	552	562	573	582	594	587	606	617
600	603	607	605	596	581	581	563	562	564	573	583	583	589	570	569	564	563	575	575	588	606	618	614	606	606	600	595	587	576	572	580	580	579	562	556	562	575	575	590	600	609	610	603	599	602	602	596	593	601	613	608	584	584	577	573	586	601	613	600	591	591	587	584	583	579	575	571	570	570	570	568	581	591	604	610	607	607	604	606	608	610	603	601	595	602	602	604	611	607	604	597	594	598	606	605	605	603	604	602	598	599	595	594	593	594	594	602	602	599	599	601	602	598	593	589	597	597	596	587	569	570	575	577	583	595	603	603	589	589	577	556	555	562	571	569	581	582	583	588	584	587	589	589	599	605	595	592	584	591	597	604	603	604	601	598	593	593	588	588	594	593	593	594	598	596	594	586	583	593	605	620	626	624	624	619	617	599	592	587	590	590	593	593	589	586	591	601	601	592	596	602	604	601	601	592	586	591	592	591	593	601	599	597	592	593	591	591	599	604	604	604	594	590	592	600	603	602	602	598	596	589	586	590	593	593	590	590	593	589	590	592	593	596	592	590	587	589	592	586	584	587	593	601	612	621	633	630	622	622	612	603	598	586	578	590	602	606	596	586	583	578	581	588	598	611	614	613	611	603	592	585	595	600	601	601	604	603	607	610	618	622	621	622	622	621	608	600	589	580	580	580	588	606	612	618	615	609	601	603	602	601	587	578	582	601	611	612	613	608	601	592	595	597	594	594	593	604	611	613	613	611	605	597	593	591	593	598	601	598	595	593	594	601	600	594	586	593	600	604	598	598	599	604	609	610	621	630	630	617	606	596	597	598	595	586	582	578	598	605	604	598	593	595	597	595	589	589	590	594	601	607	602	587	580	584	588	585	581	582	591	604	604	606	605	608	606	599	592	583	581	587	595	603	604	608	605	606	609	607	603	600	587	580	577	582	586	589	595	600	603	600	593	593	595	603	607	608	602	595	585	584	584	582	585	592	594	592	585	582	582	583	584	581	583	586	591	589	589	587	587	584	581	583	578	582	591	591	590	595	601	605	600	586	581	578	582	582	577	576	582	584	586	584	583	581	585	590	587	591	594	598	595	590	590	588	579	570	566	557	548	547	550	555	563	570	576	582	579	579	568	557	553	559	573	577	572	569	569	565	562	568	568	577	579	576	575	577	582	582	580	565	557	559	559	561	568	571	575	578	577	575	576	586	586	586	588	586	585	581	572	568	570	577	571	571	583	573	572	569	570	567	558	554	563	563	566	569	574	571	574	574	571	568	568	568	571	573	580	581	587	586	586	582	582	586	591	580	571	569	578	578	585	593	598	588	567	566	566	569	569	567	561	559	563	568	568	583	591	593	593	587	575	575	561	555	559	554	557	558	558	556	559	559	551	550	550	551	556	559	569	567	572	572	574	573	561	555	551	551	552	559	554	551	562	562	582	578	580	572	557	557	555	562	571	582	582	594	604	599
601	601	596	589	575	556	545	545	544	559	562	571	573	573	570	569	566	568	576	576	581	597	607	607	604	604	597	585	581	593	606	599	599	579	576	571	572	582	592	592	598	596	590	589	588	590	590	586	581	583	587	587	584	584	574	573	590	616	621	615	609	609	599	583	571	567	569	572	575	575	576	579	582	591	604	600	594	595	595	604	607	614	612	609	598	596	599	599	604	603	604	598	593	594	599	605	605	599	603	599	595	588	584	587	595	603	609	609	614	604	592	593	587	581	566	570	579	578	578	573	569	570	571	584	590	593	594	587	578	565	565	558	563	582	589	588	583	581	583	582	581	582	588	588	592	605	602	592	584	605	603	600	595	592	589	587	581	577	577	577	584	587	585	587	593	593	588	580	577	576	591	599	603	600	599	599	604	603	588	587	590	591	593	596	595	592	591	591	592	589	593	599	599	591	582	582	580	590	590	589	588	591	595	589	585	581	581	581	588	603	608	603	594	591	594	601	609	609	604	604	596	589	586	590	594	593	592	589	586	576	576	583	587	589	585	582	578	586	588	583	582	585	592	596	604	615	620	618	613	605	605	598	591	586	576	573	585	591	591	588	577	570	565	572	584	592	600	602	605	598	582	580	585	592	595	600	605	615	625	618	623	622	624	624	627	622	615	599	590	582	580	580	590	600	608	615	609	595	586	595	599	595	579	573	580	589	604	606	604	602	597	588	596	597	596	589	589	593	599	605	605	601	598	599	594	593	593	598	597	593	593	596	600	602	597	587	584	588	589	593	593	592	597	604	607	601	605	608	610	598	595	591	592	591	586	568	565	570	584	603	598	592	592	591	591	589	589	590	590	590	597	601	597	586	574	578	578	575	574	579	595	601	601	596	599	600	596	588	582	580	583	582	579	586	600	607	605	589	583	580	580	578	578	579	580	582	587	587	595	600	603	600	594	594	590	593	600	602	596	590	585	586	585	580	582	586	590	587	584	581	583	587	591	595	596	597	593	593	588	587	585	587	587	580	578	581	585	575	574	581	601	605	600	589	585	579	580	580	577	577	581	585	584	580	578	582	590	596	597	596	593	591	589	590	590	591	584	571	565	564	570	570	550	555	563	570	574	576	576	570	565	567	568	572	580	578	567	559	555	558	558	569	569	571	575	580	579	575	579	584	580	565	555	551	551	550	558	573	580	585	586	577	576	580	584	584	586	588	587	579	569	557	556	561	571	571	570	567	570	569	568	567	562	560	562	562	565	568	570	568	570	572	565	566	566	564	571	573	573	575	584	587	587	585	584	589	584	580	575	576	576	578	581	588	599	599	594	566	566	565	563	558	559	558	565	565	573	579	590	594	591	589	589	581	559	559	554	554	557	557	556	553	554	557	556	544	544	543	549	554	558	557	557	564	572	573	561	550	550	545	545	549	549	552	552	559	576	579	576	573	573	566	553	562	571	576	576	580	576	578
