422	423	423	426	426	427	429	426	426	414	404	400	408	427	427	441	448	444	441	440	429	429	420	424	448	450	440	431	431	423	423	416	408	412	422	422	429	423	424	422	423	421	421	416	417	417	417	420	421	421	431	432	427	417	426	430	423	421	421	417	417	405	410	419	420	429	423	429	436	433	434	432	430	423	417	417	415	417	419	414	409	407	409	410	410	413	413	418	421	424	425	420	422	426	427	427	427	428	426	422	424	422	420	417	412	409	409	408	405	404	403	406	412	423	428	422	426	426	426	426	426	424	424	424	420	420	417	412	409	398	400	400	408	415	410	411	421	428	432	436	433	428	427	426	422	429	428	428	423	426	430	421	422	427	446	446	439	435	438	440	452	458	443	443	445	445	442	440	452	463	469	479	484	482	492	495	495	500	495	494	499	514	523	519	515	504	499	499	483	481	471	470	479	495	518	528	530	516	503	493	485	482	485	492	496	498	510	521	519	516	509	505	501	496	487	475	479	479	486	495	495	496	495	489	490	495	497	495	494	492	501	504	499	491	491	492	492	487	487	484	486	488	497	495	490	481	489	494	498	505	512	516	514	510	504	503	503	500	502	509	516	522	524	522	521	517	510	514	514	514	513	495	494	496	495	494	494	502	524	526	530	523	521	522	522	523	523	524	522	540	552	543	534	523	521	527	541	555	550	540	530	528	531	535	535	532	532	529	528	524	517	514	512	509	505	497	498	509	509	508	522	524	530	527	527	525	528	534	535	532	526	517	516	525	525	516	506	489	483	487	487	486	487	489	490	493	489	493	504	522	519	510	502	496	498	514	525	495	488	487	485	480	480	480	483	488	495	498	496	501	497	492	487	481	482	496	494	493	488	485	488	492	496	500	498	499	494	489	485	483	485	490	492	494	490	478	473	473	474	468	451	450	451	461	473	475	471	476	479	479	475	474	479	478	478	476	472	468	465	466	466	469	475	480	485	487	488	477	476	474	489	497	500	477	470	468	471	475	478	469	452	451	453	451	451	446	443	455	461	467	477	464	469	459	468	472	473	467	460	454	450	450	455	459	456	442	439	439	440	443	438	433	432	430	433	436	434	430	417	411	412	411	406	403	405	405	404	403	407	408	411	412	416	395	389	383	386	391	401	408	408	407	404	397	400	400	400	402	405	407	402	398	393	393	394	398	398	405	391	385	385	387	386	387	392	395	395	390	383	383	386	390	390	394	399	396	395	395	395	395	396	394	395	398	387	389	390	390	390	389	391	384	385	386	390	391	391	393	392	391	386	390	388	386	382	389	389	391	391	396	391	390	399	401	401	393	390	386	384	388	391	391	391	385	377	381	385	391	391	391	386	384	381	380	388	387	386	386	387	388	386	386	386	388	388	395	387	382	384	381	381	380	385	386	374	374	378	378	383	384	385	387	390	390	390	384	371	370	375	375	381	383	385	386	388	388	389	381	373	377
422	419	419	417	418	419	418	416	416	405	404	400	405	409	409	419	433	436	440	437	427	427	427	450	452	445	446	440	440	432	425	418	412	418	426	426	427	423	424	426	428	430	430	428	417	414	421	421	421	421	421	425	425	414	423	429	423	420	420	417	415	413	408	412	413	423	423	429	430	427	434	436	431	424	415	415	415	415	416	412	410	407	407	411	414	414	417	419	423	427	430	424	426	427	432	432	430	429	426	422	411	419	420	418	414	413	413	414	403	397	403	405	408	421	424	422	423	429	429	437	438	437	431	429	420	417	414	412	408	405	396	402	402	409	410	411	412	409	410	414	420	425	431	424	423	421	418	418	423	426	427	420	421	424	425	426	426	423	429	438	443	439	435	437	433	433	435	442	457	477	483	481	484	485	474	485	489	494	495	494	482	492	492	487	481	469	465	463	463	469	466	464	471	478	495	501	497	488	483	480	482	479	482	484	493	496	506	510	505	504	503	502	502	502	503	503	497	494	494	493	493	490	485	483	484	485	489	488	482	482	484	491	485	475	476	476	475	481	482	486	489	493	497	495	490	475	487	488	489	497	498	504	511	507	502	503	500	496	499	512	519	522	522	522	516	505	504	504	505	505	499	495	476	470	475	482	487	494	503	519	513	509	503	502	508	514	520	522	522	537	547	541	529	519	518	526	534	534	532	530	525	514	508	509	509	518	522	526	527	522	515	513	511	509	508	502	497	496	496	496	511	512	509	503	515	513	518	531	535	535	531	525	521	513	504	507	503	479	467	467	469	473	473	472	468	471	480	481	476	480	482	485	498	493	487	486	486	482	483	482	482	474	474	474	477	484	488	490	489	490	488	488	485	482	481	493	493	490	477	471	460	461	463	471	475	479	480	489	485	483	485	490	489	486	484	486	483	470	460	450	446	448	451	455	475	477	476	477	479	486	488	486	477	468	468	470	470	470	462	463	461	458	472	480	481	468	462	448	448	446	452	458	474	470	467	466	468	473	473	454	450	452	452	456	456	458	461	466	458	454	454	462	469	459	451	447	446	447	461	461	454	456	462	461	456	455	455	446	444	448	448	442	438	437	439	436	430	420	409	400	392	393	397	402	402	408	410	407	406	407	407	407	408	401	396	396	386	391	400	403	403	402	402	406	404	398	389	388	390	391	392	391	388	388	385	398	403	401	386	387	389	386	385	390	395	395	396	389	384	383	383	378	390	394	394	395	395	394	393	393	394	392	392	383	387	387	389	389	383	379	379	377	379	378	381	384	384	387	386	383	386	385	383	383	382	382	394	393	393	394	389	393	398	394	394	392	390	387	385	389	392	391	391	383	382	382	388	393	390	390	385	382	381	380	383	382	382	379	389	389	388	389	389	389	394	393	381	374	374	375	375	380	384	387	385	379	380	380	382	384	385	390	398	398	407	387	376	374	385	385	388	388	386	384	387	387	383	376	370	373
417	415	415	414	413	416	415	408	408	404	404	403	405	409	415	415	421	435	436	438	427	427	436	443	441	438	443	445	445	442	436	427	418	422	424	424	423	421	426	426	428	429	429	431	431	429	423	418	416	411	411	408	420	423	403	400	406	413	413	414	413	413	407	408	412	419	426	426	430	427	429	431	432	425	418	416	416	418	419	414	410	407	406	406	413	413	422	427	427	426	427	423	423	424	418	418	407	406	405	409	411	411	418	416	413	413	413	416	404	399	401	403	408	413	417	413	417	425	427	427	425	425	418	412	414	414	404	413	414	409	395	400	400	403	409	411	412	409	411	415	419	418	413	413	422	422	418	417	417	426	419	417	421	424	422	420	419	420	423	431	446	449	444	439	436	441	441	453	473	483	482	480	478	482	472	467	488	487	485	483	482	492	477	462	462	468	466	462	462	468	461	458	461	468	477	480	480	483	485	485	483	481	480	482	483	491	503	507	504	501	500	500	502	505	501	497	490	492	492	492	491	486	484	483	484	486	488	485	482	485	489	486	486	483	480	474	471	470	478	486	496	503	504	495	490	475	487	488	483	490	493	495	492	487	489	484	478	477	487	494	501	503	498	491	491	493	499	500	498	496	496	476	467	467	472	484	488	491	495	501	504	502	498	498	501	504	508	508	520	536	537	535	524	516	515	515	511	509	506	508	507	505	504	507	505	490	496	494	498	495	494	494	498	497	489	480	474	473	479	497	503	499	508	504	492	496	509	517	510	510	509	509	510	503	503	503	488	480	468	451	441	453	457	454	452	452	455	455	450	445	443	455	467	474	481	479	474	472	475	481	481	479	479	475	477	484	483	480	477	477	481	482	482	481	477	468	464	454	451	459	458	460	457	453	475	479	480	481	485	476	458	461	465	473	471	473	472	473	465	453	453	449	450	459	478	478	479	482	483	486	489	485	483	483	483	477	470	468	463	462	460	457	459	457	458	453	451	449	449	447	446	454	458	463	463	463	461	461	448	445	448	447	447	447	451	456	460	455	450	446	454	462	464	458	450	444	440	448	452	454	450	451	451	450	452	454	454	446	441	436	430	436	443	445	437	435	430	419	408	404	403	399	398	402	402	402	399	395	393	394	395	393	382	378	396	396	399	399	390	390	385	385	388	392	393	391	386	385	388	392	398	399	396	396	387	392	395	394	385	392	392	387	391	394	396	396	386	385	383	382	383	378	378	377	380	373	373	375	385	388	387	386	384	383	380	383	383	385	386	382	373	373	381	381	372	372	372	382	379	375	378	381	383	383	379	379	379	391	389	393	392	390	394	394	387	388	383	387	385	387	391	391	394	387	381	382	385	384	383	383	384	382	380	383	387	385	385	382	388	381	393	393	398	398	397	389	375	373	373	373	373	376	380	386	386	377	377	380	382	381	383	384	398	398	378	373	376	378	385	385	390	391	394	399	394	394	378	371	366	365
414	410	411	411	413	417	416	413	421	421	426	414	411	408	415	415	411	426	433	429	429	433	433	432	432	436	443	448	448	449	440	430	423	420	422	422	423	426	426	429	430	429	431	425	432	433	425	416	414	411	411	409	412	418	422	406	411	410	410	414	413	405	402	405	412	419	422	422	423	426	429	409	429	430	426	414	414	412	413	416	413	408	404	404	412	412	422	427	426	426	420	414	411	402	400	397	397	397	397	398	407	411	418	414	407	402	402	402	403	406	410	414	417	421	412	405	406	413	420	420	400	392	397	404	411	401	399	396	407	419	412	398	401	401	408	415	413	409	411	429	423	414	409	411	421	423	423	421	421	414	406	411	418	423	423	419	415	411	413	417	423	442	447	442	437	437	437	447	458	475	481	477	471	468	458	470	465	466	469	472	479	480	477	462	462	465	475	474	467	467	462	456	458	462	469	472	478	482	486	487	481	477	481	475	474	482	503	505	502	493	493	498	506	516	514	506	491	489	492	492	486	484	484	485	484	487	487	486	490	491	494	491	489	486	481	478	467	464	468	484	495	501	501	493	474	476	476	476	483	490	493	496	492	491	483	476	471	475	479	482	484	486	477	473	473	476	489	498	496	483	483	472	465	464	472	482	487	487	487	493	499	500	496	494	495	497	500	512	523	530	533	534	521	503	496	501	503	506	508	505	502	506	506	511	507	492	494	492	490	484	479	479	488	490	487	480	470	468	469	485	487	486	501	505	498	498	507	504	492	480	481	487	493	499	498	500	500	484	467	445	454	447	454	443	436	446	450	450	446	444	442	443	458	471	473	472	465	464	465	477	479	478	478	478	481	480	479	476	472	471	471	462	457	450	445	442	445	448	447	444	445	460	457	453	452	462	458	459	454	455	444	444	446	462	461	457	457	463	462	455	455	454	458	469	478	475	475	481	486	486	488	486	481	481	484	479	470	462	463	463	459	457	457	456	455	453	449	448	448	448	448	448	455	459	461	456	458	447	433	420	423	426	429	429	430	449	448	450	450	446	444	449	457	456	455	448	443	452	456	450	440	437	436	445	443	443	436	437	435	430	416	413	426	429	432	418	410	410	410	408	404	403	398	398	395	392	389	392	395	398	390	385	382	378	378	382	390	392	388	388	383	378	374	370	377	387	384	384	388	393	394	397	397	399	396	392	385	383	390	390	391	393	395	394	396	396	386	374	383	382	378	376	375	376	375	382	382	378	376	378	382	381	377	376	374	376	376	376	368	368	368	371	382	380	381	375	375	368	366	367	378	381	381	383	367	367	371	389	388	392	393	390	386	386	392	379	381	385	388	384	380	380	381	389	380	379	381	378	376	383	384	381	377	380	379	384	384	379	391	396	386	386	391	391	390	378	379	376	375	374	374	378	382	389	386	377	377	374	368	366	378	379	393	393	369	374	375	371	368	368	362	381	390	401	401	398	397	394	388	380
413	411	411	411	411	416	418	416	418	418	417	416	409	413	413	413	411	426	419	430	431	425	425	423	422	431	439	444	442	442	436	425	418	416	420	422	422	428	433	433	429	425	425	425	432	433	427	421	414	410	407	407	409	414	418	420	409	408	408	408	404	401	403	404	411	413	416	416	413	407	401	409	429	409	414	414	414	414	412	414	414	404	398	399	417	423	423	420	412	413	416	395	395	396	397	395	395	394	398	408	413	413	416	414	407	404	402	402	404	408	409	412	423	412	405	402	407	417	416	416	411	402	391	399	402	397	395	391	393	414	425	414	409	409	415	413	414	421	429	429	423	410	410	417	422	424	412	409	409	399	399	406	416	420	422	421	417	400	397	404	422	434	440	440	435	433	437	437	447	464	471	472	463	460	451	448	454	465	472	473	473	468	462	460	462	464	466	472	476	476	475	460	460	467	469	472	475	480	472	469	465	468	469	468	470	473	483	498	499	489	488	495	505	517	517	507	490	492	482	482	469	472	470	470	478	478	479	485	491	496	496	494	476	474	469	472	464	461	466	474	490	495	483	479	470	465	468	473	482	492	494	496	492	491	474	467	469	475	478	464	459	464	470	469	473	472	473	476	483	477	467	467	463	465	474	482	480	478	480	484	491	494	491	490	494	498	499	503	519	524	527	519	502	489	489	494	503	507	507	503	501	506	508	509	512	505	494	488	487	483	480	481	487	490	489	482	473	467	482	473	477	481	480	494	500	503	498	491	474	471	470	474	486	495	496	497	500	489	480	451	449	448	451	443	438	447	449	452	447	444	445	447	466	471	475	473	456	447	454	467	476	476	475	473	479	480	477	474	474	474	471	456	445	443	445	446	449	451	447	444	445	449	451	451	428	423	428	426	426	433	430	428	445	445	458	458	452	457	453	454	459	461	465	476	476	472	469	470	469	475	476	469	469	463	465	466	465	467	468	465	459	452	455	453	453	451	448	446	447	451	450	450	454	461	455	454	446	424	420	421	424	426	430	430	431	430	448	450	445	442	440	441	444	445	446	447	449	454	438	435	429	426	426	425	427	427	428	434	434	434	425	425	410	404	403	405	413	412	411	407	403	403	403	403	401	396	394	390	394	398	390	385	380	378	379	383	393	394	394	385	384	381	378	370	373	378	382	391	393	394	391	387	387	389	397	392	387	387	386	388	389	390	392	394	394	396	386	374	374	384	379	376	376	378	378	378	385	380	377	377	379	378	376	373	374	374	374	369	367	367	380	384	382	382	381	381	376	372	366	367	372	380	382	372	372	364	364	377	384	382	381	379	386	386	371	367	377	377	379	376	373	373	371	381	377	376	373	378	378	376	376	376	374	376	374	376	376	370	377	383	378	379	382	382	376	378	378	378	379	379	378	378	379	389	386	380	380	374	368	365	374	374	374	365	363	370	376	371	371	359	367	358	355	378	378	383	387	390	388	380
415	413	411	411	413	416	415	416	415	415	415	414	406	415	420	420	413	408	419	430	424	420	420	416	413	419	429	430	428	428	421	414	409	411	416	422	422	428	432	432	421	413	409	409	416	433	427	420	414	411	406	406	407	408	407	410	416	400	392	392	394	402	404	403	405	409	412	412	411	406	401	397	395	409	414	412	412	410	408	408	405	400	398	403	404	407	407	405	399	395	392	392	391	394	395	395	395	395	399	403	414	413	413	409	405	404	402	401	401	402	404	420	406	406	404	402	409	414	410	406	406	401	399	403	409	391	389	380	392	396	415	415	414	414	419	419	416	417	423	425	423	410	410	415	413	410	401	397	401	401	401	406	410	418	419	415	414	405	404	409	418	428	435	437	434	430	431	431	440	452	465	466	458	451	447	444	467	474	477	473	466	456	457	459	461	464	466	472	478	478	478	473	467	469	471	472	470	469	459	442	446	446	446	447	458	469	470	470	471	459	462	482	486	491	495	474	465	459	453	436	436	439	437	437	442	444	445	446	475	483	487	467	463	463	462	458	456	460	463	471	488	487	481	479	480	479	477	475	482	492	503	508	498	483	474	467	469	472	471	454	455	462	468	475	479	477	471	479	489	476	468	468	469	477	481	489	480	475	476	479	485	485	486	489	494	499	502	501	498	493	492	496	487	487	487	485	495	502	498	498	504	503	506	508	511	516	517	518	518	494	490	491	493	496	503	503	476	482	476	469	464	471	472	485	491	496	486	478	467	463	463	469	468	471	482	488	497	472	466	458	454	448	449	448	462	461	454	453	455	458	465	481	482	480	467	461	448	441	445	465	473	473	475	473	473	467	468	474	479	479	467	455	467	465	445	446	449	451	451	440	440	440	445	451	443	435	438	427	426	431	428	427	423	439	454	448	448	449	449	448	459	461	467	469	469	468	463	462	463	461	452	447	447	445	447	447	448	456	463	463	456	452	452	452	451	448	447	442	446	451	454	454	454	456	458	452	439	420	420	424	431	438	438	435	431	430	432	432	430	430	434	436	437	437	437	442	449	430	431	431	420	419	405	409	409	412	425	427	424	421	415	411	409	398	400	403	402	400	391	382	392	398	407	407	406	402	394	391	390	398	396	386	382	377	378	384	389	394	394	392	390	386	384	376	376	377	380	379	378	379	380	376	376	378	387	391	388	385	384	384	385	381	383	383	383	396	385	373	374	375	384	378	377	377	378	378	379	384	385	378	377	376	375	374	377	377	376	369	363	364	381	386	390	389	380	380	376	372	368	365	369	375	381	372	372	364	364	366	375	375	377	379	379	384	377	373	369	368	359	370	370	366	364	373	376	376	373	370	370	369	372	373	373	370	365	365	364	366	375	375	373	371	371	370	369	376	377	380	380	380	379	378	379	382	380	378	378	372	366	369	366	363	363	362	367	370	372	384	384	368	351	351	354	379	379	381	387	390	384	384
412	408	410	410	409	412	414	414	416	416	415	409	406	403	402	402	402	402	412	424	424	420	412	409	404	412	417	418	416	416	409	402	400	397	401	411	411	413	412	407	407	402	395	395	408	430	427	420	410	419	415	415	397	397	399	400	402	399	400	400	413	417	410	399	396	401	405	406	406	406	401	398	395	396	406	412	410	406	402	400	399	399	404	404	406	405	405	404	402	398	393	390	390	392	394	395	393	393	398	404	408	408	409	407	404	404	403	401	401	383	385	390	415	419	405	398	397	394	396	404	404	406	402	401	386	380	379	384	392	392	393	392	389	384	384	388	402	409	411	417	421	423	414	415	413	394	392	397	401	401	405	410	413	416	416	415	413	405	405	413	421	427	429	430	430	428	425	429	429	440	448	452	452	454	456	460	467	468	466	461	453	449	448	455	459	460	465	472	478	479	479	473	469	451	450	457	463	454	437	444	449	449	446	445	445	454	456	448	436	442	454	464	468	469	469	461	462	443	435	438	436	436	434	431	436	441	444	449	455	457	458	458	461	463	459	452	452	453	461	474	477	478	479	479	481	483	480	476	485	495	505	512	499	476	468	466	468	472	471	454	455	460	464	475	481	478	474	488	479	464	463	465	465	467	469	466	472	473	482	488	486	483	480	479	481	484	488	485	466	462	469	486	484	484	484	479	485	487	489	489	496	499	500	501	508	511	513	517	514	494	496	490	494	497	497	498	494	475	461	473	459	463	465	480	487	483	479	471	459	464	468	469	470	469	478	479	476	471	463	459	457	450	451	454	462	463	461	462	462	464	468	473	471	464	457	460	452	446	444	450	450	461	478	471	470	467	476	467	476	464	470	455	467	465	456	455	452	453	453	443	441	444	448	445	447	448	444	433	432	432	433	426	436	439	439	440	444	445	446	442	442	444	458	467	460	446	434	441	445	444	440	440	435	438	442	445	443	432	429	431	436	443	452	446	445	444	442	441	446	448	447	446	448	452	449	435	419	419	422	429	435	442	438	435	435	433	430	428	426	425	425	428	428	428	431	436	447	426	426	419	413	405	407	410	410	418	424	424	422	418	414	411	410	407	404	404	406	401	389	380	382	395	395	403	405	402	391	391	390	389	398	394	382	375	377	383	388	395	395	396	392	388	384	379	378	377	371	375	371	370	371	371	374	379	383	389	388	379	381	382	381	383	380	383	383	383	377	378	373	381	385	379	377	375	382	382	380	383	383	378	376	375	376	377	378	378	375	371	364	363	365	375	382	381	380	380	378	373	365	365	370	376	378	377	377	368	365	373	373	374	368	372	372	375	377	373	369	359	365	353	353	361	361	373	376	375	372	369	369	368	369	371	371	367	360	360	363	366	370	373	372	369	369	369	368	367	368	370	375	380	379	379	379	379	376	376	369	364	342	352	359	371	371	369	366	369	373	372	372	369	346	351	347	343	379	381	381	385	376	380
404	402	405	405	405	406	412	411	409	408	408	407	405	398	399	401	401	405	412	414	415	412	409	409	392	401	407	411	410	410	405	398	396	393	397	404	404	406	406	400	398	391	393	409	409	421	421	408	410	419	410	410	398	390	394	393	392	389	396	407	407	408	399	389	389	391	399	403	403	407	406	400	397	395	398	405	406	406	402	394	393	399	403	408	409	408	408	408	409	402	393	386	384	393	399	395	392	392	392	401	404	405	407	404	404	402	403	387	387	383	396	400	409	401	378	378	390	394	404	392	392	387	380	378	384	382	381	390	393	395	392	389	387	382	382	386	381	400	406	406	413	418	419	413	412	394	392	395	398	400	400	408	418	419	419	419	414	414	412	418	424	427	426	420	418	420	425	430	430	442	443	443	445	450	454	462	470	475	476	468	462	450	447	454	458	459	457	467	477	479	473	473	454	443	447	450	451	452	447	437	452	451	450	445	445	453	459	454	449	451	454	458	459	460	462	460	460	441	437	436	435	435	435	432	437	442	445	451	455	458	458	457	456	461	456	453	450	451	455	464	465	464	461	473	464	462	462	467	476	490	491	487	477	465	471	479	485	485	478	474	466	460	464	475	481	473	476	473	465	458	445	439	439	444	449	455	460	465	475	488	489	486	477	468	467	477	483	480	475	463	473	473	470	473	470	470	474	476	478	478	475	483	487	489	489	491	487	489	493	497	485	489	491	494	491	489	464	464	470	465	466	467	465	468	473	472	466	462	459	463	464	466	463	469	473	474	470	462	459	460	457	455	453	456	461	463	463	463	463	470	474	474	463	457	455	453	451	450	438	432	432	430	447	440	438	444	454	467	476	464	470	461	458	460	448	436	428	423	426	431	435	443	447	444	447	448	449	449	449	448	444	439	438	438	435	434	436	432	428	426	425	423	424	440	432	432	433	436	442	445	442	442	449	444	443	449	444	432	420	416	417	431	446	446	442	440	439	440	438	433	434	440	447	443	432	423	411	419	424	433	435	435	442	442	441	433	433	425	425	424	422	421	421	423	426	427	437	442	417	414	409	407	410	419	419	419	420	422	420	421	423	414	409	405	404	407	407	401	387	378	379	392	392	399	401	402	391	387	387	387	388	390	384	374	372	380	387	387	393	396	395	384	378	372	374	374	372	371	366	370	372	372	376	378	381	385	383	375	378	380	378	383	380	380	380	377	376	374	374	379	382	374	372	372	372	375	379	386	390	378	376	374	377	379	379	379	375	371	367	365	368	369	376	381	381	377	375	376	375	372	372	374	376	376	374	369	371	371	371	372	368	371	371	372	376	372	369	361	352	365	365	361	361	370	373	371	372	369	369	369	361	357	355	355	356	356	360	364	370	372	372	370	370	369	369	370	367	370	375	375	376	376	377	376	369	369	361	360	342	351	361	372	372	369	366	366	370	372	372	361	360	366	347	343	343	349	341	349	359	359
404	400	398	400	400	401	401	407	407	406	406	404	400	395	397	401	401	407	414	414	410	405	394	394	392	401	399	402	402	400	400	402	395	390	392	395	385	385	384	382	386	390	392	404	404	404	395	396	393	393	410	398	395	392	391	387	382	383	391	402	402	403	395	385	385	389	393	396	396	406	406	405	403	406	402	396	389	389	396	394	393	389	397	405	408	413	417	417	414	405	391	384	384	391	398	396	393	393	389	392	400	401	407	398	396	397	398	391	393	393	396	400	392	395	395	400	404	394	394	396	392	392	396	394	390	384	385	390	395	396	391	381	381	382	382	382	384	385	397	402	404	404	413	406	400	389	390	395	392	397	397	404	417	430	425	419	415	413	414	418	426	426	424	418	417	420	426	431	431	443	441	441	444	448	454	466	472	474	475	472	467	450	448	451	455	460	459	463	465	468	468	468	454	443	442	446	446	446	446	447	446	449	450	449	450	451	458	456	455	452	454	455	454	457	458	462	460	459	458	463	463	462	462	459	449	443	444	454	462	462	459	455	455	454	451	451	449	450	455	458	457	454	455	456	461	463	468	471	469	467	456	453	452	456	467	470	468	465	460	457	459	460	464	467	472	473	476	473	465	450	440	435	441	441	449	451	459	455	456	468	482	480	479	474	472	476	473	466	464	480	465	462	455	466	468	468	471	471	471	467	467	471	475	474	468	457	467	467	468	465	461	460	467	478	479	471	458	461	466	462	467	467	467	471	474	474	469	465	460	460	461	464	467	471	475	440	443	446	451	456	451	456	455	456	460	462	461	457	462	469	474	475	468	456	445	438	435	433	434	434	427	426	422	440	438	444	454	456	456	467	442	448	443	433	421	419	419	420	423	427	429	425	429	442	444	444	445	454	452	448	453	455	435	436	439	434	434	432	428	426	424	422	431	426	438	434	433	437	441	444	444	446	444	440	438	435	428	424	421	423	428	422	434	434	436	441	438	424	413	410	412	413	422	427	420	408	409	418	424	433	428	428	426	436	436	427	422	423	422	422	423	422	419	418	417	418	423	427	438	417	413	414	415	415	419	422	420	412	411	411	414	413	409	406	404	406	406	395	383	374	374	374	381	399	401	396	387	385	382	377	383	385	382	374	363	374	382	382	389	390	383	377	373	369	369	372	372	368	364	370	375	375	378	380	379	375	372	369	369	380	378	380	378	378	375	373	373	369	373	369	369	368	367	381	381	378	382	382	379	376	375	376	377	375	375	374	370	354	357	364	373	369	376	379	379	376	374	370	374	374	370	370	371	371	364	362	360	359	360	359	360	377	377	378	372	365	358	360	363	365	365	362	370	370	372	369	371	371	373	369	362	355	352	354	356	356	359	359	360	371	371	370	370	360	360	370	367	367	367	363	359	356	357	359	356	356	361	353	358	367	371	371	372	370	364	353	358	358	360	362	360	366	364	364	348	342	354	360	359	359
401	400	398	399	399	396	398	400	401	400	400	398	391	391	395	401	407	407	411	410	407	399	392	392	393	393	399	402	392	395	395	400	401	395	382	379	374	374	370	376	382	380	383	382	382	383	379	382	387	390	400	395	395	392	391	386	375	376	387	395	395	396	385	381	381	382	385	399	401	401	398	398	399	402	401	392	383	378	378	381	386	389	386	399	413	419	412	412	398	394	387	375	377	389	397	398	392	387	387	387	390	398	391	393	382	382	385	387	392	392	396	395	392	395	397	402	405	392	390	396	396	396	398	398	398	399	394	395	396	398	401	399	393	387	381	381	377	381	377	367	378	379	387	385	383	384	386	388	392	397	403	403	416	428	419	415	414	413	414	419	420	430	429	410	405	407	412	432	433	433	438	444	452	458	458	460	465	470	469	466	465	461	448	440	436	438	443	462	467	466	465	446	446	441	442	446	441	440	444	444	447	447	443	443	443	446	453	457	457	455	452	448	445	451	458	463	460	456	453	449	449	448	448	448	447	446	449	454	457	460	457	458	465	461	454	449	449	452	457	459	458	454	456	458	466	470	472	476	473	472	466	465	468	470	462	451	445	440	436	440	452	453	456	458	468	469	458	452	456	450	440	435	441	432	445	449	457	456	453	453	460	471	470	470	470	465	445	440	454	454	432	430	432	444	457	461	464	470	476	477	478	476	468	469	463	454	448	448	456	468	462	458	455	455	454	448	444	452	455	457	458	456	451	450	454	461	468	466	455	453	458	466	468	473	438	422	431	442	444	452	455	461	458	456	457	457	456	456	461	465	471	469	457	450	449	438	434	432	428	434	427	426	422	417	413	434	437	435	430	430	428	431	427	430	420	419	421	427	436	433	426	432	442	453	454	453	451	466	462	457	449	455	444	440	434	442	441	436	431	432	431	428	425	434	432	433	434	439	440	440	441	440	437	437	437	432	427	423	422	428	428	430	429	427	422	423	424	423	410	412	415	422	426	424	415	403	409	418	425	433	433	428	421	428	426	421	414	413	422	422	417	411	407	407	411	411	410	409	418	417	424	420	417	417	417	418	415	413	408	408	409	407	407	405	400	395	396	393	385	375	368	374	381	392	393	391	390	382	377	378	379	381	382	379	375	365	365	365	369	381	379	375	373	366	367	370	370	369	370	380	380	380	380	379	379	379	374	369	369	372	377	375	373	373	372	372	372	369	370	373	371	365	377	371	371	356	356	362	365	365	363	363	365	369	369	365	358	354	352	364	373	379	377	376	376	376	370	359	364	371	362	364	353	353	356	353	365	360	359	362	361	361	349	355	362	362	362	360	363	363	368	373	373	372	371	370	373	373	374	367	361	355	351	354	354	355	356	355	356	355	353	353	349	345	360	364	364	361	361	357	355	354	355	357	360	360	355	357	360	360	361	361	356	359	361	360	354	354	360	362	361	363	362	362	361	359	356	353	352	352
397	397	399	399	399	397	396	402	399	392	392	386	383	384	389	397	402	402	400	397	399	394	393	393	391	394	395	392	392	395	393	395	395	389	382	377	377	377	380	385	380	385	390	392	393	393	386	383	383	386	392	398	398	397	391	386	368	372	378	389	389	390	384	377	380	381	385	396	395	395	396	396	394	400	397	396	382	375	375	375	377	381	386	399	395	385	381	379	379	370	362	361	368	381	395	399	395	386	386	386	388	391	379	372	375	382	387	388	392	392	394	389	388	392	397	402	391	386	376	375	372	369	369	381	391	396	402	395	396	397	396	397	392	387	380	380	381	380	382	382	383	383	382	382	379	383	384	381	386	395	403	403	395	403	408	412	412	413	414	412	419	424	423	401	396	401	412	443	443	443	447	450	450	450	448	450	458	460	463	460	458	450	438	429	427	431	438	443	445	463	446	442	442	436	438	440	441	440	440	446	447	447	443	438	434	436	440	445	451	452	442	435	429	438	453	464	454	449	450	447	450	445	442	442	442	448	456	456	453	451	459	460	464	460	453	451	455	462	466	464	458	456	457	457	459	467	472	473	472	472	467	467	469	467	458	448	439	435	432	432	440	452	453	454	451	445	453	458	450	443	434	435	432	445	445	449	457	456	443	451	448	451	456	459	461	443	450	435	433	418	425	424	428	432	435	430	443	465	466	470	465	460	461	465	467	462	450	446	447	466	470	462	453	442	441	445	450	446	444	447	454	455	447	437	437	441	443	444	445	453	454	460	466	436	422	426	434	437	441	439	441	444	456	456	456	456	455	456	442	443	445	450	450	449	449	438	434	432	432	428	427	414	416	417	417	417	427	434	431	429	426	422	426	416	415	422	433	432	437	443	442	439	446	453	458	454	455	455	451	438	434	436	442	453	453	449	448	448	442	434	432	433	436	433	428	430	429	434	436	436	438	436	434	430	431	430	427	422	422	429	427	429	428	423	418	416	417	421	419	412	412	415	421	417	415	403	403	417	427	424	424	422	422	423	418	412	412	412	413	419	417	410	407	408	408	409	404	404	402	402	407	415	415	414	412	409	408	410	408	410	403	390	387	382	382	380	379	384	380	375	368	368	365	373	379	382	385	382	379	378	379	378	374	372	374	373	373	371	363	368	375	370	366	362	362	370	373	370	376	378	378	378	379	379	381	380	374	369	369	371	371	370	370	371	371	371	367	368	366	362	367	367	367	367	354	356	356	362	365	359	356	356	357	364	364	358	355	354	352	355	360	363	358	358	359	360	359	360	360	360	351	346	346	350	339	348	364	359	360	361	360	360	346	351	360	362	362	364	364	364	363	360	363	368	368	371	374	374	373	366	360	355	357	357	357	355	354	355	355	355	353	353	349	345	341	356	363	362	362	357	354	353	354	358	358	358	359	362	360	359	356	356	350	341	346	346	354	354	358	359	361	360	360	360	359	362	359	356	353	353
393	394	399	399	397	397	396	409	402	387	376	376	378	383	388	393	393	393	385	389	391	389	389	390	390	392	393	389	389	393	393	397	396	388	383	380	381	381	392	383	382	387	387	381	382	382	391	383	385	389	396	394	394	394	392	375	368	372	377	383	388	388	383	378	379	381	385	389	396	396	401	402	401	397	392	388	380	374	374	371	371	371	373	386	395	385	375	373	373	369	367	372	374	372	369	379	387	387	387	383	383	372	370	368	374	378	387	389	388	392	392	389	385	383	383	386	391	386	386	385	382	375	375	376	380	380	387	392	394	395	395	395	391	391	381	383	383	384	385	387	386	382	381	381	382	378	383	390	381	388	390	390	395	403	393	404	408	402	397	396	413	419	409	413	415	417	429	454	455	458	458	456	445	444	444	444	450	452	452	441	441	440	436	427	426	430	434	439	439	439	432	433	434	434	433	432	432	435	440	446	447	446	440	430	428	432	439	441	443	442	441	435	430	425	438	447	448	442	441	450	451	446	439	439	438	448	460	460	453	451	451	452	453	454	450	449	454	461	465	464	459	456	458	460	460	458	458	451	452	458	465	467	467	465	460	446	435	432	430	430	433	440	452	447	439	441	446	442	436	435	435	426	432	438	438	444	445	442	443	451	448	451	456	459	434	447	436	431	421	426	413	412	413	414	412	413	431	449	455	455	458	458	461	465	463	460	451	441	441	444	451	452	444	443	440	447	445	444	441	442	440	443	442	439	434	436	444	444	444	443	447	446	441	427	429	430	425	425	418	427	440	447	449	450	453	452	451	438	442	443	445	450	450	449	445	438	430	437	437	435	428	413	415	415	413	416	430	436	432	431	427	417	419	414	413	422	429	429	436	439	441	439	445	451	455	453	454	456	451	439	438	439	440	452	455	450	449	449	441	432	431	433	433	432	428	420	424	429	429	435	435	435	432	430	429	428	428	425	423	424	427	427	426	424	422	414	416	419	408	411	412	416	421	417	411	410	413	422	420	420	417	415	418	419	420	418	415	412	414	417	413	409	410	406	408	410	403	399	398	403	399	399	399	401	398	389	390	391	394	410	404	389	387	379	378	371	371	384	380	364	364	363	367	371	375	379	382	380	370	371	369	367	366	367	370	374	374	374	373	371	366	364	360	359	362	372	366	368	372	372	370	371	370	377	381	380	377	374	370	368	367	368	368	368	367	367	366	367	367	365	356	357	356	356	354	356	356	362	364	364	359	353	353	353	354	358	355	353	355	357	361	357	360	360	362	363	359	354	356	361	356	355	355	341	339	346	349	354	361	360	347	347	349	355	360	360	362	365	364	364	363	363	365	368	369	373	373	375	374	367	362	360	351	349	349	348	350	356	359	359	353	353	348	343	341	342	348	352	352	357	361	363	365	361	361	360	364	362	359	355	355	351	347	342	346	346	353	353	351	355	354	356	357	357	362	362	360	358	358	357
392	393	393	394	395	395	408	409	402	387	382	382	381	386	390	393	389	389	387	386	387	387	386	386	386	387	387	386	390	394	397	397	396	382	375	377	386	385	385	370	370	381	384	380	380	380	390	385	388	395	389	387	386	386	384	370	367	371	377	383	385	385	372	374	378	383	389	391	395	397	397	398	396	394	388	384	379	372	368	368	364	361	363	376	383	375	375	373	371	369	369	371	375	375	375	375	377	383	379	379	375	370	373	370	375	381	382	377	371	368	368	372	372	374	377	374	374	382	386	391	395	394	394	390	385	383	387	387	389	393	392	391	388	390	393	396	396	399	393	391	382	380	378	381	380	376	387	393	395	397	398	398	398	389	393	404	397	391	399	395	415	418	410	417	418	419	425	438	456	458	458	458	445	440	431	439	440	438	433	430	430	435	427	428	432	434	436	434	428	423	419	418	423	423	427	424	422	431	439	446	447	446	440	432	429	435	435	430	428	432	434	434	428	421	415	429	437	434	442	443	444	447	444	445	445	462	462	461	457	452	453	454	453	451	448	447	450	459	457	458	458	458	455	449	446	443	440	438	436	435	443	454	463	463	457	445	434	432	432	436	439	442	442	428	428	429	428	424	430	431	429	426	432	436	437	437	436	435	428	438	437	431	430	440	434	447	436	431	421	426	413	409	411	410	420	426	418	431	453	453	455	458	462	465	463	459	448	440	436	439	443	444	445	445	444	444	447	442	439	438	431	424	421	419	427	441	446	447	449	452	451	442	438	430	428	431	426	423	419	418	431	447	449	450	453	452	451	438	440	443	448	453	457	453	443	437	435	435	438	439	441	429	413	412	411	431	430	430	430	430	424	413	407	411	420	422	424	429	425	428	436	440	440	440	443	450	453	447	441	443	447	449	444	439	435	432	422	416	425	417	419	419	426	421	416	416	422	427	427	437	437	438	435	429	426	427	427	423	421	418	417	425	428	428	424	413	412	405	403	411	412	416	422	418	414	418	422	422	415	415	398	398	404	413	417	418	418	415	416	415	406	410	406	404	396	388	386	382	386	389	382	382	387	381	378	379	383	386	392	399	392	392	381	375	372	369	371	373	365	371	371	373	374	376	377	378	376	371	364	366	372	373	366	359	359	359	362	373	374	372	366	360	356	359	361	361	365	367	370	370	369	365	370	377	377	377	375	372	372	368	367	367	366	363	361	357	364	367	368	356	357	358	358	358	359	362	356	358	362	361	356	350	352	353	354	359	355	355	357	359	361	356	362	362	363	364	359	351	367	356	353	349	349	334	344	345	341	355	364	364	364	364	349	355	361	362	362	359	359	363	365	368	368	369	370	373	373	374	371	363	359	354	352	352	347	345	349	356	359	359	356	356	354	342	342	348	350	350	352	352	351	351	348	357	357	372	374	364	356	352	352	349	347	342	345	344	344	347	349	351	353	353	353	355	361	363	360	359	359	359
389	392	393	386	394	394	404	410	397	387	382	383	382	386	389	391	389	391	391	394	391	386	381	381	381	380	380	384	389	392	394	394	392	382	375	377	381	375	375	360	357	355	371	382	387	387	383	386	393	394	387	380	379	379	380	378	369	370	375	382	385	383	372	376	379	383	389	393	395	396	396	395	394	391	386	380	376	378	382	382	377	366	365	376	372	369	372	371	369	369	371	368	373	380	377	379	386	393	392	392	388	380	375	378	379	378	378	374	367	364	364	366	367	370	373	372	373	380	385	391	395	392	390	390	386	389	386	385	382	382	391	389	388	388	394	396	396	396	395	394	389	375	374	372	372	375	389	394	394	393	394	392	392	391	390	400	397	391	400	407	415	422	433	433	425	421	428	440	446	453	440	440	431	426	428	431	434	433	426	424	427	426	426	428	432	436	436	433	428	423	420	417	411	406	406	404	417	422	444	446	446	445	440	432	434	434	431	430	429	429	433	437	429	423	415	420	435	441	437	436	434	438	443	447	447	445	444	441	450	456	456	459	456	451	431	433	450	451	450	450	450	449	447	445	444	446	444	439	434	433	431	436	442	442	439	432	414	417	423	426	432	440	435	431	428	424	419	418	424	425	429	428	434	440	440	440	438	432	431	434	436	434	429	426	440	443	436	430	424	417	409	409	411	410	420	426	418	431	453	453	455	460	465	465	462	454	438	437	436	438	442	443	444	448	447	444	444	441	432	431	428	422	420	423	430	437	442	438	437	444	440	442	438	430	428	431	426	423	419	418	431	444	443	450	449	447	447	439	438	442	448	450	454	453	444	434	434	434	437	439	438	439	440	436	432	426	424	426	427	423	401	400	407	411	412	417	418	429	430	423	429	428	428	434	439	438	430	424	421	420	424	426	425	425	421	415	402	398	403	397	395	409	419	419	416	415	422	422	427	434	435	440	435	428	423	423	411	412	417	416	418	423	427	420	413	409	393	405	403	404	408	418	418	415	415	419	416	418	418	409	399	402	405	411	407	406	407	409	406	395	387	387	390	390	385	378	382	387	381	378	376	376	373	368	367	376	384	389	392	388	391	385	377	372	372	369	364	363	362	362	364	367	373	372	373	373	373	368	367	368	372	375	376	362	355	355	350	355	369	373	372	369	359	363	367	367	368	369	372	372	369	365	365	367	365	362	355	355	360	365	363	363	361	360	351	357	364	368	371	358	358	361	361	362	356	355	353	355	360	359	355	348	352	352	352	358	355	351	353	346	351	354	354	358	364	364	360	358	358	355	345	345	338	335	344	341	357	357	360	361	364	364	373	374	372	365	360	359	359	357	359	365	368	367	366	363	363	358	351	352	350	349	348	348	335	331	349	356	359	357	357	354	350	348	342	345	351	351	352	349	346	344	347	356	356	371	372	363	353	352	352	349	343	340	342	345	345	346	352	352	351	350	350	356	359	365	366	364	364	354
390	391	386	379	380	380	388	393	393	388	383	383	382	383	386	387	389	394	394	397	390	381	380	375	375	377	379	383	389	392	391	391	381	376	373	377	381	370	370	361	348	345	352	361	373	385	385	391	391	393	387	384	380	380	384	383	379	372	375	383	383	372	372	376	378	384	390	395	394	387	387	382	381	383	384	386	383	382	380	380	377	372	362	360	361	368	372	377	375	375	371	368	371	385	390	388	384	387	390	390	388	383	379	386	385	381	372	355	364	363	360	360	357	361	367	373	376	382	384	392	392	392	390	375	379	380	381	380	371	374	376	382	391	390	389	390	391	391	391	392	391	390	390	383	377	381	386	387	382	381	387	389	388	388	394	395	395	389	400	407	410	409	422	421	423	421	424	419	413	416	423	423	423	423	427	430	431	433	428	425	426	426	429	433	436	439	439	429	427	423	417	411	416	410	410	411	421	416	440	446	446	443	442	439	434	434	431	429	428	431	432	436	431	425	419	422	432	442	442	435	432	435	438	439	441	441	437	439	440	454	467	469	470	434	425	438	439	439	442	442	443	439	441	442	447	446	443	440	434	431	433	434	435	448	443	424	412	413	414	427	435	437	438	433	427	422	416	412	419	427	430	428	433	438	441	441	441	436	436	434	437	440	439	440	442	437	425	424	417	422	412	402	402	402	417	424	426	426	437	451	455	460	465	465	462	454	438	437	436	438	442	443	444	448	447	444	444	441	432	431	428	422	420	423	430	437	442	438	437	444	440	439	435	432	429	431	434	436	431	421	430	443	438	448	450	448	444	439	437	438	441	445	445	445	442	437	437	434	434	434	437	437	439	435	430	423	424	423	418	411	400	402	407	411	407	408	408	419	426	425	416	413	418	421	421	417	414	414	416	417	421	425	427	421	412	402	402	403	402	402	397	397	411	414	417	417	420	420	426	431	430	428	425	423	415	402	405	398	412	413	411	410	399	400	398	409	393	394	394	400	410	413	411	413	414	410	410	402	402	400	390	388	392	396	395	397	395	392	395	389	390	372	373	379	387	384	379	378	377	373	373	374	373	369	366	369	378	380	384	386	385	380	377	372	371	369	367	365	363	363	362	364	368	367	366	367	368	368	367	371	372	374	371	369	364	364	362	357	357	360	360	360	356	358	364	368	368	368	369	372	365	365	366	364	366	364	360	354	354	358	359	359	356	355	356	353	367	368	368	360	356	357	357	359	356	351	350	350	360	359	355	348	348	352	353	352	356	349	345	335	343	350	350	356	361	362	360	360	356	353	354	354	358	355	350	353	356	348	360	361	361	361	374	376	374	369	359	352	352	360	358	363	366	363	361	355	355	349	345	343	345	342	344	344	335	331	340	345	350	357	357	355	346	344	346	343	351	351	351	349	344	341	342	342	351	356	354	349	353	352	352	352	350	348	343	344	344	344	346	349	346	338	338	344	347	350	351	351	351	341
395	394	387	380	381	383	383	387	385	383	381	382	382	383	386	383	386	386	386	383	381	383	382	382	385	385	384	383	388	391	384	372	372	370	372	380	381	370	361	365	357	357	360	372	381	387	387	386	389	388	388	385	384	385	385	386	387	381	379	382	383	378	378	376	378	383	388	398	402	399	392	392	388	382	375	369	376	371	364	359	359	356	353	358	362	367	373	372	366	366	358	360	371	376	380	373	373	377	377	376	376	372	370	374	379	380	369	359	357	363	374	374	376	378	383	388	387	385	382	380	376	373	375	379	379	370	371	370	368	372	374	376	376	375	375	374	377	377	381	389	390	386	381	391	392	392	386	381	375	371	373	382	385	385	390	390	394	399	405	410	410	409	403	411	412	418	418	414	417	419	427	424	424	427	428	431	433	437	440	434	430	428	434	437	440	438	436	431	427	424	418	413	416	415	417	417	424	424	425	451	451	446	445	441	437	428	429	429	428	430	434	434	431	425	418	415	432	445	448	444	437	433	436	435	430	431	431	433	436	456	461	439	436	428	432	434	438	438	436	435	434	435	437	441	443	445	445	438	435	434	434	435	434	444	432	422	418	416	414	415	429	432	432	429	425	420	416	414	419	424	427	425	429	436	428	424	424	424	421	415	415	421	429	430	428	425	423	423	416	412	410	404	403	405	409	416	424	427	432	440	441	450	458	455	448	438	432	429	438	442	444	448	445	447	445	445	442	437	428	426	421	419	419	424	425	424	423	420	426	432	437	435	433	437	436	443	451	450	443	437	430	433	436	444	447	446	441	441	437	436	438	438	439	433	428	429	429	430	429	430	431	440	439	437	436	428	419	417	416	415	413	412	410	399	393	399	406	419	424	419	404	398	400	419	420	416	414	410	408	413	420	424	420	413	407	399	401	403	403	402	403	406	410	413	414	419	419	426	428	428	425	422	417	411	385	394	393	394	397	402	404	404	403	400	398	396	395	394	395	396	399	402	408	409	407	401	397	397	394	381	379	383	385	387	387	386	385	397	397	393	392	372	372	378	388	384	380	377	377	375	375	372	368	370	367	364	360	360	361	368	385	380	373	371	374	378	372	366	366	362	361	362	363	364	365	365	365	363	368	368	364	365	365	364	364	362	360	355	356	357	359	360	353	365	360	364	358	368	368	364	363	363	363	367	365	365	363	358	352	346	346	354	351	352	351	355	360	365	361	356	354	349	349	351	354	356	358	358	360	359	354	348	348	348	352	354	353	346	342	338	338	343	343	347	351	354	351	350	349	348	352	352	356	359	359	362	356	348	348	348	349	351	354	352	352	347	356	345	345	351	353	359	363	361	356	356	349	342	337	335	340	339	344	344	339	340	339	345	349	357	357	351	348	350	351	351	348	348	350	354	354	342	333	333	341	347	354	349	349	349	352	354	354	352	344	341	341	340	342	341	338	337	337	338	349	346	351	351	352	341
384	387	386	383	380	380	380	381	378	375	364	364	364	370	378	383	386	382	382	379	377	381	386	391	390	390	384	381	389	388	383	375	375	371	375	382	384	365	365	365	357	376	388	387	388	385	385	382	380	378	380	383	383	384	384	386	383	382	381	384	381	376	376	376	377	383	388	392	400	395	392	392	387	377	365	368	367	364	365	359	359	353	354	359	373	379	377	370	363	366	366	364	369	376	380	373	374	377	379	375	375	372	372	372	374	377	377	366	367	372	373	373	374	378	381	385	385	384	380	375	371	372	372	374	374	370	371	368	366	367	370	372	374	374	373	371	374	377	377	377	382	379	379	375	375	381	385	381	375	371	375	380	383	382	382	378	382	377	377	383	395	396	403	411	390	404	408	414	417	421	428	426	426	427	431	441	440	438	432	432	428	430	440	443	433	441	429	430	429	428	421	413	416	422	424	424	423	428	428	427	430	444	443	435	431	427	424	422	421	430	434	429	428	424	416	413	414	417	432	429	425	423	421	421	419	419	419	423	426	432	438	433	426	426	430	433	435	434	433	430	425	430	434	436	436	437	436	431	425	433	431	418	424	420	423	423	418	414	414	418	426	426	425	422	421	422	417	415	416	421	423	421	417	414	413	421	421	424	425	417	418	425	428	420	414	412	414	414	413	412	413	415	414	410	408	407	417	421	431	442	437	433	447	447	442	435	429	428	443	443	450	444	441	444	445	439	434	431	426	421	420	419	419	423	425	421	418	417	415	422	427	429	433	428	431	435	445	454	451	433	430	430	433	439	446	441	438	436	435	436	437	437	432	427	425	425	421	412	413	415	417	432	434	433	433	430	420	419	414	412	410	403	397	393	391	402	405	409	412	415	406	397	393	393	402	398	399	398	400	400	408	410	413	411	402	401	401	397	396	392	394	398	396	396	397	403	403	412	414	418	409	399	389	384	388	386	387	394	397	399	404	404	403	398	390	388	390	395	394	387	385	385	395	398	394	392	392	390	388	380	379	380	382	382	386	387	386	386	394	392	385	380	378	384	388	386	381	381	376	376	373	370	367	368	370	368	366	363	361	368	375	379	368	364	370	377	378	377	377	368	362	361	361	363	365	367	368	365	363	361	361	364	365	359	359	358	358	354	355	355	358	360	345	341	345	364	358	364	364	365	361	357	355	354	353	352	352	353	355	347	347	346	346	351	354	357	359	358	350	348	353	353	354	355	356	357	358	358	366	361	356	350	350	349	352	355	352	349	341	342	345	345	347	350	352	347	345	345	342	343	343	346	351	355	359	362	362	355	352	352	352	353	353	351	347	346	341	341	342	345	352	346	340	343	348	348	347	336	324	331	340	339	339	344	339	341	340	345	353	353	350	343	340	341	345	348	348	349	351	355	359	361	361	361	341	347	352	356	353	353	340	345	349	348	340	340	338	337	337	339	342	342	343	347	351	354	351	351	352	348
376	381	381	378	376	374	374	376	374	368	362	359	359	365	372	378	380	382	379	378	379	383	389	393	386	386	381	380	386	385	383	374	374	372	375	380	380	374	367	367	367	376	388	389	388	384	379	379	370	363	367	373	377	380	380	387	384	386	384	371	366	371	376	376	378	381	384	392	400	382	387	387	386	373	365	366	370	367	364	360	360	354	354	361	374	379	378	371	370	369	369	366	368	372	370	373	374	378	378	373	369	369	369	369	373	376	376	380	377	376	375	375	375	377	381	385	386	382	378	369	371	374	373	374	374	371	371	368	366	364	365	366	362	370	375	378	374	373	373	376	373	374	373	372	373	376	389	396	380	377	387	384	372	370	370	378	370	363	361	367	371	385	379	383	390	404	404	405	413	417	418	419	423	423	429	436	440	437	431	429	426	427	436	440	430	426	422	423	435	432	423	417	421	429	421	418	418	415	410	413	415	424	427	429	430	424	421	420	422	425	428	429	428	424	416	416	414	418	427	423	418	419	418	410	404	405	411	411	416	416	415	418	419	419	421	425	429	432	432	430	422	421	423	430	434	433	425	421	420	422	420	405	404	415	418	421	417	414	416	419	421	427	421	415	419	422	422	417	411	414	417	414	410	407	417	422	419	419	421	422	417	425	418	413	412	413	414	412	412	415	414	416	416	418	414	412	431	423	420	430	437	431	426	438	435	428	427	426	438	443	446	443	443	440	440	433	431	430	421	419	412	413	418	422	425	420	415	412	415	418	425	431	425	422	425	429	443	453	449	430	428	428	430	435	441	435	423	415	417	436	438	434	430	420	411	411	406	403	403	403	415	414	411	408	401	414	419	413	405	396	386	382	389	393	395	406	405	406	414	414	398	388	389	397	391	396	402	409	408	408	409	406	403	402	401	398	393	392	394	391	390	390	377	377	381	381	395	400	396	396	398	398	389	381	383	384	386	390	397	399	401	405	400	391	386	387	392	394	388	383	382	384	386	384	383	385	385	383	383	379	379	380	382	383	388	388	389	391	394	390	390	386	384	382	383	379	379	377	377	377	375	368	367	363	363	362	366	363	356	360	368	374	375	366	363	372	372	372	362	360	359	362	367	370	367	366	368	368	362	360	358	359	360	360	356	355	353	347	338	336	335	337	337	341	345	348	357	357	362	363	359	353	351	348	351	351	352	351	354	352	352	351	347	347	350	355	358	356	351	348	352	352	350	344	356	357	352	352	348	355	354	354	353	352	351	351	345	341	347	349	353	353	353	352	347	339	336	337	340	344	344	345	351	355	355	361	361	351	351	351	354	356	356	353	351	345	337	337	336	339	351	357	358	352	345	345	345	347	324	331	333	333	333	314	335	339	345	348	345	345	339	336	336	338	340	346	346	351	353	357	358	360	359	361	357	364	361	358	354	354	353	354	350	345	340	340	337	337	338	339	342	342	345	350	353	354	351	351	349	348
368	378	385	386	381	380	380	382	383	378	366	362	364	364	368	373	377	379	378	378	379	388	393	397	390	380	380	380	380	377	375	371	371	367	369	372	373	371	374	377	377	386	389	389	388	385	380	380	360	354	357	358	368	369	363	363	369	377	369	365	367	374	375	375	377	376	379	380	381	382	387	373	373	366	363	370	376	375	380	384	385	385	382	382	379	377	371	371	367	363	363	359	363	367	372	376	377	378	378	364	360	360	364	368	368	372	377	381	380	377	372	371	371	376	381	384	385	384	377	365	366	370	372	372	370	370	370	368	365	364	361	349	368	381	374	375	376	373	377	377	377	364	360	366	369	383	394	388	368	359	372	372	366	371	371	376	374	369	370	381	389	391	384	386	390	393	404	405	405	413	417	418	420	420	425	430	432	431	431	429	424	424	426	424	426	421	421	427	426	417	413	412	419	421	421	402	402	401	398	395	405	419	422	429	429	424	419	419	422	423	424	425	424	422	416	416	414	423	422	412	411	414	415	408	404	404	409	409	412	411	409	410	419	422	416	416	424	426	427	427	421	420	417	417	420	428	425	422	416	417	409	400	406	414	417	418	416	416	421	425	422	417	420	412	412	421	418	406	407	411	421	418	416	418	420	420	420	420	419	420	418	414	417	414	412	414	418	412	413	418	421	421	416	418	416	413	429	420	423	417	421	420	424	430	430	424	424	424	425	439	439	439	438	438	434	427	422	419	413	409	409	413	416	420	422	416	411	411	411	415	420	421	420	412	414	419	431	434	416	414	415	425	430	430	430	409	401	398	412	422	426	426	419	418	418	420	410	399	399	401	402	396	398	405	397	402	412	401	391	384	381	379	388	392	394	405	402	402	413	413	396	386	389	392	400	401	403	410	411	408	411	412	398	393	391	379	377	373	375	380	373	375	369	379	379	385	390	390	389	388	389	388	393	395	398	384	386	390	394	390	391	394	394	389	385	387	392	390	384	378	381	382	391	394	391	391	383	383	381	377	378	378	381	383	388	386	388	390	392	391	388	384	382	382	379	379	374	372	372	373	377	372	372	369	363	362	363	363	362	360	362	366	379	370	362	363	362	362	360	357	355	355	355	352	353	354	351	350	351	352	351	350	349	349	348	349	348	341	340	341	328	337	337	339	346	346	352	352	351	353	357	351	350	348	347	348	349	349	352	352	354	353	349	349	352	362	358	350	335	335	336	336	350	344	348	347	345	344	346	348	347	347	346	340	338	337	336	341	350	353	353	353	351	353	350	345	341	335	338	345	345	345	345	342	345	350	350	339	339	334	334	345	350	350	351	347	346	346	333	337	343	348	349	348	348	344	345	347	348	351	357	341	341	339	344	346	349	333	331	331	332	336	337	337	341	349	349	352	354	359	362	360	360	359	357	366	361	359	357	357	355	354	350	347	339	339	338	339	339	338	343	343	348	350	353	357	355	355	348	348
368	368	375	378	380	379	382	382	382	378	370	363	362	362	364	372	380	381	384	384	385	388	390	387	380	377	377	376	372	373	372	368	365	365	368	369	366	364	368	372	372	378	382	384	390	385	380	379	363	356	354	354	364	369	364	364	358	353	358	367	368	369	371	371	375	372	373	373	373	376	383	373	373	364	367	372	377	385	385	382	377	377	372	366	372	375	370	369	365	358	357	357	361	364	369	371	375	376	371	364	360	353	352	357	364	369	374	379	379	372	367	366	372	372	380	382	381	380	372	361	364	367	368	369	368	368	376	377	373	367	361	349	374	373	377	372	373	374	372	372	367	365	368	367	366	373	381	376	372	368	357	358	366	370	374	374	375	372	373	384	392	394	389	386	386	386	395	401	405	413	397	390	389	393	393	400	400	402	399	398	414	418	425	426	420	418	422	424	419	414	412	411	418	418	406	399	392	392	389	382	388	405	421	420	420	419	418	419	421	424	424	424	422	423	420	419	414	423	422	414	411	421	425	426	418	409	410	409	409	407	405	408	414	416	417	414	416	416	420	420	419	417	413	411	410	415	418	425	417	416	413	403	411	415	416	416	414	416	422	426	422	415	410	410	410	408	403	391	397	404	429	428	428	420	412	400	394	415	415	412	410	413	410	408	404	407	409	420	422	423	418	419	419	418	418	414	414	416	413	408	418	424	428	423	426	427	427	427	431	436	430	429	428	431	431	423	411	403	404	404	408	412	415	418	420	413	413	413	415	416	416	414	409	403	404	414	413	415	401	406	409	412	412	413	409	402	393	392	406	415	417	416	414	418	418	416	402	400	403	404	390	384	397	398	391	392	394	384	379	375	378	378	386	387	387	395	395	384	384	389	387	388	394	398	398	401	402	404	406	397	393	395	405	396	389	380	377	377	378	377	376	371	368	382	382	388	398	391	390	388	390	389	394	395	398	403	407	391	386	381	390	392	392	389	381	387	388	386	375	374	373	376	385	388	386	386	383	380	378	376	369	373	379	383	382	379	378	382	384	390	381	379	376	380	380	371	362	362	362	357	367	369	372	369	365	364	362	358	357	356	356	373	368	363	359	365	371	371	373	360	357	355	354	350	342	344	354	354	350	348	345	345	345	348	347	347	343	344	343	341	328	326	338	340	351	346	346	345	344	347	350	359	345	342	341	342	343	352	350	350	347	344	351	348	358	353	341	339	336	333	333	336	339	336	341	348	349	345	347	347	348	348	345	330	327	330	341	346	351	343	343	353	356	353	351	346	340	336	339	338	345	348	348	349	349	350	349	354	354	343	334	334	340	345	346	348	348	346	347	346	341	342	345	345	345	344	345	350	352	360	364	364	358	353	349	343	338	333	328	328	331	333	336	335	337	337	345	351	357	359	362	358	358	354	352	349	361	357	357	355	349	350	350	342	333	333	334	341	344	343	343	343	348	352	355	351	351	346	344	342
368	368	372	376	378	378	376	376	373	362	356	355	362	362	367	377	390	392	390	390	386	385	390	387	368	369	369	370	366	367	367	367	365	365	364	360	354	354	361	366	366	372	374	374	375	384	379	363	366	360	363	368	369	366	360	360	355	354	361	370	373	368	362	364	364	364	359	356	356	360	364	368	368	364	359	368	381	386	387	379	372	372	366	361	364	366	366	366	366	359	359	359	361	364	368	369	372	367	367	362	353	352	352	354	360	365	371	375	375	367	363	364	369	369	376	378	377	371	355	357	362	365	364	359	368	373	373	371	370	372	372	372	374	373	364	367	370	373	376	376	370	369	368	361	351	355	372	376	371	367	357	360	366	373	375	375	375	372	379	385	389	391	387	386	386	379	378	389	399	401	397	390	388	386	386	388	387	381	382	387	397	408	409	410	411	414	421	426	432	421	413	411	413	414	399	392	385	385	378	377	382	389	412	415	411	406	402	408	409	407	415	423	423	423	420	410	412	415	415	414	411	414	417	413	418	413	415	416	416	417	413	410	409	414	414	410	407	404	409	410	412	412	412	410	411	411	409	412	421	418	411	406	414	412	412	412	413	415	419	414	413	412	409	411	410	412	399	395	386	388	394	397	397	390	384	375	394	390	390	407	406	411	415	415	412	400	402	401	402	409	420	418	418	420	417	410	404	408	408	407	411	418	427	426	425	425	420	409	413	413	411	410	413	426	426	407	392	389	392	394	396	404	411	414	412	408	405	411	415	415	413	407	402	396	393	393	395	394	401	395	396	397	400	405	405	407	404	403	412	414	415	413	405	405	403	398	397	394	389	385	378	374	374	373	374	378	375	371	368	371	374	383	375	384	384	385	386	377	378	382	386	388	390	395	398	398	395	397	398	395	392	396	395	390	388	385	382	381	383	385	391	390	390	390	390	389	382	375	373	378	390	389	394	395	399	407	409	403	389	373	381	383	382	370	372	378	377	372	376	380	385	384	384	381	381	377	371	365	364	373	377	381	385	385	382	379	378	379	381	381	375	374	375	371	368	358	358	358	360	368	367	369	369	367	362	365	366	365	362	362	363	362	373	368	360	357	357	360	362	357	355	351	353	341	343	351	355	355	349	349	348	347	347	349	348	342	344	344	343	341	341	339	337	330	341	345	345	343	338	341	353	345	336	328	330	338	352	351	351	351	350	344	345	350	350	339	337	334	333	333	333	337	339	336	337	345	344	345	347	344	344	340	336	334	334	335	341	345	342	343	343	343	354	353	347	341	333	336	339	339	345	348	348	345	350	350	350	355	355	345	334	335	343	340	342	343	343	344	344	344	339	339	343	345	345	345	344	345	346	347	349	349	351	348	346	341	338	333	333	328	330	331	332	331	334	334	339	351	357	361	362	357	357	348	345	343	340	350	350	346	345	344	344	347	347	347	340	333	329	332	343	338	339	343	352	348	348	348	337	334
366	366	372	370	373	367	366	366	363	356	351	347	342	342	347	356	368	375	377	370	370	368	368	371	368	369	366	367	364	363	363	363	358	358	352	345	341	345	352	360	360	367	367	365	368	374	373	366	366	360	361	363	365	362	355	354	354	357	360	371	369	363	365	368	368	371	361	361	359	363	361	361	361	361	359	368	366	381	379	375	369	361	361	358	355	359	364	368	366	361	361	361	362	364	367	368	369	364	362	358	351	350	350	354	355	359	362	360	368	365	354	350	349	349	351	350	349	343	340	344	357	368	371	369	362	359	359	363	362	362	363	370	372	373	364	367	369	373	375	375	375	372	365	359	345	352	377	379	361	359	362	366	372	377	381	384	384	384	384	384	382	385	386	384	385	382	381	382	387	389	390	395	388	386	388	388	389	386	387	388	396	407	407	408	409	412	415	413	423	431	418	410	407	405	400	395	386	384	384	379	380	385	388	415	418	413	411	401	398	393	399	409	408	416	419	412	413	414	410	412	413	414	417	413	413	419	417	416	417	417	413	413	408	408	406	403	401	397	402	402	404	406	406	409	413	415	413	406	407	406	407	411	408	408	410	412	411	405	406	412	418	412	410	410	410	407	402	395	388	389	396	398	396	392	389	379	389	397	399	399	406	410	417	425	419	408	392	391	389	396	411	418	414	412	407	400	399	406	405	408	412	413	413	411	410	411	411	410	397	393	393	392	398	401	394	392	388	395	396	396	392	396	404	410	405	403	404	409	417	416	416	404	401	397	395	389	389	393	398	400	396	397	400	403	404	405	403	404	407	402	400	391	390	390	386	388	389	390	386	382	367	370	373	377	379	379	377	371	368	370	377	373	383	384	382	379	374	374	378	381	384	386	387	387	393	391	394	391	392	395	394	389	386	384	386	386	385	386	387	393	392	390	391	391	392	388	384	376	373	378	389	398	397	394	394	404	404	391	375	378	383	384	381	379	370	369	370	373	385	389	391	389	389	387	387	382	381	381	378	376	379	379	377	380	379	379	379	379	377	371	365	361	358	356	356	360	365	365	360	368	365	371	369	368	364	366	366	366	364	363	365	370	367	360	355	355	355	359	361	353	351	347	345	343	344	350	351	354	350	348	351	353	353	355	357	342	344	339	338	342	346	349	352	352	350	352	352	350	347	345	339	335	336	337	337	337	340	352	352	350	348	345	349	346	336	337	333	334	333	333	335	337	335	340	342	342	344	339	341	345	345	341	338	336	334	336	340	345	341	341	341	341	343	343	342	341	333	332	336	336	343	344	341	341	338	339	332	332	335	334	335	339	338	339	338	339	339	327	319	323	329	339	343	343	345	345	344	344	344	339	342	342	344	342	341	341	339	336	336	331	330	329	329	329	330	334	339	342	340	355	358	358	352	345	341	339	336	333	333	343	340	341	344	347	347	348	339	333	329	332	332	336	338	339	346	345	345	338	338	332
364	364	366	370	373	364	372	372	368	365	363	358	350	348	348	354	361	363	360	365	365	364	366	365	365	366	367	367	362	362	358	357	354	350	350	344	339	337	348	357	360	360	358	348	348	353	372	377	377	374	361	363	362	354	350	354	354	356	367	360	361	359	368	369	369	363	366	367	361	357	359	357	359	359	357	353	366	381	363	362	359	359	359	358	354	347	360	364	362	363	363	361	361	362	367	369	369	362	361	352	350	349	349	352	355	359	360	359	353	356	358	359	350	345	345	337	338	344	349	352	352	351	355	358	362	364	364	364	361	359	364	368	369	351	356	363	369	373	372	374	374	370	354	348	349	365	381	362	363	368	369	369	369	368	375	385	385	389	383	382	377	382	382	378	373	382	385	385	384	382	384	387	389	387	388	388	393	389	385	390	395	401	401	401	402	399	399	405	413	421	417	405	396	398	398	398	385	384	384	393	388	384	390	399	408	405	402	396	389	382	387	397	407	408	416	415	412	406	407	410	409	409	409	408	413	419	419	414	407	406	406	408	407	405	407	410	404	398	400	401	402	402	406	413	414	411	409	405	394	392	398	404	402	399	404	408	407	403	402	403	416	408	405	407	410	407	405	401	395	400	398	396	396	401	395	387	400	397	402	402	407	413	419	423	425	417	407	406	401	396	397	409	407	409	404	398	395	393	401	400	408	408	402	399	406	410	410	405	399	390	386	384	391	394	393	393	389	392	397	398	394	396	398	404	407	403	396	406	415	417	410	410	408	398	394	393	395	399	401	400	396	398	399	402	394	395	392	398	398	391	382	379	380	380	380	382	384	384	381	379	375	366	364	375	379	381	379	372	373	375	370	370	376	381	381	375	374	370	375	378	377	378	381	390	391	389	387	384	381	383	389	386	382	380	385	384	386	389	388	387	387	390	390	390	393	388	384	376	373	376	387	398	398	394	394	396	384	372	372	379	383	384	384	381	377	377	377	377	377	376	377	378	381	381	381	382	382	382	381	377	375	377	378	374	370	372	370	372	371	374	371	362	357	355	355	359	360	365	361	358	371	363	362	357	361	372	372	356	354	351	359	359	358	359	354	354	348	347	349	348	347	344	343	345	343	342	345	343	347	352	352	352	352	354	357	348	338	335	343	346	354	351	351	350	354	354	351	351	346	343	339	339	339	341	334	335	351	348	348	346	345	340	341	338	333	337	333	331	333	333	337	336	334	334	340	342	342	336	331	331	331	341	339	338	334	335	339	344	347	347	342	340	341	343	342	341	342	339	339	338	344	341	339	338	335	335	330	330	331	334	335	343	339	337	335	335	328	326	321	323	329	335	341	341	346	346	343	338	334	332	332	332	334	326	326	340	340	339	339	334	331	337	339	329	330	330	332	335	337	331	349	349	349	346	337	334	331	329	329	330	340	342	341	337	337	331	339	333	329	331	331	337	338	340	329	329	333	340	331	324
358	355	355	357	362	364	372	374	374	374	366	365	364	363	363	365	364	363	360	360	360	366	367	369	372	370	366	366	362	362	355	349	349	349	349	346	339	335	343	349	355	355	344	347	354	362	370	366	366	358	356	358	362	354	366	364	364	358	357	361	359	363	364	364	360	360	364	368	361	357	357	358	357	357	355	355	350	351	363	362	352	352	352	353	352	352	351	356	360	364	365	362	362	364	366	369	361	361	358	348	347	350	356	356	356	357	360	359	354	348	348	355	351	351	351	350	351	350	349	350	350	348	352	355	360	364	364	364	364	362	363	366	353	353	357	360	367	369	372	374	356	356	347	346	349	356	363	366	367	368	368	370	367	364	366	377	382	382	382	369	371	376	383	376	368	372	378	380	379	380	383	385	388	390	393	393	393	389	390	386	390	393	395	398	398	397	395	398	409	413	405	392	384	393	387	393	390	389	388	388	389	388	390	402	407	406	399	393	389	380	385	393	392	407	409	408	409	402	402	402	402	401	401	403	414	419	419	414	407	402	402	404	407	410	420	424	419	402	397	397	398	397	392	396	409	407	404	400	399	398	403	400	394	389	393	399	402	400	399	397	396	402	411	407	399	394	400	399	402	406	401	407	407	406	412	394	395	399	403	407	407	413	416	415	412	407	400	398	402	401	404	398	403	396	401	396	393	391	392	396	403	395	392	392	395	398	396	392	395	390	385	380	393	395	395	392	394	401	393	392	392	397	400	404	402	392	394	397	405	412	411	404	402	401	396	395	397	396	398	401	400	395	395	393	394	382	380	382	391	388	383	378	378	378	379	378	378	381	380	384	382	369	370	377	384	384	380	376	375	372	368	370	374	379	378	375	373	370	372	380	380	383	386	391	386	383	381	380	380	381	387	384	379	377	381	384	384	383	382	380	378	377	390	390	393	396	394	383	381	379	371	372	379	379	380	373	373	372	372	377	382	383	383	382	372	362	371	377	377	376	375	377	377	377	377	376	376	378	377	376	370	369	368	371	369	363	362	362	365	368	374	373	360	366	355	359	359	365	366	371	377	376	367	362	362	366	364	349	346	351	358	363	365	361	353	353	346	344	345	345	345	343	344	345	345	345	345	345	347	350	349	349	352	354	349	329	337	334	342	345	353	349	349	352	352	352	350	348	344	344	339	339	339	334	331	337	343	343	345	336	339	336	340	338	333	333	328	328	337	337	341	341	340	334	333	337	334	332	329	329	333	340	340	338	336	336	333	334	345	345	345	340	341	341	343	342	342	339	339	338	341	345	340	339	335	332	329	329	330	332	336	341	338	336	332	332	325	326	321	323	334	333	334	334	336	344	342	336	333	332	332	332	334	332	325	320	337	337	341	342	336	337	339	338	338	336	333	331	328	331	332	332	335	337	337	330	329	329	328	331	333	332	331	331	337	331	329	322	317	317	321	321	320	317	324	324	331	334	340	325
352	347	347	343	352	366	371	374	374	373	371	366	367	370	370	374	368	368	364	363	358	358	371	377	379	377	372	372	367	359	355	349	349	359	359	358	346	339	346	357	360	360	359	360	360	362	364	359	355	355	351	351	352	362	366	364	366	366	366	364	358	357	359	357	358	358	358	362	361	357	356	357	354	351	351	352	357	359	353	353	352	352	355	355	355	355	354	354	357	362	366	365	361	361	362	357	358	363	357	347	346	349	354	354	359	360	359	358	354	348	348	350	354	356	353	353	352	351	350	349	347	344	346	356	356	356	358	358	363	365	361	356	354	357	357	363	365	367	371	368	356	356	348	351	354	357	363	365	367	368	371	371	366	359	361	369	369	369	366	365	367	375	374	367	367	370	375	379	378	376	379	382	388	390	391	395	395	394	390	386	380	378	386	391	396	398	398	399	404	408	403	393	394	385	384	385	386	385	383	383	379	379	380	381	384	385	384	383	384	382	383	395	403	404	402	399	398	398	399	401	398	396	397	404	414	420	419	412	406	402	404	404	405	407	408	409	409	403	395	396	387	385	380	382	388	392	395	398	402	402	387	386	386	388	388	389	392	390	380	375	373	388	393	391	386	381	389	393	398	403	402	408	410	401	407	394	392	397	401	405	405	408	412	413	408	400	396	393	394	402	407	400	399	392	399	395	394	391	394	402	396	396	390	389	391	394	394	391	390	385	384	385	394	395	394	390	392	401	397	394	396	399	403	402	400	392	389	391	396	395	395	398	402	401	398	396	395	393	396	398	398	391	391	390	384	382	379	381	387	387	383	380	380	378	378	376	376	382	385	384	382	377	377	377	379	381	378	380	380	377	359	362	369	379	378	374	373	371	372	374	382	385	388	389	383	378	379	374	374	378	383	383	380	375	380	381	382	380	378	379	378	378	377	375	375	380	384	395	394	385	375	375	379	379	379	374	373	372	373	375	379	381	381	380	372	363	372	378	385	382	374	374	374	375	374	374	373	373	371	365	365	362	362	365	366	364	363	363	364	364	366	373	360	366	365	368	368	369	371	375	377	387	375	371	359	358	364	361	354	355	360	362	368	365	365	361	349	344	345	344	342	340	345	347	350	356	354	346	346	350	350	349	340	341	350	341	327	335	339	342	343	342	343	346	346	347	343	337	335	335	336	337	337	334	331	337	342	342	347	350	334	329	340	334	333	332	328	327	327	332	330	330	331	332	334	335	336	336	340	340	341	340	339	336	336	337	339	337	330	330	345	340	339	341	343	343	340	339	339	338	343	346	342	337	337	331	331	331	331	332	333	338	337	335	334	332	325	325	321	332	334	332	332	330	330	329	333	335	333	332	332	333	335	330	335	331	331	331	334	342	336	339	339	336	336	334	333	330	328	330	330	330	331	333	332	330	328	328	325	323	324	329	331	331	330	328	328	325	321	321	309	319	321	322	324	324	326	328	331	330
355	346	346	339	342	358	366	373	373	373	371	362	356	355	355	341	339	347	347	351	351	351	360	373	379	380	376	370	370	360	353	348	349	359	353	353	352	352	349	352	357	360	360	357	353	347	355	362	364	364	358	352	362	370	367	364	366	366	366	361	357	356	357	358	357	357	357	362	361	358	356	355	350	349	349	351	354	359	358	354	352	354	355	358	360	358	354	349	350	353	359	363	355	355	352	355	359	360	354	345	350	351	351	351	355	361	360	359	356	350	348	350	359	358	356	356	356	352	351	352	351	353	356	357	354	355	356	357	357	357	354	351	354	357	357	359	363	363	361	355	351	348	348	351	352	355	358	360	364	368	371	369	368	364	363	363	367	367	367	366	365	370	367	360	364	367	374	377	375	373	375	377	381	383	384	381	381	381	390	385	380	378	375	386	386	390	396	402	405	404	406	396	388	382	381	394	398	402	400	394	394	388	387	391	393	384	382	382	389	393	394	397	401	402	400	399	396	395	397	399	398	396	396	404	415	419	417	411	404	402	403	403	405	407	408	409	407	395	394	395	387	378	372	377	385	388	396	396	390	389	380	383	387	388	387	389	391	385	381	374	373	376	379	383	388	389	383	377	377	379	392	397	400	411	395	388	388	391	393	400	400	404	409	410	405	397	389	389	398	401	403	402	402	400	395	391	389	390	390	397	391	390	385	385	386	389	384	387	388	383	381	390	395	392	391	392	391	390	388	388	386	390	399	399	392	384	386	389	391	390	389	396	397	396	395	392	394	390	388	386	384	385	389	384	383	380	379	380	383	386	382	382	380	379	377	379	376	382	381	381	379	382	380	377	375	375	377	378	377	377	377	366	373	381	376	375	374	372	371	372	380	389	396	390	384	375	371	370	372	374	378	380	374	378	379	378	378	380	378	379	379	378	377	377	377	381	385	391	393	387	384	383	379	381	372	370	367	372	382	384	382	377	374	377	378	377	374	388	389	380	371	366	366	367	367	365	364	360	362	360	359	363	362	363	364	365	365	364	363	363	366	373	365	367	366	366	367	367	368	368	369	376	375	369	363	368	370	372	368	367	366	367	367	366	366	361	347	344	346	343	341	337	341	346	349	357	353	348	346	350	350	338	345	336	331	326	326	336	340	342	342	338	341	349	349	351	349	335	335	333	333	333	336	335	334	337	337	342	346	335	334	329	335	339	335	332	329	334	334	330	329	326	326	331	332	334	334	336	336	336	335	332	333	335	336	336	337	336	337	330	326	324	327	330	334	337	342	342	344	343	344	346	337	336	336	337	337	331	333	332	336	333	337	335	335	334	330	324	325	329	335	332	332	330	328	324	324	328	332	334	334	332	334	331	333	339	337	331	334	335	339	344	337	329	329	329	330	330	327	327	327	327	328	330	330	327	322	322	318	320	324	329	329	329	329	332	331	326	322	322	315	310	319	322	324	324	326	325	322	320
355	352	345	345	339	347	357	366	366	366	366	362	356	355	341	341	337	345	343	349	346	346	353	365	375	366	372	370	370	365	361	358	354	353	353	353	351	348	350	350	350	360	360	359	355	341	340	345	352	352	353	355	364	367	363	362	364	364	366	361	360	360	360	359	357	359	359	360	356	352	349	350	354	356	356	349	357	358	356	354	353	354	358	358	360	369	345	345	350	347	344	346	346	346	350	357	359	356	352	351	352	348	353	360	360	362	361	358	357	353	353	355	359	358	357	357	356	354	351	352	351	349	348	356	354	353	355	356	356	356	353	348	347	347	350	352	358	361	354	352	351	349	349	349	352	355	352	357	360	366	368	370	371	371	364	364	364	364	364	367	367	367	361	356	360	363	370	377	376	372	373	371	378	378	380	382	385	385	384	387	385	381	375	386	381	388	392	399	400	400	396	390	388	386	388	397	400	399	399	397	397	389	387	391	394	388	385	384	392	392	394	397	400	402	398	395	399	397	391	393	397	396	400	408	416	416	411	408	403	400	402	400	400	405	408	409	407	395	394	383	387	379	377	384	397	398	386	383	380	377	382	390	393	391	390	387	379	374	372	369	369	369	369	376	379	381	383	381	372	372	378	380	387	392	395	399	385	385	389	404	402	402	402	404	393	388	382	381	382	386	390	394	399	396	388	384	380	377	378	380	384	383	383	384	385	379	384	384	385	380	380	390	396	392	392	390	388	385	386	383	383	380	379	379	379	380	380	385	383	382	386	392	395	395	393	393	394	394	392	388	386	385	383	390	394	388	379	380	382	383	380	380	375	375	373	372	371	379	381	380	379	375	382	375	373	375	378	377	375	374	375	380	378	373	369	369	369	371	369	371	375	384	391	395	393	385	380	374	377	380	379	376	376	378	379	378	378	378	377	377	377	379	378	378	379	384	385	388	385	381	381	382	381	376	363	366	371	378	382	386	386	376	368	369	376	376	379	384	384	384	371	371	369	362	360	364	360	358	352	351	351	355	360	362	359	363	363	363	363	363	360	361	363	363	365	365	365	365	366	366	366	372	370	367	363	365	368	369	368	367	368	368	368	368	358	343	342	339	342	341	341	339	340	346	352	354	353	348	343	343	336	334	335	335	330	326	328	335	344	346	344	340	336	336	342	342	340	337	334	331	321	325	333	328	331	335	335	336	346	335	327	327	329	334	326	332	334	338	338	336	330	326	326	329	332	334	332	334	334	334	333	327	332	330	330	338	337	336	336	331	326	325	328	328	333	341	339	339	345	344	340	333	332	334	332	328	328	327	331	333	335	332	337	335	335	329	330	325	325	331	331	330	330	327	326	325	323	328	330	330	329	322	321	331	330	339	339	337	333	326	327	335	334	334	331	327	337	335	328	320	320	321	323	327	327	327	327	326	318	320	323	331	343	343	341	340	339	335	329	329	320	315	314	320	320	323	325	324	318	320
355	357	356	356	355	351	355	356	360	360	358	358	355	355	341	359	362	356	352	349	354	354	353	357	350	358	367	368	368	365	360	358	356	355	351	351	351	348	354	357	359	358	358	358	355	348	340	333	337	344	344	353	357	358	361	361	363	361	361	359	360	362	360	358	353	352	352	354	351	337	340	349	355	361	346	346	344	344	345	345	344	347	365	370	370	369	345	344	347	349	345	344	346	350	350	354	356	352	352	352	358	359	352	351	351	359	360	363	357	353	353	355	360	362	357	339	339	337	349	352	350	345	342	340	354	353	355	356	356	353	351	348	349	354	353	348	351	352	351	349	349	348	348	348	348	348	352	353	358	364	366	367	371	367	362	360	361	361	361	361	367	365	363	357	358	363	371	375	373	372	369	367	375	378	379	381	381	384	384	383	381	384	388	386	381	388	387	394	397	399	396	395	396	406	411	406	398	398	395	394	386	386	387	390	393	391	389	390	389	388	390	394	398	401	397	397	397	396	392	384	380	385	388	398	396	393	395	401	403	399	397	397	397	402	409	406	403	397	394	383	387	378	375	382	388	398	394	386	375	375	379	380	382	386	387	387	384	370	365	363	366	366	374	381	383	377	373	373	373	372	373	373	377	384	395	399	394	387	389	391	389	389	388	386	383	375	369	359	359	364	377	381	378	379	380	377	377	378	379	380	375	375	373	379	376	377	384	384	384	379	376	382	392	400	394	391	385	381	381	381	382	383	381	373	377	380	391	388	378	377	388	390	394	394	397	395	388	381	381	383	376	372	370	376	387	374	375	375	383	372	368	368	363	363	362	369	370	366	365	364	373	372	371	374	373	377	378	381	378	376	373	372	373	378	373	368	366	367	367	372	373	380	384	389	390	386	377	378	383	385	379	376	376	378	379	379	375	374	376	376	380	380	377	372	374	375	374	373	377	377	375	378	385	373	365	365	370	378	383	385	384	375	370	371	376	377	379	383	381	372	369	369	362	357	358	360	361	355	351	345	342	348	360	359	357	363	363	363	361	359	361	357	359	361	361	362	361	360	358	357	356	359	364	365	361	358	361	363	362	355	352	351	356	356	345	344	333	336	340	341	336	335	334	335	352	354	344	339	332	332	332	338	339	335	332	334	332	329	331	331	333	329	326	326	326	330	331	332	335	334	325	328	333	331	325	325	335	336	334	330	327	328	328	329	317	317	331	331	335	336	336	332	331	331	328	329	339	336	336	332	327	334	333	330	330	338	337	335	335	331	328	329	327	330	334	340	337	337	344	333	329	330	329	327	326	326	324	327	329	335	335	332	332	332	332	334	326	324	324	326	327	330	330	330	333	335	344	341	335	335	329	319	319	312	330	330	330	332	329	324	323	322	334	334	331	326	325	321	310	309	309	320	326	335	334	330	327	326	326	326	338	339	339	341	344	338	331	329	329	333	329	324	318	318	318	324	325	324	318	317
366	368	370	370	366	360	350	347	346	346	354	360	355	357	359	359	362	359	358	358	356	354	354	340	344	351	352	350	350	349	351	358	362	361	350	350	349	352	354	355	354	353	352	352	350	346	343	342	344	348	348	350	355	358	360	360	356	360	360	359	362	362	360	348	344	337	337	335	332	332	335	346	351	353	350	350	347	343	341	339	339	342	347	358	358	345	342	344	347	345	344	345	347	350	350	353	354	349	351	355	361	354	352	349	355	355	354	351	352	350	349	346	348	345	342	339	339	334	340	350	350	343	336	336	349	360	357	355	352	352	350	348	351	353	349	346	342	346	347	346	349	349	349	349	351	351	351	353	358	344	351	359	361	361	360	360	356	357	360	360	364	365	363	358	357	362	367	372	373	372	371	367	367	369	367	369	376	380	380	380	381	381	384	385	391	385	387	394	394	397	393	392	395	403	411	406	398	393	386	371	377	377	387	394	390	377	374	375	388	385	382	386	389	388	391	393	388	385	383	376	374	375	377	378	376	378	384	394	397	389	387	397	390	390	390	399	391	390	380	380	380	378	375	382	388	393	391	377	369	369	372	370	369	368	370	371	370	368	366	366	365	371	379	383	381	377	373	372	373	374	376	376	376	379	380	380	387	383	382	377	376	379	379	384	387	386	380	372	373	373	372	372	372	372	374	377	375	377	378	377	373	371	368	373	377	366	375	384	381	378	374	378	383	388	402	394	385	380	383	400	398	395	374	380	385	389	384	392	380	375	387	386	383	386	392	391	377	366	362	371	371	368	356	361	363	368	369	369	363	361	361	356	359	364	362	371	372	367	365	363	375	370	371	373	374	375	378	381	380	375	375	380	380	379	384	370	368	368	369	371	362	367	369	374	373	371	368	378	383	385	381	377	376	378	382	380	380	377	379	379	376	372	371	371	373	372	370	369	372	371	371	371	380	382	360	361	371	375	380	377	373	373	372	378	385	380	367	365	363	365	365	358	352	353	356	357	357	355	352	348	340	351	359	359	357	363	363	363	363	359	362	358	362	362	362	360	357	355	353	354	354	355	363	364	359	355	360	363	359	348	345	345	345	348	348	343	338	341	342	343	340	335	334	335	336	337	334	332	331	331	331	336	342	337	337	336	336	333	330	325	329	334	329	329	329	336	340	337	335	335	336	333	335	337	325	325	325	326	325	324	326	328	328	321	315	316	328	328	333	335	337	340	338	329	325	326	325	325	325	325	328	330	333	330	325	326	333	333	335	334	335	334	332	335	338	334	334	328	328	327	328	330	326	324	322	322	321	324	329	335	335	332	331	331	330	331	332	325	322	331	334	334	336	336	332	333	336	332	324	324	322	322	319	312	316	316	316	320	323	321	318	322	330	330	333	329	316	315	314	314	316	318	328	330	334	330	330	329	329	328	338	338	338	339	341	338	329	328	328	333	328	329	326	317	317	324	325	324	321	316
364	367	371	371	366	363	356	349	347	347	347	349	351	356	364	361	361	359	358	357	351	343	343	340	341	345	343	341	345	345	350	356	359	360	356	348	348	351	353	355	354	342	345	345	346	345	346	348	350	354	354	357	353	353	359	360	350	351	351	352	357	361	359	348	344	335	332	332	331	330	339	346	349	341	330	330	331	335	331	336	341	342	347	342	335	335	334	337	345	345	344	346	346	350	350	352	353	350	342	343	351	348	343	344	348	348	348	346	342	338	336	342	344	343	340	337	334	334	340	348	346	340	338	338	340	354	360	355	350	350	345	344	345	349	347	347	339	341	337	339	348	351	352	352	351	353	350	343	341	344	351	356	359	360	358	355	352	354	361	364	364	363	361	359	357	361	362	362	370	373	372	372	367	367	366	366	373	378	380	380	379	379	381	384	385	387	390	392	394	397	393	381	380	382	394	394	384	380	381	382	383	382	382	377	369	371	373	377	383	378	379	379	376	383	388	390	387	386	385	380	379	374	380	379	379	380	384	380	375	377	393	387	384	384	386	377	375	383	375	378	378	373	369	369	377	393	391	377	366	372	371	373	370	369	366	367	367	366	366	368	368	371	375	381	381	376	372	372	375	375	371	373	377	374	378	371	367	370	377	372	373	377	377	381	384	383	377	373	376	376	375	374	375	377	381	377	377	377	378	379	374	368	366	362	359	365	372	374	381	373	373	377	380	372	374	379	389	382	401	404	404	391	386	380	384	387	382	392	380	373	367	365	366	366	369	368	361	359	363	367	366	364	364	356	358	360	360	358	354	350	350	355	357	364	372	366	373	388	384	379	366	368	372	376	378	377	377	376	378	378	380	380	380	375	365	371	368	370	374	368	367	378	383	386	373	371	368	367	378	382	381	379	377	378	376	374	373	377	377	374	372	371	370	369	371	370	360	362	361	361	364	366	372	375	364	359	361	365	364	366	369	369	369	364	364	365	363	350	347	346	346	346	352	355	355	355	352	354	351	348	342	351	359	357	353	354	359	359	359	360	365	363	360	360	362	360	358	357	352	354	353	354	355	354	351	350	346	346	346	348	351	350	350	349	347	342	340	341	338	337	340	335	331	336	332	331	329	330	330	328	324	326	329	340	341	340	337	334	329	328	331	335	335	330	332	333	338	340	336	335	337	340	335	337	334	334	332	330	338	338	336	333	333	331	321	325	325	327	331	330	332	332	331	330	327	326	325	325	325	325	328	330	319	317	320	322	323	323	324	326	329	330	328	327	328	325	325	321	323	327	324	323	326	324	323	323	321	324	328	336	332	329	328	328	326	327	329	327	321	324	326	326	335	334	329	329	324	322	322	320	322	322	326	324	323	326	326	327	324	323	318	321	321	324	324	320	318	316	316	316	316	320	328	330	333	331	331	330	329	328	327	329	329	330	333	333	319	319	319	323	330	329	325	317	317	314	314	318	320	320
362	363	364	364	364	364	358	352	348	348	348	348	347	345	352	358	358	356	356	357	351	346	346	343	339	337	335	336	341	341	349	352	351	348	342	340	340	342	347	346	343	342	345	338	340	344	344	343	346	352	357	357	357	354	358	355	345	344	349	349	348	348	345	338	334	335	332	333	327	327	335	335	336	331	337	340	340	337	334	330	338	342	343	345	333	333	331	338	343	345	344	346	346	346	349	349	350	349	340	335	337	332	329	333	340	340	342	340	335	331	331	333	341	342	336	333	337	337	340	348	346	342	339	336	334	338	351	358	350	344	344	338	338	344	346	342	337	333	334	344	348	349	347	347	347	348	346	342	341	342	349	356	359	361	358	352	344	349	356	361	361	365	359	359	366	362	364	366	368	371	371	370	369	370	369	365	370	375	378	378	379	378	376	378	379	384	380	377	382	384	388	381	380	361	361	368	376	378	381	380	379	376	372	372	371	371	374	376	381	373	375	367	374	381	383	385	386	385	384	375	376	372	372	373	374	371	367	368	358	372	377	388	383	364	364	368	380	377	382	379	376	368	368	369	371	379	378	372	366	372	371	373	369	366	367	366	367	366	366	368	370	368	370	371	377	376	358	362	362	362	364	367	371	372	367	365	367	367	369	373	372	375	375	373	378	376	373	373	377	376	376	374	376	377	381	384	380	382	384	386	382	365	361	356	360	365	365	366	375	373	374	375	380	369	369	376	380	382	393	406	406	395	394	392	383	381	390	384	370	363	362	360	357	359	362	362	361	357	358	366	366	364	356	359	360	357	357	356	353	353	350	351	353	363	375	372	373	383	383	377	377	378	377	374	375	373	369	362	361	374	376	376	377	373	361	361	370	369	368	366	367	378	383	386	388	386	379	374	369	374	372	367	364	367	367	371	372	372	372	372	369	361	360	361	371	372	364	362	354	354	352	352	349	348	345	348	352	359	343	342	346	349	350	342	343	345	359	355	345	345	338	342	343	356	351	350	346	353	352	348	342	352	357	347	350	352	356	357	356	356	364	358	358	360	362	364	363	361	357	355	354	354	350	346	345	345	346	346	350	348	349	349	345	343	340	337	337	330	338	337	335	332	334	344	340	335	331	329	329	326	325	323	322	327	331	331	323	322	325	327	330	331	331	329	329	331	339	337	335	335	337	340	329	329	329	330	334	334	336	343	342	332	326	321	325	328	328	329	328	328	330	331	330	329	328	327	324	324	327	325	330	329	321	317	319	323	323	321	321	324	327	328	326	324	319	316	316	319	322	321	313	323	326	323	324	323	323	324	328	336	331	328	325	325	323	323	321	324	325	321	324	324	327	331	331	329	324	319	322	320	322	324	328	331	327	327	327	323	323	327	322	321	321	321	321	322	319	316	314	314	316	320	324	324	323	323	326	329	326	324	325	325	325	322	320	318	317	317	317	320	325	324	325	325	315	312	308	313	316	316
362	352	356	353	353	356	357	355	350	345	345	344	341	337	342	349	349	348	345	345	347	346	343	341	339	333	327	329	333	333	343	345	342	339	339	341	341	348	347	339	335	335	338	340	340	341	343	340	344	347	355	355	356	358	354	348	343	343	342	342	338	338	337	334	334	335	333	333	327	328	328	334	339	340	341	342	342	341	331	336	340	345	347	344	342	342	340	339	344	349	348	345	345	346	349	350	354	348	340	337	335	334	331	332	336	338	338	335	334	332	340	344	344	340	332	328	331	331	337	342	343	342	339	337	335	337	341	344	351	343	343	334	333	333	336	337	336	332	339	343	345	347	341	341	341	342	341	337	336	347	346	353	357	361	358	336	340	344	350	355	360	360	369	370	367	368	360	362	362	360	365	368	368	366	368	367	369	374	374	373	373	378	376	374	369	379	378	374	368	367	366	360	360	361	361	360	364	368	370	368	365	366	371	371	371	369	368	371	370	370	367	370	373	376	377	383	379	379	372	372	372	372	372	369	369	363	362	357	356	357	368	380	379	375	379	379	381	382	379	378	374	367	367	368	370	372	369	368	369	372	376	376	369	366	367	366	369	367	371	372	369	367	368	367	369	362	359	359	356	357	364	366	365	364	363	361	365	372	375	383	380	373	372	372	373	372	370	372	376	376	377	374	371	367	365	364	360	362	375	376	375	372	363	361	368	367	367	367	372	376	375	374	375	371	364	363	377	373	383	389	389	385	381	371	371	374	374	366	368	364	360	361	362	364	363	363	362	361	362	364	366	363	362	359	360	366	365	363	361	361	361	356	363	371	374	373	376	380	377	373	384	390	393	391	387	385	383	385	386	388	378	376	372	363	370	368	370	369	368	366	368	377	384	385	386	388	387	386	377	369	366	365	361	362	365	368	369	369	370	364	363	361	361	360	366	369	367	354	348	341	347	346	345	343	345	347	348	349	345	341	343	341	341	338	339	337	336	348	348	351	342	343	342	351	355	348	346	353	352	348	347	342	342	347	349	351	352	355	352	349	344	353	353	356	360	363	362	358	356	352	352	352	344	341	342	344	345	349	348	348	341	341	338	336	336	332	337	330	333	335	333	335	340	339	338	334	333	333	331	327	324	322	320	322	326	334	333	328	323	328	324	324	327	326	323	328	333	334	331	335	327	337	337	321	321	322	327	330	326	329	331	322	322	320	321	323	323	328	328	326	320	319	321	326	327	327	327	324	327	329	329	328	323	317	319	322	322	326	323	323	325	327	326	324	318	318	314	318	321	319	314	321	326	323	323	322	323	326	335	331	327	326	326	323	322	320	320	323	325	328	328	323	325	330	328	326	324	319	319	320	325	331	332	331	327	327	326	322	322	323	316	314	314	315	321	324	323	318	314	314	318	324	322	318	316	316	318	323	323	322	321	321	319	320	318	318	316	316	316	319	325	324	318	318	314	311	308	309	309	309
345	352	356	341	341	340	340	341	344	345	345	334	330	332	338	338	339	339	341	346	348	347	341	341	339	333	329	324	328	336	336	335	336	335	339	346	349	349	343	336	331	339	343	342	342	341	343	344	344	345	345	345	349	353	349	346	344	338	329	329	325	328	332	333	338	346	344	331	331	328	328	344	338	338	339	337	337	337	341	341	342	347	347	346	342	341	341	337	336	346	347	345	345	344	350	354	343	340	342	342	337	334	333	329	335	337	337	336	333	339	343	346	346	341	329	327	331	335	335	340	343	345	339	337	335	338	340	340	338	341	340	340	337	335	336	336	335	331	333	342	344	343	340	337	337	337	332	336	349	348	345	344	346	346	340	336	340	347	347	348	355	355	360	367	366	356	356	357	358	360	362	365	363	362	363	369	373	374	370	369	369	371	372	372	372	362	365	365	360	359	366	368	363	360	357	360	364	366	367	370	367	361	364	366	366	369	369	370	366	366	367	370	372	373	373	374	372	372	372	369	368	368	366	363	362	355	345	344	345	353	357	361	366	367	370	370	370	369	368	358	357	355	358	361	368	366	366	366	367	372	376	374	365	364	365	369	369	367	371	372	367	366	365	363	361	363	358	357	358	358	363	365	364	360	359	359	366	375	378	373	374	376	376	376	373	368	365	366	372	378	372	366	366	363	358	358	358	359	360	363	366	367	367	366	368	371	368	368	366	369	373	372	372	362	363	362	361	379	371	373	374	371	361	364	365	361	346	356	371	371	363	359	356	350	361	364	361	355	365	370	370	363	362	362	375	371	370	368	366	366	364	363	376	374	372	371	372	374	373	372	383	391	394	391	387	385	386	387	388	389	379	367	372	363	370	368	368	365	364	362	360	365	363	366	379	384	388	386	378	368	366	365	362	362	360	365	365	366	360	356	366	363	360	354	351	353	350	344	345	344	341	343	343	343	343	343	345	341	343	339	352	354	352	341	332	332	335	339	339	346	340	337	338	347	355	348	348	345	348	343	342	344	344	351	351	352	350	352	349	346	338	338	344	347	357	357	354	353	354	351	349	342	338	338	339	340	343	343	340	339	338	338	338	336	336	332	328	327	329	330	331	333	334	335	338	332	329	329	326	327	330	326	322	324	326	339	340	335	329	322	326	326	326	321	323	326	325	334	331	332	315	325	325	327	327	311	316	321	326	326	327	321	320	317	319	319	323	324	328	325	320	319	321	325	327	327	327	320	322	325	326	324	320	316	316	322	322	326	328	327	324	327	326	327	325	325	322	317	321	320	319	321	323	323	323	327	332	332	332	328	326	321	321	318	315	318	319	323	325	326	326	324	325	326	328	326	322	322	318	318	320	324	330	326	323	323	321	320	318	320	315	313	313	311	315	328	322	318	318	312	321	323	318	312	312	312	313	317	319	316	316	316	318	318	319	319	317	317	316	319	322	323	318	318	314	315	318	312	312	308
336	340	338	341	340	352	346	340	341	345	348	348	345	339	339	339	338	338	342	344	345	343	339	339	337	333	330	332	324	324	324	332	341	346	349	346	343	343	339	333	333	339	342	341	341	343	346	344	344	343	342	339	339	338	333	332	332	322	333	338	338	333	331	333	339	336	329	327	327	338	343	344	347	334	334	333	334	334	343	341	341	346	348	344	342	341	341	338	333	333	326	337	342	345	346	343	343	340	336	336	335	325	328	331	339	339	335	335	332	332	337	341	342	338	336	324	327	332	332	338	342	342	342	339	336	338	340	336	334	336	339	339	337	334	332	330	332	333	330	334	337	340	340	339	339	339	342	349	346	343	340	333	335	335	337	336	343	347	347	333	343	343	350	350	356	355	353	353	353	355	361	362	360	353	364	372	374	372	361	357	362	362	366	364	365	363	362	364	367	370	370	358	359	360	361	357	356	366	367	370	372	370	365	366	366	364	360	361	362	366	368	370	368	351	365	368	375	369	360	357	359	362	366	367	357	350	344	347	343	353	357	360	360	356	356	356	356	356	359	357	350	348	347	350	361	363	364	365	364	364	364	362	360	360	363	365	368	366	364	364	367	366	365	363	358	360	357	356	358	360	361	360	360	358	358	364	370	372	369	369	365	363	371	371	367	367	364	363	364	364	363	364	361	356	357	356	355	355	357	361	362	362	361	362	369	368	366	367	366	365	365	362	362	361	360	360	361	361	358	357	359	356	352	357	359	353	342	355	358	362	355	355	349	349	352	350	352	359	362	368	368	369	362	366	364	369	368	367	367	366	364	364	372	382	377	361	365	372	364	366	380	384	375	376	382	379	371	387	388	389	379	367	360	366	370	360	358	353	356	349	346	353	361	370	377	378	377	378	380	374	360	360	365	357	353	352	352	354	353	352	359	366	363	350	343	338	334	332	333	342	343	343	341	344	342	342	336	338	337	337	330	346	345	339	336	337	338	338	342	342	337	337	338	347	349	346	345	342	342	342	341	344	346	349	350	350	351	351	350	347	339	339	344	344	344	342	337	338	338	335	339	339	337	336	334	338	338	342	339	338	338	339	338	336	335	333	331	332	334	330	326	325	327	331	330	328	328	325	326	325	333	331	323	324	330	329	337	336	337	328	328	323	322	325	318	326	325	325	318	323	323	333	310	310	313	311	316	321	324	322	323	320	317	316	315	315	316	322	323	323	321	321	325	325	327	327	315	315	319	324	325	323	320	312	314	314	318	322	325	326	322	319	323	325	329	329	318	317	319	320	319	319	319	319	316	317	327	329	329	320	320	318	318	314	314	316	319	321	323	323	323	320	325	326	322	324	323	323	319	313	313	307	315	322	322	319	317	315	315	310	314	314	309	308	314	328	322	319	319	313	311	323	316	311	311	305	300	299	315	315	315	315	315	315	316	319	317	317	315	314	319	322	322	322	322	324	319	316	316	308
337	338	345	350	352	352	346	336	338	345	349	349	348	339	339	341	344	344	340	340	339	338	336	334	334	334	330	332	323	329	329	333	340	348	349	343	340	340	336	331	331	334	332	331	331	334	338	344	343	343	342	336	336	334	331	330	322	330	332	334	334	334	333	334	338	333	327	330	330	339	345	343	347	334	325	332	334	334	335	333	334	337	339	333	331	332	332	329	328	327	327	328	330	331	331	333	333	336	336	336	335	335	333	335	335	332	325	325	321	318	327	332	332	335	326	326	327	332	338	338	340	338	333	333	332	336	337	336	334	331	333	333	335	331	324	326	329	332	338	338	338	338	339	340	335	336	336	342	346	345	340	340	343	342	341	341	341	339	339	333	343	343	343	349	350	351	350	350	350	351	352	356	357	350	362	366	363	362	357	357	358	358	361	365	364	362	362	363	370	372	368	358	359	359	356	353	353	355	367	373	372	370	367	363	362	362	357	354	362	365	363	357	354	358	360	367	369	359	356	355	351	352	353	355	354	356	356	356	355	359	358	357	358	362	359	346	346	343	347	348	348	349	348	348	348	354	353	361	364	364	363	362	362	362	363	364	366	363	358	361	361	365	363	363	358	360	357	356	358	363	360	359	354	357	359	367	370	373	370	367	361	359	359	364	364	362	363	359	361	362	360	361	354	355	355	355	353	353	356	356	358	357	360	361	365	366	367	365	363	363	360	359	360	365	363	364	363	354	349	348	353	356	351	354	355	355	356	358	362	362	356	355	351	350	349	347	351	353	358	363	365	367	364	360	362	366	368	360	360	360	365	367	369	369	373	372	362	348	346	349	360	362	352	376	382	379	371	371	365	361	355	352	355	355	350	351	354	352	351	344	339	344	354	366	371	376	379	373	360	352	342	341	345	355	355	355	355	356	357	355	355	358	356	344	343	332	330	330	340	344	346	345	343	343	343	336	336	332	334	328	330	338	352	342	334	330	336	336	338	342	337	337	341	347	350	349	342	334	335	339	341	344	346	350	351	349	346	351	350	350	350	339	341	346	346	345	345	347	345	345	340	337	336	338	337	336	336	335	337	335	338	339	338	334	334	336	334	333	335	330	324	322	323	325	327	322	322	321	322	322	327	320	323	325	330	325	326	330	320	312	312	314	318	325	318	322	323	320	320	307	308	309	311	311	310	312	315	319	321	322	321	320	319	319	319	316	313	311	314	315	313	321	325	327	316	316	313	315	317	322	325	324	320	315	310	310	315	320	321	320	311	311	318	319	319	320	317	317	319	323	321	318	317	317	313	316	324	327	327	320	319	319	318	315	315	315	318	318	316	316	320	320	323	319	321	320	318	318	311	311	311	311	304	306	306	317	311	310	310	309	307	307	313	308	314	317	315	315	315	314	312	314	319	314	314	307	304	301	312	313	313	313	310	309	316	319	319	319	316	318	322	323	323	324	325	322	319	315	315	309
333	338	341	352	350	350	342	336	338	344	348	348	342	334	336	341	344	344	338	337	335	336	337	340	340	342	341	324	323	329	333	333	336	346	346	342	338	335	335	329	334	334	334	335	333	333	335	339	341	341	338	336	335	334	331	325	323	333	332	333	333	332	331	333	335	332	327	327	333	333	340	346	342	335	325	332	319	319	321	327	330	335	338	336	338	340	331	331	329	326	325	326	326	323	324	329	333	333	336	336	335	335	339	338	331	331	328	328	323	319	318	326	331	329	327	327	331	334	338	338	338	335	331	327	327	331	335	334	330	331	321	322	322	322	317	317	320	330	346	348	344	341	335	329	325	326	326	336	333	332	334	338	342	338	337	335	338	339	339	340	339	343	343	337	333	346	349	351	348	342	344	346	355	352	353	356	363	360	356	355	357	361	361	365	369	368	362	362	367	363	359	355	357	356	355	355	347	348	352	372	373	370	367	363	362	359	357	359	359	367	368	360	351	355	353	351	348	349	352	355	355	351	351	351	353	355	356	358	356	352	348	345	348	352	350	342	343	343	348	350	347	347	349	351	346	346	344	349	353	357	356	364	364	362	362	364	364	359	358	360	360	362	358	355	354	354	354	355	360	363	360	359	354	357	358	365	371	372	371	367	358	356	356	359	359	358	356	359	362	365	356	355	353	353	353	354	355	350	352	356	356	356	357	357	361	362	362	361	358	359	361	367	370	368	364	363	363	359	353	355	354	359	350	352	355	354	356	357	361	363	361	354	351	353	354	350	348	353	352	352	358	354	353	349	351	355	356	352	352	344	350	353	353	350	354	360	356	348	346	349	360	362	352	356	365	360	353	352	348	347	357	352	345	349	347	347	351	351	351	343	339	336	345	355	360	364	366	358	346	342	336	342	342	340	339	339	345	348	359	350	343	345	343	341	338	330	328	332	341	344	345	347	344	344	344	341	336	336	330	335	335	332	338	334	334	327	327	336	338	337	338	336	334	343	345	343	334	333	334	339	341	344	349	350	349	349	349	349	348	348	348	345	342	345	346	345	345	344	344	341	341	335	335	334	334	332	330	322	337	337	335	337	336	334	332	333	332	333	332	327	322	322	322	325	325	325	321	321	319	319	327	323	326	327	329	326	323	325	324	312	312	314	318	323	324	323	320	319	316	311	311	312	312	310	306	311	315	318	319	319	320	320	322	322	322	320	319	319	318	315	313	318	324	323	321	321	319	318	318	320	324	324	320	317	312	312	311	315	316	308	306	306	306	307	307	320	317	317	314	315	321	317	316	316	311	317	318	322	326	319	318	318	320	314	313	307	312	309	313	316	320	315	322	324	322	321	321	318	312	310	310	304	305	307	307	316	311	309	309	308	309	307	313	315	316	317	316	316	316	313	311	309	310	312	312	313	316	316	318	314	314	316	310	309	305	307	307	310	311	303	303	308	308	319	320	319	319	313	313	308
330	327	329	330	338	338	335	330	333	344	348	332	331	332	333	336	336	338	338	337	335	332	331	334	334	336	331	327	326	327	333	333	338	340	342	338	335	327	327	327	337	338	335	335	331	331	330	334	338	338	337	335	334	334	326	323	324	335	336	329	327	327	326	328	333	336	338	338	334	334	331	330	336	330	326	320	319	321	320	326	330	334	336	337	334	337	338	338	329	327	326	326	321	317	318	324	332	332	340	338	338	336	339	338	332	330	330	323	323	319	320	327	332	331	330	331	334	337	339	339	337	333	327	321	322	324	330	333	336	325	321	322	321	321	322	323	321	323	334	337	335	330	330	328	327	328	330	330	327	328	337	334	333	332	328	328	327	332	334	334	333	336	337	337	333	346	332	338	342	349	349	350	350	346	355	356	355	351	353	354	355	358	358	362	365	366	367	362	359	355	353	352	354	355	354	353	352	354	355	357	362	364	361	360	359	357	357	349	351	354	357	355	353	348	347	349	350	351	352	353	352	349	350	350	351	355	355	356	352	347	344	343	343	344	344	341	345	345	343	350	349	347	350	353	349	341	340	342	347	354	357	353	357	363	362	362	358	358	359	361	359	361	357	356	353	351	353	355	359	362	358	357	356	359	358	365	371	372	371	367	358	356	356	356	358	358	359	361	365	361	355	345	345	351	354	355	355	353	349	352	354	353	353	354	358	354	354	354	354	349	350	354	351	358	359	363	365	364	361	359	357	363	368	371	370	366	365	365	366	365	364	365	362	361	354	350	347	353	353	353	352	349	347	348	354	352	346	346	340	336	332	353	353	350	354	360	356	346	344	344	351	348	345	344	355	358	356	347	350	359	363	353	346	347	344	349	350	351	350	349	343	339	340	348	353	354	353	352	350	346	353	350	337	353	353	340	338	340	349	343	342	338	342	340	338	331	330	332	338	341	344	344	341	343	344	343	340	338	331	332	331	335	333	331	334	327	327	334	333	335	335	338	341	347	349	350	342	337	334	335	342	345	347	346	347	347	340	341	346	346	345	344	341	342	342	344	341	339	338	339	334	334	333	334	333	330	330	322	321	321	328	326	323	324	325	329	330	332	326	324	320	319	322	322	322	322	319	319	318	328	334	330	326	326	328	326	324	322	321	324	312	311	314	321	322	322	320	317	313	310	309	311	311	310	308	314	317	320	320	320	320	317	321	321	321	322	322	324	318	320	322	318	318	315	315	316	317	319	316	316	319	319	317	314	314	314	309	312	305	307	307	305	305	307	307	309	313	316	313	313	311	313	313	313	314	318	315	315	312	311	307	307	314	311	309	308	310	309	313	313	310	315	320	322	322	322	322	321	323	316	313	308	308	308	308	312	315	309	310	308	308	309	309	315	316	316	317	317	316	313	311	310	312	312	314	317	316	314	309	304	314	316	311	311	310	310	310	310	305	302	302	302	302	308	308	309	309	309	313	313
