549	549	554	565	566	566	575	579	579	586	595	595	587	576	564	563	568	568	569	562	559	555	554	554	553	571	573	562	564	559	559	559	553	546	550	552	552	549	543	547	547	563	577	577	579	577	565	558	554	555	555	557	559	559	566	577	581	584	584	587	577	575	576	572	561	555	555	555	559	561	555	544	546	534	534	530	527	539	543	545	553	553	551	551	549	554	549	539	532	547	548	541	541	540	537	534	536	545	554	557	560	566	566	569	559	555	560	561	565	569	569	568	568	561	554	557	558	553	549	555	558	549	553	553	551	548	553	552	544	539	542	549	556	562	562	553	553	538	538	535	533	537	544	545	542	546	553	557	559	559	561	556	550	553	555	560	564	568	565	558	558	555	559	564	564	570	567	551	551	547	547	551	564	574	582	578	567	558	556	565	564	564	560	555	553	549	546	547	549	554	561	567	572	570	565	563	564	565	564	559	564	564	572	571	566	568	564	560	565	572	578	582	582	575	564	562	566	564	559	554	553	556	567	569	566	566	558	552	546	560	568	569	560	563	574	575	574	562	555	554	551	549	544	538	529	534	545	556	557	556	547	546	547	551	563	570	570	571	574	572	574	576	584	589	589	582	569	563	565	567	569	563	561	565	568	571	578	581	570	559	561	565	574	567	563	565	573	573	562	544	544	548	552	551	551	556	555	559	563	570	579	579	574	558	556	556	556	555	556	560	554	546	537	532	532	550	560	563	563	558	558	557	557	558	562	564	564	564	562	564	568	571	573	571	571	564	562	556	556	560	569	569	565	556	552	555	550	547	550	558	568	570	570	569	559	559	564	565	563	569	567	557	550	556	580	589	581	567	562	559	559	549	541	541	544	553	553	559	556	558	564	563	559	558	557	560	560	559	552	546	548	552	559	560	558	552	551	551	552	551	556	572	585	592	591	581	581	564	562	562	566	570	567	558	550	543	538	559	558	559	562	565	561	561	558	557	559	556	554	552	552	555	559	550	549	550	556	557	551	541	540	543	546	547	544	542	543	547	547	546	546	543	541	536	534	554	555	551	550	539	533	534	548	552	560	556	552	552	550	544	539	537	542	539	530	522	522	528	537	541	549	551	551	554	556	555	550	546	546	541	536	528	532	532	537	538	538	542	544	544	541	536	530	531	531	536	547	548	548	551	542	538	532	533	532	532	539	538	539	539	540	541	547	553	559	559	556	548	541	545	545	544	552	558	547	545	549	555	553	553	547	538	534	527	531	533	538	550	556	556	549	539	532	528	529	536	545	545	544	532	533	535	537	540	548	548	550	553	556	554	549	546	549	549	557	548	548	547	553	557	557	557	550	541	542	547	548	545	545	543	540	536	534	538	546	546	546	541	541	545	552	552	552	551	543	535	531	533	533	529	527	529	529	529	529	539	543	529	515	507	507	507	513	535	536	537	537	523	513	513	515	512	512	510	507	510	517	531	531	536
551	556	559	565	566	570	568	574	580	589	593	593	591	570	551	552	559	559	562	562	559	555	559	559	559	568	564	548	541	543	543	541	542	544	552	548	541	541	543	547	583	572	561	562	562	564	568	566	562	563	563	563	558	555	563	570	576	584	584	568	566	563	566	563	551	550	550	555	559	555	539	535	530	528	528	527	533	539	543	557	556	552	543	543	543	549	551	535	535	536	532	532	532	536	539	542	548	554	554	557	555	555	555	549	544	546	547	547	555	556	560	557	554	554	554	557	560	559	553	548	550	549	553	549	549	543	538	532	531	534	535	541	550	557	560	550	550	548	544	536	531	538	542	537	541	544	551	557	559	552	552	552	552	555	557	558	562	566	568	566	560	559	556	559	559	559	545	543	545	549	552	560	570	571	558	568	565	558	556	559	559	553	553	549	545	541	538	539	543	549	556	560	561	558	553	554	560	563	562	563	562	565	565	560	554	553	553	558	563	570	575	578	577	572	564	562	566	568	564	558	555	558	562	559	554	540	540	540	551	560	567	569	565	567	568	572	570	565	557	559	565	560	558	550	542	537	542	552	556	558	547	546	546	547	554	558	558	560	558	565	570	574	572	566	566	559	557	551	554	555	561	559	557	562	567	568	576	581	570	559	561	565	574	567	563	565	562	571	557	547	541	546	549	549	549	551	561	561	567	571	578	575	556	546	551	556	556	556	557	556	549	541	532	527	528	550	555	555	550	551	553	556	556	558	562	564	564	565	566	566	568	572	572	575	574	573	569	569	566	564	570	572	568	560	555	552	550	547	550	558	568	570	570	569	556	552	557	554	557	560	560	553	544	545	564	576	579	570	561	562	556	545	540	537	541	547	547	548	553	556	562	559	557	554	554	555	558	557	553	550	547	548	552	556	558	554	550	546	544	543	544	556	571	588	588	580	580	564	559	561	564	565	559	556	550	543	538	545	555	558	558	560	568	561	554	557	556	554	555	553	553	552	550	550	550	555	562	561	564	561	558	559	551	547	539	536	537	541	543	545	545	541	541	536	534	533	539	541	544	540	531	536	541	546	542	546	549	549	556	555	544	544	546	546	537	523	518	537	539	543	549	550	551	554	554	548	544	535	532	528	526	530	539	538	538	538	536	536	539	538	535	526	523	524	529	535	542	546	548	551	544	535	529	530	532	535	535	532	531	531	531	535	541	545	549	552	551	547	542	542	540	544	552	555	551	548	554	552	545	545	535	531	524	523	527	530	533	538	538	545	538	532	532	528	527	534	541	541	540	528	534	545	546	547	549	549	552	552	555	552	537	538	549	549	545	542	542	541	541	544	544	542	539	540	541	545	543	538	538	532	533	536	534	538	541	541	547	546	543	547	553	553	555	551	548	539	538	537	537	529	527	528	530	540	540	552	545	533	518	512	512	514	521	535	546	546	537	523	526	524	521	515	515	512	507	509	514	514	516	515
561	562	566	565	570	568	568	548	557	567	584	584	582	565	546	540	550	554	554	556	557	559	559	559	559	561	549	544	542	540	540	542	540	548	538	538	540	540	572	583	583	572	559	558	558	558	558	557	562	562	565	565	562	565	557	560	566	572	568	568	566	555	552	549	541	545	547	547	543	539	534	529	529	530	532	532	539	543	548	557	556	538	535	537	537	544	543	532	530	529	531	535	540	540	547	552	559	566	563	561	555	555	550	550	549	545	544	542	546	548	547	547	543	543	540	537	536	539	546	545	544	543	548	549	549	536	529	527	525	528	535	539	548	552	550	546	549	549	547	538	536	542	539	538	542	548	548	553	553	552	552	558	561	559	558	558	563	569	572	567	560	550	549	549	547	547	543	543	547	550	552	556	566	559	550	548	559	556	557	559	559	553	553	546	542	542	540	540	545	548	551	553	551	544	545	549	560	564	560	558	554	553	553	550	548	546	548	556	558	556	559	568	570	567	563	558	569	568	564	558	555	568	557	545	543	543	543	546	552	556	563	568	567	568	568	567	567	559	555	556	559	555	559	562	558	547	546	549	551	555	550	547	548	550	554	557	558	558	559	566	572	574	568	556	553	551	550	545	546	549	555	557	557	557	560	562	562	559	557	555	556	571	563	552	556	555	562	571	557	547	541	546	549	549	551	551	561	561	566	568	567	558	546	545	551	555	558	550	544	543	540	539	531	526	534	544	534	530	537	543	550	558	558	558	562	565	564	565	567	566	566	560	561	568	574	573	569	569	566	564	570	572	568	560	555	552	550	549	548	549	550	563	566	565	550	547	548	549	552	558	556	555	556	556	559	569	575	572	564	561	553	545	537	537	541	541	548	549	555	555	556	554	555	555	551	552	553	555	555	551	548	547	547	553	559	558	555	549	555	553	553	557	568	580	584	584	579	567	559	557	557	565	559	556	550	543	534	535	546	557	558	558	562	557	553	556	558	555	555	555	552	550	559	566	568	564	561	560	559	555	558	556	549	546	542	536	534	534	539	539	545	541	533	529	529	532	536	541	544	549	535	536	536	534	531	531	531	535	544	555	549	550	552	553	544	533	538	552	552	548	549	549	550	551	548	547	538	531	529	528	533	543	550	551	545	545	539	535	532	534	529	523	519	521	529	532	542	542	546	549	543	538	532	530	533	536	535	533	533	532	535	538	538	542	545	542	543	543	538	542	540	535	535	534	541	544	546	545	545	536	531	524	520	517	517	523	526	530	530	536	538	532	528	526	524	529	529	534	529	529	537	543	544	547	546	546	545	546	547	536	537	538	538	541	543	544	544	538	533	533	533	533	536	537	540	541	539	539	531	532	533	535	534	534	534	539	553	547	547	547	549	549	550	549	551	548	547	538	537	535	534	541	548	551	551	548	545	541	529	525	525	538	549	549	546	546	546	542	543	540	533	533	527	521	524	524	522	522	512	501
563	564	558	560	564	553	553	548	557	548	558	559	559	551	538	537	547	553	553	553	555	558	556	559	559	561	557	553	555	555	550	550	547	544	550	546	559	559	567	570	573	566	559	558	551	552	551	549	546	552	561	564	564	561	552	551	557	560	560	560	556	555	552	541	541	540	539	539	538	534	531	525	525	531	534	534	540	545	551	551	549	538	535	529	529	532	531	530	527	521	528	538	547	547	555	561	570	572	569	558	554	552	550	550	550	548	546	546	544	535	534	534	534	529	529	524	523	529	538	541	541	544	549	546	536	536	529	527	521	530	541	539	533	531	533	539	545	545	549	551	548	547	544	545	552	556	558	558	553	555	558	558	561	559	559	560	567	572	573	566	553	541	538	544	543	541	541	538	543	550	556	555	558	555	549	549	548	559	561	566	562	553	546	546	544	544	549	551	551	550	548	546	549	543	543	550	555	556	553	549	545	543	543	543	539	541	547	556	556	552	552	557	561	557	552	559	561	565	562	563	568	568	557	545	541	545	550	550	553	553	554	562	567	568	565	557	555	552	547	557	556	544	546	564	559	546	542	546	550	552	553	551	548	550	552	559	564	564	566	565	565	567	559	547	545	551	549	544	544	546	550	554	554	556	550	555	565	574	569	549	553	554	545	546	544	550	556	566	559	547	545	544	548	552	559	559	564	567	566	568	567	558	546	545	551	555	558	550	544	543	540	539	531	526	534	544	534	530	537	543	550	558	558	558	562	565	564	565	567	566	566	560	561	568	568	566	563	563	564	567	567	569	570	563	562	559	557	553	551	548	535	549	558	560	547	541	539	547	552	554	557	555	555	559	563	564	565	567	559	559	555	540	534	541	553	553	555	554	553	556	555	552	550	552	551	548	547	549	552	549	549	551	546	553	559	564	563	562	561	560	558	558	567	573	573	573	572	567	559	557	557	555	552	551	544	530	526	533	550	556	556	551	546	549	550	557	557	555	555	555	550	554	560	566	563	560	555	552	548	549	544	545	547	547	545	537	533	534	539	539	542	532	525	523	528	532	534	538	542	544	532	534	531	527	521	524	524	527	537	545	550	555	557	556	549	553	552	553	552	548	543	543	543	541	535	535	540	532	530	530	541	552	557	552	552	549	540	533	529	530	529	525	520	519	529	532	539	539	544	546	543	539	534	535	536	540	536	533	533	533	535	533	536	536	537	537	538	543	543	538	526	520	521	529	530	534	539	538	538	530	527	525	520	519	516	521	524	524	530	536	535	529	527	529	532	536	536	537	532	529	534	540	538	538	538	538	539	541	547	536	533	531	531	540	542	543	544	538	531	526	526	526	530	537	544	550	546	539	531	530	531	537	539	543	543	546	539	540	539	538	535	535	533	529	525	548	547	547	550	546	538	538	538	538	537	536	534	531	525	525	531	540	549	549	552	552	558	557	554	548	539	539	535	526	530	536	539	539	526	501
559	554	556	566	567	558	558	540	543	548	558	548	548	556	547	535	545	546	546	547	553	555	562	562	555	555	557	553	562	564	558	558	554	555	556	558	566	562	562	562	557	550	550	551	552	552	547	546	539	541	546	554	554	553	551	548	550	559	558	552	552	548	543	541	541	535	535	535	531	531	529	523	518	517	530	534	534	541	546	546	542	530	526	529	529	527	531	530	526	521	519	535	544	555	555	563	571	573	566	557	550	551	549	550	550	548	546	542	535	528	522	526	526	522	522	517	510	511	519	534	539	544	549	552	544	544	528	522	521	530	546	532	525	523	525	531	539	543	543	545	547	549	548	550	554	557	562	561	556	559	561	561	562	561	559	560	556	569	573	561	540	530	529	536	534	524	524	524	530	541	542	539	536	541	544	547	556	560	564	564	560	552	546	546	544	544	549	564	552	549	547	549	553	556	554	534	527	531	539	537	534	537	541	541	546	552	558	564	567	557	546	545	545	547	551	553	556	554	555	556	559	564	558	548	541	545	550	553	555	553	551	555	557	554	546	550	550	547	549	558	558	549	550	562	556	545	537	539	544	554	557	554	549	544	547	556	560	560	563	559	555	552	544	543	544	543	546	547	549	549	549	548	552	557	558	564	579	583	573	554	541	540	543	544	545	550	554	559	558	551	545	541	543	553	564	564	567	568	569	563	552	551	550	555	559	560	552	543	539	537	545	550	548	539	534	533	526	526	533	538	549	555	559	559	559	560	559	562	564	564	560	556	552	556	557	559	564	564	563	563	562	563	563	565	562	565	561	556	551	545	531	537	546	547	542	535	537	547	556	559	557	552	552	554	558	557	554	554	556	555	549	537	535	554	554	562	556	552	555	554	553	550	549	547	544	542	541	540	543	544	549	555	556	554	555	559	561	561	567	566	556	554	557	559	573	573	572	560	548	544	543	548	559	557	540	527	524	531	548	553	554	548	548	549	551	557	557	554	554	549	549	554	559	560	554	550	545	533	525	525	527	531	536	537	545	537	533	530	530	532	528	524	520	519	527	532	533	535	538	533	527	527	527	523	520	520	523	529	532	536	539	540	542	548	544	553	552	553	548	545	545	546	546	542	535	534	540	543	548	551	550	552	552	547	547	545	540	533	527	527	529	530	520	519	522	528	528	536	538	535	532	533	535	540	540	543	538	538	537	536	532	530	529	531	532	537	538	533	533	527	520	520	519	526	528	532	536	535	535	530	529	528	529	526	522	523	522	524	530	530	527	528	530	533	538	542	542	542	536	529	533	535	532	534	534	538	539	541	543	542	531	534	534	533	534	534	537	536	530	530	528	525	526	535	542	550	550	546	531	529	535	546	542	542	537	529	525	527	529	528	528	534	539	529	525	529	538	538	546	544	534	524	522	522	521	519	518	519	513	513	531	540	548	562	553	553	541	528	519	533	529	529	528	524	526	530	530	539	526	501
552	552	553	559	565	554	539	539	526	533	536	548	556	558	565	560	552	541	539	539	545	555	561	564	567	567	567	564	562	564	556	556	557	556	559	565	571	569	569	556	540	535	540	541	543	543	547	546	527	528	527	523	523	531	541	545	549	545	548	548	548	545	541	536	534	535	535	534	534	529	528	522	517	517	528	536	536	539	545	548	543	535	530	527	527	527	531	533	530	523	520	523	530	540	540	540	557	564	558	555	547	546	546	547	547	547	546	542	528	524	526	531	534	529	529	515	499	499	511	521	536	543	550	551	548	535	535	530	533	547	546	532	536	536	536	535	534	536	536	540	543	548	552	554	558	561	562	561	568	570	572	570	570	564	560	557	556	569	557	547	534	527	533	538	532	509	509	509	525	539	538	528	528	531	534	541	549	555	557	550	546	546	546	549	549	552	562	564	552	549	551	556	561	568	546	532	523	521	522	528	532	538	543	550	550	552	559	568	566	560	544	535	534	545	555	554	554	546	546	549	555	557	554	546	541	541	549	555	555	553	551	560	546	538	540	549	548	544	548	551	557	557	556	553	554	542	540	541	551	558	558	554	553	546	545	550	556	560	560	549	537	535	543	554	550	542	536	539	549	549	544	542	550	556	561	569	579	579	570	552	543	550	550	547	542	545	548	553	557	554	550	547	546	550	560	560	562	555	556	552	542	539	539	544	546	543	547	541	540	538	547	550	548	546	536	534	530	530	531	535	546	556	560	562	563	557	555	557	558	561	554	555	553	550	551	562	565	565	564	558	556	554	554	557	564	567	563	550	544	537	530	533	540	544	545	539	540	550	558	560	557	550	547	548	549	553	550	552	553	549	540	536	539	559	559	555	552	549	552	550	548	545	542	541	540	537	535	534	534	540	547	552	558	551	546	549	553	553	553	549	556	554	557	557	559	556	554	552	550	550	553	566	563	549	536	528	527	536	543	548	547	548	547	549	549	552	548	547	547	547	550	553	555	550	538	534	519	515	514	516	520	527	536	537	543	537	526	522	522	517	517	517	518	520	524	528	531	526	526	524	517	523	525	525	527	527	531	535	538	535	531	528	530	548	544	549	553	551	545	540	540	541	541	541	535	532	538	546	553	556	552	547	544	544	541	540	537	531	522	521	529	530	528	526	523	522	522	527	530	524	521	515	527	535	536	531	523	523	520	523	525	533	530	531	532	528	523	523	528	531	526	523	521	528	532	538	537	537	536	534	531	533	532	529	526	523	523	522	524	524	524	528	532	535	540	540	543	541	535	530	525	528	529	529	533	538	541	539	537	535	534	534	533	529	528	528	530	531	529	529	527	527	526	535	542	542	542	531	524	523	527	531	526	526	523	525	524	527	527	531	531	534	539	536	532	524	524	521	527	533	530	520	517	517	518	514	517	510	513	513	510	516	531	543	541	541	525	514	510	504	504	508	511	516	518	530	530	533	531	518
554	554	551	555	560	553	540	540	528	529	536	548	558	558	565	567	559	551	542	542	544	546	551	557	566	566	571	563	559	559	556	557	550	552	560	559	559	552	540	540	533	529	527	531	535	531	531	529	527	528	520	524	532	532	538	542	538	534	537	541	541	543	539	531	527	530	536	534	534	538	534	525	522	524	530	538	546	546	551	557	549	542	536	530	532	532	532	533	530	527	522	523	522	520	520	520	536	548	552	550	544	542	539	540	540	540	536	531	528	524	528	538	537	530	524	524	509	505	505	512	529	536	535	529	522	524	524	527	540	542	535	537	536	536	533	533	531	529	534	534	542	551	557	562	563	560	557	551	549	551	556	559	559	555	553	553	554	555	557	547	534	541	538	541	522	514	513	513	521	528	528	527	535	542	543	548	551	560	566	560	550	543	539	541	550	550	559	560	552	550	551	556	565	557	546	541	532	531	527	527	533	541	550	554	549	549	552	550	538	542	542	537	536	549	554	549	536	542	545	547	550	554	551	541	534	534	550	565	573	573	573	560	546	538	540	536	540	539	537	544	545	548	552	551	549	539	538	544	552	555	557	554	549	545	543	544	553	552	552	538	527	531	540	545	545	540	534	537	544	550	536	531	541	550	552	557	552	551	548	547	543	550	550	546	533	536	542	553	562	566	566	562	556	558	552	552	543	536	534	534	531	534	536	533	538	543	544	540	538	539	543	548	548	543	540	537	546	547	538	540	546	553	559	559	556	554	553	550	552	554	551	550	554	555	558	563	563	565	564	555	549	547	545	549	554	564	557	542	540	539	536	536	542	549	548	546	540	550	558	560	556	547	542	544	544	546	549	554	551	544	540	540	542	542	558	556	552	546	542	541	543	539	537	537	535	532	528	532	537	533	537	546	546	543	536	540	553	553	553	549	544	542	543	543	548	546	544	548	551	554	555	558	557	546	535	526	532	538	543	544	542	542	542	545	549	545	543	543	542	543	548	552	552	538	524	519	514	515	516	516	520	527	535	536	547	548	544	544	535	521	516	517	523	525	526	528	527	523	521	519	510	517	521	524	524	531	539	545	544	538	537	528	530	529	536	548	550	552	546	546	541	536	536	534	532	535	540	545	551	556	552	548	538	538	532	536	538	531	522	521	525	531	534	531	525	525	517	520	523	520	511	510	514	529	527	523	523	515	512	518	531	533	530	527	523	521	521	521	524	531	526	522	522	529	534	535	530	530	532	531	528	529	530	529	526	522	522	521	521	520	522	525	530	535	537	537	539	538	534	530	528	526	526	529	533	535	541	543	541	534	534	534	533	527	522	523	522	521	521	527	528	527	526	531	533	527	527	521	518	519	519	523	522	522	519	520	518	521	526	527	531	539	543	538	533	526	526	523	521	527	529	529	529	524	522	517	517	510	510	504	500	509	520	533	533	535	522	506	503	504	504	509	509	516	518	519	519	516	514	517
565	553	553	545	548	555	549	549	537	532	539	549	560	560	568	567	553	554	550	550	551	547	543	551	560	565	565	563	554	550	549	550	550	552	544	544	540	531	527	527	523	522	523	528	525	521	521	516	516	512	520	524	526	526	534	537	535	533	532	532	534	534	531	529	523	548	547	541	538	538	534	535	529	528	529	538	547	547	555	554	547	544	539	530	531	528	528	531	531	527	522	527	526	522	523	523	531	542	546	540	538	533	530	523	518	518	516	516	516	520	528	538	532	527	527	527	522	515	510	513	520	521	516	515	525	535	540	540	535	533	535	535	535	533	533	533	526	524	529	529	542	556	564	563	561	547	525	517	521	539	549	554	553	553	554	554	557	561	560	551	544	541	538	537	528	528	531	533	533	533	530	534	538	537	538	543	553	558	559	561	559	549	545	547	550	550	556	557	544	545	554	561	565	557	546	543	539	537	537	538	540	544	554	553	549	549	540	532	527	533	534	541	545	549	547	533	538	542	548	552	550	555	552	545	538	538	551	559	565	565	564	545	537	531	531	536	540	539	537	537	538	544	543	547	546	544	543	545	549	547	546	549	548	543	543	544	549	547	540	540	536	537	542	536	540	539	542	544	545	550	546	526	522	533	545	548	545	546	547	550	549	550	547	538	522	525	537	555	564	568	573	571	558	553	550	550	550	552	544	539	538	540	539	539	544	547	548	539	534	533	541	548	548	544	540	541	549	551	550	547	546	550	554	554	550	549	545	546	550	551	551	550	552	554	559	564	564	561	558	549	544	540	540	543	548	548	540	534	532	538	543	543	541	542	542	541	532	526	529	532	530	528	534	534	535	535	542	549	552	555	553	550	546	546	553	552	549	542	539	538	537	533	532	533	532	530	531	531	531	525	534	541	546	543	536	540	545	548	547	541	540	539	539	535	534	534	535	538	546	550	546	548	546	540	535	528	530	539	542	543	539	536	537	544	546	546	546	542	537	541	553	555	543	531	525	520	514	515	516	521	530	538	540	542	546	549	549	547	544	533	525	524	530	531	530	529	525	521	519	518	517	502	506	517	517	526	536	540	544	538	537	534	531	529	531	539	550	555	547	547	538	532	530	529	532	536	540	542	543	546	550	543	543	525	520	536	538	531	517	515	523	533	537	536	532	532	523	519	525	522	514	513	521	527	528	522	522	519	519	518	531	536	536	528	523	523	523	523	526	530	527	523	523	529	531	529	529	525	529	528	525	529	530	530	531	522	522	519	516	520	522	523	525	524	524	526	531	535	538	531	525	526	526	526	527	527	532	537	532	532	532	530	537	530	525	524	515	511	511	515	528	524	526	527	525	525	521	519	519	517	513	519	519	520	516	515	512	521	526	526	532	538	543	537	529	529	525	523	523	522	527	534	534	534	529	517	515	503	503	498	498	504	515	529	529	532	524	515	508	511	511	509	509	508	502	502	500	500	503	507
565	553	554	543	542	554	553	549	549	541	533	528	543	559	559	556	553	554	558	553	553	549	541	545	550	553	553	553	548	546	542	543	543	543	544	544	540	532	522	522	518	517	523	527	519	515	515	507	508	513	514	523	526	532	532	540	539	532	523	523	524	524	525	526	539	558	546	542	539	539	534	535	532	528	529	531	541	541	547	544	541	536	535	532	527	521	521	517	519	524	528	527	526	519	519	529	529	538	542	538	530	521	512	508	508	508	511	519	522	527	537	536	532	527	527	528	528	520	518	518	514	511	513	531	537	542	540	540	536	534	536	536	535	529	529	528	526	524	530	541	541	558	565	564	557	544	527	525	528	536	539	543	543	543	548	552	561	565	562	550	547	549	547	537	528	531	531	528	528	530	530	531	533	529	528	526	530	533	539	544	544	541	542	549	552	552	552	546	536	540	546	550	554	549	545	543	539	537	533	544	549	548	552	550	543	532	532	524	525	531	540	543	547	547	543	538	542	550	554	553	547	552	554	548	543	542	548	544	545	543	543	530	527	527	526	531	536	533	533	537	538	544	543	541	546	549	546	549	545	542	542	546	548	545	544	546	544	543	540	540	539	539	542	544	536	538	547	549	547	545	543	539	532	537	545	550	547	550	552	551	551	549	538	521	517	519	524	543	562	567	562	557	548	546	547	550	550	560	558	545	543	535	531	537	546	549	546	541	535	538	544	551	551	546	538	540	548	548	546	544	546	550	551	552	550	546	547	551	550	546	542	540	542	549	557	559	559	555	549	543	539	538	537	540	542	538	532	529	527	530	546	549	545	542	540	538	532	523	516	519	528	533	534	533	530	532	535	539	538	536	534	542	542	542	549	549	545	542	538	535	533	528	527	530	530	529	533	530	531	525	534	541	539	535	528	528	529	537	541	538	535	535	535	533	530	527	528	529	535	541	542	532	533	532	530	529	532	541	546	544	543	536	536	544	551	551	551	546	537	535	536	544	542	531	525	520	520	520	526	533	539	544	547	544	540	548	548	550	546	538	535	530	532	532	528	526	522	518	518	517	516	511	504	504	509	517	536	540	539	539	539	538	534	530	528	527	541	541	541	536	531	528	526	526	531	537	539	539	539	538	535	532	532	525	520	519	525	525	519	522	527	532	529	522	522	521	522	524	524	521	520	518	527	532	532	532	530	519	519	522	531	534	532	529	527	529	529	531	530	527	522	521	524	528	526	524	524	525	525	528	525	523	526	530	525	525	518	513	512	519	526	525	522	524	524	526	531	531	529	531	525	523	523	521	520	520	519	525	525	522	522	529	537	534	527	515	511	510	511	515	522	516	517	520	521	521	521	521	527	525	521	518	518	514	512	511	512	515	518	518	523	533	534	529	523	523	522	521	519	518	522	522	533	534	529	519	511	501	501	497	496	509	520	520	531	531	527	521	516	508	511	511	511	505	500	500	496	494	498	504
570	554	554	543	538	553	556	545	545	538	530	521	525	535	535	546	551	556	558	553	554	547	535	530	536	547	547	547	546	538	538	540	544	544	542	544	540	538	527	518	518	515	517	516	514	512	511	511	511	513	516	520	526	532	532	537	533	531	520	514	518	521	521	538	555	552	541	538	535	533	533	532	532	528	521	523	534	537	537	537	533	532	532	530	521	515	507	507	511	516	527	532	528	519	519	523	523	533	540	535	525	519	508	504	501	504	504	515	518	523	529	533	528	523	527	528	518	527	528	523	510	512	528	531	531	533	534	534	534	535	536	538	534	530	523	525	524	523	530	541	541	553	559	559	548	528	525	529	533	534	529	527	525	527	527	533	543	543	538	527	523	528	536	535	532	531	531	528	521	521	526	530	535	530	527	525	520	522	526	538	541	539	547	540	538	541	541	534	529	531	540	541	542	545	541	536	531	530	533	544	549	547	548	543	535	527	527	521	525	535	546	549	548	544	544	541	546	552	553	549	545	550	550	548	544	545	545	539	531	525	525	527	530	532	533	534	535	534	533	532	533	539	541	541	546	549	546	549	542	538	538	543	546	548	550	545	543	537	541	540	540	541	540	541	534	538	549	548	544	542	542	541	541	541	545	546	542	548	554	555	550	544	538	525	520	522	523	537	554	554	550	540	540	540	544	547	547	554	559	556	542	533	531	538	543	545	540	537	533	536	542	547	546	542	537	540	550	543	542	543	544	541	540	535	539	547	553	552	544	534	527	524	533	546	553	559	559	551	542	539	536	536	534	539	539	537	530	526	526	525	540	544	544	539	538	538	532	525	519	523	522	528	531	530	533	534	537	537	538	534	529	533	533	537	542	541	540	536	538	536	532	528	526	526	530	529	533	530	525	525	532	538	538	533	527	524	527	530	529	533	531	531	532	533	529	523	524	525	532	534	532	533	526	527	528	530	530	536	542	545	544	541	534	537	548	548	553	550	536	527	536	544	542	534	533	530	529	535	538	536	538	540	542	544	544	544	542	541	544	541	534	529	528	525	523	520	517	515	517	516	513	510	510	504	509	517	523	531	532	537	541	542	533	528	527	525	530	531	531	530	521	518	519	520	523	527	534	537	539	533	530	535	532	534	532	520	516	523	535	545	552	550	531	521	521	518	524	523	520	519	518	522	530	534	533	532	530	525	525	523	522	523	523	524	523	530	530	529	526	520	519	516	522	524	523	523	518	525	525	524	524	523	524	525	523	523	516	506	501	502	509	524	529	529	529	516	504	531	529	527	527	526	526	522	518	513	513	516	517	521	521	525	529	533	533	519	511	511	510	513	516	519	522	524	524	522	521	523	531	534	527	527	519	516	512	511	514	520	520	520	523	520	519	517	518	518	524	524	522	516	516	522	533	536	533	526	514	514	505	508	513	520	526	526	530	527	522	521	516	516	512	510	504	502	502	497	499	498	500	508
566	549	539	539	538	553	552	539	539	530	519	515	519	530	530	537	548	556	558	554	554	547	533	526	532	541	549	549	544	539	539	541	542	542	544	541	543	538	527	519	519	511	510	507	506	507	510	510	513	516	521	525	527	532	532	537	533	523	522	520	533	542	542	551	544	535	528	528	530	528	528	527	527	523	521	523	528	530	530	526	529	528	529	526	518	511	512	512	512	525	536	531	515	510	513	523	523	534	537	534	526	517	504	498	497	497	497	499	506	513	516	521	519	516	513	518	527	527	528	519	513	531	531	523	521	525	530	534	534	532	536	537	535	532	527	519	520	520	525	537	553	553	559	549	532	522	526	530	535	537	530	523	515	518	518	527	534	538	528	520	522	527	531	528	528	526	528	526	521	521	527	531	532	533	529	520	513	518	514	514	511	507	507	516	524	532	527	527	523	521	521	527	536	540	538	532	524	521	527	536	546	547	548	543	530	525	523	523	527	544	553	555	553	547	544	546	548	550	549	546	546	550	551	549	546	539	541	542	542	533	532	532	537	545	546	540	536	535	531	531	533	534	537	539	548	552	551	547	542	538	538	543	546	545	544	540	541	538	535	536	536	538	535	520	530	539	543	543	543	539	542	542	538	540	542	535	534	535	539	550	545	541	533	529	527	526	531	535	548	547	538	537	535	536	540	542	542	543	544	544	542	541	540	538	539	537	533	529	529	534	537	541	543	539	540	544	543	540	537	536	538	542	543	546	550	549	550	546	539	531	526	524	522	532	549	555	555	548	536	528	533	536	533	535	534	532	528	526	524	521	530	535	538	538	536	538	531	529	526	528	525	520	522	529	531	531	536	540	540	535	527	527	526	530	535	537	533	528	529	536	532	528	526	526	530	533	532	528	526	528	533	535	535	530	526	526	532	533	532	533	536	536	536	532	530	526	526	525	532	529	531	528	526	526	530	527	528	534	539	546	548	538	528	530	539	539	542	550	536	527	525	527	530	533	536	536	537	539	537	531	532	530	532	530	531	531	530	532	535	536	535	531	525	523	518	515	513	518	523	517	514	510	510	510	507	506	519	523	529	535	538	536	525	525	526	526	529	529	530	525	520	514	513	512	515	521	530	535	531	533	530	530	533	537	537	536	529	525	527	529	532	535	531	531	523	517	523	525	519	516	515	516	530	534	534	533	530	525	522	519	520	521	521	518	516	516	514	525	521	515	513	510	509	501	498	523	518	514	517	525	525	525	521	515	515	510	506	501	499	501	506	505	511	511	511	516	504	498	515	525	524	524	523	521	518	516	513	512	514	514	518	523	526	528	533	519	522	522	518	516	514	521	526	528	528	525	526	528	532	534	530	530	519	516	515	515	519	520	520	522	525	524	525	519	519	513	511	522	524	516	516	516	529	537	539	528	520	520	515	518	519	526	525	525	523	527	522	512	508	508	508	505	501	498	498	498	502	500	505	515
556	543	534	534	541	549	552	539	523	523	516	517	523	532	541	541	545	548	553	555	546	546	533	526	539	546	551	551	546	537	538	544	544	541	541	540	542	538	528	519	519	515	510	505	502	511	512	518	518	516	522	524	530	527	524	524	524	523	522	515	514	515	515	518	524	534	542	546	545	530	530	520	516	518	513	515	528	530	532	532	525	525	524	516	521	543	555	553	553	547	529	517	514	515	521	530	534	534	537	529	527	517	503	493	490	495	506	506	507	513	522	527	530	528	523	526	536	536	537	519	513	533	533	525	520	523	525	530	531	531	531	535	534	534	535	532	523	518	513	519	539	539	549	549	532	519	523	528	538	540	538	526	519	519	523	523	528	532	529	523	526	531	532	528	523	526	528	531	524	527	527	531	532	537	540	545	547	541	532	519	515	508	514	520	529	528	526	526	522	516	521	528	536	539	540	538	525	523	528	534	540	543	538	530	530	525	523	528	531	545	555	555	551	547	548	548	543	540	535	543	550	550	548	540	531	531	536	543	545	543	542	542	551	555	554	549	538	522	523	530	531	532	532	541	545	545	544	541	537	535	535	538	540	545	544	540	541	538	526	515	513	513	510	519	531	538	541	541	538	539	541	542	535	535	537	537	535	529	528	525	523	524	528	533	532	536	536	538	543	545	541	535	531	533	537	540	540	543	544	545	543	540	540	538	535	530	522	524	526	530	533	535	538	533	536	542	541	536	534	532	536	543	550	550	539	536	534	533	535	538	535	524	519	527	534	534	546	546	530	527	532	534	532	530	529	523	526	529	524	522	524	528	532	532	535	536	534	533	536	531	521	516	513	527	527	523	530	538	536	529	519	519	519	530	535	537	533	528	529	533	529	523	518	522	530	533	532	526	520	525	522	521	524	524	526	528	533	534	535	539	539	539	539	536	529	523	522	529	539	542	536	531	530	531	527	521	520	527	530	531	530	535	524	523	530	539	542	536	531	523	519	515	522	528	529	531	535	535	532	527	514	512	515	517	517	520	523	528	534	538	536	534	528	525	520	516	515	519	523	517	514	514	508	508	506	511	516	523	530	536	535	530	521	520	522	527	528	528	529	528	523	517	514	508	510	520	530	535	531	528	528	532	532	537	539	535	529	526	524	520	517	525	525	525	520	515	521	524	517	512	509	516	530	530	530	526	523	519	513	513	514	515	512	511	505	505	502	505	513	513	509	508	503	501	501	498	501	503	507	505	509	513	510	504	504	501	498	500	506	510	512	508	503	511	511	492	489	500	514	524	522	522	516	516	517	513	512	510	512	512	516	521	526	528	534	532	532	528	523	519	517	518	525	531	531	530	528	525	527	528	530	530	528	523	522	519	522	522	525	527	528	527	525	525	525	516	506	522	524	519	519	517	523	529	530	524	524	520	519	521	524	522	522	525	523	519	512	507	507	503	506	506	507	506	506	508	504	505	513	505
542	542	539	539	541	550	544	532	523	514	514	524	533	540	539	539	537	534	537	545	548	548	537	529	539	546	541	540	540	538	538	534	527	525	525	529	536	538	528	521	515	515	510	504	504	512	522	521	521	522	522	523	525	514	511	511	512	515	514	515	514	510	516	516	521	531	537	541	539	535	532	532	514	511	505	510	521	531	532	532	531	524	520	531	549	556	550	540	540	522	514	512	514	518	526	535	537	537	530	529	527	519	507	490	491	507	520	520	532	534	533	527	518	511	505	508	518	525	525	520	519	533	533	529	526	522	519	515	515	515	518	530	530	534	535	541	539	524	518	516	519	531	531	532	523	519	523	529	535	539	536	529	525	522	520	520	522	527	525	528	535	540	540	530	525	527	532	535	533	530	532	532	536	537	540	545	541	541	541	537	528	521	518	522	526	531	527	524	524	522	523	530	532	535	537	534	529	527	530	530	531	530	527	529	530	530	528	531	531	545	543	546	549	545	548	552	540	533	530	546	548	545	536	534	536	529	535	541	545	545	545	555	555	560	561	555	532	527	528	533	532	533	532	542	541	538	532	530	532	531	533	535	536	534	531	530	534	536	526	515	513	513	510	519	534	535	541	537	535	534	534	538	532	534	536	540	543	539	530	525	526	528	533	539	534	536	537	539	541	537	540	533	530	532	539	542	542	544	544	546	545	540	537	530	531	525	519	524	530	533	533	532	528	530	531	539	536	531	532	531	535	546	552	541	536	538	538	536	530	530	534	533	527	528	531	531	537	532	524	530	530	533	530	523	519	522	526	526	527	528	523	526	526	526	529	532	534	534	533	528	518	510	510	521	521	516	522	533	536	529	519	519	519	522	529	532	532	523	527	532	538	530	520	518	523	532	533	528	520	516	510	511	518	520	526	530	532	534	534	538	538	542	543	541	535	533	530	530	534	536	532	527	526	522	519	513	516	520	523	523	521	535	524	523	523	528	530	531	524	519	520	520	519	520	523	525	527	527	519	513	510	512	507	508	508	513	518	524	531	534	536	535	532	528	523	518	515	519	524	523	517	517	512	509	513	517	522	527	533	535	533	530	519	520	523	527	527	528	531	529	530	530	526	519	510	520	527	519	518	520	520	523	529	537	538	533	529	527	522	522	517	522	522	517	514	511	510	519	513	512	509	510	513	517	517	516	515	518	513	508	505	508	505	497	497	496	497	501	499	499	503	508	503	500	500	499	503	508	511	506	507	509	507	507	502	505	510	515	515	513	515	508	508	503	498	491	491	496	511	504	504	500	498	502	507	506	506	506	506	511	516	521	521	527	534	534	534	526	520	514	513	513	515	515	521	525	522	518	527	528	528	528	523	523	520	517	525	525	528	529	529	521	519	518	518	516	506	511	515	514	514	513	517	523	523	523	523	516	514	512	509	522	522	522	516	515	513	506	506	506	509	512	519	519	517	509	503	505	513	513
540	549	551	554	554	551	541	524	514	514	514	527	536	535	525	525	513	505	502	511	528	534	534	531	534	543	541	540	532	527	524	522	521	522	522	530	534	538	529	523	514	514	507	504	504	513	528	530	530	531	529	525	515	506	506	512	512	521	504	493	498	510	516	516	509	516	526	531	530	526	529	529	530	515	507	512	524	534	537	531	531	524	530	532	538	546	539	528	528	516	511	508	513	523	533	536	528	525	525	524	527	519	507	501	506	521	527	527	527	529	527	521	509	503	500	504	508	518	518	520	527	532	533	529	526	523	520	519	517	512	512	512	526	518	522	513	506	516	518	518	514	519	519	517	512	514	519	529	535	539	536	531	528	524	522	523	523	524	523	528	534	541	541	538	533	535	544	547	538	528	521	521	536	539	537	538	541	541	529	529	525	521	521	521	523	525	527	526	526	521	521	524	527	527	529	528	530	530	528	525	524	525	528	533	538	536	533	530	530	537	543	546	549	545	526	527	531	542	545	541	532	531	532	534	538	536	535	540	538	540	538	544	544	561	561	560	549	535	532	534	536	537	537	537	536	532	529	528	528	531	532	534	527	523	519	519	523	536	538	530	524	524	526	526	534	535	541	537	535	534	522	523	529	534	537	540	540	544	538	533	533	535	538	540	534	528	530	531	532	531	541	537	528	532	543	546	545	545	544	544	546	542	533	524	523	523	525	527	532	535	531	529	526	523	525	527	527	528	532	535	536	541	545	540	534	534	538	532	528	529	532	535	533	531	532	532	531	525	524	528	530	531	525	519	520	520	521	521	524	521	515	522	523	525	526	528	532	533	530	520	513	510	510	521	521	516	522	533	531	522	522	515	517	521	526	534	531	528	527	531	537	537	528	520	524	529	533	530	523	520	516	512	515	521	524	527	524	519	525	525	527	527	532	532	529	528	529	534	537	535	532	530	525	532	534	531	525	522	523	523	521	516	510	510	504	511	517	521	521	522	523	525	524	518	520	517	519	517	511	511	516	518	514	514	511	511	517	522	527	528	529	537	536	528	523	518	517	518	523	526	526	523	517	516	518	527	531	534	531	532	532	529	528	524	521	524	524	524	527	529	524	521	526	519	518	519	515	510	511	511	514	514	521	528	531	527	524	515	518	522	521	517	517	511	507	503	510	519	513	510	507	503	505	505	508	511	516	514	512	504	495	489	486	490	490	494	499	504	504	499	503	505	504	501	501	505	503	505	507	508	507	509	514	514	515	516	513	513	513	513	515	516	516	504	499	498	497	499	507	506	506	504	503	504	507	504	502	507	506	511	516	516	521	525	532	528	528	521	516	514	511	509	506	506	500	499	522	518	519	522	522	522	520	518	516	517	522	522	526	528	512	509	512	519	518	512	506	502	500	502	502	507	517	526	526	527	527	526	525	511	509	514	514	520	521	518	517	517	512	514	517	516	521	521	521	509	503	502	511	511
534	549	560	559	559	553	537	523	518	521	521	527	536	522	520	512	512	504	502	502	504	518	518	524	525	528	527	532	532	527	515	526	526	533	534	534	537	537	531	525	518	507	507	503	507	513	528	536	538	538	533	523	525	525	536	549	549	550	532	531	532	526	516	509	509	529	532	533	538	526	518	527	527	519	506	512	521	531	531	532	532	532	530	532	530	535	537	530	513	513	511	512	522	538	546	538	529	521	521	524	520	515	506	501	506	518	520	520	520	524	524	520	511	502	498	503	508	518	523	523	528	526	527	527	526	523	520	518	515	511	511	510	512	510	515	515	507	513	512	517	515	511	511	511	506	506	510	522	529	536	536	531	528	526	522	523	523	522	520	521	530	536	534	521	520	519	519	519	521	524	525	530	530	520	513	514	524	530	529	529	525	527	526	523	524	526	524	522	520	520	518	515	520	522	525	527	532	530	525	521	520	522	526	532	543	547	543	535	525	525	526	531	533	537	526	527	531	525	529	525	527	534	534	535	537	538	537	536	534	530	532	537	545	545	558	558	552	541	532	533	526	525	536	544	546	537	528	523	528	530	531	527	523	519	515	517	527	531	533	526	526	525	525	528	532	538	540	536	532	526	522	523	529	534	537	540	540	544	537	530	525	530	533	536	536	527	522	522	522	525	539	535	528	528	542	544	538	538	536	535	538	542	539	526	519	523	527	532	529	528	526	527	527	522	522	524	526	527	529	532	533	540	538	537	537	535	533	531	530	531	536	536	533	532	533	533	529	521	520	526	528	526	524	527	519	516	518	520	520	515	512	510	514	521	526	528	532	533	530	520	513	505	510	514	516	512	515	519	519	519	519	519	522	523	527	532	536	530	529	528	532	530	521	519	518	520	522	526	524	522	517	514	515	517	518	523	524	528	523	523	521	521	523	522	521	523	525	530	534	535	536	535	535	537	534	531	525	522	520	523	519	516	512	512	507	499	507	513	518	522	524	526	517	518	521	525	522	517	515	512	516	519	522	522	527	530	522	521	523	523	525	537	536	525	521	517	516	516	518	522	522	522	519	517	520	527	531	532	529	525	524	529	532	530	527	527	525	524	523	529	524	521	518	518	515	511	507	504	505	505	506	512	517	520	522	516	508	502	511	528	532	532	526	520	507	503	502	509	514	511	505	501	503	503	511	518	520	515	512	506	497	493	488	488	489	500	499	504	504	501	494	494	495	495	502	510	510	515	514	511	512	512	512	514	516	516	514	513	513	513	516	516	521	514	506	517	510	509	512	513	513	510	503	506	507	507	502	507	507	510	513	511	515	519	525	525	517	511	507	507	505	503	503	498	500	499	496	502	512	519	519	516	516	513	512	516	516	520	518	513	501	509	512	512	514	511	508	504	502	502	505	513	517	523	518	518	522	522	525	511	495	495	499	508	520	525	530	530	532	525	516	511	499	499	521	508	491	485	485	501
523	542	553	547	547	544	533	522	521	522	522	522	520	522	520	514	514	511	509	504	501	505	505	514	512	513	517	521	518	518	515	526	542	538	531	531	525	534	531	528	519	508	508	504	502	510	522	536	538	533	520	521	539	534	531	533	533	532	532	530	510	506	506	520	520	529	532	535	537	530	513	513	513	514	502	499	506	515	517	524	526	526	525	523	530	535	529	529	525	525	525	532	532	540	546	542	530	521	521	521	517	512	506	508	512	518	520	516	522	522	524	524	517	509	506	514	520	527	522	522	514	505	509	519	526	526	523	518	515	509	509	509	509	508	514	518	518	513	511	512	510	504	505	505	504	505	507	512	514	528	531	530	528	526	528	523	520	520	517	521	522	522	523	511	498	499	496	499	508	521	530	530	530	528	523	524	526	526	524	525	525	527	526	525	526	525	524	521	518	515	515	518	522	525	523	519	527	530	525	518	519	522	523	525	529	529	525	522	524	528	528	539	542	536	524	516	515	525	529	525	530	535	535	535	534	536	532	534	534	530	531	530	535	535	536	549	542	525	505	500	511	517	523	530	535	533	525	523	528	529	526	523	522	517	515	517	522	525	523	521	526	525	525	525	531	538	537	536	530	524	518	521	530	535	534	534	534	537	537	530	525	530	533	536	536	527	522	515	517	527	530	530	524	524	532	531	528	528	526	524	515	517	523	530	519	516	521	521	520	526	525	528	527	524	523	526	529	526	525	527	527	528	530	529	528	527	526	525	525	529	531	533	531	535	536	536	528	524	523	522	523	521	517	517	519	516	518	520	520	515	512	510	514	521	529	530	531	527	519	513	506	504	507	511	511	517	520	524	523	523	521	521	527	530	530	528	536	540	533	529	529	524	516	513	513	515	519	523	522	523	520	515	506	507	511	519	525	527	527	518	517	519	521	520	522	523	525	528	531	531	533	535	535	537	539	532	519	515	511	509	506	505	505	517	516	516	510	512	519	519	518	517	516	519	521	522	522	517	517	522	523	517	517	511	512	523	526	527	523	523	525	524	525	521	520	517	517	516	513	513	515	518	519	520	517	525	525	523	522	517	518	525	531	531	531	528	527	524	523	518	514	513	513	513	508	504	500	500	500	499	502	509	512	511	508	504	499	498	509	521	524	524	526	520	510	506	500	499	512	518	515	512	512	512	520	523	525	518	512	509	502	498	493	493	489	500	508	512	510	501	496	487	491	491	496	509	516	516	518	512	509	510	510	514	516	516	514	510	510	513	516	516	520	515	521	520	511	510	513	513	517	517	512	513	507	507	509	509	510	514	512	510	511	515	521	521	516	508	501	500	499	500	503	498	488	485	489	498	509	509	514	510	510	509	512	513	513	513	509	513	501	501	501	503	507	510	509	503	503	503	508	496	497	495	495	495	522	522	520	503	498	498	500	506	513	517	516	516	517	517	508	505	511	499	483	472	471	478	478	492
523	534	538	536	534	534	525	518	515	519	511	511	511	514	513	514	511	516	513	509	507	509	509	509	509	514	514	514	513	513	527	540	542	538	519	520	520	527	531	532	525	513	513	505	502	507	521	531	533	520	520	518	523	513	513	517	509	509	504	501	494	502	513	519	525	525	530	535	537	530	506	496	500	500	493	495	502	508	510	519	520	520	517	516	522	526	529	529	541	547	547	541	532	527	537	539	530	522	518	518	518	513	513	515	515	515	513	516	522	520	525	525	518	519	527	526	528	527	522	515	515	507	506	510	520	523	520	518	513	509	509	518	515	513	518	522	517	512	507	510	508	501	498	496	496	501	507	508	510	515	522	524	525	528	528	523	520	532	532	531	531	524	518	507	509	510	511	514	520	524	524	525	520	520	519	514	515	526	529	526	525	526	526	525	526	525	529	522	517	516	516	517	520	521	504	509	515	521	523	522	518	520	520	518	515	523	530	527	525	527	527	535	541	540	532	525	521	518	516	521	530	535	535	535	534	533	534	535	534	530	525	521	523	528	528	526	524	530	531	529	526	523	521	522	518	525	525	522	527	522	517	518	521	519	515	510	516	520	517	522	523	525	525	525	538	539	537	535	531	532	533	531	531	529	524	522	520	526	522	522	523	525	531	534	534	530	521	515	517	527	530	530	524	524	532	531	528	528	526	524	515	517	518	521	524	514	509	503	505	519	527	527	525	525	525	529	528	524	524	525	524	524	527	530	531	532	533	529	526	529	531	533	531	535	535	536	528	524	523	522	523	521	517	517	512	513	517	523	529	525	518	517	522	523	522	517	515	514	519	518	510	509	507	512	523	530	530	527	522	522	517	518	518	517	520	527	532	534	538	528	525	518	513	510	510	510	514	518	522	522	520	507	499	497	502	513	520	514	514	515	518	519	520	521	525	526	527	528	531	531	533	533	534	537	534	522	509	503	507	507	508	508	505	518	520	517	512	515	518	521	519	518	520	516	517	517	516	514	513	511	513	513	505	498	495	523	526	527	526	523	520	514	506	511	517	517	516	509	507	507	510	515	518	520	518	520	517	516	514	514	515	518	522	523	523	528	527	525	518	512	509	510	511	511	508	504	501	497	497	496	496	505	510	510	505	506	503	499	513	511	521	524	528	525	519	509	503	503	522	528	528	522	522	518	515	514	514	515	510	509	512	509	498	493	504	513	517	521	511	505	496	489	489	488	491	498	505	512	517	514	508	508	505	514	516	515	510	501	498	501	501	509	514	517	522	520	507	504	510	510	517	516	512	513	511	512	517	517	518	516	511	507	510	511	511	514	517	508	503	500	499	500	500	498	481	478	489	498	506	506	511	510	505	506	506	506	506	513	509	506	497	497	497	499	503	509	511	504	504	504	492	482	480	485	495	495	495	502	503	501	497	497	499	501	507	511	511	510	508	505	508	505	505	495	482	474	471	471	476	486
531	534	538	521	522	522	522	521	516	515	511	511	507	508	513	514	516	516	513	512	507	508	508	508	514	518	527	529	529	529	535	543	540	531	519	520	514	521	527	532	529	523	512	512	508	510	515	523	505	506	506	518	523	505	513	519	511	511	507	500	496	507	516	515	521	521	531	535	536	530	506	491	491	491	490	495	500	506	505	509	514	514	515	514	513	517	523	529	541	547	541	537	526	522	522	523	526	524	516	507	507	507	513	518	519	516	511	513	520	525	525	518	514	519	523	525	522	523	520	515	515	510	511	515	517	519	517	513	512	513	518	515	515	513	517	519	516	511	510	516	514	509	499	497	497	493	499	504	503	504	514	519	519	520	525	528	532	532	532	526	515	513	515	514	516	512	513	517	519	517	516	516	497	497	501	508	519	528	530	531	526	525	531	531	532	531	529	522	517	500	500	500	504	501	503	504	507	514	521	522	515	512	515	515	520	527	527	526	525	528	532	532	537	539	533	530	524	519	517	522	532	539	537	536	534	533	534	535	530	525	519	516	514	520	520	522	525	529	532	531	526	523	517	513	511	522	533	529	523	515	509	513	520	521	514	504	504	508	517	520	522	522	538	538	541	540	541	540	539	535	527	521	521	516	513	508	508	511	515	517	521	525	527	529	528	525	525	522	525	526	526	526	524	520	519	520	518	518	519	511	512	515	518	521	524	514	509	503	505	519	527	527	525	525	525	529	528	524	524	525	524	524	527	530	531	532	533	529	526	519	515	516	516	518	518	520	523	525	524	522	522	516	509	506	506	508	517	531	529	528	523	518	520	522	522	520	514	512	513	516	518	520	518	519	525	532	533	529	523	523	517	519	519	512	513	522	528	529	526	525	521	516	517	519	515	505	504	513	519	521	517	508	502	500	501	509	509	509	508	514	518	516	515	515	525	526	527	524	522	523	524	529	523	520	513	511	503	501	504	511	516	516	520	521	515	505	512	517	522	524	524	524	518	516	517	519	515	506	505	510	510	510	505	498	495	505	516	523	525	522	515	505	502	507	517	517	512	507	507	503	505	510	519	522	525	519	514	510	511	513	516	515	522	522	523	518	520	512	505	502	508	512	514	512	508	505	504	504	499	492	492	498	504	509	508	504	502	502	513	511	511	516	523	528	525	518	510	511	516	522	526	526	527	524	516	509	508	507	504	507	512	509	509	506	512	516	514	520	513	506	500	499	499	498	501	499	501	503	508	513	504	508	505	498	497	499	500	501	498	490	490	497	501	510	518	517	508	505	505	510	517	516	511	505	502	506	506	511	513	511	507	504	507	508	508	509	504	508	503	500	500	500	500	497	488	487	488	493	493	504	508	508	501	499	498	506	506	496	498	500	500	495	495	499	504	505	501	496	496	493	481	476	480	485	485	490	490	496	499	499	499	500	494	493	498	501	501	501	508	505	502	498	498	497	490	487	479	479	482	486
538	533	525	521	522	508	521	522	523	517	516	516	525	520	516	520	523	523	519	512	507	507	509	509	505	508	516	520	521	524	524	527	520	512	511	514	514	516	525	529	526	523	520	520	519	521	519	514	497	496	496	515	512	505	513	524	525	522	522	502	502	510	514	511	514	514	525	531	531	516	501	491	491	501	496	496	502	508	507	509	515	516	516	516	513	514	516	520	531	541	537	537	524	507	510	517	523	521	516	511	511	505	514	520	523	519	511	509	512	516	516	518	514	518	513	511	509	514	520	515	515	515	516	525	527	515	513	513	528	529	525	522	522	515	517	519	512	510	509	516	515	520	519	513	505	505	503	504	501	503	504	512	514	512	513	520	527	527	526	526	515	513	513	517	519	518	519	520	521	517	513	495	495	497	497	510	523	531	534	531	527	527	532	532	534	535	530	523	505	500	500	500	522	527	532	533	527	511	516	520	514	503	505	507	516	523	527	524	525	524	529	529	535	536	533	530	525	522	520	523	533	537	534	532	531	533	534	534	530	525	519	516	516	518	519	519	525	530	535	531	526	520	516	512	513	523	531	533	520	513	513	516	515	504	501	495	497	507	517	522	522	540	547	547	547	545	540	538	535	533	522	515	510	508	502	500	505	515	516	514	516	523	526	523	520	520	523	526	526	525	522	522	522	518	519	519	521	521	513	509	507	511	515	520	526	527	519	508	506	507	519	523	520	521	526	531	527	524	524	524	523	523	526	530	532	527	525	535	541	532	528	525	515	508	508	514	522	525	528	526	515	503	502	503	502	506	516	523	523	524	517	517	524	529	527	522	516	511	511	513	516	521	520	519	522	527	527	526	526	524	521	522	520	514	510	516	525	525	523	521	520	519	522	526	522	518	504	510	518	520	516	509	507	506	505	506	509	509	508	513	518	516	515	515	519	523	523	515	513	513	514	512	510	507	500	498	496	499	502	508	508	516	519	506	498	497	505	512	518	533	538	536	525	519	519	517	510	506	508	510	510	510	500	499	494	495	502	511	515	518	511	499	499	505	517	519	511	504	504	503	507	509	517	522	525	520	516	507	509	513	516	515	515	515	515	512	512	504	499	489	501	513	517	516	511	507	506	506	502	493	496	499	493	497	498	504	502	502	509	509	508	509	516	527	531	523	510	508	512	518	523	523	524	522	513	512	508	501	504	507	508	508	510	510	511	513	511	508	509	505	503	503	500	499	501	503	496	496	498	513	504	504	495	496	499	502	503	501	498	498	491	491	497	511	517	519	515	510	505	510	516	516	505	495	489	493	493	500	504	503	501	502	501	501	501	496	504	508	509	504	504	504	503	499	495	490	489	495	495	500	505	503	499	497	498	498	498	490	490	498	500	500	500	500	498	496	491	484	484	487	481	476	472	476	476	482	487	492	496	494	494	494	497	500	502	501	501	501	496	491	491	491	491	486	487	485	483	483	479	486
526	527	519	510	508	521	521	514	514	511	516	538	538	533	518	505	509	517	517	516	511	507	509	511	511	511	516	518	518	524	524	521	515	501	503	507	516	516	525	520	519	520	522	525	525	522	516	510	500	494	499	499	514	518	516	524	525	521	521	514	501	507	505	505	503	519	519	529	528	517	507	505	501	496	496	499	501	510	511	509	511	511	511	509	508	502	505	514	522	530	531	531	524	507	506	515	519	522	519	513	512	512	513	519	520	515	507	506	506	510	513	513	514	518	513	506	509	516	517	517	516	516	517	524	522	516	506	505	524	527	526	518	515	515	517	517	512	510	507	506	511	513	513	512	510	510	512	510	512	511	516	520	516	512	506	512	516	518	509	509	509	511	513	517	514	521	524	523	524	525	515	506	494	496	496	510	524	531	536	530	528	531	530	530	532	535	532	515	508	513	512	522	522	527	532	539	541	525	515	509	513	502	501	501	508	517	520	523	527	528	531	529	529	522	524	521	522	524	524	526	530	530	531	529	529	527	526	519	513	513	515	513	516	518	519	519	520	530	536	533	529	520	514	510	512	519	528	518	519	514	519	520	513	505	509	508	510	517	521	526	536	544	547	539	539	533	528	529	530	534	518	511	508	510	504	505	509	515	515	513	513	517	517	519	519	520	523	529	526	524	520	522	522	523	524	530	524	517	517	505	495	506	508	509	510	528	529	523	509	506	501	500	502	505	522	529	527	525	526	524	520	521	525	526	524	508	514	523	529	529	526	522	514	508	508	513	521	524	527	532	524	516	509	505	506	507	508	511	513	514	514	519	531	534	531	527	521	513	509	510	516	524	524	522	520	519	515	516	516	516	518	523	517	508	510	513	513	514	514	513	517	526	528	528	527	522	518	511	516	513	506	506	505	503	504	507	506	509	508	513	515	514	512	514	516	518	514	510	507	504	505	506	508	507	503	503	502	501	495	507	507	513	507	498	491	498	504	507	521	533	537	530	527	525	521	511	506	506	508	513	513	510	506	503	500	501	503	506	508	516	516	504	502	504	512	513	512	512	510	516	509	503	514	524	520	519	513	507	509	513	515	513	513	511	510	509	507	500	488	488	500	514	517	516	511	505	505	504	505	510	510	506	507	497	498	502	500	502	503	503	500	502	510	523	525	517	508	507	511	515	515	519	520	518	512	509	508	501	498	499	502	502	506	507	508	511	508	504	501	503	504	504	500	499	499	497	498	496	498	500	500	493	497	509	516	511	507	504	503	503	496	490	494	503	516	520	515	515	510	514	511	508	498	487	480	480	488	497	496	496	493	498	498	498	501	496	493	489	489	495	495	500	509	507	502	500	500	500	505	508	506	500	499	497	497	493	491	493	487	491	502	502	501	497	491	488	486	486	484	487	476	473	475	475	477	479	487	492	494	494	496	500	503	505	502	502	501	493	486	482	480	480	477	476	476	475	475	475	475	486
520	520	510	500	497	506	506	514	514	503	512	528	528	534	520	507	501	513	513	516	514	513	511	511	511	514	514	513	517	523	525	525	518	500	502	509	515	515	524	520	519	511	515	515	515	513	506	507	504	498	495	495	503	512	523	525	524	521	514	521	512	514	512	507	507	508	508	515	517	516	520	515	508	501	501	499	501	523	519	515	511	506	499	499	493	491	492	499	508	508	506	501	501	499	506	515	523	525	525	523	519	519	513	515	515	513	507	501	504	506	516	516	522	514	508	506	509	511	515	516	517	518	518	516	515	505	496	500	516	519	512	506	506	506	507	508	505	506	507	506	511	502	505	507	511	517	517	520	521	521	521	521	516	513	502	502	509	510	503	501	501	502	499	504	514	521	524	514	516	518	517	509	496	492	500	500	509	519	522	523	522	525	522	522	527	530	511	506	507	509	513	518	518	520	525	539	541	525	521	506	506	509	503	502	504	512	516	519	521	527	519	515	515	509	507	504	509	522	529	533	530	526	520	520	519	521	518	512	510	512	514	515	517	515	517	520	520	530	536	533	526	521	511	509	508	506	505	507	510	514	520	524	514	511	516	521	522	526	527	530	533	539	536	528	528	520	516	517	523	531	525	513	510	513	514	509	511	510	512	512	516	514	515	514	515	520	523	522	525	524	525	525	526	524	526	527	523	511	511	502	502	509	513	513	511	515	527	524	510	506	505	501	501	502	508	511	517	524	524	523	522	519	523	521	517	501	514	524	529	523	521	515	509	505	505	509	514	520	525	528	526	518	516	513	512	506	501	499	505	508	509	520	530	535	536	531	525	519	509	512	519	527	525	523	518	513	510	510	511	509	514	518	513	510	510	511	512	510	507	512	514	519	524	523	522	520	520	520	518	506	499	506	505	503	504	507	507	508	509	509	512	514	512	514	515	514	510	504	501	501	509	511	513	510	511	512	508	498	507	507	519	519	508	500	493	499	505	504	510	528	524	526	528	523	521	511	506	505	514	514	521	516	509	511	514	519	523	515	511	511	516	512	507	503	504	507	522	522	524	511	503	499	505	509	514	519	513	505	506	509	511	511	511	504	501	495	500	503	498	496	505	513	518	516	510	506	506	506	508	511	513	506	507	510	499	494	500	502	502	502	502	499	505	511	516	511	506	506	509	515	515	516	513	511	512	509	505	501	499	498	498	498	503	504	505	505	506	502	500	498	498	505	504	505	503	497	498	501	500	497	497	495	500	507	515	515	506	500	496	496	501	492	490	495	516	520	519	519	516	508	505	496	481	476	479	479	493	496	487	486	487	496	498	498	498	495	490	489	487	491	491	498	505	506	506	503	503	503	501	500	506	500	496	490	490	490	495	496	494	493	493	501	497	491	487	485	486	486	484	487	479	472	477	477	484	485	495	487	474	474	477	483	503	505	497	497	496	490	485	481	477	477	476	474	476	474	474	475	475	478
514	514	507	496	497	504	503	503	506	503	512	527	527	532	527	513	503	505	505	511	513	512	513	514	514	514	514	506	512	518	521	521	523	518	508	512	521	522	522	514	510	511	515	498	494	494	492	498	503	501	498	501	501	504	504	506	515	519	521	521	512	513	510	508	501	498	498	498	495	505	511	513	512	512	511	511	516	523	519	520	505	500	490	490	482	480	484	494	503	503	504	503	503	498	506	515	523	525	535	528	520	511	511	510	514	513	509	503	499	505	523	526	526	522	511	509	509	511	515	516	519	520	520	517	513	505	500	503	513	514	511	507	502	501	501	504	506	503	499	497	499	502	505	502	510	519	519	527	530	527	522	520	518	511	499	499	504	507	504	500	500	497	495	501	510	517	519	514	516	512	508	497	485	485	494	494	501	508	507	507	512	519	520	522	522	512	497	497	503	504	508	507	508	508	521	529	540	533	521	506	506	505	506	505	506	508	508	511	512	507	506	503	500	500	502	500	502	514	525	533	531	519	515	512	516	517	513	510	506	509	515	518	515	516	517	524	524	526	531	532	526	521	511	509	508	502	493	496	501	509	521	521	509	506	513	514	516	517	519	521	527	533	530	525	519	519	514	514	521	532	532	518	511	516	514	512	511	510	511	514	517	520	517	514	515	518	521	519	518	520	523	526	525	516	523	520	514	510	510	507	507	513	515	516	514	513	520	519	509	505	506	508	507	508	508	512	521	524	524	521	521	520	519	516	504	504	517	526	526	518	517	513	511	506	506	507	508	513	520	525	526	522	518	519	516	508	499	497	499	501	503	506	518	530	533	532	529	521	514	512	514	517	521	523	518	511	505	505	499	499	509	518	520	514	511	521	523	522	511	500	504	505	509	513	517	515	517	520	518	506	499	496	495	498	501	501	505	510	511	508	508	510	511	513	510	506	504	500	500	499	513	518	519	517	518	520	508	512	524	524	530	524	516	504	500	509	517	513	500	506	524	526	528	523	508	504	496	494	496	496	511	506	504	505	514	519	519	517	509	511	509	509	508	504	495	512	512	518	518	508	501	503	505	509	514	510	508	510	509	507	506	506	502	497	494	497	501	504	504	500	502	511	517	517	514	514	510	509	508	511	513	512	515	514	507	496	499	505	505	507	505	502	504	506	506	506	504	504	509	509	509	508	513	511	504	501	501	500	497	496	496	497	498	501	501	503	503	501	497	500	500	504	507	505	503	501	500	501	496	496	495	492	494	497	506	504	499	493	493	491	491	486	490	495	505	511	511	512	511	507	504	499	486	479	485	485	494	493	484	481	487	496	496	495	493	492	494	495	495	494	494	498	503	503	500	497	497	497	501	500	498	496	492	482	482	484	487	492	495	493	493	499	494	483	487	485	485	485	487	489	487	479	479	479	487	493	488	474	472	472	477	483	483	486	486	486	484	484	481	479	479	477	479	480	478	474	474	475	473	477
510	510	503	501	498	503	507	507	504	503	509	527	532	536	531	520	510	501	504	504	511	512	511	508	502	502	501	506	512	509	519	519	520	523	520	517	523	515	515	502	497	499	501	498	494	477	481	492	500	506	504	502	502	500	500	500	511	515	512	512	510	513	510	501	497	495	496	496	494	497	506	509	508	509	506	506	506	523	528	520	505	497	490	483	483	480	488	498	502	501	502	502	501	501	509	519	525	529	535	528	520	509	509	509	512	514	512	505	495	501	518	529	529	524	513	510	508	510	511	512	519	520	507	507	506	503	501	511	517	515	512	507	503	500	500	509	505	501	495	493	493	495	499	502	510	521	529	529	532	529	524	519	515	502	499	498	501	505	506	500	494	494	493	498	505	511	505	505	511	512	508	497	484	486	494	498	498	501	501	501	505	511	515	519	514	507	489	488	490	498	501	504	507	507	514	526	536	530	520	511	505	505	506	505	505	504	506	505	504	498	494	495	498	498	500	504	496	506	518	526	526	518	510	511	511	508	506	499	501	513	518	520	526	527	521	521	524	524	528	529	527	523	518	514	509	502	493	496	501	509	516	506	501	509	515	515	512	512	513	517	522	527	526	520	515	515	511	512	523	532	533	521	509	508	510	512	512	511	512	519	528	526	520	517	515	517	518	509	510	515	523	527	519	513	514	512	514	509	509	508	510	514	519	521	518	516	517	514	503	503	506	511	513	514	511	512	518	524	526	524	521	519	518	509	505	511	520	522	522	520	520	516	517	513	513	506	500	505	518	522	527	527	526	524	519	511	502	494	491	495	500	507	516	525	527	528	524	521	513	507	506	508	513	519	516	510	500	500	499	509	515	511	514	511	517	523	527	523	516	511	508	505	509	513	517	515	517	521	519	500	492	486	485	492	501	501	507	510	511	507	507	508	510	510	506	504	498	494	499	511	526	524	521	522	532	540	538	536	536	534	529	526	520	512	514	518	515	513	500	506	513	520	518	508	504	499	503	505	505	505	503	497	493	495	501	508	505	503	505	503	507	498	492	500	495	495	508	515	515	508	501	503	509	512	509	507	507	505	507	505	505	505	499	498	500	509	512	512	509	502	502	507	517	518	516	516	510	509	511	510	514	516	519	519	505	496	499	499	505	511	507	504	502	501	498	500	502	496	494	509	509	508	504	506	504	503	500	494	491	491	488	493	496	495	496	501	504	507	506	506	502	504	507	505	504	501	497	495	493	493	493	492	489	494	497	503	499	492	492	487	491	486	483	476	479	487	487	492	497	511	501	496	485	475	475	473	477	483	484	481	483	486	486	490	492	495	501	502	503	503	503	502	500	497	491	488	497	497	495	494	494	494	495	495	489	484	483	488	491	491	491	483	494	483	480	480	480	484	485	487	482	480	480	478	487	489	486	479	474	472	475	482	481	480	480	473	471	479	477	477	477	478	486	488	478	478	479	479	484	489
519	507	507	504	509	510	508	508	504	500	509	526	536	536	531	531	520	509	505	505	503	504	500	496	494	494	496	499	499	509	519	522	522	526	525	523	521	514	514	497	495	490	476	470	477	477	481	488	496	500	500	496	496	488	486	489	496	506	501	496	496	502	505	501	497	495	497	502	502	502	501	504	504	509	509	507	507	511	526	521	506	497	490	484	484	491	501	504	502	496	496	502	502	502	499	503	508	520	521	521	512	509	509	509	512	513	510	505	497	501	512	522	520	520	507	497	497	501	505	507	507	505	507	507	491	495	502	507	513	513	509	505	503	504	509	509	508	500	493	488	494	495	497	503	512	521	529	529	527	524	521	517	513	503	497	497	500	508	509	503	498	498	492	494	499	501	501	511	513	511	505	494	484	486	497	500	499	499	493	496	502	509	514	515	512	496	485	482	484	485	493	501	506	515	515	526	526	519	511	508	505	503	505	509	505	504	506	505	500	496	504	510	511	505	505	506	497	500	512	522	524	523	520	519	515	509	506	514	520	524	518	509	503	505	514	523	523	523	523	527	528	527	522	516	511	501	491	487	491	502	516	506	501	509	515	515	511	509	514	516	522	521	520	515	512	512	510	514	522	530	531	512	503	504	506	511	515	514	517	524	532	527	520	517	516	516	513	506	504	509	519	521	519	513	509	509	509	509	509	512	514	521	524	527	522	516	517	500	497	502	508	514	517	518	513	512	513	517	520	524	523	518	514	508	511	512	517	519	517	516	516	517	516	516	511	501	497	500	516	522	525	528	524	516	509	506	501	500	503	505	505	513	518	520	522	523	520	518	509	502	501	502	510	513	519	517	517	515	514	516	509	502	504	514	521	523	527	523	516	511	508	505	507	503	510	514	514	512	511	498	492	491	489	491	491	498	509	515	516	512	511	511	510	509	504	503	499	494	496	518	525	525	517	520	524	523	522	519	519	512	504	504	505	507	514	518	515	512	508	500	501	503	507	504	495	499	503	506	506	510	503	493	501	507	510	510	507	503	494	495	501	502	493	488	496	496	507	515	515	508	507	509	516	519	514	507	508	510	507	505	505	502	501	504	509	519	522	519	503	498	499	508	515	517	518	516	513	512	515	514	513	517	519	516	503	497	498	498	507	516	511	506	503	498	497	497	496	496	496	494	492	494	497	500	503	501	496	486	486	486	485	488	488	489	491	493	499	502	502	506	502	504	504	503	496	491	493	492	492	490	489	480	483	487	494	502	498	498	492	487	486	488	492	484	485	485	485	486	494	493	487	485	489	486	486	484	483	483	486	482	483	483	489	492	491	494	500	507	509	509	505	503	498	491	491	488	488	489	490	491	492	495	494	494	496	490	485	487	491	491	491	483	485	478	476	479	479	479	480	478	476	473	473	476	489	490	486	479	479	473	476	476	479	475	475	470	472	478	479	479	474	473	486	488	487	487	486	486	490	492
519	514	514	504	509	507	506	505	505	500	500	514	535	539	539	531	520	513	508	507	507	501	497	488	495	503	503	505	505	506	517	522	522	527	530	526	516	512	508	508	496	475	461	462	468	477	477	488	496	494	495	491	482	482	478	482	490	500	499	496	496	497	496	496	495	495	497	501	501	496	500	502	505	510	517	519	519	515	524	515	506	498	487	484	491	495	503	508	503	498	498	498	495	490	490	494	502	508	511	511	509	511	509	509	512	507	509	505	501	497	504	510	508	508	501	494	496	498	500	497	492	486	487	491	491	495	497	501	507	506	497	495	497	503	508	508	508	503	500	501	499	501	502	507	513	521	526	527	527	524	518	518	516	508	501	496	504	510	508	507	497	492	492	492	497	503	510	511	514	508	502	493	490	487	497	500	499	494	495	497	504	508	512	509	508	502	494	482	482	487	494	506	514	515	515	513	498	500	508	507	502	500	501	509	506	508	508	505	500	496	504	513	513	507	507	502	495	492	503	516	524	524	521	519	519	518	519	524	522	517	510	505	505	510	515	520	518	515	515	518	520	523	518	515	512	503	495	487	485	500	504	503	505	512	517	515	511	509	514	516	522	512	511	512	509	509	509	512	519	525	527	511	499	500	501	509	510	509	507	512	515	515	509	505	500	497	499	501	504	509	515	524	518	515	518	508	507	511	511	514	520	527	529	521	517	515	508	494	498	502	509	512	517	523	520	512	508	507	506	511	516	517	517	513	514	513	515	515	512	510	511	513	514	514	513	510	499	500	504	519	523	522	504	502	498	493	496	502	510	510	516	513	513	517	521	523	523	518	506	505	500	507	511	515	514	515	515	515	522	515	504	502	504	514	521	523	524	522	513	510	509	512	508	500	505	511	513	508	505	504	497	495	494	493	493	493	508	516	519	521	515	515	517	511	506	501	496	491	498	509	508	511	510	512	513	506	499	499	498	497	500	504	505	507	510	508	505	507	504	500	502	499	499	495	498	500	504	504	507	504	492	495	504	510	511	512	511	508	499	488	489	493	490	487	488	496	507	512	512	508	509	513	514	520	521	516	512	511	510	508	508	504	500	501	512	517	521	518	503	497	496	508	515	515	517	512	511	517	517	514	512	510	511	509	500	500	500	503	514	516	506	500	495	495	494	497	496	488	488	483	482	484	490	494	498	497	491	484	484	480	483	488	489	491	493	494	499	502	502	502	502	503	497	488	481	485	489	488	488	488	482	479	481	488	495	502	498	498	496	496	498	500	497	491	488	488	490	494	491	482	481	485	493	493	493	484	483	484	487	486	489	489	491	493	494	498	503	508	508	509	508	502	498	491	483	483	478	479	485	493	495	498	498	499	496	488	484	484	489	491	492	479	477	478	477	477	478	477	475	472	472	471	471	474	489	490	488	481	481	483	483	480	479	479	472	466	471	481	482	482	474	473	480	483	492	492	488	490	493	492
523	514	514	498	499	503	495	495	495	490	488	494	508	523	523	526	521	513	500	512	512	507	501	499	520	529	529	532	521	505	512	522	527	527	529	519	507	499	494	494	486	476	466	459	463	472	472	485	490	494	495	487	484	484	480	486	498	501	500	497	493	493	493	491	494	501	505	501	501	496	500	508	509	516	521	521	517	517	517	506	500	494	486	488	495	495	503	504	498	496	494	492	490	490	490	494	501	502	503	500	502	504	507	507	510	507	509	504	506	498	494	501	502	498	498	493	496	497	492	480	478	478	485	490	490	492	497	501	496	494	487	486	497	505	505	501	501	499	501	504	504	504	508	510	517	523	525	522	522	518	518	518	515	513	504	501	505	510	508	502	492	492	492	493	501	503	508	507	504	503	500	498	496	497	500	500	494	495	495	497	504	512	512	513	511	498	498	494	493	496	500	504	503	497	491	491	493	500	506	504	499	497	499	496	497	497	496	501	506	505	507	513	513	507	493	493	487	492	503	520	523	523	520	517	520	523	521	521	518	515	512	504	504	507	507	510	507	507	507	511	509	508	508	514	511	504	500	494	493	501	504	503	510	514	514	512	511	510	514	515	516	512	511	512	509	509	509	510	514	524	513	509	500	497	496	498	499	499	507	515	517	512	499	494	492	497	502	507	512	515	523	523	514	511	518	511	499	503	509	509	517	512	508	508	510	510	500	493	496	501	505	507	515	524	522	513	507	497	497	501	506	513	512	510	510	511	511	511	506	505	505	503	504	504	507	512	515	519	520	518	518	504	500	499	500	502	502	508	513	513	508	507	508	516	520	523	521	514	505	503	503	508	511	512	514	514	515	515	522	515	504	505	510	516	520	521	518	516	508	510	511	516	508	499	503	513	515	510	504	505	499	498	495	495	493	495	506	514	521	521	516	517	518	516	506	498	493	488	492	498	498	501	495	500	497	500	503	499	498	497	500	499	494	488	492	494	498	501	501	499	508	503	500	502	503	504	504	503	503	500	494	497	502	505	496	497	499	499	504	497	490	493	490	487	487	491	495	504	508	505	504	506	495	505	512	516	512	512	506	506	501	498	496	497	505	512	516	515	500	497	496	501	509	509	511	509	505	505	506	508	508	506	504	500	500	498	498	508	511	505	500	494	489	495	494	494	489	489	484	479	477	479	484	487	492	492	486	481	481	478	481	489	492	496	493	494	502	502	502	501	500	496	489	486	483	485	488	488	487	487	486	482	482	488	495	502	502	501	506	504	503	488	492	492	495	495	497	497	491	489	489	485	482	493	493	493	493	495	491	485	489	489	496	498	498	495	497	498	498	491	508	502	495	487	481	481	477	480	487	496	499	499	499	498	492	484	481	484	489	489	491	486	476	471	469	469	477	472	474	475	472	472	473	474	484	486	489	489	488	488	486	479	476	476	468	463	469	481	482	482	474	464	469	471	471	474	478	484	483	479
517	507	498	498	499	493	488	482	482	480	476	482	491	496	496	498	492	494	500	512	501	506	517	524	528	528	524	524	514	498	505	520	528	528	529	519	503	497	494	487	487	483	476	466	466	471	475	475	481	489	488	487	484	494	494	503	510	508	502	493	501	501	503	502	506	507	501	497	496	496	500	508	513	518	526	528	519	519	505	496	494	494	495	492	494	499	499	504	498	494	491	490	495	499	499	502	508	502	495	490	490	494	499	498	498	501	504	504	506	498	494	495	496	498	498	497	492	486	481	476	474	478	490	496	499	499	496	497	496	494	487	484	493	502	504	499	499	497	502	505	507	508	508	510	518	528	528	522	516	516	514	515	515	513	504	502	505	507	506	500	496	495	498	498	503	506	504	504	505	507	503	500	498	502	502	500	501	496	496	499	504	512	512	512	513	502	490	489	490	493	502	506	503	499	497	500	500	504	507	506	499	496	494	494	496	496	495	496	500	506	509	506	507	501	493	487	487	492	503	515	519	519	512	511	516	525	523	519	515	514	511	508	502	505	505	500	500	502	511	511	510	507	504	504	505	504	500	500	500	502	504	505	505	506	509	509	510	510	510	510	505	503	501	505	508	508	510	510	514	524	513	509	500	497	496	497	496	503	521	521	519	513	503	496	500	508	508	502	502	516	520	519	512	508	520	517	506	495	489	489	493	500	506	508	505	507	502	496	497	501	504	506	509	520	526	522	510	499	488	491	501	507	507	506	506	508	510	511	508	505	502	497	495	495	495	502	505	500	497	492	493	496	496	501	507	510	504	499	504	507	507	506	507	510	516	517	517	514	505	503	503	508	511	512	514	514	513	519	520	516	504	509	514	519	519	517	513	512	509	509	513	512	505	497	505	516	513	504	506	508	515	515	497	497	490	494	503	510	512	514	516	514	516	509	501	496	490	490	492	497	494	489	492	479	497	500	500	503	499	494	491	489	491	496	499	502	501	507	504	494	501	506	502	508	508	506	506	504	501	495	495	495	505	500	495	496	495	499	496	497	490	490	491	491	494	503	507	497	495	496	496	494	489	498	506	511	507	507	496	496	493	493	488	490	498	505	516	515	500	496	491	491	491	495	498	500	504	502	499	500	497	499	502	501	501	501	505	508	507	500	495	494	489	486	492	494	492	492	485	481	480	481	483	485	490	492	488	488	483	481	486	496	492	496	496	496	498	498	500	500	499	495	488	489	487	490	494	494	494	492	488	481	482	488	498	500	500	503	502	501	481	469	473	484	484	492	499	495	492	489	488	485	485	482	486	493	492	490	492	489	489	478	478	499	498	493	493	493	498	491	491	499	493	487	484	484	483	486	492	496	498	498	496	495	492	484	481	479	479	484	486	493	486	482	474	474	472	471	466	469	473	472	473	472	480	485	492	492	492	482	480	478	475	475	472	471	469	481	481	479	471	462	455	463	463	471	479	480	471	471
503	497	495	495	496	493	488	480	471	471	470	478	486	486	482	482	478	486	493	501	506	506	514	524	526	515	506	506	494	485	504	521	521	521	516	510	503	497	493	496	496	490	487	483	484	488	485	485	482	485	488	484	485	494	494	520	514	502	493	493	505	510	510	514	514	510	501	499	497	497	501	508	513	521	527	525	514	514	492	490	492	498	501	497	497	497	497	501	495	494	491	501	504	504	503	503	506	502	493	489	487	490	491	494	494	496	498	498	502	498	494	492	496	498	495	495	493	486	478	474	475	484	497	507	500	500	495	496	494	490	483	484	493	497	502	498	499	499	503	504	506	506	504	507	515	524	525	517	515	514	514	512	516	513	505	502	505	506	506	504	497	491	491	491	499	507	506	508	506	503	499	497	499	502	501	501	499	496	499	499	503	508	511	512	513	502	498	486	487	495	501	507	505	502	503	505	505	510	516	516	511	502	499	497	497	499	497	495	495	506	504	497	500	495	492	488	488	491	503	515	519	517	508	505	512	522	525	518	511	512	511	506	504	502	503	497	495	500	504	504	505	507	507	508	506	505	507	508	506	506	507	510	517	518	516	511	512	516	511	510	507	502	501	507	508	512	508	508	508	506	508	504	498	496	500	497	496	503	521	521	519	513	503	496	505	512	511	502	496	502	517	516	511	505	509	517	516	512	504	504	505	507	504	500	502	505	506	504	500	497	498	501	503	512	523	526	517	496	487	484	493	500	501	503	508	511	515	515	509	505	502	494	494	494	496	500	499	500	495	497	499	504	505	513	512	506	501	499	504	507	507	506	507	510	516	517	517	511	507	502	503	504	506	506	506	506	506	511	522	517	508	508	512	511	508	507	510	511	509	511	513	507	498	498	504	511	507	504	507	515	517	517	517	513	510	507	505	503	507	505	500	495	500	503	497	492	489	490	492	496	494	489	492	479	479	479	494	499	497	497	497	496	498	504	509	511	514	509	504	491	490	500	502	504	502	502	501	496	494	492	489	500	504	499	498	491	495	499	496	497	491	480	491	491	497	510	513	502	490	489	494	495	498	502	504	503	500	499	499	492	488	488	488	488	498	505	510	509	496	489	487	486	486	487	491	497	502	503	501	498	494	496	505	504	504	504	501	500	507	500	495	492	485	487	496	498	498	494	490	486	483	484	484	484	488	493	493	493	491	490	486	496	497	496	495	494	489	489	491	495	497	491	485	481	487	492	492	496	495	493	488	481	481	485	490	490	495	494	490	481	475	490	494	496	496	493	490	490	489	489	488	484	484	479	482	487	488	483	482	489	489	489	479	476	491	491	493	493	489	489	488	491	496	497	497	492	491	493	494	494	493	493	495	495	492	483	479	477	477	482	486	485	486	481	481	474	470	471	472	469	469	473	471	472	478	491	491	486	480	477	480	488	488	492	472	471	472	472	472	475	476	469	458	458	464	471	476	473	464	471
501	496	494	492	492	489	481	480	471	474	469	478	490	490	486	486	486	488	489	498	502	502	514	524	513	498	486	486	480	478	485	501	504	493	493	494	492	493	493	496	498	498	493	491	499	508	509	509	501	485	480	479	486	505	520	520	514	490	487	498	501	508	508	508	508	508	504	498	496	497	497	506	513	521	527	506	499	485	485	481	488	498	503	501	497	499	499	498	495	491	488	501	504	507	500	500	498	498	496	492	489	488	491	493	496	496	495	492	489	490	491	492	496	491	493	493	493	485	478	475	481	489	496	502	499	490	490	490	493	489	485	479	485	497	502	498	499	499	501	499	492	493	498	501	506	499	498	501	506	508	508	509	510	506	501	500	502	506	506	504	496	489	486	491	491	498	505	507	508	504	495	492	498	504	506	504	502	497	496	496	498	506	506	506	506	502	498	486	487	489	504	506	506	505	511	513	517	517	521	518	517	511	504	500	499	501	498	497	494	495	499	487	486	489	490	488	489	489	498	510	518	517	508	505	512	517	524	515	506	505	505	506	508	509	507	497	493	497	498	500	500	506	508	513	513	512	509	506	505	506	511	515	521	521	520	520	520	516	509	502	500	506	508	508	511	511	509	509	507	506	499	498	499	502	499	497	498	512	517	516	513	504	499	498	505	512	511	502	496	502	517	516	511	505	509	517	516	514	514	514	511	507	501	499	499	503	509	511	511	506	501	495	499	503	508	508	506	495	485	486	491	495	498	503	511	516	521	515	508	501	501	501	497	497	496	500	499	500	495	497	499	504	505	513	512	506	501	494	499	504	508	504	502	504	507	509	510	508	507	505	499	500	499	500	500	502	503	504	509	518	512	501	494	500	502	501	501	503	505	507	504	496	486	481	493	501	501	505	511	514	514	508	508	507	507	506	501	501	496	495	493	495	496	501	501	493	489	490	492	496	495	484	484	486	487	487	486	483	488	500	500	500	501	506	514	517	516	507	503	487	481	486	501	508	503	503	498	489	487	491	500	504	506	499	498	491	491	491	489	495	494	492	492	493	493	504	511	506	497	490	497	500	504	504	501	501	497	497	497	496	496	488	488	488	490	503	505	505	494	486	482	482	484	486	491	499	503	505	503	501	498	499	497	492	492	485	501	500	500	496	493	491	491	497	500	500	500	497	493	484	483	484	484	485	489	493	493	491	491	490	494	498	496	494	489	489	489	488	485	488	494	492	483	480	483	484	484	485	495	493	481	473	474	481	492	492	493	485	480	481	497	498	498	498	489	484	483	490	489	487	486	486	482	479	475	482	484	481	477	477	482	497	493	483	491	491	490	490	490	490	488	492	494	497	497	497	493	496	494	493	491	493	495	497	492	485	481	481	481	487	489	490	487	479	479	471	470	471	472	474	474	475	478	482	494	513	513	505	496	485	483	483	488	492	489	484	481	480	480	475	478	479	476	476	476	478	478	473	464	464
506	499	492	485	485	487	488	483	474	469	469	476	485	494	491	489	489	491	491	495	502	506	506	515	513	498	474	473	473	479	483	484	482	475	475	470	476	487	498	498	498	498	494	495	508	517	519	509	509	478	475	476	482	509	510	510	506	490	487	494	495	498	498	500	499	499	499	494	494	497	497	502	509	515	512	506	499	485	485	475	483	498	498	500	499	500	497	497	489	487	495	503	510	507	500	489	489	496	497	495	493	493	485	486	492	492	490	486	481	478	485	492	494	491	493	493	492	488	477	476	481	487	495	496	494	487	487	485	486	491	486	482	481	486	493	498	499	501	492	488	486	486	490	483	477	474	475	473	482	499	503	503	502	499	496	498	499	502	504	499	496	489	482	487	487	496	503	501	500	497	497	496	501	505	507	504	499	493	492	494	494	498	503	497	498	500	498	495	486	489	504	506	506	506	508	513	520	520	521	521	517	511	503	498	498	499	503	500	495	494	493	483	484	489	489	487	489	489	493	508	518	517	503	501	505	517	524	515	506	499	498	505	507	511	506	500	492	491	492	494	494	502	506	515	515	512	506	506	507	507	511	516	519	522	521	521	520	515	507	500	500	502	505	507	511	506	504	508	508	504	498	495	503	505	498	496	499	510	511	511	505	502	501	502	508	510	512	506	498	501	505	510	507	502	501	504	513	514	514	514	511	507	501	499	499	503	509	511	511	506	501	495	499	503	508	508	506	495	485	486	491	495	498	503	511	516	521	515	508	501	501	501	501	497	497	501	504	500	498	502	509	516	520	518	513	507	499	496	497	502	507	501	499	500	504	504	504	504	506	502	494	494	494	497	497	499	499	501	503	507	507	497	490	492	498	498	496	496	496	497	496	484	481	494	509	518	517	505	511	509	506	506	501	501	503	502	497	496	497	499	500	493	496	501	501	493	487	480	481	495	498	487	485	491	491	487	488	485	490	499	500	498	499	501	505	507	505	502	490	484	479	486	503	508	508	509	505	495	493	491	500	504	506	502	498	485	481	481	490	500	494	491	491	488	489	495	501	497	497	495	497	502	499	498	498	500	497	497	496	496	496	494	492	489	488	490	498	494	491	485	482	482	485	486	493	499	502	501	501	500	501	501	496	496	492	485	485	491	494	493	494	496	502	505	502	502	500	497	492	487	486	485	487	484	490	490	493	491	492	493	497	496	496	489	486	486	486	487	490	491	494	492	486	483	483	483	484	485	485	478	470	473	478	475	475	469	476	480	473	474	487	491	487	487	489	484	483	485	487	486	486	486	485	482	480	477	479	478	477	477	479	488	493	483	478	476	476	488	495	493	487	487	492	492	492	491	491	493	491	493	493	491	493	493	489	484	484	484	491	494	492	492	489	489	474	471	470	475	479	479	479	481	487	493	503	506	506	504	495	492	483	483	483	485	482	482	482	482	478	478	478	493	489	489	487	478	478	469	469	460
500	489	485	485	485	486	495	485	477	475	475	476	485	488	493	491	491	491	497	500	498	504	504	506	494	483	474	473	469	481	487	485	479	466	465	465	470	484	498	503	501	501	494	495	521	524	516	487	487	476	473	470	495	501	500	500	489	483	488	494	495	490	489	489	489	490	491	490	489	492	501	501	509	507	500	496	494	485	475	486	488	495	497	496	502	498	489	489	485	485	486	503	504	497	495	489	489	496	495	498	497	485	476	475	485	486	486	483	475	472	474	483	485	487	487	492	492	488	475	475	482	485	490	492	492	487	483	483	482	488	488	486	484	485	488	500	500	492	492	488	491	490	488	480	478	474	475	469	469	483	496	496	499	499	495	495	495	498	497	494	491	488	482	487	496	498	502	508	507	509	504	502	502	504	503	499	494	486	485	486	486	486	484	486	494	497	495	489	483	486	499	505	506	506	508	517	520	521	521	519	515	510	500	493	495	500	501	497	494	491	488	486	484	486	487	486	487	492	492	510	515	512	501	495	499	505	508	508	503	499	498	505	507	513	507	490	485	482	482	489	492	492	498	507	514	509	505	507	507	509	512	513	514	516	518	520	519	514	508	501	498	495	500	505	508	502	513	510	510	510	506	502	504	498	498	500	501	507	508	511	507	505	504	504	508	507	508	503	501	502	504	504	500	496	494	500	506	506	504	504	501	501	499	500	499	503	507	515	520	521	515	512	505	504	502	499	499	498	494	486	495	497	497	506	514	520	520	515	506	500	499	499	499	504	504	505	501	504	504	509	519	525	523	519	515	511	502	497	493	496	502	500	498	492	494	500	497	497	499	493	489	489	493	494	494	496	497	494	489	488	492	498	501	499	502	501	498	497	490	494	491	491	494	498	518	528	513	514	512	505	502	502	500	499	500	499	498	496	497	499	500	493	492	499	508	495	486	484	485	490	499	507	497	501	501	496	488	484	489	500	507	492	487	490	488	487	493	494	486	483	487	497	504	506	506	510	507	495	493	491	497	505	505	500	496	490	493	496	498	497	498	498	495	493	488	486	490	490	489	494	496	501	496	492	491	496	500	497	496	497	500	501	496	491	488	488	490	487	486	483	483	482	483	487	491	495	499	501	499	496	496	501	496	496	489	485	485	488	489	490	491	497	506	508	502	502	494	487	487	496	497	496	485	484	490	490	490	492	491	490	492	495	489	486	481	481	480	485	489	490	490	485	482	481	483	483	483	484	480	470	475	475	473	467	467	470	484	479	474	474	478	478	491	487	483	479	478	482	484	484	486	486	487	487	482	476	474	478	478	477	479	488	492	487	481	479	479	474	483	489	481	479	483	483	490	490	492	493	491	491	491	491	493	492	489	486	486	490	492	495	496	493	488	489	474	465	464	476	482	482	484	489	488	486	495	495	501	497	495	492	483	483	478	478	479	477	479	479	475	467	473	485	485	489	487	481	483	467	467	462
484	483	482	483	492	492	498	492	482	476	476	474	477	488	493	492	492	492	498	501	496	498	498	495	484	476	472	469	481	481	492	489	477	472	467	467	474	485	497	503	505	504	504	505	521	524	492	488	478	478	471	475	487	493	495	488	488	483	487	490	489	490	489	479	482	484	486	487	488	491	493	493	499	496	491	489	494	494	486	486	488	488	488	497	502	500	494	484	484	481	482	488	493	491	491	488	494	494	495	498	480	482	476	476	479	485	485	484	481	478	474	477	477	479	472	477	477	481	475	475	483	485	482	488	489	487	478	478	473	482	491	501	507	508	509	506	498	489	491	491	491	490	486	483	480	481	482	480	480	480	488	495	495	500	493	487	486	499	501	497	495	488	487	490	498	502	502	508	508	509	507	506	499	494	482	477	482	482	482	486	487	487	494	496	500	499	490	480	474	482	493	501	502	504	508	517	520	521	510	508	504	503	497	490	493	495	498	496	494	488	483	484	486	485	487	486	491	495	495	508	510	509	499	490	491	500	503	503	500	499	502	503	511	513	507	490	485	482	483	486	490	490	490	496	505	507	497	498	505	505	513	512	510	511	514	517	517	512	506	499	495	494	496	501	505	495	501	519	519	523	514	507	505	501	499	500	502	504	505	510	511	507	506	505	507	504	501	506	504	505	502	495	491	487	489	504	504	505	501	501	501	506	507	504	500	501	504	510	516	517	513	511	510	504	499	497	493	494	497	500	500	500	504	509	516	516	511	510	503	502	506	510	510	514	509	500	498	495	499	505	511	523	523	517	517	512	503	496	490	492	498	500	500	493	490	496	501	494	489	485	488	491	494	494	496	495	489	484	483	486	490	499	503	505	507	505	502	484	483	485	490	489	491	497	493	524	525	513	512	515	515	500	496	491	500	499	498	496	498	496	497	494	493	504	508	501	492	493	492	497	497	502	514	514	514	507	494	487	493	498	489	486	489	488	485	486	488	484	484	489	497	502	502	502	506	510	507	498	491	489	490	491	491	491	492	499	499	497	498	498	498	500	500	501	498	493	491	488	482	480	484	488	494	491	491	496	496	495	496	499	502	498	498	493	490	482	481	483	484	484	484	483	484	487	489	490	496	501	501	496	496	497	497	497	491	491	488	486	487	488	489	497	502	505	505	498	489	482	487	492	493	496	485	486	491	491	491	489	489	487	488	485	484	480	476	476	474	483	489	487	486	481	482	481	481	482	483	480	479	473	479	476	473	473	468	478	490	483	477	475	478	478	478	475	477	477	478	479	482	484	484	488	491	491	482	471	469	472	478	477	474	482	486	485	485	485	480	478	471	474	478	475	475	481	493	490	492	489	486	486	485	485	488	489	486	487	487	490	490	489	486	493	493	488	471	466	469	476	486	486	492	490	485	482	484	484	501	497	493	490	488	488	476	476	476	477	477	473	466	464	470	485	485	489	492	484	474	474	468	466
484	483	486	490	495	495	501	499	492	480	474	474	477	487	490	492	492	492	489	493	499	495	489	489	481	467	470	473	481	481	492	489	483	480	476	478	478	485	493	499	503	512	512	520	524	516	492	488	474	474	468	475	488	497	499	494	494	486	486	487	481	479	479	482	482	486	488	485	486	485	488	488	488	486	483	488	497	497	493	495	495	488	488	491	501	505	499	488	488	482	485	490	493	492	483	484	483	483	479	478	480	482	488	487	482	483	479	479	471	469	474	475	473	470	466	462	477	477	473	475	483	485	476	481	483	483	479	481	481	483	488	493	504	508	508	503	487	487	490	490	490	489	486	483	480	485	485	485	483	482	488	498	498	503	493	488	483	485	500	502	495	495	497	499	497	502	502	506	508	509	507	505	497	490	481	476	474	477	484	491	496	501	501	501	498	498	487	476	472	476	487	494	497	498	506	510	507	510	508	508	504	490	489	486	490	494	498	497	492	486	479	477	483	486	486	486	490	497	498	498	499	496	492	483	490	498	500	500	498	498	499	503	502	502	496	491	487	484	483	486	490	490	490	486	491	497	491	488	486	490	502	507	507	506	508	512	509	506	500	493	490	494	497	502	492	491	497	506	515	515	516	510	506	504	498	502	503	503	503	506	510	511	510	508	510	507	501	504	506	509	512	507	514	510	507	506	503	503	502	508	508	511	509	506	500	499	504	505	505	507	508	507	503	505	503	497	497	496	497	505	508	506	507	504	504	502	501	499	506	508	509	507	507	510	507	505	495	487	489	501	505	508	513	514	517	517	506	494	486	488	496	498	498	496	494	510	508	501	490	485	486	491	495	495	491	488	486	483	482	483	488	496	500	502	501	500	476	477	479	486	483	489	488	491	493	518	498	492	499	515	515	500	496	491	494	497	498	498	495	494	494	497	502	502	501	496	493	497	499	497	491	489	485	485	501	506	495	491	488	485	492	490	495	492	491	486	484	484	484	493	497	502	502	502	501	505	505	502	492	483	484	491	500	502	494	494	505	504	503	502	502	504	496	494	492	484	483	482	479	480	489	488	494	491	490	490	490	489	494	501	502	498	493	487	480	478	477	479	481	481	484	483	485	487	488	490	496	501	501	497	494	493	493	495	491	489	485	485	479	479	484	489	493	496	496	492	483	480	481	492	493	491	481	490	490	495	494	490	484	483	479	479	481	476	476	476	472	474	485	487	486	481	477	475	475	480	478	474	478	479	482	480	470	470	468	465	474	487	477	475	475	475	475	472	472	475	478	479	482	484	484	489	497	487	471	468	469	469	472	473	473	486	482	481	482	482	471	471	466	464	465	472	472	481	493	498	494	484	474	474	474	475	481	483	483	481	481	487	482	489	486	484	484	484	475	468	471	477	477	489	495	492	485	480	482	484	492	489	486	483	483	486	486	481	476	467	467	455	459	464	470	476	476	489	484	474	473	473	471	477
476	480	486	490	502	502	506	502	499	491	484	484	488	487	492	491	492	492	489	489	496	496	489	489	476	473	476	482	489	489	500	488	483	480	482	482	482	476	478	485	496	509	518	518	509	494	488	482	474	468	470	480	488	500	500	492	490	490	485	477	473	474	477	481	481	486	488	487	483	480	479	481	481	479	474	484	493	495	496	495	495	489	487	491	501	500	498	489	483	483	486	494	485	482	479	474	473	472	472	476	481	490	488	487	480	476	473	473	470	469	473	476	475	465	462	469	479	479	481	473	476	476	476	481	483	482	480	482	482	484	485	486	488	489	487	485	483	483	488	488	488	485	485	487	485	485	485	488	483	485	493	500	500	500	500	492	487	486	492	493	490	490	491	492	493	498	504	504	504	508	507	505	497	486	484	480	478	480	487	493	498	501	501	498	499	495	485	480	476	476	483	486	490	496	507	506	504	502	501	501	494	490	489	486	494	498	499	495	490	483	478	477	476	482	486	487	489	489	489	489	483	480	480	482	485	491	491	496	493	494	497	498	499	494	492	488	482	479	488	488	486	485	485	486	491	497	491	488	480	479	488	494	489	484	498	505	507	505	501	500	496	496	499	489	489	489	493	502	505	505	507	510	509	503	498	501	502	501	501	503	508	512	515	512	508	506	506	507	508	511	513	515	512	511	510	505	505	506	506	508	508	510	506	504	499	498	501	504	504	503	501	500	501	504	511	510	506	502	499	501	504	504	505	504	497	494	497	511	511	509	507	501	501	496	498	507	506	498	494	490	483	475	476	489	507	509	504	491	485	486	488	494	496	494	499	511	509	499	490	486	490	492	492	489	485	486	486	486	485	480	479	480	486	494	487	478	472	479	483	489	487	485	488	485	493	518	498	492	499	499	503	490	486	489	492	496	497	494	491	488	491	496	496	493	487	485	488	492	496	492	484	477	477	479	482	492	487	480	477	486	497	505	500	499	490	485	481	484	484	493	495	501	501	495	496	496	497	494	486	484	484	489	496	498	492	500	506	506	501	501	498	492	487	484	479	478	486	482	479	480	489	493	494	491	492	492	493	497	499	504	507	500	492	484	479	478	475	475	477	477	483	485	489	489	488	490	495	497	499	498	494	494	494	491	488	484	482	478	478	477	478	479	483	483	484	483	482	480	481	488	486	485	478	480	480	491	491	489	482	478	476	473	474	477	477	475	471	474	485	487	487	479	475	475	470	470	474	474	474	479	483	483	472	472	468	467	474	487	478	477	475	475	472	466	465	471	476	484	488	488	487	483	483	480	471	468	468	468	469	473	482	477	469	459	459	462	465	459	461	461	464	472	472	489	499	500	491	479	469	469	462	470	473	477	478	478	481	487	482	478	475	473	473	475	473	471	475	479	479	482	486	486	485	480	480	475	471	472	471	475	475	476	479	473	463	449	449	455	459	464	465	465	467	467	468	470	473	473	476	482
478	486	493	499	502	506	505	500	502	501	502	504	504	494	492	487	485	485	484	489	499	495	486	471	471	475	482	488	502	502	502	495	486	486	482	482	474	467	463	457	474	491	497	497	492	489	481	476	470	470	470	480	486	492	488	482	480	480	482	476	469	471	477	482	492	492	491	487	483	476	479	479	479	477	473	479	487	492	490	491	490	490	486	486	496	500	498	485	495	495	491	483	482	478	476	470	469	471	471	471	480	489	489	485	480	476	470	465	465	468	476	478	476	470	471	482	489	483	483	476	472	468	474	478	483	482	480	485	486	486	492	491	491	490	484	480	482	485	487	486	484	484	481	485	486	489	490	488	483	485	494	497	500	500	503	503	500	496	494	493	494	488	492	490	494	498	503	503	502	503	500	497	493	486	484	480	483	483	491	496	501	501	497	497	494	491	492	492	491	490	488	493	496	502	505	503	496	490	489	489	489	488	487	485	494	498	499	495	488	480	481	479	478	481	485	487	488	483	480	478	478	474	476	481	485	485	487	488	486	488	491	496	497	493	489	485	477	480	479	487	485	486	490	490	495	499	498	488	480	479	488	494	489	479	485	496	505	506	504	493	485	486	488	488	488	488	495	502	503	503	502	505	502	497	497	498	499	501	501	502	505	504	502	500	503	506	508	509	509	508	511	513	514	513	510	507	505	507	508	509	509	510	505	500	497	498	498	503	502	503	503	506	507	506	510	509	505	497	489	495	497	498	497	494	490	490	507	518	514	509	499	495	495	491	489	493	501	502	500	495	491	489	477	473	483	491	492	490	489	488	488	489	490	492	494	491	499	493	486	484	488	498	498	494	487	481	479	483	488	495	498	496	494	494	487	483	482	487	483	489	487	485	488	485	481	481	486	497	490	490	488	481	483	483	488	490	490	488	482	484	485	488	489	486	475	478	484	488	482	488	491	495	495	494	489	477	480	480	488	501	506	504	501	499	490	485	481	479	485	486	492	492	498	492	492	493	495	494	488	485	486	480	479	484	496	500	500	495	488	488	486	485	482	481	478	478	486	482	474	473	479	490	490	490	490	483	489	497	505	507	501	497	498	495	496	493	486	482	482	478	479	481	489	489	486	486	490	493	496	494	488	488	490	487	480	470	471	477	479	478	476	474	474	475	484	483	482	482	483	481	483	479	476	476	480	483	484	484	482	478	476	476	478	478	479	475	471	468	473	487	488	483	470	470	469	473	474	475	475	480	481	480	480	470	468	467	466	473	490	487	475	475	472	472	475	478	475	477	476	476	478	479	483	480	477	475	475	475	479	482	481	475	474	471	471	463	456	456	460	461	464	464	468	481	495	495	488	474	474	464	460	461	470	474	475	478	481	478	477	470	468	468	467	471	471	473	474	473	473	476	486	486	483	475	475	470	464	459	461	462	462	463	465	462	450	463	449	451	456	462	466	466	468	469	470	469	469	473	476	481
495	495	500	503	501	505	505	489	500	509	514	510	510	500	494	491	488	492	492	495	499	495	481	470	470	469	477	489	497	500	500	494	484	482	477	474	467	467	455	463	479	487	489	489	487	483	475	465	465	470	470	475	486	492	481	474	477	482	482	482	473	476	482	489	490	490	491	486	478	476	479	480	477	477	474	475	481	484	484	486	491	491	491	485	488	490	485	485	495	489	489	480	475	474	468	466	469	468	474	474	477	482	484	480	473	469	470	465	468	478	484	482	478	474	479	492	493	484	478	478	470	471	475	478	478	481	486	485	486	485	491	491	492	490	484	481	483	488	490	487	482	482	483	486	490	493	493	491	490	493	494	497	498	501	501	504	502	493	491	495	499	500	494	494	494	500	502	499	499	497	494	491	488	488	490	487	483	483	491	493	500	499	497	497	497	491	491	491	488	482	481	481	481	479	483	486	486	482	478	477	481	481	489	493	492	497	500	495	488	480	481	487	483	485	485	488	484	483	479	474	474	476	480	482	485	484	486	486	485	484	486	493	495	492	487	482	478	476	476	478	480	483	487	487	499	508	505	503	489	473	482	484	478	479	485	496	505	506	504	482	480	482	489	488	489	485	491	502	502	500	500	500	497	490	492	495	498	495	492	498	501	500	498	496	499	507	506	501	501	503	505	507	506	506	505	507	506	507	511	510	510	507	503	496	498	494	498	503	507	506	506	508	508	509	508	505	504	494	484	477	488	489	489	485	487	500	511	520	516	500	496	490	490	488	488	491	496	497	499	496	496	493	491	477	478	485	489	490	491	496	497	490	490	492	486	482	478	483	482	483	492	500	500	500	494	481	476	480	487	492	497	500	499	494	487	483	482	487	488	487	488	483	480	481	482	479	486	483	483	480	479	483	476	478	482	486	482	478	481	482	484	485	486	482	474	475	477	477	482	490	492	492	494	496	492	485	475	479	490	499	506	504	501	499	490	484	481	478	479	484	487	487	490	486	486	484	486	491	495	484	479	472	471	485	492	494	495	493	493	480	478	480	480	481	478	477	481	486	477	470	473	476	479	476	476	477	477	484	490	495	491	494	491	490	491	493	499	500	500	478	479	481	486	486	481	479	482	487	490	485	485	484	479	474	471	474	477	477	479	475	471	469	474	475	482	484	483	483	482	478	479	478	477	477	480	482	483	481	479	479	484	486	483	478	479	476	470	464	476	484	487	487	479	479	472	474	475	475	475	477	476	477	480	470	468	469	467	473	489	486	486	479	474	474	478	479	479	473	473	468	478	479	481	485	482	487	487	489	487	483	483	482	481	477	477	478	469	456	460	464	466	466	469	480	490	478	471	463	463	458	457	462	472	474	474	475	480	479	472	468	465	465	466	469	471	465	458	458	458	476	484	483	472	472	470	466	459	457	454	454	457	456	454	462	450	450	449	456	459	463	463	469	471	468	468	467	467	467	476	481
506	506	505	505	497	493	489	489	500	500	506	502	502	497	499	501	503	510	510	516	504	493	481	470	475	474	474	484	490	498	491	491	480	473	465	468	463	463	455	463	481	485	488	485	485	477	470	466	470	467	467	467	477	484	481	474	473	474	474	467	462	461	476	489	489	484	484	479	476	479	482	480	477	476	474	473	474	471	474	480	485	486	486	479	476	474	480	491	497	489	489	480	475	470	464	461	464	469	470	470	477	483	484	479	473	466	463	468	478	478	484	458	457	461	475	488	485	481	477	477	473	472	479	479	480	487	488	489	485	491	491	488	492	490	488	486	491	497	500	500	498	495	495	491	483	481	482	486	490	490	491	493	498	501	501	500	500	496	494	496	498	501	503	504	499	496	493	494	494	493	489	484	486	485	487	486	485	486	490	493	500	499	497	488	488	483	487	486	479	479	479	476	475	474	477	483	488	486	484	480	483	483	489	488	489	494	497	493	484	485	488	487	483	485	485	494	488	483	483	487	483	483	484	487	486	486	490	489	486	486	488	491	497	492	488	488	484	479	479	481	483	484	488	499	499	510	516	514	509	490	472	467	473	479	485	491	496	500	487	482	480	482	489	488	489	480	484	501	501	499	499	495	494	489	488	493	490	489	493	495	497	491	488	485	484	486	488	491	498	500	501	501	502	499	500	502	504	508	512	514	514	507	501	495	491	491	498	507	512	508	506	511	508	505	506	502	500	495	485	478	476	484	484	485	488	500	511	520	513	499	495	490	490	492	490	490	494	498	499	499	493	495	491	489	485	487	491	497	500	499	498	496	493	490	484	480	474	476	478	480	486	486	493	500	489	480	476	480	487	492	497	500	499	498	498	496	488	488	487	488	486	481	479	476	475	475	477	479	479	489	496	481	475	476	481	483	479	476	479	482	484	485	484	480	475	474	472	472	480	488	494	494	491	490	493	493	489	479	490	499	503	502	499	498	497	486	481	478	475	477	477	484	491	492	492	486	480	483	479	474	474	472	478	487	491	495	496	494	494	485	478	480	480	485	487	486	486	478	474	469	473	477	473	473	468	470	471	473	474	478	480	477	476	473	474	477	499	499	500	497	490	482	479	478	476	473	472	461	479	484	484	485	481	474	479	482	479	480	479	478	471	471	469	472	483	482	482	485	484	477	474	475	475	480	483	484	481	476	467	475	485	486	486	483	481	476	470	467	473	471	471	471	471	464	464	466	470	471	473	472	476	476	477	476	473	472	476	483	480	477	477	477	474	476	476	475	475	467	473	468	472	475	478	481	479	480	480	482	484	493	491	486	481	481	473	478	469	466	466	469	469	470	475	476	469	456	453	453	453	452	456	462	472	475	475	475	478	479	472	465	465	463	465	465	467	462	447	458	458	465	473	477	462	462	462	465	464	461	457	457	455	455	454	452	452	451	459	463	464	466	466	466	468	459	456	459	467	467	470	475
