0	0	0	0	0	0	0	0	0	0	0	0	0	0	0	0	0	0	0	0	0	0	0	0	0	0	0	0	0	0	0	0	0	0	0	0	0	0	0	0	0	0	0	0	0	0	0	0	0	0	0	0	0	0	0	0	0	0	0	0	0	0	0	0	0	0	0	0	0	0	0	0	0	0	0	0	0	0	0	0	0	0	0	0	0	0	0	0	0	0	0	0	0	0	0	0	0	0	0	0	0	0	0	0	0	0	0	0	1063	1070	1070	1072	1056	1036	0	0	0	0	0	0	0	0	0	0	0	0	0	0	0	0	0	0	0	0	1062	1048	1036	1068	1068	1124	1172	0	0	0	0	1135	1152	1157	1158	1152	1119	1095	1095	1096	0	0	0	0	1147	1147	1130	0	1111	1101	1088	1095	1106	1117	1138	1153	1187	1199	1211	1221	1212	1176	1176	1111	1078	1062	1110	1170	1206	1205	1183	1166	1152	1162	1158	1142	1142	1167	1194	1210	1192	1148	1116	1116	1131	1140	1152	1163	1160	1155	1155	1156	1180	1197	1185	1171	1148	1152	1143	1139	1154	1185	1203	1207	1198	1184	1183	1193	1208	1215	1210	1217	0	0	0	0	0	1266	1245	1244	1255	1255	1259	1242	1214	1185	1154	1125	1142	1192	0	0	0	1208	1201	1199	1199	1193	0	0	0	0	0	0	0	0	0	0	0	0	0	0	0	0	0	0	0	0	0	0	0	0	0	0	0	0	0	0	0	0	0	0	0	0	0	0	0	0	0	0	0	0	0	0	0	0	0	0	0	0	0	0	0	0	1316	1333	1315	1270	1228	1193	1179	1163	1152	1140	1128	1119	1132	1149	1162	1157	1149	1148	1158	1176	1182	1188	1193	1206	1216	1196	1167	1148	1132	1150	1168	1183	1179	1181	1180	1188	1196	1189	1165	1146	1128	1112	1104	1093	1106	1128	1152	1160	1149	1148	1148	1151	1213	0	0	1173	1086	1065	1076	1102	1131	1156	1167	1176	1156	1121	1084	1085	1102	1111	1111	1129	1142	1144	1120	1088	1062	1061	1058	1060	1055	1061	1088	1097	1107	0	0	0	0	0	0	0	0	0	0	0	0	0	0	0	0	0	0	0	0	0	0	0	0	0	0	0	0	0	0	0	0	0	0	0	0	0	0	0	0	0	0	0	0	0	0	0	0	0	0	0	0	0	0	0	0	0	0	0	0	0	0	0	0	0	0	0	0	0	0	0	0	0	0	0	0	0	0	0	0	0	0	0	0	0	0	0	994	1004	1025	1008	987	993	1003	1010	1009	995	990	990	987	968	968	962	966	976	989	999	1008	990	972	977	997	1004	998	984	967	967	953	962	961	965	959	952	947	941	945	934	932	929	929	933	954	971	982	984	972	963	959	961	951	951	933	934	949	972	977	973	968	962	947	932	932	947	959	984	1005	1014	1002	996	988	995	995	1003	991	960	944	933	924	915	906	906	905	918	938	947	955	959	952	937	937	935	945	969	994	996	1005	1017	1017	1019	1005	989	0	0	0	0	0	0	0	0	0	0	0	0	0	0	0	0	0	1017	966	966	939	916	905	919	933	952	952	973	988	989	974	958	958	958	962	991	1007	994	979	979	982	990	1006	1003	990	990	976	943	908	910	928	928	962	970	959	928
0	0	0	0	0	0	0	0	0	0	0	0	0	0	0	0	0	0	0	0	0	0	0	0	0	0	0	0	0	0	0	0	0	0	0	0	0	0	0	0	0	0	0	0	0	0	0	0	0	0	0	0	0	0	0	0	0	0	0	0	0	0	0	0	0	0	0	0	0	0	0	0	0	0	0	0	0	0	0	0	0	0	1013	1002	1024	1061	0	0	0	0	0	0	0	0	0	0	0	0	0	0	0	0	0	0	0	0	0	0	1052	1075	1075	1072	1047	1028	1032	1039	1063	1074	0	0	0	0	1082	1082	1082	1081	1083	1059	1043	0	0	0	1075	1083	1062	1042	1023	1046	1046	1091	1137	1169	1157	1124	1088	1088	1088	1090	1124	1112	1076	1062	1047	1055	1072	1072	1089	1111	1126	1128	1118	1115	1116	1099	1082	1080	1098	1123	1150	1178	1201	1210	1201	1200	1168	1114	1114	1055	1018	1019	1049	1068	1089	1105	1107	1113	1136	1162	1158	1136	1140	1164	1177	1158	1112	1086	1072	1070	1083	1087	1121	1134	1147	1140	1148	1148	1171	1181	1197	1182	1176	1172	1191	1194	1194	1217	0	0	0	1220	1219	1220	1221	1227	1230	0	0	0	0	0	0	0	0	0	0	0	0	0	0	0	0	0	0	0	0	0	0	0	0	0	0	0	0	0	0	0	0	0	0	0	0	0	0	0	0	0	0	0	0	0	0	0	0	0	0	0	0	0	0	0	0	0	0	0	0	0	0	0	0	0	0	0	0	0	0	0	0	0	0	0	0	0	0	1156	1170	1181	1192	1184	1186	1198	1210	1214	1190	1159	1140	1151	1148	1147	1144	1139	1147	1165	1166	1162	1148	1154	1162	1167	1177	1175	1176	1181	1170	1165	1151	1136	1137	1155	1168	1174	1172	1174	1167	1176	1177	1172	1148	1125	1106	1102	1099	1103	1108	1136	1166	1178	1173	1163	1160	1165	1213	0	0	1189	1109	1079	1081	1099	1117	1147	1180	1188	1161	1112	1067	1069	1082	1082	1098	1113	1142	1141	1116	1087	1086	1098	0	0	0	0	0	0	0	0	0	0	0	0	0	0	0	0	0	0	0	0	0	0	0	0	0	0	0	0	0	0	0	0	0	0	0	0	0	0	0	0	0	0	0	0	0	0	0	0	0	0	0	0	0	0	0	0	0	0	0	0	0	0	0	0	0	0	0	0	0	0	0	0	0	0	0	0	0	0	0	0	0	0	0	0	0	1051	1004	989	1003	976	976	956	944	959	984	991	994	996	995	990	994	999	992	981	977	978	981	979	979	969	961	964	976	999	1008	999	983	975	975	977	978	974	974	958	955	953	952	943	932	929	933	934	946	945	941	941	946	955	972	983	979	975	969	974	985	983	967	967	929	925	934	957	976	977	983	999	1016	932	932	939	949	974	992	1002	1001	997	978	966	966	967	954	923	916	916	901	895	881	881	879	885	906	926	935	938	941	948	948	962	983	987	981	969	969	956	956	939	1005	989	957	935	910	902	902	907	919	930	930	942	965	965	977	987	991	1003	995	983	967	967	955	926	918	930	919	919	925	942	974	979	973	959	958	958	973	1003	1017	1004	1004	989	980	987	990	991	988	988	974	950	918	907	914	914	941	969	957	945
0	0	0	0	0	0	0	0	0	0	0	0	0	0	0	0	0	0	0	0	0	0	0	0	0	0	0	0	0	0	0	0	0	0	0	0	0	0	0	0	0	0	0	0	0	0	0	0	0	0	0	0	0	0	0	0	0	0	0	0	0	0	0	0	0	0	0	0	0	0	0	0	0	0	0	0	0	0	0	0	0	0	994	986	999	1047	0	0	0	0	0	0	0	0	0	0	0	1144	1118	1118	0	0	0	0	0	0	0	0	1073	1087	1087	1075	1036	1013	1006	1023	1022	1038	1063	1082	1084	1084	1075	1075	1063	1055	1040	1022	1010	1010	1013	1033	1075	1083	1067	1059	1058	1063	1063	1057	1066	1077	1081	1060	1044	1040	1042	1037	1041	1039	1032	1010	1010	1020	1037	1061	1061	1072	1072	1071	1061	1064	1064	1071	1072	1087	1150	1181	1199	1209	1206	1168	1102	1072	1083	1094	1098	1098	1092	1085	1046	1041	1027	1043	1062	1082	1119	1134	1141	1136	1135	1167	1174	1143	1110	1085	1068	1065	1080	1079	1101	1117	1132	1133	1134	1134	1151	1177	1183	0	0	0	0	0	0	0	0	0	0	0	0	0	0	0	0	0	0	0	0	0	0	0	0	0	0	0	0	0	0	0	0	0	0	0	0	0	0	0	0	0	0	0	0	0	0	0	0	0	0	0	0	0	0	0	0	0	0	0	0	0	0	0	0	0	0	0	0	0	0	0	0	0	0	0	0	0	0	0	0	0	0	0	0	1158	1153	1142	1143	1131	1121	1114	1125	1140	1128	1127	1120	1133	1151	1151	1145	1159	1178	1173	1148	1132	1133	1150	1155	1160	1161	1158	1162	1167	1159	1144	1136	1134	1137	1139	1136	1139	1139	1137	1132	1133	1143	1142	1139	1143	1139	1133	1146	1155	1158	1158	1157	1145	1127	1106	1082	1094	1110	1115	1130	1144	1161	1172	1177	1168	1159	1142	1143	1175	0	0	1159	1102	1108	1113	1120	1126	1158	1162	1145	1083	1055	1087	1127	1127	1152	1182	1200	0	0	0	0	0	0	0	0	0	0	0	0	0	0	0	0	0	0	0	0	0	0	0	0	0	0	0	0	0	0	0	0	0	0	0	0	0	0	0	0	0	0	0	0	0	0	0	0	0	0	0	0	0	0	0	0	0	0	0	0	0	0	0	0	0	0	0	0	0	0	0	0	0	0	0	0	0	0	0	0	0	0	0	0	1116	1149	1086	1061	1031	993	958	951	961	950	929	929	931	949	972	987	1003	1002	1008	1009	1010	1005	990	978	965	961	959	970	970	975	978	961	964	976	983	982	984	982	976	963	960	963	961	961	950	941	937	942	943	955	964	974	987	1005	1017	1016	1016	1005	988	965	944	937	958	987	1009	1016	994	951	951	924	920	941	963	964	962	963	999	1016	1001	1001	962	941	936	943	948	946	938	930	926	926	938	952	946	906	893	899	912	894	894	888	895	908	926	930	934	934	948	948	964	986	987	977	968	958	956	956	939	946	955	947	926	904	898	898	905	917	920	932	947	968	968	972	976	981	986	984	976	976	969	953	927	926	920	914	914	898	902	910	930	973	959	959	964	976	1002	1001	997	997	983	976	965	946	938	938	947	959	948	936	912	912	908	928	946	944	943
0	0	0	0	0	0	0	0	0	0	0	0	0	0	0	0	0	0	0	0	0	0	0	0	0	0	0	0	0	0	0	0	0	0	0	0	0	0	0	0	0	0	0	0	0	0	0	0	0	0	0	0	0	0	0	0	0	0	0	0	0	0	0	0	0	0	0	0	0	0	0	0	0	0	0	0	0	0	0	0	0	0	980	972	969	0	0	0	0	0	0	0	0	0	0	0	0	1117	1101	1101	0	0	0	0	0	0	0	1050	1080	1090	1067	1067	1015	986	990	992	981	989	1003	1037	1069	1078	1068	1056	1056	1041	1027	1007	1004	999	1013	1034	1056	1064	1067	1059	1064	1070	1061	1061	1051	1045	1048	1053	1042	1029	1024	1038	1035	1020	1012	1005	1010	1013	1035	1042	1042	1042	1046	1041	1042	1038	1041	1031	1022	1046	1079	1117	1169	1192	1176	1128	1069	1009	1030	1027	1020	1020	1019	1021	1015	1024	1034	1043	1050	1076	1104	1116	1111	1111	1135	1167	1174	1143	1107	1085	1072	1069	1091	1097	1097	0	0	0	0	0	0	0	0	0	0	0	0	0	0	0	0	0	0	0	0	0	0	0	0	0	0	0	0	0	0	0	0	0	0	0	0	0	0	0	0	0	0	0	0	0	0	0	0	0	0	0	0	0	0	0	0	0	0	0	0	0	0	0	0	0	0	0	0	0	0	0	0	0	0	0	0	0	0	0	0	0	0	0	0	0	1082	1092	1104	1120	1109	1070	1062	1080	1104	1098	1093	1083	1080	1105	1136	1144	1130	1129	1117	1123	1125	1127	1125	1144	1151	1144	1129	1115	1123	1150	1164	1171	1174	1167	1159	1150	1130	1117	1113	1110	1105	1094	1100	1106	1096	1113	1125	1131	1142	1151	1140	1121	1105	1097	1107	1136	1153	1154	1135	1123	1109	1092	1082	1085	1103	1119	1134	1134	1151	1156	1163	1154	1130	1104	1088	1154	0	0	0	1159	1137	1140	1130	1113	1099	1060	1036	1043	0	0	0	0	0	0	0	0	0	0	0	0	0	0	0	0	0	0	0	0	0	0	0	0	0	0	0	0	0	0	0	0	0	0	0	0	0	0	0	0	0	0	0	0	0	0	0	0	0	0	0	0	0	0	0	0	0	0	0	0	0	0	0	0	0	0	0	0	0	0	0	0	0	0	0	0	0	0	0	0	0	0	0	0	0	0	0	1044	990	972	977	986	981	1026	1030	1020	1004	996	996	988	962	926	926	923	943	967	983	984	991	1001	1019	1017	993	977	952	930	914	913	931	931	959	970	961	948	936	949	956	947	933	920	927	947	957	935	935	911	901	910	921	948	958	974	988	1005	1004	1003	1001	1001	994	980	959	942	938	961	993	1011	1014	991	952	952	921	913	937	962	960	944	963	979	1001	1001	999	957	935	938	944	947	948	943	930	930	933	944	960	944	904	880	894	922	983	983	1001	981	935	892	888	886	888	888	904	930	970	998	1000	968	958	942	942	929	936	951	945	927	905	905	896	900	914	931	942	971	971	971	948	939	945	954	960	959	959	944	924	905	897	895	894	894	879	894	910	930	930	931	931	927	946	972	962	949	949	943	938	937	915	910	910	928	940	935	925	909	909	906	910	920	928	925
0	0	0	0	0	0	0	0	0	0	0	0	0	0	0	0	0	0	0	0	0	0	0	0	0	0	0	0	0	0	0	0	0	0	0	0	0	0	0	0	0	0	0	0	0	0	0	0	0	0	0	0	0	0	0	0	0	0	0	0	0	0	0	0	0	0	0	0	0	0	0	0	0	0	0	0	0	0	0	0	0	0	0	0	0	0	0	0	0	0	0	0	0	0	0	0	0	0	0	0	0	0	0	1078	1090	1058	1049	1039	1056	1065	1037	1037	1008	984	983	983	987	988	995	1007	1027	1038	1047	1048	1048	1063	1061	1049	1036	1037	1036	1052	1055	1051	1041	1051	1064	1070	1058	1058	1043	1032	1040	1041	1042	1036	1034	1035	1025	1014	1012	1022	1037	1043	1042	1036	1036	1036	1037	1034	1040	1037	1036	1021	1017	1015	1019	1030	1045	1062	1087	1054	1041	1033	1012	1010	1015	1021	1021	1020	1015	1027	1044	1043	1043	1063	1089	1093	1091	1102	1138	1171	1174	1143	0	0	0	0	0	0	0	0	0	0	0	0	0	0	0	0	0	0	0	0	0	0	0	0	0	0	0	0	0	0	0	0	0	0	0	0	0	0	0	0	0	0	0	0	0	0	0	0	0	0	0	0	0	0	0	0	0	0	0	0	0	0	0	0	0	0	0	0	0	0	0	0	0	0	0	0	0	0	0	0	0	0	0	0	0	0	0	0	1150	1075	1036	1021	1068	1083	1095	1108	1113	1101	1084	1084	1091	1101	1086	1081	1102	1123	1146	1147	1132	1123	1114	1115	1114	1115	1118	1126	1135	1123	1110	1107	1130	1144	1160	1169	1173	1165	1139	1112	1084	1078	1083	1083	1067	1069	1070	1079	1082	1105	1121	1137	1151	1153	1134	1104	1075	1069	1085	1120	1130	1142	1131	1115	1103	1104	1107	1109	1105	1117	1121	1126	1133	1138	1145	1135	1104	1065	1082	0	0	0	0	0	0	0	0	0	0	0	0	0	0	0	0	0	0	0	0	0	0	0	0	0	0	0	0	0	0	0	0	0	0	0	0	0	0	0	0	0	0	0	0	0	0	0	0	0	0	0	0	0	0	0	0	0	0	0	0	0	0	0	0	0	0	0	0	0	0	0	0	1057	1037	1025	1025	0	0	0	0	0	0	0	0	0	0	0	0	0	0	0	0	1040	1040	990	1001	1002	1002	995	988	960	950	940	944	947	981	1003	996	983	981	977	977	964	939	939	914	903	919	956	976	975	985	991	1000	1005	983	972	953	930	910	911	930	930	959	970	966	972	996	1011	986	945	930	924	931	951	967	967	946	915	906	909	926	946	960	973	995	1007	1003	999	990	990	982	971	956	938	917	907	933	969	983	995	995	990	963	944	915	912	960	944	943	955	964	964	971	953	939	932	929	924	917	928	937	937	942	935	908	889	880	892	909	912	912	904	889	889	896	898	897	886	885	885	906	940	963	998	1000	999	981	981	947	935	932	938	933	925	908	908	903	910	916	930	950	967	951	951	925	929	942	954	955	935	935	936	921	900	895	889	894	894	879	894	913	930	930	930	925	914	923	933	919	905	905	899	906	898	891	896	896	913	933	935	911	907	907	0	0	0	907	924
0	0	0	0	0	0	0	0	0	0	0	0	0	0	0	0	0	0	0	0	0	0	0	0	0	0	0	0	0	0	0	0	0	0	0	0	0	0	0	0	0	0	0	0	0	0	0	0	0	0	0	0	0	0	0	0	0	0	0	0	0	0	0	0	0	0	0	0	0	0	0	0	0	0	0	0	0	0	0	0	0	0	0	0	0	0	0	0	0	0	0	0	0	0	0	0	0	0	1004	1004	1002	990	994	987	994	1008	1005	1024	1029	1036	1033	1033	1013	990	974	984	995	993	993	995	1000	1013	1021	1030	1030	1043	1051	1044	1031	1019	1025	1040	1046	1046	1037	1044	1069	1074	1058	1064	1047	1029	1029	1030	1034	1036	1036	1038	1023	1009	1011	1026	1039	1042	1038	1030	1025	1025	1019	1021	1036	1046	1041	1016	999	997	983	1005	1021	1025	1027	1033	1036	1030	1012	1009	1014	1031	1031	1064	1042	1022	1069	1057	1040	1040	1088	1105	1099	1123	1172	1246	1291	0	0	0	0	0	0	0	0	0	0	0	0	0	0	0	0	0	0	0	0	0	0	0	0	0	0	0	0	0	0	0	0	0	0	0	0	0	0	0	0	0	0	0	0	0	0	0	0	0	0	0	0	0	0	0	0	0	0	0	0	0	0	0	0	0	0	0	0	0	0	0	0	0	0	0	0	0	0	0	0	0	0	0	0	1089	1135	1154	1168	1149	1119	1093	1075	1073	1079	1086	1090	1098	1104	1098	1096	1102	1096	1088	1086	1095	1114	1135	1151	1150	1132	1116	1115	1121	1117	1106	1113	1126	1123	1110	1104	1103	1121	1132	1144	1149	1149	1123	1088	1065	1045	1053	1066	1062	1052	1048	1067	1082	1093	1102	1120	1144	1150	1139	1118	1098	1080	1063	1066	1086	1094	1109	1112	1102	1099	1102	1113	1117	1114	1107	1109	1113	1121	1130	1131	1129	1120	0	0	0	0	0	0	0	0	0	0	0	0	0	0	0	0	0	0	0	0	0	0	0	0	0	0	0	0	0	0	0	0	0	0	0	0	0	0	0	0	0	0	0	0	0	0	1213	1240	1215	1157	1097	1099	1130	1148	1155	1153	1140	1123	1097	1069	1045	1024	1002	992	1012	1003	1003	972	941	943	972	1001	1013	1014	1020	1025	1010	1025	1031	1046	1054	1059	1055	1050	1042	1045	1064	1073	1077	1074	1064	1058	1046	1015	1002	1002	1006	1004	991	974	959	958	958	953	945	949	949	985	1006	992	979	975	971	967	956	930	930	905	893	910	950	974	968	968	979	984	977	957	945	933	917	908	895	911	930	953	970	965	974	1003	1020	1005	945	924	932	949	965	981	981	977	976	984	993	988	969	930	896	889	905	945	982	982	973	938	912	891	882	879	877	895	933	966	978	978	977	961	940	915	912	913	941	950	956	958	958	941	930	919	921	919	914	907	913	931	931	930	916	899	886	884	895	906	902	902	894	881	884	894	908	902	887	890	890	913	940	963	988	997	999	988	988	972	955	936	933	929	929	916	916	913	911	917	922	935	938	932	932	924	929	949	953	946	936	936	928	920	913	905	889	894	894	895	903	940	957	945	945	930	919	912	903	901	886	886	875	877	870	878	889	889	909	937	926	0	0	0	0	0	893	919	924
0	0	0	0	0	0	0	0	0	0	0	0	0	0	0	0	0	0	0	0	0	0	0	0	0	0	0	0	0	0	0	0	0	0	0	0	0	0	0	0	0	0	0	0	0	0	0	0	0	0	0	0	0	0	0	0	0	0	0	0	0	0	0	0	0	0	0	0	0	0	0	0	0	0	0	0	0	0	0	0	0	0	0	0	0	0	0	0	0	0	0	0	0	0	0	0	0	0	953	964	964	966	981	983	998	1021	1030	1031	1034	1035	1031	1020	1020	994	979	978	982	976	982	986	987	998	1007	1020	1035	1035	1042	1025	999	983	989	1008	1019	1021	1018	1028	1052	1065	1064	1047	1047	1020	1021	1016	1011	1018	1031	1040	1030	1012	1009	1021	1027	1031	1024	1012	1002	1002	998	1002	1025	1047	1035	1015	1016	1037	1011	985	1015	1028	1032	1028	1023	1004	1021	1049	1046	1076	1076	1142	1108	1099	1124	1148	0	0	0	0	0	0	0	0	0	0	0	0	0	0	0	0	0	0	0	0	0	0	0	0	0	0	0	0	0	0	0	0	0	0	0	0	0	0	0	0	0	0	0	0	0	0	0	0	0	0	0	0	0	0	0	0	0	0	0	0	0	0	0	0	0	0	0	0	0	0	0	0	0	0	0	0	0	1122	1149	1173	1190	1178	1129	1098	1080	1077	1081	1061	1045	1037	1035	1056	1088	1108	1094	1085	1077	1096	1101	1089	1080	1069	1076	1082	1081	1078	1085	1085	1081	1084	1071	1062	1068	1092	1119	1138	1149	1151	1127	1112	1100	1104	1108	1101	1101	1102	1095	1094	1086	1095	1112	1118	1126	1126	1116	1093	1065	1041	1031	1039	1052	1054	1040	1038	1057	1072	1083	1096	1115	1135	1135	1123	1105	1106	1093	1082	1058	1037	1047	1072	1087	1081	1070	1081	1101	1115	1108	1091	1088	1097	1129	1142	1147	1134	1142	0	0	0	0	0	0	0	0	0	0	0	0	0	0	0	0	0	0	0	0	0	0	0	0	0	0	0	0	0	1104	1092	1086	1083	1097	1126	1123	1099	1077	1050	1020	1008	1017	1044	1038	997	966	979	999	1013	1011	1007	1012	989	960	957	961	966	986	1004	1004	991	977	978	976	974	974	970	981	987	988	991	999	1014	1027	1048	1025	1010	1003	993	993	1007	1019	1008	980	975	959	969	985	995	1010	1000	993	987	983	983	992	1009	1004	990	972	964	958	960	963	947	949	971	1014	999	972	948	955	978	980	965	954	954	936	920	919	920	928	941	958	977	982	990	991	977	966	950	908	895	895	892	907	910	909	910	926	947	957	965	951	921	864	851	880	880	916	939	942	940	934	933	913	884	875	878	885	910	910	944	926	906	893	886	882	870	875	905	928	945	945	952	961	940	925	915	915	933	938	950	951	951	927	909	897	907	912	900	901	906	914	914	918	913	901	893	900	910	911	900	900	890	885	898	913	922	918	885	886	890	913	941	951	961	978	988	995	995	986	957	946	934	931	924	915	915	908	908	903	909	910	907	907	908	912	929	940	941	932	932	933	932	920	913	905	903	903	906	906	925	952	956	948	948	923	913	909	902	899	899	894	890	878	868	874	883	883	900	910	0	0	0	0	0	0	893	919	919
0	0	0	0	0	0	0	0	0	0	0	0	0	0	0	0	0	0	0	0	0	0	0	0	0	0	0	0	0	0	0	0	0	0	0	0	0	0	0	0	0	0	0	0	0	0	0	0	0	0	0	0	0	0	0	0	0	0	0	0	0	0	0	0	0	0	0	0	0	0	0	0	0	0	0	0	0	0	0	0	0	0	0	0	0	0	0	0	969	969	978	976	982	976	967	948	932	934	953	955	955	959	972	981	997	1010	1021	1030	1027	1026	1023	1020	1020	1009	991	978	968	964	960	969	976	986	999	1019	1032	1032	1023	991	964	944	951	967	984	996	997	1012	1033	1057	1055	1040	1040	1020	1021	1000	993	1006	1031	1040	1041	1027	1009	1014	1025	1025	1006	996	985	985	979	990	1009	1043	1043	1017	1023	1037	1008	981	962	974	990	1046	1097	1116	1204	1239	0	0	0	0	0	0	0	0	0	0	0	0	0	0	0	0	0	0	0	0	0	0	0	0	0	0	0	0	0	0	0	0	0	0	0	0	0	0	0	0	0	0	0	0	0	0	0	0	0	0	0	0	0	0	0	0	0	0	0	0	0	0	0	0	0	0	0	0	0	0	0	0	0	0	0	0	0	0	1163	1167	1125	1084	1084	1076	1079	1101	1120	1113	1112	1107	1089	1065	1054	1040	1040	1039	1042	1045	1065	1084	1081	1068	1063	1053	1041	1056	1080	1082	1087	1077	1072	1078	1072	1065	1060	1062	1064	1043	1039	1035	1044	1081	1118	1134	1138	1126	1110	1093	1090	1092	1086	1074	1065	1064	1065	1069	1065	1085	1103	1107	1107	1101	1089	1064	1043	1025	1024	1035	1045	1039	1022	1017	1040	1063	1074	1086	1098	1107	1104	1090	1087	1094	1097	1071	1032	1008	1021	1038	1060	1064	1060	1054	1069	1087	1087	1080	1086	1097	1140	1142	1139	1131	1128	1126	1117	1108	1077	1020	985	975	981	990	1013	1042	1072	1109	1115	1103	1103	1073	1052	1026	1028	1035	1038	1033	1032	1015	988	970	960	962	971	977	972	960	964	969	960	939	940	944	950	963	982	994	968	950	960	979	1004	1009	1007	1010	1008	984	953	930	935	959	971	990	997	981	971	974	980	976	976	971	983	996	994	990	993	1003	1027	1048	1042	1024	998	996	996	1007	1018	1006	981	967	959	966	981	988	993	986	976	974	977	977	974	978	971	974	989	1001	998	992	977	954	923	910	907	910	929	957	975	978	965	943	943	935	947	952	927	912	914	933	955	959	959	977	985	979	966	950	940	930	930	923	920	918	902	904	920	933	947	944	933	891	857	844	877	877	915	936	934	924	926	918	891	875	859	854	864	898	898	918	909	893	883	882	873	858	855	870	896	896	945	952	952	943	928	913	914	909	917	923	923	920	903	879	875	881	886	884	887	897	897	905	904	897	894	895	899	903	901	900	900	902	905	906	915	925	924	885	885	886	914	939	939	937	942	960	977	977	976	955	941	933	922	922	917	917	907	898	888	879	869	871	871	884	897	909	920	920	919	919	923	932	920	908	907	904	904	902	903	927	936	940	925	925	904	898	897	894	906	906	909	908	896	889	894	894	883	877	884	866	841	841	0	0	867	910	939	939
0	0	0	0	0	0	0	0	0	0	0	0	0	0	0	0	0	0	0	0	0	0	0	0	0	0	0	0	0	0	0	0	0	0	0	0	0	0	0	0	0	0	0	0	0	0	0	0	0	0	0	0	0	0	0	0	0	0	0	0	0	0	0	0	0	0	0	0	0	0	0	0	0	0	0	963	918	890	886	886	905	925	949	993	1021	1023	1032	1031	1026	1026	1015	986	964	947	951	961	960	955	955	955	955	957	965	971	983	990	1005	1009	1008	999	1002	1007	1007	1012	1001	994	978	972	966	978	983	987	998	1012	1013	1013	994	959	932	923	938	963	981	991	991	995	1022	1031	1028	1018	1018	1013	1010	1000	993	1001	1019	1033	1042	1020	1012	1007	1021	1020	1013	997	1004	1017	1017	1009	988	1009	1064	1043	1018	1005	987	971	940	933	0	0	0	0	0	0	0	0	0	0	0	0	0	0	0	0	0	0	0	0	0	0	0	0	0	0	0	0	0	0	0	0	0	0	0	0	0	0	0	0	0	0	0	0	0	0	0	0	0	0	0	0	0	0	0	0	0	0	0	0	0	0	0	0	0	0	0	0	0	0	0	0	0	0	0	0	0	0	1082	1103	1082	1061	1043	1054	1067	1073	1052	1013	1013	1012	1036	1070	1094	1091	1087	1088	1084	1063	1044	1021	1016	1019	1031	1042	1058	1060	1050	1038	1022	1017	1016	1031	1067	1105	1119	1109	1089	1073	1066	1067	1047	1036	1023	1014	1012	1016	1025	1057	1090	1100	1080	1064	1051	1049	1061	1058	1041	1017	1002	1004	1011	1026	1038	1047	1050	1038	1008	998	990	994	993	1007	1036	1060	1072	1060	1025	999	983	979	974	985	1008	1027	1028	1013	997	981	963	964	1017	1013	1003	1024	1041	1057	1044	1038	1040	1055	1061	1058	1062	1050	1072	1081	1091	1092	1067	1020	983	978	987	994	986	974	983	999	1013	1012	1000	976	970	970	974	985	977	976	991	1012	1013	1023	1021	1009	983	964	957	964	976	976	965	960	962	961	954	937	935	943	952	964	985	994	965	945	948	976	999	1005	1007	1021	1021	995	956	935	935	956	969	978	979	974	964	969	985	985	996	1000	991	990	985	984	993	1003	1016	1040	1047	1020	1006	1006	1026	1025	991	965	969	975	978	983	985	972	971	973	976	977	977	977	981	989	982	985	998	1000	1003	1000	979	956	919	901	898	899	925	949	963	965	949	934	934	941	953	942	918	895	900	925	943	947	941	957	974	979	969	962	951	951	947	941	931	921	913	912	914	921	925	928	921	888	866	860	860	889	915	917	907	914	919	912	885	855	846	848	872	872	893	897	895	879	868	868	861	848	842	848	896	896	912	918	928	927	917	906	901	888	894	908	908	912	897	872	858	859	860	867	876	887	887	897	899	891	886	883	883	885	892	892	899	914	920	913	913	925	924	900	900	891	916	931	925	913	918	933	933	944	940	932	928	930	913	904	904	900	897	887	874	857	855	857	857	870	895	904	917	922	922	919	923	913	907	903	898	892	892	893	900	913	923	920	910	910	900	896	896	891	905	905	914	904	891	903	910	910	907	878	869	871	841	841	844	860	881	911	924	924
0	0	0	0	0	0	0	0	0	0	0	0	0	0	0	0	0	0	0	0	0	0	0	0	0	0	0	0	0	0	0	0	0	0	0	0	0	0	0	0	0	0	0	0	0	0	0	0	0	0	0	0	0	0	0	0	0	0	0	0	0	0	0	0	0	0	975	972	951	933	933	926	924	924	926	930	949	958	960	942	942	941	951	969	997	1005	1006	1009	1022	1005	1005	976	941	928	947	973	985	976	953	954	957	957	965	974	970	970	974	979	975	968	967	980	980	992	1001	1003	996	986	987	982	986	978	985	990	988	970	970	948	930	926	944	973	992	992	977	977	994	1000	999	997	1001	1001	994	981	981	1001	1019	1012	1018	1023	1008	975	0	0	0	0	0	0	0	0	0	0	0	0	0	0	0	0	0	0	0	0	0	0	0	0	0	0	0	0	0	0	0	0	0	0	0	0	0	0	0	0	0	0	0	0	0	0	0	0	0	0	0	0	0	0	0	0	0	0	0	0	0	0	0	0	0	0	0	0	0	0	0	0	0	0	0	0	0	0	0	0	0	0	0	0	0	0	0	1123	1014	962	960	981	1026	1016	997	981	989	1002	995	990	987	1009	1030	1030	1015	992	984	984	995	1020	1046	1065	1062	1055	1055	1047	1037	1039	1027	1009	989	979	973	984	1002	1017	1023	1041	1055	1058	1064	1065	1035	1015	997	993	1001	1013	1013	999	997	993	991	989	998	1012	1015	1009	994	985	978	969	969	964	975	978	981	984	990	1001	1011	1013	1015	1013	1005	996	1000	996	981	988	1018	1046	1064	1052	1024	994	977	966	963	973	987	1014	1015	998	982	971	957	958	1009	1013	1008	1025	1041	1042	1029	1015	1020	1033	1060	1067	1062	1064	1050	1061	1067	1074	1053	1014	975	962	978	991	989	982	1000	1010	1023	1022	997	964	955	955	959	973	984	989	993	1006	1004	1008	1025	1018	993	968	972	993	1005	998	982	977	976	980	976	971	952	946	952	967	977	967	939	908	912	945	980	995	1014	1020	1032	1022	993	972	965	968	973	975	965	943	949	946	975	975	981	976	974	967	985	984	979	973	981	998	1019	1018	1009	1014	1024	1012	985	969	966	982	986	998	999	986	975	975	982	981	981	977	973	975	982	981	978	972	967	969	967	965	939	915	898	901	925	945	952	956	947	947	932	938	938	944	917	901	896	917	930	933	932	957	974	975	966	961	959	959	949	943	938	926	923	914	904	901	918	927	921	904	884	881	881	890	906	897	888	891	898	898	887	853	837	854	880	880	901	887	880	877	868	871	856	845	842	848	853	853	872	890	901	898	889	885	892	891	885	898	898	898	890	874	858	838	845	855	874	882	882	889	892	891	889	890	880	883	889	889	907	926	926	913	913	921	920	918	918	904	907	918	904	888	882	883	883	894	891	895	915	915	913	902	902	893	895	891	872	857	857	868	868	876	896	908	917	922	922	922	910	899	896	894	894	892	892	901	908	917	920	913	913	909	901	890	895	899	896	896	893	881	874	877	896	896	901	878	869	871	868	868	863	867	871	892	905	905
0	0	0	0	0	0	0	0	0	0	0	0	0	0	0	0	0	0	0	0	0	0	0	0	0	0	0	0	0	0	0	0	0	0	0	0	0	0	0	0	0	0	0	0	0	0	0	0	0	0	0	0	0	0	0	0	0	0	0	0	0	0	0	0	940	949	975	972	971	946	946	939	938	944	944	955	958	966	964	953	953	940	943	965	974	976	979	985	994	990	990	960	930	925	948	979	993	982	967	951	957	957	964	974	970	970	958	955	956	945	939	956	971	971	994	1007	998	987	984	985	984	974	969	962	958	955	955	947	943	941	952	974	985	971	962	955	970	984	982	983	988	988	983	964	963	985	1007	1012	0	0	0	0	0	0	0	0	0	0	0	0	0	0	0	0	0	0	0	0	0	0	0	0	0	0	0	0	0	0	0	0	0	0	0	0	0	0	0	0	0	0	0	0	0	0	0	0	0	0	0	0	0	0	0	0	0	0	1097	1111	1131	1131	0	1169	1190	1213	1216	0	0	0	0	0	0	0	0	0	0	0	0	0	1116	1075	1031	1005	999	995	992	994	1017	1044	1044	1023	972	947	944	964	985	990	986	971	968	976	979	986	989	1004	1002	1002	997	1000	996	990	990	989	995	1000	1006	1011	1019	1031	1033	1018	1022	1013	979	962	966	971	994	1004	1008	1021	1038	1035	1043	1050	1034	1010	987	966	964	988	991	991	985	983	987	985	997	1007	1007	998	981	976	974	959	957	954	962	971	973	980	984	997	1009	1015	1015	1006	1007	1006	1014	994	976	958	971	1004	1032	1027	1006	985	964	950	949	964	986	1013	1017	1001	986	996	1014	1023	1018	1011	1028	1037	1045	1034	1011	1010	1015	1023	1055	1075	1066	1047	1032	1027	1024	1017	1002	986	972	964	964	970	970	989	1005	1024	1038	1031	1020	1001	1001	986	988	1002	1012	1012	1015	1006	992	1008	1018	1016	999	966	973	1000	1011	998	992	980	978	972	974	962	953	946	949	968	971	972	950	924	923	940	963	995	1009	1018	1011	992	964	937	924	946	965	967	961	941	915	920	945	945	952	955	974	967	965	961	952	958	957	960	982	995	1003	1004	1012	1007	994	982	988	1007	1019	1026	1023	1009	987	974	976	978	978	970	964	958	963	941	931	916	919	925	951	967	967	931	905	903	912	927	938	937	940	940	932	922	932	939	930	921	907	909	916	933	932	936	947	967	959	953	950	950	942	926	913	916	911	905	896	897	911	922	927	916	899	900	900	898	897	874	867	870	875	886	868	841	844	877	903	903	912	886	883	887	885	880	862	845	842	846	840	840	840	862	875	863	853	861	875	894	894	894	891	892	884	870	858	847	848	860	868	878	878	890	896	901	906	904	891	893	894	894	912	923	926	918	910	909	916	920	920	913	902	901	888	876	864	861	861	865	868	873	888	901	905	901	901	903	900	893	881	866	869	869	874	884	887	908	917	916	913	913	902	889	884	878	878	887	887	906	908	923	916	912	912	911	913	906	904	901	878	878	872	846	849	853	871	896	901	898	883	877	880	880	874	865	856	871	888	888
0	0	0	0	0	0	0	0	0	0	0	0	0	0	0	0	0	0	0	0	0	0	0	0	0	0	0	0	0	0	0	0	0	0	0	0	0	0	0	0	0	0	0	0	0	0	0	0	0	0	1093	1054	0	0	0	0	938	970	970	965	963	965	965	965	979	995	1007	1002	971	946	951	951	967	973	970	954	963	963	964	958	958	951	953	959	972	963	957	958	961	954	954	942	930	923	946	980	995	980	958	954	970	970	1020	1028	1000	970	958	962	964	954	941	953	968	968	993	1011	1004	991	978	973	974	965	948	937	945	953	953	964	960	955	953	960	970	943	928	921	923	938	956	960	965	965	945	934	946	0	0	0	0	0	0	0	0	0	0	0	0	0	0	0	0	0	0	0	0	0	0	0	0	0	0	0	0	0	0	0	0	0	0	0	0	0	0	0	0	0	0	0	0	0	0	0	0	0	0	0	0	0	0	0	0	0	0	0	0	1079	1097	1111	995	1005	1005	1010	1013	1025	1028	1029	1020	1012	1001	996	1002	1001	1012	1038	1053	1042	1019	1010	1011	1020	1026	1001	988	986	993	998	1006	1017	1018	1005	978	957	952	964	985	987	985	968	968	977	985	994	1005	1012	1007	1004	1005	1008	1007	995	995	985	987	993	990	995	1006	1011	1024	1017	1021	1011	971	951	950	963	976	986	988	984	974	968	979	984	976	964	959	945	943	959	969	975	975	986	992	997	1014	1016	1005	990	986	982	996	1002	1006	1014	1019	1026	1019	1027	1024	1025	1023	1014	1016	1026	1048	1076	1073	1050	1022	1008	1018	1038	1047	1047	1038	999	986	982	981	972	999	1021	1028	1034	1026	1038	1030	1020	1003	992	1008	1029	1039	1031	1015	1011	1015	1012	1036	1056	1063	1042	1022	1006	1007	1010	998	991	983	976	969	965	963	971	996	1005	1018	1020	1015	1008	1008	1009	1005	1015	1025	1027	1026	1015	1011	1012	1014	1018	997	980	973	998	1007	986	973	972	974	968	961	959	953	952	967	963	971	978	965	939	916	916	940	979	1005	1011	1005	987	958	937	923	935	937	950	935	912	895	910	910	922	952	955	961	961	952	955	948	951	958	969	974	989	994	996	1003	1007	1004	1002	1007	1020	1013	1009	997	969	939	941	957	957	963	957	948	937	925	913	897	888	891	913	938	962	969	959	926	911	908	914	930	924	930	930	927	916	917	927	926	925	907	909	916	924	925	934	947	963	964	946	946	942	928	910	893	890	890	895	903	908	914	911	907	911	907	907	909	901	882	859	839	840	843	853	852	845	862	893	893	909	905	895	885	891	898	880	862	852	848	850	850	841	841	849	853	842	846	858	870	885	900	900	890	880	880	882	876	867	859	863	871	871	885	889	903	911	917	915	898	887	893	893	912	923	929	913	896	897	915	915	927	915	893	882	871	859	856	855	855	850	855	862	881	890	894	888	888	897	897	893	879	870	865	865	877	884	887	890	891	892	892	891	892	890	877	856	844	844	859	891	912	907	895	904	904	912	917	914	906	895	895	878	859	830	838	853	871	871	883	892	886	869	876	876	871	861	853	864	864	870
0	0	0	0	0	0	0	0	0	0	0	0	0	0	0	0	0	0	0	0	0	0	0	0	0	0	0	0	0	0	0	0	0	0	0	0	0	0	0	974	960	949	935	941	973	1008	1008	1040	1050	1053	1025	1003	963	953	953	962	1001	1021	988	957	942	949	949	964	981	999	1004	996	973	952	951	951	967	974	969	957	955	956	959	964	964	966	962	964	966	957	947	939	932	930	930	927	918	923	953	984	987	967	949	952	969	969	1010	1016	1003	989	974	962	964	967	970	979	986	986	992	1010	1003	979	960	951	951	942	930	918	929	958	979	979	976	955	940	931	921	906	897	911	935	961	972	968	960	962	962	947	940	0	0	0	0	0	0	0	906	888	881	902	927	960	973	973	969	944	908	887	909	950	991	990	986	992	999	1009	1026	1030	1038	1044	1039	1010	985	971	960	960	960	975	993	1026	1046	1044	1048	1053	1053	1041	1011	985	956	942	939	969	981	999	1008	997	1004	1010	1001	995	981	975	995	1005	998	978	964	952	960	981	992	999	993	984	976	990	1008	1016	1015	999	993	991	1001	1015	1019	1010	996	989	994	1000	1004	1016	1019	1016	998	979	968	964	971	993	1004	1005	993	993	1000	1018	1024	1023	1014	1015	1032	1041	1028	1007	989	989	989	990	992	985	986	986	997	1008	1005	1000	1004	1009	1003	989	961	949	945	936	926	924	942	958	963	953	920	895	888	947	979	991	1018	1041	1061	1062	1057	1045	1040	1050	1061	1067	1074	1079	1075	1064	1036	1024	1023	1032	1031	1020	1005	995	997	1009	1034	1045	1050	1033	1015	1010	1025	1035	1037	1046	1034	1010	997	998	985	998	1005	1012	1021	1026	1017	1019	1012	996	972	973	986	1016	1028	1021	1015	1010	1004	1013	1031	1043	1048	1039	1020	1010	997	993	991	996	992	987	981	973	972	978	982	992	998	999	996	996	1007	1021	1014	1013	1018	1029	1030	1019	1015	1013	1015	1007	995	984	992	994	983	952	955	966	972	973	965	969	966	968	978	973	979	968	956	947	927	915	927	966	995	1001	1004	993	977	965	953	953	946	932	922	917	920	928	910	922	926	938	950	954	960	952	950	958	964	970	982	995	989	989	1002	1007	1012	1006	1002	991	971	970	962	952	945	945	963	963	963	956	938	927	911	897	879	868	871	892	920	948	960	953	929	921	926	926	914	911	911	919	917	908	904	910	915	915	907	898	900	910	921	934	945	951	952	945	945	922	907	886	862	851	869	888	901	907	914	907	901	901	911	911	929	923	899	855	832	835	858	868	870	862	863	881	881	897	895	877	876	891	898	888	872	861	861	861	861	857	856	854	847	853	859	860	864	869	877	877	884	887	892	900	884	870	867	875	885	885	890	894	895	900	897	905	894	875	887	893	901	916	921	903	888	888	891	891	901	899	873	855	852	853	847	836	836	834	850	861	880	882	878	878	875	880	889	887	875	870	869	865	877	882	880	880	873	870	870	863	873	878	867	836	817	817	831	868	896	893	890	893	893	905	907	895	896	882	882	874	862	830	838	841	841	854	865	871	868	849	849	848	857	862	870	879	879	874
0	0	0	0	0	0	0	0	0	0	0	0	0	0	0	0	0	0	0	0	0	0	0	0	0	0	0	0	0	0	0	0	0	0	0	928	937	957	974	974	960	896	898	914	942	975	975	990	1000	998	992	982	966	962	962	989	1026	1029	1001	960	949	951	951	953	969	989	992	985	968	948	957	957	967	974	963	943	932	939	940	951	954	954	958	951	951	947	951	943	927	905	897	897	911	934	961	979	982	965	949	948	970	991	991	999	993	982	986	981	973	967	903	906	912	910	910	909	910	924	931	935	925	913	901	894	918	963	986	986	986	960	931	924	915	899	899	910	942	972	973	973	960	969	969	953	928	912	905	913	929	953	969	938	906	888	922	939	957	973	972	955	955	936	910	900	916	946	961	976	980	976	960	950	951	975	980	976	962	944	934	936	946	946	968	977	992	1013	1012	1019	1019	1011	999	978	960	961	961	960	953	951	953	966	984	972	954	942	949	959	957	969	986	998	978	978	949	946	960	973	996	996	997	985	985	995	1002	1002	996	983	977	976	1000	1019	1028	1018	1001	988	980	982	995	1017	1030	1028	1016	995	968	956	948	962	981	987	1001	1015	1034	1032	1021	1005	999	1003	1006	1003	996	991	977	977	979	971	978	978	986	993	1004	1009	1008	1009	1011	1011	1007	989	955	940	940	935	927	939	950	979	990	967	955	959	971	977	985	990	1000	1027	1044	1044	1035	1033	1036	1042	1049	1059	1068	1075	1062	1054	1033	1020	1031	1031	1034	1020	1001	985	968	985	1007	1027	1031	1018	1012	1013	1018	1023	1026	1020	1016	1037	1038	1032	1028	1026	1027	1022	1015	1011	1007	1004	996	982	965	950	957	983	999	1007	999	992	987	1002	1022	1039	1035	1027	1012	1008	998	996	983	999	996	1004	998	987	976	978	978	982	969	973	973	979	988	997	997	992	1012	1026	1026	1018	997	987	994	992	989	986	989	987	958	925	936	964	980	983	988	993	989	988	983	983	978	966	951	933	930	926	928	972	985	995	996	994	997	995	986	979	957	941	927	930	920	920	928	935	928	927	940	952	963	962	955	962	973	982	992	997	992	990	983	991	997	999	987	957	947	937	937	949	964	976	976	984	974	965	948	931	908	891	869	864	868	884	915	934	948	946	931	927	937	936	918	891	891	897	898	886	876	879	915	915	901	889	865	873	909	924	932	933	928	910	910	888	881	867	848	849	863	875	896	911	915	917	911	912	925	925	937	926	896	874	859	858	873	888	885	872	861	859	859	861	860	877	876	876	886	879	866	868	877	882	882	882	873	864	868	868	871	857	851	858	864	864	871	890	902	901	885	870	868	868	873	873	878	881	874	877	875	889	894	875	875	870	878	894	896	886	868	856	858	858	863	854	845	841	843	844	837	837	850	861	861	861	872	877	878	878	870	865	873	874	864	870	869	869	882	882	882	881	877	859	859	850	852	863	845	810	792	792	811	854	888	893	881	884	884	884	877	865	865	863	863	874	862	865	850	836	836	837	846	854	844	827	827	828	847	868	885	902	902	890
0	0	0	0	0	0	0	0	0	0	0	0	0	0	0	0	0	0	0	0	0	0	0	0	0	0	984	995	978	960	943	938	938	929	931	920	911	904	913	913	905	896	898	916	937	960	960	973	971	964	935	926	920	935	935	971	998	1001	980	963	955	948	951	951	963	969	970	952	936	930	943	961	961	963	963	943	928	928	928	931	928	928	928	942	979	992	991	970	950	945	948	948	953	952	952	953	950	950	944	926	926	931	931	923	948	977	984	952	931	903	903	906	898	896	896	899	913	929	919	920	902	881	875	893	928	960	971	971	949	928	926	938	964	983	983	972	952	923	903	899	902	893	893	878	879	905	936	946	952	952	941	920	905	908	922	939	965	977	974	960	960	932	911	902	919	941	955	975	990	980	968	949	956	975	980	978	961	943	933	940	945	961	961	983	995	1005	1010	1018	1019	1015	1001	971	943	944	953	960	959	952	963	978	986	977	950	935	947	948	955	961	973	985	964	964	949	946	955	971	986	1008	1011	993	985	985	987	979	971	966	958	975	992	1008	1017	1015	1007	994	984	988	1001	1011	1009	1010	1000	984	970	948	943	957	979	990	1002	1019	1032	1037	1018	1006	996	999	983	981	975	963	960	953	953	948	967	980	995	1008	1004	1006	1004	1002	996	996	990	961	948	934	936	941	932	935	962	989	997	985	967	979	987	977	971	978	996	1006	1010	1007	996	1000	1008	1014	1018	1019	1042	1049	1042	1028	1033	1037	1043	1032	1012	1003	995	976	955	956	983	1004	1017	1008	1016	1015	1018	1016	1012	1010	1029	1041	1049	1033	1031	1032	1032	1035	1022	1011	1005	1001	993	980	961	951	951	960	973	981	971	966	976	992	1013	1021	1020	1019	1015	1007	1002	993	994	1005	1019	1014	1009	997	978	970	970	969	960	936	936	935	935	937	946	966	994	1013	1009	992	971	959	962	963	964	973	984	970	942	921	928	957	982	991	1004	1012	1002	994	983	970	965	960	950	940	930	930	948	968	978	984	982	984	987	997	1002	999	981	952	927	930	946	946	956	956	937	925	932	954	968	967	961	974	984	993	994	994	994	984	979	968	961	960	952	945	926	921	922	938	971	997	997	996	982	967	960	938	921	893	871	874	887	904	930	939	937	931	928	930	935	935	902	876	876	883	879	860	876	879	887	890	884	863	858	852	867	909	918	909	884	884	856	840	843	848	854	860	867	874	888	909	917	924	919	914	914	920	929	919	896	873	868	872	879	889	886	875	874	874	891	861	860	857	857	860	860	848	846	859	869	869	882	881	885	882	880	882	879	870	858	844	844	850	866	890	902	889	878	871	865	868	868	871	868	866	868	855	875	889	890	867	867	856	862	871	879	872	847	837	828	828	824	824	833	853	864	861	854	854	860	862	859	862	869	878	879	879	877	865	862	874	864	860	860	863	881	885	889	885	870	853	853	833	823	829	826	796	787	787	807	850	891	896	883	883	871	858	842	829	835	863	863	867	864	867	858	832	832	812	827	837	841	820	820	820	838	866	892	904	904	894
0	0	0	0	0	0	0	0	0	0	0	0	0	0	0	941	914	894	894	886	918	941	956	958	953	953	940	933	934	932	920	915	915	920	932	923	923	924	937	937	940	932	915	916	937	961	968	968	963	941	917	899	904	924	945	945	967	964	953	941	948	948	953	953	953	938	941	960	970	965	955	954	954	951	948	934	928	926	934	937	931	931	922	943	981	998	995	974	954	949	959	959	961	957	952	947	940	942	930	922	909	902	902	917	944	969	976	969	950	924	898	894	898	896	905	925	946	940	929	913	880	866	870	899	928	953	956	942	942	925	929	937	964	971	978	963	949	923	907	905	894	889	874	874	885	918	936	938	938	944	932	917	905	915	931	952	965	950	942	959	959	985	976	964	964	967	969	989	1012	1021	1006	973	964	976	979	971	942	925	925	921	927	948	948	969	997	1012	1016	1024	1028	1007	965	927	924	928	946	948	959	965	978	997	997	976	953	938	938	956	953	954	953	953	950	947	947	951	955	971	978	995	1001	992	983	973	963	951	937	933	952	966	988	991	997	997	1000	992	988	994	998	999	984	974	969	962	953	951	957	967	979	985	997	1012	1028	1028	1018	1001	995	986	973	968	957	951	945	920	920	928	951	972	985	1000	1009	1005	993	982	975	972	974	966	950	945	947	940	937	933	969	1003	1005	994	978	964	961	946	955	966	993	995	987	971	969	979	993	1001	1004	1014	1030	1039	1038	1038	1032	1031	1034	1018	997	983	980	971	945	955	979	1003	1005	1003	1009	1022	1017	1007	1008	1014	1020	1030	1018	1006	1005	1024	1037	1042	1028	1021	999	986	975	975	965	965	961	966	972	966	949	938	944	983	998	1001	1006	1003	999	999	995	999	1005	1010	1022	1023	1013	1007	983	972	968	947	909	909	907	907	909	915	925	952	984	995	983	953	923	912	919	926	941	956	970	968	959	946	944	951	956	971	987	993	987	978	959	954	961	974	960	946	935	937	945	960	962	955	950	952	964	972	989	996	981	952	935	938	938	956	975	966	947	930	947	971	975	974	962	971	979	994	1003	987	958	945	932	927	930	937	933	924	917	916	913	936	966	966	989	992	971	943	937	944	930	902	886	885	903	923	940	940	932	921	927	928	920	894	865	865	862	868	879	860	847	856	868	866	872	879	870	858	852	869	880	864	833	833	812	805	825	843	864	877	880	877	881	885	896	886	897	904	904	915	922	916	901	883	877	871	875	884	879	881	884	874	891	885	871	861	866	862	855	843	835	840	852	852	870	882	894	889	894	900	892	884	862	847	847	834	843	866	883	876	864	863	874	876	876	877	872	865	868	855	866	879	887	871	871	856	860	860	872	860	841	827	827	813	810	806	822	852	859	861	861	861	856	857	855	854	864	870	870	870	864	865	862	857	852	848	848	850	864	874	877	851	840	840	833	821	813	818	822	812	812	809	822	843	869	879	876	876	856	827	806	829	835	835	840	845	854	858	840	813	813	806	820	844	848	851	851	850	853	887	901	900	900	894
0	0	0	0	0	905	905	927	934	925	922	926	926	955	956	941	914	891	891	899	922	948	957	964	961	961	952	945	930	920	911	907	907	917	935	942	939	938	945	945	951	936	921	919	937	961	968	975	962	943	912	881	885	915	937	937	943	937	922	926	928	934	942	942	940	933	944	966	970	962	957	951	951	953	944	931	920	926	934	911	884	865	865	886	915	937	942	930	926	951	967	972	972	952	932	919	912	897	892	896	897	904	913	913	932	947	962	963	955	928	897	892	894	905	925	925	940	951	948	923	893	876	880	896	918	941	940	915	915	920	929	944	950	945	950	947	940	934	955	954	935	893	879	879	903	929	927	924	921	928	924	915	899	897	927	950	960	950	942	968	986	986	993	992	985	989	992	983	993	1000	979	965	956	975	979	962	938	927	918	928	934	951	989	989	1008	1023	1025	1023	1019	1010	975	943	938	941	949	943	956	974	988	1011	1010	977	947	936	943	960	950	941	937	937	938	945	945	949	951	962	978	995	981	981	974	960	946	930	915	921	951	971	981	970	967	969	970	989	996	999	994	981	966	956	947	943	946	962	968	972	979	981	983	994	1008	1021	1016	1003	999	994	977	955	945	948	951	933	934	934	946	953	966	981	999	1005	994	970	956	947	956	967	967	962	952	928	915	944	976	1012	1025	1005	975	942	930	928	937	960	979	987	977	962	957	967	979	990	990	1002	1011	1029	1038	1039	1038	1034	1021	1008	986	967	969	963	962	962	977	990	989	987	993	1001	997	998	1005	1008	1011	1003	982	982	983	998	1017	1037	1045	1029	997	967	962	966	970	970	978	986	980	966	946	940	950	968	976	975	978	976	981	989	988	994	993	1004	1015	1010	1013	1011	1017	997	977	941	915	915	896	913	916	916	929	959	980	974	952	917	900	887	888	900	923	956	976	977	965	953	941	940	942	948	969	977	974	965	949	960	972	970	965	948	940	939	944	947	943	925	911	908	926	945	989	996	985	962	945	950	950	968	979	975	946	936	946	962	956	946	946	941	944	948	939	934	936	929	925	927	926	913	903	902	900	903	911	925	956	956	974	979	964	937	931	936	926	907	892	887	902	917	928	932	920	909	907	903	896	878	856	856	862	868	859	837	826	843	869	884	894	898	886	863	841	858	865	865	865	833	799	800	831	867	899	900	894	880	869	865	859	863	869	882	882	896	890	888	891	896	889	870	865	868	883	884	884	884	900	894	878	865	858	862	855	837	826	829	845	845	869	886	886	889	894	900	903	893	873	845	845	827	836	843	861	867	865	867	877	886	886	884	872	865	855	855	859	877	879	879	873	867	864	871	866	850	845	830	830	820	813	812	821	840	851	862	862	870	864	852	840	840	843	855	855	870	864	865	855	852	851	850	850	838	833	828	833	832	836	836	827	818	828	829	822	819	819	825	830	829	843	852	849	849	856	827	806	808	820	820	833	831	834	835	813	813	799	795	820	839	853	863	863	862	870	881	885	885	885	878
0	0	0	0	0	901	901	937	952	946	938	937	937	943	941	919	906	891	899	900	919	935	954	963	978	978	973	961	933	918	904	907	907	916	939	956	962	961	942	935	935	928	923	929	947	966	975	975	962	955	917	877	868	874	886	886	888	904	897	884	871	861	865	865	875	896	911	916	917	921	933	950	950	967	965	952	930	903	922	911	884	855	855	869	875	880	893	896	892	906	929	950	950	960	964	949	944	931	901	849	834	862	919	919	938	937	910	892	876	874	885	895	908	928	938	938	940	951	948	934	910	898	900	908	919	930	923	899	899	894	908	921	924	921	915	930	927	936	945	953	934	901	886	886	893	894	888	895	902	915	925	931	914	906	914	900	911	923	940	968	986	980	989	989	1000	1014	1009	996	987	983	956	953	946	965	978	971	952	933	932	934	942	966	986	986	1005	1015	1016	1021	1013	1010	991	972	968	966	961	946	945	955	984	999	999	971	943	941	948	949	940	923	905	908	919	950	948	948	946	947	954	963	981	981	968	948	940	929	931	937	961	974	974	963	954	959	973	992	1006	994	974	962	958	954	947	937	947	962	979	983	975	959	965	986	1001	1015	1011	1005	1004	988	984	968	955	958	966	961	954	941	941	938	946	966	993	1005	993	965	941	930	936	950	966	954	929	926	929	959	988	999	1010	989	955	931	918	921	944	947	959	972	972	963	967	970	983	988	982	978	994	1008	1024	1045	1046	1033	1014	1000	982	971	959	972	969	962	969	969	959	951	955	967	975	974	985	993	985	973	959	965	974	986	1005	1025	1045	1033	1007	987	977	973	979	982	989	993	982	972	956	957	961	954	950	948	951	960	966	975	983	984	978	985	997	993	996	1006	1015	996	986	957	957	928	918	924	927	935	940	959	974	972	956	932	922	922	904	908	930	951	967	962	948	936	930	935	936	939	947	962	965	964	960	956	962	959	946	924	921	934	945	941	914	890	874	878	926	945	961	973	973	962	951	951	946	960	977	958	934	922	928	931	932	924	911	910	897	897	902	902	904	899	909	908	903	889	872	868	878	886	887	894	893	893	890	899	913	934	936	934	927	911	894	890	891	901	913	915	904	899	886	881	870	864	864	856	858	859	847	823	816	839	880	900	912	908	887	857	839	847	870	872	872	854	828	828	852	889	911	917	900	885	870	860	858	854	859	859	856	872	870	870	879	901	901	883	860	850	883	884	890	890	897	898	886	871	854	848	838	830	829	830	840	840	858	865	863	864	872	887	897	892	877	877	880	858	844	845	858	867	866	863	866	864	886	884	874	866	855	859	865	880	883	883	874	874	871	867	854	845	844	843	843	842	838	827	839	844	857	872	872	882	874	860	828	818	827	855	855	856	846	849	855	858	851	853	853	838	826	815	828	832	837	837	836	840	838	827	819	808	808	820	819	826	822	820	849	849	830	804	792	796	814	814	831	820	811	801	799	799	802	801	815	829	845	845	863	871	878	868	860	860	847	841
0	0	0	0	0	0	0	946	965	970	965	953	953	950	940	916	899	897	900	900	919	0	0	897	896	907	907	912	0	0	0	903	929	929	944	964	972	949	912	911	911	919	933	932	928	956	970	970	982	955	917	908	894	890	878	878	878	897	916	901	866	802	756	742	742	790	839	871	883	884	887	913	942	942	944	925	895	867	836	826	836	855	855	874	886	891	904	900	893	896	912	933	933	939	929	922	918	924	907	862	834	837	896	896	922	920	905	887	872	867	869	884	903	917	920	920	926	932	948	930	917	905	901	917	927	922	909	895	885	885	890	893	900	907	914	919	919	927	938	929	929	907	892	891	891	876	870	869	886	904	922	929	937	935	912	903	908	922	945	968	980	989	989	969	989	1008	1011	1002	994	986	958	934	940	947	961	966	955	940	937	939	950	954	957	957	963	960	949	962	1000	1006	1005	997	994	988	973	947	935	949	974	993	974	956	942	940	942	936	928	917	902	903	912	927	941	941	938	934	937	951	965	978	968	948	954	952	943	938	954	969	969	959	950	955	975	991	985	971	952	936	949	958	954	946	947	960	979	992	972	958	956	971	996	998	998	995	995	987	978	967	962	968	978	976	960	945	945	926	929	953	977	993	986	966	940	927	932	936	951	940	925	924	939	962	974	965	949	921	911	919	930	936	938	939	938	956	967	961	971	974	985	989	983	969	971	973	1005	1027	1043	1024	1004	988	979	962	964	961	976	960	952	944	936	925	934	953	964	960	968	968	958	945	951	961	972	979	1006	1033	1043	1025	1002	982	978	977	982	1008	1040	1048	1033	1009	991	964	957	945	936	931	929	943	956	967	972	977	970	966	972	968	965	976	997	993	978	964	964	945	945	945	945	949	943	943	953	953	953	942	946	945	937	931	934	947	951	945	928	921	920	933	933	931	936	955	963	963	966	960	949	942	915	900	900	920	932	921	886	890	874	878	904	921	936	939	934	925	919	919	916	898	901	892	901	905	903	910	910	909	900	898	893	886	884	873	868	873	881	890	887	866	849	844	852	869	876	880	880	888	889	896	896	883	874	882	903	898	894	899	898	890	882	871	858	847	844	845	852	864	864	862	864	859	851	834	836	855	890	914	909	903	890	861	844	849	869	872	872	861	860	862	884	895	903	898	885	871	869	865	868	864	854	854	833	825	820	840	864	884	909	874	860	850	851	854	854	856	857	867	866	861	853	839	834	833	827	822	822	835	842	838	823	819	828	847	855	866	869	869	876	859	851	843	855	865	863	840	866	866	864	860	858	850	853	863	882	890	886	886	863	863	857	852	831	826	840	855	855	861	865	861	849	846	859	865	865	878	877	859	823	818	827	829	829	834	839	836	848	857	856	856	847	844	829	822	824	827	840	840	840	828	824	817	807	801	801	802	809	821	822	820	820	829	816	795	787	793	798	798	811	799	786	780	791	791	807	808	804	810	823	823	850	867	873	861	842	842	847	841
0	0	0	0	0	0	0	0	0	0	1003	978	942	942	914	898	903	0	0	0	0	0	0	0	0	0	0	0	0	0	0	0	934	934	944	960	945	918	893	892	892	909	931	914	884	877	890	931	931	945	940	908	894	887	873	865	865	892	908	906	873	810	768	755	755	785	834	858	866	857	864	882	919	919	925	920	885	859	835	828	847	865	865	874	886	906	928	916	911	900	894	906	901	901	881	873	883	899	900	876	835	844	886	909	909	929	922	906	884	875	877	891	909	915	912	923	923	932	939	930	917	897	901	904	915	907	895	888	888	888	888	898	909	907	909	900	902	909	920	919	909	900	883	877	877	873	873	865	874	891	905	913	921	926	925	920	920	940	947	961	963	963	963	969	989	966	978	985	996	998	983	947	929	929	929	938	936	927	924	929	938	927	920	922	922	919	913	923	932	978	992	997	1005	999	985	958	937	946	968	975	968	953	947	944	937	932	930	931	928	922	919	921	929	934	934	938	944	955	948	953	955	956	954	952	942	930	948	966	971	962	959	964	980	980	967	949	930	928	940	955	954	948	944	955	966	980	968	951	952	966	977	975	973	972	972	970	963	952	960	970	973	969	964	948	931	931	926	943	962	970	971	956	944	938	945	943	944	940	926	933	947	958	956	946	932	926	932	943	963	958	950	938	924	926	935	954	965	972	965	962	952	943	922	928	947	978	1000	995	977	970	959	956	941	945	963	957	935	922	914	922	945	967	977	963	962	943	934	935	942	957	969	982	1005	1027	1028	1004	981	964	955	958	969	985	1008	1021	1009	1001	979	957	939	931	926	926	914	927	948	963	972	967	957	950	941	935	930	951	979	984	971	971	953	944	946	950	951	950	941	928	929	928	938	940	951	957	960	943	936	935	940	935	922	915	914	928	923	907	899	930	948	952	952	946	940	932	898	879	892	906	916	921	886	857	850	876	901	913	915	916	906	899	899	892	890	890	890	889	884	885	893	903	913	911	902	895	896	895	881	874	863	872	876	880	882	856	843	844	846	861	865	876	876	874	880	893	884	874	863	848	853	864	884	899	901	894	880	865	850	849	851	845	852	862	862	872	878	874	864	854	853	874	902	909	905	889	876	863	854	855	869	869	868	872	888	891	878	872	858	860	849	854	858	867	875	873	855	855	837	810	806	822	844	863	909	874	849	836	836	836	836	847	857	862	869	860	848	841	837	836	831	821	821	826	817	810	801	804	813	824	840	847	850	850	840	833	829	824	840	856	857	840	834	834	840	850	851	846	850	862	894	891	891	876	857	850	839	829	811	808	807	807	827	841	850	842	823	808	817	833	833	848	854	859	823	814	821	823	823	823	821	826	841	856	853	853	847	838	832	824	822	827	827	832	827	819	808	796	797	797	789	797	809	821	821	819	819	820	825	809	798	785	790	790	786	791	790	791	820	820	823	818	801	799	811	811	834	858	868	848	842	842	829	816
0	0	0	0	0	0	0	0	0	0	0	0	0	0	0	0	0	0	0	0	0	0	0	0	0	0	0	0	0	0	0	0	0	0	914	915	916	894	877	886	886	904	917	899	860	843	868	909	909	936	945	923	904	887	866	865	865	870	893	896	877	840	802	789	789	793	835	843	841	834	846	876	904	904	922	915	898	870	848	852	858	870	878	878	892	906	928	936	929	895	867	856	842	842	852	842	851	871	875	860	838	858	887	910	910	923	917	917	905	893	890	900	905	912	909	912	912	921	929	916	900	897	901	902	897	877	864	868	877	877	890	911	917	911	889	880	888	901	914	902	887	879	875	870	878	878	871	874	884	891	900	904	905	907	913	911	929	931	945	952	953	946	946	951	959	966	920	936	966	985	986	968	932	910	915	916	918	919	929	933	933	926	912	914	914	909	911	917	921	945	968	983	973	967	969	957	941	943	963	971	969	956	947	945	941	953	948	951	937	924	911	914	922	940	940	957	961	963	944	933	934	954	971	961	942	930	948	965	980	976	978	974	972	966	938	918	909	914	933	942	945	946	941	946	950	958	958	948	946	954	953	949	946	947	951	953	942	940	946	960	967	966	964	950	933	933	928	934	955	957	951	944	947	953	955	961	966	968	953	952	957	952	953	948	945	950	963	979	973	966	956	950	940	927	921	934	959	971	956	944	929	917	911	919	930	945	948	942	951	948	945	941	938	948	947	943	929	909	908	924	954	979	987	977	955	933	913	926	941	956	961	973	993	1006	1000	980	947	944	938	931	937	953	977	997	984	972	955	933	924	922	921	925	922	930	949	966	968	960	952	939	924	905	911	938	964	965	965	946	930	923	934	942	947	942	935	925	909	903	907	923	941	953	961	947	931	920	931	931	918	901	892	884	872	878	890	905	920	930	932	933	937	917	902	896	892	906	916	904	881	860	860	884	902	913	910	909	902	902	907	899	888	886	887	889	885	894	901	906	916	910	894	889	890	905	899	889	876	869	874	882	877	866	867	865	868	868	867	867	863	859	860	865	875	865	854	847	851	868	882	891	894	885	875	867	851	849	851	855	864	864	873	879	874	870	859	858	864	879	901	904	890	870	862	850	846	849	869	869	873	872	898	896	849	825	811	816	818	835	855	866	869	867	867	846	826	803	793	805	844	863	880	876	837	819	825	826	826	832	848	858	862	857	850	849	842	839	829	816	816	813	811	826	822	812	813	824	839	840	837	837	829	827	824	824	829	856	857	834	826	826	827	835	836	839	845	864	887	882	882	868	856	840	821	810	806	784	782	782	788	805	814	821	815	800	798	798	801	848	854	822	815	828	833	833	827	812	805	813	830	843	847	847	844	838	831	825	822	817	817	818	814	795	780	779	786	786	789	797	804	816	823	822	822	815	823	821	808	789	789	777	785	811	827	837	852	852	842	826	809	800	812	812	826	846	868	848	836	836	819	797
0	0	0	0	0	0	0	0	0	0	0	0	0	0	0	0	0	0	0	0	0	0	0	0	0	0	0	0	0	0	0	0	0	0	0	875	883	874	868	873	885	885	891	880	840	829	857	893	893	920	921	906	888	885	866	865	856	861	871	888	880	867	839	819	829	829	844	831	820	818	839	874	910	910	929	937	918	903	891	876	874	871	868	868	885	904	927	936	929	889	858	848	835	835	838	839	839	849	854	845	837	862	884	907	907	911	912	907	914	914	904	899	899	891	894	895	895	912	919	908	891	888	894	902	897	856	845	854	877	892	892	904	901	879	871	867	886	908	915	897	874	865	861	857	860	860	864	874	884	893	903	905	904	911	915	913	919	914	918	926	935	933	936	936	930	924	920	936	915	940	937	925	920	915	901	883	890	899	938	956	962	924	914	905	915	915	924	926	936	937	944	940	944	940	938	941	937	938	958	969	966	963	954	949	952	975	984	971	951	939	929	931	942	955	967	967	978	974	958	933	920	941	959	955	944	925	946	965	980	973	965	953	942	930	907	894	893	907	925	938	935	930	928	930	934	935	946	953	947	941	936	929	930	932	937	937	936	934	941	956	968	974	969	954	938	937	937	947	950	939	935	937	939	943	946	948	956	969	971	969	961	954	952	949	947	956	966	974	983	979	970	959	945	928	925	940	967	974	959	944	928	920	921	927	923	921	915	913	923	932	937	939	944	946	947	935	934	919	917	925	941	962	963	954	936	908	899	909	928	944	941	945	954	975	969	952	934	926	929	916	904	903	916	960	972	954	935	915	911	913	925	921	911	921	947	966	965	940	938	932	922	905	890	916	938	940	940	934	918	910	918	923	930	932	921	907	888	876	875	895	907	923	929	932	922	912	910	904	901	890	879	878	871	877	879	889	897	903	903	914	919	914	910	896	892	898	903	898	886	885	893	898	901	911	914	908	907	907	903	907	901	885	882	877	885	896	903	897	894	884	877	868	871	888	900	886	875	867	868	881	884	886	881	881	882	878	865	865	855	853	849	851	854	855	851	854	856	868	879	878	816	786	784	867	851	854	858	860	858	858	858	863	867	853	840	835	848	870	888	888	882	860	844	824	824	830	845	845	860	868	879	837	801	792	781	777	799	832	846	853	852	848	848	831	816	787	783	805	820	843	855	858	841	833	820	820	815	822	831	836	823	806	824	842	851	842	836	836	832	842	841	838	834	836	850	857	846	834	834	826	821	827	831	824	829	851	856	856	856	831	814	816	816	818	826	848	845	831	831	813	800	780	793	800	809	809	802	802	785	776	790	799	801	795	789	798	801	814	815	815	822	839	847	847	834	807	800	800	813	826	833	833	842	833	827	822	818	815	815	807	805	791	782	781	786	786	788	787	794	817	827	817	817	801	788	803	811	815	815	809	810	831	844	844	844	833	826	809	794	786	786	797	826	846	854	843	843	827	814	791
0	0	0	0	0	0	0	0	0	0	0	0	0	0	0	0	0	0	0	0	0	918	892	0	0	0	0	0	0	895	892	881	853	844	844	858	863	858	861	864	875	875	873	858	839	844	852	868	868	877	876	874	873	877	868	856	856	861	861	877	896	889	877	870	867	867	864	852	839	833	853	887	915	932	932	941	948	932	918	901	880	854	850	850	859	874	902	913	910	889	861	852	862	862	860	852	847	854	867	859	851	857	860	876	876	890	895	905	911	913	904	889	874	863	864	873	901	901	918	911	888	873	871	883	873	856	845	863	878	889	889	892	881	872	862	875	903	915	908	872	849	848	841	846	842	842	851	858	875	887	900	908	915	918	920	918	906	899	896	904	921	931	925	925	909	892	886	897	915	940	908	901	898	902	911	914	912	917	924	915	903	897	889	893	901	901	919	937	942	935	924	917	910	916	917	919	920	929	946	964	976	977	975	965	965	976	989	992	978	960	947	937	939	957	970	970	974	970	952	927	915	922	937	940	932	944	950	964	975	973	965	953	921	903	884	875	887	901	916	926	930	923	915	906	901	920	938	957	958	938	922	919	928	929	929	930	934	940	946	951	953	955	956	946	936	933	933	936	929	927	920	922	929	925	922	927	939	954	961	961	950	944	939	934	933	949	952	953	952	952	957	957	950	941	930	947	964	967	954	939	924	926	933	939	936	912	902	900	906	918	927	940	956	967	970	953	941	935	930	934	933	936	929	926	911	904	893	886	894	899	922	929	938	942	937	939	935	932	931	901	863	843	856	882	911	920	909	885	876	889	901	903	893	902	918	926	919	913	914	925	923	909	888	882	900	900	916	917	910	914	919	921	920	909	894	876	867	868	892	902	910	907	910	917	912	902	898	896	888	883	877	878	877	877	882	881	878	889	893	897	919	914	910	906	901	894	895	893	895	901	910	912	910	912	911	910	910	903	905	905	898	882	874	867	862	874	861	863	863	849	847	854	865	881	896	885	863	851	858	873	886	890	891	880	873	867	867	859	848	851	852	848	851	860	862	862	863	857	860	826	808	786	784	799	852	857	854	844	844	831	834	835	845	839	824	819	828	847	868	869	859	841	823	813	802	805	805	821	837	846	842	802	790	788	781	791	811	823	828	831	826	826	819	814	801	787	783	785	796	814	837	844	842	830	808	808	804	806	816	837	848	838	813	806	812	821	832	832	843	846	840	842	835	834	839	846	845	828	828	821	816	827	831	826	810	804	809	819	819	819	805	791	786	790	806	819	811	787	787	760	757	770	790	800	810	812	804	804	791	782	773	787	795	795	789	789	786	786	792	821	832	848	852	852	839	818	806	800	813	827	827	842	836	830	819	803	814	819	819	809	794	794	782	781	788	788	790	789	800	815	823	823	809	778	767	765	778	784	784	791	794	795	793	798	798	805	796	790	785	777	786	797	810	830	837	830	830	819	799	782
0	0	0	0	0	0	0	0	0	0	0	0	0	0	0	0	0	0	0	0	0	904	0	0	0	0	0	0	878	895	892	834	833	835	835	841	841	837	834	843	860	860	862	862	854	858	859	850	856	856	845	862	882	887	869	846	850	850	861	877	886	899	897	882	870	870	871	868	853	857	871	892	913	925	925	936	939	932	919	901	880	853	852	848	848	869	884	894	886	877	861	852	866	872	872	865	858	869	877	872	860	844	848	859	870	870	886	899	914	911	894	863	840	821	824	839	875	875	897	889	856	829	838	853	852	846	841	863	885	883	883	883	877	872	881	897	931	927	898	848	827	825	836	835	836	837	837	857	861	869	871	880	881	882	889	907	903	897	901	929	977	982	946	903	903	879	876	886	903	915	908	901	899	910	924	926	923	925	918	904	891	887	886	891	883	901	901	920	924	916	905	898	896	894	894	898	910	934	945	953	965	979	976	964	957	965	971	974	973	960	945	924	924	936	951	963	963	956	939	929	922	921	926	927	924	927	938	937	930	921	922	925	921	903	863	868	880	893	912	923	917	916	910	905	901	907	925	943	926	914	906	909	918	910	881	861	872	908	925	927	926	914	920	918	909	904	899	899	912	916	917	924	922	913	912	913	921	941	945	944	929	923	917	914	924	923	919	912	910	912	933	947	951	948	940	941	952	941	923	919	918	924	936	946	928	907	888	889	897	913	930	941	954	959	957	941	930	936	942	937	925	921	912	914	917	902	886	882	881	888	899	918	928	925	927	929	931	941	938	911	881	856	865	891	925	937	928	897	864	851	851	861	869	867	886	904	908	897	901	914	927	908	885	872	886	886	903	900	898	902	914	922	910	895	872	865	859	866	888	897	904	910	909	902	896	893	883	880	886	891	883	887	889	887	881	875	872	878	893	897	905	905	904	904	900	880	857	862	877	892	903	905	910	914	910	905	905	899	900	906	893	878	858	843	831	822	831	845	848	844	838	840	854	870	884	882	858	841	846	864	878	886	875	861	850	851	851	851	855	858	861	853	856	857	863	864	863	849	845	835	808	784	782	803	844	852	840	824	824	809	814	819	824	824	824	813	818	831	843	836	830	819	812	800	791	790	790	800	802	816	824	814	800	811	811	810	810	809	811	805	800	800	793	814	801	793	779	771	775	791	810	828	829	819	802	802	787	788	811	823	829	821	811	800	808	818	833	833	837	839	834	834	834	834	841	841	830	820	820	821	816	823	819	803	793	786	780	779	779	784	783	781	766	768	774	788	795	795	785	769	766	776	797	806	817	813	813	806	800	798	794	787	795	798	796	796	794	780	774	810	830	847	860	860	847	829	802	791	806	823	823	839	832	815	804	793	800	820	820	814	794	794	789	792	792	797	799	801	811	816	815	815	794	768	750	752	768	790	790	792	789	784	785	781	781	780	774	778	785	777	777	772	780	802	821	821	821	806	787	771
0	0	0	0	0	0	0	0	0	0	0	0	0	0	0	0	0	0	0	0	0	890	868	0	0	0	824	824	846	854	853	834	833	832	832	838	824	814	814	825	849	849	849	848	840	851	855	862	849	849	848	867	895	892	869	842	830	830	837	857	886	899	882	873	871	871	872	880	874	869	878	895	894	895	895	899	896	898	894	890	881	871	870	871	871	870	863	860	857	854	852	864	866	872	868	858	852	852	848	850	839	834	843	856	869	869	879	890	898	900	876	846	817	803	801	822	854	854	867	855	825	805	805	827	846	853	863	878	885	883	873	873	888	891	899	910	926	919	886	835	812	831	845	862	870	866	866	857	841	820	806	806	818	839	846	869	881	900	918	942	958	953	920	885	885	866	865	887	912	930	921	895	899	910	931	933	925	916	903	894	888	890	893	889	882	887	887	899	905	903	892	886	892	901	896	901	921	937	949	951	961	962	958	945	925	928	945	950	957	942	921	901	899	905	906	908	908	900	900	906	906	914	913	908	904	900	902	893	888	895	906	911	903	882	863	868	880	889	905	904	891	895	895	890	899	906	915	909	904	906	900	898	903	888	867	850	859	882	898	902	895	886	897	895	890	885	878	878	889	912	922	922	924	914	905	903	912	924	927	921	912	900	895	904	909	904	888	872	865	872	897	918	935	946	940	941	940	924	906	897	901	916	924	915	903	892	881	882	881	896	913	920	931	932	925	905	905	919	933	931	923	911	907	911	918	899	880	865	869	879	894	905	914	922	922	917	920	934	942	937	924	891	892	907	915	921	918	896	864	842	831	832	842	854	874	889	893	892	900	911	911	894	869	866	866	889	905	900	897	907	917	919	908	889	873	859	856	866	888	896	911	916	912	891	876	860	855	866	880	890	890	887	892	894	880	875	872	878	889	884	892	900	903	902	877	851	844	846	862	870	876	883	887	889	892	892	888	882	892	902	897	875	849	827	805	809	826	849	861	858	851	844	852	860	877	872	860	854	853	863	870	865	861	849	841	841	842	853	860	865	860	851	846	851	853	858	853	850	845	835	821	801	811	830	847	852	837	837	811	791	785	802	815	824	825	814	816	817	818	811	802	804	799	801	793	793	790	787	785	793	814	811	802	792	793	799	803	808	804	793	780	800	793	793	796	802	803	776	766	773	787	803	805	807	807	790	781	782	802	806	803	805	803	806	809	820	820	828	825	818	816	814	819	823	817	807	801	830	820	815	814	812	799	791	784	777	774	779	779	782	782	783	775	767	773	784	791	791	789	778	774	781	796	813	816	814	814	801	799	798	794	791	795	800	800	802	796	790	789	787	808	826	826	830	830	820	810	798	786	799	799	818	817	805	791	788	818	818	820	814	795	781	779	790	790	799	803	802	813	822	814	814	791	767	760	771	782	782	792	798	786	775	773	767	767	780	774	778	773	770	770	760	768	784	803	808	808	791	771	769
0	0	0	0	0	0	0	0	877	0	0	0	0	0	0	0	0	0	0	0	0	0	872	862	836	834	836	836	834	830	834	830	825	832	832	837	828	820	823	840	847	840	840	833	821	832	850	861	879	879	863	850	849	849	844	833	826	826	839	852	870	882	882	873	859	869	869	878	884	879	889	889	890	873	858	858	856	856	865	870	876	873	878	872	872	863	858	849	850	843	847	858	868	868	868	858	842	836	829	825	820	820	833	859	872	872	878	875	878	881	869	841	815	795	800	819	841	848	848	827	806	784	796	818	849	873	889	890	880	875	873	873	890	899	901	905	903	895	870	837	833	842	855	864	867	853	853	846	830	811	800	801	804	812	820	838	862	891	913	917	916	907	883	859	859	853	866	889	917	928	934	942	931	928	931	933	905	903	897	889	887	895	903	886	878	876	882	882	892	888	881	887	906	921	914	915	921	933	941	933	929	932	914	895	885	874	884	904	918	919	912	892	879	872	875	876	880	880	885	893	896	901	893	882	884	886	875	868	862	867	876	889	887	867	856	852	868	889	905	889	885	876	876	881	889	894	898	895	891	897	901	898	889	883	865	849	855	877	887	888	883	880	884	889	881	878	878	886	886	898	909	914	916	908	903	901	908	908	912	909	905	891	885	904	907	894	869	845	843	857	880	906	927	934	936	927	926	912	899	887	890	906	919	909	895	900	901	885	871	881	891	902	909	906	901	885	879	899	913	913	907	899	900	903	901	895	878	864	868	879	891	901	910	919	921	916	914	930	937	940	931	924	921	909	910	908	897	882	858	852	849	848	846	853	865	879	881	888	893	898	890	862	858	868	868	891	899	887	885	902	918	915	899	885	870	865	885	906	922	931	941	939	924	899	875	856	854	862	878	884	877	886	892	894	880	872	862	860	858	861	872	887	901	894	871	853	844	846	854	854	852	862	866	876	872	872	868	866	879	891	887	867	843	822	808	816	835	864	874	885	875	855	846	852	862	861	854	851	851	851	862	861	849	843	838	838	839	853	874	866	862	851	841	836	840	839	853	850	840	843	846	840	830	835	844	849	844	844	831	815	819	835	843	840	828	818	809	806	802	797	797	792	798	799	803	803	802	790	791	797	808	800	785	775	770	769	769	794	797	793	793	780	770	807	816	824	828	822	805	793	791	802	800	794	794	774	772	784	795	787	779	781	793	804	811	816	816	818	818	810	801	794	794	797	800	782	801	801	797	793	793	790	793	793	790	784	782	782	783	784	782	786	781	773	780	787	787	787	787	784	783	778	774	776	782	783	783	801	799	805	804	804	798	796	796	796	792	788	783	782	789	798	798	805	821	828	820	803	790	781	781	781	780	777	793	820	818	818	825	821	797	773	767	779	779	796	802	803	807	814	806	806	794	777	774	775	786	786	802	799	786	763	759	773	767	767	777	780	781	769	769	757	764	774	789	789	795	780	768	779
0	0	0	0	0	0	864	877	877	0	874	0	0	0	0	0	0	0	0	0	880	880	897	893	878	866	851	843	843	824	830	821	829	842	837	837	828	839	849	862	872	857	857	822	801	810	834	878	875	875	857	851	847	854	859	856	849	847	847	852	861	865	864	859	859	869	860	869	868	867	883	903	899	887	862	862	840	840	844	857	863	864	864	862	862	851	847	854	852	847	852	853	853	855	851	851	842	836	810	806	804	806	826	848	863	866	866	860	858	867	864	853	828	811	810	828	848	846	846	825	800	788	806	834	860	876	885	886	878	865	879	879	890	899	885	884	874	865	847	836	830	841	851	856	847	842	827	827	817	811	807	819	821	820	816	820	829	858	883	877	867	860	847	853	860	860	871	889	881	876	880	906	919	919	916	920	905	903	886	881	879	886	883	869	861	859	868	868	875	891	889	898	920	931	926	905	908	919	921	910	902	891	877	866	871	873	885	895	898	910	914	901	886	876	867	859	857	857	873	879	883	888	885	875	879	880	866	841	824	829	857	872	878	866	850	852	872	896	898	889	885	876	881	871	876	878	879	874	873	892	902	903	908	897	880	868	867	882	897	893	886	874	872	879	884	882	881	880	878	878	877	877	877	886	890	898	900	900	908	913	911	899	898	912	920	906	878	861	858	877	889	896	911	923	924	906	898	892	883	875	886	905	923	929	913	912	911	888	865	873	882	890	895	894	887	878	881	882	888	894	890	887	889	895	904	897	889	879	884	884	891	895	909	916	916	895	900	912	919	927	915	915	910	900	897	891	884	877	864	864	865	863	857	853	853	858	872	890	894	887	873	851	849	849	859	876	880	875	875	891	898	898	889	883	887	889	902	917	925	930	938	941	938	914	886	867	855	862	871	870	877	886	883	881	879	871	865	854	840	834	850	873	891	889	877	862	851	847	845	843	839	846	854	856	856	848	837	846	859	872	871	851	839	822	821	828	854	879	899	904	885	863	842	842	843	856	852	842	842	848	861	853	843	837	837	840	852	869	868	867	857	839	836	838	840	839	838	840	832	839	834	836	829	835	842	847	844	844	836	828	832	847	848	841	828	810	792	788	787	794	804	800	807	816	818	818	814	807	801	804	809	802	789	786	776	768	759	759	797	795	795	807	839	840	837	840	838	823	805	796	796	802	801	801	791	776	767	769	778	773	763	766	784	799	803	801	801	808	812	811	810	789	781	779	800	782	777	777	777	774	779	780	787	795	797	796	792	792	788	787	781	780	781	784	785	784	784	771	762	765	766	764	757	763	767	782	783	785	788	796	801	795	791	789	789	791	794	790	779	785	785	792	792	801	814	822	814	792	778	778	771	767	770	766	793	820	839	839	843	826	798	771	765	773	773	798	807	805	806	806	806	802	797	793	785	781	792	792	798	789	773	763	759	759	759	769	778	784	784	784	770	749	748	763	773	773	782	779	784	796
0	0	0	0	0	0	871	887	887	885	874	0	0	0	0	0	0	0	0	0	854	854	885	892	887	883	876	851	851	828	818	819	835	850	850	850	848	839	849	890	896	867	867	822	786	785	809	858	863	849	849	842	843	858	866	869	864	851	851	848	854	857	849	848	850	860	860	869	854	855	875	891	899	888	871	871	847	824	828	836	844	842	840	844	849	849	848	852	858	857	860	852	853	852	847	847	838	820	810	806	805	811	810	826	855	859	859	854	846	844	847	848	829	806	812	838	858	854	854	840	823	822	827	835	847	857	876	885	876	854	860	872	872	882	885	884	846	831	821	816	816	824	835	841	840	829	822	822	819	824	834	834	834	837	831	829	824	824	835	843	838	828	833	845	856	856	869	870	869	864	869	876	882	886	893	893	891	897	886	881	865	859	849	842	838	837	853	869	869	887	906	916	916	899	882	859	857	875	887	889	890	879	870	865	876	888	900	908	901	916	912	909	896	889	876	860	846	854	854	869	878	880	873	868	876	872	861	834	810	814	847	864	870	866	858	861	870	883	890	888	882	878	881	871	876	862	866	861	862	880	891	906	911	905	891	879	879	888	896	894	882	876	870	873	873	872	874	863	865	865	854	852	854	865	874	885	892	898	903	904	898	895	896	905	911	904	890	882	878	889	890	890	888	904	903	878	852	848	849	863	883	907	921	926	911	912	907	895	881	887	883	885	887	891	887	887	879	879	879	894	901	895	883	892	898	906	898	896	887	885	886	897	905	897	886	887	890	890	871	863	871	862	864	866	872	878	886	892	885	865	846	854	854	859	859	864	876	886	887	876	872	855	851	851	860	868	869	862	859	871	877	870	865	879	889	896	907	907	909	900	898	917	918	914	888	868	845	862	871	870	853	846	842	854	867	876	871	860	836	826	838	859	879	884	880	866	856	850	840	831	833	838	845	841	841	834	825	831	842	852	854	847	837	829	826	839	865	877	876	873	868	855	828	825	831	844	845	843	842	849	844	835	831	834	834	842	858	867	864	849	836	834	836	838	832	831	818	806	814	825	820	820	822	822	824	834	834	838	849	846	843	841	846	836	823	809	782	776	768	785	799	816	823	829	829	837	829	816	807	803	805	810	809	803	787	771	759	759	771	802	802	829	845	838	835	829	826	813	798	793	793	791	777	777	760	763	760	766	774	758	761	771	784	788	798	798	795	796	795	806	817	822	781	779	773	764	764	759	760	766	770	771	781	793	801	799	799	799	791	785	779	777	784	792	790	768	768	750	739	741	754	757	757	764	767	767	776	779	778	778	778	781	779	788	788	799	801	789	772	772	788	789	789	799	808	805	799	787	775	775	762	762	770	766	765	779	779	809	834	831	805	778	769	769	781	815	812	808	802	797	797	791	789	791	790	783	780	780	779	789	773	757	750	750	755	768	777	785	787	787	762	740	736	744	762	762	774	778	788	807
0	0	0	0	862	878	879	878	878	876	867	829	0	0	0	0	0	0	0	0	839	839	854	853	866	878	873	854	854	838	830	837	847	862	866	866	864	872	880	890	896	864	864	812	773	776	802	835	840	832	832	809	804	828	835	837	849	849	849	848	849	847	840	841	857	859	859	859	854	855	867	884	898	897	879	847	847	812	805	814	820	820	830	830	834	834	836	850	871	881	874	864	853	851	848	848	827	816	799	801	805	812	806	809	825	847	847	851	839	830	825	826	806	793	797	822	843	852	827	827	808	812	819	819	826	845	865	879	866	833	834	842	842	839	844	852	846	823	816	816	814	822	826	829	833	832	833	836	836	837	838	842	846	851	843	842	832	820	808	816	820	819	826	838	855	872	872	877	871	862	860	858	860	861	869	881	895	899	891	883	865	859	850	838	839	846	849	862	862	886	902	914	898	869	840	821	816	836	858	871	873	872	873	882	884	890	898	908	909	909	913	906	899	898	888	874	854	852	852	868	876	870	869	869	874	875	862	839	825	829	851	868	882	878	870	864	853	868	870	874	879	885	875	864	861	862	866	861	853	869	882	898	912	898	886	878	870	878	882	874	871	861	860	856	859	860	862	860	854	847	847	845	847	854	868	882	884	880	879	878	878	877	881	885	895	895	891	887	886	882	875	872	879	891	885	852	822	815	820	844	871	905	919	910	887	877	899	919	916	901	885	877	873	880	884	892	888	877	876	879	888	898	893	893	898	909	907	902	892	886	880	877	874	865	870	880	883	869	856	851	851	842	829	824	838	852	866	871	856	846	840	833	843	859	866	866	860	861	868	867	869	874	874	868	861	862	856	855	853	860	863	855	848	860	867	872	864	849	836	843	863	889	882	870	888	868	845	844	843	834	827	821	820	834	849	860	865	861	846	843	847	852	857	865	871	864	855	847	834	824	822	829	842	842	847	835	821	816	831	842	851	852	848	836	836	848	866	867	862	855	850	840	823	815	826	834	831	829	822	821	821	818	810	810	814	832	851	857	847	834	836	834	830	834	840	846	831	811	808	812	815	811	810	805	802	807	807	823	838	853	852	841	825	818	815	815	792	775	768	774	787	780	785	806	806	820	828	821	806	796	798	796	793	789	787	771	761	760	772	772	790	813	826	820	817	819	814	797	794	794	798	784	766	766	755	753	762	778	773	770	771	781	786	788	786	786	784	785	785	798	817	822	789	777	766	760	760	760	761	756	761	769	777	788	795	798	798	802	803	794	792	785	789	789	761	743	743	727	732	740	753	756	757	764	764	764	761	763	755	762	761	768	773	773	795	809	807	779	752	758	788	788	795	790	794	791	785	779	776	776	778	762	761	755	744	748	748	776	803	813	815	788	775	775	801	813	820	820	815	799	799	790	787	787	783	766	766	780	779	769	760	754	753	753	758	773	786	794	794	794	779	754	734	743	754	754	763	774	781	802
0	0	838	838	853	869	868	860	842	842	833	809	0	0	0	0	0	814	827	832	822	822	822	819	834	851	861	862	862	856	851	853	874	883	882	882	878	882	892	914	903	864	812	799	778	784	801	826	828	820	820	800	782	783	789	810	824	829	829	834	841	830	828	835	845	848	858	858	850	853	867	873	882	888	877	833	833	792	775	797	811	821	829	835	829	829	828	843	872	892	884	868	858	846	842	827	827	808	795	802	810	812	806	801	808	819	835	835	834	817	798	804	806	803	810	824	831	836	808	808	806	812	821	818	816	832	851	856	837	815	804	818	815	815	827	836	832	823	816	828	824	821	826	827	827	843	856	866	866	853	840	835	845	852	853	848	839	819	809	805	811	819	826	829	843	869	869	881	880	867	857	849	848	849	856	874	887	893	890	884	875	861	850	838	854	848	855	866	883	883	895	897	877	851	822	799	795	809	832	846	858	864	876	882	883	892	891	893	904	906	905	894	884	884	888	877	866	858	878	878	882	872	866	863	869	874	861	847	835	843	856	868	875	875	865	866	857	855	854	855	862	875	864	852	853	856	864	852	853	869	882	879	888	887	877	863	850	850	853	850	848	852	865	874	869	858	861	859	858	853	853	853	850	853	860	870	868	865	859	857	860	864	864	872	882	892	890	881	882	883	876	878	880	889	866	838	827	820	835	855	884	905	912	907	877	870	893	917	914	896	879	865	860	867	885	891	886	875	859	859	869	876	891	896	907	915	908	901	894	881	877	870	855	851	846	857	868	861	839	833	835	828	825	832	842	845	837	835	832	831	835	831	838	848	853	853	847	834	833	847	869	888	888	890	873	851	837	837	833	852	860	854	855	848	860	865	869	853	842	851	859	889	882	870	847	832	812	812	820	814	818	819	826	835	845	862	866	849	844	840	844	845	846	845	846	845	842	843	833	816	808	821	838	838	845	830	814	817	821	838	852	855	851	837	841	854	864	862	856	840	832	821	817	820	827	823	819	822	820	812	809	806	807	807	797	804	827	839	847	834	819	814	821	834	841	849	837	826	816	816	814	811	800	794	785	785	783	809	832	854	859	836	818	803	810	817	808	786	775	769	766	761	755	755	766	791	810	811	794	782	774	780	793	789	783	775	771	769	770	770	770	777	783	790	795	803	794	789	786	795	797	786	786	763	747	752	768	788	790	780	778	788	789	785	784	784	780	777	785	798	819	816	800	785	777	765	765	765	766	772	772	775	774	775	777	788	788	802	811	810	805	795	788	771	753	749	749	748	758	761	753	756	758	760	759	759	755	755	753	749	750	759	773	773	787	813	804	770	737	757	775	775	780	777	776	776	776	775	771	776	778	777	764	759	758	769	769	772	782	797	792	774	760	760	763	781	800	810	818	812	812	799	788	782	776	766	766	759	756	758	752	751	758	758	769	775	787	794	793	793	794	784	769	756	756	751	748	750	758	782
0	0	840	840	844	843	835	818	815	815	804	794	787	790	0	0	0	814	842	829	827	819	819	817	818	828	846	864	872	872	876	879	892	897	897	879	879	865	873	895	880	842	799	799	778	806	820	834	830	822	807	807	797	786	787	796	823	824	816	816	811	804	813	826	831	841	849	849	851	856	857	873	882	875	859	820	820	773	753	774	802	830	844	839	822	820	820	835	864	879	871	843	843	839	831	817	817	803	801	803	813	813	803	801	808	820	812	812	802	790	788	789	806	816	818	822	827	815	812	812	810	821	828	816	808	812	830	842	839	803	803	831	855	855	859	860	860	846	834	828	824	846	844	837	834	853	870	877	877	859	834	834	843	854	861	854	844	826	817	820	823	822	820	827	842	861	882	882	877	862	854	847	837	837	844	857	869	883	884	873	873	875	863	857	854	847	850	857	867	867	874	872	853	833	810	798	796	808	826	844	844	842	840	849	870	878	869	875	886	897	898	879	865	858	873	868	862	867	884	884	869	868	856	854	858	856	852	847	840	839	850	856	866	869	874	881	874	860	842	831	836	840	847	845	850	858	860	856	849	851	859	879	888	887	855	837	832	831	828	835	842	853	865	875	871	867	858	853	853	851	857	857	860	859	855	855	854	851	846	848	853	855	862	868	887	889	885	875	873	877	894	892	888	873	873	862	852	847	862	876	891	902	906	891	873	866	885	902	906	894	877	863	863	871	886	892	882	868	842	830	839	853	882	899	909	908	904	894	883	872	869	854	844	838	829	835	856	855	833	808	811	818	821	832	846	843	833	828	817	819	826	830	838	839	834	838	834	815	811	832	861	861	883	882	860	834	820	819	828	847	860	854	834	832	850	865	867	855	842	851	859	866	856	841	819	802	805	807	807	809	823	832	826	837	850	866	865	855	840	837	832	831	821	818	811	814	832	838	829	816	805	813	813	821	816	806	801	811	824	837	849	848	841	826	834	843	855	850	837	823	813	803	805	808	813	818	819	820	825	820	813	807	805	805	798	795	827	839	832	824	815	816	818	823	832	836	842	832	818	814	814	808	809	792	778	778	776	788	818	835	829	812	795	788	794	801	793	774	768	757	748	741	738	738	760	777	789	788	776	765	774	780	778	780	779	785	784	777	777	768	763	757	758	764	781	785	785	777	784	789	788	777	777	762	763	772	776	786	787	781	778	774	770	769	769	767	780	777	787	799	809	809	803	795	789	789	779	774	775	773	775	772	770	770	771	782	782	796	800	804	792	787	782	776	758	758	756	768	758	761	758	757	756	752	752	751	743	743	740	741	743	753	770	770	785	779	769	746	735	757	762	762	764	758	764	773	777	775	775	771	779	782	778	777	772	771	771	775	783	790	778	765	750	750	746	757	774	789	812	812	817	807	785	782	776	761	761	746	742	739	745	754	754	755	760	755	756	768	768	789	782	770	772	769	769	760	752	755	758	782
0	835	841	841	830	825	815	801	790	790	792	798	805	810	826	826	823	830	842	829	832	834	834	826	821	822	842	865	883	883	891	880	886	899	884	853	853	821	816	830	833	822	799	799	795	806	846	843	838	832	829	829	812	796	786	799	810	815	813	813	797	797	799	810	823	828	832	832	844	850	863	866	869	875	859	816	816	786	758	787	823	836	827	817	808	807	807	809	817	818	824	824	827	828	830	817	817	797	794	791	804	811	807	808	812	820	812	798	798	781	774	786	796	810	815	812	808	807	813	820	820	834	837	825	802	800	825	834	828	819	806	800	804	804	812	810	820	826	832	837	843	846	844	841	839	847	852	863	856	856	834	827	840	855	854	842	828	830	836	846	851	838	833	834	837	858	858	858	858	848	841	837	832	828	835	846	868	881	875	862	863	864	866	863	855	847	850	841	851	853	853	849	832	816	802	802	811	826	838	842	837	832	831	829	836	840	841	850	861	874	882	876	860	847	837	841	846	866	853	848	848	855	849	836	835	836	849	850	841	829	835	845	855	864	876	886	875	867	826	808	807	821	837	844	843	846	842	839	830	829	838	853	867	867	855	837	832	818	819	823	829	843	852	875	875	865	859	848	839	835	846	846	856	868	860	853	851	852	852	856	859	855	854	876	882	882	873	864	858	863	865	855	858	865	878	879	878	876	881	883	886	889	892	880	867	860	876	894	897	894	884	880	875	883	886	890	882	855	828	816	818	840	873	883	893	893	889	879	864	852	843	843	838	832	821	832	854	855	835	801	810	809	821	831	841	837	837	830	826	811	812	816	824	821	821	832	839	833	816	832	856	856	871	870	850	817	803	812	829	848	852	830	815	815	850	865	867	855	848	840	838	827	820	815	812	813	810	805	805	816	825	830	829	830	849	861	860	855	837	824	824	815	808	795	790	799	819	835	827	823	821	828	828	815	801	783	784	812	828	844	850	846	829	825	824	832	834	827	813	811	803	794	789	795	803	809	818	820	823	827	819	814	814	811	798	795	807	823	827	824	824	820	816	812	809	820	831	826	813	808	810	817	818	803	803	781	781	789	803	804	794	771	752	755	770	773	770	757	742	737	736	733	743	743	760	775	779	778	768	765	760	760	767	777	783	790	789	779	779	768	761	755	755	762	771	779	778	780	780	776	771	765	765	759	765	771	770	781	780	780	778	772	771	767	767	767	767	771	782	792	804	804	803	806	795	795	784	780	781	775	772	766	770	773	776	776	780	789	787	783	780	778	774	776	764	764	756	768	773	778	772	766	760	752	752	747	741	734	727	726	735	744	744	757	755	751	754	755	755	753	753	754	755	755	762	773	777	773	773	767	774	779	781	782	781	781	778	776	783	782	777	763	763	746	735	734	749	770	791	791	811	807	785	759	751	751	751	745	736	740	745	752	752	749	744	740	736	741	741	777	775	765	765	772	772	767	752	755	762	763
843	826	824	824	823	821	809	794	789	789	807	818	835	855	853	853	853	843	844	832	832	834	838	827	817	817	834	859	871	871	870	851	864	871	873	836	836	794	785	794	807	810	815	815	816	831	846	843	834	838	828	828	813	794	782	791	807	820	821	821	817	802	802	805	811	812	819	828	828	847	857	862	859	854	836	816	786	812	802	814	824	813	801	790	796	802	802	809	817	819	817	818	821	828	827	811	784	784	774	780	793	801	810	819	827	834	816	798	798	782	773	776	800	810	801	794	797	805	824	833	833	831	820	821	815	803	803	810	811	806	800	787	782	784	784	791	792	811	832	842	845	848	844	841	839	818	828	843	845	845	827	824	833	848	842	828	823	828	838	851	857	852	842	829	828	831	834	833	833	840	845	837	817	808	819	834	863	879	874	857	853	852	854	851	836	825	830	841	851	831	831	825	811	804	800	804	814	831	842	842	839	836	834	838	834	825	814	812	820	846	870	881	869	856	849	860	858	848	840	846	852	852	843	823	812	818	836	845	850	847	846	847	851	857	862	868	870	861	830	801	800	807	827	831	830	835	824	819	816	815	831	847	856	851	840	826	819	818	819	823	829	827	844	861	870	868	854	846	831	823	833	843	843	854	863	856	854	855	863	868	867	862	858	860	865	863	852	835	831	830	842	836	830	841	861	870	868	879	881	876	870	857	866	866	856	853	866	879	882	878	882	885	887	886	881	881	869	851	831	817	827	842	854	862	867	871	869	857	834	828	832	847	861	856	849	857	856	843	821	799	811	826	834	836	832	843	846	844	836	824	806	798	797	798	813	827	841	849	844	845	845	851	855	846	810	789	786	806	827	833	834	830	815	815	837	852	851	842	830	820	816	812	823	820	820	815	812	810	808	808	815	819	811	817	833	845	853	833	811	809	808	800	796	790	788	794	813	820	811	804	801	801	800	798	788	777	778	795	828	843	852	843	835	821	814	812	803	797	791	791	790	790	787	792	798	804	799	808	818	818	810	800	814	811	799	797	807	821	828	830	830	822	812	797	790	792	808	813	804	801	810	817	816	801	801	788	784	788	796	791	786	776	762	760	764	770	772	768	749	732	726	732	732	748	762	771	770	778	768	748	747	756	765	777	785	789	785	777	777	766	762	763	756	759	774	789	790	787	781	780	778	778	770	767	765	760	756	765	774	782	783	780	775	767	767	765	765	769	771	779	788	797	797	797	801	801	789	781	782	770	755	750	764	769	777	777	774	781	777	771	770	767	767	762	764	764	770	777	787	782	784	776	766	757	757	752	738	724	715	721	725	756	756	760	744	731	744	748	756	756	756	752	749	755	762	776	780	777	777	770	763	763	770	776	780	780	778	775	778	780	776	765	765	751	736	728	730	739	761	791	811	805	782	758	751	751	747	739	736	732	733	738	738	745	741	733	721	722	722	740	761	773	781	782	772	767	757	754	754	749
835	820	817	813	813	821	814	804	803	811	811	833	845	863	871	872	872	858	847	831	827	838	827	827	800	805	828	849	855	855	843	823	830	843	846	824	824	796	786	786	803	813	813	825	825	830	844	838	834	838	816	816	789	780	778	787	806	809	822	819	819	801	796	795	798	805	804	829	829	841	847	845	839	832	822	817	812	812	802	818	803	782	766	766	781	794	809	809	820	824	823	826	827	828	821	795	768	768	766	773	783	795	805	814	833	836	821	798	798	782	773	788	805	825	823	800	802	807	808	804	804	804	801	802	802	796	793	797	800	802	796	782	779	780	780	782	784	797	815	828	835	830	829	829	823	818	828	814	820	812	812	806	815	827	826	818	819	828	833	847	852	847	835	831	823	825	823	833	833	846	841	832	814	807	817	835	860	872	870	855	844	838	845	839	821	815	813	824	834	831	825	825	805	804	806	806	813	828	839	844	842	838	839	839	830	815	806	793	807	828	855	868	861	847	844	847	851	839	830	840	850	850	849	831	817	818	827	836	841	850	853	854	855	850	845	852	854	850	832	812	801	815	819	819	818	815	817	806	812	826	835	852	864	871	865	850	834	822	816	811	812	827	844	861	870	872	855	845	825	810	815	819	819	828	845	848	851	853	865	866	866	860	851	845	843	843	837	822	813	811	809	802	808	814	827	835	840	848	856	858	839	837	837	838	840	844	854	860	866	866	877	880	876	872	860	857	846	839	829	834	842	847	848	850	843	843	845	840	828	827	835	860	862	866	858	857	851	831	807	790	783	787	812	821	833	848	857	855	843	834	829	816	801	800	811	830	844	851	857	862	862	849	826	816	821	816	799	806	827	833	834	823	807	804	823	837	840	841	831	821	817	825	832	828	826	817	808	808	801	796	799	801	801	803	816	827	823	805	793	786	786	795	796	787	787	793	801	803	797	792	785	785	788	785	786	785	784	791	802	809	841	843	834	825	806	792	780	778	776	780	792	801	803	795	796	792	781	785	791	784	810	810	800	797	796	798	809	818	826	825	823	811	800	788	774	775	789	798	794	796	803	811	811	797	797	773	774	787	785	782	781	777	769	768	762	767	773	769	758	738	731	739	739	747	759	771	770	768	759	747	747	760	769	778	784	783	776	776	766	761	760	757	757	759	773	789	795	787	781	786	786	786	782	771	766	760	747	749	756	765	776	780	775	775	773	770	769	771	762	763	769	775	781	775	775	761	776	794	794	763	745	734	745	758	769	769	772	774	773	763	761	755	755	762	762	758	759	759	771	781	785	779	772	772	763	755	741	724	713	715	725	740	740	758	740	726	744	751	758	761	761	752	749	751	758	775	780	778	778	775	759	754	758	761	768	768	771	766	767	768	762	757	757	744	736	728	725	739	761	761	784	786	777	767	756	756	749	741	730	728	727	723	723	730	725	721	718	722	722	728	740	759	781	782	782	783	766	743	735	735
835	820	801	801	801	815	816	813	803	813	813	818	843	859	878	889	889	878	858	826	821	812	808	808	800	805	817	838	842	830	830	809	809	824	835	828	803	803	790	799	796	803	812	812	812	815	819	825	826	827	816	789	767	763	767	786	794	808	808	799	799	793	788	791	791	787	810	828	828	837	835	822	809	805	806	807	821	821	825	818	803	754	740	740	760	783	797	797	811	817	821	830	839	837	820	784	760	760	755	758	779	790	801	803	809	799	794	781	770	770	773	788	792	805	805	797	790	783	784	792	796	796	800	801	800	798	795	795	796	798	789	782	780	785	783	783	787	784	796	804	807	800	798	803	795	794	803	814	799	798	798	794	787	794	800	803	812	819	813	814	823	829	824	823	823	825	824	830	830	831	823	812	803	808	824	842	854	864	858	845	827	823	827	829	821	813	808	814	815	807	807	807	805	804	805	808	814	822	831	834	833	839	839	836	819	801	794	787	794	813	831	845	842	838	837	841	838	825	816	826	844	855	855	847	840	830	826	827	823	831	839	849	849	840	837	838	837	835	829	827	829	825	836	830	817	815	824	829	831	836	840	853	868	890	892	883	857	829	806	799	797	812	832	854	874	872	855	845	825	791	792	799	811	811	828	830	832	838	845	845	843	835	836	837	834	835	835	827	822	816	804	793	788	785	791	797	808	809	821	831	835	833	822	815	811	816	826	828	836	846	862	868	858	845	832	833	828	823	824	831	844	844	845	843	833	827	831	832	833	833	842	861	872	867	850	832	817	819	807	791	785	794	811	819	835	852	862	857	844	833	826	822	811	803	805	816	816	812	800	800	802	799	796	816	821	816	799	791	800	812	812	815	808	810	814	831	844	847	834	825	824	834	848	853	837	818	806	803	802	800	801	801	792	796	801	812	812	810	787	786	786	787	797	799	800	797	788	788	790	787	787	788	783	789	795	790	787	788	792	801	811	823	826	817	803	783	768	764	770	796	803	801	801	795	791	775	771	773	791	784	786	786	787	791	793	784	787	803	813	812	807	802	792	777	765	767	779	792	795	790	797	803	798	798	781	770	769	771	775	776	778	782	782	791	786	779	774	762	755	738	736	736	743	747	759	761	758	754	753	750	746	750	760	770	779	779	775	775	758	748	747	743	746	750	763	780	781	765	763	769	774	774	771	774	767	758	747	736	732	765	776	776	780	780	779	775	776	765	754	750	749	762	758	749	749	750	767	772	770	752	726	721	723	732	732	746	756	766	757	714	697	755	755	745	745	750	756	749	754	771	777	772	763	763	753	760	762	752	737	726	731	739	739	751	749	753	759	763	764	761	761	741	741	740	744	752	764	764	770	771	757	751	750	758	758	758	763	761	753	755	751	748	748	736	740	728	725	723	723	732	745	758	759	755	754	754	754	743	734	727	713	713	713	712	716	715	724	724	734	739	740	759	774	774	767	754	741	739	736	736
820	820	801	799	799	807	819	808	803	801	801	806	822	852	874	886	884	884	868	827	805	796	781	781	783	790	817	838	844	825	825	802	801	819	834	829	819	819	809	815	816	801	796	788	788	782	782	792	818	814	791	767	767	763	763	779	791	802	801	789	789	779	776	775	770	775	795	829	838	838	819	810	793	786	785	798	808	815	815	798	775	754	728	729	741	760	781	781	799	810	823	835	848	845	820	781	752	750	750	748	765	778	784	782	776	778	773	769	766	766	770	778	792	805	793	787	782	776	775	783	787	787	793	794	798	802	804	809	805	795	785	785	792	792	787	787	783	781	782	785	787	777	774	775	783	788	792	802	799	798	789	789	782	773	775	791	803	810	805	796	795	809	812	811	816	820	817	819	810	810	797	788	789	806	822	839	842	844	837	820	805	804	815	827	830	830	817	811	808	808	809	809	809	804	805	808	820	821	826	827	818	814	822	820	804	788	779	776	786	797	801	808	818	827	838	839	826	802	790	803	819	829	829	836	834	831	830	819	809	815	821	833	842	839	833	830	828	825	830	835	838	837	846	840	830	824	828	833	833	836	837	847	864	879	885	874	852	820	798	792	793	800	827	856	867	864	845	835	810	791	792	799	811	799	813	810	806	805	803	805	798	798	806	816	825	829	830	833	820	788	774	769	770	770	772	775	780	788	799	811	826	828	822	809	803	798	807	819	830	842	850	856	847	833	820	817	824	829	832	830	838	848	858	857	842	823	819	823	831	837	852	864	869	861	836	805	802	804	803	803	808	819	824	819	833	850	863	859	842	825	819	816	803	800	807	809	805	794	790	800	802	799	796	794	807	819	813	799	792	797	806	806	809	811	810	829	848	851	843	829	814	810	818	815	808	800	801	813	812	812	805	796	772	754	763	790	803	812	804	798	792	800	804	806	796	790	783	784	786	786	789	791	792	798	802	793	785	779	778	789	795	797	795	792	786	786	780	778	782	791	791	785	788	788	781	772	771	773	772	771	771	772	772	783	789	781	773	777	808	809	806	797	789	780	783	781	782	792	794	787	784	787	785	785	784	772	766	763	762	768	776	787	793	796	792	779	769	757	755	750	748	736	743	752	758	753	753	749	745	739	730	728	734	748	766	777	774	774	756	743	735	733	731	734	741	747	742	741	739	747	747	752	758	762	759	751	742	736	732	733	748	771	784	784	781	778	770	762	747	738	737	736	737	733	733	743	747	751	753	725	712	713	714	718	718	726	747	762	752	714	697	706	727	762	762	771	779	768	762	752	757	758	737	737	748	762	756	750	749	746	751	751	767	787	784	780	759	763	764	764	740	736	733	733	730	736	744	744	752	747	749	750	752	751	751	755	750	744	738	742	738	738	736	730	740	742	735	721	721	715	718	734	746	743	744	744	746	742	737	735	728	728	721	713	720	734	744	744	734	739	739	755	765	765	763	746	731	730	746	746
805	796	791	799	799	811	818	819	805	801	801	809	821	845	864	886	886	886	863	817	796	777	773	773	770	791	814	839	844	825	808	795	789	811	832	840	834	834	820	814	814	798	773	753	744	744	759	777	800	793	766	749	749	759	763	779	780	789	790	782	782	778	777	767	761	774	797	815	820	820	817	802	788	785	772	782	794	799	799	781	760	742	728	729	725	739	761	789	789	812	824	831	844	843	817	779	751	753	753	752	759	774	776	768	766	773	771	770	769	769	767	772	780	790	793	787	773	771	768	772	778	773	773	766	767	773	782	783	778	775	777	786	796	802	790	790	779	772	774	777	782	783	787	796	792	797	790	783	795	795	789	789	771	763	767	782	795	802	798	788	783	778	779	782	778	776	764	755	761	761	773	777	783	798	814	816	806	799	791	784	779	783	802	823	845	853	851	817	805	809	813	818	818	814	807	812	820	821	824	818	808	799	807	806	795	779	767	765	769	773	775	779	787	813	831	832	814	790	775	788	812	824	830	830	829	829	825	816	805	801	813	823	838	838	835	829	827	822	827	830	827	829	834	830	822	826	834	840	845	853	842	841	852	863	869	857	839	814	803	795	796	800	820	841	852	848	811	791	779	774	770	786	799	813	813	810	806	805	783	780	771	767	782	805	820	816	786	768	777	779	774	766	762	755	732	732	754	766	778	799	811	820	812	802	798	797	806	814	823	826	837	841	832	820	810	803	811	813	820	824	844	862	868	861	841	826	808	809	815	830	843	855	852	839	816	792	792	799	794	795	800	808	815	815	831	843	848	846	836	824	810	791	790	794	807	809	805	794	794	790	804	797	795	799	807	815	808	798	796	797	797	796	802	809	817	836	846	848	834	812	795	786	785	782	794	803	805	796	789	783	786	778	767	754	754	771	802	812	795	770	777	803	811	802	781	775	775	781	787	787	796	793	793	791	795	788	773	760	760	773	773	777	787	787	786	780	776	779	778	781	777	776	777	775	781	772	764	762	761	762	762	770	786	803	806	789	779	778	798	805	798	798	800	797	793	797	795	794	789	783	777	770	770	771	771	766	752	746	750	764	775	785	793	795	787	774	757	755	750	750	748	748	756	774	764	751	746	745	739	725	713	707	712	727	752	765	765	764	759	743	735	725	727	728	721	719	722	718	718	722	722	733	745	753	747	734	742	737	732	734	745	767	767	780	776	767	758	746	738	732	731	729	728	728	718	728	737	744	746	721	709	711	712	715	715	724	733	762	752	718	719	743	756	756	756	757	759	748	728	709	728	723	723	722	724	736	739	745	747	743	740	740	755	772	773	780	759	742	732	732	732	735	726	728	727	731	745	745	742	740	742	743	744	741	741	742	735	737	733	736	736	736	736	730	737	745	740	721	721	711	711	724	733	731	731	724	733	736	739	742	743	743	735	730	733	733	744	744	755	742	744	742	753	753	758	745	726	723	736	736
797	785	785	793	811	811	818	824	809	806	798	798	814	836	861	876	863	863	835	808	782	769	773	781	781	798	820	832	829	808	808	778	779	793	818	839	822	822	817	803	793	783	758	741	733	733	739	761	782	776	764	756	758	758	766	774	780	789	792	786	787	787	788	782	779	783	788	795	801	801	795	799	798	782	774	771	779	784	784	771	759	748	739	732	725	739	765	795	795	812	805	806	807	821	813	788	761	759	759	764	768	775	776	777	771	774	775	770	772	775	775	770	771	772	777	776	773	771	763	768	767	761	761	756	753	758	767	774	767	770	775	787	797	803	794	784	784	773	773	783	791	790	788	789	799	790	775	763	769	789	787	787	771	763	765	776	791	792	786	782	770	766	756	754	761	769	773	768	771	773	773	773	787	784	789	793	788	783	780	771	768	774	793	815	839	852	848	828	814	805	821	830	821	821	809	810	815	824	824	818	808	798	803	801	793	779	772	765	766	767	769	771	777	790	808	824	817	786	775	780	799	825	833	833	829	822	818	812	802	798	809	812	822	833	828	825	819	817	818	820	814	813	814	816	819	822	839	854	864	854	842	834	839	849	850	845	831	820	811	806	804	806	821	828	827	817	812	797	782	770	774	784	799	808	808	806	792	784	783	780	771	767	782	805	814	785	765	761	756	770	801	800	801	803	772	739	756	776	796	807	810	801	799	797	799	803	809	813	811	811	813	822	820	814	803	789	787	790	799	810	827	841	835	831	827	813	804	800	800	809	824	835	839	820	793	788	780	784	785	784	789	798	804	808	815	828	831	821	836	824	810	791	790	794	799	804	801	784	784	780	784	800	800	805	813	813	801	789	796	798	795	792	795	807	815	830	837	831	816	795	783	772	776	782	794	812	812	806	786	783	785	780	766	755	760	771	797	804	784	763	767	792	796	790	768	756	763	776	776	789	790	784	779	774	772	774	764	751	752	749	738	733	771	782	777	771	766	765	769	776	773	767	777	775	770	767	764	760	752	752	753	758	776	799	805	790	776	775	786	785	779	784	793	800	800	797	794	792	787	789	781	774	774	769	765	755	744	740	742	759	770	773	765	762	757	744	743	755	750	759	759	766	789	794	786	777	773	760	739	714	696	688	696	718	725	726	726	734	739	748	740	736	736	728	720	712	708	706	707	707	707	719	736	737	747	734	729	727	726	727	739	755	755	765	758	749	736	729	723	717	715	712	714	714	720	729	733	737	738	728	717	728	728	728	718	724	733	733	714	699	711	732	747	747	745	736	735	732	717	711	705	725	725	724	717	713	707	713	721	721	718	718	723	731	773	769	761	742	734	734	732	732	729	721	729	744	744	753	755	744	741	737	738	738	738	731	724	722	729	735	736	736	727	731	741	743	740	727	727	722	710	705	692	688	688	704	718	731	737	743	743	748	739	731	733	733	745	745	753	751	740	728	730	730	743	737	719	713	713	717
