0	0	0	0	0	0	0	0	0	0	0	0	0	0	0	0	0	0	0	0	0	0	0	0	0	0	0	0	0	0	0	0	0	0	0	0	0	0	0	0	0	0	0	0	0	0	0	0	0	0	0	0	0	0	0	0	0	0	0	0	0	0	0	0	0	0	0	0	0	0	0	0	0	0	0	0	0	0	0	0	0	0	0	0	0	0	0	0	0	0	0	0	0	0	0	0	0	0	0	0	0	0	0	0	0	0	0	0	0	0	0	0	0	0	0	0	0	0	0	0	0	0	0	0	0	0	0	0	0	0	0	0	0	0	0	0	0	0	0	0	0	0	0	0	0	0	0	0	0	0	0	0	0	0	0	0	0	0	0	0	0	2693	2843	2843	2875	2865	2854	2834	2815	2802	2797	2830	2839	2835	2827	2828	2822	2816	2803	2807	2826	2830	2818	2797	2810	2816	2827	2833	2830	2830	2817	2813	2804	2810	2807	2821	2832	2836	2826	2813	2819	2839	2850	2851	2837	2823	2816	2826	2845	2851	2849	2837	2825	2836	2829	2821	2822	2832	2837	2799	2794	2797	2817	2812	2810	2814	2808	2801	2806	2791	2784	2780	2795	2795	2822	2835	2838	2824	2820	2819	2811	2816	2826	2836	2831	2825	2834	2832	2864	2860	2858	2838	2805	2806	2806	2822	2838	2822	2829	2821	2814	2816	2831	2845	2847	2876	2871	2850	2813	2795	2789	2801	2878	2873	2883	2864	2863	2863	2877	2908	2902	2893	2899	2910	2923	2927	2920	2906	2909	2909	2932	2943	2938	2911	2894	2886	2888	2881	2878	2885	2890	2880	2872	2870	2869	2888	2914	2934	2925	2934	2924	2854	2825	2844	2908	2931	2933	2935	2907	2903	2908	2917	2927	2925	2915	2918	2921	2906	2915	2913	2907	2914	2899	2946	2959	2955	2950	2936	2928	2923	2906	2892	2881	2887	2898	2928	2943	2943	2909	2895	2889	2914	2926	2894	2880	2862	2867	2872	2879	2891	2890	2886	2888	2889	2915	2913	2907	2890	2860	2851	2835	2855	2853	2855	2841	2842	2839	2856	2870	2876	2873	2871	2874	2871	2883	2923	2937	2943	2903	2860	2850	2851	2870	2896	2908	2899	2889	2864	2858	2858	2831	2839	2821	2839	2853	2868	2868	2853	2855	2856	2873	2885	2910	2921	2916	2913	2921	2912	2903	2886	2881	2883	2898	2903	2891	2873	2883	2904	2931	2926	2894	2843	2839	2828	2837	2858	2894	2911	2949	2946	2927	2909	2909	2890	2867	2846	2838	2837	2842	2863	2868	2874	2867	2870	2885	2910	2901	2911	2903	2891	2878	2852	2859	2886	2814	2834	2847	0	0	0	0	0	0	0	0	0	0	0	0	0	0	0	0	0	0	0	0	0	0	0	0	0	0	0	0	0	0	0	0	0	0	0	0	0	0	0	0	0	0	0	0	0	0	0	0	0	0	0	0	0	0	0	0	0	0	0	0	0	0	0	0	0	0	0	0	0	0	0	0	0	0	0	0	0	0	0	0	0	0	0	0	0	0	0	0	0	0	0	0	0	0	0	0	0	0	0	0	0	0	0	0	0	0	0	0	0	0	0	0	0	0	0	0	0	0	0	0	0	0	0	0	0	0	0	0	0	0	0	0	0	0	0	0	0	0	0	0	0	0	0	0	0	0	0	0	0	0	0	0	0	0	0	0	0	0	0	0	0	0	0	0	0	0	0	0	0	0	0	0	0
0	0	0	0	0	0	0	0	0	0	0	0	0	0	0	0	0	0	0	0	0	0	0	0	0	0	0	0	0	0	0	0	0	0	0	0	0	0	0	0	0	0	0	0	0	0	0	0	0	0	0	0	0	0	0	0	0	0	0	0	0	0	0	0	0	0	0	0	0	0	0	0	0	0	0	0	0	0	0	0	0	0	0	0	0	0	0	0	0	0	0	0	0	0	0	0	0	0	0	0	0	0	0	0	0	0	0	0	0	0	0	0	0	0	0	0	0	0	0	0	0	0	0	0	0	0	0	0	0	0	0	0	0	0	0	0	0	0	0	0	0	0	0	0	0	0	0	0	0	0	0	0	0	0	0	0	0	0	0	0	0	2692	2824	2824	2865	2861	2856	2843	2830	2811	2797	2802	2836	2829	2819	2821	2822	2820	2807	2806	2824	2820	2824	2813	2798	2797	2793	2802	2798	2798	2801	2828	2831	2827	2831	2834	2833	2823	2817	2813	2819	2838	2860	2858	2828	2808	2806	2841	2865	2866	2863	2853	2852	2851	2835	2827	2828	2849	2833	2805	2788	2774	2781	2814	2813	2824	2840	2834	2820	2789	2748	2751	2792	2792	2834	2852	2847	2838	2823	2798	2794	2808	2817	2814	2816	2823	2830	2825	2833	2859	2859	2850	2843	2850	2829	2816	2812	2815	2808	2807	2802	2799	2807	2830	2856	2863	2869	2849	2812	2787	2779	2804	2864	2873	2861	2855	2849	2863	2882	2902	2886	2893	2888	2906	2921	2929	2925	2893	2906	2920	2937	2935	2928	2908	2893	2879	2880	2872	2870	2879	2886	2892	2885	2880	2880	2902	2934	2942	2921	2929	2919	2836	2826	2834	2909	2921	2927	2949	2940	2919	2916	2922	2932	2942	2917	2906	2894	2897	2894	2914	2918	2917	2908	2938	2954	2959	2960	2958	2954	2937	2922	2893	2886	2891	2910	2930	2930	2920	2913	2904	2906	2915	2912	2894	2845	2865	2870	2864	2871	2877	2874	2876	2880	2909	2909	2914	2903	2903	2882	2846	2834	2848	2848	2847	2841	2833	2842	2851	2862	2855	2848	2863	2866	2872	2881	2909	2917	2895	2878	2854	2856	2869	2884	2890	2891	2882	2847	2835	2837	2837	2830	2822	2830	2845	2854	2850	2861	2860	2863	2873	2879	2882	2885	2891	2899	2904	2908	2910	2901	2894	2882	2873	2883	2873	2886	2860	2860	2889	2901	2888	2867	2843	2855	2844	2849	2853	2865	2886	2920	2910	2886	2877	2880	2880	2886	2881	2871	2865	2871	2894	2883	2889	2879	2881	2887	2901	2885	2877	2885	2877	2872	2867	2875	2901	2816	2815	2815	0	0	0	0	0	0	0	0	0	0	0	0	0	0	0	0	0	0	0	0	0	0	0	0	0	0	0	0	0	0	0	0	0	0	0	0	0	0	0	0	0	0	0	0	0	0	0	0	0	0	0	0	0	0	0	0	0	0	0	0	0	0	0	0	0	0	0	0	0	0	0	0	0	0	0	0	0	0	0	0	0	0	0	0	0	0	0	0	0	0	0	0	0	0	0	0	0	0	0	0	0	0	0	0	0	0	0	0	0	0	0	0	0	0	0	0	0	0	0	0	0	0	0	0	0	0	0	0	0	0	0	0	0	0	0	0	0	0	0	0	0	0	0	0	0	0	0	0	0	0	0	0	0	0	0	0	0	0	0	0	0	0	0	0	0	0	0	0	0	0	0	0	0
0	0	0	0	0	0	0	0	0	0	0	0	0	0	0	0	0	0	0	0	0	0	0	0	0	0	0	0	0	0	0	0	0	0	0	0	0	0	0	0	0	0	0	0	0	0	0	0	0	0	0	0	0	0	0	0	0	0	0	0	0	0	0	0	0	0	0	0	0	0	0	0	0	0	0	0	0	0	0	0	0	0	0	0	0	0	0	0	0	0	0	0	0	0	0	0	0	0	0	0	0	0	0	0	0	0	0	0	0	0	0	0	0	0	0	0	0	0	0	0	0	0	0	0	0	0	0	0	0	0	0	0	0	0	0	0	0	0	0	0	0	0	0	0	0	0	0	0	0	0	0	0	0	0	0	0	0	0	0	0	0	2776	2830	2830	2850	2850	2853	2845	2830	2810	2803	2789	2790	2803	2802	2807	2815	2805	2790	2788	2796	2818	2814	2799	2787	2783	2793	2791	2787	2787	2822	2835	2856	2847	2840	2830	2826	2823	2817	2822	2829	2847	2862	2850	2805	2799	2810	2838	2858	2871	2878	2880	2875	2862	2835	2831	2833	2847	2852	2818	2810	2798	2806	2816	2834	2839	2865	2865	2841	2797	2762	2763	2763	2799	2842	2865	2868	2855	2831	2809	2786	2798	2809	2814	2800	2810	2815	2835	2840	2841	2852	2857	2859	2856	2833	2815	2820	2822	2814	2814	2815	2811	2816	2833	2852	2864	2856	2847	2814	2789	2792	2816	2858	2858	2874	2858	2857	2863	2875	2887	2879	2881	2876	2883	2896	2923	2921	2910	2884	2901	2939	2942	2935	2913	2893	2884	2876	2868	2857	2882	2891	2886	2891	2898	2906	2936	2944	2932	2925	2924	2905	2848	2819	2833	2867	2921	2930	2939	2931	2941	2932	2931	2933	2926	2912	2900	2896	2883	2899	2920	2931	2930	2911	2905	2930	2942	2953	2958	2953	2934	2916	2886	2872	2890	2901	2922	2914	2891	2893	2898	2909	2915	2906	2874	2848	2856	2855	2857	2844	2856	2858	2860	2880	2900	2917	2911	2910	2903	2878	2854	2834	2829	2830	2830	2830	2839	2834	2840	2831	2822	2822	2835	2845	2845	2845	2876	2889	2873	2860	2870	2880	2883	2892	2868	2874	2859	2828	2827	2837	2837	2819	2822	2820	2811	2817	2833	2857	2877	2894	2889	2868	2856	2854	2859	2859	2868	2885	2889	2900	2907	2896	2888	2874	2872	2882	2878	2851	2848	2861	2886	2861	2867	2855	2844	2867	2860	2862	2882	2897	2891	2874	2870	2892	2892	2902	2904	2900	2903	2926	2926	2916	2895	2904	2899	2898	2882	2876	2864	2862	2870	2871	2865	2867	2876	2787	2770	2757	2734	0	0	0	0	0	0	0	0	0	0	0	0	0	0	0	0	0	0	0	0	0	0	0	0	0	0	0	0	0	0	0	0	0	0	0	0	0	0	0	0	0	0	0	0	0	0	0	0	0	0	0	0	0	0	0	0	0	0	0	0	0	0	0	0	0	0	0	0	0	0	0	0	0	0	0	0	0	0	0	0	0	0	0	0	0	0	0	0	0	0	0	0	0	0	0	0	0	0	0	0	0	0	0	0	0	0	0	0	0	0	0	0	0	0	0	0	0	0	0	0	0	0	0	0	0	0	0	0	0	0	0	0	0	0	0	0	0	0	0	0	0	0	0	0	0	0	0	0	0	0	0	0	0	0	0	0	0	0	0	0	0	0	0	0	0	0	0	0	0	0	0	0
0	0	0	0	0	0	0	0	0	0	0	0	0	0	0	0	0	0	0	0	0	0	0	0	0	0	0	0	0	0	0	0	0	0	0	0	0	0	0	0	0	0	0	0	0	0	0	0	0	0	0	0	0	0	0	0	0	0	0	0	0	0	0	0	0	0	0	0	0	0	0	0	0	0	0	0	0	0	0	0	0	0	0	0	0	0	0	0	0	0	0	0	0	0	0	0	0	0	0	0	0	0	0	0	0	0	0	0	0	0	0	0	0	0	0	0	0	0	0	0	0	0	0	0	0	0	0	0	0	0	0	0	0	0	0	0	0	0	0	0	0	0	0	0	0	0	0	0	0	0	0	0	0	0	0	0	0	0	0	0	0	2810	2810	2844	2839	2829	2834	2833	2824	2820	2802	2788	2791	2798	2803	2810	2804	2792	2790	2783	2777	2776	2786	2779	2774	2773	2773	2781	2781	2790	2819	2837	2860	2849	2816	2830	2826	2826	2819	2833	2843	2852	2847	2815	2794	2789	2809	2829	2840	2865	2877	2880	2868	2850	2833	2819	2837	2834	2834	2824	2811	2801	2802	2819	2840	2864	2878	2874	2850	2825	2783	2782	2782	2816	2850	2851	2867	2868	2852	2831	2811	2802	2798	2797	2796	2796	2789	2803	2808	2810	2831	2841	2848	2841	2825	2823	2814	2822	2827	2822	2836	2848	2841	2839	2854	2860	2857	2853	2834	2823	2841	2845	2859	2857	2872	2873	2881	2871	2868	2866	2873	2865	2867	2874	2893	2917	2923	2898	2881	2918	2947	2948	2938	2919	2901	2891	2881	2862	2862	2869	2881	2888	2885	2892	2921	2934	2930	2919	2898	2910	2910	2880	2839	2850	2863	2908	2930	2935	2924	2934	2933	2929	2933	2940	2912	2894	2878	2878	2924	2937	2942	2933	2929	2906	2896	2900	2903	2902	2912	2921	2902	2894	2872	2886	2887	2897	2888	2884	2889	2913	2911	2925	2924	2898	2842	2841	2850	2849	2853	2854	2849	2855	2883	2888	2881	2875	2862	2850	2869	2873	2858	2847	2834	2824	2834	2844	2872	2858	2837	2829	2830	2825	2819	2816	2828	2843	2850	2828	2836	2856	2866	2868	2867	2865	2823	2823	2838	2834	2847	2832	2832	2811	2796	2790	2795	2821	2856	2882	2890	2888	2861	2843	2825	2826	2843	2833	2829	2859	2892	2908	2905	2893	2877	2877	2874	2879	2857	2843	2851	2867	2879	2878	2884	2882	2867	2860	2856	2863	2876	2889	2867	2856	2865	2865	2888	2891	2897	2920	2918	2932	2914	2910	2901	2894	2884	2861	2839	2831	2836	2858	2853	2848	2846	2860	2765	2735	2712	2693	0	0	0	0	0	0	0	0	0	0	0	0	0	0	0	0	0	0	0	0	0	0	0	0	0	0	0	0	0	0	0	0	0	0	0	0	0	0	0	0	0	0	0	0	0	0	0	0	0	0	0	0	0	0	0	0	0	0	0	0	0	0	0	0	0	0	0	0	0	0	0	0	0	0	0	0	0	0	0	0	0	0	0	0	0	0	0	0	0	0	0	0	0	0	0	0	0	0	0	0	0	0	0	0	0	0	0	0	0	0	0	0	0	0	0	0	0	0	0	0	0	0	0	0	0	0	0	0	0	0	0	0	0	0	0	0	0	0	0	0	0	0	0	0	0	0	0	0	0	0	0	0	0	0	0	0	0	0	0	0	0	0	0	0	0	0	0	0	0	0	0	0
0	0	0	0	0	0	0	0	0	0	0	0	0	0	0	0	0	0	0	0	0	0	0	0	0	0	0	0	0	0	0	0	0	0	0	0	0	0	0	0	0	0	0	0	0	0	0	0	0	0	0	0	0	0	0	0	0	0	0	0	0	0	0	0	0	0	0	0	0	0	0	0	0	0	0	0	0	0	0	0	0	0	0	0	0	0	0	0	0	0	0	0	0	0	0	0	0	0	0	0	0	0	0	0	0	0	0	0	0	0	0	0	0	0	0	0	0	0	0	0	0	0	0	0	0	0	0	0	0	0	0	0	0	0	0	0	0	0	0	0	0	0	0	0	0	0	0	0	0	0	0	0	0	0	0	0	0	0	0	0	0	2793	2793	2806	2817	2819	2810	2810	2814	2808	2805	2791	2815	2814	2804	2796	2781	2789	2803	2788	2775	2768	2765	2759	2761	2765	2763	2770	2770	2789	2818	2836	2831	2849	2816	2808	2809	2834	2839	2847	2844	2825	2813	2807	2795	2800	2817	2828	2840	2853	2871	2875	2846	2851	2824	2808	2817	2816	2820	2816	2785	2789	2787	2801	2842	2866	2884	2878	2863	2838	2793	2793	2793	2827	2857	2882	2885	2884	2875	2846	2823	2799	2789	2788	2790	2787	2778	2784	2783	2791	2805	2829	2836	2829	2807	2805	2811	2818	2825	2828	2845	2840	2844	2850	2843	2853	2846	2843	2838	2832	2860	2872	2874	2879	2867	2887	2894	2888	2878	2856	2844	2844	2841	2863	2892	2911	2890	2879	2895	2932	2943	2945	2935	2933	2923	2909	2906	2891	2858	2873	2882	2883	2884	2880	2904	2921	2906	2911	2885	2889	2886	2907	2881	2886	2892	2909	2924	2929	2893	2914	2924	2927	2927	2922	2917	2905	2883	2886	2931	2941	2943	2937	2931	2899	2892	2886	2896	2905	2904	2894	2891	2892	2892	2889	2879	2867	2870	2898	2906	2916	2933	2949	2943	2930	2860	2834	2837	2851	2849	2854	2857	2863	2887	2911	2899	2877	2857	2830	2858	2872	2879	2857	2840	2833	2837	2859	2864	2854	2835	2834	2830	2826	2817	2805	2817	2822	2815	2796	2789	2821	2843	2871	2877	2848	2797	2788	2819	2848	2856	2837	2837	2816	2812	2803	2805	2831	2857	2873	2884	2878	2857	2838	2835	2833	2827	2816	2810	2840	2868	2879	2877	2879	2866	2869	2870	2875	2868	2853	2845	2855	2872	2904	2902	2895	2876	2856	2856	2863	2856	2882	2888	2873	2858	2858	2851	2859	2883	2903	2904	2896	2876	2874	2877	2891	2882	2856	2847	2832	2832	2852	2849	2811	2808	2823	2739	2702	2680	2651	0	0	0	0	0	0	0	0	0	0	0	0	0	0	0	0	0	0	0	0	0	0	0	0	0	0	0	0	0	0	0	0	0	0	0	0	0	0	0	0	0	0	0	0	0	0	0	0	0	0	0	0	0	0	0	0	0	0	0	0	0	0	0	0	0	0	0	0	0	0	0	0	0	0	0	0	0	0	0	0	0	0	0	0	0	0	0	0	0	0	0	0	0	0	0	0	0	0	0	0	0	0	0	0	0	0	0	0	0	0	0	0	0	0	0	0	0	0	0	0	0	0	0	0	0	0	0	0	0	0	0	0	0	0	0	0	0	0	0	0	0	0	0	0	0	0	0	0	0	0	0	0	0	0	0	0	0	0	0	0	0	0	0	0	0	0	0	0	0	0	0	0
0	0	0	0	0	0	0	0	0	0	0	0	0	0	0	0	0	0	0	0	0	0	0	0	0	0	0	0	0	0	0	0	0	0	0	0	0	0	0	0	0	0	0	0	0	0	0	0	0	0	0	0	0	0	0	0	0	0	0	0	0	0	0	0	0	0	0	0	0	0	0	0	0	0	0	0	0	0	0	0	0	0	0	0	0	0	0	0	0	0	0	0	0	0	0	0	0	0	0	0	0	0	0	0	0	0	0	0	0	0	0	0	0	0	0	0	0	0	0	0	0	0	0	0	0	0	0	0	0	0	0	0	0	0	0	0	0	0	0	0	0	0	0	0	0	0	0	0	0	0	0	0	0	0	0	0	0	0	0	0	0	2745	2745	2777	2808	2799	2802	2793	2791	2799	2807	2857	2839	2828	2806	2784	2783	2812	2828	2818	2786	2773	2761	2745	2752	2768	2782	2797	2797	2806	2812	2836	2831	2814	2802	2796	2806	2841	2854	2853	2836	2834	2811	2806	2825	2832	2842	2840	2854	2860	2858	2863	2855	2844	2843	2827	2804	2801	2826	2812	2787	2789	2791	2799	2822	2845	2868	2864	2855	2845	2823	2823	2824	2838	2858	2870	2889	2885	2899	2883	2839	2795	2783	2797	2796	2800	2795	2787	2786	2789	2814	2824	2825	2818	2808	2792	2808	2824	2824	2837	2858	2849	2844	2847	2844	2836	2830	2829	2800	2820	2857	2875	2915	2856	2843	2886	2891	2884	2875	2855	2859	2841	2857	2875	2876	2874	2875	2881	2903	2933	2935	2929	2913	2918	2913	2915	2909	2897	2868	2864	2878	2889	2879	2881	2892	2909	2900	2901	2883	2883	2907	2920	2897	2894	2911	2921	2924	2926	2893	2906	2914	2925	2929	2929	2949	2957	2942	2917	2937	2941	2933	2926	2904	2877	2890	2887	2874	2877	2887	2898	2877	2882	2884	2888	2874	2873	2885	2898	2910	2925	2926	2930	2935	2932	2873	2808	2837	2844	2881	2889	2872	2872	2893	2910	2887	2873	2851	2842	2852	2872	2880	2852	2848	2846	2844	2856	2866	2840	2837	2833	2829	2828	2820	2819	2822	2817	2792	2756	2760	2783	2837	2868	2858	2824	2789	2781	2829	2841	2843	2833	2833	2818	2817	2826	2827	2838	2835	2844	2874	2876	2851	2824	2817	2821	2792	2791	2792	2812	2829	2846	2849	2868	2856	2866	2870	2883	2875	2857	2856	2860	2869	2877	2883	2874	2874	2848	2845	2842	2856	2882	2905	2891	2855	2845	2845	2835	2848	2882	2875	2857	2830	2839	2848	2869	2883	2868	2861	2855	2857	2861	2860	2832	2813	2806	2714	2672	2647	2598	0	0	0	0	0	0	0	0	0	0	0	0	0	0	0	0	0	0	0	0	0	0	0	0	0	0	0	0	0	0	0	0	0	0	0	0	0	0	0	0	0	0	0	0	0	0	0	0	0	0	0	0	0	0	0	0	0	0	0	0	0	0	0	0	0	0	0	0	0	0	0	0	0	0	0	0	0	0	0	0	0	0	0	0	0	0	0	0	0	0	0	0	0	0	0	0	0	0	0	0	0	0	0	0	0	0	0	0	0	0	0	0	0	0	0	0	0	0	0	0	0	0	0	0	0	0	0	0	0	0	0	0	0	0	0	0	0	0	0	0	0	0	0	0	0	0	0	0	0	0	0	0	0	0	0	0	0	0	0	0	0	0	0	0	0	0	0	0	0	0	0	0
0	0	0	0	0	0	0	0	0	0	0	0	0	0	0	0	0	0	0	0	0	0	0	0	0	0	0	0	0	0	0	0	0	0	0	0	0	0	0	0	0	0	0	0	0	0	0	0	0	0	0	0	0	0	0	0	0	0	0	0	0	0	0	0	0	0	0	0	0	0	0	0	0	0	0	0	0	0	0	0	0	0	0	0	0	0	0	0	0	0	0	0	0	0	0	0	0	0	0	0	0	0	0	0	0	0	0	0	0	0	0	0	0	0	0	0	0	0	0	0	0	0	0	0	0	0	0	0	0	0	0	0	0	0	0	0	0	0	0	0	0	0	0	0	0	0	0	0	0	0	0	0	0	0	0	0	0	0	0	0	0	2696	2696	2766	2824	2802	2789	2784	2779	2791	2855	2854	2851	2836	2801	2794	2805	2829	2836	2827	2813	2784	2771	2751	2746	2768	2789	2804	2804	2806	2812	2820	2818	2789	2782	2786	2813	2829	2856	2847	2846	2832	2837	2841	2845	2876	2875	2874	2855	2853	2844	2851	2866	2865	2845	2825	2821	2809	2818	2809	2813	2813	2807	2812	2820	2827	2842	2851	2849	2840	2833	2833	2821	2821	2826	2844	2869	2895	2895	2866	2835	2806	2792	2788	2802	2839	2844	2827	2822	2822	2816	2828	2829	2818	2811	2808	2803	2823	2838	2854	2864	2856	2825	2806	2800	2778	2770	2760	2760	2812	2834	2859	2898	2824	2846	2868	2882	2873	2873	2875	2859	2877	2873	2899	2872	2860	2858	2866	2886	2915	2927	2902	2887	2895	2886	2875	2898	2898	2885	2883	2873	2891	2890	2885	2894	2888	2908	2888	2901	2883	2909	2934	2902	2901	2911	2917	2924	2925	2914	2903	2907	2911	2925	2927	2938	2951	2945	2936	2929	2926	2921	2915	2895	2881	2894	2882	2877	2890	2902	2905	2890	2884	2885	2883	2876	2856	2891	2899	2910	2915	2910	2915	2910	2893	2837	2828	2846	2865	2885	2888	2888	2886	2894	2903	2880	2871	2856	2849	2834	2845	2858	2839	2817	2799	2820	2849	2864	2846	2833	2840	2824	2824	2819	2830	2827	2811	2785	2728	2752	2780	2822	2861	2839	2814	2809	2815	2822	2806	2806	2794	2794	2794	2821	2833	2840	2837	2841	2845	2874	2875	2873	2833	2811	2816	2793	2789	2800	2814	2840	2870	2876	2882	2879	2863	2877	2874	2878	2867	2858	2850	2852	2855	2858	2863	2859	2852	2837	2835	2845	2872	2905	2891	2867	2847	2847	2846	2850	2857	2857	2848	2833	2847	2861	2885	2870	2883	2878	2889	2883	2867	2876	2881	2852	2809	2730	2680	2647	2558	0	0	0	0	0	0	0	0	0	0	0	0	0	0	0	0	0	0	0	0	0	0	0	0	0	0	0	0	0	0	0	0	0	0	0	0	0	0	0	0	0	0	0	0	0	0	0	0	0	0	0	0	0	0	0	0	0	0	0	0	0	0	0	0	0	0	0	0	0	0	0	0	0	0	0	0	0	0	0	0	0	0	0	0	0	0	0	0	0	0	0	0	0	0	0	0	0	0	0	0	0	0	0	0	0	0	0	0	0	0	0	0	0	0	0	0	0	0	0	0	0	0	0	0	0	0	0	0	0	0	0	0	0	0	0	0	0	0	0	0	0	0	0	0	0	0	0	0	0	0	0	0	0	0	0	0	0	0	0	0	0	0	0	0	0	0	0	0	0	0	0	0
0	0	0	0	0	0	0	0	0	0	0	0	0	0	0	0	0	0	0	0	0	0	0	0	0	0	0	0	0	0	0	0	0	0	0	0	0	0	0	0	0	0	0	0	0	0	0	0	0	0	0	0	0	0	0	0	0	0	0	0	0	0	0	0	0	0	0	0	0	0	0	0	0	0	0	0	0	0	0	0	0	0	0	0	0	0	0	0	0	0	0	0	0	0	0	0	0	0	0	0	0	0	0	0	0	0	0	0	0	0	0	0	0	0	0	0	0	0	0	0	0	0	0	0	0	0	0	0	0	0	0	0	0	0	0	0	0	0	0	0	0	0	0	0	0	0	0	0	0	0	0	0	0	0	0	0	0	0	0	0	0	2680	2680	2769	2783	2811	2785	2791	2771	2804	2826	2859	2853	2825	2800	2800	2819	2842	2843	2842	2818	2815	2794	2764	2754	2751	2775	2804	2804	2809	2798	2789	2784	2766	2767	2774	2812	2827	2840	2847	2818	2810	2831	2843	2880	2892	2884	2879	2858	2835	2822	2829	2854	2846	2824	2813	2804	2807	2800	2798	2811	2824	2831	2822	2814	2814	2819	2826	2825	2819	2808	2808	2791	2783	2807	2828	2845	2854	2844	2832	2822	2801	2789	2798	2822	2824	2824	2832	2850	2832	2830	2827	2832	2825	2816	2810	2812	2841	2847	2868	2865	2848	2822	2822	2798	2787	2769	2758	2773	2797	2822	2859	2826	2813	2817	2859	2863	2862	2848	2842	2855	2870	2891	2891	2888	2865	2858	2867	2873	2885	2895	2873	2854	2850	2856	2880	2905	2912	2902	2898	2897	2894	2913	2901	2883	2895	2915	2918	2917	2899	2887	2921	2902	2903	2894	2899	2921	2916	2917	2902	2894	2901	2917	2924	2933	2937	2933	2917	2919	2914	2894	2897	2895	2890	2887	2878	2862	2870	2888	2913	2909	2903	2902	2902	2885	2868	2869	2894	2898	2891	2892	2895	2878	2860	2834	2841	2833	2848	2865	2892	2877	2875	2883	2876	2861	2864	2861	2860	2848	2819	2810	2790	2782	2778	2808	2840	2871	2851	2844	2847	2843	2829	2826	2834	2823	2807	2766	2749	2759	2781	2824	2850	2819	2818	2815	2816	2806	2789	2770	2763	2771	2771	2785	2817	2829	2837	2833	2846	2862	2865	2864	2855	2825	2829	2814	2818	2824	2839	2874	2898	2905	2897	2889	2868	2854	2846	2838	2830	2826	2829	2836	2843	2851	2855	2863	2862	2848	2836	2842	2858	2881	2881	2867	2847	2863	2851	2844	2843	2859	2864	2895	2902	2914	2901	2888	2864	2877	2883	2890	2887	2898	2899	2898	2829	2754	2715	2658	0	0	0	0	0	0	0	0	0	0	0	0	0	0	0	0	0	0	0	0	0	0	0	0	0	0	0	0	0	0	0	0	0	0	0	0	0	0	0	0	0	0	0	0	0	0	0	0	0	0	0	0	0	0	0	0	0	0	0	0	0	0	0	0	0	0	0	0	0	0	0	0	0	0	0	0	0	0	0	0	0	0	0	0	0	0	0	0	0	0	0	0	0	0	0	0	0	0	0	0	0	0	0	0	0	0	0	0	0	0	0	0	0	0	0	0	0	0	0	0	0	0	0	0	0	0	0	0	0	0	0	0	0	0	0	0	0	0	0	0	0	0	0	0	0	0	0	0	0	0	0	0	0	0	0	0	0	0	0	0	0	0	0	0	0	0	0	0	0	0	0	0	0
0	0	0	0	0	0	0	0	0	0	0	0	0	0	0	0	0	0	0	0	0	0	0	0	0	0	0	0	0	0	0	0	0	0	0	0	0	0	0	0	0	0	0	0	0	0	0	0	0	0	0	0	0	0	0	0	0	0	0	0	0	0	0	0	0	0	0	0	0	0	0	0	0	0	0	0	0	0	0	0	0	0	0	0	0	0	0	0	0	0	0	0	0	0	0	0	0	0	0	0	0	0	0	0	0	0	0	0	0	0	0	0	0	0	0	0	0	0	0	0	0	0	0	0	0	0	0	0	0	0	0	0	0	0	0	0	0	0	0	0	0	0	0	0	0	0	0	0	0	0	0	0	0	0	0	0	0	0	0	0	0	2687	2687	2767	2760	2786	2789	2779	2790	2806	2829	2850	2860	2837	2810	2802	2815	2836	2850	2839	2841	2828	2813	2797	2765	2751	2775	2775	2793	2804	2797	2759	2747	2756	2759	2796	2832	2847	2853	2830	2818	2828	2836	2856	2867	2876	2874	2874	2864	2833	2806	2801	2810	2816	2806	2804	2791	2772	2768	2771	2807	2829	2843	2829	2805	2795	2803	2810	2806	2791	2791	2769	2756	2763	2812	2827	2829	2819	2819	2823	2814	2796	2787	2787	2802	2802	2800	2826	2834	2840	2846	2833	2843	2839	2822	2815	2810	2823	2844	2855	2837	2833	2831	2844	2827	2811	2788	2775	2771	2794	2823	2832	2848	2870	2863	2874	2864	2863	2846	2851	2862	2874	2879	2883	2886	2877	2866	2846	2856	2869	2866	2854	2847	2852	2875	2907	2924	2924	2938	2920	2902	2886	2901	2900	2902	2900	2929	2937	2928	2920	2911	2869	2876	2864	2879	2896	2905	2917	2919	2912	2891	2891	2894	2921	2922	2912	2893	2897	2903	2895	2900	2911	2911	2918	2907	2896	2867	2867	2885	2892	2906	2907	2900	2911	2919	2903	2883	2897	2897	2891	2886	2885	2858	2846	2812	2837	2816	2813	2824	2846	2868	2852	2849	2842	2861	2875	2880	2874	2861	2823	2803	2784	2763	2765	2806	2838	2852	2858	2859	2869	2875	2861	2858	2843	2832	2810	2773	2757	2778	2803	2833	2838	2816	2808	2817	2826	2798	2779	2760	2752	2760	2760	2780	2801	2823	2828	2828	2835	2823	2831	2843	2855	2859	2858	2844	2837	2836	2867	2897	2927	2924	2891	2891	2870	2850	2833	2810	2810	2815	2824	2840	2850	2865	2862	2859	2858	2841	2827	2827	2845	2852	2873	2870	2863	2863	2851	2839	2831	2852	2868	2910	2923	2925	2911	2893	2861	2863	2877	2878	2884	2896	2916	2932	2855	2772	2747	2691	0	0	0	0	0	0	0	0	0	0	0	0	0	0	0	0	0	0	0	0	0	0	0	0	0	0	0	0	0	0	0	0	0	0	0	0	0	0	0	0	0	0	0	0	0	0	0	0	0	0	0	0	0	0	0	0	0	0	0	0	0	0	0	0	0	0	0	0	0	0	0	0	0	0	0	0	0	0	0	0	0	0	0	0	0	0	0	0	0	0	0	0	0	0	0	0	0	0	0	0	0	0	0	0	0	0	0	0	0	0	0	0	0	0	0	0	0	0	0	0	0	0	0	0	0	0	0	0	0	0	0	0	0	0	0	0	0	0	0	0	0	0	0	0	0	0	0	0	0	0	0	0	0	0	0	0	0	0	0	0	0	0	0	0	0	0	0	0	0	0	0	0	0
0	0	0	0	0	0	0	0	0	0	0	0	0	0	0	0	0	0	0	0	0	0	0	0	0	0	0	0	0	0	0	0	0	0	0	0	0	0	0	0	0	0	0	0	0	0	0	0	0	0	0	0	0	0	0	0	0	0	0	0	0	0	0	0	0	0	0	0	0	0	0	0	0	0	0	0	0	0	0	0	0	0	0	0	0	0	0	0	0	0	0	0	0	0	0	0	0	0	0	0	0	0	0	0	0	0	0	0	0	0	0	0	0	0	0	0	0	0	0	0	0	0	0	0	0	0	0	0	0	0	0	0	0	0	0	0	0	0	0	0	0	0	0	0	0	0	0	0	0	0	0	0	0	0	0	0	0	0	0	0	0	0	2678	2747	2778	2791	2801	2812	2816	2819	2832	2841	2850	2839	2803	2760	2789	2805	2833	2824	2807	2801	2785	2797	2765	2731	2743	2743	2770	2778	2775	2753	2748	2749	2764	2790	2818	2835	2838	2836	2793	2796	2813	2833	2851	2853	2856	2861	2861	2827	2796	2779	2771	2787	2779	2775	2781	2773	2766	2778	2801	2832	2843	2838	2806	2781	2777	2787	2786	2768	2768	2751	2750	2768	2798	2822	2818	2810	2806	2810	2795	2778	2776	2789	2795	2772	2774	2793	2828	2845	2862	2846	2850	2848	2818	2783	2799	2807	2823	2838	2818	2802	2850	2838	2832	2822	2802	2793	2786	2784	2811	2835	2886	2899	2902	2883	2870	2867	2863	2884	2887	2876	2881	2864	2871	2878	2847	2842	2853	2871	2866	2857	2855	2876	2893	2908	2928	2943	2925	2902	2870	2866	2870	2898	2903	2906	2917	2928	2922	2920	2902	2875	2841	2829	2858	2884	2905	2925	2929	2906	2895	2892	2895	2899	2904	2900	2883	2878	2891	2896	2906	2918	2916	2927	2927	2915	2909	2894	2903	2902	2905	2915	2912	2922	2929	2924	2919	2911	2908	2898	2892	2889	2896	2854	2824	2838	2807	2795	2794	2807	2843	2847	2846	2841	2856	2880	2887	2884	2870	2842	2825	2783	2775	2781	2812	2840	2863	2870	2870	2869	2879	2877	2867	2846	2823	2808	2797	2797	2803	2821	2829	2827	2816	2799	2815	2816	2806	2793	2776	2766	2767	2782	2782	2805	2833	2828	2829	2802	2790	2799	2822	2846	2858	2868	2850	2837	2837	2854	2896	2923	2900	2882	2892	2883	2862	2841	2841	2835	2847	2848	2868	2880	2884	2875	2862	2844	2838	2827	2831	2840	2845	2862	2871	2867	2867	2850	2839	2831	2817	2845	2882	2908	2923	2908	2889	2871	2858	2853	2863	2858	2888	2919	2936	2870	2769	2747	2726	0	0	0	0	0	0	0	0	0	0	0	0	0	0	0	0	0	0	0	0	0	0	0	0	0	0	0	0	0	0	0	0	0	0	0	0	0	0	0	0	0	0	0	0	0	0	0	0	0	0	0	0	0	0	0	0	0	0	0	0	0	0	0	0	0	0	0	0	0	0	0	0	0	0	0	0	0	0	0	0	0	0	0	0	0	0	0	0	0	0	0	0	0	0	0	0	0	0	0	0	0	0	0	0	0	0	0	0	0	0	0	0	0	0	0	0	0	0	0	0	0	0	0	0	0	0	0	0	0	0	0	0	0	0	0	0	0	0	0	0	0	0	0	0	0	0	0	0	0	0	0	0	0	0	0	0	0	0	0	0	0	0	0	0	0	0	0	0	0	0	0	0	0
0	0	0	0	0	0	0	0	0	0	0	0	0	0	0	0	0	0	0	0	0	0	0	0	0	0	0	0	0	0	0	0	0	0	0	0	0	0	0	0	0	0	0	0	0	0	0	0	0	0	0	0	0	0	0	0	0	0	0	0	0	0	0	0	0	0	0	0	0	0	0	0	0	0	0	0	0	0	0	0	0	0	0	0	0	0	0	0	0	0	0	0	0	0	0	0	0	0	0	0	0	0	0	0	0	0	0	0	0	0	0	0	0	0	0	0	0	0	0	0	0	0	0	0	0	0	0	0	0	0	0	0	0	0	0	0	0	0	0	0	0	0	0	0	0	0	0	0	0	0	0	0	0	0	0	0	0	0	0	0	0	0	2668	2742	2789	2810	2821	2831	2829	2819	2819	2817	2826	2799	2771	2765	2781	2791	2810	2790	2764	2801	2785	2780	2772	2762	2761	2761	2747	2756	2759	2757	2753	2767	2779	2790	2794	2820	2823	2796	2765	2756	2770	2807	2838	2844	2846	2849	2840	2813	2786	2762	2754	2746	2763	2769	2785	2810	2809	2809	2818	2846	2859	2840	2815	2809	2794	2786	2777	2769	2769	2760	2754	2771	2802	2816	2806	2792	2782	2794	2787	2774	2772	2769	2769	2765	2751	2768	2804	2836	2845	2844	2845	2832	2782	2769	2788	2803	2824	2831	2808	2801	2831	2836	2854	2831	2804	2782	2769	2787	2791	2870	2910	2909	2886	2874	2856	2868	2881	2901	2912	2896	2864	2841	2842	2854	2843	2849	2872	2872	2865	2862	2867	2881	2888	2908	2921	2909	2895	2883	2882	2870	2876	2900	2905	2899	2890	2868	2847	2860	2905	2881	2827	2819	2850	2883	2908	2932	2927	2917	2904	2894	2891	2892	2888	2892	2891	2890	2887	2913	2924	2933	2929	2931	2936	2926	2921	2921	2921	2906	2909	2916	2922	2936	2931	2938	2930	2931	2916	2910	2903	2905	2897	2872	2818	2846	2816	2785	2792	2799	2834	2847	2855	2852	2855	2875	2890	2880	2865	2847	2821	2798	2790	2797	2818	2847	2864	2858	2861	2864	2868	2862	2864	2853	2833	2832	2826	2836	2826	2819	2812	2814	2813	2808	2811	2825	2828	2816	2809	2781	2786	2795	2795	2827	2845	2828	2802	2775	2759	2778	2814	2837	2845	2841	2829	2821	2826	2847	2878	2894	2860	2848	2876	2873	2866	2843	2839	2866	2884	2886	2883	2892	2885	2866	2849	2846	2847	2834	2828	2839	2840	2856	2873	2861	2852	2852	2829	2810	2817	2845	2850	2901	2912	2899	2880	2866	2848	2849	2838	2851	2874	2906	2931	2873	2739	2742	2756	2774	0	0	0	0	0	0	0	0	0	0	0	0	0	0	0	0	0	0	0	0	0	0	0	0	0	0	0	0	0	0	0	0	0	0	0	0	0	0	0	0	0	0	0	0	0	0	0	0	0	0	0	0	0	0	0	0	0	0	0	0	0	0	0	0	0	0	0	0	0	0	0	0	0	0	0	0	0	0	0	0	0	0	0	0	0	0	0	0	0	0	0	0	0	0	0	0	0	0	0	0	0	0	0	0	0	0	0	0	0	0	0	0	0	0	0	0	0	0	0	0	0	0	0	0	0	0	0	0	0	0	0	0	0	0	0	0	0	0	0	0	0	0	0	0	0	0	0	0	0	0	0	0	0	0	0	0	0	0	0	0	0	0	0	0	0	0	0	0	0	0	0	0
0	0	0	0	0	0	0	0	0	0	0	0	0	0	0	0	0	0	0	0	0	0	0	0	0	0	0	0	0	0	0	0	0	0	0	0	0	0	0	0	0	0	0	0	0	0	0	0	0	0	0	0	0	0	0	0	0	0	0	0	0	0	0	0	0	0	0	0	0	0	0	0	0	0	0	0	0	0	0	0	0	0	0	0	0	0	0	0	0	0	0	0	0	0	0	0	0	0	0	0	0	0	0	0	0	0	0	0	0	0	0	0	0	0	0	0	0	0	0	0	0	0	0	0	0	0	0	0	0	0	0	0	0	0	0	0	0	0	0	0	0	0	0	0	0	0	0	0	0	0	0	0	0	0	0	0	0	0	0	0	0	0	2627	2725	2805	2819	2833	2833	2825	2799	2771	2769	2792	2788	2787	2791	2801	2808	2800	2790	2764	2759	2771	2774	2769	2772	2783	2783	2767	2757	2756	2765	2776	2777	2789	2796	2782	2796	2792	2768	2749	2736	2750	2790	2834	2853	2860	2849	2830	2804	2782	2770	2754	2746	2761	2769	2788	2809	2818	2813	2823	2848	2864	2849	2844	2824	2813	2815	2796	2796	2779	2775	2777	2792	2811	2803	2787	2753	2749	2772	2782	2776	2770	2787	2770	2753	2743	2749	2780	2807	2820	2824	2836	2803	2783	2769	2797	2814	2820	2804	2804	2818	2814	2836	2831	2834	2807	2778	2771	2777	2804	2888	2934	2929	2873	2856	2846	2867	2888	2910	2916	2905	2867	2839	2833	2847	2868	2865	2871	2871	2867	2857	2863	2885	2896	2903	2906	2902	2891	2887	2884	2880	2871	2883	2905	2906	2886	2863	2847	2852	2881	2890	2830	2828	2799	2896	2913	2926	2910	2894	2904	2921	2925	2917	2899	2905	2906	2903	2883	2889	2925	2929	2927	2928	2928	2923	2924	2926	2914	2909	2906	2918	2914	2941	2937	2922	2904	2919	2923	2914	2908	2908	2896	2859	2844	2850	2812	2801	2799	2815	2827	2848	2852	2858	2863	2878	2884	2868	2856	2840	2825	2809	2799	2805	2826	2858	2863	2853	2851	2833	2830	2842	2852	2856	2840	2827	2835	2855	2839	2819	2813	2807	2808	2809	2815	2839	2848	2840	2833	2809	2794	2814	2814	2837	2839	2833	2795	2768	2755	2786	2800	2815	2816	2816	2814	2800	2818	2849	2855	2842	2822	2812	2820	2865	2862	2849	2838	2861	2871	2866	2859	2857	2839	2859	2845	2859	2867	2851	2830	2824	2832	2834	2858	2841	2844	2844	2824	2800	2803	2817	2850	2901	2905	2897	2874	2858	2833	2834	2831	2848	2835	2839	2897	2843	2704	2712	2733	2792	0	0	0	0	0	0	0	0	0	0	0	0	0	0	0	0	0	0	0	0	0	0	0	0	0	0	0	0	0	0	0	0	0	0	0	0	0	0	0	0	0	0	0	0	0	0	0	0	0	0	0	0	0	0	0	0	0	0	0	0	0	0	0	0	0	0	0	0	0	0	0	0	0	0	0	0	0	0	0	0	0	0	0	0	0	0	0	0	0	0	0	0	0	0	0	0	0	0	0	0	0	0	0	0	0	0	0	0	0	0	0	0	0	0	0	0	0	0	0	0	0	0	0	0	0	0	0	0	0	0	0	0	0	0	0	0	0	0	0	0	0	0	0	0	0	0	0	0	0	0	0	0	0	0	0	0	0	0	0	0	0	0	0	0	0	0	0	0	0	0	0	0
0	0	0	0	0	0	0	0	0	0	0	0	0	0	0	0	0	0	0	0	0	0	0	0	0	0	0	0	0	0	0	0	0	0	0	0	0	0	0	0	0	0	0	0	0	0	0	0	0	0	0	0	0	0	0	0	0	0	0	0	0	0	0	0	0	0	0	0	0	0	0	0	0	0	0	0	0	0	0	0	0	0	0	0	0	0	0	0	0	0	0	0	0	0	0	0	0	0	0	0	0	0	0	0	0	0	0	0	0	0	0	0	0	0	0	0	0	0	0	0	0	0	0	0	0	0	0	0	0	0	0	0	0	0	0	0	0	0	0	0	0	0	0	0	0	0	0	0	0	0	0	0	0	0	0	0	0	0	0	0	0	0	2593	2723	2821	2840	2842	2837	2814	2773	2740	2730	2750	2763	2774	2779	2785	2808	2800	2781	2758	2745	2745	2749	2758	2769	2778	2778	2772	2756	2771	2770	2785	2800	2806	2815	2791	2784	2766	2755	2733	2717	2737	2784	2823	2849	2854	2849	2823	2811	2786	2794	2802	2778	2765	2761	2780	2782	2788	2777	2787	2808	2846	2847	2825	2827	2814	2804	2810	2810	2801	2798	2794	2806	2807	2801	2776	2744	2736	2766	2785	2786	2787	2784	2769	2748	2746	2760	2790	2815	2817	2815	2815	2789	2781	2790	2805	2814	2822	2803	2805	2795	2804	2818	2830	2842	2815	2785	2775	2781	2787	2879	2901	2897	2907	2858	2843	2858	2876	2900	2912	2893	2880	2846	2789	2828	2855	2865	2869	2862	2851	2835	2846	2888	2890	2901	2891	2897	2900	2912	2911	2893	2883	2904	2915	2917	2891	2884	2888	2882	2878	2872	2844	2847	2828	2899	2916	2936	2924	2878	2890	2904	2943	2947	2917	2915	2925	2914	2900	2911	2917	2925	2913	2907	2902	2893	2887	2911	2903	2896	2907	2918	2920	2924	2917	2898	2893	2898	2927	2905	2918	2904	2895	2880	2891	2871	2825	2815	2816	2826	2842	2847	2859	2853	2856	2865	2870	2861	2842	2837	2834	2821	2808	2808	2839	2856	2846	2838	2839	2819	2816	2841	2851	2846	2828	2819	2833	2844	2851	2826	2810	2813	2823	2820	2826	2840	2853	2861	2853	2832	2820	2825	2825	2840	2840	2833	2813	2807	2809	2786	2786	2782	2802	2812	2788	2811	2851	2879	2870	2845	2822	2820	2807	2816	2828	2837	2845	2851	2854	2876	2879	2858	2848	2834	2841	2869	2881	2855	2803	2799	2815	2823	2836	2846	2835	2835	2843	2814	2811	2830	2862	2897	2905	2897	2874	2819	2817	2824	2821	2836	2826	2824	2849	2817	2671	2667	2684	0	0	0	0	0	0	0	0	0	0	0	0	0	0	0	0	0	0	0	0	0	0	0	0	0	0	0	0	0	0	0	0	0	0	0	0	0	0	0	0	0	0	0	0	0	0	0	0	0	0	0	0	0	0	0	0	0	0	0	0	0	0	0	0	0	0	0	0	0	0	0	0	0	0	0	0	0	0	0	0	0	0	0	0	0	0	0	0	0	0	0	0	0	0	0	0	0	0	0	0	0	0	0	0	0	0	0	0	0	0	0	0	0	0	0	0	0	0	0	0	0	0	0	0	0	0	0	0	0	0	0	0	0	0	0	0	0	0	0	0	0	0	0	0	0	0	0	0	0	0	0	0	0	0	0	0	0	0	0	0	0	0	0	0	0	0	0	0	0	0	0	0	0
0	0	0	0	0	0	0	0	0	0	0	0	0	0	0	0	0	0	0	0	0	0	0	0	0	0	0	0	0	0	0	0	0	0	0	0	0	0	0	0	0	0	0	0	0	0	0	0	0	0	0	0	0	0	0	0	0	0	0	0	0	0	0	0	0	0	0	0	0	0	0	0	0	0	0	0	0	0	0	0	0	0	0	0	0	0	0	0	0	0	0	0	0	0	0	0	0	0	0	0	0	0	0	0	0	0	0	0	0	0	0	0	0	0	0	0	0	0	0	0	0	0	0	0	0	0	0	0	0	0	0	0	0	0	0	0	0	0	0	0	0	0	0	0	0	0	0	0	0	0	0	0	0	0	0	0	0	0	0	0	0	0	2544	2714	2806	2829	2834	2832	2804	2779	2738	2727	2721	2732	2774	2779	2785	2796	2803	2794	2771	2733	2729	2735	2740	2765	2765	2777	2778	2772	2772	2770	2779	2790	2807	2814	2793	2777	2754	2751	2742	2735	2732	2759	2792	2807	2821	2806	2796	2784	2798	2814	2812	2792	2772	2756	2768	2775	2776	2775	2777	2780	2806	2827	2823	2819	2794	2783	2784	2784	2797	2801	2807	2806	2786	2807	2784	2752	2744	2770	2783	2791	2809	2807	2792	2774	2774	2801	2814	2817	2795	2795	2795	2807	2803	2805	2811	2820	2820	2816	2800	2780	2766	2771	2824	2823	2820	2798	2768	2782	2814	2873	2894	2885	2908	2854	2857	2864	2876	2886	2876	2871	2874	2850	2814	2812	2857	2871	2864	2853	2839	2843	2853	2911	2901	2899	2892	2886	2880	2915	2911	2914	2903	2907	2924	2901	2895	2886	2893	2887	2881	2876	2871	2866	2867	2892	2925	2920	2897	2897	2886	2907	2930	2958	2946	2944	2950	2931	2918	2935	2920	2917	2899	2881	2866	2887	2887	2896	2899	2909	2918	2928	2925	2922	2906	2889	2877	2881	2934	2919	2935	2922	2908	2908	2912	2891	2846	2831	2837	2835	2841	2844	2848	2836	2834	2852	2851	2850	2836	2834	2833	2825	2812	2806	2812	2821	2834	2832	2831	2846	2858	2853	2855	2846	2821	2812	2835	2864	2863	2854	2838	2836	2839	2822	2828	2819	2857	2854	2859	2866	2859	2856	2843	2843	2838	2834	2828	2832	2828	2821	2808	2800	2826	2829	2823	2837	2869	2872	2880	2866	2853	2834	2831	2859	2847	2851	2830	2829	2855	2874	2889	2880	2839	2824	2828	2861	2875	2833	2786	2772	2787	2811	2843	2854	2864	2864	2861	2837	2814	2845	2885	2915	2922	2903	2868	2819	2817	2835	2828	2836	2823	2808	2822	2791	2639	2635	2655	0	0	0	0	0	0	0	0	0	0	0	0	0	0	0	0	0	0	0	0	0	0	0	0	0	0	0	0	0	0	0	0	0	0	0	0	0	0	0	0	0	0	0	0	0	0	0	0	0	0	0	0	0	0	0	0	0	0	0	0	0	0	0	0	0	0	0	0	0	0	0	0	0	0	0	0	0	0	0	0	0	0	0	0	0	0	0	0	0	0	0	0	0	0	0	0	0	0	0	0	0	0	0	0	0	0	0	0	0	0	0	0	0	0	0	0	0	0	0	0	0	0	0	0	0	0	0	0	0	0	0	0	0	0	0	0	0	0	0	0	0	0	0	0	0	0	0	0	0	0	0	0	0	0	0	0	0	0	0	0	0	0	0	0	0	0	0	0	0	0	0	0	0
0	0	0	0	0	0	0	0	0	0	0	0	0	0	0	0	0	0	0	0	0	0	0	0	0	0	0	0	0	0	0	0	0	0	0	0	0	0	0	0	0	0	0	0	0	0	0	0	0	0	0	0	0	0	0	0	0	0	0	0	0	0	0	0	0	0	0	0	0	0	0	0	0	0	0	0	0	0	0	0	0	0	0	0	0	0	0	0	0	0	0	0	0	0	0	0	0	0	0	0	0	0	0	0	0	0	0	0	0	0	0	0	0	0	0	0	0	0	0	0	0	0	0	0	0	0	0	0	0	0	0	0	0	0	0	0	0	0	0	0	0	0	0	0	0	0	0	0	0	0	0	0	0	0	0	0	0	0	0	0	0	0	2524	2710	2795	2815	2826	2825	2803	2788	2758	2743	2721	2732	2741	2749	2768	2781	2802	2816	2787	2746	2724	2729	2764	2787	2787	2788	2787	2776	2772	2750	2753	2771	2789	2808	2799	2774	2757	2754	2753	2766	2754	2748	2734	2746	2752	2766	2765	2765	2769	2814	2802	2789	2764	2757	2759	2759	2768	2747	2745	2752	2785	2804	2803	2783	2761	2760	2777	2777	2785	2790	2798	2794	2777	2779	2770	2761	2753	2772	2792	2804	2813	2832	2818	2812	2809	2820	2826	2806	2795	2796	2804	2809	2820	2810	2825	2823	2819	2825	2806	2785	2773	2786	2807	2821	2820	2799	2774	2806	2809	2859	2863	2881	2859	2848	2861	2871	2854	2846	2839	2841	2843	2849	2847	2856	2863	2875	2867	2854	2853	2861	2877	2918	2898	2874	2873	2876	2892	2903	2918	2905	2897	2913	2897	2879	2887	2890	2884	2873	2870	2883	2856	2860	2861	2920	2935	2931	2917	2890	2885	2908	2934	2934	2940	2935	2930	2946	2944	2917	2890	2902	2891	2903	2912	2898	2892	2892	2912	2920	2917	2921	2931	2924	2906	2876	2865	2863	2919	2922	2912	2921	2914	2917	2916	2923	2892	2872	2866	2853	2847	2822	2820	2818	2820	2835	2841	2834	2822	2821	2821	2823	2807	2791	2796	2817	2811	2823	2821	2856	2866	2872	2864	2845	2814	2819	2836	2859	2873	2883	2877	2866	2843	2823	2802	2805	2845	2850	2854	2864	2859	2863	2849	2849	2849	2853	2851	2834	2845	2831	2832	2839	2858	2877	2876	2867	2854	2856	2861	2871	2863	2880	2891	2907	2885	2843	2806	2796	2824	2865	2886	2867	2853	2838	2851	2868	2865	2811	2789	2788	2791	2816	2829	2856	2880	2880	2863	2841	2844	2870	2907	2926	2932	2906	2860	2808	2811	2835	2828	2828	2809	2799	2805	2769	2640	2614	2623	2668	0	0	0	0	0	0	0	0	0	0	0	0	0	0	0	0	0	0	0	0	0	0	0	0	0	0	0	0	0	0	0	0	0	0	0	0	0	0	0	0	0	0	0	0	0	0	0	0	0	0	0	0	0	0	0	0	0	0	0	0	0	0	0	0	0	0	0	0	0	0	0	0	0	0	0	0	0	0	0	0	0	0	0	0	0	0	0	0	0	0	0	0	0	0	0	0	0	0	0	0	0	0	0	0	0	0	0	0	0	0	0	0	0	0	0	0	0	0	0	0	0	0	0	0	0	0	0	0	0	0	0	0	0	0	0	0	0	0	0	0	0	0	0	0	0	0	0	0	0	0	0	0	0	0	0	0	0	0	0	0	0	0	0	0	0	0	0	0	0	0	0	0
0	0	0	0	0	0	0	0	0	0	0	0	0	0	0	0	0	0	0	0	0	0	0	0	0	0	0	0	0	0	0	0	0	0	0	0	0	0	0	0	0	0	0	0	0	0	0	0	0	0	0	0	0	0	0	0	0	0	0	0	0	0	0	0	0	0	0	0	0	0	0	0	0	0	0	0	0	0	0	0	0	0	0	0	0	0	0	0	0	0	0	0	0	0	0	0	0	0	0	0	0	0	0	0	0	0	0	0	0	0	0	0	0	0	0	0	0	0	0	0	0	0	0	0	0	0	0	0	0	0	0	0	0	0	0	0	0	0	0	0	0	0	0	0	0	0	0	0	0	0	0	0	0	0	0	0	0	0	0	0	0	0	2515	2688	2779	2803	2806	2805	2811	2788	2758	2743	2744	2740	2739	2742	2753	2773	2800	2803	2785	2752	2738	2760	2787	2800	2800	2793	2795	2773	2756	2741	2730	2736	2755	2795	2803	2779	2747	2753	2767	2771	2772	2749	2715	2709	2708	2716	2735	2757	2792	2798	2810	2782	2764	2762	2774	2776	2765	2764	2746	2753	2760	2777	2778	2766	2742	2751	2751	2758	2767	2754	2769	2786	2786	2761	2754	2769	2782	2786	2792	2802	2818	2836	2832	2833	2824	2824	2826	2826	2824	2824	2814	2813	2819	2819	2824	2828	2827	2840	2823	2804	2798	2798	2824	2820	2817	2795	2810	2813	2814	2832	2851	2849	2835	2847	2864	2853	2846	2787	2779	2811	2820	2840	2833	2832	2855	2866	2854	2868	2868	2877	2901	2910	2903	2874	2889	2895	2901	2900	2901	2895	2887	2880	2871	2873	2907	2881	2872	2866	2869	2867	2832	2830	2850	2923	2933	2920	2898	2896	2898	2914	2908	2930	2934	2931	2927	2917	2915	2909	2909	2908	2891	2907	2920	2922	2880	2888	2908	2917	2918	2925	2935	2927	2911	2880	2871	2885	2899	2904	2905	2918	2908	2912	2928	2920	2914	2901	2870	2851	2830	2798	2796	2807	2817	2840	2826	2824	2810	2804	2810	2811	2794	2781	2781	2800	2822	2814	2813	2817	2837	2855	2846	2832	2819	2812	2826	2840	2870	2885	2889	2884	2865	2823	2780	2798	2821	2827	2830	2843	2844	2838	2832	2832	2849	2856	2858	2857	2850	2838	2838	2851	2878	2895	2878	2851	2818	2820	2833	2863	2877	2884	2879	2890	2876	2849	2798	2785	2798	2806	2829	2850	2852	2844	2849	2852	2824	2808	2801	2799	2805	2814	2830	2839	2855	2834	2834	2836	2857	2874	2903	2919	2911	2882	2846	2821	2826	2841	2827	2828	2809	2799	2746	2708	2625	2584	2580	2602	0	0	0	0	0	0	0	0	0	0	0	0	0	0	0	0	0	0	0	0	0	0	0	0	0	0	0	0	0	0	0	0	0	0	0	0	0	0	0	0	0	0	0	0	0	0	0	0	0	0	0	0	0	0	0	0	0	0	0	0	0	0	0	0	0	0	0	0	0	0	0	0	0	0	0	0	0	0	0	0	0	0	0	0	0	0	0	0	0	0	0	0	0	0	0	0	0	0	0	0	0	0	0	0	0	0	0	0	0	0	0	0	0	0	0	0	0	0	0	0	0	0	0	0	0	0	0	0	0	0	0	0	0	0	0	0	0	0	0	0	0	0	0	0	0	0	0	0	0	0	0	0	0	0	0	0	0	0	0	0	0	0	0	0	0	0	0	0	0	0	0	0
0	0	0	0	0	0	0	0	0	0	0	0	0	0	0	0	0	0	0	0	0	0	0	0	0	0	0	0	0	0	0	0	0	0	0	0	0	0	0	0	0	0	0	0	0	0	0	0	0	0	0	0	0	0	0	0	0	0	0	0	0	0	0	0	0	0	0	0	0	0	0	0	0	0	0	0	0	0	0	0	0	0	0	0	0	0	0	0	0	0	0	0	0	0	0	0	0	0	0	0	0	0	0	0	0	0	0	0	0	0	0	0	0	0	0	0	0	0	0	0	0	0	0	0	0	0	0	0	0	0	0	0	0	0	0	0	0	0	0	0	0	0	0	0	0	0	0	0	0	0	0	0	0	0	0	0	0	0	0	0	0	0	2547	2678	2771	2783	2792	2805	2811	2802	2794	2792	2783	2765	2753	2772	2766	2778	2774	2779	2780	2767	2763	2781	2791	2795	2795	2796	2778	2757	2757	2737	2723	2732	2760	2798	2812	2794	2770	2746	2783	2803	2791	2755	2728	2704	2690	2700	2744	2780	2792	2815	2804	2787	2780	2788	2799	2795	2785	2769	2765	2750	2759	2769	2770	2760	2745	2742	2742	2743	2752	2745	2767	2775	2774	2764	2768	2785	2810	2809	2809	2799	2797	2813	2813	2815	2815	2806	2813	2821	2834	2834	2826	2826	2816	2814	2813	2824	2833	2848	2845	2828	2801	2823	2815	2816	2804	2790	2799	2806	2786	2806	2864	2854	2843	2847	2859	2845	2835	2819	2806	2808	2802	2814	2814	2820	2841	2829	2839	2823	2861	2873	2895	2905	2893	2887	2913	2906	2928	2929	2916	2895	2867	2870	2882	2906	2908	2903	2877	2878	2864	2865	2828	2842	2836	2894	2934	2911	2917	2917	2908	2907	2908	2919	2933	2936	2932	2933	2921	2917	2918	2907	2908	2908	2924	2902	2866	2867	2884	2914	2923	2908	2938	2933	2917	2885	2877	2888	2891	2902	2897	2905	2902	2903	2923	2927	2914	2898	2861	2841	2824	2817	2799	2801	2817	2832	2848	2820	2797	2796	2816	2824	2795	2772	2769	2780	2797	2814	2790	2799	2804	2818	2816	2824	2820	2805	2803	2829	2837	2852	2875	2876	2851	2803	2774	2774	2792	2808	2810	2804	2804	2815	2817	2817	2828	2834	2850	2857	2847	2816	2812	2839	2857	2856	2836	2808	2776	2786	2806	2822	2834	2836	2817	2816	2830	2828	2796	2768	2751	2755	2774	2803	2818	2815	2807	2803	2797	2775	2767	2775	2788	2794	2795	2790	2788	2793	2793	2808	2805	2821	2845	2865	2848	2815	2792	2780	2794	2807	2787	2777	2760	2756	2746	2708	2464	2563	2548	2519	2540	0	0	0	0	0	0	0	0	0	0	0	0	0	0	0	0	0	0	0	0	0	0	0	0	0	0	0	0	0	0	0	0	0	0	0	0	0	0	0	0	0	0	0	0	0	0	0	0	0	0	0	0	0	0	0	0	0	0	0	0	0	0	0	0	0	0	0	0	0	0	0	0	0	0	0	0	0	0	0	0	0	0	0	0	0	0	0	0	0	0	0	0	0	0	0	0	0	0	0	0	0	0	0	0	0	0	0	0	0	0	0	0	0	0	0	0	0	0	0	0	0	0	0	0	0	0	0	0	0	0	0	0	0	0	0	0	0	0	0	0	0	0	0	0	0	0	0	0	0	0	0	0	0	0	0	0	0	0	0	0	0	0	0	0	0	0	0	0	0	0	0
0	0	0	0	0	0	0	0	0	0	0	0	0	0	0	0	0	0	0	0	0	0	0	0	0	0	0	0	0	0	0	0	0	0	0	0	0	0	0	0	0	0	0	0	0	0	0	0	0	0	0	0	0	0	0	0	0	0	0	0	0	0	0	0	0	0	0	0	0	0	0	0	0	0	0	0	0	0	0	0	0	0	0	0	0	0	0	0	0	0	0	0	0	0	0	0	0	0	0	0	0	0	0	0	0	0	0	0	0	0	0	0	0	0	0	0	0	0	0	0	0	0	0	0	0	0	0	0	0	0	0	0	0	0	0	0	0	0	0	0	0	0	0	0	0	0	0	0	0	0	0	0	0	0	0	0	0	0	0	0	0	0	2592	2688	2771	2783	2792	2802	2802	2800	2790	2801	2794	2777	2771	2773	2786	2782	2765	2765	2786	2775	2790	2784	2775	2783	2783	2773	2779	2769	2756	2738	2722	2737	2782	2829	2837	2808	2785	2785	2805	2811	2797	2769	2755	2725	2720	2708	2739	2780	2790	2810	2815	2805	2793	2805	2817	2814	2800	2780	2783	2764	2755	2776	2769	2740	2738	2734	2734	2748	2755	2753	2767	2779	2766	2769	2791	2827	2857	2839	2822	2782	2777	2773	2767	2762	2773	2796	2803	2810	2830	2829	2818	2821	2824	2812	2806	2816	2833	2846	2844	2837	2818	2811	2807	2795	2789	2783	2776	2770	2766	2799	2866	2863	2852	2849	2850	2850	2854	2836	2836	2831	2821	2807	2818	2834	2828	2836	2821	2818	2846	2885	2883	2894	2907	2891	2894	2920	2928	2942	2923	2894	2891	2869	2898	2916	2908	2905	2892	2892	2878	2884	2866	2863	2866	2908	2934	2924	2921	2921	2905	2890	2899	2902	2915	2920	2927	2926	2908	2898	2887	2911	2909	2919	2905	2886	2861	2861	2875	2906	2902	2902	2918	2925	2919	2888	2887	2890	2898	2899	2909	2901	2895	2887	2888	2918	2906	2892	2863	2849	2835	2816	2796	2806	2820	2832	2832	2808	2785	2790	2812	2812	2789	2772	2765	2757	2734	2730	2741	2766	2781	2787	2787	2799	2793	2792	2787	2803	2827	2831	2823	2801	2789	2757	2727	2740	2759	2766	2765	2742	2750	2751	2764	2791	2791	2800	2811	2799	2780	2765	2756	2782	2791	2791	2764	2739	2733	2736	2749	2766	2776	2774	2739	2744	2773	2802	2777	2724	2685	2684	2684	2719	2746	2755	2746	2743	2742	2725	2698	2703	2706	2691	2683	2683	2681	2684	2684	2710	2706	2712	2748	2756	2747	2726	2708	2703	2714	2719	2711	2696	2682	2667	2651	2597	2464	2563	2548	2131	2084	2054	2055	2055	2064	2044	1993	1983	1989	1990	1963	1950	1950	1983	2025	2048	2047	2035	2023	2044	2075	2074	2069	2069	2057	2085	2117	2133	2125	2109	2090	2083	2099	2096	2171	0	0	0	0	0	0	0	0	0	0	0	0	0	0	0	0	0	0	0	0	0	0	0	0	0	0	0	0	0	0	0	0	0	0	0	0	0	0	0	0	0	0	0	0	0	0	0	0	0	0	0	0	0	0	0	0	0	0	0	0	0	0	0	0	0	0	0	0	0	0	0	0	0	0	0	0	0	0	0	0	0	0	0	0	0	0	0	0	0	0	0	0	0	0	0	0	0	0	0	0	0	0	0	0	0	0	0	0	0	0	0	0	0	0	0	0	0	0	0	0	0	0	0	0	0	0	0	0	0	0	0	0	0	0	0	0	0
0	0	0	0	0	0	0	0	0	0	0	0	0	0	0	0	0	0	0	0	0	0	0	0	0	0	0	0	0	0	0	0	0	0	0	0	0	0	0	0	0	0	0	0	0	0	0	0	0	0	0	0	0	0	0	0	0	0	0	0	0	0	0	0	0	0	0	0	0	0	0	0	0	0	0	0	0	0	0	0	0	0	0	0	0	0	0	0	0	0	0	0	0	0	0	0	0	0	0	0	0	0	0	0	0	0	0	0	0	0	0	0	0	0	0	0	0	0	0	0	0	0	0	0	0	0	0	0	0	0	0	0	0	0	0	0	0	0	0	0	0	0	0	0	0	0	0	0	0	0	0	0	0	0	0	0	0	0	0	0	0	0	2592	2688	2755	2756	2761	2769	2780	2782	2775	2787	2791	2776	2770	2774	2771	2775	2772	2769	2781	2789	2776	2772	2764	2764	2763	2759	2774	2764	2751	2743	2730	2741	2783	2821	2840	2816	2800	2804	2812	2810	2798	2782	2767	2752	2738	2724	2731	2772	2785	2798	2785	2785	2785	2798	2823	2810	2798	2777	2791	2776	2771	2780	2767	2739	2725	2735	2735	2740	2761	2770	2786	2774	2776	2794	2817	2855	2860	2854	2817	2766	2760	2751	2750	2744	2739	2764	2774	2804	2820	2800	2802	2818	2799	2792	2790	2790	2824	2838	2833	2815	2804	2799	2794	2789	2778	2758	2749	2740	2736	2777	2872	2871	2866	2825	2821	2829	2845	2848	2850	2844	2835	2830	2833	2836	2833	2828	2830	2838	2857	2877	2860	2860	2879	2888	2896	2891	2910	2926	2923	2914	2890	2883	2906	2914	2898	2902	2894	2904	2909	2903	2892	2892	2887	2943	2916	2912	2918	2913	2889	2882	2886	2900	2898	2918	2922	2916	2900	2893	2890	2892	2882	2895	2896	2880	2871	2880	2905	2908	2891	2909	2900	2906	2912	2880	2874	2869	2879	2897	2902	2896	2888	2882	2883	2884	2879	2851	2816	2802	2767	2745	2732	2754	2762	2779	2770	2754	2730	2718	2737	2729	2712	2715	2724	2719	2670	2652	2653	2678	2692	2702	2710	2722	2722	2699	2697	2685	2686	2693	2697	2690	2687	2666	2658	2663	2695	2690	2677	2647	2652	2652	2667	2706	2706	2699	2698	2691	2684	2679	2658	2658	2659	2684	2670	2673	2640	2642	2671	2706	2719	2687	2623	2658	2695	2757	2732	2641	2574	2550	2557	2584	2588	2680	2675	2676	2679	2623	2603	2550	2558	2540	2538	2531	2493	2500	2500	2534	2612	2625	2649	2653	2634	2617	2575	2573	2593	2634	2637	2621	2602	2585	2570	2498	2342	2224	2154	2131	2084	2054	1908	1932	1932	1941	1938	1941	1950	1959	1968	1955	1943	1943	1953	1974	2001	2020	2024	2019	2008	1988	1975	1975	1980	1987	2005	2007	2014	1998	1982	1990	1977	1966	2043	2152	0	0	0	0	0	0	0	0	0	0	0	0	0	0	0	0	0	0	0	0	0	0	0	0	0	0	0	0	0	0	0	0	0	0	0	0	0	0	0	0	0	0	0	0	0	0	0	0	0	0	0	0	0	0	0	0	0	0	0	0	0	0	0	0	0	0	0	0	0	0	0	0	0	0	0	0	0	0	0	0	0	0	0	0	0	0	0	0	0	0	0	0	0	0	0	0	0	0	0	0	0	0	0	0	0	0	0	0	0	0	0	0	0	0	0	0	0	0	0	0	0	0	0	0	0	0	0	0	0	0	0	0	0	0	0	0
0	0	0	0	0	0	0	0	0	0	0	0	0	0	0	0	0	0	0	0	0	0	0	0	0	0	0	0	0	0	0	0	0	0	0	0	0	0	0	0	0	0	0	0	0	0	0	0	0	0	0	0	0	0	0	0	0	0	0	0	0	0	0	0	0	0	0	0	0	0	0	0	0	0	0	0	0	0	0	0	0	0	0	0	0	0	0	0	0	0	0	0	0	0	0	0	0	0	0	0	0	0	0	0	0	0	0	0	0	0	0	0	0	0	0	0	0	0	0	0	0	0	0	0	0	0	0	0	0	0	0	0	0	0	0	0	0	0	0	0	0	0	0	0	0	0	0	0	0	0	0	0	0	0	0	0	0	0	0	0	0	0	2590	2702	2747	2739	2729	2742	2755	2770	2767	2778	2780	2775	2764	2759	2756	2752	2751	2748	2762	2769	2770	2765	2745	2745	2755	2772	2771	2767	2752	2745	2736	2739	2766	2795	2808	2801	2798	2801	2804	2796	2784	2770	2762	2747	2740	2746	2738	2766	2774	2758	2745	2742	2755	2772	2764	2755	2740	2748	2785	2789	2781	2768	2753	2741	2735	2735	2742	2745	2763	2784	2793	2793	2795	2811	2843	2864	2881	2863	2820	2770	2730	2729	2751	2755	2757	2761	2768	2775	2789	2784	2793	2799	2780	2772	2790	2782	2793	2827	2819	2811	2804	2815	2793	2787	2790	2776	2732	2723	2715	2767	2861	2865	2854	2814	2799	2811	2824	2832	2839	2843	2845	2851	2844	2842	2833	2836	2841	2856	2846	2840	2842	2850	2870	2866	2860	2864	2884	2920	2931	2939	2906	2894	2883	2906	2904	2897	2904	2912	2928	2912	2885	2854	2904	2918	2912	2917	2919	2917	2899	2872	2917	2908	2896	2917	2917	2900	2883	2885	2882	2882	2874	2869	2893	2894	2885	2892	2907	2907	2897	2876	2871	2879	2828	2809	2817	2807	2813	2859	2828	2833	2812	2823	2471	2779	2798	2755	2683	2699	2684	2657	2621	2609	2646	2628	2658	2662	2624	2572	2570	2562	2595	2602	2616	2556	2507	2495	2507	2522	2574	2574	2558	2549	2539	2641	2635	2621	2562	2513	2528	2553	2563	2565	2570	2579	2580	2607	2595	2551	2505	2490	2492	2527	2527	2473	2522	2555	2563	2511	2437	2381	2338	2342	2349	2381	2335	2326	2326	2342	2323	2323	2338	2292	2293	2274	2237	2252	2382	2370	2375	2377	2245	2161	2156	2168	2178	2181	2261	2331	2382	2402	2367	2299	2192	2162	2162	2093	2049	2060	2068	2058	2072	2095	2090	2084	2088	2048	2053	2057	2077	2076	2074	2045	2012	1981	1959	1948	1932	1912	1908	1932	1932	1952	1952	1952	1943	1950	1965	1964	1949	1943	1915	1945	1978	2003	2014	2017	1998	1975	1967	1967	1969	1966	1975	1994	1995	1996	1995	1986	1954	1947	1934	2014	0	0	0	0	0	0	0	0	0	0	0	0	0	0	0	0	0	0	0	0	0	0	0	0	0	0	0	0	0	0	0	0	0	0	0	0	0	0	0	0	0	0	0	0	0	0	0	0	0	0	0	0	0	0	0	0	0	0	0	0	0	0	0	0	0	0	0	0	0	0	0	0	0	0	0	0	0	0	0	0	0	0	0	0	0	0	0	0	0	0	0	0	0	0	0	0	0	0	0	0	0	0	0	0	0	0	0	0	0	0	0	0	0	0	0	0	0	0	0	0	0	0	0	0	0	0	0	0	0	0	0	0	0	0	0	0
0	0	0	0	0	0	0	0	0	0	0	0	0	0	0	0	0	0	0	0	0	0	0	0	0	0	0	0	0	0	0	0	0	0	0	0	0	0	0	0	0	0	0	0	0	0	0	0	0	0	0	0	0	0	0	0	0	0	0	0	0	0	0	0	0	0	0	0	0	0	0	0	0	0	0	0	0	0	0	0	0	0	0	0	0	0	0	0	0	0	0	0	0	0	0	0	0	0	0	0	0	0	0	0	0	0	0	0	0	0	0	0	0	0	0	0	0	0	0	0	0	0	0	0	0	0	0	0	0	0	0	0	0	0	0	0	0	0	0	0	0	0	0	0	0	0	0	0	0	0	0	0	0	0	0	0	0	0	0	0	0	0	2561	2720	2770	2743	2722	2706	2709	2740	2754	2766	2779	2773	2762	2749	2742	2733	2727	2735	2751	2756	2769	2773	2752	2752	2757	2764	2750	2753	2740	2740	2742	2740	2747	2766	2780	2786	2789	2782	2778	2780	2762	2756	2749	2744	2743	2769	2757	2765	2760	2754	2722	2705	2706	2724	2734	2720	2702	2723	2763	2767	2764	2740	2732	2708	2715	2715	2745	2747	2757	2782	2802	2809	2818	2818	2837	2847	2844	2839	2803	2760	2738	2742	2762	2766	2773	2776	2764	2779	2781	2780	2769	2763	2754	2757	2765	2780	2785	2802	2802	2798	2806	2809	2788	2795	2794	2779	2742	2724	2702	2704	2837	2840	2838	2832	2785	2793	2801	2790	2788	2833	2857	2859	2862	2767	2782	2804	2827	2829	2866	2847	2826	2825	2813	2822	2791	2769	2861	2913	2915	2918	2899	2867	2847	2836	2899	2903	2906	2915	2917	2875	2692	2819	2720	2853	2900	2900	2917	2891	2867	2870	2916	2912	2912	2848	2849	2849	2884	2881	2870	2859	2827	2786	2612	2538	2515	2641	2752	2762	2774	2798	2823	2614	2442	2450	2521	2672	2703	2524	2441	2381	2367	2307	2241	2219	2654	2432	2440	2457	2542	2552	2472	2474	2475	2445	2448	2390	2428	2395	2394	2428	2418	2413	2412	2360	2352	2340	2343	2354	2363	2363	2352	2336	2247	2142	2112	2152	2215	2247	2266	2191	2134	2068	2042	2062	2105	2119	2037	2008	1985	1986	1974	1963	1963	1940	1940	1962	2012	2008	1988	1958	1935	1930	1944	1978	1980	1967	1945	1916	1905	1904	1915	1944	1999	2002	1973	2007	2005	1982	1953	1955	1971	1985	1982	1969	1949	1940	1950	1977	1998	1992	1977	1943	1902	1889	1889	1913	1942	1966	1980	1984	1985	1982	1955	1942	1941	1960	1964	1962	1951	1940	1946	1962	1967	1967	1962	1956	1945	1941	1931	1941	1941	1952	1952	1952	1940	1946	1962	1963	1951	1941	1923	1939	1970	1986	2003	2008	1999	1981	1965	1965	1958	1977	1976	1972	1980	1989	1995	1991	1962	1928	1937	2012	2263	0	0	0	0	0	0	0	0	0	0	0	0	0	0	0	0	0	0	0	0	0	0	0	0	0	0	0	0	0	0	0	0	0	0	0	0	0	0	0	0	0	0	0	0	0	0	0	0	0	0	0	0	0	0	0	0	0	0	0	0	0	0	0	0	0	0	0	0	0	0	0	0	0	0	0	0	0	0	0	0	0	0	0	0	0	0	0	0	0	0	0	0	0	0	0	0	0	0	0	0	0	0	0	0	0	0	0	0	0	0	0	0	0	0	0	0	0	0	0	0	0	0	0	0	0	0	0	0	0	0	0	0	0	0	0
0	0	0	0	0	0	0	0	0	0	0	0	0	0	0	0	0	0	0	0	0	0	0	0	0	0	0	0	0	0	0	0	0	0	0	0	0	0	0	0	0	0	0	0	0	0	0	0	0	0	0	0	0	0	0	0	0	0	0	0	0	0	0	0	0	0	0	0	0	0	0	0	0	0	0	0	0	0	0	0	0	0	0	0	0	0	0	0	0	0	0	0	0	0	0	0	0	0	0	0	0	0	0	0	0	0	0	0	0	0	0	0	0	0	0	0	0	0	0	0	0	0	0	0	0	0	0	0	0	0	0	0	0	0	0	0	0	0	0	0	0	0	0	0	0	0	0	0	0	0	0	0	0	0	0	0	0	0	0	0	0	0	2547	2740	2794	2765	2731	2705	2688	2719	2739	2758	2762	2772	2763	2740	2710	2709	2715	2720	2738	2742	2771	2773	2751	2751	2736	2726	2729	2733	2743	2745	2738	2736	2732	2747	2736	2714	2735	2734	2736	2741	2745	2741	2717	2718	2736	2775	2783	2775	2760	2761	2743	2708	2695	2719	2710	2699	2688	2691	2711	2738	2736	2715	2708	2681	2692	2692	2703	2728	2748	2774	2791	2797	2795	2808	2804	2782	2764	2747	2737	2729	2714	2723	2731	2741	2740	2732	2738	2761	2775	2743	2715	2684	2704	2696	2706	2710	2714	2709	2720	2763	2778	2772	2749	2720	2719	2709	2714	2693	2673	2681	2565	2777	2785	2712	2690	2686	2661	2729	2694	2683	2767	2747	2649	2594	2557	2542	2643	2702	2654	2644	2673	2667	2503	2522	2522	2514	2558	2606	2572	2597	2651	2710	2708	2658	2613	2646	2671	2647	2491	2470	2372	2385	2350	2497	2568	2625	2644	2640	2609	2588	2600	2597	2343	2494	2496	2429	2430	2401	2375	2344	2345	2296	2319	2359	2317	2181	2066	1975	1971	2086	2112	2230	2346	2356	2316	2213	2216	2155	2342	2292	2262	2193	2140	2104	2110	2190	2230	2094	2024	1981	1975	1982	2051	1987	1937	1937	1948	1955	1973	1978	1966	1928	1931	1952	1955	1955	1948	1960	1972	1994	2023	2031	2007	1980	1955	1961	1963	1951	1946	1940	1941	1950	1976	1989	1976	1957	1938	1945	1958	1958	1951	1947	1943	1943	1929	1936	1942	1931	1929	1925	1922	1939	1965	1980	1983	1974	1944	1914	1901	1887	1911	1927	1952	1945	1945	1936	1936	1934	1924	1942	1967	1977	1973	1963	1956	1952	1961	1977	2000	1999	1969	1932	1912	1909	1921	1921	1946	1963	1977	1985	1989	1982	1951	1934	1933	1948	1958	1947	1937	1917	1926	1942	1959	1959	1956	1952	1941	1937	1927	1945	1945	1953	1955	1948	1940	1946	1962	1948	1955	1953	1956	1958	1962	1969	1981	1993	1989	1970	1958	1958	1957	1969	1967	1962	1969	1980	1993	1993	1979	1959	1939	2020	2249	0	0	0	0	0	0	0	0	0	0	0	0	0	0	0	0	0	0	0	0	0	0	0	0	0	0	0	0	0	0	0	0	0	0	0	0	0	0	0	0	0	0	0	0	0	0	0	0	0	0	0	0	0	0	0	0	0	0	0	0	0	0	0	0	0	0	0	0	0	0	0	0	0	0	0	0	0	0	0	0	0	0	0	0	0	0	0	0	0	0	0	0	0	0	0	0	0	0	0	0	0	0	0	0	0	0	0	0	0	0	0	0	0	0	0	0	0	0	0	0	0	0	0	0	0	0	0	0	0	0	0	0	0	0	0
0	0	0	0	0	0	0	0	0	0	0	0	0	0	0	0	0	0	0	0	0	0	0	0	0	0	0	0	0	0	0	0	0	0	0	0	0	0	0	0	0	0	0	0	0	0	0	0	0	0	0	0	0	0	0	0	0	0	0	0	0	0	0	0	0	0	0	0	0	0	0	0	0	0	0	0	0	0	0	0	0	0	0	0	0	0	0	0	0	0	0	0	0	0	0	0	0	0	0	0	0	0	0	0	0	0	0	0	0	0	0	0	0	0	0	0	0	0	0	0	0	0	0	0	0	0	0	0	0	0	0	0	0	0	0	0	0	0	0	0	0	0	0	0	0	0	0	0	0	0	0	0	0	0	0	0	0	0	0	0	0	0	2568	2727	2776	2753	2721	2693	2689	2697	2709	2728	2749	2742	2747	2703	2682	2676	2683	2696	2714	2722	2741	2743	2718	2718	2694	2677	2685	2700	2703	2716	2714	2707	2692	2688	2677	2654	2662	2667	2673	2677	2679	2677	2677	2683	2695	2742	2755	2754	2761	2767	2771	2745	2687	2662	2674	2664	2642	2640	2653	2672	2675	2666	2660	2656	2637	2637	2658	2676	2702	2720	2728	2726	2720	2709	2705	2676	2650	2641	2643	2662	2663	2661	2651	2649	2651	2658	2678	2696	2691	2636	2578	2535	2540	2541	2544	2556	2537	2527	2568	2586	2688	2712	2679	2619	2575	2607	2655	2653	2623	2252	2321	2401	2353	2339	2347	2334	2325	2378	2470	2435	2359	2430	2444	2420	2377	2337	2327	2412	2444	2459	2513	2432	2386	2345	2363	2405	2462	2527	2356	2385	2486	2608	2617	2406	2378	2444	2594	2521	2264	2181	2298	2297	2217	2056	2247	2019	1968	1973	1983	2165	2106	2074	2046	2405	2421	2330	2298	2258	2202	2209	2278	2210	2195	2134	2086	2066	2001	1960	1962	2039	2047	2079	2035	2030	2042	2042	2099	2064	2020	1998	1981	1995	2017	2009	1998	1985	1973	1965	1954	1950	1965	1975	1972	1965	1961	1953	1951	1957	1971	1968	1967	1957	1957	1953	1955	1954	1954	1957	1965	1999	2012	2018	1989	1974	1955	1947	1952	1952	1944	1943	1944	1961	1977	1980	1969	1946	1920	1919	1938	1947	1951	1945	1947	1947	1943	1943	1937	1926	1927	1932	1932	1952	1977	1991	1991	1982	1960	1929	1903	1895	1906	1923	1935	1929	1914	1912	1918	1912	1914	1928	1958	1965	1966	1958	1953	1955	1973	1994	1998	1993	1962	1928	1914	1925	1929	1929	1937	1960	1972	1974	1974	1978	1941	1921	1923	1948	1968	1962	1925	1903	1901	1932	1941	1941	1944	1944	1941	1931	1933	1945	1945	1953	1953	1947	1945	1944	1948	1948	1955	1953	1978	1974	1960	1953	1966	1978	1973	1962	1953	1953	1950	1955	1955	1959	1973	1978	1989	1996	1987	1970	1935	2006	2259	0	0	0	0	0	0	0	0	0	0	0	0	0	0	0	0	0	0	0	0	0	0	0	0	0	0	0	0	0	0	0	0	0	0	0	0	0	0	0	0	0	0	0	0	0	0	0	0	0	0	0	0	0	0	0	0	0	0	0	0	0	0	0	0	0	0	0	0	0	0	0	0	0	0	0	0	0	0	0	0	0	0	0	0	0	0	0	0	0	0	0	0	0	0	0	0	0	0	0	0	0	0	0	0	0	0	0	0	0	0	0	0	0	0	0	0	0	0	0	0	0	0	0	0	0	0	0	0	0	0	0	0	0	0	0
0	0	0	0	0	0	0	0	0	0	0	0	0	0	0	0	0	0	0	0	0	0	0	0	0	0	0	0	0	0	0	0	0	0	0	0	0	0	0	0	0	0	0	0	0	0	0	0	0	0	0	0	0	0	0	0	0	0	0	0	0	0	0	0	0	0	0	0	0	0	0	0	0	0	0	0	0	0	0	0	0	0	0	0	0	0	0	0	0	0	0	0	0	0	0	0	0	0	0	0	0	0	0	0	0	0	0	0	0	0	0	0	0	0	0	0	0	0	0	0	0	0	0	0	0	0	0	0	0	0	0	0	0	0	0	0	0	0	0	0	0	0	0	0	0	0	0	0	0	0	0	0	0	0	0	0	0	0	0	0	0	0	2576	2667	2702	2685	2669	2666	2669	2667	2672	2684	2704	2704	2698	2670	2630	2626	2625	2660	2652	2661	2678	2665	2646	2646	2613	2602	2623	2626	2633	2640	2638	2631	2606	2586	2586	2559	2570	2584	2589	2570	2560	2569	2582	2613	2611	2652	2672	2671	2712	2741	2753	2672	2547	2549	2542	2559	2580	2581	2595	2576	2554	2558	2593	2571	2563	2563	2584	2617	2626	2633	2631	2634	2622	2624	2603	2568	2542	2533	2540	2550	2553	2545	2529	2519	2531	2560	2565	2475	2343	2302	2365	2402	2368	2347	2349	2343	2353	2379	2387	2356	2280	2230	2185	2171	2088	2089	2097	2085	2086	2126	2299	2299	2261	2229	2203	2196	2186	2206	2318	2286	2213	2288	2292	2265	2220	2186	2149	2179	2204	2188	2100	2098	2231	2223	2241	2104	2022	2031	2071	2138	2087	2035	2038	2119	2121	2087	2046	2062	2068	2048	2001	1979	1981	2087	2031	2002	1968	1973	1983	2062	2052	2004	1991	2027	2080	2057	2037	2029	2062	2033	1981	1976	1965	1966	1971	1972	1958	1943	1918	1915	1922	1941	2000	2010	2003	1989	1992	2014	2001	1972	1964	1966	1971	1968	1973	1971	1953	1937	1933	1941	1951	1973	1976	1968	1959	1953	1952	1967	1982	1974	1967	1970	1969	1967	1961	1956	1960	1972	1982	2002	1996	1970	1959	1961	1961	1958	1958	1954	1956	1939	1939	1953	1968	1974	1964	1945	1928	1928	1940	1952	1952	1951	1947	1947	1945	1942	1934	1929	1929	1941	1950	1965	1976	1994	1988	1982	1965	1930	1923	1919	1917	1921	1915	1915	1901	1906	1913	1904	1913	1923	1947	1958	1962	1958	1942	1949	1978	1999	2000	1979	1950	1927	1916	1923	1933	1933	1939	1953	1961	1957	1952	1966	1948	1925	1933	1969	1975	1959	1926	1919	1904	1913	1929	1951	1954	1958	1959	1946	1934	1951	1951	1953	1949	1937	1934	1938	1942	1943	1955	1968	1978	1974	1960	1953	1955	1961	1966	1962	1955	1949	1949	1948	1940	1949	1957	1975	1988	1992	1987	1980	1932	2003	2259	0	0	0	0	0	0	0	0	0	0	0	0	0	0	0	0	0	0	0	0	0	0	0	0	0	0	0	0	0	0	0	0	0	0	0	0	0	0	0	0	0	0	0	0	0	0	0	0	0	0	0	0	0	0	0	0	0	0	0	0	0	0	0	0	0	0	0	0	0	0	0	0	0	0	0	0	0	0	0	0	0	0	0	0	0	0	0	0	0	0	0	0	0	0	0	0	0	0	0	0	0	0	0	0	0	0	0	0	0	0	0	0	0	0	0	0	0	0	0	0	0	0	0	0	0	0	0	0	0	0	0	0	0	0	0
0	0	0	0	0	0	0	0	0	0	0	0	0	0	0	0	0	0	0	0	0	0	0	0	0	0	0	0	0	0	0	0	0	0	0	0	0	0	0	0	0	0	0	0	0	0	0	0	0	0	0	0	0	0	0	0	0	0	0	0	0	0	0	0	0	0	0	0	0	0	0	0	0	0	0	0	0	0	0	0	0	0	0	0	0	0	0	0	0	0	0	0	0	0	0	0	0	0	0	0	0	0	0	0	0	0	0	0	0	0	0	0	0	0	0	0	0	0	0	0	0	0	0	0	0	0	0	0	0	0	0	0	0	0	0	0	0	0	0	0	0	0	0	0	0	0	0	0	0	0	0	0	0	0	0	0	0	0	0	0	0	2456	2039	2571	2548	2560	2576	2595	2614	2600	2580	2575	2614	2631	2625	2495	2522	2520	2527	2525	2590	2582	2588	2599	2564	2564	2495	2452	2470	2498	2489	2515	2546	2530	2503	2487	2469	2458	2463	2469	2441	2434	2418	2414	2424	2402	2394	2459	2484	2308	2269	2289	2289	2289	2294	2289	2278	2242	2202	2170	2113	2126	2155	2154	2112	2130	2130	2146	2131	2108	2138	2133	2102	2035	2011	1994	1975	1985	1991	1993	1976	1959	1945	1921	1900	1889	1911	1921	1931	1943	1938	1917	1926	1936	1945	1936	1927	1915	1918	1933	1959	1963	1947	1941	1921	1892	1904	1942	1980	1989	1980	1963	1950	1952	1962	1971	1972	1953	1953	1942	1901	1904	1933	1952	1982	1977	1974	1965	1946	1917	1910	1950	1958	1956	1965	1974	1967	1964	1976	1984	1972	1973	1977	1982	1967	1972	1968	1966	1963	1978	1975	1966	1946	1945	1958	1989	2022	2021	2006	2038	1974	1944	1953	1963	1944	1980	1991	1997	1997	1992	1983	1972	1960	1965	1970	1971	1955	1938	1925	1923	1914	1890	1903	1984	2006	2016	2013	1983	1985	1992	1989	1976	1964	1948	1954	1954	1955	1952	1940	1929	1926	1930	1944	1961	1971	1967	1955	1954	1968	1981	1993	1994	1979	1974	1967	1964	1967	1973	1975	1977	1980	2002	1986	1961	1944	1963	1966	1967	1957	1958	1954	1936	1938	1944	1958	1971	1962	1952	1944	1948	1957	1950	1945	1942	1944	1944	1949	1942	1932	1931	1934	1943	1948	1957	1965	1971	1971	1973	1964	1950	1953	1947	1930	1923	1915	1907	1906	1910	1915	1911	1907	1917	1935	1956	1965	1956	1943	1931	1949	1977	1978	1968	1948	1923	1918	1928	1933	1933	1945	1946	1945	1948	1952	1971	1953	1943	1955	1972	1979	1955	1933	1925	1934	1936	1951	1963	1966	1957	1969	1960	1947	1946	1946	1942	1938	1931	1928	1936	1933	1929	1934	1952	1973	1977	1961	1950	1955	1961	1966	1962	1960	1945	1945	1935	1930	1941	1956	1964	1976	1988	1994	1985	1915	1999	2235	0	0	0	0	0	0	0	0	0	0	0	0	0	0	0	0	0	0	0	0	0	0	0	0	0	0	0	0	0	0	0	0	0	0	0	0	0	0	0	0	0	0	0	0	0	0	0	0	0	0	0	0	0	0	0	0	0	0	0	0	0	0	0	0	0	0	0	0	0	0	0	0	0	0	0	0	0	0	0	0	0	0	0	0	0	0	0	0	0	0	0	0	0	0	0	0	0	0	0	0	0	0	0	0	0	0	0	0	0	0	0	0	0	0	0	0	0	0	0	0	0	0	0	0	0	0	0	0	0	0	0	0	0	0	0
0	0	0	0	0	0	0	0	0	0	0	0	0	0	0	0	0	0	0	0	0	0	0	0	0	0	0	0	0	0	0	0	0	0	0	0	0	0	0	0	0	0	0	0	0	0	0	0	0	0	0	0	0	0	0	0	0	0	0	0	0	0	0	0	0	0	0	0	0	0	0	0	0	0	0	0	0	0	0	0	0	0	0	0	0	0	0	0	0	0	0	0	0	0	0	0	0	0	0	0	0	0	0	0	0	0	0	0	0	0	0	0	0	0	0	0	0	0	0	0	0	0	0	0	0	0	0	0	1738	1754	1758	1780	1818	1854	1874	1877	1872	1890	0	0	0	0	0	0	0	0	0	1856	1826	1792	1794	1823	1888	1924	1933	1918	1907	1874	1843	1843	1844	1874	2322	2365	2394	2431	2468	2466	2253	2241	2332	2366	2309	2253	2219	2227	2188	2154	2081	2041	2032	2024	2026	2021	2007	2007	2011	2050	2065	2029	1953	1979	1968	1956	1931	1917	1949	2002	1995	2002	2025	2049	2022	1954	1933	1929	1936	1950	1980	1933	1929	1938	1940	1932	1936	1951	1965	1949	1924	1905	1909	1915	1922	1915	1919	1938	1938	1938	1907	1896	1901	1916	1940	1965	1989	1981	1963	1946	1948	1945	1924	1917	1919	1916	1921	1933	1952	1944	1945	1944	1939	1946	1941	1940	1945	1931	1908	1889	1895	1915	1931	1929	1926	1915	1911	1904	1910	1935	1933	1933	1934	1934	1952	1962	1969	1973	1950	1941	1938	1930	1945	1929	1921	1936	1926	1932	1944	1966	1966	1962	1951	1950	1951	1934	1930	1930	1923	1933	1946	1945	1961	1950	1980	1978	1965	1976	1970	1972	1979	1973	1976	1985	1936	1937	1937	1946	1951	1964	1986	1988	1944	1919	1905	1951	1973	1968	1985	1990	1989	1981	1978	1969	1957	1959	1969	1966	1951	1933	1920	1917	1931	1950	1970	1990	2006	2009	1993	1978	1988	1982	1977	1970	1957	1974	1968	1966	1958	1952	1940	1929	1923	1928	1936	1952	1951	1951	1950	1957	1956	1974	1995	1992	1975	1965	1963	1964	1962	1968	1973	1973	1972	1985	1971	1963	1947	1951	1975	1973	1966	1956	1945	1935	1937	1943	1952	1957	1940	1944	1949	1968	1962	1958	1935	1928	1930	1930	1935	1943	1935	1938	1944	1957	1952	1951	1951	1954	1948	1962	1973	1967	1967	1957	1938	1923	1917	1913	1912	1922	1927	1924	1922	1930	1939	1960	1969	1964	1946	1931	1928	1939	1953	1948	1929	1927	1922	1928	1928	1928	1928	1934	1944	1950	1955	1977	1971	1971	1957	1956	1952	1952	1939	1928	1952	1964	1972	1978	1967	1971	1958	1958	1947	1936	1936	1929	1929	1931	1934	1938	1937	1918	1918	1929	1953	1963	1964	1954	1952	1952	1960	1962	1960	1945	1945	1942	1930	1929	1944	1966	1974	1976	1980	1975	1904	1964	2186	0	0	0	0	0	0	0	0	0	0	0	0	0	0	0	0	0	0	0	0	0	0	0	0	0	0	0	0	0	0	0	0	0	0	0	0	0	0	0	0	0	0	0	0	0	0	0	0	0	0	0	0	0	0	0	0	0	0	0	0	0	0	0	0	0	0	0	0	0	0	0	0	0	0	0	0	0	0	0	0	0	0	0	0	0	0	0	0	0	0	0	0	0	0	0	0	0	0	0	0	0	0	0	0	0	0	0	0	0	0	0	0	0	0	0	0	0	0	0	0	0	0	0	0	0	0	0	0	0	0	0	0	0	0	0
0	0	0	0	0	0	0	0	0	0	0	0	0	0	0	0	0	0	0	0	0	0	0	0	0	0	0	0	0	0	0	0	0	0	0	0	0	0	0	0	0	0	0	0	0	0	0	0	0	0	0	0	0	0	0	0	0	0	0	0	0	0	0	0	0	0	0	0	0	0	0	0	0	0	0	0	0	0	0	0	0	0	0	0	0	0	0	0	0	0	0	0	0	0	0	0	0	0	0	0	0	0	0	0	0	0	0	0	0	0	0	0	0	0	0	0	0	0	0	0	0	0	0	0	0	0	0	0	1913	1889	1853	1848	1850	1857	1874	1877	1872	1890	1911	1919	1919	1910	1909	1919	1942	1928	1914	1902	1892	1892	1893	1907	1935	1946	1929	1903	1885	1900	1909	1909	1933	1942	1952	1952	1963	1978	1988	1966	1947	1944	1967	1968	1954	1932	1911	1913	1918	1953	1963	1962	1962	1948	1927	1920	1920	1907	1909	1900	1888	1891	1902	1920	1919	1900	1886	1898	1928	1971	1967	1942	1924	1916	1916	1913	1920	1924	1921	1916	1906	1901	1906	1915	1909	1906	1910	1934	1943	1927	1916	1904	1915	1923	1926	1928	1931	1947	1947	1948	1930	1915	1922	1933	1959	1972	1972	1957	1926	1929	1948	1958	1948	1936	1930	1923	1919	1927	1934	1934	1936	1938	1942	1944	1945	1950	1955	1936	1923	1913	1908	1921	1930	1931	1931	1922	1908	1912	1923	1934	1924	1912	1928	1936	1943	1959	1954	1944	1913	1933	1931	1956	1938	1961	1952	1952	1984	1964	1964	1969	1967	1968	1975	1978	1953	1947	1934	1921	1930	1935	1932	1944	1949	1950	1979	1975	1964	1964	1967	1975	1972	1963	1965	1960	1965	1962	1940	1925	1937	1955	1985	1999	1999	1980	1914	1939	1978	1983	1979	1980	1983	1979	1975	1964	1959	1960	1962	1959	1942	1926	1914	1922	1939	1963	1977	1990	1992	1989	1971	1974	1992	1988	1972	1958	1961	1988	1983	1974	1964	1954	1952	1936	1926	1916	1931	1942	1956	1949	1947	1947	1963	1980	1992	1991	1973	1960	1964	1949	1949	1956	1955	1951	1955	1970	1971	1963	1968	1976	1981	1973	1963	1950	1941	1938	1941	1934	1944	1951	1936	1940	1954	1968	1973	1960	1931	1914	1908	1925	1925	1939	1942	1949	1957	1961	1956	1949	1949	1952	1962	1969	1982	1976	1969	1949	1916	1909	1920	1927	1928	1916	1928	1926	1934	1936	1951	1957	1967	1962	1948	1934	1918	1924	1934	1942	1931	1931	1940	1929	1907	1907	1907	1933	1950	1958	1962	1964	1981	1977	1969	1959	1957	1954	1958	1950	1964	1980	1990	1979	1970	1965	1952	1951	1945	1941	1931	1931	1933	1940	1949	1951	1926	1918	1889	1915	1930	1949	1963	1960	1951	1950	1962	1965	1972	1960	1960	1942	1930	1929	1944	1967	1972	1971	1971	1956	1899	1957	2147	0	0	0	0	0	0	0	0	0	0	0	0	0	0	0	0	0	0	0	0	0	0	0	0	0	0	0	0	0	0	0	0	0	0	0	0	0	0	0	0	0	0	0	0	0	0	0	0	0	0	0	0	0	0	0	0	0	0	0	0	0	0	0	0	0	0	0	0	0	0	0	0	0	0	0	0	0	0	0	0	0	0	0	0	0	0	0	0	0	0	0	0	0	0	0	0	0	0	0	0	0	0	0	0	0	0	0	0	0	0	0	0	0	0	0	0	0	0	0	0	0	0	0	0	0	0	0	0	0	0	0	0	0	0	0
0	0	0	0	0	0	0	0	0	0	0	0	0	0	0	0	0	0	0	0	0	0	0	0	0	0	0	0	0	0	0	0	0	0	0	0	0	0	0	0	0	0	0	0	0	0	0	0	0	0	0	0	0	0	0	0	0	0	0	0	0	0	0	0	0	0	0	0	0	0	0	0	0	0	0	0	0	0	0	0	0	0	0	0	0	0	0	0	0	0	0	0	0	0	0	0	0	0	0	0	0	0	0	0	0	0	0	0	0	0	0	0	0	0	0	0	0	0	0	0	0	0	0	0	0	0	0	1919	1914	1908	1853	1848	1850	1857	1879	1909	1939	1953	1965	1955	1955	1946	1937	1942	1936	1924	1905	1903	1914	1908	1885	1861	1843	1856	1880	1897	1911	1922	1913	1913	1913	1917	1927	1932	1932	1926	1923	1923	1934	1938	1947	1953	1952	1935	1915	1905	1906	1929	1939	1945	1937	1925	1915	1911	1911	1919	1923	1914	1908	1897	1903	1921	1919	1904	1890	1900	1931	1960	1963	1945	1922	1913	1914	1918	1920	1918	1903	1906	1912	1919	1926	1903	1891	1879	1883	1898	1919	1904	1901	1902	1916	1934	1936	1923	1930	1934	1934	1945	1940	1935	1943	1950	1955	1955	1943	1931	1930	1934	1954	1971	1957	1944	1934	1932	1926	1926	1930	1934	1940	1939	1939	1934	1938	1925	1935	1930	1925	1920	1931	1941	1945	1935	1929	1936	1933	1940	1953	1936	1933	1920	1910	1932	1934	1943	1916	1899	1905	1952	1966	1945	1964	1956	1956	1971	1967	1969	1962	1969	1971	1973	1987	1986	1978	1964	1927	1923	1914	1924	1933	1945	1962	1968	1971	1963	1959	1953	1967	1962	1969	1976	1971	1961	1951	1942	1935	1935	1955	1983	1989	1984	1986	1981	1979	1951	1963	1978	1971	1960	1970	1970	1967	1967	1956	1958	1949	1942	1941	1930	1930	1933	1952	1966	1984	1988	1977	1973	1957	1980	1987	1988	1983	1973	1967	1975	1980	1972	1970	1956	1948	1926	1928	1912	1929	1931	1942	1950	1942	1952	1959	1977	1994	1985	1971	1946	1955	1945	1942	1936	1936	1935	1950	1968	1978	1979	1991	1994	1988	1978	1961	1946	1941	1937	1932	1928	1942	1951	1948	1950	1966	1981	1986	1976	1935	1914	1907	1930	1930	1951	1950	1958	1960	1965	1965	1963	1956	1969	1987	2000	1995	1984	1968	1938	1901	1899	1912	1929	1929	1925	1925	1922	1932	1946	1968	1971	1965	1952	1939	1928	1920	1927	1933	1937	1937	1938	1943	1921	1912	1912	1908	1928	1943	1960	1971	1970	1967	1976	1982	1964	1956	1953	1962	1959	1963	1972	1985	1981	1957	1953	1954	1929	1938	1940	1941	1941	1949	1955	1962	1958	1928	1914	1895	1908	1931	1962	1985	1982	1973	1967	1970	1981	1974	1974	1974	1966	1943	1934	1936	1967	1972	1971	1971	1943	1897	1937	2130	0	0	0	0	0	0	0	0	0	0	0	0	0	0	0	0	0	0	0	0	0	0	0	0	0	0	0	0	0	0	0	0	0	0	0	0	0	0	0	0	0	0	0	0	0	0	0	0	0	0	0	0	0	0	0	0	0	0	0	0	0	0	0	0	0	0	0	0	0	0	0	0	0	0	0	0	0	0	0	0	0	0	0	0	0	0	0	0	0	0	0	0	0	0	0	0	0	0	0	0	0	0	0	0	0	0	0	0	0	0	0	0	0	0	0	0	0	0	0	0	0	0	0	0	0	0	0	0	0	0	0	0	0	0	0
0	0	0	0	0	0	0	0	0	0	0	0	0	0	0	0	0	0	0	0	0	0	0	0	0	0	0	0	0	0	0	0	0	0	0	0	0	0	0	0	0	0	0	0	0	0	0	0	0	0	0	0	0	0	0	0	0	0	0	0	0	0	0	0	0	0	0	0	0	0	0	0	0	0	0	0	0	0	0	0	0	0	0	0	0	0	0	0	0	0	0	0	0	0	0	0	0	0	0	0	0	0	0	0	0	0	0	0	0	0	0	0	0	0	0	0	0	0	0	0	0	0	0	0	0	0	0	1919	1914	1908	1892	1871	1863	1872	1886	1904	1920	1931	1941	1941	1941	1926	1912	1921	1913	1903	1892	1899	1903	1905	1883	1850	1839	1843	1870	1892	1905	1911	1902	1902	1891	1897	1907	1904	1903	1912	1920	1934	1946	1955	1960	1964	1959	1950	1932	1915	1911	1920	1922	1929	1925	1915	1904	1907	1907	1938	1950	1926	1919	1905	1897	1907	1911	1913	1911	1916	1930	1937	1952	1935	1916	1917	1918	1913	1915	1910	1891	1906	1922	1947	1968	1948	1897	1880	1877	1885	1885	1891	1888	1902	1923	1932	1941	1921	1925	1933	1933	1945	1958	1954	1949	1950	1940	1935	1925	1919	1919	1941	1967	1983	1978	1962	1956	1941	1931	1933	1930	1938	1944	1937	1931	1930	1923	1919	1913	1906	1911	1924	1936	1961	1958	1945	1933	1945	1961	1969	1965	1953	1932	1922	1902	1907	1920	1901	1908	1903	1911	1951	1962	1968	1971	1966	1961	1967	1980	1968	1965	1974	1976	1986	1990	1994	1993	1969	1934	1940	1923	1918	1932	1952	1954	1952	1959	1951	1947	1957	1953	1951	1949	1973	1971	1945	1960	1963	1966	1977	1980	1985	1969	1962	1973	1992	1992	1990	1974	1975	1957	1953	1956	1958	1959	1950	1941	1936	1952	1940	1943	1948	1946	1958	1960	1963	1973	1981	1962	1960	1948	1981	1983	1973	1969	1974	1961	1952	1963	1967	1959	1955	1944	1932	1949	1940	1943	1937	1932	1934	1946	1947	1957	1976	1990	1994	1959	1952	1945	1941	1928	1923	1917	1916	1936	1959	1973	1981	1992	2004	2001	1990	1966	1949	1939	1933	1927	1926	1937	1953	1962	1972	1977	1986	1984	1973	1940	1918	1909	1926	1926	1946	1949	1965	1969	1971	1969	1971	1970	1981	2001	2016	2000	1983	1973	1946	1917	1898	1912	1924	1927	1924	1918	1919	1934	1958	1972	1976	1958	1945	1938	1927	1926	1937	1943	1941	1937	1946	1939	1921	1914	1914	1915	1914	1931	1960	1969	1974	1983	1992	1986	1958	1948	1959	1966	1963	1959	1960	1966	1964	1951	1941	1935	1927	1932	1940	1947	1947	1955	1960	1966	1957	1944	1920	1906	1919	1953	1986	2002	1996	1982	1975	1976	1973	1993	1995	1995	1976	1962	1944	1937	1964	1976	1964	1956	1943	1897	1937	2130	0	0	0	0	0	0	0	0	0	0	0	0	0	0	0	0	0	0	0	0	0	0	0	0	0	0	0	0	0	0	0	0	0	0	0	0	0	0	0	0	0	0	0	0	0	0	0	0	0	0	0	0	0	0	0	0	0	0	0	0	0	0	0	0	0	0	0	0	0	0	0	0	0	0	0	0	0	0	0	0	0	0	0	0	0	0	0	0	0	0	0	0	0	0	0	0	0	0	0	0	0	0	0	0	0	0	0	0	0	0	0	0	0	0	0	0	0	0	0	0	0	0	0	0	0	0	0	0	0	0	0	0	0	0	0
0	0	0	0	0	0	0	0	0	0	0	0	0	0	0	0	0	0	0	0	0	0	0	0	0	0	0	0	0	0	0	0	0	0	0	0	0	0	0	0	0	0	0	0	0	0	0	0	0	0	0	0	0	0	0	0	0	0	0	0	0	0	0	0	0	0	0	0	0	0	0	0	0	0	0	0	0	0	0	0	0	0	0	0	0	0	0	0	0	0	0	0	0	0	0	0	0	0	0	0	0	0	0	0	0	0	0	0	0	0	0	0	0	0	0	0	0	0	0	0	0	0	0	0	0	0	0	1904	1912	1938	1920	1896	1877	1877	1889	1890	1896	1907	1911	1911	1913	1900	1894	1901	1899	1887	1880	1882	1894	1897	1880	1852	1844	1839	1865	1884	1904	1910	1896	1896	1885	1883	1879	1885	1887	1903	1914	1940	1953	1967	1969	1964	1958	1955	1943	1931	1922	1918	1918	1918	1916	1909	1909	1932	1932	1964	1976	1958	1936	1915	1893	1891	1897	1901	1909	1914	1923	1938	1941	1927	1916	1908	1912	1908	1910	1907	1910	1921	1928	1970	1975	1975	1921	1893	1873	1880	1883	1883	1898	1918	1936	1945	1943	1931	1929	1939	1939	1956	1959	1956	1952	1935	1922	1931	1935	1925	1924	1934	1957	1962	1963	1960	1958	1948	1945	1934	1942	1937	1953	1932	1921	1910	1909	1903	1892	1892	1898	1913	1955	1960	1958	1946	1948	1967	1985	1977	1980	1962	1940	1918	1896	1897	1896	1910	1914	1923	1924	1947	1955	1971	1975	1960	1953	1936	1969	1972	1975	1976	1984	1968	1969	1983	1978	1974	1936	1930	1927	1918	1942	1954	1951	1934	1922	1948	1956	1951	1947	1948	1941	1953	1953	1952	1974	1981	1963	1961	1962	1955	1969	1969	1980	1958	1980	1988	1982	1975	1976	1959	1953	1952	1945	1941	1934	1944	1945	1931	1940	1947	1960	1959	1949	1960	1964	1976	1958	1957	1951	1969	1976	1967	1961	1962	1960	1950	1948	1952	1950	1954	1950	1958	1969	1955	1956	1932	1912	1924	1924	1932	1943	1968	1982	1980	1978	1972	1943	1933	1924	1913	1906	1906	1916	1946	1963	1970	1985	2000	2004	1990	1966	1949	1934	1932	1920	1906	1924	1951	1968	1964	1967	1965	1971	1967	1951	1920	1922	1935	1935	1940	1956	1960	1965	1967	1975	1977	1979	1984	1985	2005	2001	1993	1982	1969	1946	1926	1926	1933	1928	1915	1912	1926	1940	1962	1976	1967	1953	1939	1931	1920	1932	1941	1951	1938	1937	1937	1945	1935	1927	1919	1919	1910	1928	1950	1974	1983	1987	1980	1960	1945	1952	1961	1959	1958	1953	1952	1961	1961	1952	1943	1935	1935	1939	1936	1942	1942	1947	1955	1960	1966	1952	1933	1919	1927	1962	1990	1999	1994	1979	1965	1968	1988	2000	2005	2005	1995	1982	1966	1970	1981	1989	1973	1957	1892	1946	1938	2181	0	0	0	0	0	0	0	0	0	0	0	0	0	0	0	0	0	0	0	0	0	0	0	0	0	0	0	0	0	0	0	0	0	0	0	0	0	0	0	0	0	0	0	0	0	0	0	0	0	0	0	0	0	0	0	0	0	0	0	0	0	0	0	0	0	0	0	0	0	0	0	0	0	0	0	0	0	0	0	0	0	0	0	0	0	0	0	0	0	0	0	0	0	0	0	0	0	0	0	0	0	0	0	0	0	0	0	0	0	0	0	0	0	0	0	0	0	0	0	0	0	0	0	0	0	0	0	0	0	0	0	0	0	0	0
0	0	0	0	0	0	0	0	0	0	0	0	0	0	0	0	0	0	0	0	0	0	0	0	0	0	0	0	0	0	0	0	0	0	0	0	0	0	0	0	0	0	0	0	0	0	0	0	0	0	0	0	0	0	0	0	0	0	0	0	0	0	0	0	0	0	0	0	0	0	0	0	0	0	0	0	0	0	0	0	0	0	0	0	0	0	0	0	0	0	0	0	0	0	0	0	0	0	0	0	0	0	0	0	0	0	0	0	0	0	0	0	0	0	0	0	0	0	0	0	0	0	0	0	0	0	0	1879	1902	1938	1940	1925	1899	1893	1893	1890	1882	1892	1892	1892	1887	1883	1892	1908	1914	1889	1880	1881	1889	1892	1880	1862	1851	1855	1874	1902	1921	1912	1901	1901	1887	1877	1873	1873	1888	1908	1925	1938	1952	1959	1957	1950	1943	1948	1951	1942	1926	1914	1907	1911	1910	1906	1913	1940	1940	1958	1972	1950	1932	1913	1895	1884	1883	1889	1907	1917	1923	1932	1918	1919	1911	1907	1909	1906	1907	1909	1915	1922	1929	1964	1972	1977	1959	1907	1883	1875	1880	1888	1917	1934	1953	1956	1954	1942	1943	1943	1943	1954	1962	1960	1948	1935	1925	1935	1940	1940	1918	1913	1923	1926	1927	1933	1939	1940	1952	1948	1943	1935	1930	1931	1920	1907	1896	1894	1890	1895	1898	1947	1960	1960	1960	1952	1951	1967	1982	1985	1977	1966	1932	1912	1896	1900	1903	1921	1927	1945	1937	1943	1956	1967	1970	1957	1949	1948	1954	1955	1991	1976	1977	1978	1975	1973	1981	1955	1928	1926	1940	1959	1971	1987	1987	1948	1929	1954	1959	1961	1958	1954	1935	1938	1954	1967	1975	1975	1985	1971	1945	1976	1959	1967	1978	1985	1955	1986	1980	1965	1968	1951	1943	1947	1948	1960	1934	1940	1939	1931	1930	1936	1960	1955	1938	1946	1953	1965	1970	1957	1965	1967	1976	1961	1950	1949	1950	1948	1947	1952	1955	1948	1952	1966	1968	1957	1953	1918	1905	1902	1913	1924	1943	1969	1980	1971	1971	1983	1952	1940	1923	1925	1935	1943	1936	1932	1960	1966	1982	2000	1999	1987	1966	1945	1929	1923	1898	1894	1914	1942	1958	1954	1950	1952	1955	1961	1961	1938	1935	1933	1933	1938	1949	1961	1969	1976	1977	1982	1974	1964	1955	1974	1987	1998	2006	2009	1980	1955	1958	1947	1929	1911	1912	1928	1936	1926	1922	1925	1921	1927	1935	1955	1968	1957	1955	1953	1958	1944	1950	1951	1937	1922	1922	1914	1935	1947	1970	1984	1985	1978	1959	1948	1963	1971	1968	1960	1947	1948	1953	1960	1958	1943	1926	1943	1940	1937	1932	1932	1936	1956	1969	1971	1964	1940	1928	1938	1955	1963	1949	1929	1920	1929	1935	1947	1945	1942	1942	1942	1949	1957	1978	2001	2016	1998	1974	1959	1942	0	0	0	0	0	0	0	0	0	0	0	0	0	0	0	0	0	0	0	0	0	0	0	0	0	0	0	0	0	0	0	0	0	0	0	0	0	0	0	0	0	0	0	0	0	0	0	0	0	0	0	0	0	0	0	0	0	0	0	0	0	0	0	0	0	0	0	0	0	0	0	0	0	0	0	0	0	0	0	0	0	0	0	0	0	0	0	0	0	0	0	0	0	0	0	0	0	0	0	0	0	0	0	0	0	0	0	0	0	0	0	0	0	0	0	0	0	0	0	0	0	0	0	0	0	0	0	0	0	0	0	0	0	0	0	0	0
0	0	0	0	0	0	0	0	0	0	0	0	0	0	0	0	0	0	0	0	0	0	0	0	0	0	0	0	0	0	0	0	0	0	0	0	0	0	0	0	0	0	0	0	0	0	0	0	0	0	0	0	0	0	0	0	0	0	0	0	0	0	0	0	0	0	0	0	0	0	0	0	0	0	0	0	0	0	0	0	0	0	0	0	0	0	0	0	0	0	0	0	0	0	0	0	0	0	0	0	0	0	0	0	0	0	0	0	0	0	0	0	0	0	0	0	0	0	0	0	0	0	0	0	0	0	0	1834	1882	1901	1916	1914	1914	1913	1910	1902	1884	1887	1887	1887	1880	1884	1900	1922	1920	1893	1878	1884	1884	1890	1886	1882	1878	1885	1909	1931	1929	1913	1897	1897	1872	1862	1874	1879	1903	1915	1943	1943	1929	1925	1918	1925	1929	1934	1940	1939	1931	1916	1906	1907	1911	1914	1918	1932	1932	1940	1938	1928	1907	1907	1898	1889	1881	1893	1906	1923	1925	1928	1915	1916	1909	1914	1907	1898	1901	1903	1908	1919	1914	1943	1960	1963	1948	1917	1891	1879	1889	1897	1917	1956	1967	1961	1950	1938	1940	1940	1950	1961	1961	1945	1942	1925	1926	1937	1945	1953	1923	1899	1894	1908	1911	1915	1920	1933	1947	1953	1955	1935	1915	1913	1907	1899	1890	1890	1912	1937	1953	1960	1960	1954	1952	1952	1959	1975	1987	1980	1969	1955	1932	1913	1916	1906	1902	1925	1942	1944	1944	1951	1966	1962	1960	1954	1939	1942	1961	1985	1976	1961	1956	1952	1950	1957	1948	1946	1901	1900	1905	1940	1961	1975	1975	1967	1941	1963	1967	1961	1958	1955	1928	1935	1971	1973	1976	2000	1999	1966	1967	1969	1977	1973	1937	1983	1943	1956	1961	1937	1940	1952	1951	1953	1953	1946	1929	1943	1930	1935	1937	1941	1961	1958	1948	1946	1945	1951	1972	1973	1964	1961	1953	1942	1935	1942	1941	1949	1951	1957	1956	1956	1966	1971	1964	1962	1935	1912	1906	1904	1914	1927	1949	1972	1975	1975	1964	1967	1956	1936	1929	1928	1934	1945	1951	1966	2002	1994	1954	1939	1947	1952	1951	1943	1943	1917	1876	1901	1958	1992	1993	1966	1942	1960	1995	2014	1992	1952	1929	1919	1919	1918	1930	1958	2003	2015	2004	1990	1978	1962	1966	1982	1995	2025	2042	2037	2060	2068	2023	2001	1974	1929	1939	1957	1962	1983	2015	2040	2074	2123	2166	2190	2159	2101	1938	1935	1954	1960	1967	2011	1994	1937	1937	1934	1946	1957	1971	1985	1985	1986	1983	1965	1967	1976	1981	1968	1949	1950	1962	1970	1944	1926	1929	1936	1947	1945	1941	1941	1953	1973	1994	1999	1984	1959	1944	1940	1944	1942	1937	1920	1929	1930	1947	1958	1958	1966	1966	1968	1976	0	0	0	0	0	0	0	0	0	0	0	0	0	0	0	0	0	0	0	0	0	0	0	0	0	0	0	0	0	0	0	0	0	0	0	0	0	0	0	0	0	0	0	0	0	0	0	0	0	0	0	0	0	0	0	0	0	0	0	0	0	0	0	0	0	0	0	0	0	0	0	0	0	0	0	0	0	0	0	0	0	0	0	0	0	0	0	0	0	0	0	0	0	0	0	0	0	0	0	0	0	0	0	0	0	0	0	0	0	0	0	0	0	0	0	0	0	0	0	0	0	0	0	0	0	0	0	0	0	0	0	0	0	0	0	0	0	0	0	0	0	0	0	0	0
0	0	0	0	0	0	0	0	0	0	0	0	0	0	0	0	0	0	0	0	0	0	0	0	0	0	0	0	0	0	0	0	0	0	0	0	0	0	0	0	0	0	0	0	0	0	0	0	0	0	0	0	0	0	0	0	0	0	0	0	0	0	0	0	0	0	0	0	0	0	0	0	0	0	0	0	0	0	0	0	0	0	0	0	0	0	0	0	0	0	0	0	0	0	0	0	0	0	0	0	0	0	0	0	0	0	0	0	0	0	0	0	0	0	0	0	0	0	0	0	0	0	0	0	0	0	0	1783	1842	1868	1872	1876	1887	1899	1909	1896	1878	1883	1880	1880	1887	1901	1916	1920	1919	1894	1888	1895	1892	1897	1897	1893	1898	1912	1935	1950	1936	1911	1885	1885	1870	1863	1869	1892	1910	1924	1945	1950	1925	1900	1891	1894	1915	1927	1935	1936	1931	1918	1905	1903	1906	1922	1924	1920	1920	1920	1907	1897	1894	1890	1886	1887	1887	1896	1909	1916	1918	1920	1922	1918	1919	1919	1910	1896	1891	1892	1900	1907	1910	1925	1945	1952	1939	1917	1904	1897	1900	1908	1925	1962	1964	1950	1942	1927	1935	1935	1945	1955	1965	1947	1932	1913	1910	1937	1953	1959	1928	1902	1904	1907	1911	1915	1914	1914	1942	1949	1951	1945	1917	1911	1905	1896	1896	1900	1915	1923	1939	1955	1957	1951	1937	1937	1952	1972	1985	1973	1953	1955	1947	1936	1929	1925	1918	1930	1943	1950	1963	1965	1968	1958	1961	1952	1943	1954	1964	1961	1961	1964	1960	1948	1955	1950	1963	1928	1912	1900	1902	1923	1959	1959	1962	1964	1980	1963	1968	1968	1960	1958	1944	1941	1976	1989	1978	1999	1990	1966	1965	1969	1973	1966	1934	1917	1959	1941	1936	1936	1950	1950	1952	1949	1952	1941	1928	1927	1923	1929	1930	1950	1958	1964	1960	1959	1950	1942	1941	1970	1969	1958	1948	1949	1957	1961	1944	1918	1924	1939	1952	1961	1958	1969	1966	1974	1965	1956	1958	1976	2000	2017	2003	1980	1945	1934	1937	1972	2003	2005	2007	1969	1971	1991	2024	2051	2062	2043	1995	1971	1964	1993	2054	2085	2126	2155	2131	2097	2098	2104	2086	2078	2096	2139	2179	2188	2164	2112	2079	2108	2108	2147	2197	2218	2217	2197	2201	2243	2299	2329	2360	2375	2340	2279	2242	2231	2163	2130	2105	2087	2061	1987	1970	1975	1990	2025	2064	2100	2153	2222	2289	2314	2282	2220	2124	1935	1944	1961	2017	2049	2042	1955	1955	1945	1956	1966	1969	1994	1992	1997	1992	1980	1982	1970	1965	1969	1970	1979	1985	1978	1961	1940	1935	1945	1954	1958	1961	1961	1976	2000	2012	2016	1996	1980	1976	1974	1967	1956	1942	1928	1938	1947	1954	1972	1978	2003	2003	2014	0	0	0	0	0	0	0	0	0	0	0	0	0	0	0	0	0	0	0	0	0	0	0	0	0	0	0	0	0	0	0	0	0	0	0	0	0	0	0	0	0	0	0	0	0	0	0	0	0	0	0	0	0	0	0	0	0	0	0	0	0	0	0	0	0	0	0	0	0	0	0	0	0	0	0	0	0	0	0	0	0	0	0	0	0	0	0	0	0	0	0	0	0	0	0	0	0	0	0	0	0	0	0	0	0	0	0	0	0	0	0	0	0	0	0	0	0	0	0	0	0	0	0	0	0	0	0	0	0	0	0	0	0	0	0	0	0	0	0	0	0	0	0	0	0	0
0	0	0	0	0	0	0	0	0	0	0	0	0	0	0	0	0	0	0	0	0	0	0	0	0	0	0	0	0	0	0	0	0	0	0	0	0	0	0	0	0	0	0	0	0	0	0	0	0	0	0	0	0	0	0	0	0	0	0	0	0	0	0	0	0	0	0	0	0	0	0	0	0	0	0	0	0	0	0	0	0	0	0	0	0	0	0	0	0	0	0	0	0	0	0	0	0	0	0	0	0	0	0	0	0	0	0	0	0	0	0	0	0	0	0	0	0	0	0	0	0	0	0	0	0	0	0	1761	1815	1842	1841	1848	1861	1884	1901	1899	1873	1877	1872	1872	1898	1915	1915	1909	1905	1903	1897	1890	1888	1892	1881	1883	1885	1919	1934	1943	1925	1900	1900	1879	1866	1867	1879	1891	1901	1924	1933	1933	1902	1874	1861	1871	1899	1917	1926	1923	1929	1921	1912	1902	1911	1925	1927	1926	1926	1906	1896	1884	1884	1883	1884	1878	1887	1895	1907	1906	1907	1905	1915	1908	1914	1916	1909	1891	1879	1888	1900	1910	1911	1911	1932	1940	1942	1925	1909	1916	1915	1915	1928	1945	1956	1937	1909	1914	1924	1924	1947	1959	1961	1934	1912	1904	1913	1934	1950	1954	1937	1914	1917	1915	1917	1919	1909	1916	1933	1958	1962	1945	1929	1931	1929	1929	1917	1904	1909	1918	1924	1943	1947	1932	1918	1922	1932	1962	1983	1976	1965	1954	1949	1946	1946	1936	1943	1941	1946	1955	1968	1963	1967	1962	1964	1959	1957	1961	1969	1965	1957	1941	1934	1947	1932	1979	1953	1958	1943	1958	1940	1934	1941	1959	1959	1960	1975	2002	1990	2001	1983	1967	1961	1974	1970	1981	2021	1994	1997	1996	1984	1974	1952	1946	1953	1947	1948	1940	1934	1937	1948	1949	1951	1953	1957	1926	1931	1926	1919	1918	1892	1959	1985	1994	1999	1964	1962	1960	1989	2008	2014	2003	1994	1999	2029	2069	2104	2120	2110	2077	2077	2095	2186	2120	2077	2071	2098	2140	2162	2154	2122	2104	2095	2089	2107	2154	2185	2171	2164	2165	2193	2223	2262	2307	2332	2356	2371	2361	2351	2357	2354	2336	2294	2302	2317	2302	2275	2180	2152	2127	2109	2108	2128	2173	2225	2270	2287	2313	2288	2274	2272	2272	2294	2313	2282	2297	2298	2338	2389	2401	2418	2412	2388	2338	2286	2286	2250	2255	2270	2253	2242	2286	2294	2285	2239	2228	2244	2261	2259	2294	2362	2368	2340	2276	2150	1954	1954	1965	2001	1997	1993	1965	1965	1959	1959	1962	1969	1991	2010	2004	2001	1982	1979	1966	1963	1963	1977	1986	1983	1983	1970	1957	1953	1964	1968	1974	1983	1983	1991	2011	2017	2008	1996	1986	1980	1980	1978	1978	1972	1944	1944	1960	1961	1975	2000	2032	2032	2036	0	0	0	0	0	0	0	0	0	0	0	0	0	0	0	0	0	0	0	0	0	0	0	0	0	0	0	0	0	0	0	0	0	0	0	0	0	0	0	0	0	0	0	0	0	0	0	0	0	0	0	0	0	0	0	0	0	0	0	0	0	0	0	0	0	0	0	0	0	0	0	0	0	0	0	0	0	0	0	0	0	0	0	0	0	0	0	0	0	0	0	0	0	0	0	0	0	0	0	0	0	0	0	0	0	0	0	0	0	0	0	0	0	0	0	0	0	0	0	0	0	0	0	0	0	0	0	0	0	0	0	0	0	0	0	0	0	0	0	0	0	0	0	0	0	0
0	0	0	0	0	0	0	0	0	0	0	0	0	0	0	0	0	0	0	0	0	0	0	0	0	0	0	0	0	0	0	0	0	0	0	0	0	0	0	0	0	0	0	0	0	0	0	0	0	0	0	0	0	0	0	0	0	0	0	0	0	0	0	0	0	0	0	0	0	0	0	0	0	0	0	0	0	0	0	0	0	0	0	0	0	0	0	0	0	0	0	0	0	0	0	0	0	0	0	0	0	0	0	0	0	0	0	0	0	0	0	0	0	0	0	0	0	0	0	0	0	0	0	0	0	0	0	1768	1822	1848	1847	1854	1857	1883	1901	1898	1893	1879	1881	1881	1902	1926	1920	1914	1899	1894	1893	1889	1877	1877	1864	1868	1884	1914	1928	1934	1907	1885	1885	1868	1874	1876	1888	1888	1894	1901	1907	1912	1897	1864	1850	1855	1876	1902	1916	1914	1919	1927	1913	1905	1904	1915	1929	1931	1931	1915	1908	1898	1879	1874	1877	1881	1893	1902	1916	1912	1915	1912	1901	1892	1896	1906	1907	1891	1882	1888	1894	1905	1906	1903	1922	1949	1954	1952	1937	1928	1929	1931	1926	1936	1939	1931	1924	1917	1918	1918	1930	1945	1960	1954	1918	1911	1919	1931	1944	1943	1936	1921	1926	1927	1931	1931	1928	1921	1935	1955	1956	1955	1940	1945	1948	1947	1933	1922	1909	1900	1921	1932	1935	1917	1924	1903	1888	1916	1953	1974	1960	1932	1916	1918	1937	1962	1991	1997	1956	1943	1946	1949	1950	1945	1944	1946	1965	2005	2022	2010	1963	1962	1959	1952	1992	2011	2031	1973	1964	1956	1968	1969	1977	1953	1958	2019	1997	1993	1998	2018	2021	1991	1983	1985	1988	1999	1964	1943	1937	1941	1946	1953	1950	1963	1965	1969	1963	1951	1958	1958	1959	1958	1966	1985	1946	1947	1935	1913	1935	1953	1918	1928	2085	2179	2190	2246	2327	2398	2425	2416	2390	2365	2356	2361	2418	2505	2450	2317	2289	2283	2373	2368	2314	2241	2154	2122	2131	2169	2198	2187	2141	2121	2112	2125	2128	2196	2210	2200	2187	2185	2212	2258	2299	2339	2366	2399	2416	2414	2402	2416	2409	2404	2398	2389	2430	2451	2540	2669	2684	2674	2669	2675	2653	2670	2684	2551	2412	2427	2424	2419	2432	2432	2459	2478	2443	2451	2490	2493	2538	2642	2684	2500	2442	2396	2348	2308	2307	2319	2323	2335	2335	2332	2336	2328	2326	2318	2316	2292	2305	2341	2391	2398	2354	2274	2126	1966	1963	1967	1982	1999	1998	1973	1973	1954	1960	1956	1958	1979	1992	1986	1983	1983	1974	1961	1961	1972	1988	1997	2000	1981	1972	1975	1973	1989	1998	1993	1997	1997	1995	2003	2002	1997	1985	1976	1974	1976	1980	1982	1980	1954	1952	1968	1968	1971	1995	2039	2039	2018	0	0	0	0	0	0	0	0	0	0	0	0	0	0	0	0	0	0	0	0	0	0	0	0	0	0	0	0	0	0	0	0	0	0	0	0	0	0	0	0	0	0	0	0	0	0	0	0	0	0	0	0	0	0	0	0	0	0	0	0	0	0	0	0	0	0	0	0	0	0	0	0	0	0	0	0	0	0	0	0	0	0	0	0	0	0	0	0	0	0	0	0	0	0	0	0	0	0	0	0	0	0	0	0	0	0	0	0	0	0	0	0	0	0	0	0	0	0	0	0	0	0	0	0	0	0	0	0	0	0	0	0	0	0	0	0	0	0	0	0	0	0	0	0	0	0
0	0	0	0	0	0	0	0	0	0	0	0	0	0	0	0	0	0	0	0	0	0	0	0	0	0	0	0	0	0	0	0	0	0	0	0	0	0	0	0	0	0	0	0	0	0	0	0	0	0	0	0	0	0	0	0	0	0	0	0	0	0	0	0	0	0	0	0	0	0	0	0	0	0	0	0	0	0	0	0	0	0	0	0	0	0	0	0	0	0	0	0	0	0	0	0	0	0	0	0	0	0	0	0	0	0	0	0	0	0	0	0	0	0	0	0	0	0	0	0	0	0	0	0	0	0	0	1787	1854	1876	1877	1884	1883	1891	1902	1901	1902	1893	1894	1894	1917	1931	1926	1916	1905	1893	1890	1898	1881	1866	1860	1867	1889	1906	1916	1922	1900	1885	1885	1874	1876	1890	1886	1886	1889	1896	1905	1905	1896	1869	1845	1844	1860	1890	1901	1908	1909	1913	1909	1912	1911	1921	1933	1938	1938	1930	1908	1899	1890	1884	1887	1891	1909	1925	1937	1929	1920	1910	1889	1885	1878	1882	1891	1896	1887	1898	1911	1921	1919	1933	1960	1968	1985	1976	1963	1947	1948	1947	1936	1937	1941	1946	1968	1984	1986	1986	1983	1965	1959	1951	1927	1897	1878	1892	1903	1897	1879	1870	1871	1882	1876	1891	1911	1931	1974	1992	2002	2022	2028	2004	1995	2002	2011	2005	1983	1939	1935	1954	1974	1984	1992	1980	1985	2004	2047	2032	2005	1962	1926	1931	1964	2003	2054	2095	2107	2152	2188	2094	2055	2033	1999	1992	2014	2063	2089	2102	2107	2139	2143	2113	2088	2076	2070	2029	1966	1939	1948	1949	1953	1971	2011	2002	1985	1967	2000	2025	2002	2000	2015	2006	1995	1978	1956	1943	1935	1938	1943	1953	1943	1946	1964	1970	1977	1981	1978	1970	1958	1969	1981	1994	1992	1952	1947	1961	1945	1915	1929	1934	2100	2206	2238	2298	2372	2431	2450	2424	2403	2388	2389	2408	2452	2557	2600	2510	2484	2441	2472	2473	2456	2497	2606	2654	2655	2659	2650	2647	2649	2647	2642	2655	2675	2716	2713	2716	2701	2688	2686	2744	2774	2775	2774	2760	2756	2765	2771	2743	2715	2697	2718	2750	2796	2826	2837	2824	2821	2819	2908	2923	2897	2882	2848	2711	2643	2601	2618	2641	2643	2643	2652	2644	2658	2668	2687	2682	2700	2714	2701	2672	2456	2415	2389	2325	2336	2334	2328	2326	2328	2343	2344	2337	2335	2327	2332	2323	2305	2357	2413	2426	2366	2282	2127	1965	1961	1950	1975	2014	2010	1992	1992	1948	1938	1922	1925	1947	1966	1978	1966	1966	1961	1961	1969	1977	1991	1995	1992	1974	1968	1978	2002	2009	2017	2020	2009	2009	1990	1996	1995	1985	1976	1967	1970	1974	1980	1986	1979	1959	1959	1977	1976	1962	1999	2019	2019	1978	0	0	0	0	0	0	0	0	0	0	0	0	0	0	0	0	0	0	0	0	0	0	0	0	0	0	0	0	0	0	0	0	0	0	0	0	0	0	0	0	0	0	0	0	0	0	0	0	0	0	0	0	0	0	0	0	0	0	0	0	0	0	0	0	0	0	0	0	0	0	0	0	0	0	0	0	0	0	0	0	0	0	0	0	0	0	0	0	0	0	0	0	0	0	0	0	0	0	0	0	0	0	0	0	0	0	0	0	0	0	0	0	0	0	0	0	0	0	0	0	0	0	0	0	0	0	0	0	0	0	0	0	0	0	0	0	0	0	0	0	0	0	0	0	0	0
0	0	0	0	0	0	0	0	0	0	0	0	0	0	0	0	0	0	0	0	0	0	0	0	0	0	0	0	0	0	0	0	0	0	0	0	0	0	0	0	0	0	0	0	0	0	0	0	0	0	0	0	0	0	0	0	0	0	0	0	0	0	0	0	0	0	0	0	0	0	0	0	0	0	0	0	0	0	0	0	0	0	0	0	0	0	0	0	0	0	0	0	0	0	0	0	0	0	0	0	0	0	0	0	0	0	0	0	0	0	0	0	0	0	0	0	0	0	0	0	0	0	0	0	0	0	0	1811	1880	1897	1886	1901	1904	1908	1908	1906	1898	1883	1911	1911	1927	1935	1939	1927	1909	1895	1893	1890	1885	1879	1884	1886	1897	1917	1918	1919	1909	1909	1909	1900	1896	1898	1893	1898	1898	1905	1917	1917	1910	1888	1861	1867	1880	1898	1895	1899	1905	1892	1891	1899	1914	1921	1939	1939	1951	1947	1919	1911	1906	1899	1941	1995	2039	2025	1981	1932	1920	1932	1950	1955	1919	1895	1906	1901	1917	1957	1987	1978	1991	2013	2006	1981	1959	1932	1915	1919	1948	2002	2023	2002	1984	1978	1982	2000	2020	2020	2045	2055	2070	2107	2131	2099	1998	1960	1960	1981	1990	1956	2012	2004	2015	1977	1991	2040	2078	2081	2097	2167	2170	2178	2202	2238	2280	2288	2265	2259	2270	2307	2376	2417	2435	2449	2419	2375	2315	2278	2277	2363	2385	2427	2474	2513	2371	2372	2340	2319	2362	2139	2069	2036	2010	2016	2020	2061	2087	2103	2121	2164	2171	2148	2101	2090	2074	2064	2016	1929	1944	1957	1939	1977	2006	1970	1958	1991	1997	1987	1987	1993	1989	1995	1988	2001	1976	1943	1928	1938	1944	1955	1948	1945	1948	1964	1978	1983	1982	1981	1972	1964	1993	1993	1993	1958	1947	1970	1964	1999	1964	2175	2670	2778	2825	2851	2863	2877	2842	2787	2811	2815	2850	2842	2832	2868	2898	2914	2905	2861	2783	2777	2806	2823	2865	2881	2879	2849	2839	2824	2801	2787	2807	2827	2845	2883	2890	2920	2912	2890	2862	2854	2833	2862	2870	2869	2856	2843	2840	2832	2818	2817	2822	2838	2847	2836	2810	2799	2801	2869	2925	2934	2908	2871	2862	2832	2675	2621	2627	2647	2666	2666	2664	2645	2666	2684	2676	2676	2690	2707	2706	2678	2459	2418	2398	2327	2331	2357	2355	2324	2323	2326	2325	2323	2321	2320	2321	2317	2303	2359	2419	2433	2376	2255	2188	1958	1944	1955	1979	2000	2007	1972	1972	1922	1910	1890	1893	1915	1940	1956	1953	1937	1930	1941	1961	1980	1992	1986	1972	1959	1964	1984	2007	2017	2022	2015	2008	2008	1987	2003	1992	1983	1974	1978	1987	1985	1982	1975	1963	1955	1988	1995	1972	1950	1994	1991	1991	1940	0	0	0	0	0	0	0	0	0	0	0	0	0	0	0	0	0	0	0	0	0	0	0	0	0	0	0	0	0	0	0	0	0	0	0	0	0	0	0	0	0	0	0	0	0	0	0	0	0	0	0	0	0	0	0	0	0	0	0	0	0	0	0	0	0	0	0	0	0	0	0	0	0	0	0	0	0	0	0	0	0	0	0	0	0	0	0	0	0	0	0	0	0	0	0	0	0	0	0	0	0	0	0	0	0	0	0	0	0	0	0	0	0	0	0	0	0	0	0	0	0	0	0	0	0	0	0	0	0	0	0	0	0	0	0	0	0	0	0	0	0	0	0	0	0	0
0	0	0	0	0	0	0	0	0	0	0	0	0	0	0	0	0	0	0	0	0	0	0	0	0	0	0	0	0	0	0	0	0	0	0	0	0	0	0	0	0	0	0	0	0	0	0	0	0	0	0	0	0	0	0	0	0	0	0	0	0	0	0	0	0	0	0	0	0	0	0	0	0	0	0	0	0	0	0	0	0	0	0	0	0	0	0	0	0	0	0	0	0	0	0	0	0	0	0	0	0	0	0	0	0	0	0	0	0	0	0	0	0	0	0	0	0	0	0	0	0	0	0	0	0	0	0	1830	1868	1885	1884	1902	1915	1922	1909	1889	1867	1870	1894	1894	1925	1935	1927	1913	1911	1905	1888	1883	1883	1885	1891	1899	1921	1925	1934	1931	1921	1924	1924	1915	1901	1901	1917	1941	1938	1909	1909	1917	1901	1885	1876	1882	1897	1902	1903	1905	1891	1881	1881	1886	1906	1923	1932	1932	1911	1916	1935	1907	1884	1887	1904	2073	2210	2244	2231	2183	2142	2127	2132	2176	2204	2186	2167	2168	2174	2080	2061	2076	2091	2104	2143	2182	2270	2361	2427	2317	2304	2343	2351	2321	2309	2321	2301	2222	2220	2220	2243	2247	2416	2257	2302	2295	2110	2010	1988	2040	2081	2000	2052	2039	2049	1995	2012	2061	2090	2107	2125	2193	2199	2215	2243	2278	2304	2305	2300	2292	2299	2347	2419	2462	2474	2488	2465	2410	2366	2334	2340	2405	2406	2446	2500	2546	2492	2502	2461	2460	2530	2623	2656	2664	2691	2718	2752	2715	2765	2789	2812	2782	2768	2763	2777	2722	2408	2106	2102	1950	1946	1956	1947	1965	1968	1974	1982	1993	1987	1991	1996	1993	1998	1994	2007	1995	1991	1967	1947	1946	1943	1959	1962	1961	1970	1965	1971	1975	1974	1985	1967	1967	1987	1983	1984	1962	1966	1966	1985	2012	2066	2565	2747	2825	2926	2950	2960	2922	2898	2900	2925	2931	2936	2937	2915	2908	2907	2905	2882	2887	2835	2779	2805	2833	2871	2891	2908	2896	2883	2846	2818	2843	2851	2872	2865	2865	2883	2889	2894	2882	2872	2848	2842	2847	2869	2874	2865	2852	2852	2855	2849	2844	2843	2854	2843	2819	2817	2812	2797	2880	2906	2911	2890	2864	2857	2825	2691	2600	2605	2634	2649	2649	2646	2639	2638	2652	2668	2655	2671	2697	2748	2730	2526	2422	2395	2313	2320	2361	2362	2335	2306	2295	2298	2298	2290	2296	2306	2310	2312	2345	2419	2433	2387	2270	2182	1960	1940	1949	1976	1998	1978	1965	1965	1921	1895	1884	1882	1899	1924	1938	1930	1920	1910	1914	1940	1981	1992	1984	1975	1965	1976	1986	1993	2001	2007	1992	1992	1992	2003	2001	1996	1980	1979	1986	1986	1980	1983	1974	1949	1954	1993	1995	1970	1948	1972	1969	1920	1920	0	0	0	0	0	0	0	0	0	0	0	0	0	0	0	0	0	0	0	0	0	0	0	0	0	0	0	0	0	0	0	0	0	0	0	0	0	0	0	0	0	0	0	0	0	0	0	0	0	0	0	0	0	0	0	0	0	0	0	0	0	0	0	0	0	0	0	0	0	0	0	0	0	0	0	0	0	0	0	0	0	0	0	0	0	0	0	0	0	0	0	0	0	0	0	0	0	0	0	0	0	0	0	0	0	0	0	0	0	0	0	0	0	0	0	0	0	0	0	0	0	0	0	0	0	0	0	0	0	0	0	0	0	0	0	0	0	0	0	0	0	0	0	0	0	0
0	0	0	0	0	0	0	0	0	0	0	0	0	0	0	0	0	0	0	0	0	0	0	0	0	0	0	0	0	0	0	0	0	0	0	0	0	0	0	0	0	0	0	0	0	0	0	0	0	0	0	0	0	0	0	0	0	0	0	0	0	0	0	0	0	0	0	0	0	0	0	0	0	0	0	0	0	0	0	0	0	0	0	0	0	0	0	0	0	0	0	0	0	0	0	0	0	0	0	0	0	0	0	0	0	0	0	0	0	0	0	0	0	0	0	0	0	0	0	0	0	0	0	0	0	0	0	0	1863	1876	1880	1898	1907	1897	1814	1780	1765	1775	1833	1833	1864	1881	1902	1932	1932	1917	1901	1882	1878	1883	1893	1910	1921	1932	1931	1937	1942	1941	1941	1937	1926	1914	1921	1950	1946	1911	1911	1915	1914	1911	1907	1907	1924	1931	1931	1920	1901	1914	1915	1918	1918	1912	1897	1897	1921	1909	1913	1910	1876	1874	2004	2145	2252	2298	2295	2237	2194	2164	2172	2217	2235	2235	2206	2214	2228	2203	2196	2222	2200	2154	2199	2241	2299	2428	2476	2388	2367	2391	2389	2355	2356	2365	2342	2289	2294	2294	2320	2312	2494	2500	2541	2565	2700	2726	2727	2723	2706	2673	2669	2660	2653	2638	2620	2616	2622	2649	2705	2699	2683	2665	2670	2654	2653	2639	2628	2638	2624	2648	2677	2698	2710	2699	2683	2659	2675	2712	2749	2754	2739	2738	2775	2835	2805	2797	2833	2865	2849	2861	2851	2838	2859	2908	2903	2886	2866	2888	2897	2897	2872	2863	2872	2834	2683	2270	2137	2018	1952	1960	1949	1973	1973	1962	1990	1980	1981	1990	1988	1981	1987	1996	1991	2002	2002	1998	1955	1954	1955	1969	1978	1976	1975	1972	1968	1959	1983	1997	1977	1975	1968	1979	1972	1986	1981	1961	1973	1999	2015	2605	2829	2892	2910	2964	2977	2968	2941	2922	2912	2933	2944	2939	2938	2943	2917	2904	2896	2890	2843	2811	2797	2817	2845	2880	2888	2883	2886	2878	2877	2848	2855	2868	2879	2858	2855	2856	2863	2861	2852	2839	2852	2847	2871	2899	2891	2864	2871	2887	2894	2879	2853	2854	2838	2815	2806	2806	2806	2865	2891	2899	2882	2864	2846	2820	2713	2623	2618	2637	2652	2652	2641	2613	2587	2583	2604	2626	2651	2704	2779	2747	2574	2434	2387	2300	2278	2347	2360	2336	2310	2288	2286	2280	2275	2280	2283	2295	2319	2358	2426	2436	2388	2276	2162	1969	1925	1950	1984	1994	1964	1959	1959	1941	1910	1893	1888	1910	1928	1931	1920	1919	1908	1912	1937	1962	1990	1984	1974	1963	1970	1978	1978	1983	1983	1986	1985	1985	1999	1999	1988	1967	1959	1973	1985	1981	1979	1966	1945	1948	1981	1976	1965	1950	1956	1949	1925	1925	0	0	0	0	0	0	0	0	0	0	0	0	0	0	0	0	0	0	0	0	0	0	0	0	0	0	0	0	0	0	0	0	0	0	0	0	0	0	0	0	0	0	0	0	0	0	0	0	0	0	0	0	0	0	0	0	0	0	0	0	0	0	0	0	0	0	0	0	0	0	0	0	0	0	0	0	0	0	0	0	0	0	0	0	0	0	0	0	0	0	0	0	0	0	0	0	0	0	0	0	0	0	0	0	0	0	0	0	0	0	0	0	0	0	0	0	0	0	0	0	0	0	0	0	0	0	0	0	0	0	0	0	0	0	0	0	0	0	0	0	0	0	0	0	0	0
0	0	0	0	0	0	0	0	0	0	0	0	0	0	0	0	0	0	0	0	0	0	0	0	0	0	0	0	0	0	0	0	0	0	0	0	0	0	0	0	0	0	0	0	0	0	0	0	0	0	0	0	0	0	0	0	0	0	0	0	0	0	0	0	0	0	0	0	0	0	0	0	0	0	0	0	0	0	0	0	0	0	0	0	0	0	0	0	0	0	0	0	0	0	0	0	0	0	0	0	0	0	0	0	0	0	0	0	0	0	0	0	0	0	0	0	0	0	0	0	0	0	0	0	0	0	0	0	0	0	0	0	0	0	0	0	1721	1819	1830	1830	1841	1855	1881	1934	1945	1926	1901	1896	1897	1897	1900	1912	1916	1918	1923	1934	1951	1961	1961	1960	1955	1935	1916	1915	1908	1910	1908	1915	1922	1916	1916	1912	1923	1945	1944	1930	1931	1936	1940	1932	1920	1899	1902	1902	1926	1922	1913	1905	1879	1924	2061	2182	2303	2359	2366	2316	2267	2237	2263	2295	2302	2298	2292	2292	2302	2312	2320	2332	2328	2298	2260	2296	2380	2502	2545	2543	2483	2491	2487	2473	2465	2454	2489	2446	2446	2434	2449	2547	2639	2708	2860	2886	2878	2872	2851	2837	2821	2793	2776	2781	2783	2775	2782	2775	2771	2783	2785	2811	2790	2779	2775	2784	2780	2781	2792	2780	2777	2772	2780	2787	2804	2794	2778	2767	2778	2816	2838	2842	2819	2807	2828	2850	2859	2862	2850	2864	2880	2877	2873	2877	2863	2860	2863	2882	2886	2904	2913	2911	2904	2891	2868	2884	2836	2422	2159	2054	1951	1940	1944	1981	1973	1968	1988	1991	1978	1971	1991	1978	1990	1988	1982	1987	2004	1993	1965	1965	1975	1969	1981	1987	1988	1982	1983	1961	1994	2007	2010	1981	1984	1976	1976	2005	1999	1959	1971	2026	2051	2601	2819	2876	2903	2947	2951	2957	2957	2944	2936	2947	2947	2933	2929	2926	2928	2916	2923	2897	2848	2835	2832	2811	2825	2847	2880	2881	2887	2886	2883	2866	2867	2879	2883	2860	2835	2837	2837	2840	2842	2827	2839	2872	2904	2926	2922	2888	2899	2897	2893	2884	2864	2840	2821	2814	2815	2810	2810	2852	2886	2889	2875	2862	2866	2819	2716	2671	2681	2668	2660	2660	2652	2600	2580	2555	2576	2599	2622	2701	2776	2733	2577	2413	2381	2317	2268	2340	2351	2334	2315	2297	2280	2288	2284	2282	2282	2291	2322	2358	2434	2437	2375	2275	2142	1969	1926	1941	1985	1972	1964	1958	1958	1942	1927	1912	1919	1939	1957	1951	1937	1914	1919	1924	1940	1956	1974	1982	1978	1962	1962	1976	1970	1970	1974	1976	1979	1979	1988	1988	1978	1961	1947	1961	1975	1981	1983	1973	1960	1961	1966	1966	1961	1957	1961	1946	1938	1938	0	0	0	0	0	0	0	0	0	0	0	0	0	0	0	0	0	0	0	0	0	0	0	0	0	0	0	0	0	0	0	0	0	0	0	0	0	0	0	0	0	0	0	0	0	0	0	0	0	0	0	0	0	0	0	0	0	0	0	0	0	0	0	0	0	0	0	0	0	0	0	0	0	0	0	0	0	0	0	0	0	0	0	0	0	0	0	0	0	0	0	0	0	0	0	0	0	0	0	0	0	0	0	0	0	0	0	0	0	0	0	0	0	0	0	0	0	0	0	0	0	0	0	0	0	0	0	0	0	0	0	0	0	0	0	0	0	0	0	0	0	0	0	0	0	0
0	0	0	0	0	0	0	0	0	0	0	0	0	0	0	0	0	0	0	0	0	0	0	0	0	0	0	0	0	0	0	0	0	0	0	0	0	0	0	0	0	0	0	0	0	0	0	0	0	0	0	0	0	0	0	0	0	0	0	0	0	0	0	0	0	0	0	0	0	0	0	0	0	0	0	0	0	0	0	0	0	0	0	0	0	0	0	0	0	0	0	0	0	0	0	0	0	0	0	0	0	0	0	0	0	0	0	0	0	0	0	0	0	0	0	0	0	0	0	0	0	0	0	0	0	0	0	0	0	0	0	0	0	0	0	0	0	1780	1851	1851	1841	1822	1850	1937	1961	1943	1911	1919	1922	1923	1916	1907	1903	1905	1917	1933	1945	1952	1952	1955	1947	1929	1912	1905	1910	1916	1918	1922	1925	1913	1909	1909	1914	1929	1932	1935	1941	1946	1943	1930	1916	1900	1921	1921	1948	1950	1917	1908	1887	1933	2091	2229	2340	2407	2392	2318	2277	2245	2275	2305	2319	2310	2296	2288	2304	2325	2347	2364	2372	2317	2279	2317	2391	2525	2566	2540	2509	2502	2519	2524	2507	2495	2519	2526	2526	2510	2537	2573	2720	2815	2845	2868	2864	2846	2844	2844	2827	2799	2785	2780	2766	2756	2773	2776	2782	2773	2795	2798	2814	2826	2807	2806	2798	2801	2816	2818	2801	2791	2796	2807	2811	2818	2833	2839	2812	2814	2812	2812	2804	2801	2818	2828	2845	2855	2837	2844	2870	2866	2887	2888	2885	2880	2875	2875	2902	2931	2933	2923	2918	2907	2891	2888	2835	2448	2181	2094	1950	1910	1932	1962	1975	1998	2021	1994	1967	1965	1973	1963	1945	1967	1981	1976	1980	1975	1973	1976	1977	1977	1976	1994	1988	2001	2002	2001	1988	2008	2007	2001	2000	1989	1983	1997	2014	1978	1976	2033	2072	2666	2865	2909	2927	2950	2958	2955	2957	2952	2948	2943	2951	2937	2917	2920	2938	2940	2924	2902	2859	2858	2858	2864	2848	2852	2869	2876	2877	2876	2865	2867	2891	2897	2881	2858	2839	2828	2820	2820	2827	2826	2849	2876	2925	2923	2929	2928	2916	2878	2853	2844	2846	2831	2812	2810	2794	2816	2838	2842	2879	2846	2870	2870	2869	2867	2736	2673	2667	2684	2661	2661	2641	2614	2600	2584	2586	2604	2616	2651	2727	2702	2614	2393	2381	2347	2281	2343	2346	2335	2317	2302	2293	2302	2303	2294	2290	2291	2333	2381	2425	2439	2431	2340	2130	1996	1932	1943	1980	1967	1962	1952	1952	1933	1927	1928	1948	1971	1991	1984	1955	1932	1928	1926	1940	1956	1970	1978	1968	1955	1954	1953	1963	1960	1969	1971	1971	1971	1972	1974	1963	1958	1955	1957	1965	1980	1977	1978	1977	1971	1970	1976	1970	1983	1979	1953	1935	1935	0	0	0	0	0	0	0	0	0	0	0	0	0	0	0	0	0	0	0	0	0	0	0	0	0	0	0	0	0	0	0	0	0	0	0	0	0	0	0	0	0	0	0	0	0	0	0	0	0	0	0	0	0	0	0	0	0	0	0	0	0	0	0	0	0	0	0	0	0	0	0	0	0	0	0	0	0	0	0	0	0	0	0	0	0	0	0	0	0	0	0	0	0	0	0	0	0	0	0	0	0	0	0	0	0	0	0	0	0	0	0	0	0	0	0	0	0	0	0	0	0	0	0	0	0	0	0	0	0	0	0	0	0	0	0	0	0	0	0	0	0	0	0	0	0	0
