645	651	656	658	661	657	657	664	666	659	649	637	637	661	678	695	697	688	669	669	657	653	641	638	653	659	659	671	657	653	651	648	650	650	677	695	688	672	656	644	644	646	626	619	618	616	617	638	638	657	670	659	647	628	632	634	634	621	613	603	583	600	624	638	651	651	662	664	654	623	592	581	595	605	605	606	588	584	587	595	594	602	616	634	634	652	666	666	652	639	627	613	597	585	585	616	625	627	628	632	621	597	594	599	623	637	637	638	639	645	642	641	636	637	643	637	629	619	621	621	608	597	603	608	616	627	627	632	631	640	646	656	669	669	679	700	704	689	659	642	628	634	640	649	660	693	701	702	710	725	725	739	747	748	760	762	759	746	726	721	731	751	777	813	850	910	949	974	990	983	983	980	961	956	961	965	952	931	920	922	928	939	955	961	952	934	927	937	950	963	964	962	967	983	991	990	987	989	989	989	987	988	988	974	959	947	944	931	924	931	948	979	985	979	985	1002	1013	1023	1027	1025	1021	1011	1011	1014	1022	1021	1023	1026	1028	1026	1012	978	972	972	956	939	930	945	961	964	962	972	983	985	973	973	954	940	935	950	950	922	914	916	925	940	960	972	975	964	948	924	911	904	898	897	898	920	927	941	952	984	993	986	977	985	992	998	1000	968	968	967	964	951	922	913	930	943	950	957	962	966	969	971	970	971	954	946	950	962	972	981	973	957	949	968	998	1020	1043	1045	1024	1000	982	975	981	988	1011	1024	1019	1001	980	966	956	962	974	988	991	967	907	900	904	923	947	962	990	1003	1016	1021	1013	996	978	969	965	959	946	934	925	891	849	842	847	851	865	884	929	968	943	943	946	954	942	924	905	896	894	870	835	829	829	832	825	819	832	845	849	808	790	787	794	809	854	869	881	888	889	872	844	844	838	852	870	903	920	934	962	956	930	919	910	894	883	884	898	918	935	945	942	932	896	884	898	911	922	928	932	949	951	965	972	967	948	928	905	896	897	902	910	905	887	867	857	856	869	864	864	866	861	864	869	869	871	866	856	847	849	858	863	864	862	869	885	889	889	873	859	857	871	888	893	879	869	869	861	829	817	814	814	816	810	794	771	733	713	716	706	697	695	686	675	662	656	655	655	659	638	635	641	645	643	645	654	651	634	611	594	591	596	607	613	613	612	620	620	618	607	596	598	609	617	607	600	606	611	611	608	598	587	584	574	580	590	593	589	593	592	589	589	591	598	600	597	581	575	583	590	589	585	585	580	574	578	583	590	593	587	571	569	574	574	571	562	560	574	607	614	600	588	578	578	574	572	571	577	586	590	565	564	564	562	556	557	558	556	552	551	551	556	558	554	552	555	586	581	572	572	572	579	560	559	550	544	544	542	544	546	551	559	578	592	592	598	596	593	591	586	577	577	564	546	534	533	559	575	575	586	585	576	567	572	572	585	577	572	568	560	560	560	560	563	564	563	563	563	559	557	552	547	547	534	533
650	639	630	634	641	647	647	646	645	633	618	637	637	639	657	666	670	677	666	666	654	636	630	639	646	658	658	667	672	673	664	659	660	660	671	677	671	653	633	617	617	595	584	594	615	627	629	640	640	661	660	647	630	628	632	610	610	603	593	579	569	563	583	616	642	642	660	668	659	634	605	593	589	593	593	595	590	585	585	585	586	585	600	618	618	634	641	636	628	625	616	599	576	573	573	613	625	623	626	632	621	597	574	572	583	596	596	605	625	635	641	644	643	642	637	618	603	608	612	612	617	621	613	609	608	611	618	622	631	643	656	661	663	663	668	675	688	671	648	638	641	637	636	647	678	714	714	711	719	730	730	733	735	731	745	752	757	741	726	721	730	749	771	797	837	880	933	962	977	978	962	962	935	934	948	957	947	924	902	910	928	941	960	964	946	932	926	929	955	969	971	968	971	981	991	994	1003	1009	1009	1012	1007	1002	992	978	953	943	930	906	907	920	941	961	959	954	960	979	1003	1021	1029	1029	1027	1019	1020	1021	1024	1023	1022	1021	1014	995	984	956	944	926	908	881	885	887	882	862	850	849	854	855	862	868	868	930	936	938	926	920	914	916	916	939	958	964	965	955	938	923	908	902	898	893	904	924	936	943	943	952	973	957	961	968	969	963	954	951	964	966	960	908	898	908	920	936	943	945	955	956	950	962	969	977	969	959	963	978	987	986	978	957	947	944	968	1015	1038	1045	1028	1010	988	991	989	991	1002	1009	1000	982	966	955	947	951	963	983	988	963	913	910	911	927	952	980	985	988	994	993	988	976	964	959	958	942	924	915	892	848	826	823	819	821	821	822	877	912	914	908	904	858	869	881	880	876	853	818	804	800	807	820	821	824	826	829	823	794	785	787	794	809	821	855	865	859	859	834	834	795	796	799	810	825	858	862	857	875	903	918	919	907	890	895	917	927	942	954	953	944	911	908	911	912	914	918	915	917	928	943	953	945	928	903	884	883	893	898	894	881	878	878	868	873	875	875	885	869	860	854	857	857	859	855	849	844	832	847	860	860	862	866	872	877	880	873	854	844	856	869	876	866	860	860	863	859	851	836	833	830	816	794	765	733	713	699	691	691	690	684	674	665	663	663	662	637	632	641	644	641	638	638	637	628	621	606	594	593	595	610	610	603	596	601	585	586	618	638	635	609	587	587	592	605	619	619	615	602	586	584	580	571	585	598	606	595	584	581	581	587	588	600	597	588	582	580	586	581	581	581	576	571	566	572	582	589	578	573	571	579	579	573	561	555	569	587	593	592	574	574	553	538	542	557	572	578	573	567	565	565	569	569	557	552	546	544	545	545	556	558	554	548	548	548	551	551	549	549	548	550	548	547	544	544	550	559	560	561	565	570	570	588	595	594	589	583	585	579	579	570	548	528	527	547	547	564	574	541	537	552	572	572	584	593	588	575	565	565	558	561	566	570	566	566	563	553	545	537	538	538	551	561
670	649	630	639	646	653	653	647	636	624	619	634	639	639	657	666	610	605	645	645	648	628	618	628	642	655	655	661	667	670	674	667	661	661	654	633	622	636	624	613	613	592	587	597	615	626	616	618	618	642	646	627	618	615	614	610	610	579	574	569	560	564	581	615	634	634	647	661	656	635	618	601	596	593	593	599	596	597	589	586	580	579	589	599	599	622	620	617	607	614	607	586	563	559	562	562	562	568	591	602	593	580	574	572	566	581	581	598	624	631	633	638	643	625	605	594	581	580	585	585	603	622	623	614	595	579	577	589	602	617	625	622	622	624	624	640	667	676	684	694	692	665	646	660	714	717	713	713	722	721	721	712	694	674	674	682	692	706	711	725	730	749	771	791	826	870	904	936	941	919	896	896	890	901	903	858	847	857	874	913	924	948	955	934	934	931	927	931	949	976	975	971	971	972	979	988	985	973	965	965	960	954	949	939	922	903	890	880	892	916	938	952	945	942	940	944	968	989	1010	1019	1021	1012	982	969	971	1002	1006	998	965	931	925	919	906	892	868	856	861	872	863	856	849	846	857	862	874	880	880	947	956	950	939	937	920	916	916	939	958	886	897	907	904	903	897	882	890	880	873	916	936	929	925	924	906	909	909	922	913	934	937	941	956	940	883	878	859	831	834	853	895	916	912	902	908	934	966	972	974	968	963	969	979	977	976	955	947	942	935	931	927	935	957	979	1002	1002	1000	1000	1007	1002	984	967	956	947	945	945	954	970	975	944	917	914	921	955	976	993	996	977	963	958	950	944	944	920	903	900	873	851	833	802	792	798	809	815	806	812	825	889	898	893	839	849	853	851	851	831	815	803	798	798	807	824	826	829	829	828	819	794	785	783	788	785	797	789	788	796	807	807	799	787	786	800	809	810	820	815	821	834	866	913	923	908	905	917	929	934	941	948	958	955	933	916	910	907	901	896	891	895	908	921	928	930	890	879	878	884	887	896	891	877	874	874	873	873	879	879	877	866	850	841	840	848	853	851	846	841	832	834	850	859	865	866	861	856	857	851	845	837	849	856	854	843	849	849	856	860	854	844	834	828	818	797	765	725	704	690	685	685	682	677	668	656	639	639	633	626	626	636	642	634	632	630	624	614	604	600	594	595	625	620	620	601	586	586	578	578	615	633	630	595	576	572	571	580	580	589	599	596	588	581	559	566	581	592	594	575	570	570	571	587	588	592	596	592	586	581	577	573	565	565	569	565	562	565	573	574	572	569	571	571	576	583	575	565	563	572	580	581	566	566	547	535	537	553	574	579	572	564	564	567	569	568	563	543	539	539	545	545	542	547	548	544	547	550	552	552	548	546	542	542	540	538	543	543	551	555	560	559	560	559	559	561	565	568	559	560	553	553	554	559	547	546	550	555	555	550	538	541	537	552	567	567	580	598	589	580	566	566	550	554	567	562	561	561	547	537	526	517	530	530	549	559
678	671	660	662	670	667	667	649	632	633	640	639	629	629	630	628	610	605	633	633	637	627	619	633	639	645	645	647	656	662	667	664	652	652	617	591	600	624	626	625	613	613	595	591	616	622	615	593	593	599	618	609	601	598	595	584	579	579	574	584	584	575	600	622	629	629	629	638	638	628	616	605	600	602	602	607	605	600	593	588	585	579	585	605	605	617	613	611	610	609	601	575	557	559	564	564	565	577	590	598	593	578	565	560	566	581	589	620	652	650	634	615	600	585	546	533	533	540	561	561	609	613	619	617	612	607	612	610	611	602	586	581	600	622	622	648	668	682	670	661	662	662	636	642	662	684	699	705	715	712	695	695	674	663	664	671	678	694	711	730	749	763	771	791	774	783	813	849	870	876	874	874	861	861	864	849	846	856	877	919	922	928	912	916	922	922	918	906	904	940	959	967	968	970	972	967	959	955	953	953	947	942	937	931	912	905	891	876	888	915	936	946	932	927	925	921	933	953	969	993	987	958	956	923	947	959	984	966	925	909	907	911	898	862	836	835	831	840	853	851	851	866	899	914	932	927	938	938	956	962	954	942	932	905	890	881	880	886	897	871	867	859	862	869	863	860	858	852	858	871	879	888	891	872	851	836	829	844	846	854	855	856	860	859	845	829	830	851	891	906	904	895	898	918	943	960	958	955	952	951	951	955	956	948	934	933	917	909	897	896	935	965	995	1001	1001	994	988	975	967	961	946	922	914	925	942	950	948	927	912	913	925	947	958	994	990	963	926	906	887	862	856	849	824	820	813	795	781	778	783	793	807	811	808	824	842	889	895	904	858	838	843	840	835	822	809	800	798	809	820	835	836	832	829	828	819	798	785	786	784	784	785	786	789	798	805	805	802	795	791	820	834	832	819	816	822	836	859	882	901	901	905	915	926	932	942	944	944	941	914	901	899	893	879	869	863	868	880	894	894	880	878	873	879	887	893	900	897	886	871	865	853	854	859	859	860	849	838	834	836	843	852	853	856	852	840	839	846	859	872	860	842	833	832	829	819	808	807	819	834	830	830	828	832	825	821	805	789	774	818	797	756	718	680	665	666	666	663	651	635	637	626	626	622	619	623	624	630	633	629	619	613	607	601	595	601	631	638	619	619	586	584	581	574	570	563	559	566	570	572	569	567	574	574	583	588	585	563	563	558	561	575	580	575	563	559	570	571	577	577	581	590	592	581	574	568	568	554	554	564	560	561	564	565	565	563	563	582	582	594	582	559	542	534	532	555	564	554	554	543	523	543	558	575	577	574	565	565	565	565	563	552	539	539	539	536	536	538	546	550	556	549	554	566	566	559	540	534	535	544	547	550	550	552	551	548	549	550	547	547	548	550	555	549	535	523	523	511	511	532	556	557	554	554	550	538	492	493	506	532	532	547	558	573	561	550	550	549	554	557	554	542	542	519	511	502	504	517	517	534	544
652	648	641	645	658	651	651	626	622	625	640	635	619	619	615	613	606	598	633	633	637	631	630	636	640	636	636	635	638	649	661	653	628	628	598	574	583	613	627	631	615	615	593	580	594	608	601	592	589	589	602	604	594	578	563	550	557	557	566	584	584	575	619	621	602	602	598	610	609	580	591	601	606	608	617	617	614	609	597	588	595	611	623	621	621	616	619	625	607	586	572	566	575	570	570	570	577	582	597	597	569	574	579	572	567	589	620	620	592	594	591	588	576	560	541	532	530	545	583	594	594	584	583	593	604	611	620	622	626	609	591	583	596	618	618	633	643	653	650	643	635	634	638	625	637	656	678	688	693	692	670	670	652	642	650	651	653	662	680	709	740	755	756	766	774	756	783	825	852	862	864	860	860	867	869	885	910	922	929	922	915	902	882	880	868	849	829	825	842	897	938	960	965	966	957	938	937	936	941	941	941	936	928	931	916	911	896	890	893	915	947	945	926	914	898	902	912	921	922	931	929	929	881	883	893	939	930	938	907	893	907	903	885	855	831	823	813	818	826	846	860	882	906	909	923	937	896	896	872	871	870	881	886	872	876	876	874	873	871	871	867	859	860	861	856	854	853	846	853	874	881	884	880	861	840	818	824	834	848	849	852	858	863	863	857	855	862	876	898	909	912	910	906	907	910	919	939	945	945	943	934	925	923	911	904	906	912	904	887	881	895	928	964	994	980	968	931	931	929	916	901	897	897	902	915	925	920	910	903	899	897	918	929	933	929	914	890	849	841	829	818	821	818	817	807	795	781	774	774	787	802	815	825	835	861	887	906	907	902	852	826	817	815	809	809	811	838	846	866	865	836	832	829	824	824	830	817	812	806	789	791	801	803	807	807	813	823	826	859	868	858	848	829	821	825	848	865	875	873	878	882	902	897	881	887	892	887	886	885	883	876	871	845	841	842	849	860	879	875	864	858	862	875	888	902	902	897	887	869	863	851	847	847	847	840	832	830	825	830	839	849	849	852	845	836	835	845	859	875	861	842	826	826	818	813	802	801	807	819	829	829	816	814	808	803	794	789	774	757	754	738	715	683	663	659	658	649	638	632	627	628	628	627	623	618	619	622	622	619	609	605	601	601	595	601	595	606	606	596	577	566	569	563	560	563	570	577	575	579	579	576	569	569	563	558	568	561	559	561	569	568	568	563	563	559	559	565	570	569	575	581	585	573	558	553	551	551	546	532	535	536	538	542	540	529	549	558	558	556	547	527	514	510	520	545	560	555	555	547	544	550	554	563	578	566	535	535	534	545	549	552	539	531	530	528	528	531	544	548	550	537	545	555	555	541	530	528	535	545	549	552	552	553	549	535	529	530	532	532	539	538	537	538	531	504	504	513	528	527	532	557	554	554	535	513	478	457	481	481	504	522	512	549	525	556	556	563	565	560	549	522	522	506	500	499	506	533	533	563	570
622	622	619	627	641	636	621	621	604	610	623	625	614	614	604	612	616	622	632	636	636	631	630	633	622	615	615	614	624	642	657	643	614	588	588	583	589	601	608	611	602	602	580	565	571	579	578	581	583	583	589	599	593	585	573	563	570	570	585	590	587	596	619	621	581	577	577	569	571	585	595	605	607	608	601	601	597	597	589	572	570	579	589	601	602	602	631	631	611	595	587	602	610	609	599	599	584	573	573	553	561	572	593	597	585	577	582	582	592	594	564	574	568	572	574	576	556	569	587	579	579	573	574	585	596	609	616	613	626	607	594	581	593	610	610	616	623	630	640	637	628	628	624	615	615	641	660	677	683	682	660	660	648	635	636	642	646	647	678	715	744	750	748	744	745	756	783	823	848	865	867	872	872	891	908	933	931	936	933	915	886	856	859	841	824	810	789	769	786	841	873	911	951	944	928	919	917	926	936	940	940	932	926	928	926	918	911	895	897	913	924	939	924	887	847	840	838	836	838	851	835	825	812	834	853	875	906	898	874	876	877	878	860	853	846	835	818	822	825	833	854	874	894	908	896	843	812	820	820	833	846	865	868	866	863	872	877	879	880	877	872	863	860	861	861	848	846	849	856	876	882	880	868	848	826	823	825	834	841	844	845	857	870	872	862	862	886	902	915	920	924	914	905	890	882	892	920	938	943	939	925	906	889	862	871	871	878	876	873	866	875	880	890	896	894	896	834	805	808	820	845	865	876	884	895	907	904	892	886	884	889	897	896	887	872	862	859	857	841	823	811	809	810	805	804	794	792	790	798	808	814	819	823	834	851	885	907	929	901	887	843	825	814	813	817	831	844	846	866	865	858	844	837	835	839	841	831	824	816	803	801	807	810	817	817	817	823	824	844	843	841	827	825	824	835	851	867	857	852	858	859	860	865	875	869	825	825	845	836	826	821	809	812	817	832	841	856	865	839	827	814	798	797	811	830	842	862	881	870	859	836	829	829	828	821	806	804	801	793	801	811	827	830	829	822	829	832	852	861	850	831	824	819	814	807	801	800	803	808	809	809	814	809	805	803	794	762	744	743	739	729	709	678	660	654	655	652	648	634	637	637	631	628	623	620	615	616	614	605	598	597	601	600	591	594	596	600	600	585	564	560	560	556	558	564	571	563	568	575	579	581	579	579	575	568	557	556	558	565	571	568	568	563	559	564	564	572	577	575	565	554	546	544	546	549	545	545	540	538	535	536	531	518	516	525	542	555	555	554	545	526	514	522	542	558	558	558	558	552	548	553	556	547	549	551	525	525	528	545	549	543	534	531	527	527	525	521	514	503	487	486	534	547	547	529	520	521	533	542	547	547	548	544	539	541	538	535	528	528	518	510	506	511	507	499	499	504	514	527	532	507	509	509	512	497	485	483	490	490	518	524	528	497	508	530	530	544	552	551	526	489	489	481	489	519	554	585	585	602	560
602	602	609	611	615	621	625	625	620	608	604	599	602	602	605	613	613	623	628	637	637	639	632	633	622	615	601	601	617	644	655	648	618	601	601	590	580	574	581	582	579	579	567	572	572	562	558	558	560	560	580	582	581	581	583	587	595	595	605	602	599	593	590	589	581	577	581	585	585	600	609	612	613	603	591	591	585	585	578	564	556	562	568	591	599	599	597	598	585	579	586	586	592	592	584	573	573	562	564	562	562	571	586	591	589	586	583	583	583	582	564	574	568	570	576	586	595	594	585	575	575	569	572	587	592	574	570	571	561	555	543	542	550	559	587	587	599	605	606	602	621	621	614	614	606	609	645	650	653	652	643	643	643	655	657	652	649	653	685	724	749	746	734	735	739	757	784	823	848	866	873	883	883	907	931	945	939	920	859	816	828	839	822	812	807	801	778	767	766	798	819	859	889	889	890	888	891	895	899	904	904	901	888	902	919	915	909	898	899	903	906	867	838	833	827	825	826	819	825	826	796	795	798	815	852	870	873	857	839	837	847	857	861	857	858	848	845	826	828	833	847	861	864	844	816	800	806	819	819	830	846	860	860	853	853	855	864	880	898	904	899	874	870	866	861	848	846	844	855	876	881	875	850	824	804	803	813	831	833	808	818	843	869	872	866	870	886	900	914	920	923	918	895	885	880	887	902	927	938	927	890	861	848	838	843	860	871	873	879	875	878	882	885	890	878	843	824	800	807	819	838	859	861	869	879	889	883	877	870	877	889	899	897	887	873	864	855	850	829	806	795	791	793	793	788	788	787	794	802	809	813	817	818	824	828	855	872	930	880	870	834	826	812	818	824	831	844	849	856	856	848	847	846	843	846	843	839	825	799	780	783	793	813	813	822	820	818	818	810	807	804	804	811	829	840	853	857	844	835	833	822	825	839	827	812	816	817	827	848	841	822	802	799	808	819	825	843	839	819	792	785	783	777	766	761	771	797	831	826	808	796	796	782	782	799	798	799	799	792	798	799	798	807	811	821	824	831	833	834	806	805	810	810	802	796	795	796	796	793	793	790	782	775	805	789	762	737	727	731	727	711	691	673	659	654	649	648	646	638	635	635	627	621	614	609	614	618	612	602	590	582	582	583	585	587	609	611	611	599	576	559	555	555	555	565	565	562	561	571	580	586	586	587	583	575	541	540	548	562	563	568	562	560	558	558	562	568	570	567	553	536	533	535	541	543	538	538	536	540	543	540	532	522	515	524	537	544	544	545	548	540	537	542	545	526	532	532	533	538	548	557	557	541	527	513	525	525	528	533	536	532	533	531	529	529	526	521	512	504	489	486	532	532	543	530	507	507	534	537	542	542	544	539	534	543	535	528	525	525	508	498	500	515	510	499	499	504	514	506	489	491	491	490	494	486	493	500	495	495	514	523	473	448	462	462	474	483	495	510	499	477	477	477	496	521	539	539	549	546	521
593	593	605	612	606	598	633	633	631	624	620	609	610	610	616	627	624	622	618	619	619	617	602	604	600	598	601	601	613	627	637	629	605	601	601	589	575	559	558	559	572	572	581	591	577	568	555	544	544	544	557	565	577	575	582	595	618	618	623	609	588	577	568	572	576	581	581	585	588	595	611	614	609	595	581	581	576	573	564	555	537	533	550	564	554	554	590	596	582	575	583	587	574	565	565	567	567	572	573	566	556	564	577	579	588	591	593	593	591	574	576	576	568	570	569	583	585	577	568	572	572	581	581	586	582	558	550	551	548	543	542	538	545	558	574	574	587	593	591	591	585	598	610	613	608	602	609	614	621	627	625	635	635	647	653	650	645	661	696	716	725	717	714	721	736	763	791	828	851	866	873	884	909	909	919	916	842	814	780	758	770	782	790	792	792	790	780	768	777	797	814	821	804	794	800	803	810	809	803	800	796	796	799	805	806	814	835	840	832	821	821	828	829	816	819	815	808	776	773	776	782	789	791	808	852	870	873	863	844	843	852	863	867	866	861	852	841	836	827	834	847	855	854	802	792	794	805	817	828	828	833	834	831	825	829	829	848	874	896	907	907	897	884	878	859	845	837	844	855	876	842	837	807	785	784	790	792	802	799	790	788	825	865	872	870	875	883	897	908	918	902	894	890	884	880	891	906	917	920	902	899	883	860	842	837	839	859	875	889	889	890	883	884	889	870	845	836	828	827	833	845	858	862	864	867	866	873	868	860	858	871	882	888	887	875	862	859	849	828	808	791	781	780	774	769	769	779	796	804	807	813	815	812	805	788	816	826	828	830	817	815	803	812	818	824	831	843	839	833	837	840	842	843	846	829	787	779	770	758	771	779	796	815	815	823	820	815	808	801	793	788	787	799	816	840	852	850	840	815	808	787	777	787	780	784	798	801	793	797	784	783	785	785	789	793	802	809	809	800	794	787	779	771	766	755	755	765	774	796	791	788	788	786	783	783	791	799	801	793	793	794	790	792	808	826	832	831	825	815	799	801	802	806	794	785	784	783	783	778	778	769	782	775	772	761	735	720	713	716	715	704	684	669	655	645	636	634	634	632	624	624	615	605	599	595	612	610	605	587	576	574	581	585	577	569	589	610	610	599	586	566	557	560	563	561	564	565	571	566	568	563	563	550	541	537	528	531	535	562	563	564	564	560	559	559	569	576	576	564	556	547	538	529	523	522	528	528	533	535	541	542	535	521	503	507	512	512	517	541	545	546	532	534	527	515	511	511	511	516	530	530	513	511	527	513	513	519	513	496	497	503	510	518	531	531	549	554	541	525	513	507	518	518	524	506	491	499	513	522	525	525	528	527	514	543	534	528	528	521	506	496	495	500	510	510	499	504	512	504	491	488	488	490	496	489	492	501	502	502	488	479	492	490	477	477	481	508	515	524	494	494	467	462	511	532	558	558	561	546	525
597	597	613	612	607	587	588	588	631	631	628	619	616	621	621	629	620	618	612	601	601	585	578	584	588	586	598	598	613	627	611	610	599	589	589	581	568	555	547	558	576	592	592	598	591	570	548	536	532	532	545	568	591	597	596	599	606	593	593	573	556	544	540	547	564	583	583	589	588	595	577	588	590	587	585	585	572	558	543	545	543	536	549	558	558	558	550	555	570	601	594	579	568	558	552	563	563	572	570	559	551	555	565	567	577	594	602	585	585	582	578	568	563	564	569	583	566	563	563	571	580	580	583	575	576	573	566	552	549	544	545	553	568	587	583	583	584	586	584	578	574	585	603	604	610	603	605	608	610	611	610	612	612	623	631	640	658	668	674	681	685	689	690	702	724	742	774	796	826	844	862	884	909	781	787	768	744	733	735	739	751	758	767	776	781	780	781	776	786	792	804	810	788	782	796	807	816	806	792	751	750	750	761	774	774	776	802	819	823	823	823	826	834	821	813	814	798	780	775	778	783	794	799	831	848	868	871	862	854	850	866	872	876	871	861	840	827	819	821	823	838	847	805	791	784	786	796	817	836	836	838	837	820	813	812	825	845	866	886	908	909	900	892	869	835	819	805	806	822	840	842	837	807	760	753	751	757	764	770	782	785	817	857	869	873	877	883	891	900	882	844	843	869	876	881	893	906	913	919	916	914	893	865	848	839	832	849	863	880	897	893	886	889	902	900	882	846	841	843	847	851	852	856	860	854	859	858	852	840	835	839	848	861	867	869	862	861	858	842	853	850	827	800	759	749	749	747	790	808	806	809	810	809	791	787	790	824	825	818	817	815	803	810	819	825	828	824	821	821	823	826	829	833	808	793	777	763	756	758	767	787	802	802	815	811	809	801	802	797	796	793	793	797	803	788	788	773	766	765	769	766	753	745	748	764	772	767	761	769	771	769	770	779	783	788	785	784	779	777	779	779	766	762	762	747	745	748	760	781	786	790	790	790	786	781	790	796	799	795	792	789	798	812	828	844	845	838	828	816	801	800	800	805	802	782	774	778	771	765	778	769	772	772	764	753	731	714	702	702	705	692	677	668	650	623	609	607	617	618	618	605	593	592	589	592	610	608	598	585	569	569	590	605	617	595	561	561	569	599	590	573	563	562	565	564	569	575	570	553	549	550	550	547	532	525	525	531	535	542	550	548	534	534	540	540	551	557	555	549	550	554	547	541	534	516	516	521	524	520	515	512	507	505	503	517	512	512	499	490	490	492	502	510	524	517	515	515	515	513	525	536	513	511	515	522	522	524	520	514	518	516	517	521	526	526	542	539	521	510	505	504	502	502	496	488	487	493	506	512	516	516	511	506	497	495	492	491	491	497	496	495	495	500	502	502	527	521	517	511	488	474	474	483	515	509	454	433	473	473	507	511	504	487	475	475	495	520	526	0	0	0	0	0	491	521	541	541	561	546	525
602	602	603	607	604	595	584	584	586	626	626	620	621	615	615	613	612	619	611	590	590	575	569	569	574	569	583	583	602	610	611	610	593	583	583	574	563	545	545	560	574	590	590	598	594	591	580	562	558	578	578	584	588	584	584	590	584	580	580	567	549	535	530	535	557	580	580	582	573	572	577	588	598	593	582	567	567	551	533	528	532	549	558	562	563	579	579	575	581	599	588	565	552	542	536	556	556	569	569	553	551	554	559	560	564	575	578	576	576	582	576	569	555	556	565	569	566	563	564	574	578	578	573	566	571	577	575	565	557	546	544	551	568	590	603	603	587	580	575	575	579	591	603	602	600	598	597	599	600	597	598	610	628	628	642	654	658	662	668	676	678	674	679	688	706	731	746	768	784	790	799	789	781	781	706	710	718	731	734	738	746	756	767	776	776	779	781	792	800	798	790	782	777	790	808	818	824	809	781	751	748	748	745	740	735	735	753	779	796	809	813	816	832	825	819	822	799	783	781	782	787	804	812	825	842	858	864	858	855	867	874	876	878	873	854	830	812	810	808	801	798	797	786	779	764	771	790	814	831	838	838	831	808	809	819	831	848	865	876	880	882	873	857	829	804	773	762	748	748	770	777	778	769	760	753	751	757	747	760	774	796	819	841	859	870	880	881	888	878	836	823	828	837	854	872	882	898	904	912	920	925	899	866	855	843	838	835	858	866	880	884	877	886	896	895	879	852	852	856	855	851	847	843	826	836	842	846	841	830	817	810	817	830	838	843	843	854	885	888	882	849	831	801	758	737	737	745	766	794	803	802	803	804	801	790	790	824	825	818	815	807	795	808	815	821	818	822	812	804	801	801	796	797	801	797	781	769	762	762	772	786	800	800	806	795	783	782	785	802	810	807	805	797	769	767	731	720	720	736	746	757	754	753	752	754	754	755	752	757	757	762	763	765	769	775	770	763	750	742	736	736	736	740	746	745	735	739	752	771	783	783	792	796	798	801	813	821	813	799	793	798	808	819	831	847	854	849	842	829	829	829	831	833	825	803	776	769	771	771	765	765	768	771	768	755	735	720	709	706	703	690	675	670	656	624	605	603	612	601	601	579	578	580	590	600	604	606	595	564	564	570	605	635	649	654	624	624	590	587	585	573	561	554	551	565	582	599	600	563	537	543	543	540	524	525	525	530	524	530	523	509	514	521	528	528	540	534	530	531	536	540	532	526	516	526	526	535	538	538	535	532	526	521	519	518	510	510	495	489	487	487	497	496	504	519	520	520	521	514	525	536	534	522	520	515	515	510	510	508	507	503	511	514	516	516	530	530	519	509	505	504	505	505	500	492	488	489	500	506	505	505	500	494	492	491	493	498	498	501	496	495	504	503	512	512	521	532	524	512	460	419	419	468	533	535	505	499	514	514	506	507	495	483	473	473	498	520	531	0	0	0	0	441	482	523	541	541	545	523	498
587	587	597	595	596	593	584	604	604	612	614	613	605	595	595	587	596	608	613	595	595	566	548	543	543	540	559	559	579	596	600	598	593	583	583	549	544	530	541	559	577	587	587	591	595	588	583	572	568	580	580	582	580	580	578	576	565	564	564	560	547	536	530	547	554	556	567	567	565	560	569	586	598	593	569	558	558	542	526	524	547	558	561	573	585	587	587	583	584	572	549	529	525	523	530	541	541	560	565	560	556	554	554	551	553	554	558	565	565	574	577	568	553	551	558	559	557	554	564	570	573	573	573	565	568	577	578	569	562	554	542	541	564	588	607	607	607	596	586	585	592	604	605	598	593	589	586	586	588	586	600	620	632	632	639	644	658	662	664	667	664	661	664	673	695	708	732	753	753	742	738	728	715	706	706	710	728	733	738	738	743	756	761	774	782	778	787	794	798	793	787	782	786	804	818	825	821	809	794	777	748	746	746	737	735	728	730	755	785	793	794	804	812	820	830	828	819	790	783	781	788	811	821	823	833	848	855	855	856	869	881	879	875	873	856	837	819	803	792	792	795	791	784	773	771	773	790	809	815	810	795	795	793	807	817	825	829	828	825	823	805	793	786	782	784	773	757	752	748	760	764	768	765	765	759	751	749	747	760	774	800	814	827	834	827	822	825	825	822	818	816	822	826	837	857	868	875	886	895	913	888	853	853	848	843	840	839	853	863	876	877	871	878	877	863	854	857	862	860	856	846	836	824	819	820	833	836	831	820	805	798	796	811	817	827	832	846	877	886	875	846	816	784	758	743	743	751	763	776	795	799	803	804	801	790	821	831	837	827	814	811	798	803	809	808	808	803	802	795	780	773	733	721	728	738	746	744	734	727	724	717	717	714	714	723	736	761	769	792	823	825	813	790	764	727	718	712	709	714	737	750	758	765	767	765	761	755	749	747	746	747	744	751	756	755	704	705	716	727	723	720	722	726	737	732	736	755	748	748	753	753	769	770	771	778	789	794	788	793	797	802	809	815	826	844	862	855	838	818	820	845	866	869	857	812	814	769	762	762	757	774	789	802	809	768	750	732	717	714	704	697	641	615	605	600	599	597	615	628	628	591	569	588	602	600	586	597	597	584	576	591	622	644	655	657	650	650	628	605	589	568	526	539	556	564	582	601	597	559	530	530	532	540	524	522	509	517	509	513	494	498	504	507	507	507	509	502	498	500	514	511	513	515	517	523	523	528	527	534	536	533	528	524	523	518	509	509	496	485	487	489	494	493	498	515	515	522	521	514	527	535	533	526	519	517	517	515	514	506	502	499	500	509	509	508	510	514	511	505	502	503	504	504	502	495	486	487	489	486	486	478	483	482	483	491	506	499	498	501	503	510	534	522	512	512	525	505	474	510	503	488	488	501	524	498	499	496	496	500	494	493	485	486	485	485	500	516	506	474	448	448	452	441	482	523	533	533	539	517	485
587	580	580	578	582	591	601	602	602	609	606	595	583	566	566	558	568	580	592	580	558	558	540	532	547	544	555	567	567	588	603	609	601	576	549	549	544	527	536	552	576	583	583	591	594	590	583	582	575	568	568	573	567	566	563	544	548	554	554	554	549	537	540	542	541	542	542	542	549	552	561	578	587	582	569	558	538	526	517	569	563	561	563	576	584	597	597	591	561	536	527	517	510	511	513	526	542	542	555	556	555	560	559	546	541	536	540	558	558	571	574	566	549	550	550	551	547	554	564	570	573	572	557	555	554	559	556	558	558	555	543	537	550	578	589	594	594	587	585	588	600	612	593	585	580	578	575	572	578	584	585	597	615	615	618	610	608	657	655	653	650	650	658	673	691	710	726	745	745	726	718	707	702	708	708	717	728	733	745	745	739	736	736	745	760	778	782	786	793	788	782	778	785	800	821	826	816	805	795	787	755	747	747	747	743	739	741	768	787	791	789	795	812	823	829	832	826	806	780	778	803	818	832	830	834	841	848	844	844	865	873	874	879	873	862	842	820	798	784	788	790	787	779	779	780	793	804	816	814	801	792	792	785	789	804	812	817	813	812	805	790	777	776	787	782	775	756	752	751	754	755	760	766	765	754	743	737	739	750	767	800	814	827	834	789	786	790	794	797	796	799	810	820	817	817	809	810	813	820	827	832	834	827	826	831	835	842	847	850	856	867	865	855	852	849	851	852	855	855	847	836	815	814	813	803	804	819	815	805	801	796	793	797	800	803	806	812	815	827	832	814	792	772	761	759	760	762	763	776	795	799	806	815	813	815	829	842	843	838	823	806	801	795	794	795	787	789	794	790	777	747	718	688	693	711	721	727	722	727	725	700	700	680	680	683	714	728	740	771	804	827	818	772	737	732	728	712	702	711	734	742	769	781	797	792	781	767	742	725	720	720	723	725	731	728	710	704	711	724	744	749	754	756	765	800	816	862	857	857	857	852	857	862	861	863	858	867	877	891	899	902	912	932	953	963	997	1005	1002	989	976	968	1010	1075	1086	812	814	817	817	825	836	881	903	916	926	889	855	830	834	839	839	799	739	728	717	704	695	689	701	701	714	675	633	612	622	637	635	629	610	585	573	582	605	624	639	646	646	646	623	599	584	568	523	534	567	575	539	545	539	518	495	530	532	537	544	530	522	507	496	493	492	496	510	505	505	500	499	496	498	501	506	507	509	506	506	508	508	506	501	501	521	525	531	534	529	518	518	508	495	484	485	501	499	500	505	510	515	522	523	521	524	529	535	525	517	517	515	518	517	518	518	516	508	500	500	497	498	503	506	503	501	495	495	493	496	490	487	485	488	485	485	478	475	467	463	491	506	499	499	487	507	539	563	537	493	493	496	489	485	502	502	484	484	477	487	482	477	477	477	482	472	476	493	507	508	508	515	506	480	462	437	448	452	467	490	521	541	541	533	521	494
571	580	580	578	562	566	574	587	587	593	590	575	563	541	541	542	554	569	575	572	555	555	552	559	568	563	561	564	564	573	587	599	585	559	540	540	535	527	536	552	565	578	578	581	585	587	582	578	583	574	574	563	560	558	552	545	544	549	549	550	547	550	539	530	522	535	547	547	548	537	543	555	566	566	553	538	538	526	556	567	560	560	567	574	578	573	573	547	536	535	534	526	516	504	507	515	513	513	524	541	553	558	552	545	541	540	545	552	538	538	533	530	540	545	546	542	546	555	569	575	572	557	557	554	548	546	541	528	533	537	536	530	525	550	567	575	575	581	585	593	606	590	570	565	566	570	572	580	589	600	610	609	608	605	605	597	592	615	633	638	635	643	662	680	694	709	727	745	743	738	722	712	709	713	713	724	731	741	745	745	736	726	721	721	734	756	766	769	768	769	773	776	795	809	811	809	806	799	799	785	751	747	756	756	754	751	767	794	808	801	792	798	810	823	833	828	821	795	783	777	782	810	839	834	831	830	838	833	823	815	801	824	863	868	864	840	801	774	775	781	778	779	780	786	794	807	824	821	813	799	789	790	790	799	809	813	816	813	802	790	783	781	776	781	779	768	756	749	748	749	743	752	760	763	751	729	727	732	747	773	801	807	811	807	789	786	790	794	797	785	789	788	786	771	755	747	760	749	725	709	736	788	809	811	819	827	836	845	848	842	838	828	831	834	843	845	843	819	801	776	770	775	781	792	787	774	762	768	773	791	796	797	798	795	788	791	794	799	796	790	780	769	760	761	759	760	762	769	772	782	799	811	819	813	821	828	838	846	835	821	804	789	773	757	739	732	735	738	744	745	733	689	693	696	698	713	723	727	728	708	708	697	696	695	691	686	685	682	691	738	750	742	732	684	673	674	672	675	696	717	746	746	748	746	741	734	722	734	727	724	719	721	729	735	732	707	727	791	877	991	997	998	998	1007	1041	1115	1190	1199	1182	1182	1167	1189	1225	1270	1264	1275	1304	1340	1361	1377	1377	1375	1385	1354	1248	1271	1371	1375	1351	1310	1238	1180	1075	1086	1076	1025	1009	1009	1066	1107	1162	1179	1153	1125	1105	1082	1067	1072	1082	1067	1034	954	899	856	834	821	798	778	778	735	681	641	640	673	703	672	641	601	571	567	575	589	609	582	566	566	555	542	522	494	501	510	503	517	535	530	526	522	518	495	495	499	519	524	533	530	527	515	493	494	500	508	504	504	498	498	497	501	504	501	503	499	501	501	501	504	505	504	499	494	498	512	517	512	500	500	490	483	482	481	486	486	488	505	510	510	518	527	528	522	515	508	506	506	506	507	497	496	501	508	507	502	498	498	488	484	489	499	501	493	479	479	475	483	484	485	482	476	471	471	463	459	467	463	476	492	492	510	548	530	514	486	464	447	447	416	442	454	451	451	451	440	444	459	469	461	462	462	456	456	470	495	513	513	523	514	504	476	462	462	437	448	473	498	533	533	547	527	511	501
555	565	565	566	562	566	551	559	559	563	577	600	600	581	581	563	555	551	556	549	551	551	556	566	582	574	568	557	557	563	561	567	561	545	527	527	527	523	535	552	565	554	549	549	554	564	573	575	574	567	567	566	562	562	560	551	552	557	557	557	552	538	531	532	524	516	528	528	545	535	527	522	538	532	509	510	523	523	556	567	558	552	564	571	572	532	535	535	559	554	545	527	524	524	524	520	525	525	539	544	555	557	550	540	538	540	545	546	543	543	537	534	538	543	542	538	539	544	562	569	567	560	560	554	548	546	543	535	532	531	525	521	522	532	550	566	577	577	583	596	586	569	559	556	564	570	574	577	589	598	597	597	594	585	585	575	590	611	626	630	629	629	651	679	696	708	726	747	750	741	727	712	703	714	726	726	733	737	745	742	736	715	702	704	715	734	729	741	747	755	761	770	787	801	796	786	769	768	764	749	746	750	758	758	766	773	786	794	811	810	796	785	780	779	780	778	775	774	772	771	766	778	796	797	807	820	808	792	774	756	747	780	822	816	799	763	744	749	758	763	769	774	786	791	794	807	819	819	804	782	780	787	787	798	802	802	798	797	788	785	785	783	782	772	757	754	743	739	732	728	730	731	749	751	736	727	727	736	752	775	789	798	809	799	784	782	785	789	789	785	789	788	786	771	755	747	755	747	722	703	726	764	791	796	803	819	833	843	847	836	823	815	815	823	825	819	798	754	725	716	716	719	722	740	735	730	736	739	740	741	756	762	768	773	778	779	782	799	796	790	780	769	760	760	769	779	782	778	764	757	756	749	740	728	706	703	696	735	775	776	775	734	710	681	673	679	685	680	681	679	678	682	692	706	717	703	695	688	691	691	695	697	699	702	704	701	680	660	652	654	686	683	677	671	674	682	685	683	676	696	725	742	749	744	741	726	716	741	770	805	823	877	917	938	945	989	1011	1122	1327	1331	1311	1254	1207	1189	1209	1260	1332	1380	1407	1407	1433	1474	1517	1514	1451	1397	1393	1399	1409	1398	1393	1389	1390	1388	1381	1378	1393	1395	1389	1361	1238	1180	1171	1179	1190	1265	1279	1279	1264	1245	1227	1202	1166	1143	1126	1124	1143	1208	1170	1130	1066	984	910	849	817	802	781	742	742	699	664	652	651	675	707	679	640	585	558	561	542	514	514	509	497	497	489	489	482	481	498	503	508	512	519	525	526	522	514	505	505	505	505	521	532	530	523	523	523	523	515	520	520	513	502	498	496	501	500	494	489	485	487	495	495	499	503	503	503	506	506	503	507	506	500	500	495	493	487	480	481	486	488	490	503	503	510	515	512	509	504	502	505	507	507	507	502	495	497	499	499	488	488	488	490	494	494	493	489	485	475	475	471	473	497	517	495	458	436	436	463	459	447	426	449	476	476	488	493	485	474	464	458	458	447	412	438	440	437	437	437	428	430	434	445	444	427	427	416	428	468	496	525	525	507	514	504	476	440	440	435	445	468	510	533	533	515	478	472	489
543	556	556	559	558	553	551	559	550	559	575	601	600	580	555	555	542	535	536	540	548	548	557	566	578	582	574	560	560	551	545	543	535	532	529	529	527	532	539	554	558	554	549	530	524	520	530	562	565	561	558	558	563	563	543	528	535	539	541	541	539	528	532	533	525	517	522	547	547	540	526	517	510	516	523	521	531	531	544	561	558	552	557	560	531	528	561	561	564	562	547	521	522	527	525	523	528	536	536	544	550	550	535	528	527	531	535	538	533	533	528	528	536	538	536	524	519	517	523	543	558	560	560	556	543	546	543	549	538	532	526	526	525	532	544	559	569	569	581	581	574	560	553	554	563	572	575	578	585	593	590	584	577	567	567	576	592	605	611	619	621	623	634	666	693	718	742	745	743	736	730	716	709	711	720	720	730	733	737	734	727	715	702	670	678	706	708	713	718	722	725	736	749	749	743	740	743	747	754	746	742	745	756	767	767	781	785	791	789	771	745	731	724	721	719	717	719	722	714	710	714	716	722	725	734	746	749	755	751	743	738	740	748	755	746	736	739	745	753	757	761	769	782	797	804	799	771	756	755	755	758	767	781	781	791	793	789	786	783	782	793	795	793	767	756	742	736	724	726	724	727	733	749	750	736	729	731	743	762	776	780	787	800	795	782	794	795	787	783	779	774	787	787	772	755	747	755	747	722	703	726	764	791	877	875	900	905	854	842	832	818	807	807	808	765	739	718	718	713	724	733	740	745	750	751	752	755	757	759	741	756	762	768	773	778	779	782	785	784	779	749	727	720	719	728	738	734	725	722	726	723	711	701	675	685	675	678	691	715	748	739	733	716	688	690	697	700	692	693	690	688	690	692	689	688	691	675	664	660	660	667	688	702	705	702	690	676	653	623	654	661	681	679	677	683	688	688	685	677	688	733	761	770	782	838	895	930	954	1027	1102	1217	1300	1335	1397	1393	1402	1403	1398	1373	1343	1298	1255	1218	1198	1211	1249	1323	1387	1387	1438	1492	1533	1539	1508	1450	1405	1395	1400	1406	1401	1397	1384	1385	1375	1376	1375	1387	1390	1389	1361	1322	1281	1253	1251	1274	1292	1292	1294	1278	1269	1248	1214	1184	1167	1176	1177	1245	1228	1182	1152	1087	1006	921	850	816	796	778	778	735	698	665	659	644	647	654	686	617	544	558	551	516	515	525	530	526	526	502	490	489	493	494	505	511	516	517	525	528	522	509	509	502	497	503	521	523	526	529	531	530	523	521	517	517	511	505	498	494	494	485	482	486	488	492	495	495	502	505	500	496	492	492	495	496	490	489	489	489	491	484	480	481	481	487	492	496	496	493	491	499	505	502	501	497	494	494	496	498	496	490	481	471	465	467	467	477	482	493	491	489	487	470	470	455	483	508	487	472	470	436	436	433	488	491	482	449	464	464	481	482	472	455	440	449	449	470	488	478	448	446	460	460	460	434	414	403	419	452	452	442	452	478	502	507	525	507	474	443	463	474	474	463	450	438	449	472	472	478	444	444	449
528	539	539	555	553	547	545	550	550	559	575	605	601	581	550	550	527	520	517	528	549	549	557	564	558	557	562	561	561	549	532	523	515	530	541	541	545	546	552	554	542	534	530	530	524	520	537	549	552	549	546	546	541	532	523	518	519	524	534	534	537	527	532	533	529	522	526	538	538	551	548	532	528	531	531	528	523	523	524	542	548	546	557	560	554	554	556	556	560	559	516	509	513	520	523	518	519	523	523	528	531	531	529	520	520	523	520	519	521	521	521	526	535	539	533	523	514	510	549	569	569	558	540	540	535	546	548	549	538	540	536	530	536	545	551	555	548	548	544	550	557	550	546	550	564	571	577	578	582	581	576	566	557	557	580	580	596	601	604	603	615	628	638	654	691	718	721	716	722	730	728	719	713	710	713	718	718	722	726	731	723	681	676	670	678	643	650	685	715	718	719	723	728	735	734	733	735	739	742	739	734	735	745	756	756	766	780	780	774	751	713	710	701	701	709	714	720	719	710	700	681	675	683	711	726	733	743	756	754	750	745	742	740	742	742	734	734	741	745	752	753	758	771	783	788	782	768	751	750	747	748	756	769	769	783	779	771	763	768	781	797	806	805	795	786	777	762	751	752	745	736	729	733	734	735	733	741	759	777	783	781	781	792	805	816	820	814	796	773	767	770	799	810	806	798	788	782	768	764	765	778	820	864	877	875	900	905	854	842	832	818	807	807	808	765	739	718	718	713	724	733	740	745	750	751	752	755	757	759	753	745	738	737	745	757	764	768	763	749	731	718	712	715	726	736	742	730	723	725	719	708	700	691	692	690	686	689	699	699	715	745	772	785	709	701	706	710	709	705	698	692	698	698	692	694	693	680	665	665	659	667	688	704	706	701	700	690	668	627	656	661	681	680	713	738	752	767	788	784	824	891	964	995	1061	1161	1265	1364	1397	1401	1419	1448	1458	1450	1445	1456	1454	1449	1439	1401	1357	1314	1284	1261	1245	1237	1258	1317	1385	1385	1451	1501	1530	1532	1490	1422	1372	1374	1385	1387	1377	1383	1375	1363	1363	1361	1363	1357	1390	1381	1355	1322	1293	1281	1276	1301	1300	1300	1290	1271	1256	1247	1224	1180	1162	1182	1199	1230	1228	1176	1105	1038	971	898	832	790	736	683	683	646	636	605	544	565	567	541	530	526	517	517	508	517	531	533	533	533	531	516	502	494	491	491	491	489	516	517	522	529	522	510	510	499	494	499	509	514	525	524	523	510	500	511	507	507	506	502	501	491	489	490	489	488	489	492	497	497	498	499	497	495	489	487	485	485	485	485	489	489	491	484	478	478	478	484	492	492	494	489	485	497	503	503	496	486	480	480	480	483	477	471	469	463	459	459	459	472	480	487	486	480	486	469	469	455	484	511	483	472	470	470	459	438	494	493	493	459	443	443	436	437	441	440	444	434	434	458	460	453	446	449	461	461	453	475	498	464	452	452	466	445	444	448	502	507	507	488	430	413	446	470	470	510	508	451	409	453	453	456	448	442	443
527	534	534	536	548	544	539	542	563	563	578	605	601	569	537	537	520	509	510	528	549	552	552	548	537	535	545	547	540	540	524	510	512	527	542	543	543	546	541	538	534	537	543	543	540	535	537	549	541	534	527	527	526	528	527	526	518	520	537	537	536	533	538	536	525	520	527	545	545	552	548	531	527	529	528	524	522	522	521	505	499	516	536	549	554	554	541	541	545	538	502	497	500	511	520	516	513	517	517	520	524	523	532	525	514	509	509	520	522	523	523	529	537	539	535	528	518	517	540	554	553	542	528	528	528	541	549	554	544	540	528	525	524	532	549	555	549	544	544	536	544	543	542	541	553	563	570	574	579	576	563	554	546	549	565	565	583	593	597	602	592	593	593	622	646	669	684	692	701	714	715	716	714	714	696	688	688	684	677	670	657	648	645	644	644	643	650	660	692	718	718	719	722	714	708	700	689	690	692	687	704	723	734	746	746	757	758	713	687	695	703	708	700	695	704	711	719	716	706	689	672	672	679	702	715	748	766	776	788	812	805	791	749	734	729	730	737	745	748	742	735	741	755	774	778	777	766	756	752	745	735	732	734	757	757	760	767	781	790	802	814	820	834	840	841	834	830	830	833	836	830	835	841	835	826	820	837	868	893	900	913	926	941	950	941	917	883	858	828	832	844	902	911	917	919	934	950	940	938	918	837	830	865	888	885	903	901	862	839	820	806	786	777	760	749	747	716	711	721	732	736	740	742	744	750	756	757	764	767	761	749	735	731	734	741	747	744	720	697	690	692	708	717	730	738	740	734	732	726	718	702	689	689	695	702	706	703	704	702	717	762	805	800	797	726	705	714	713	708	704	702	706	701	700	699	699	692	681	681	673	676	691	703	709	713	714	713	713	710	700	699	736	770	836	904	935	1007	1074	1121	1167	1242	1357	1383	1381	1391	1386	1399	1416	1422	1437	1451	1462	1457	1464	1480	1490	1489	1464	1416	1365	1324	1307	1297	1307	1316	1327	1350	1350	1388	1435	1491	1510	1495	1427	1366	1337	1343	1358	1348	1333	1314	1310	1321	1332	1322	1363	1357	1366	1357	1345	1322	1281	1266	1249	1279	1298	1298	1275	1245	1241	1244	1211	1151	1144	1116	1093	1042	983	923	869	825	761	727	707	635	599	580	580	568	539	495	483	505	512	499	491	486	493	500	499	500	503	501	501	501	499	495	492	487	482	469	491	489	496	500	502	502	498	488	488	471	468	469	475	487	502	513	503	499	493	488	483	483	488	495	499	499	498	496	485	481	483	489	489	494	497	496	494	489	485	479	477	482	486	486	489	489	485	483	479	477	475	478	488	488	493	486	478	501	502	500	491	482	482	479	479	484	476	473	472	462	448	448	453	459	477	485	485	477	482	482	471	460	447	511	483	474	470	470	441	444	466	487	492	486	465	465	457	450	442	465	486	478	478	455	443	443	449	454	461	461	467	475	487	468	458	458	444	445	444	448	450	441	441	443	457	453	452	461	461	483	482	471	459	459	459	458	468	462	454
524	533	531	531	532	531	539	548	559	559	575	599	596	569	537	517	509	505	509	520	533	541	541	542	523	518	529	536	535	535	522	505	508	517	527	529	529	529	526	533	529	539	543	543	540	537	540	549	541	534	514	514	516	523	532	537	532	534	531	533	533	548	546	533	521	519	531	548	548	558	548	529	517	513	520	523	522	518	518	505	501	516	531	524	516	537	541	545	530	510	491	489	495	510	528	527	517	521	521	520	526	526	522	512	509	518	520	524	527	532	532	533	538	537	538	537	531	519	522	519	522	499	484	484	496	520	543	558	548	535	528	525	506	521	538	532	523	518	518	541	532	527	521	526	551	550	545	538	540	536	530	520	531	546	566	566	592	593	588	582	559	559	562	584	595	609	643	651	671	681	686	691	704	707	676	670	670	666	645	631	600	592	589	583	597	603	612	660	692	681	698	708	699	687	677	669	636	622	623	657	687	704	708	699	680	680	674	663	689	693	705	720	736	749	746	744	742	741	741	743	742	744	749	758	757	784	813	824	839	864	874	875	868	867	884	896	906	911	894	877	859	851	845	839	838	833	818	800	792	800	822	841	865	878	878	897	931	944	939	931	930	944	975	959	945	934	940	968	1000	1024	1032	1034	1077	1107	1115	1145	1178	1208	1218	1229	1241	1264	1283	1242	1104	1040	983	882	866	840	853	908	909	920	922	928	935	940	938	928	850	829	834	838	836	834	800	765	746	749	755	762	756	756	756	741	721	717	725	732	733	735	735	734	739	758	766	767	768	760	749	712	690	694	710	714	712	703	693	683	681	695	711	727	730	726	727	721	711	700	689	685	686	695	708	714	720	718	704	707	767	887	876	804	741	708	708	712	707	710	709	709	700	699	699	705	712	712	713	715	711	714	727	734	751	785	827	894	931	939	955	1020	1068	1117	1213	1314	1392	1403	1409	1393	1387	1389	1383	1384	1384	1368	1374	1401	1410	1420	1439	1455	1453	1454	1469	1489	1501	1473	1395	1291	1292	1308	1314	1324	1336	1347	1352	1352	1368	1381	1426	1455	1434	1363	1318	1302	1305	1281	1210	1156	1102	1080	1076	1332	1322	1313	1287	1272	1214	1213	1210	1181	1181	1193	1181	1181	1136	1019	1000	1002	1020	1018	979	926	904	856	764	707	688	686	676	615	567	553	533	516	516	502	504	491	486	478	481	483	482	481	488	505	493	486	480	481	486	491	491	492	491	486	467	482	469	475	489	491	488	484	486	490	490	487	482	469	469	473	495	498	498	495	491	488	483	483	483	482	481	476	475	480	489	487	463	462	489	489	487	481	472	466	473	472	465	462	479	486	486	489	491	487	485	486	482	478	478	481	481	483	482	475	472	479	472	458	452	452	456	463	465	480	484	480	477	464	464	465	466	464	450	439	442	450	450	480	460	447	460	465	458	453	453	457	474	460	462	464	466	466	466	477	480	484	485	487	486	486	480	462	454	453	452	452	458	463	475	486	465	456	458	444	444	453	457	456	456	450	443	456	453	452	461	461	481	479	471	455	457	457	458	476	471	462
520	529	532	532	532	534	539	551	553	553	555	550	534	530	517	517	509	534	525	516	517	523	523	526	531	530	528	531	531	531	516	510	503	501	509	516	516	509	504	495	489	518	533	530	530	530	540	545	530	523	514	514	507	517	532	547	550	525	520	540	540	553	553	533	501	511	531	552	552	550	536	516	506	510	517	520	521	516	516	511	506	523	522	497	498	498	523	530	530	510	482	482	488	501	524	527	517	523	519	519	518	521	518	510	511	512	517	523	531	537	537	531	528	525	537	541	526	505	518	528	532	519	509	509	508	515	529	551	553	533	519	508	506	521	538	529	524	533	533	540	540	531	527	522	529	541	537	531	530	522	519	523	538	546	549	541	541	543	564	578	580	575	568	565	564	578	579	584	620	634	637	644	611	571	588	604	593	593	564	546	545	546	542	543	569	587	601	626	660	681	652	655	659	670	670	664	636	624	626	664	692	707	707	698	678	678	671	665	693	739	789	804	824	822	818	806	799	791	791	790	792	798	802	814	817	831	860	881	955	992	1031	1044	1039	1045	1105	1136	1145	1121	1070	1010	960	885	890	900	935	962	985	978	959	962	993	1035	1062	1073	1068	1068	1052	1059	1065	1090	1076	1051	985	957	948	948	962	996	1022	1039	1042	1047	1094	1146	1284	1254	1230	1244	1247	1245	1240	1262	1297	1240	1093	1037	987	893	863	875	872	890	886	834	778	739	738	752	757	748	748	751	755	760	763	753	744	734	727	736	745	746	738	737	738	739	724	721	725	731	731	727	716	707	711	724	759	767	767	742	717	699	683	673	677	682	688	696	691	682	683	694	704	714	716	715	713	708	698	689	684	685	687	695	705	717	728	731	720	707	732	804	864	856	773	728	713	706	710	713	714	709	704	707	721	734	780	780	809	814	818	823	839	882	970	1027	1143	1191	1225	1271	1330	1372	1384	1386	1396	1424	1433	1443	1423	1414	1402	1384	1373	1363	1345	1326	1321	1323	1338	1344	1366	1386	1419	1427	1438	1400	1321	1310	1259	1228	1232	1263	1281	1296	1300	1293	1293	1292	1273	1245	1216	1198	1198	1224	1234	1237	1205	1141	1051	971	922	1080	1076	1069	1054	1050	1059	1080	1097	1029	1009	1008	1025	1029	1015	1015	996	980	899	878	869	817	786	754	725	691	637	583	559	566	566	534	515	510	491	475	475	479	484	485	471	475	479	483	486	495	507	497	481	468	470	474	481	481	483	475	469	486	467	466	466	469	470	478	482	477	482	485	485	491	490	482	485	492	497	492	491	486	479	472	463	463	466	475	472	470	465	468	469	468	465	460	458	458	462	463	462	458	455	462	461	462	479	485	485	480	481	474	469	463	459	449	446	460	460	462	451	449	447	459	459	456	452	452	458	464	463	480	480	480	477	466	466	468	467	463	450	440	443	450	450	480	491	461	445	437	441	446	446	454	474	458	462	464	466	466	469	479	482	485	486	487	487	486	481	461	457	453	451	451	437	444	458	465	465	456	456	444	443	452	454	457	457	445	437	450	465	470	470	467	461	453	450	453	453	460	467	470	476	476
517	533	536	536	523	525	527	526	509	509	500	515	525	515	510	516	516	534	525	516	507	509	509	524	532	534	527	529	522	522	517	508	498	488	482	454	454	439	431	436	460	509	528	524	524	515	513	510	505	504	501	507	507	517	516	542	552	541	518	532	532	551	527	500	491	493	527	539	516	516	508	504	501	505	513	516	516	516	516	516	513	514	517	492	487	499	505	508	508	491	482	482	508	511	502	506	507	511	508	508	503	509	511	508	509	505	510	519	528	509	498	498	497	508	545	550	535	540	545	546	544	532	525	513	513	508	518	526	526	521	509	495	492	524	538	529	522	518	514	514	518	518	516	511	498	497	491	496	506	516	524	528	535	534	529	518	518	528	541	548	558	560	554	534	522	536	541	563	618	619	614	604	567	520	512	522	514	514	509	508	515	527	543	546	554	581	597	612	638	645	652	655	652	655	635	668	681	688	695	713	753	753	741	726	732	749	749	793	804	855	864	862	851	839	830	820	795	776	777	787	801	805	804	809	821	831	868	940	977	1019	1036	1043	1050	1095	1133	1148	1156	1134	1095	1009	949	880	889	904	930	957	976	969	960	962	994	1029	1059	1067	1057	1043	1043	1057	1065	1087	1074	1052	977	960	948	955	976	1006	1037	1058	1054	1043	1055	1164	1305	1296	1283	1274	1261	1230	1152	1063	1045	990	879	791	749	753	760	755	756	746	724	695	663	679	689	697	695	689	695	706	721	739	747	745	739	731	729	737	743	738	732	726	724	728	715	711	707	724	721	713	701	699	706	712	718	727	726	722	707	698	680	670	669	676	683	691	692	690	688	691	703	704	701	702	699	694	684	677	674	679	686	689	697	701	707	725	717	709	729	804	870	864	802	778	719	714	756	778	781	772	778	826	868	888	888	958	1032	1071	1094	1126	1165	1297	1390	1410	1403	1363	1314	1297	1325	1369	1377	1389	1394	1402	1422	1435	1421	1421	1385	1357	1337	1319	1300	1273	1258	1258	1286	1237	1255	1282	1274	1226	1198	1170	1172	1171	1162	1145	1149	1153	1162	1163	1175	1190	1190	1155	1097	1020	987	976	975	992	1007	1010	979	931	884	971	922	902	895	878	874	902	931	959	979	970	963	951	951	963	963	894	842	824	804	739	704	675	642	618	609	585	551	530	522	523	522	514	505	504	485	467	467	464	479	480	480	496	494	493	494	494	490	482	476	474	476	484	488	488	481	475	469	468	466	463	466	465	466	467	477	477	459	461	461	480	478	472	467	489	488	485	476	480	461	451	448	448	451	457	471	472	466	470	468	467	462	457	456	456	461	461	461	457	455	462	461	461	479	479	485	480	480	473	467	462	455	448	444	444	460	461	453	447	445	455	468	468	459	459	444	445	458	462	466	479	481	481	475	483	485	482	477	440	443	454	454	482	491	463	449	440	437	437	441	447	447	442	443	449	456	456	458	463	476	483	480	470	470	466	462	459	456	455	455	455	455	457	458	465	463	462	462	465	465	460	455	450	450	444	446	456	463	467	467	461	456	450	448	448	448	457	458	459	465	474
520	524	509	509	500	509	505	487	487	487	490	501	505	504	513	542	542	534	523	508	507	509	498	514	528	535	539	531	516	516	509	495	457	464	488	481	476	476	469	476	472	482	520	526	526	515	504	501	503	503	498	494	494	501	516	542	525	518	515	519	519	529	527	513	504	499	495	500	504	504	504	498	495	502	507	508	516	538	538	551	540	526	510	500	469	462	478	488	488	486	485	496	508	511	516	512	507	505	503	503	497	498	508	510	508	501	511	518	503	493	486	486	484	510	515	513	517	517	514	508	505	504	501	500	500	504	510	508	504	505	504	492	490	500	527	523	522	518	512	512	513	510	507	502	498	494	492	494	504	505	513	520	520	523	520	519	519	529	536	538	543	544	541	529	533	513	539	553	567	564	545	532	513	487	490	493	499	508	508	504	515	527	544	562	579	591	598	616	642	646	653	656	652	655	774	827	827	819	809	813	809	812	814	823	841	851	851	859	862	861	865	859	846	828	813	806	789	780	788	800	814	816	810	802	820	864	929	963	1013	1029	1032	1060	1077	1110	1128	1148	1151	1116	1020	957	916	887	891	915	935	955	947	939	929	927	926	928	944	956	959	954	954	959	974	987	986	944	943	947	960	962	971	983	996	1008	1045	1065	1040	1042	1038	994	992	1007	975	908	864	841	802	745	707	671	677	682	700	704	705	708	696	691	693	696	698	676	666	663	690	704	709	718	731	734	728	715	714	716	721	725	727	725	720	706	694	685	681	689	694	695	697	702	701	700	695	700	702	703	694	686	675	666	666	675	683	692	692	691	687	682	673	668	667	679	682	682	654	650	660	672	677	678	687	695	700	719	711	705	781	867	875	878	866	791	774	767	848	937	973	976	1021	1145	1160	1184	1184	1199	1220	1196	1177	1199	1235	1293	1395	1415	1400	1357	1308	1287	1301	1349	1375	1390	1374	1377	1398	1392	1384	1362	1316	1269	1220	1189	1158	1149	1134	1113	1051	996	1031	1040	1037	1013	934	932	931	910	899	863	860	871	883	873	860	860	841	817	776	743	741	744	733	732	739	750	702	931	884	835	831	824	824	831	831	805	800	809	812	789	759	738	718	675	675	600	590	606	598	572	560	543	528	519	526	523	509	497	492	503	509	502	485	485	485	485	495	489	482	486	489	482	479	474	493	490	486	482	478	476	476	484	486	486	481	475	468	474	479	474	468	464	464	468	478	476	457	457	460	477	476	471	467	488	489	484	478	481	460	450	447	447	450	455	469	487	495	476	462	462	454	452	452	461	461	466	475	483	455	462	459	451	450	450	449	472	476	474	471	463	449	440	458	458	470	476	462	450	446	439	438	442	442	447	446	444	446	447	450	452	457	457	473	478	478	482	477	470	470	470	476	477	473	462	449	437	435	435	443	452	454	452	451	455	459	459	461	462	466	471	469	465	465	463	458	454	451	454	455	455	455	457	459	463	462	462	462	464	462	459	458	452	452	448	449	456	461	462	462	460	452	447	442	442	442	446	449	449	458	470
547	517	508	508	498	500	502	488	483	483	483	487	485	495	506	517	517	531	520	505	494	498	514	514	578	608	626	629	612	577	577	472	415	441	475	492	463	463	451	465	478	481	473	485	485	493	498	496	492	489	483	486	486	496	511	535	525	518	460	492	492	512	526	506	486	495	512	518	509	509	509	505	501	494	487	482	487	520	529	529	541	547	533	516	508	499	503	512	502	502	493	494	505	513	516	512	507	502	494	494	477	457	460	476	500	520	515	501	504	505	509	509	511	514	516	511	500	492	487	480	479	484	485	484	484	485	489	489	491	490	489	492	492	501	521	521	524	518	512	507	498	488	484	489	492	505	507	503	504	507	513	519	519	519	522	522	526	526	528	530	532	532	553	534	528	515	524	516	504	496	506	507	499	492	493	496	499	505	505	529	561	586	605	626	642	650	672	725	736	741	745	751	753	755	774	827	1006	981	965	941	871	848	842	841	855	851	849	849	860	863	856	854	842	811	799	794	788	789	795	810	822	822	815	853	906	975	1010	1040	1066	1064	1061	1063	1088	1120	1125	1120	1074	1008	999	958	925	908	919	941	963	952	941	919	912	904	903	911	931	941	941	930	920	920	921	920	891	874	857	873	892	882	840	799	799	807	822	819	813	802	767	752	766	792	760	744	735	705	678	649	639	648	660	665	667	672	678	693	691	695	697	683	663	658	657	661	676	706	709	708	713	713	690	676	668	683	695	708	709	703	694	681	676	675	673	675	675	684	692	696	696	690	691	687	692	694	691	680	673	673	675	679	683	696	695	690	684	680	665	661	654	657	657	655	651	648	656	669	669	670	670	673	685	707	738	782	861	939	969	988	990	993	1005	1008	997	980	969	972	1007	1144	1169	1169	1190	1194	1203	1182	1163	1183	1170	1184	1200	1204	1178	1127	1078	1053	1056	1065	1069	1037	1029	1008	989	952	884	819	815	805	785	764	761	748	746	727	700	679	679	682	688	689	635	618	615	610	606	598	595	595	588	569	561	561	573	570	561	554	555	553	546	550	562	566	702	645	638	630	622	623	627	637	642	629	615	610	605	584	589	585	569	556	556	521	510	508	509	493	480	484	490	521	529	525	509	497	491	500	505	501	483	482	484	484	496	489	480	484	488	482	477	473	491	490	482	474	466	462	463	466	484	486	479	474	467	474	480	475	467	461	462	469	467	453	449	449	440	446	467	483	482	477	467	468	473	472	462	454	454	452	456	478	476	474	467	458	451	447	448	457	457	465	461	467	475	483	490	504	506	494	481	481	461	442	437	440	449	456	462	462	461	461	471	473	473	458	445	440	440	443	443	451	446	445	447	449	449	451	462	462	471	478	478	478	473	470	471	471	475	477	473	462	451	445	433	433	441	452	462	462	461	457	457	457	455	456	460	466	465	465	465	458	452	445	444	454	455	455	461	457	455	451	449	449	452	458	460	468	477	477	477	471	470	482	476	460	460	453	445	440	444	446	446	444	440	443	454	470
549	518	511	500	500	494	488	513	509	504	504	511	518	507	497	514	514	518	513	503	490	511	545	545	578	608	573	594	591	559	559	509	489	482	500	507	505	505	500	478	468	455	455	477	477	493	509	514	520	530	526	528	528	535	532	504	473	458	460	492	475	475	473	466	477	489	503	503	492	492	495	493	495	486	473	471	475	517	529	529	541	546	532	515	508	499	504	507	502	502	498	494	507	513	522	516	507	502	496	495	495	486	485	491	499	508	504	492	493	500	506	507	507	511	512	510	499	494	488	480	475	478	479	476	481	481	487	487	487	492	496	496	500	505	510	515	513	512	507	498	498	483	483	486	494	499	507	508	508	512	516	519	519	518	518	518	520	520	522	519	517	521	538	508	514	493	481	495	500	499	510	509	528	534	529	532	555	596	596	624	645	702	742	765	767	778	848	893	903	917	917	916	924	955	1001	1025	1006	981	1042	986	937	919	900	899	882	854	842	842	848	854	852	849	835	806	794	792	795	805	829	895	935	938	986	1019	1022	1048	1055	1059	1063	1064	1055	1054	1020	1017	1008	1003	994	992	983	980	992	1027	1041	1039	1027	1004	963	925	904	900	899	910	927	904	873	832	827	827	829	826	783	724	714	738	750	753	722	670	698	698	698	692	687	682	678	678	687	708	680	682	665	649	654	644	637	636	649	654	657	662	669	682	680	680	663	658	657	656	659	658	662	692	707	710	708	692	691	685	672	667	675	685	682	678	670	661	662	670	670	670	673	681	687	693	691	680	677	681	682	682	682	677	672	674	677	671	671	677	681	682	679	661	661	659	651	647	650	649	649	655	653	690	708	711	705	703	714	742	741	777	861	939	970	992	991	997	1007	1010	1003	974	965	966	960	948	948	849	835	846	837	806	782	779	785	784	784	768	747	711	688	684	682	681	681	651	652	648	647	605	568	561	560	557	561	562	564	558	554	550	541	542	541	535	538	538	536	509	506	508	512	513	521	513	511	509	509	510	510	512	515	522	536	552	560	562	562	566	560	534	524	523	527	536	544	546	535	535	536	536	534	532	534	539	547	547	555	525	510	508	508	493	480	484	492	499	503	505	505	508	507	505	501	491	480	479	482	482	503	501	483	493	498	494	487	489	495	500	491	474	469	467	463	466	466	469	472	475	473	471	472	472	469	469	466	465	465	465	461	461	459	463	464	464	468	465	462	458	459	456	454	461	461	472	485	474	470	466	463	452	447	444	446	456	456	468	461	467	473	482	490	504	503	493	479	479	461	442	437	440	449	456	463	461	460	460	468	469	473	457	446	450	457	465	465	460	449	447	447	449	449	450	458	462	471	471	471	471	468	464	467	467	472	475	471	461	449	441	432	432	430	439	450	453	451	452	452	453	449	446	448	448	449	449	446	441	434	445	444	449	449	458	459	451	448	445	446	446	447	450	452	454	457	457	459	455	454	462	480	461	461	443	437	438	447	450	450	444	440	443	454	454
544	524	456	452	452	469	508	521	504	488	488	524	532	520	501	501	501	507	513	507	519	533	547	547	544	549	573	594	588	531	531	480	474	477	492	508	513	513	520	521	497	474	454	429	436	436	477	533	545	533	497	463	444	444	420	411	398	410	445	472	475	475	471	464	471	464	461	465	471	474	474	479	482	462	456	452	443	432	443	443	489	496	498	507	496	461	446	477	510	510	501	486	512	522	532	534	526	498	496	494	494	490	490	498	500	492	486	484	490	497	500	503	503	505	506	504	496	494	491	483	474	471	471	472	478	478	482	485	487	490	499	506	505	507	511	511	500	499	497	490	490	483	483	488	492	501	509	511	516	522	527	526	521	518	518	515	512	512	509	503	500	510	528	498	516	489	481	490	502	522	552	569	599	649	679	701	762	851	872	872	880	947	968	980	990	1043	1088	1097	1129	1153	1155	1148	1154	1168	1166	1141	1099	1056	1042	986	1024	997	991	993	997	986	977	964	964	962	971	984	989	976	948	941	954	985	1013	1026	1023	1025	1031	1034	1038	1055	1062	1058	1044	1035	1021	1003	991	982	977	972	978	979	979	984	998	1027	1035	1039	1024	1009	973	917	865	866	869	843	800	744	722	720	718	717	717	711	686	663	663	665	668	670	662	657	668	649	642	643	645	641	633	626	644	651	623	633	639	648	659	651	634	628	628	634	637	645	649	649	645	642	644	645	648	654	659	659	663	666	678	675	677	673	667	661	653	659	657	656	653	655	654	648	653	655	662	660	654	650	648	641	643	652	657	642	638	636	633	634	639	642	645	631	631	638	639	637	627	624	645	653	636	628	637	642	653	642	636	683	702	707	705	701	709	738	736	724	713	700	692	689	689	690	692	665	648	643	645	645	647	636	636	596	594	595	600	597	596	601	615	616	593	581	566	561	559	557	550	548	548	542	528	531	533	533	528	527	528	544	552	558	558	546	554	549	541	541	543	542	537	534	530	532	530	515	517	515	515	516	513	512	512	509	510	514	515	523	538	552	560	562	559	557	555	533	523	526	528	534	548	546	538	536	536	534	532	529	531	537	540	540	544	543	542	543	547	552	549	546	545	543	549	554	549	531	519	512	506	501	496	493	493	514	528	526	517	517	500	489	485	487	493	496	497	485	469	467	470	474	474	472	473	481	485	482	476	471	462	464	464	462	462	465	465	465	464	462	457	460	461	466	460	463	460	455	452	461	461	471	477	481	470	463	447	445	457	465	468	468	456	468	470	466	469	476	485	484	484	476	476	467	454	451	446	443	444	450	455	456	456	455	461	466	461	438	426	431	465	465	465	454	449	441	441	447	444	450	450	458	465	466	471	475	478	475	465	465	465	461	455	452	444	440	433	433	429	427	431	438	442	454	454	459	454	444	442	442	442	442	437	441	434	440	438	448	448	458	454	443	433	426	424	424	426	432	443	446	445	445	430	435	444	450	458	458	452	434	423	422	438	438	450	444	439	439	440	440
538	546	562	561	561	554	545	531	515	493	493	491	510	552	586	577	569	569	554	564	602	579	0	0	0	0	0	0	588	531	519	466	468	480	494	511	525	525	535	532	502	474	455	436	443	443	475	528	531	501	468	446	422	422	414	415	410	421	446	475	475	475	471	464	493	471	464	454	447	449	449	455	460	461	462	465	457	458	467	467	504	501	499	495	497	484	489	498	499	499	493	490	491	491	489	484	480	484	496	494	494	497	498	501	494	488	482	483	490	496	498	500	500	500	500	498	499	499	497	498	487	470	468	471	475	475	478	479	483	492	505	510	511	510	508	507	495	494	490	488	488	487	488	488	492	496	504	510	518	524	525	526	522	510	493	498	506	516	516	501	498	481	505	498	491	493	514	539	577	644	698	714	795	900	981	1003	1032	1033	1069	1069	1088	1094	1067	1049	1044	1060	1095	1126	1148	1165	1167	1161	1170	1163	1156	1127	1092	1061	1047	1045	1024	997	993	994	996	986	975	967	967	958	966	981	987	978	944	951	971	1005	1019	1024	1019	1020	1034	1030	1040	1059	1064	1052	1023	1005	984	972	963	937	949	956	946	903	856	839	830	849	863	855	833	796	775	746	711	704	690	682	656	636	627	627	634	636	636	636	628	622	625	637	648	656	660	660	654	641	608	620	614	598	587	577	579	584	590	601	609	629	636	637	613	608	609	608	607	610	607	606	603	602	602	601	612	620	624	623	620	619	626	619	604	601	601	608	617	630	624	617	613	609	605	599	593	589	583	587	585	585	590	590	595	597	598	582	576	575	577	581	577	582	587	581	568	569	565	561	592	603	611	627	607	609	619	626	641	628	615	608	603	595	600	607	609	609	597	579	564	560	561	568	594	606	605	592	589	592	593	584	570	570	561	556	552	561	570	577	577	581	578	579	577	577	565	563	562	559	552	551	549	542	527	531	532	533	530	527	528	544	552	558	558	548	553	559	555	550	547	544	538	535	534	533	531	528	520	515	519	520	552	552	540	539	538	562	566	576	538	552	561	562	561	553	546	529	553	577	582	581	577	589	586	562	544	528	522	516	511	520	520	523	543	545	544	541	544	553	550	552	547	544	547	550	547	532	518	508	502	498	495	494	494	512	522	525	514	511	497	492	486	484	487	494	489	485	468	463	466	466	471	471	470	477	481	480	475	470	462	465	464	459	459	458	458	468	464	456	453	455	458	460	459	459	461	458	454	454	456	462	467	481	463	456	451	447	453	460	468	468	469	469	470	465	460	460	462	478	463	456	456	452	451	452	446	443	442	445	451	448	448	453	456	461	451	437	421	428	439	439	441	435	433	437	438	447	444	444	444	455	463	466	465	471	473	470	470	461	459	455	454	450	445	441	441	436	438	439	440	440	445	448	448	449	447	440	437	439	442	442	437	435	436	434	441	456	456	453	446	435	427	423	423	423	427	434	438	438	434	434	429	432	437	443	450	450	453	441	437	438	438	438	457	447	447	454	457	457
538	546	560	572	572	558	529	520	506	494	494	493	503	522	556	577	601	601	609	572	0	0	0	0	0	0	0	0	587	519	519	466	464	469	486	509	536	553	553	541	513	485	460	461	479	479	505	529	496	468	435	423	416	416	420	438	451	450	455	455	449	449	422	465	493	471	480	474	471	472	472	472	470	462	467	476	479	482	488	499	499	498	492	490	495	489	482	479	478	481	481	485	487	485	477	472	473	478	486	496	497	497	498	481	487	493	491	488	493	492	492	495	495	494	494	492	491	497	504	499	488	477	467	470	474	477	477	480	483	491	504	505	500	495	494	503	506	505	497	486	485	485	488	490	490	496	504	502	502	506	512	516	514	492	475	503	523	560	560	553	540	525	502	547	558	574	656	752	831	945	974	996	1026	1008	991	989	1028	1032	1061	1080	1080	1089	1062	1031	1028	1035	1087	1118	1150	1171	1169	1166	1167	1148	1117	1091	1070	1055	1051	1050	1026	992	993	994	859	845	840	836	821	821	804	796	802	828	852	887	952	983	997	1009	1008	1003	1003	999	1009	1028	1039	1027	997	966	951	933	886	840	814	821	815	767	700	663	665	687	699	673	661	648	634	605	579	570	568	582	590	593	589	583	583	591	595	595	595	594	598	606	613	617	619	616	613	601	586	565	555	555	542	548	572	573	573	570	566	564	564	569	540	539	536	542	542	540	538	528	528	539	537	534	546	557	561	562	563	560	556	553	546	528	541	561	566	555	564	572	573	569	540	541	541	559	573	581	580	583	587	589	594	596	598	584	577	574	576	579	570	581	585	581	567	568	566	564	590	605	605	592	591	599	604	619	619	615	600	592	593	596	593	598	603	607	596	579	564	559	562	568	591	604	607	593	592	594	590	583	570	570	560	552	554	565	572	578	579	576	575	576	578	577	581	596	593	571	569	574	574	567	562	561	566	570	557	548	546	557	569	578	575	564	558	560	559	546	543	526	527	532	533	517	528	530	499	501	519	524	544	544	543	555	553	559	566	576	564	556	559	565	570	572	568	576	584	589	585	576	575	586	590	602	564	528	520	513	510	513	513	517	517	517	543	538	532	525	523	522	509	511	511	518	518	519	514	501	496	494	494	494	495	489	484	487	488	491	483	481	481	479	482	494	489	473	465	458	463	463	462	448	443	449	475	480	474	456	458	464	462	454	450	451	451	457	448	458	458	456	452	451	457	464	464	461	454	454	452	453	460	468	463	464	458	453	453	460	464	464	468	467	465	456	437	438	444	455	458	447	447	447	450	452	446	442	443	444	446	443	443	453	455	459	454	451	424	443	443	443	437	422	423	437	438	438	435	436	436	442	449	451	442	435	430	435	435	439	432	435	438	436	431	425	425	436	440	438	436	437	441	446	446	442	438	435	434	439	442	442	439	440	440	439	440	446	446	445	444	439	442	443	443	442	445	439	441	443	437	437	427	426	428	432	435	435	439	441	437	438	449	449	448	441	446	453	450	450
503	532	560	572	566	552	524	491	487	499	487	487	0	0	0	0	0	0	0	0	0	0	0	487	487	534	574	571	540	500	475	475	464	469	486	457	478	491	491	501	517	538	535	524	513	513	513	523	515	489	468	462	460	460	465	470	481	473	444	425	424	440	440	459	470	482	480	474	471	467	467	464	466	473	481	487	489	489	493	496	496	492	492	496	496	492	483	477	472	472	472	476	477	476	474	467	463	470	480	490	473	473	474	481	487	486	481	481	490	485	480	481	480	480	479	472	475	483	491	495	488	477	469	466	473	484	484	491	494	499	497	501	500	487	490	497	502	501	496	487	485	485	488	489	490	495	497	502	480	498	526	534	528	518	501	514	532	543	543	549	563	573	582	586	628	734	800	823	837	956	986	1002	1029	1020	980	963	936	952	964	982	982	997	992	955	937	937	951	974	996	1017	1019	1010	986	963	949	945	956	974	988	977	945	930	909	876	859	845	703	685	679	679	671	665	662	661	663	672	706	731	745	753	757	755	752	750	750	762	764	697	623	640	669	633	584	588	596	596	588	585	568	543	542	550	551	555	549	544	541	537	530	531	536	540	539	530	535	541	544	542	536	546	546	552	554	558	556	559	552	557	556	548	550	546	546	543	535	541	568	569	567	570	565	562	563	567	546	543	529	519	513	536	531	523	522	536	533	528	544	555	559	559	559	556	556	551	541	524	537	558	559	558	566	571	572	569	537	531	533	549	562	560	562	568	574	575	577	601	617	632	629	624	615	610	606	586	580	583	602	599	597	594	590	586	620	629	639	631	625	617	614	604	588	579	576	588	593	595	601	602	598	586	578	577	574	577	584	602	617	630	634	625	612	588	588	574	570	569	575	581	587	590	588	581	578	577	577	576	584	594	588	580	563	564	567	571	577	587	592	592	584	568	558	554	557	571	583	583	575	574	572	560	540	549	550	552	542	537	516	510	502	503	524	532	548	548	565	561	553	559	571	576	575	581	579	580	577	577	579	581	587	590	586	581	578	582	605	587	551	520	501	496	496	502	502	503	511	513	512	501	475	482	490	502	513	517	517	509	494	495	511	507	496	493	495	495	495	489	482	482	480	486	484	482	475	479	482	481	477	474	472	473	469	469	464	450	442	449	454	475	471	467	456	459	454	443	436	440	440	443	437	432	456	459	447	446	453	466	466	462	455	455	453	455	462	462	463	459	454	453	453	455	464	464	468	467	456	439	440	441	429	448	461	461	444	444	450	450	444	440	442	445	443	437	437	442	454	458	456	454	445	448	448	448	441	430	423	432	435	430	428	435	435	442	451	451	443	435	427	424	424	427	430	432	432	435	430	416	416	412	418	421	428	434	441	441	443	438	434	435	434	437	441	441	442	440	440	437	433	430	430	429	425	432	432	426	426	423	432	450	450	446	442	442	440	432	419	418	423	435	439	440	437	436	442	442	442	439	441	448	436	436
477	520	550	566	552	552	521	482	480	479	0	0	0	0	0	0	0	0	0	493	493	487	483	477	477	488	497	504	488	472	454	454	443	426	431	457	478	483	483	477	472	493	486	475	469	470	470	483	507	507	508	502	492	481	481	470	465	487	495	463	452	466	466	492	476	473	480	483	471	467	460	460	462	466	479	481	488	487	496	496	496	494	496	501	504	497	486	478	470	464	464	468	472	474	471	464	461	474	481	470	468	468	469	480	488	486	481	474	473	469	468	472	470	470	465	467	471	476	482	482	477	469	466	464	464	480	480	488	494	498	497	498	499	486	476	472	472	481	485	481	472	472	487	495	514	504	488	472	480	498	526	530	523	512	491	512	527	543	556	556	566	579	583	588	629	731	801	846	851	823	792	804	821	827	810	786	753	777	778	777	777	776	779	777	779	790	799	817	846	862	847	823	770	753	759	774	780	784	783	797	804	809	783	735	719	713	703	685	567	565	565	565	568	574	589	603	598	598	597	596	598	587	595	596	594	585	585	549	532	561	567	551	543	539	537	538	549	550	550	559	553	550	549	556	552	544	541	535	531	532	536	539	539	524	536	538	541	539	534	545	545	549	553	554	553	555	551	551	551	546	544	536	532	513	516	526	532	539	546	551	558	562	547	536	531	527	528	514	512	523	533	545	528	527	534	550	562	557	552	551	554	567	562	564	573	573	586	591	598	606	607	603	593	588	581	580	588	594	593	583	581	587	614	631	636	633	616	596	596	600	606	615	618	611	609	609	609	623	630	636	636	634	634	639	648	650	644	636	625	610	597	587	582	584	594	598	599	602	594	582	577	575	569	569	574	592	615	627	631	622	610	593	593	586	578	575	576	582	588	591	592	584	579	579	571	568	572	581	586	564	559	562	564	567	575	584	589	579	578	575	571	566	564	569	574	575	576	576	578	575	547	549	555	556	539	536	543	517	518	522	526	552	552	552	565	561	558	558	565	572	573	574	574	575	575	576	575	575	583	587	591	592	595	593	579	540	525	520	508	499	500	500	502	503	508	509	505	495	482	485	497	504	509	512	512	502	485	478	488	489	500	493	495	495	495	491	485	479	478	485	484	482	475	473	480	482	478	476	473	473	473	473	468	460	448	447	466	471	467	463	457	452	442	430	428	428	433	438	437	426	428	437	438	439	450	456	461	460	460	457	455	456	460	459	460	459	454	452	451	457	457	463	464	464	453	442	441	433	437	430	439	439	445	443	440	437	437	431	437	441	437	437	437	440	441	447	453	444	437	447	448	448	441	430	422	423	435	434	426	426	426	444	450	450	443	433	426	423	423	423	426	427	427	427	425	417	417	407	407	413	422	435	442	442	441	438	434	431	430	430	430	431	432	436	434	429	424	424	421	419	421	422	426	429	429	422	422	433	450	451	451	445	442	431	415	418	423	423	425	424	424	424	433	433	434	435	434	423	423	419
498	513	534	543	541	541	521	482	458	449	0	0	0	0	0	480	476	476	458	459	483	473	450	414	414	432	453	463	469	469	474	474	485	499	496	494	495	483	483	502	495	490	489	490	496	500	500	484	466	480	483	480	474	466	466	463	464	478	485	487	477	477	477	476	473	471	478	475	467	464	460	460	460	465	477	494	499	493	494	494	494	492	495	508	508	502	493	492	490	474	474	472	472	473	471	469	481	479	467	467	469	469	469	478	486	482	473	474	473	464	468	473	467	467	459	458	463	467	463	456	453	469	467	464	457	461	469	469	470	470	472	471	450	443	455	477	488	478	467	465	466	478	478	491	515	505	488	472	480	500	526	530	454	458	472	479	485	486	485	485	479	472	470	478	494	539	557	577	591	586	570	572	585	619	621	612	581	574	578	582	580	580	582	586	597	603	629	632	635	634	629	616	602	596	595	612	596	592	591	595	607	615	616	594	591	592	577	570	567	565	543	544	542	541	548	546	551	559	538	527	520	512	512	513	518	516	521	528	535	554	561	547	542	539	538	539	549	551	548	559	559	555	557	550	536	530	541	550	558	561	553	548	545	542	546	543	541	546	551	556	561	561	565	559	551	550	567	571	572	573	566	560	555	542	534	532	536	543	551	559	566	566	565	558	561	572	577	569	566	584	610	605	603	595	583	587	592	597	604	606	602	603	617	631	639	647	650	639	614	614	614	612	606	602	618	618	622	626	631	632	630	630	632	636	637	631	613	595	594	600	602	614	614	612	609	611	612	623	634	636	634	629	628	633	644	647	642	633	622	614	604	589	582	584	591	593	591	591	586	578	571	565	559	551	564	582	599	614	618	612	598	598	588	578	578	575	576	579	585	590	596	590	580	567	564	558	558	559	561	558	557	556	556	559	563	573	580	573	570	569	566	560	555	559	561	571	571	579	582	579	558	557	561	561	531	533	540	542	543	548	556	553	552	552	561	561	557	555	562	567	570	573	568	567	566	565	566	568	575	583	591	582	552	539	526	527	528	514	510	503	498	498	501	504	504	504	499	497	488	490	495	501	507	510	506	495	483	476	476	474	474	479	479	485	493	488	483	480	479	481	484	479	464	464	466	471	469	466	461	458	458	466	472	473	471	459	454	454	461	457	452	445	439	445	446	446	442	431	417	415	424	434	433	427	426	430	441	449	449	456	455	452	450	459	460	458	452	450	453	457	457	459	460	459	452	442	438	434	435	451	443	443	440	440	431	423	413	421	432	415	441	441	443	438	438	438	437	435	434	442	447	448	446	434	429	427	426	427	424	424	428	445	451	449	443	435	428	421	421	420	423	425	426	425	422	422	409	402	402	404	412	423	441	442	441	439	434	431	426	424	424	421	419	423	424	419	413	413	414	414	417	417	421	425	425	425	430	435	439	437	437	434	427	431	415	412	412	415	414	412	414	413	413	413	411	413	415	417	417	415
539	522	520	509	500	500	494	486	458	449	347	347	331	377	397	444	508	515	515	491	472	464	455	427	427	447	474	485	502	511	502	502	474	481	483	485	498	502	502	502	495	493	493	497	503	503	503	493	474	468	465	463	462	467	467	467	466	468	471	476	479	477	477	471	469	468	471	467	461	458	457	457	460	465	476	478	476	476	475	473	478	478	491	497	495	470	466	470	472	472	471	471	469	468	468	474	478	471	469	467	464	470	470	476	484	479	474	464	461	464	459	461	466	466	466	456	451	447	446	449	460	463	457	456	456	456	462	462	465	466	470	469	447	437	453	476	489	476	466	462	464	473	473	500	511	510	505	498	485	479	468	453	454	458	446	451	464	473	475	472	472	473	476	477	475	467	465	475	488	498	508	515	515	513	512	515	527	533	538	537	530	530	522	522	530	545	552	560	559	558	544	550	552	551	561	560	559	557	555	554	549	546	547	564	571	572	564	550	544	543	544	544	540	535	546	546	553	556	536	522	518	514	514	516	516	517	522	529	539	543	544	550	546	539	546	559	569	574	563	557	559	566	572	576	572	567	570	576	586	588	585	579	571	565	561	559	574	590	571	563	566	566	572	573	570	571	572	575	584	578	570	560	559	555	554	549	548	556	566	572	570	560	577	577	576	581	584	590	596	604	612	608	602	592	578	579	585	590	598	601	599	602	618	631	641	649	653	641	617	616	615	613	606	602	613	613	618	624	630	631	632	634	634	634	614	588	578	580	585	589	604	608	609	605	609	613	621	626	622	630	629	623	618	617	631	638	635	630	619	612	601	595	592	586	583	579	577	577	575	582	575	570	559	553	561	578	590	596	597	592	592	573	566	569	571	572	575	577	583	592	590	591	587	563	559	574	575	575	561	557	553	557	555	556	557	561	573	571	559	553	543	540	537	539	546	556	569	581	582	564	562	563	567	564	539	534	536	535	540	548	556	556	553	556	556	556	556	558	565	568	566	565	566	563	562	561	560	562	566	577	575	552	538	527	524	526	525	523	508	504	504	506	509	508	505	506	501	496	490	494	496	499	503	505	503	491	482	477	474	455	461	467	467	470	470	464	463	462	479	481	482	478	456	457	461	465	466	463	454	443	443	450	458	460	460	462	467	464	453	449	441	427	426	430	437	437	437	429	428	437	434	428	424	424	426	425	423	442	442	450	448	452	450	450	452	448	427	423	436	442	442	448	450	448	446	444	441	433	438	421	431	431	429	438	417	410	417	429	428	414	436	436	428	440	437	439	435	437	434	442	442	445	447	443	435	435	432	429	425	425	424	428	427	429	443	452	454	454	443	430	428	421	418	422	423	423	422	413	407	408	415	423	441	441	443	438	435	431	424	417	417	413	411	411	415	416	414	414	412	413	416	414	417	418	418	422	424	431	439	434	434	434	427	420	417	417	417	412	410	409	405	406	406	410	407	410	413	416	416	413
535	519	513	513	499	499	481	470	454	382	347	347	417	465	488	492	509	508	508	498	485	487	488	477	480	480	481	478	484	484	474	464	464	462	457	461	476	488	492	492	491	493	493	470	474	473	473	474	465	463	461	463	470	473	473	463	457	456	458	463	470	468	470	470	474	472	467	464	460	455	451	466	466	473	476	478	449	447	446	455	461	461	468	472	476	475	470	456	455	453	452	452	453	456	460	461	461	461	459	454	458	462	462	459	454	450	449	450	456	454	459	461	459	460	460	453	448	445	441	446	456	447	446	444	449	457	451	451	455	459	463	455	449	454	461	463	445	429	422	424	445	458	458	476	483	481	480	478	478	468	464	461	459	452	446	451	465	473	476	475	475	475	480	478	474	466	463	473	488	498	510	516	516	512	510	513	527	537	540	537	528	520	520	524	530	543	553	561	561	559	546	551	550	551	560	562	560	559	562	560	555	555	552	566	572	571	566	551	544	542	544	544	540	535	543	548	552	557	555	545	530	524	523	518	522	535	544	555	560	557	553	549	541	535	544	556	568	571	556	555	555	567	571	574	573	569	568	578	588	591	586	574	562	558	553	558	579	589	587	576	574	578	578	581	577	576	583	584	584	579	567	560	556	554	554	549	552	559	567	571	565	586	585	582	581	585	594	604	605	598	607	608	601	584	574	575	572	570	572	572	575	579	601	610	620	625	612	594	587	584	584	580	582	597	600	604	604	604	603	601	604	616	623	616	589	580	588	593	590	594	598	604	605	603	603	623	629	628	624	624	612	600	592	592	597	612	617	618	616	608	603	596	592	587	584	577	570	568	569	572	568	563	561	558	563	575	584	582	585	563	563	549	538	533	540	555	575	580	582	584	584	585	591	590	589	585	582	580	570	557	560	560	560	557	551	545	557	560	559	546	541	536	530	529	533	538	546	552	554	555	554	555	560	562	554	545	535	533	540	548	552	552	552	555	554	560	563	561	557	552	548	553	563	562	558	558	559	560	566	563	545	539	531	526	521	521	521	518	511	512	512	514	514	512	510	505	503	497	491	491	494	498	508	506	495	482	473	478	474	457	459	473	473	471	464	461	463	462	466	475	476	460	448	449	456	465	462	460	453	453	441	446	448	449	452	456	464	462	452	446	434	423	426	427	427	432	433	421	427	432	440	424	419	424	434	422	424	424	425	450	448	439	432	433	433	434	433	425	418	418	418	425	440	446	445	439	440	434	412	412	412	429	429	412	410	405	414	421	424	425	425	421	424	430	434	438	435	437	433	436	436	444	448	442	437	434	432	427	426	426	425	425	420	414	424	426	432	432	431	437	433	428	421	422	422	422	420	413	411	408	415	424	424	429	429	437	436	431	423	413	413	410	407	402	404	408	418	418	419	420	420	416	416	416	414	417	423	431	438	434	434	423	416	416	417	415	415	413	414	412	408	400	400	393	401	410	424	421	421	399
482	494	503	486	465	465	456	469	462	443	420	417	417	465	488	481	467	460	460	457	457	456	454	472	478	478	478	476	471	470	469	467	467	466	462	459	461	480	484	484	477	470	469	470	474	465	465	465	463	458	458	450	449	452	460	460	456	451	455	458	444	442	445	445	459	467	467	464	462	460	459	452	452	453	449	450	449	449	447	455	458	458	465	472	477	476	471	456	456	454	453	453	454	457	461	462	458	459	455	454	455	456	456	458	455	452	450	450	453	460	464	461	459	460	451	442	438	435	433	434	440	446	446	443	447	454	447	453	453	458	461	453	447	452	459	463	448	428	423	423	444	458	473	473	480	481	478	478	479	473	466	465	459	451	447	452	465	491	493	488	488	488	493	497	500	511	522	535	544	544	536	532	540	550	549	551	551	550	551	551	557	563	563	561	560	556	552	553	555	554	554	557	569	571	585	589	573	580	589	600	599	595	577	563	557	562	562	563	559	545	542	530	530	531	543	548	555	561	559	553	554	544	529	527	527	538	550	558	561	557	551	545	539	535	545	555	563	553	533	539	547	558	564	570	573	574	574	582	590	592	584	571	559	547	547	553	570	580	578	579	583	588	588	591	583	576	573	581	582	576	570	558	551	551	551	554	555	561	566	573	595	598	598	614	629	636	639	630	611	592	591	598	589	586	581	585	578	575	579	582	584	584	578	576	580	591	595	590	589	586	583	580	579	586	600	604	604	596	587	587	596	610	616	605	577	581	592	598	595	593	587	594	599	597	600	624	627	625	616	586	570	572	573	573	575	590	600	602	600	590	586	591	589	588	584	575	562	560	562	565	566	566	566	561	562	572	577	568	556	556	543	535	527	528	542	557	568	572	569	566	564	562	563	556	557	559	556	555	554	557	562	556	540	524	515	509	515	519	530	544	540	540	533	531	532	536	540	544	540	537	537	547	554	558	553	546	535	533	537	543	543	546	548	548	547	541	538	536	534	536	542	549	550	529	520	515	530	542	540	509	503	526	526	521	513	516	510	511	510	510	511	518	526	542	538	529	508	504	501	497	496	498	506	509	512	516	519	509	505	498	490	490	483	485	464	461	456	452	455	463	453	450	454	453	447	447	443	431	439	439	441	441	440	439	442	444	447	447	445	438	428	434	442	450	450	459	432	421	428	435	437	444	443	436	427	424	429	424	425	430	430	430	435	432	431	433	434	427	417	417	413	420	434	442	438	434	434	422	422	418	418	418	414	395	396	402	422	422	420	413	413	409	417	426	434	438	436	430	430	431	431	443	445	440	433	430	420	420	420	417	423	420	417	412	417	422	425	425	425	435	432	421	422	422	419	419	415	413	411	405	411	423	423	432	430	428	429	427	420	420	409	405	409	410	402	403	403	410	416	423	419	421	419	419	414	409	421	431	438	438	432	421	415	415	417	415	415	414	417	427	422	422	422	422	420	415	411	400	400	393
483	482	446	434	436	438	438	435	431	416	414	431	431	468	481	481	467	456	456	452	451	454	467	477	476	476	473	470	463	464	465	466	466	465	461	459	462	479	482	482	476	470	468	467	468	465	465	448	454	458	455	446	446	448	457	457	453	452	455	458	439	437	443	443	455	468	468	467	464	460	457	452	452	452	450	449	449	449	447	463	467	460	460	457	459	440	440	441	460	462	457	451	451	445	442	438	447	451	450	434	441	446	447	447	458	457	453	450	456	460	464	464	460	451	442	442	431	432	433	429	426	426	425	422	410	421	432	447	447	448	449	440	436	438	441	453	469	450	439	435	434	449	473	473	472	471	473	497	498	493	488	486	485	490	485	480	480	491	493	475	476	476	486	497	508	526	531	539	545	546	542	534	532	532	549	551	552	552	549	554	558	559	564	564	562	557	549	548	549	550	555	553	562	566	578	589	598	598	586	581	578	580	573	559	553	555	556	558	555	539	535	524	524	522	529	537	555	561	555	553	558	557	540	530	536	547	556	561	564	558	558	550	543	546	547	551	551	538	527	528	534	551	560	565	565	568	576	585	589	582	575	560	555	548	544	549	557	563	565	571	581	584	582	582	575	575	573	572	577	575	571	557	547	548	548	555	557	562	571	575	604	620	632	648	667	675	663	646	605	591	583	591	591	593	593	593	587	586	592	590	589	584	575	572	572	578	586	586	579	575	572	572	577	583	595	604	602	592	583	584	591	603	606	597	582	585	592	594	589	584	582	581	587	582	590	616	614	602	586	568	567	562	565	563	556	555	565	577	595	589	578	582	584	584	583	570	557	555	554	557	564	568	571	570	567	562	556	543	541	541	539	539	536	539	552	555	553	548	550	552	549	539	536	538	542	545	547	541	547	556	556	545	531	518	512	508	514	519	524	538	543	541	540	538	539	538	536	535	540	543	548	547	554	558	553	546	534	530	534	539	539	541	544	531	525	526	530	527	527	527	536	537	532	507	489	488	493	518	517	498	491	493	491	495	492	490	485	475	502	502	510	521	535	547	540	529	519	508	517	517	512	508	508	508	509	516	516	502	498	496	491	491	483	485	467	456	450	447	452	459	443	448	450	453	444	441	438	434	434	429	434	444	444	439	439	435	433	429	433	432	428	425	428	435	435	428	424	429	423	432	438	445	448	436	429	430	429	429	426	428	428	428	426	427	431	430	431	434	428	428	425	427	433	438	441	436	430	427	421	412	412	411	411	403	393	399	421	425	418	410	410	408	417	426	431	427	424	426	427	427	427	426	443	439	428	417	420	421	421	420	414	411	410	401	409	415	415	413	417	415	414	417	420	419	419	419	415	412	406	401	402	414	414	424	424	419	422	420	412	412	408	407	407	406	396	384	384	387	392	396	401	407	408	408	414	409	421	429	433	433	426	413	412	415	411	411	409	409	421	419	419	422	422	421	417	411	411	411	404	391
462	441	429	428	431	434	434	444	460	467	468	462	462	465	466	465	462	456	452	443	438	441	455	472	475	475	470	464	447	439	446	468	468	466	465	466	475	477	472	462	462	431	435	440	446	447	448	448	454	452	443	430	418	408	432	432	438	453	458	459	456	454	464	464	462	455	459	464	467	466	456	445	445	448	464	467	465	455	458	463	467	443	443	438	432	431	430	435	448	448	448	446	446	447	447	448	448	448	428	425	441	451	456	456	463	462	454	444	449	450	448	448	444	434	428	428	431	432	447	449	444	440	436	431	430	439	452	458	458	451	443	436	429	433	448	458	439	439	439	437	438	449	454	454	453	458	471	482	491	487	484	484	486	490	488	484	483	486	483	475	476	473	487	498	509	527	535	542	547	548	541	538	533	528	528	545	553	551	551	558	578	589	591	591	590	571	548	546	548	547	548	551	550	557	573	589	595	590	578	569	565	567	565	553	547	550	555	542	528	515	501	498	500	500	514	533	543	545	555	553	574	572	567	557	552	557	567	576	573	573	571	578	576	576	563	552	552	545	527	525	531	547	558	559	561	565	560	560	563	564	557	556	554	551	545	543	543	552	557	566	576	582	581	576	576	570	571	566	567	567	565	551	541	542	543	545	568	577	578	595	617	616	628	645	665	670	661	649	606	586	582	582	579	582	586	590	596	602	613	618	595	580	573	567	559	563	569	569	571	579	579	572	571	580	582	591	596	590	580	578	584	593	590	589	590	588	592	592	585	579	572	574	579	579	559	583	589	591	591	582	564	563	564	562	559	556	564	574	593	586	579	582	583	584	579	569	561	556	554	557	564	570	574	573	571	562	557	549	549	539	539	532	532	538	543	551	542	534	528	525	528	531	527	527	531	536	535	532	537	543	544	536	526	518	512	514	525	521	532	536	539	540	539	536	533	529	530	531	536	539	539	536	554	558	549	538	531	528	524	524	524	523	521	514	516	517	520	518	521	525	528	519	502	483	483	495	495	496	497	483	482	481	488	488	487	481	473	466	465	465	469	476	485	501	509	519	517	509	517	516	512	508	511	507	503	501	497	493	472	475	475	491	485	482	464	453	442	443	444	452	442	445	449	449	440	438	439	436	436	429	432	441	445	439	438	437	437	436	433	433	424	422	427	427	427	422	421	428	428	432	431	419	434	431	429	430	436	436	437	427	425	426	427	425	426	431	438	437	430	430	424	420	427	431	436	440	438	417	415	415	417	417	413	395	395	397	420	426	416	417	410	408	420	429	431	429	425	422	422	422	421	421	431	434	431	418	420	420	420	417	416	407	406	403	404	403	403	405	409	411	409	411	418	419	419	414	407	404	405	405	398	400	400	401	407	413	409	422	425	425	416	412	408	399	396	394	394	388	382	387	395	407	408	408	404	402	407	416	430	430	421	414	412	411	413	413	409	404	408	413	416	416	419	418	417	409	407	407	404	394
454	436	416	411	411	425	425	453	464	472	470	462	462	461	462	462	459	451	443	443	438	452	452	460	457	452	452	445	436	437	452	465	478	478	489	490	485	482	477	454	454	440	429	423	418	425	445	445	452	452	443	456	442	426	422	422	430	444	446	441	436	445	450	456	456	444	444	445	457	458	455	458	466	466	471	459	456	450	447	449	449	443	443	436	429	428	431	435	444	450	447	449	449	447	444	437	433	433	437	441	455	457	455	455	464	459	442	426	423	419	419	428	438	445	444	444	441	443	447	439	442	444	439	444	449	453	465	463	454	454	444	438	437	437	449	449	445	424	428	441	450	453	453	452	452	456	458	465	464	465	469	472	473	482	486	484	484	483	479	472	473	487	487	513	519	528	531	538	546	546	544	540	539	533	534	539	549	559	566	593	610	611	605	605	598	586	572	559	548	552	558	552	543	538	544	562	577	580	577	563	560	563	551	553	543	544	521	522	521	519	522	525	530	530	525	524	544	545	560	560	574	572	581	590	589	574	570	572	584	591	600	605	606	594	573	566	560	557	555	559	554	544	543	548	557	562	565	565	564	562	557	554	552	551	548	540	535	533	547	560	573	583	586	574	574	567	563	558	556	558	557	556	534	536	540	548	566	577	581	587	594	615	620	625	614	579	573	569	564	558	560	564	566	574	578	585	590	600	611	618	592	579	560	550	546	546	556	559	566	578	582	570	570	572	577	582	584	581	577	573	573	574	583	592	591	590	587	581	575	571	569	573	579	581	568	567	583	589	593	587	575	568	580	589	592	590	590	588	590	584	582	581	586	587	583	573	563	562	556	556	560	563	569	570	569	563	556	548	548	539	533	526	530	530	534	541	538	528	523	522	521	523	525	522	524	527	530	534	535	531	537	532	524	518	518	524	534	537	537	538	536	538	531	523	523	526	529	531	531	539	539	536	536	537	528	511	511	512	508	508	501	498	497	497	510	513	509	514	516	515	519	512	499	481	492	489	485	483	481	481	481	480	484	485	482	479	470	466	466	465	469	446	438	453	461	469	493	490	480	461	452	463	473	469	467	468	471	471	468	475	475	476	467	458	444	449	438	442	437	443	444	448	448	442	438	437	436	437	437	426	433	446	434	434	433	434	436	433	434	434	423	423	423	423	420	417	417	418	422	420	421	425	434	431	421	424	424	426	439	433	423	421	421	426	429	434	438	439	439	430	422	415	413	409	411	413	409	412	412	412	415	415	416	402	412	431	435	426	416	416	417	415	417	423	431	434	426	422	420	420	417	419	423	430	428	428	418	416	416	410	410	410	405	391	390	395	395	401	404	408	408	411	418	417	417	413	407	400	398	401	399	399	397	401	402	403	401	400	411	411	420	415	408	399	397	396	396	395	392	402	395	407	407	418	401	398	398	410	412	412	415	416	419	417	416	416	411	404	397	408	414	414	420	421	417	410	403	403	404	394
462	450	438	422	428	439	439	445	450	459	465	467	459	459	444	436	435	440	440	440	445	452	452	428	422	418	418	418	428	455	461	467	473	473	477	481	477	470	468	458	458	448	442	440	439	443	461	472	472	475	470	456	442	427	424	425	425	441	444	441	435	440	446	448	448	451	454	455	455	457	456	457	463	463	464	451	451	448	448	447	447	440	440	436	429	433	437	443	449	452	448	442	447	447	443	435	431	430	430	440	446	458	457	454	454	449	438	429	424	422	423	430	442	444	442	439	439	436	436	439	442	442	444	448	452	449	451	447	444	444	441	440	440	446	450	450	447	437	432	441	448	440	423	417	417	421	444	455	459	465	469	471	467	467	471	471	471	467	467	474	484	504	504	513	519	504	515	526	542	548	549	546	541	537	538	551	565	585	598	605	609	603	598	590	590	579	567	564	572	580	566	550	543	538	540	546	550	552	563	560	555	553	552	542	532	518	520	509	512	517	522	524	530	534	534	531	552	569	571	574	577	575	581	590	590	571	569	569	574	585	593	602	605	597	577	571	572	568	567	565	556	540	538	542	550	557	567	570	567	562	557	553	544	541	540	538	538	538	538	543	560	575	582	572	563	563	549	546	544	543	526	520	521	525	546	570	584	579	583	585	596	604	606	596	575	575	555	547	540	539	545	556	566	565	571	573	566	552	547	548	541	530	525	516	515	515	521	538	551	555	559	566	568	569	576	577	572	567	567	572	568	572	584	590	591	588	583	574	567	566	566	570	571	575	579	570	578	587	590	587	578	569	596	604	609	616	619	611	602	602	586	582	574	579	580	574	570	563	558	553	553	556	555	558	562	557	549	549	543	538	528	517	517	522	529	533	533	523	522	521	520	520	518	520	520	525	533	536	532	525	519	514	513	514	517	529	536	539	540	538	535	528	517	517	520	522	526	531	531	533	530	525	526	530	514	513	499	499	499	503	500	489	487	497	503	510	513	514	510	509	513	507	500	485	485	488	485	483	480	477	477	477	474	474	474	474	472	472	472	463	452	430	435	436	442	452	446	450	439	433	443	453	476	473	468	464	450	471	468	464	464	459	455	448	440	443	428	430	439	452	451	453	453	448	440	436	424	424	426	436	431	434	427	427	424	423	423	424	427	429	420	418	422	422	412	412	416	417	418	419	421	425	427	422	421	422	422	425	434	426	420	419	420	425	428	430	433	430	430	419	410	405	407	411	412	411	409	413	416	416	415	412	409	408	419	427	432	426	419	419	415	416	418	418	425	436	429	424	424	417	414	415	419	429	429	422	413	413	406	403	404	406	391	402	399	393	393	397	403	408	408	412	415	416	416	412	406	400	395	394	393	393	398	396	399	395	393	394	394	394	408	411	408	404	400	400	396	395	392	402	401	409	409	421	415	400	397	397	403	403	403	405	407	402	398	398	391	390	388	403	409	409	408	421	419	405	403	403	399	391
458	458	440	437	439	445	450	450	456	457	461	459	447	447	437	433	440	445	442	442	437	433	434	428	422	424	424	425	440	451	456	463	468	468	474	475	475	472	466	456	456	446	441	439	442	447	465	471	471	470	466	455	438	427	429	436	436	445	454	441	436	435	436	440	440	440	448	451	448	450	453	454	426	426	429	434	436	439	446	438	437	433	433	433	431	433	437	444	452	452	433	434	444	444	445	437	428	427	433	439	439	431	420	418	418	437	433	433	431	428	428	428	434	434	432	426	426	415	416	422	438	442	444	449	449	447	444	439	439	439	438	441	442	440	445	449	454	450	442	441	443	445	443	440	438	438	445	453	458	463	467	467	465	463	467	468	474	468	473	485	498	502	502	502	503	504	502	509	509	505	533	547	543	539	542	557	569	589	598	605	603	601	594	581	581	572	563	564	572	588	582	574	551	537	540	544	548	550	552	559	560	553	543	530	528	522	517	511	511	515	517	521	525	545	545	569	572	575	571	571	574	584	583	590	590	571	569	562	568	572	586	592	593	585	571	571	571	568	562	561	554	543	537	542	550	561	563	566	565	562	554	545	539	536	538	540	540	540	539	547	552	558	558	559	554	554	541	538	537	532	529	529	527	527	532	555	570	587	572	565	560	559	564	566	572	576	560	542	534	542	547	550	557	554	542	540	531	524	514	511	513	524	525	523	518	521	526	531	549	555	558	565	569	571	575	570	559	554	552	554	566	577	580	582	585	582	575	567	562	561	564	564	559	560	564	565	561	577	586	580	574	569	602	603	614	610	607	603	600	592	587	575	570	579	576	574	568	563	555	551	550	552	556	559	557	550	550	540	535	531	528	515	515	521	525	527	522	522	521	521	521	518	514	512	515	523	535	541	514	502	503	505	511	512	515	519	524	535	538	537	531	515	512	516	518	522	526	529	531	525	519	518	518	524	515	516	506	506	505	507	501	488	487	500	506	510	505	503	505	506	508	504	493	489	482	490	483	478	475	471	475	488	491	488	485	479	480	480	474	467	465	459	433	434	443	450	446	456	447	439	448	456	480	475	467	464	450	445	442	442	439	437	446	452	441	434	433	433	441	450	452	453	453	442	436	421	425	425	429	428	426	426	423	422	423	419	420	420	418	423	415	420	420	410	409	413	417	424	418	419	409	406	421	418	419	424	424	428	416	414	413	415	420	424	424	425	424	411	411	400	400	401	414	418	415	413	413	413	417	417	416	412	411	410	411	427	432	425	414	414	411	416	419	417	427	430	428	422	422	417	410	407	408	408	406	405	406	406	409	409	406	401	403	406	406	406	403	397	403	396	390	394	392	392	395	409	405	399	394	393	395	395	396	397	398	402	393	388	388	387	395	405	414	409	408	408	396	395	402	406	411	411	411	415	416	405	403	394	394	394	396	400	395	390	388	388	384	385	391	397	404	404	407	400	419	405	396	396	393	387
