297	297	300	302	298	297	297	298	295	290	286	285	285	290	292	291	291	293	300	300	302	303	302	299	300	300	299	291	290	289	290	294	294	290	288	289	292	294	294	295	293	289	286	285	285	288	288	288	289	294	298	300	303	303	296	294	295	292	287	286	293	293	294	292	292	289	294	301	302	302	299	295	294	296	294	293	295	295	295	292	289	297	298	296	290	292	292	295	292	293	295	295	295	297	295	291	291	291	291	294	295	294	293	291	292	296	296	300	301	298	298	302	305	305	306	308	312	312	310	307	303	301	298	293	291	293	295	295	295	295	296	293	295	298	296	294	295	296	296	298	296	296	295	295	290	289	301	288	286	297	298	301	300	298	299	302	304	304	302	300	297	296	291	295	296	297	299	302	302	302	303	306	308	304	304	300	299	302	300	303	303	303	305	305	305	307	309	314	316	319	316	315	307	311	311	313	314	317	312	310	310	306	306	310	309	310	312	312	310	307	307	309	310	313	317	321	321	317	317	312	308	311	314	318	319	318	313	309	306	303	304	307	309	310	310	309	306	308	308	305	309	310	308	310	316	314	303	304	306	306	304	305	309	303	300	305	315	316	316	313	313	314	316	316	304	303	304	304	313	309	306	304	310	316	317	317	314	313	315	314	313	311	311	312	314	313	310	312	313	315	318	318	312	316	316	316	312	313	312	311	311	311	309	310	315	317	316	312	315	323	320	318	319	307	319	312	311	316	313	312	308	306	306	306	307	311	312	313	311	309	311	311	314	319	315	311	308	305	305	304	302	302	301	304	303	301	303	311	319	318	311	307	308	309	313	308	311	315	314	311	306	304	303	306	305	306	300	302	305	306	308	313	311	306	307	307	307	298	298	300	301	308	308	312	311	309	312	312	313	311	307	306	305	304	300	300	298	301	303	300	300	302	303	301	297	301	300	300	306	303	301	296	299	299	302	306	306	306	306	304	296	295	298	297	298	303	304	306	307	309	311	311	313	313	311	311	307	306	306	303	301	300	297	300	304	308	304	304	303	302	303	304	302	303	303	305	297	297	297	296	299	299	300	295	296	296	294	290	294	298	298	299	297	294	294	292	292	296	294	287	285	287	289	288	290	290	289	289	290	290	293	293	291	290	288	282	283	288	288	287	282	284	284	286	287	287	285	286	285	284	285	285	290	290	290	291	282	284	289	290	290	285	282	285	292	292	293	294	289	289	288	288	288	291	292	292	291	287	290	290	288	288	287	283	284	284	285	284	289	288	289	288	287	287	287	287	284	283	287	286	285	287	287	287	287	290	285	286	287	284	284	284	284	283	281	280	286	293	293	290	286	285	285	286	285	284	284	284	283	283	287	288	289	289	286	287	288	290	292	292	292	294	296	296	290	285	285	283	284	285	278	274	278	278	280	281	279	277	274	274	276	282	281	278	275	275	276	276	274	279	285	285	289	288	287	286	286	287	288	288
295	295	290	287	290	296	297	297	292	288	283	285	288	288	292	291	292	298	300	300	296	293	290	287	289	289	291	282	280	285	303	297	297	290	301	305	305	299	294	294	291	289	288	285	287	289	289	289	287	287	290	294	303	303	298	296	295	295	293	293	294	294	296	296	289	287	290	297	299	299	296	294	296	296	294	293	295	291	291	284	287	294	289	296	295	290	289	289	290	291	294	294	290	289	290	291	291	289	288	285	289	288	287	289	290	292	299	299	298	293	292	294	301	297	298	301	302	304	304	302	303	301	299	294	295	294	291	290	290	293	293	299	297	289	289	288	294	296	296	293	291	292	293	293	294	294	294	288	286	294	307	308	305	301	298	297	296	294	294	291	295	297	295	295	296	295	298	301	302	304	306	306	306	303	301	301	302	303	305	303	303	305	305	305	302	303	308	313	311	310	304	304	306	311	315	315	315	311	309	310	306	305	305	304	306	305	310	310	311	308	306	306	307	309	314	317	318	314	307	307	308	311	314	313	312	309	309	307	306	304	305	308	309	309	309	307	307	308	309	310	309	310	309	309	308	304	303	303	303	304	304	306	301	302	301	299	304	309	310	310	306	309	310	310	300	300	300	299	301	301	306	305	309	314	314	315	312	311	314	315	314	310	310	310	312	312	311	305	306	307	310	310	316	311	314	313	316	314	311	308	307	306	308	308	307	306	305	315	311	315	315	311	313	308	306	311	310	311	308	308	307	306	306	306	306	312	312	314	313	309	309	313	314	314	310	308	306	299	299	298	298	295	296	301	306	304	301	301	303	305	303	300	300	301	305	300	298	302	303	303	303	302	305	302	304	299	304	305	305	305	306	307	306	303	301	302	298	295	296	300	302	311	311	308	307	308	311	312	313	308	303	305	304	302	305	306	305	305	304	300	300	300	302	300	300	301	301	300	306	303	301	296	298	298	302	303	305	308	308	306	303	301	300	298	298	298	303	306	307	309	310	309	311	312	309	308	305	305	305	301	299	301	300	300	301	303	302	302	303	307	303	304	302	303	300	300	298	298	295	300	296	296	295	294	297	295	295	297	300	300	300	297	293	295	295	296	295	294	295	289	285	280	289	288	289	289	287	291	291	291	299	294	292	288	282	283	286	286	290	286	286	283	283	293	298	295	293	287	286	287	285	285	287	291	291	287	281	285	288	289	282	280	282	285	288	288	289	281	285	285	287	289	288	289	292	292	292	292	292	289	286	282	279	284	284	284	282	284	285	287	289	288	287	287	287	284	284	283	282	282	283	286	286	286	287	283	285	287	287	283	283	284	283	280	280	278	279	293	293	292	287	284	282	281	284	284	284	285	285	286	287	288	288	292	288	288	287	290	292	292	290	289	289	288	286	278	278	278	278	277	278	277	277	273	273	281	279	275	275	282	283	281	280	278	278	279	277	279	279	275	275	279	281	288	287	287	287	288	290	282
292	292	289	286	284	291	294	294	291	286	280	276	282	282	285	292	292	298	283	283	285	288	291	293	297	298	298	284	280	292	295	297	297	296	301	305	302	299	295	295	295	298	296	293	292	293	293	291	287	287	287	290	297	298	298	296	298	295	294	295	294	294	294	296	289	284	291	291	287	290	290	295	292	290	291	293	295	292	292	289	285	287	287	287	290	292	288	288	288	288	290	296	297	290	290	290	289	289	288	281	281	283	285	289	296	297	296	296	293	291	290	292	288	293	296	298	301	303	303	303	302	303	299	294	289	292	292	289	288	289	289	292	289	286	287	291	295	294	294	291	291	290	290	288	288	287	288	287	289	294	307	300	302	297	292	298	298	289	289	287	290	293	297	296	296	297	300	306	308	304	307	306	303	300	302	302	301	304	304	306	306	305	305	305	304	300	303	308	309	304	302	302	302	304	306	306	300	299	298	306	304	303	304	302	303	305	308	312	312	309	304	305	305	305	303	301	300	300	303	303	308	312	314	313	312	309	305	306	306	304	305	306	309	313	309	306	304	306	307	310	309	310	309	313	308	304	303	303	303	301	301	300	301	299	302	302	306	308	305	297	297	299	304	305	301	300	300	301	304	305	301	302	305	309	311	311	309	309	313	313	313	316	315	315	315	314	312	308	303	305	306	313	313	317	316	307	308	309	308	301	304	304	308	304	302	300	302	302	306	307	306	307	304	299	307	309	308	303	302	304	307	307	307	310	312	313	312	314	312	309	309	310	310	309	306	306	301	301	301	302	302	296	300	302	306	302	301	302	302	301	301	301	296	296	297	294	291	294	295	297	300	300	301	302	301	305	306	307	306	304	305	305	305	302	299	298	298	296	298	296	297	297	299	303	307	310	309	311	306	301	304	300	300	304	306	306	302	301	302	305	306	307	305	304	303	301	301	300	302	301	300	298	298	298	301	303	307	306	306	308	306	301	301	298	298	299	299	303	311	311	311	306	303	305	307	307	307	304	304	300	299	300	304	301	301	302	299	297	303	307	306	305	302	299	297	298	298	297	296	297	299	295	291	291	293	294	295	296	299	299	299	296	295	295	295	294	294	294	294	289	285	280	285	286	289	286	288	293	293	294	294	292	291	288	286	285	286	286	281	282	283	283	282	291	297	294	287	282	286	287	288	288	281	281	285	286	287	287	285	282	284	284	287	287	287	287	283	284	285	284	284	286	288	289	289	290	288	286	287	284	284	285	282	284	284	281	282	282	284	287	284	284	286	286	287	284	284	284	280	280	281	281	281	282	282	282	287	287	286	281	281	280	284	280	279	278	279	289	289	290	278	271	270	276	279	279	282	284	286	286	287	291	291	286	287	288	287	287	287	287	288	288	287	281	279	274	274	272	273	278	280	280	280	273	273	272	273	276	276	280	283	281	280	280	280	279	284	279	279	279	279	279	281	282	284	286	286	288	287	287
292	289	288	278	283	294	295	295	293	284	275	277	279	279	292	301	300	288	283	283	283	291	293	293	292	289	289	286	284	286	293	296	300	300	302	302	302	299	296	296	298	304	303	299	295	293	292	292	294	289	288	290	298	298	298	299	298	295	294	294	292	293	293	291	286	290	288	281	283	289	289	293	296	294	296	294	293	292	289	285	288	291	287	285	286	287	287	287	287	289	292	294	294	294	290	288	285	285	281	281	281	281	286	295	300	301	302	305	305	302	296	291	287	288	289	294	297	301	301	301	301	300	297	293	289	292	291	286	286	287	289	289	287	286	289	292	293	292	292	290	289	287	286	283	283	285	293	290	291	297	297	300	302	297	294	297	292	285	284	284	289	291	293	296	296	296	302	306	303	303	306	303	300	298	300	297	297	300	299	302	306	305	304	301	304	300	309	310	310	308	299	299	298	302	301	301	301	300	302	305	304	302	299	301	304	306	308	310	310	308	305	304	303	304	302	299	298	297	301	304	304	307	307	308	301	299	305	306	306	304	304	305	307	308	307	305	303	303	304	307	311	309	309	309	310	310	308	305	303	301	299	299	300	298	297	298	300	302	303	301	300	298	301	302	300	302	300	300	301	303	305	302	302	309	310	310	307	305	307	306	306	310	310	310	311	309	305	304	306	305	310	310	310	308	314	313	306	299	298	305	305	305	305	300	298	299	299	300	302	308	307	306	303	300	298	308	310	303	300	304	306	308	310	314	312	309	308	311	312	309	310	310	310	309	308	306	301	301	303	302	302	300	297	299	300	300	300	300	300	300	297	296	295	294	294	293	291	292	293	295	296	300	300	300	300	307	309	307	304	299	299	301	302	301	300	300	299	299	299	295	295	295	296	301	303	298	308	307	306	305	298	299	298	299	300	299	296	297	300	306	306	306	305	304	303	302	302	302	301	302	299	298	298	298	300	303	307	307	310	309	306	304	297	291	292	293	295	297	304	306	309	305	294	296	303	305	305	303	301	300	302	302	301	307	303	302	299	297	303	304	303	299	297	296	297	297	297	296	295	297	298	299	297	294	288	291	294	295	296	297	294	291	292	292	295	295	291	293	294	289	284	282	283	283	284	283	288	288	292	292	290	291	289	286	283	283	286	283	279	280	283	283	284	287	289	294	287	282	284	287	289	282	282	282	281	282	287	289	287	281	284	286	286	284	284	282	281	284	285	282	284	286	290	285	285	284	283	280	280	282	283	284	282	282	282	284	280	282	285	284	279	279	286	286	281	282	283	283	281	281	281	281	281	282	285	286	285	285	283	283	282	277	280	280	279	279	280	280	281	281	279	271	271	275	278	278	279	280	282	283	285	287	287	286	287	285	284	285	286	286	286	287	287	281	278	278	275	275	275	275	277	274	280	275	272	270	272	273	273	276	279	279	283	286	286	284	281	279	278	279	279	279	279	278	280	280	285	285	282	285
289	288	288	282	288	298	300	295	295	282	280	284	295	309	309	299	290	282	280	283	283	292	290	289	292	291	291	292	284	285	291	298	300	300	302	303	302	293	296	298	294	296	296	292	289	283	283	283	289	294	294	294	294	292	292	303	303	297	294	294	285	287	287	290	292	288	288	285	285	291	291	295	292	297	295	294	289	282	285	285	288	287	288	289	285	287	286	288	288	290	292	290	290	288	288	289	285	282	282	283	281	281	286	293	289	289	290	292	292	294	295	295	292	289	286	287	292	292	296	296	297	298	295	292	290	292	291	286	284	287	287	287	286	285	289	291	291	291	291	288	287	286	284	283	293	293	289	285	284	285	291	294	296	293	294	297	293	290	290	290	290	293	293	297	297	299	301	302	301	302	298	298	296	293	292	298	298	295	292	299	303	304	305	300	299	299	309	310	310	299	298	295	297	301	304	306	306	308	303	300	301	301	298	299	301	302	301	296	297	295	296	299	304	301	300	301	300	300	303	307	307	308	307	306	305	297	299	303	305	306	304	305	307	306	307	306	302	301	301	301	304	303	305	304	304	304	306	309	304	303	299	299	300	298	298	300	300	300	300	301	302	302	299	298	299	299	298	298	297	300	303	301	298	303	309	307	305	301	304	305	308	312	308	300	312	316	305	304	304	306	305	301	301	303	311	314	307	306	305	306	306	305	304	304	304	300	299	299	299	304	309	306	305	298	306	305	301	300	299	303	310	312	311	308	306	306	307	308	307	304	305	312	312	305	303	305	305	301	301	301	301	299	297	300	306	298	297	297	297	297	297	294	293	294	293	293	290	292	290	293	296	298	299	299	301	300	301	300	299	295	296	301	301	301	301	297	299	300	299	294	294	291	294	297	300	307	312	302	301	302	297	300	300	299	300	299	295	295	300	306	306	306	305	300	303	302	302	301	301	301	300	300	297	299	301	301	302	302	303	304	301	300	291	289	288	287	287	292	296	299	300	302	295	294	297	297	300	304	304	302	299	298	296	307	303	298	294	294	302	302	299	297	293	295	295	295	293	295	295	299	299	298	296	293	286	289	294	296	294	289	291	290	290	292	291	290	291	293	292	291	285	282	281	281	280	284	289	289	287	287	285	284	284	283	282	281	281	283	285	285	285	284	284	287	289	289	289	285	282	285	287	282	282	282	281	285	286	288	284	281	283	283	285	285	283	277	280	283	285	282	282	285	286	286	286	282	280	280	279	278	284	287	285	285	281	277	277	281	279	277	278	279	279	281	281	280	281	282	282	283	280	280	280	280	285	285	281	280	279	279	273	277	280	284	283	282	280	280	277	277	278	280	280	277	277	276	277	278	277	276	276	285	287	286	285	282	280	281	281	279	283	284	285	282	280	280	278	275	275	274	277	277	274	273	276	277	277	277	279	281	281	281	277	277	276	276	280	279	278	278	277	279	277	277	279	279	271	278	279	281
279	277	277	282	288	299	303	296	296	295	294	297	305	300	300	293	287	283	284	289	289	292	290	289	291	295	296	296	296	291	292	296	300	300	300	299	298	292	288	294	294	296	290	288	284	277	275	275	275	289	296	294	290	289	288	288	290	296	287	285	285	287	285	285	288	298	287	284	284	288	291	291	290	296	294	293	290	289	289	289	288	287	288	290	291	291	289	287	287	289	290	289	286	285	284	285	285	285	285	287	284	283	289	293	289	286	286	290	290	290	292	292	291	290	283	283	284	285	284	282	282	292	294	293	292	289	288	286	284	287	288	288	288	289	291	291	291	291	288	289	288	287	282	289	288	288	284	285	285	288	291	293	293	294	292	291	293	290	294	301	301	290	297	297	297	296	295	295	296	294	291	297	296	294	295	296	293	293	292	292	296	305	303	299	297	298	300	306	305	299	298	296	304	306	308	302	300	300	307	305	299	297	297	297	295	292	291	291	293	294	294	299	297	298	299	300	302	300	303	306	307	307	307	307	300	295	296	301	302	304	302	302	306	306	307	306	302	297	296	293	293	294	297	298	302	303	303	305	306	305	303	301	301	300	299	300	303	302	303	301	300	297	294	293	294	300	300	300	301	303	303	301	298	296	305	306	301	306	306	307	307	304	300	301	311	314	310	309	309	309	303	299	299	300	305	305	303	302	305	305	305	303	305	305	304	301	298	300	298	299	303	302	302	303	306	299	298	295	296	298	305	306	306	305	305	304	307	306	307	310	309	310	314	307	296	300	301	296	298	298	299	297	295	295	297	296	295	296	295	292	296	294	293	295	294	294	294	293	294	292	296	296	296	296	298	298	302	301	292	289	295	298	300	304	303	300	294	298	302	296	296	295	295	295	300	300	308	300	296	295	296	297	302	302	299	299	295	295	298	300	305	305	300	300	297	300	301	301	302	300	300	300	299	298	294	291	292	289	292	294	293	289	286	286	287	289	287	287	291	292	293	291	291	292	296	296	295	296	297	298	299	298	296	296	294	291	288	286	296	298	299	296	295	290	290	290	290	294	293	298	295	297	296	301	286	287	295	298	296	289	285	286	286	292	291	290	290	293	288	287	286	286	284	283	287	285	285	286	286	286	287	288	285	283	283	282	281	284	284	283	283	284	284	283	284	285	288	285	282	285	288	286	286	280	282	282	284	287	285	283	279	281	283	283	279	278	280	283	283	282	284	285	286	286	286	284	284	282	281	281	282	285	283	283	278	273	273	275	279	277	278	281	281	279	279	277	280	279	278	284	284	285	284	282	277	275	275	276	274	274	273	273	271	280	281	279	279	277	274	276	278	281	280	278	278	277	278	279	277	276	276	276	277	274	275	278	279	279	279	277	281	283	279	279	278	278	275	274	275	274	272	272	273	273	278	279	279	279	281	281	283	277	277	277	272	270	280	279	278	278	274	274	279	278	272	272	270	269	275	282
268	273	273	284	289	299	303	300	300	286	286	299	296	296	296	290	286	284	286	288	290	290	286	289	291	292	297	297	291	294	290	295	294	294	294	294	292	292	291	291	292	292	290	288	288	286	284	283	283	283	293	292	288	285	284	284	288	289	289	281	280	281	285	285	300	294	287	283	285	286	286	286	289	288	286	285	289	287	287	283	283	283	286	290	291	294	291	287	287	287	289	288	287	286	285	285	285	283	286	286	289	287	289	290	288	286	286	286	287	287	289	292	291	283	281	282	284	286	290	291	291	289	291	289	287	287	287	287	279	286	288	288	291	289	291	292	293	293	293	291	289	283	288	288	283	284	284	287	283	285	291	294	293	292	295	295	293	288	294	301	298	290	290	291	293	295	295	294	296	296	289	293	294	295	293	293	294	294	294	296	297	299	304	301	299	299	299	299	299	296	297	296	304	306	305	301	298	298	292	301	305	300	300	295	291	291	291	290	290	292	295	298	298	297	297	299	300	301	303	307	310	310	309	308	303	297	296	296	303	302	303	301	300	299	301	300	300	297	296	293	293	292	295	296	298	302	303	303	304	305	305	303	303	300	299	301	304	305	305	299	294	291	291	292	294	302	302	303	303	303	304	302	301	300	306	307	302	303	304	304	301	301	299	302	306	304	307	307	308	307	301	298	300	300	302	304	303	302	301	302	301	301	302	305	303	303	304	299	303	305	307	308	308	302	299	295	293	297	300	296	296	298	303	302	302	301	303	306	308	308	310	311	312	307	297	295	290	293	295	295	294	296	295	289	290	292	291	293	294	301	299	296	295	298	296	295	295	293	291	295	295	296	296	296	295	295	301	301	292	289	298	299	299	299	304	299	294	296	301	301	305	299	297	296	299	309	301	300	297	294	295	297	302	302	299	296	290	290	293	299	298	297	297	299	297	299	299	300	299	294	294	299	297	293	285	284	286	287	293	294	293	288	286	286	287	291	286	286	292	289	287	291	292	293	293	293	291	296	297	298	297	288	288	292	296	295	292	291	294	295	292	295	297	294	294	289	293	290	295	291	294	296	302	293	286	286	293	293	294	289	284	285	286	288	288	290	288	289	288	285	288	288	287	288	286	285	285	285	283	287	287	286	285	284	283	282	283	283	283	284	283	281	282	281	282	284	286	282	279	284	288	288	287	283	282	280	281	287	286	278	278	285	285	284	279	278	278	279	281	281	282	285	284	284	286	284	285	286	288	284	280	283	283	283	274	272	275	275	279	284	277	277	278	278	276	276	278	279	278	284	284	284	282	281	280	276	277	277	276	274	273	275	274	271	271	270	270	271	273	277	279	282	279	279	272	271	275	279	277	273	272	272	276	276	275	277	279	279	279	277	276	274	276	273	273	274	275	274	274	271	268	268	270	273	280	281	280	280	282	281	282	285	276	276	272	270	272	273	273	273	274	274	275	273	273	273	271	270	279	284
266	271	283	283	288	302	300	300	286	280	284	297	294	291	285	285	284	288	293	294	294	294	288	284	289	292	297	294	293	286	288	292	289	288	288	297	294	291	288	292	292	292	290	289	288	286	286	285	285	287	289	294	292	286	282	284	284	288	288	284	279	280	283	283	300	291	287	287	287	284	285	283	283	282	282	281	284	282	281	283	283	282	288	291	293	294	289	288	286	286	286	288	287	286	287	288	284	286	288	288	294	291	289	289	289	286	285	286	287	284	285	286	282	280	278	278	279	280	284	282	283	283	285	285	284	288	289	282	288	287	290	291	289	289	292	294	294	293	291	289	289	288	286	280	279	280	280	284	286	281	284	286	294	294	294	291	288	294	301	298	290	290	290	291	293	294	294	295	295	290	291	292	292	296	296	299	304	307	307	293	292	293	294	293	297	303	304	299	298	300	299	300	303	306	305	301	298	291	291	296	301	301	300	298	294	292	292	291	292	293	295	296	298	297	298	299	298	301	305	307	312	309	309	307	304	297	295	295	302	303	301	300	298	300	298	299	300	299	297	295	291	292	295	296	298	299	302	301	302	309	305	305	304	304	302	297	303	310	309	310	309	297	294	297	298	300	299	299	302	305	306	301	299	299	301	306	303	302	299	303	305	294	302	300	298	298	300	306	308	308	305	308	303	303	301	299	304	301	300	300	298	300	301	302	303	302	302	303	304	305	300	299	299	299	295	293	292	297	308	304	296	294	299	301	302	301	302	302	306	306	306	308	306	305	299	299	298	295	295	295	297	300	292	287	287	288	290	293	293	301	301	294	293	294	296	294	296	298	293	289	295	296	301	299	293	289	293	300	303	304	300	298	299	299	301	299	298	295	299	299	302	305	306	303	299	298	298	300	297	294	295	299	301	302	302	303	301	298	298	298	298	293	293	298	300	298	294	299	290	289	289	291	286	284	281	282	286	290	292	290	290	288	288	288	289	290	287	288	288	293	288	286	287	287	287	293	291	292	293	297	294	290	290	294	295	294	294	294	290	290	290	293	292	287	287	284	286	290	289	290	294	297	295	288	286	286	285	285	286	289	289	284	284	285	287	288	290	286	285	286	285	290	288	289	287	287	285	284	285	282	281	281	281	283	284	285	286	283	283	283	282	281	281	283	283	283	285	282	279	283	286	286	288	286	282	280	281	283	276	271	275	274	285	284	283	283	285	284	281	281	281	282	282	284	282	283	284	288	288	283	282	284	284	280	276	272	275	276	283	278	276	276	277	280	279	280	279	281	282	285	285	284	285	282	282	280	277	277	277	281	280	278	274	272	272	272	272	276	278	278	281	281	281	281	273	271	275	277	276	273	273	273	275	278	277	277	280	280	279	278	278	277	275	275	273	274	273	272	271	269	269	267	268	271	277	281	281	280	280	281	281	282	285	276	272	272	272	272	272	272	273	272	274	274	274	273	271	270	277	284
276	282	287	287	294	301	296	281	280	280	284	295	292	288	282	282	282	290	300	300	297	297	294	291	288	290	294	293	293	291	286	282	273	285	285	291	295	291	287	292	293	293	290	288	287	287	286	285	292	294	294	294	289	284	281	285	285	288	287	282	280	280	295	297	297	291	287	287	288	288	284	282	282	279	277	276	283	285	283	280	285	285	289	291	292	291	289	288	281	282	282	282	281	281	286	288	286	288	292	292	292	289	288	288	287	285	286	282	284	285	285	284	284	284	281	279	281	287	285	284	280	280	284	287	286	287	288	287	287	289	287	289	290	290	292	294	285	289	294	292	290	288	289	279	279	281	283	283	287	289	283	284	289	289	288	290	292	300	300	297	290	290	290	291	293	294	293	292	289	286	289	291	292	292	294	304	307	299	292	292	291	292	296	289	290	292	297	301	302	304	298	301	300	302	300	299	295	291	291	292	295	298	297	296	297	294	294	294	294	294	293	299	300	301	300	300	298	298	301	304	307	307	307	307	301	297	293	295	302	301	302	298	298	297	295	296	298	301	297	293	291	291	295	296	298	299	302	301	302	311	310	304	301	301	296	297	296	297	309	308	304	295	290	291	296	295	294	292	297	300	303	302	298	298	297	300	300	302	295	300	305	304	301	300	297	292	294	297	304	303	303	295	299	299	301	296	298	301	301	301	297	293	298	301	301	301	301	301	302	299	299	290	291	294	294	292	293	294	300	305	305	295	294	295	300	303	303	302	300	300	301	302	303	301	301	301	300	295	297	297	298	297	296	295	288	288	289	289	293	295	299	289	288	290	296	296	298	296	291	283	298	299	300	297	291	287	288	289	298	299	298	298	295	292	298	298	298	296	296	296	296	299	306	303	299	298	298	295	290	292	294	298	298	295	294	295	296	298	298	298	295	292	297	298	301	299	298	288	288	288	289	281	287	286	289	285	286	285	286	283	284	287	288	289	288	287	286	287	290	293	287	285	287	287	287	287	293	296	298	298	295	291	292	291	293	293	291	294	291	290	289	292	290	290	290	290	292	289	289	289	289	288	291	291	289	289	289	285	286	284	284	283	283	282	282	282	285	287	287	284	286	286	286	286	286	286	282	282	281	278	279	280	282	284	286	285	286	283	283	283	282	283	285	285	282	281	282	282	282	282	282	282	286	285	281	279	278	281	281	278	275	274	274	275	277	277	278	276	276	279	282	284	284	286	284	284	284	282	280	279	285	278	278	280	276	273	274	274	277	276	274	274	279	279	278	279	279	281	281	281	283	286	284	283	282	280	280	280	282	280	279	279	278	274	274	274	275	277	279	284	282	281	278	278	273	273	274	274	272	275	275	274	278	279	280	280	279	279	279	279	277	274	275	275	275	275	273	272	269	266	266	261	265	269	274	278	278	280	278	276	281	282	282	282	277	277	278	279	279	274	273	275	275	273	273	272	268	270	277	277
290	289	290	290	294	290	280	276	278	278	285	295	292	285	282	282	285	289	296	297	294	289	289	288	285	286	289	291	291	291	286	286	285	279	283	283	290	290	281	282	282	280	280	279	284	287	289	292	294	284	287	288	288	285	284	285	285	286	287	285	284	294	295	289	289	287	284	287	288	277	277	279	279	278	276	274	276	285	290	287	285	285	282	281	286	285	284	283	281	282	285	275	275	278	288	291	289	288	291	285	285	286	284	285	285	286	286	285	285	286	286	284	284	282	279	279	284	286	286	286	285	280	280	286	287	284	286	287	287	289	291	287	287	285	285	284	285	289	284	285	288	288	284	282	280	281	284	284	286	287	290	292	291	290	290	290	291	295	297	293	290	290	290	290	293	294	293	289	291	287	286	286	288	288	290	294	298	296	294	294	292	292	294	297	292	294	294	294	295	293	289	293	295	297	298	298	293	288	292	292	295	298	295	296	296	295	296	295	291	290	288	291	294	295	296	298	298	297	299	300	300	300	302	302	300	295	296	295	298	303	304	298	294	296	295	296	292	296	296	291	291	293	296	297	299	299	299	297	306	311	310	304	301	296	298	296	293	295	286	292	292	289	288	291	293	296	297	294	293	296	300	299	298	294	292	292	291	294	293	288	288	287	290	294	288	294	291	291	291	299	295	294	293	293	297	294	293	295	298	297	293	292	293	298	300	300	299	299	300	295	290	295	293	294	295	294	295	299	301	300	304	298	297	292	293	294	293	292	291	291	293	299	299	294	295	295	295	298	298	296	296	300	296	295	295	292	292	294	296	297	295	293	293	295	300	301	295	293	289	289	290	293	294	292	292	288	287	288	290	291	291	287	288	289	291	298	290	289	296	296	296	299	299	296	296	288	294	287	288	292	294	297	296	293	294	294	296	297	297	294	293	292	292	298	299	293	284	293	293	288	297	296	295	295	288	284	287	286	286	283	284	287	283	281	282	286	287	285	289	293	287	285	286	286	289	293	295	295	297	298	295	290	291	293	291	290	290	292	292	291	288	288	288	290	293	296	296	289	285	285	288	290	291	286	289	289	289	286	286	286	287	286	284	282	277	271	279	287	288	284	286	282	279	279	279	279	282	282	280	279	280	282	283	284	286	286	288	287	287	285	282	282	281	281	280	280	281	279	279	280	280	281	281	283	280	276	276	277	281	278	273	273	270	273	274	273	272	271	271	276	278	278	280	278	279	277	275	273	267	269	274	285	278	279	277	276	277	276	276	277	277	276	276	281	281	273	272	274	278	278	281	285	284	283	281	281	281	281	284	282	280	280	280	280	279	279	278	279	279	277	281	281	281	278	279	281	275	271	273	272	272	277	280	280	279	279	279	277	275	272	277	274	273	273	275	275	275	275	273	268	268	261	262	266	270	277	277	277	278	276	272	276	276	278	281	284	283	280	280	276	273	271	271	271	271	272	268	271	275	275
291	292	290	289	289	282	276	275	280	295	295	295	292	285	282	281	281	286	290	291	284	285	285	288	286	282	287	284	284	291	292	286	285	286	285	285	289	290	287	281	284	281	281	283	288	291	293	285	284	284	287	282	280	277	280	283	285	285	288	289	300	295	287	287	282	282	282	283	278	277	277	273	275	275	276	274	282	287	290	291	289	289	284	281	279	280	281	281	287	285	275	275	279	280	280	284	283	281	285	283	283	284	286	286	286	285	288	290	286	284	284	284	283	282	279	279	281	286	280	279	278	279	279	285	277	279	283	286	286	292	293	292	286	284	284	284	287	289	284	285	287	287	287	283	283	283	286	287	287	288	288	294	292	289	290	290	291	294	296	293	291	291	291	291	293	292	290	289	291	290	290	292	290	287	291	293	297	302	298	293	293	293	294	298	293	293	292	289	288	287	288	289	291	289	291	291	287	288	290	293	293	294	295	296	296	285	285	290	287	288	294	300	300	299	296	296	296	296	296	297	297	294	290	289	289	290	295	295	302	303	303	299	296	293	291	288	288	290	290	297	297	297	298	300	299	298	297	301	301	307	311	301	298	298	298	296	293	295	286	292	290	289	287	291	292	295	293	291	293	296	298	297	296	293	291	288	288	292	292	289	288	291	293	294	293	287	291	291	291	292	294	294	293	293	294	297	295	293	290	293	292	291	291	296	299	299	299	298	300	293	294	295	295	292	292	293	298	298	298	298	297	301	299	297	295	295	295	294	288	288	295	295	294	294	292	293	294	296	296	296	296	299	298	294	295	299	298	290	290	289	288	293	294	295	296	295	296	294	292	291	293	294	294	294	294	290	289	288	289	290	290	288	286	289	291	298	290	290	289	288	286	284	287	287	288	294	290	288	289	290	293	294	293	292	292	292	295	294	294	293	291	290	292	293	298	289	282	285	285	294	292	282	291	299	288	286	287	288	285	282	283	284	284	280	279	283	287	285	289	293	287	286	286	286	288	291	295	295	293	295	295	290	293	291	289	289	286	288	293	292	291	290	290	286	287	289	289	288	285	285	287	289	291	286	297	298	297	293	285	285	283	283	284	283	279	275	282	284	290	288	283	281	279	279	279	279	279	279	277	278	278	282	283	286	286	286	283	283	288	287	285	279	280	280	279	279	280	278	277	277	277	275	278	281	280	276	276	277	279	279	278	278	279	279	278	277	276	276	276	278	277	277	278	278	277	276	275	272	272	269	274	274	278	276	278	277	277	277	277	276	276	277	278	279	279	278	275	272	272	274	281	285	282	281	281	280	281	281	280	281	279	281	283	283	283	282	283	279	278	277	281	281	281	279	276	270	271	270	269	269	272	274	275	272	274	266	266	263	275	272	274	274	273	273	269	273	274	275	274	274	272	265	264	266	271	271	277	277	276	276	276	276	276	276	275	274	277	277	279	274	272	269	266	271	271	270	266	269	274	274
300	298	296	288	288	287	289	291	294	296	296	296	292	286	284	281	281	284	282	282	283	287	287	290	289	283	286	285	285	285	293	293	286	286	281	281	281	281	286	287	288	288	288	291	292	292	290	276	273	273	273	282	280	280	278	279	282	282	286	290	297	287	283	286	283	283	279	276	272	273	273	273	275	270	271	274	280	287	291	293	289	283	283	279	277	275	279	288	279	280	279	279	279	280	271	277	276	275	279	279	283	283	286	282	286	287	288	286	284	282	280	280	279	282	278	279	281	276	279	279	276	279	279	274	277	279	282	287	288	292	293	291	289	287	288	288	286	289	285	283	287	287	287	287	285	286	287	289	289	291	289	286	283	283	284	289	289	289	290	291	291	292	293	293	293	292	290	288	289	290	290	292	288	286	292	290	291	293	297	296	296	296	297	297	295	291	292	290	288	287	286	287	288	290	293	289	287	286	287	289	289	291	292	290	287	285	285	290	295	295	298	302	302	299	295	291	291	291	291	285	285	285	287	292	292	292	293	295	296	299	301	300	295	289	288	284	282	291	298	295	293	294	295	299	300	301	302	301	300	300	298	299	299	295	291	291	291	287	285	292	290	289	287	291	297	293	292	297	298	298	298	297	295	291	289	288	288	291	290	288	290	294	294	295	292	290	289	289	291	291	292	293	294	299	299	297	301	297	293	298	297	294	292	292	293	294	293	298	299	295	290	292	295	294	294	288	291	292	294	295	294	294	299	296	295	298	301	302	300	294	293	293	294	292	292	297	298	296	296	296	293	296	296	294	295	297	294	290	288	285	288	292	293	294	294	295	294	293	290	290	292	294	295	295	292	289	287	288	289	290	290	288	286	288	289	289	288	288	287	287	288	287	288	289	293	289	288	289	288	287	286	288	290	287	288	291	292	293	291	291	290	290	290	291	292	297	295	295	283	287	297	295	296	294	290	290	287	287	287	287	285	287	288	280	279	283	285	287	287	287	286	286	287	287	290	287	290	290	288	288	289	290	289	286	286	285	286	285	290	291	290	290	288	288	286	284	283	285	284	284	287	289	288	289	295	295	295	293	293	290	287	283	282	286	282	278	277	285	286	288	287	279	278	278	278	278	276	275	275	278	278	280	282	285	286	283	282	282	284	282	280	279	277	279	279	280	280	275	273	273	273	273	275	278	280	276	276	276	279	280	280	281	281	282	282	282	283	280	280	281	281	281	282	283	280	279	278	272	272	269	269	272	274	275	279	278	276	277	276	276	275	276	277	277	274	274	270	273	272	274	274	274	272	272	273	273	273	274	277	276	278	281	282	284	284	284	283	279	278	277	275	272	272	271	270	274	272	274	273	273	278	279	275	275	273	269	269	263	260	260	261	262	262	264	263	265	271	272	271	271	268	270	268	268	271	271	272	273	272	273	272	272	272	272	272	272	276	276	278	273	270	269	266	266	270	268	265	266	266	272
300	296	294	290	290	296	295	294	293	291	291	296	293	288	281	282	282	284	281	281	283	284	286	286	285	282	290	288	288	288	288	289	288	283	281	281	281	281	284	285	286	288	290	290	290	291	287	282	279	281	281	284	283	280	278	279	282	287	287	294	293	276	276	284	281	281	276	272	270	270	273	273	270	271	271	275	276	273	284	286	285	279	279	278	275	274	277	280	273	267	271	274	274	272	271	277	277	277	277	278	282	282	282	283	281	283	281	282	282	279	279	277	277	279	278	279	279	276	279	274	274	276	281	281	279	285	287	291	285	287	287	287	287	292	289	289	286	287	285	284	287	286	285	287	285	282	283	291	291	291	288	286	280	281	283	285	288	290	290	289	286	289	290	290	290	292	290	290	290	292	297	295	288	286	286	286	282	286	295	294	294	294	294	296	294	292	290	289	290	288	288	294	296	294	294	291	289	288	289	290	288	288	287	290	290	290	291	293	295	295	298	298	298	296	295	289	290	295	296	295	295	294	294	295	293	293	289	289	288	284	291	295	295	294	294	290	290	294	294	293	291	291	294	296	298	300	300	296	297	293	293	295	300	302	291	291	290	288	288	289	287	288	287	290	297	293	292	297	298	298	297	295	295	290	286	290	291	291	285	284	286	293	297	297	292	288	289	289	291	292	294	297	294	293	293	295	297	302	301	299	296	295	293	293	295	293	294	294	297	294	295	292	298	294	294	292	291	292	292	291	291	296	295	295	292	294	293	295	291	293	293	294	293	293	291	292	293	287	287	282	280	283	290	293	292	290	289	286	286	285	286	292	293	294	293	292	292	289	289	290	290	294	295	295	292	289	287	287	287	291	290	287	287	288	289	289	289	288	292	293	293	283	286	285	289	288	281	282	282	280	280	281	282	281	281	283	291	291	290	289	290	288	289	289	291	294	297	297	298	291	288	287	290	292	291	291	292	293	290	290	285	287	288	289	286	287	284	284	285	288	286	286	286	286	285	285	287	287	286	285	285	288	284	279	280	283	283	283	285	288	288	288	288	285	284	283	282	285	284	284	287	287	288	285	290	293	294	292	292	291	290	286	281	284	287	280	278	283	281	281	283	281	281	281	280	274	266	275	275	276	277	277	280	281	282	282	282	282	279	278	277	279	280	278	278	278	274	273	273	272	272	273	275	278	280	280	280	279	277	274	274	273	274	277	278	278	279	281	281	281	281	282	282	283	281	279	278	277	273	272	272	268	269	273	276	277	276	277	274	274	274	272	275	279	277	274	270	273	273	274	274	273	272	272	273	273	273	273	276	275	274	278	280	281	281	279	283	279	278	276	273	273	272	272	270	270	273	273	273	275	278	278	275	274	273	273	269	264	263	262	259	262	262	262	262	264	268	268	268	265	264	264	266	268	269	269	270	269	270	269	268	268	271	271	271	273	278	278	277	271	270	269	269	263	266	265	265	269	269	272
296	296	294	294	293	293	295	291	283	281	286	286	291	289	281	280	280	280	281	281	279	279	278	278	277	284	287	289	291	288	288	285	282	279	279	281	281	281	262	263	276	278	281	281	284	281	277	279	278	277	277	280	283	279	278	279	282	288	288	291	288	271	271	279	279	277	277	270	269	270	275	278	276	274	274	275	276	276	277	279	281	274	272	272	270	273	284	277	269	281	273	273	273	270	274	275	277	277	281	283	281	275	275	276	278	278	277	275	279	279	279	279	279	279	280	278	274	279	274	274	274	277	278	278	274	281	283	284	277	280	282	284	283	282	286	288	288	282	282	283	284	286	288	288	285	282	283	286	289	289	290	283	277	278	282	285	287	286	282	283	280	281	283	283	283	280	284	289	289	288	288	286	286	286	286	286	282	279	285	295	292	292	291	292	292	291	290	292	293	294	295	296	296	298	296	294	291	288	289	288	286	286	287	286	284	287	289	289	292	293	295	298	298	296	294	288	290	292	296	296	295	294	294	294	291	291	288	286	284	287	285	294	295	293	294	293	294	293	292	291	289	290	290	288	286	296	300	295	291	290	291	289	294	297	302	291	291	284	285	286	286	286	288	289	294	292	290	297	297	297	297	295	295	290	286	290	291	291	290	283	287	291	292	293	291	285	283	287	292	296	293	294	291	288	288	287	292	291	290	292	293	295	297	297	296	296	294	294	294	293	294	288	294	293	295	293	293	293	291	291	293	296	297	296	294	293	293	292	291	290	292	294	294	293	292	288	286	285	285	281	282	285	289	294	293	293	293	290	290	284	285	290	291	294	293	292	292	289	289	290	290	292	292	290	291	289	287	285	287	290	291	290	287	287	286	288	288	287	287	288	290	287	286	285	284	282	282	289	288	287	287	287	288	284	282	282	285	287	287	287	287	290	289	289	288	288	288	288	290	287	288	290	285	283	282	285	286	293	290	290	285	287	287	288	287	287	285	281	282	279	279	284	283	279	279	280	284	287	284	283	284	284	281	280	280	281	281	281	283	285	285	286	286	285	284	283	282	283	280	278	280	279	283	285	284	288	289	289	293	291	289	286	284	286	279	280	277	273	279	280	278	277	277	278	280	274	266	266	275	275	275	275	281	280	278	277	277	277	278	279	277	277	279	270	274	274	273	272	272	272	272	273	275	280	283	282	279	275	272	272	273	274	277	278	280	276	273	273	271	276	276	276	276	283	281	279	277	276	274	274	273	272	272	271	271	270	276	275	275	275	271	275	276	278	277	274	274	274	270	272	270	274	279	280	274	274	274	275	274	269	269	271	270	270	281	279	279	278	277	276	274	274	273	275	273	274	272	272	272	275	276	276	275	274	273	273	273	269	266	262	262	260	260	263	265	267	267	268	268	266	262	264	266	267	267	268	269	268	266	267	267	268	269	269	270	275	275	274	277	271	270	267	267	266	264	262	262	267	267	269
287	288	291	294	293	281	279	282	279	275	278	278	287	289	280	278	276	276	277	279	279	279	279	279	275	278	285	280	279	279	279	276	277	281	282	275	266	266	262	263	273	280	283	284	284	278	275	274	272	272	276	276	279	280	279	280	282	288	288	280	270	269	269	276	278	272	272	271	271	278	278	276	272	275	275	277	276	276	277	280	281	276	273	273	275	282	285	282	277	276	275	274	274	275	279	279	280	280	281	283	277	270	270	271	271	271	269	267	273	276	279	281	280	280	281	280	279	272	270	272	280	277	278	278	278	278	281	284	281	282	279	281	283	281	285	284	284	281	278	278	282	284	287	284	285	284	285	286	289	283	283	284	281	279	282	284	284	283	277	276	277	281	280	281	281	281	282	283	283	282	279	277	277	274	282	282	278	279	285	285	285	282	282	282	283	287	289	289	292	292	293	294	294	296	293	290	289	288	287	288	284	282	282	280	281	284	286	290	290	291	293	293	293	292	294	288	290	294	297	297	297	297	296	296	290	287	287	288	289	286	290	291	293	290	291	291	292	291	291	295	291	290	289	289	282	285	289	287	287	290	288	287	292	294	292	287	287	285	284	288	289	294	293	291	292	292	295	295	298	295	296	295	284	288	288	291	291	291	290	283	287	291	292	293	291	285	285	291	293	294	293	293	291	287	287	287	292	289	290	290	293	294	296	297	296	294	293	293	293	293	289	288	290	292	294	292	292	291	291	292	294	296	295	294	294	293	292	292	291	291	291	292	292	293	291	288	283	283	283	285	287	291	294	293	289	289	293	290	290	284	285	290	291	294	293	291	291	288	286	288	288	289	288	288	289	289	288	286	287	290	291	288	284	285	285	285	285	282	284	286	287	285	286	286	286	286	292	293	292	289	287	288	289	289	288	287	284	285	285	285	290	290	290	288	287	287	287	288	290	287	288	288	285	285	282	285	286	286	288	287	287	285	286	286	284	284	283	281	281	285	285	287	287	283	282	285	286	285	284	281	277	278	283	281	281	279	279	280	283	279	279	278	286	285	284	282	279	278	279	279	283	281	283	284	285	288	288	288	296	291	288	282	279	279	283	279	278	278	271	272	275	277	277	278	277	278	276	273	273	274	276	279	282	281	278	278	276	275	276	278	274	275	271	268	269	272	272	271	272	272	272	273	273	274	273	274	275	275	277	277	276	278	280	283	282	277	274	273	273	273	274	276	276	275	273	271	272	275	275	275	273	271	273	269	269	269	270	274	274	272	273	274	276	278	278	275	274	274	272	270	269	276	274	270	270	270	268	266	273	269	269	270	270	270	271	275	276	277	276	275	275	273	273	275	272	271	273	271	271	271	273	276	275	275	274	274	274	273	269	266	262	262	259	259	263	265	270	271	271	266	262	265	268	269	269	268	265	264	265	266	266	268	267	264	266	268	275	274	272	268	268	266	266	265	262	262	264	264	265	267
284	289	287	284	281	279	279	275	274	274	280	280	286	289	283	272	273	276	276	279	280	280	279	275	275	269	264	269	276	275	275	275	271	272	280	282	280	280	277	273	273	280	282	287	287	286	275	268	268	269	272	272	278	280	276	270	276	279	280	280	270	267	272	274	271	272	268	268	275	278	278	277	274	275	280	280	281	278	279	280	281	273	272	276	276	282	281	279	278	277	274	275	277	277	280	280	278	279	279	280	277	270	272	272	275	274	271	270	270	276	279	279	279	279	279	282	284	285	283	280	277	274	272	278	278	276	283	284	282	281	279	280	282	281	281	278	276	276	277	276	280	286	278	277	278	276	274	277	281	283	283	284	284	282	284	285	284	283	283	279	276	276	277	279	282	282	283	284	283	279	276	273	273	279	279	280	277	275	279	285	285	282	281	277	282	282	285	287	289	291	292	291	291	292	290	287	287	287	288	287	284	282	282	281	284	285	287	291	290	290	289	289	290	289	290	287	290	294	297	297	297	298	295	293	289	290	290	287	284	282	287	290	293	289	287	287	290	292	292	292	283	281	280	279	287	283	284	283	283	285	283	288	291	293	291	285	283	283	284	286	290	290	288	286	290	293	295	295	298	295	293	287	283	285	287	289	290	288	289	291	292	292	290	288	288	287	285	291	293	294	293	293	291	287	287	287	292	289	289	289	287	282	286	288	291	295	293	293	293	293	289	286	287	292	293	293	291	288	288	292	293	293	293	292	293	293	293	293	291	291	292	292	291	288	291	288	283	283	283	285	287	291	294	293	289	289	289	291	296	291	290	288	292	291	291	288	291	289	288	285	285	286	286	287	287	288	291	291	290	292	291	291	283	283	279	279	279	279	285	288	288	287	286	284	281	285	286	287	289	288	287	288	289	288	289	286	285	286	287	288	288	287	286	284	284	284	286	285	286	285	288	288	285	285	283	281	286	287	286	287	288	286	285	284	284	283	280	284	286	286	287	283	284	285	286	284	282	282	279	276	277	274	279	277	279	279	278	280	281	281	279	278	278	279	279	279	278	277	276	285	282	280	279	282	283	283	283	284	292	287	284	279	278	274	274	277	278	276	270	272	275	275	277	277	276	277	275	270	269	273	278	282	283	282	276	276	274	274	273	271	272	273	272	268	270	269	272	272	271	273	272	273	272	272	272	273	274	274	274	273	275	279	278	278	277	272	269	270	270	273	274	276	275	272	271	269	273	274	274	274	273	270	273	267	266	268	269	269	269	272	273	274	274	275	276	277	277	276	273	270	266	270	269	271	263	263	262	264	263	268	269	270	270	268	271	271	275	275	274	272	272	271	270	271	273	270	267	267	266	271	273	274	271	273	273	273	269	269	269	269	269	269	267	266	267	269	268	270	271	271	271	273	274	275	275	272	270	269	268	268	268	266	264	259	266	268	268	271	268	264	264	264	264	263	263	262	265	265	271	276
288	291	291	287	282	278	278	275	274	283	287	285	285	284	280	272	278	279	279	281	278	276	273	275	275	269	265	273	275	283	279	279	278	276	281	281	286	286	282	280	280	278	282	287	280	283	278	271	266	266	269	277	277	276	270	270	270	274	269	269	268	267	272	274	273	272	266	266	273	279	282	277	274	274	280	280	282	283	281	279	278	273	272	276	276	278	277	274	273	279	278	274	277	277	282	282	279	277	280	277	274	273	272	272	275	274	272	272	275	277	279	278	274	275	275	278	280	281	279	276	275	274	270	277	276	276	283	284	288	284	281	271	271	277	279	276	275	275	274	277	278	276	277	278	280	279	278	277	279	281	284	284	284	282	288	287	286	283	285	282	281	276	276	279	282	283	283	283	281	279	275	273	272	274	278	280	278	274	278	281	281	281	277	277	280	284	283	283	285	288	288	287	287	282	279	280	283	282	287	287	285	286	286	286	286	288	289	288	289	288	288	289	290	286	282	284	290	295	297	296	297	298	295	293	287	290	288	288	285	281	281	285	287	289	282	280	286	291	294	283	287	286	281	283	280	281	283	285	284	283	283	288	289	291	287	279	278	278	281	282	284	288	288	286	291	293	295	289	286	286	285	285	285	284	286	288	286	288	298	302	300	298	294	293	290	289	285	291	294	296	293	292	289	288	286	286	292	292	289	289	287	282	286	288	291	295	293	293	293	293	289	286	287	292	293	293	291	288	288	292	293	293	293	292	293	293	293	293	291	291	292	292	291	288	289	287	285	285	285	287	287	288	290	289	291	288	287	287	288	297	292	288	289	290	289	287	290	291	288	286	286	286	286	287	287	288	291	293	294	293	293	289	287	283	274	274	276	282	288	288	286	286	285	285	283	282	283	286	286	285	286	286	287	287	284	283	285	285	286	287	286	283	283	283	283	283	282	285	286	285	288	290	291	289	284	287	284	285	287	286	285	284	284	282	280	280	284	285	288	288	285	283	284	285	285	284	281	278	279	276	273	274	274	275	278	282	282	280	281	281	277	276	277	278	278	279	278	277	284	282	282	282	282	281	277	279	279	279	282	277	275	273	276	278	277	277	277	272	270	272	272	272	272	270	270	272	276	270	270	273	279	283	283	276	276	276	275	273	273	273	271	273	273	274	270	269	270	270	272	271	274	274	273	272	270	273	273	272	272	272	273	275	275	277	275	272	268	270	270	270	270	272	268	263	263	268	272	273	273	273	274	274	271	269	265	267	268	268	269	272	276	275	273	274	274	274	274	274	270	268	265	270	269	265	265	263	262	267	263	268	269	268	268	268	268	270	273	273	273	271	271	270	269	267	266	265	262	267	266	268	269	265	263	261	261	260	259	269	271	272	271	271	269	268	267	269	268	268	269	269	270	273	274	274	273	273	271	270	271	271	276	272	264	259	257	257	262	264	263	263	259	259	261	260	261	261	268	268	270	276
281	275	276	279	282	282	282	279	280	283	287	281	281	279	277	274	273	276	276	276	272	271	272	274	270	270	265	273	284	286	295	295	289	284	281	281	284	281	281	279	282	279	278	280	283	283	281	271	267	268	279	284	284	281	276	278	279	276	274	270	270	269	270	274	273	267	270	270	272	279	283	278	275	274	277	279	279	283	283	278	275	268	266	276	276	274	274	270	271	274	278	279	278	280	280	279	276	275	275	277	273	272	274	275	275	274	275	277	279	280	280	277	275	275	275	274	272	270	270	278	276	275	269	273	280	280	283	290	288	284	272	268	272	275	279	279	273	273	273	276	278	278	278	278	279	279	279	279	279	281	283	283	285	287	288	287	284	286	289	288	279	276	276	278	276	276	276	275	279	278	277	277	273	272	273	274	274	276	278	279	279	279	276	276	280	284	283	280	280	283	283	281	281	280	276	277	279	279	286	285	284	286	288	288	291	291	287	282	284	288	288	289	286	284	286	287	291	294	295	289	289	290	290	289	287	290	288	285	283	283	285	285	290	290	282	278	277	278	279	286	287	287	286	284	279	282	282	283	283	282	280	279	283	284	286	288	288	288	288	286	285	278	286	287	287	287	286	284	285	283	284	284	286	290	291	291	292	296	299	298	296	293	293	291	291	291	286	286	288	293	293	290	289	286	282	282	285	283	286	284	283	280	285	291	293	293	292	294	294	293	292	290	290	289	287	287	285	286	287	286	289	289	286	287	288	291	293	292	291	290	291	292	287	288	289	290	289	289	288	287	288	284	287	289	289	286	286	283	283	286	291	292	287	286	284	285	286	288	288	287	288	290	290	288	286	285	288	292	293	291	293	289	288	286	286	283	281	285	286	286	286	286	285	286	283	282	282	283	281	282	282	282	281	283	283	283	281	280	281	280	280	283	280	280	283	283	282	285	285	284	286	288	287	287	286	287	287	286	285	283	284	283	284	283	284	285	285	285	285	287	284	284	283	283	281	280	278	275	274	273	277	278	279	279	278	282	282	280	280	275	276	275	276	279	279	283	281	283	285	282	282	279	283	281	277	277	278	278	279	278	277	276	275	276	275	277	277	272	268	276	276	271	271	265	264	265	272	272	272	273	274	276	276	275	275	275	273	273	273	272	272	273	273	274	269	270	270	272	273	272	274	276	275	273	270	270	272	272	271	273	273	274	274	274	275	272	268	265	265	264	265	267	267	262	261	267	268	273	273	273	268	266	263	261	260	263	264	268	270	268	273	273	270	271	275	274	274	271	269	269	268	267	264	264	264	264	262	267	264	267	269	270	270	268	268	270	271	273	272	272	271	268	268	266	263	265	265	262	265	268	269	270	271	271	270	266	268	268	273	272	272	269	265	268	267	262	262	262	262	262	263	263	267	267	269	271	271	272	268	268	276	272	269	267	258	258	256	272	272	273	269	269	259	257	257	259	259	268	270	277
274	274	276	276	280	280	279	279	277	279	280	281	279	282	279	278	272	274	274	274	275	275	277	279	280	280	276	275	284	286	293	293	287	283	278	277	280	282	282	284	283	278	277	276	276	276	281	271	268	272	283	274	274	278	282	279	278	276	274	271	271	269	269	271	272	267	270	276	276	281	274	267	268	273	282	284	284	281	283	277	272	271	263	272	274	274	274	270	271	272	276	275	275	278	278	274	274	274	273	272	269	269	269	270	270	272	275	277	281	281	279	271	272	276	276	277	275	274	276	274	277	276	278	277	276	275	275	275	275	274	272	268	275	274	277	282	281	281	281	281	277	277	276	277	277	279	279	279	282	281	282	282	282	282	283	283	284	286	276	274	274	276	277	276	274	273	273	273	271	273	277	278	273	271	269	270	275	275	272	274	276	280	284	286	286	285	281	280	280	283	283	282	280	274	272	272	274	281	282	281	282	285	289	288	288	289	282	279	279	286	286	286	285	289	289	288	288	290	286	286	287	288	287	286	285	285	283	283	283	283	285	284	285	284	285	277	277	277	280	284	286	286	283	278	277	282	283	284	284	283	280	286	288	285	285	288	289	291	291	290	288	279	285	285	280	281	283	286	285	282	284	286	290	290	296	295	297	296	296	291	290	287	290	292	290	288	289	291	292	292	291	286	283	283	283	283	280	277	278	284	284	290	288	292	296	296	294	292	293	292	293	290	286	283	281	282	282	285	286	284	283	284	286	288	289	289	289	291	290	290	293	290	291	287	289	291	289	289	288	287	284	282	283	287	282	282	281	279	279	281	284	286	282	280	280	284	285	284	285	287	287	290	288	288	284	284	286	288	285	288	284	287	285	288	288	285	284	285	287	287	285	287	287	286	281	281	279	277	275	277	281	282	284	284	281	281	280	279	283	283	280	283	280	280	280	284	284	287	285	282	283	286	287	285	285	289	289	286	283	283	282	284	283	285	285	285	285	285	285	286	284	283	280	278	274	275	273	272	275	276	277	276	279	279	280	280	284	283	283	277	277	275	274	278	279	279	284	282	277	280	281	281	282	283	281	281	275	274	275	276	276	277	276	276	275	277	275	270	272	274	274	275	274	274	271	270	276	277	276	274	271	276	277	277	276	271	270	270	272	273	272	273	270	268	269	270	270	272	272	274	275	274	274	272	272	272	269	269	274	274	272	273	273	274	275	274	273	273	265	263	266	268	268	266	266	265	269	269	272	274	272	268	265	263	263	263	263	264	265	266	269	268	269	269	269	269	272	270	270	266	264	265	264	264	266	264	264	268	266	262	267	267	269	269	271	269	271	272	272	272	271	270	264	266	263	266	266	266	266	263	268	271	271	271	268	265	263	266	268	269	269	269	265	264	264	261	261	257	261	265	262	261	262	262	262	261	261	261	268	268	264	271	273	268	259	259	263	269	262	268	268	270	266	257	253	259	259	256	260	264
274	274	275	274	275	278	274	274	275	277	277	276	282	282	279	278	274	275	276	276	276	275	277	280	282	282	280	278	282	287	293	287	273	269	270	269	275	279	279	279	279	278	276	276	274	271	271	270	268	272	271	271	274	274	281	274	270	270	271	272	272	271	269	269	266	267	269	276	276	271	264	263	265	272	276	279	280	280	280	281	274	274	266	259	270	270	271	270	271	274	273	270	268	270	269	269	273	274	272	275	275	270	268	268	268	268	277	280	281	281	275	273	276	278	279	279	279	277	272	277	277	277	277	279	278	274	274	272	266	268	270	273	275	274	272	277	280	280	281	281	276	275	274	275	277	275	276	277	282	282	284	284	284	282	281	278	276	276	276	274	274	276	276	277	276	275	272	272	272	279	281	279	279	273	275	277	276	279	275	275	278	279	282	281	282	282	279	278	277	282	283	282	278	284	281	282	280	282	283	282	284	286	284	286	284	284	280	280	281	284	287	286	289	290	288	286	285	284	282	283	287	287	282	275	278	279	283	282	283	283	285	284	285	284	285	275	276	275	279	282	283	282	282	279	279	280	282	283	282	283	285	290	286	286	287	282	285	286	286	280	279	280	280	279	277	280	281	283	286	285	280	284	290	293	290	290	286	289	289	288	285	288	287	286	286	286	284	282	282	286	285	280	280	281	285	285	281	279	279	280	280	288	290	287	288	285	288	290	291	292	288	287	289	288	286	283	285	285	284	283	283	283	286	287	288	289	288	288	287	289	288	289	292	289	289	289	289	287	288	283	279	281	283	284	279	280	279	282	282	282	283	281	282	282	282	278	280	281	280	279	279	283	285	285	278	283	282	277	275	276	283	283	283	283	281	278	284	286	286	279	279	279	279	278	277	278	273	272	272	272	274	283	283	286	284	281	280	279	283	283	281	279	280	280	283	286	284	285	277	280	283	286	285	284	286	285	287	283	280	281	283	283	284	286	286	285	287	287	287	285	286	284	279	273	273	272	273	274	273	276	277	276	283	282	283	282	279	279	276	278	275	273	274	278	279	279	278	276	274	276	277	280	282	282	282	279	277	275	275	272	272	277	276	274	276	276	273	271	272	272	274	275	275	275	271	272	275	272	274	275	273	276	272	272	271	268	268	270	272	273	272	272	269	268	269	269	270	272	274	273	268	265	266	267	269	269	269	271	272	269	272	273	273	273	272	272	271	271	271	265	264	267	268	268	268	264	267	267	272	272	272	269	268	263	263	264	264	265	264	265	265	265	268	268	269	269	269	271	272	266	266	265	265	264	266	267	271	268	267	262	262	262	267	271	269	270	272	273	273	272	272	270	264	261	261	264	264	265	263	265	264	271	270	270	267	264	262	263	268	268	269	268	265	264	264	266	266	265	266	267	266	261	261	259	259	258	261	261	261	263	271	269	263	264	264	265	261	264	263	262	262	265	262	257	253	252	252	252	255	257
272	277	277	274	274	274	275	275	271	273	275	273	280	280	284	278	276	276	279	279	278	276	278	280	283	284	284	280	279	278	276	273	273	269	271	281	287	275	277	277	279	278	277	275	272	268	268	266	265	268	271	271	268	268	268	268	269	270	272	275	274	274	271	269	270	275	275	278	271	271	263	267	266	271	273	276	277	277	277	279	277	276	273	269	267	267	267	269	271	274	273	268	266	268	270	270	271	271	270	273	274	272	270	273	275	275	279	281	280	278	275	273	275	273	272	272	276	277	274	274	276	274	277	277	274	275	273	273	271	272	272	272	271	270	272	277	277	279	279	279	276	276	274	276	277	279	274	278	278	278	276	276	275	275	277	280	278	277	278	278	274	276	276	277	276	276	277	279	279	281	279	278	273	275	283	283	281	284	279	280	280	280	276	273	275	275	278	275	279	283	283	282	278	284	281	282	282	282	281	282	282	286	283	283	281	281	278	279	280	282	285	290	289	288	284	281	282	282	283	286	286	280	279	280	285	287	284	284	278	278	276	276	282	278	277	275	276	275	279	281	282	283	277	279	279	279	281	281	283	284	290	289	287	288	286	282	285	280	279	279	279	278	279	279	275	277	281	281	283	286	285	283	284	290	289	286	284	287	287	287	285	288	287	282	276	282	279	281	286	286	285	287	285	284	283	283	283	283	281	282	283	285	285	285	288	288	284	286	285	286	287	287	288	289	290	290	286	283	283	282	285	285	285	283	283	283	284	285	287	287	287	290	291	288	286	286	286	285	283	280	283	283	283	284	281	279	278	282	282	281	282	281	280	281	282	278	280	281	281	282	288	286	283	281	283	282	279	276	273	275	277	284	279	279	279	277	279	281	279	276	278	278	277	277	276	274	273	270	269	270	272	275	283	286	284	281	280	283	291	287	277	280	280	284	285	285	284	282	281	279	281	281	283	281	284	283	283	281	278	278	278	278	279	281	282	287	287	286	283	281	283	282	279	273	273	274	273	274	273	276	279	281	282	283	279	279	279	279	276	276	275	275	276	279	279	279	277	275	271	271	274	274	275	276	276	276	276	275	275	272	272	276	277	276	276	276	276	276	276	276	275	274	274	271	270	271	272	274	273	271	271	271	271	269	266	268	268	270	270	270	269	266	269	270	272	272	269	270	274	273	268	265	264	265	266	261	261	264	266	269	272	268	267	264	266	270	270	271	271	269	264	265	268	270	269	264	264	262	269	271	270	269	268	266	270	269	269	267	263	264	267	265	265	266	266	267	269	271	269	269	270	265	265	265	267	268	269	269	264	263	263	260	265	270	268	271	271	271	271	269	272	266	261	261	262	262	262	263	264	263	261	263	263	266	265	264	263	263	268	268	269	270	267	264	266	266	266	267	268	267	269	262	262	259	258	258	259	260	260	263	267	271	266	262	262	263	264	266	262	260	260	265	262	260	255	255	256	253	254	255
272	277	280	279	278	274	274	277	277	276	275	273	284	284	284	282	276	276	281	276	276	276	278	279	281	281	281	279	272	270	270	270	272	272	271	281	285	285	278	278	280	279	278	271	271	270	270	268	267	269	269	268	268	267	267	269	269	269	269	270	274	274	273	270	275	277	278	272	265	265	263	267	270	272	272	271	271	271	273	275	277	273	275	278	278	272	272	269	272	273	273	268	266	268	269	270	270	270	270	272	273	269	271	273	279	279	281	274	270	269	269	276	275	273	271	271	271	272	268	268	272	275	274	273	274	275	273	273	272	269	268	267	267	267	269	272	277	279	275	272	272	274	274	275	276	276	274	270	269	269	270	269	271	271	274	275	279	282	282	281	279	278	276	277	276	271	274	276	276	277	276	280	279	280	283	281	281	280	278	277	279	276	278	274	273	274	274	273	279	283	283	281	283	280	281	282	282	282	276	278	282	285	282	281	281	278	278	280	280	281	282	281	283	283	283	278	280	282	285	286	284	280	280	285	286	282	284	282	278	277	277	276	278	277	276	275	277	278	281	281	282	283	277	276	279	276	279	281	283	284	286	288	285	288	286	282	281	283	284	284	283	280	279	281	275	279	280	281	280	279	279	279	278	278	279	285	288	288	282	284	285	290	285	276	277	282	278	279	282	286	289	286	286	285	285	284	284	284	284	281	282	282	284	286	285	288	290	285	284	284	285	287	285	282	280	281	281	279	280	281	282	290	291	288	288	286	280	279	279	282	286	285	283	282	282	283	283	282	280	280	281	284	284	282	281	278	277	279	279	279	281	285	281	280	279	281	282	282	282	282	282	280	279	281	280	274	274	273	275	276	278	279	279	278	278	276	275	278	275	275	278	277	275	277	276	274	271	270	269	270	272	275	281	282	281	286	286	285	286	290	275	279	279	278	281	285	283	280	279	280	276	277	276	278	279	278	277	278	275	274	275	269	269	271	282	285	285	284	279	275	277	280	280	273	273	274	276	275	275	276	277	278	280	283	276	278	278	276	277	275	274	273	278	277	278	278	274	272	269	271	271	275	274	274	274	274	276	275	273	272	273	271	275	276	275	277	277	277	277	277	276	272	272	270	270	270	270	271	273	271	271	271	271	269	266	266	269	269	265	264	263	262	263	266	266	265	265	269	273	271	269	264	264	264	261	261	263	264	266	265	267	267	267	266	263	267	267	267	266	266	264	263	265	270	271	270	270	265	260	271	270	266	267	264	261	261	263	267	264	263	265	267	264	262	262	265	270	269	265	269	270	271	271	270	269	267	266	265	262	261	261	260	263	270	267	268	261	267	271	269	270	266	267	262	260	260	263	261	264	263	261	260	260	262	262	262	263	263	265	265	269	269	269	267	265	265	264	266	266	266	267	267	265	259	258	257	260	262	262	264	269	263	259	259	262	264	265	264	260	262	260	262	260	258	256	256	254	253	249	249
275	280	280	279	279	278	277	276	276	275	273	274	280	283	283	282	278	279	281	276	273	273	276	276	276	278	278	278	274	271	276	278	276	276	274	275	285	282	280	279	279	270	265	272	272	270	268	268	268	268	267	269	269	267	267	268	267	269	267	269	271	274	274	271	275	277	275	270	266	266	266	267	270	272	269	270	270	270	270	270	271	271	274	278	279	274	270	270	272	272	270	267	267	268	269	268	268	268	269	271	271	271	272	268	278	278	278	270	267	265	265	274	273	271	271	271	266	267	267	270	273	272	268	268	269	271	271	270	270	269	267	268	268	268	268	272	274	276	275	272	272	273	274	274	272	269	270	269	268	266	269	271	274	274	274	271	275	276	277	278	277	277	277	276	275	271	274	276	276	276	280	283	280	277	279	278	280	280	277	278	278	274	275	273	275	275	275	279	281	281	282	281	281	279	280	281	281	281	276	278	282	283	281	281	282	280	280	280	278	277	277	280	283	283	283	281	277	279	282	284	282	279	280	280	278	279	282	282	281	277	277	277	276	277	277	277	277	276	277	282	279	279	276	276	279	276	279	281	283	285	284	284	283	280	284	283	283	284	285	284	284	284	280	276	275	280	280	280	280	280	280	283	281	277	275	283	290	291	287	281	282	286	278	277	278	279	283	281	279	283	286	283	284	286	287	286	286	283	284	283	280	285	287	287	286	285	285	285	283	281	284	284	282	281	276	276	279	279	282	287	288	288	291	287	285	284	283	280	279	280	279	278	280	281	283	284	284	282	275	279	282	281	281	281	279	279	275	275	277	279	280	281	287	279	279	277	278	277	275	271	269	269	279	277	272	270	271	273	275	276	277	279	279	278	276	275	275	274	276	270	270	270	271	275	276	274	271	270	263	271	273	275	280	279	279	280	287	282	289	279	277	277	275	285	286	279	280	278	280	279	278	275	275	275	276	276	274	272	273	272	273	276	274	274	276	276	279	280	279	279	277	280	280	277	276	276	277	279	279	274	276	276	274	271	268	268	266	266	266	273	274	271	272	273	277	277	274	271	269	267	270	270	262	274	274	274	275	275	273	272	272	271	271	272	273	276	276	274	274	274	274	271	270	270	270	269	269	270	270	271	269	271	271	270	265	265	267	265	264	263	261	263	263	264	264	269	269	267	265	268	269	265	266	269	263	261	263	261	262	266	267	267	266	268	268	265	265	261	264	263	264	265	267	268	266	266	263	265	260	259	260	261	266	262	259	259	259	258	258	258	260	264	261	261	261	257	263	269	265	267	270	269	269	268	261	265	265	266	265	261	261	258	259	266	266	258	261	261	267	268	269	268	265	264	264	261	261	261	263	261	259	259	256	260	262	262	262	263	263	262	264	267	268	265	261	261	263	264	266	265	265	267	265	259	257	259	261	261	263	267	263	258	259	259	258	262	259	264	260	260	259	262	258	257	257	257	256	253	250	248
276	279	281	281	279	278	265	266	266	267	267	272	277	282	282	281	279	278	273	273	273	273	268	272	273	277	277	277	274	270	271	276	277	277	275	270	274	282	280	273	273	271	271	272	272	270	268	268	264	265	268	269	270	270	270	268	267	265	269	269	275	274	274	271	271	271	272	270	275	274	274	269	272	270	269	270	266	266	266	265	270	269	273	275	276	272	269	269	268	269	269	268	268	270	271	268	268	264	267	271	271	271	273	270	266	271	271	270	268	263	262	258	257	260	262	266	267	267	267	271	272	265	263	264	266	271	274	272	272	271	270	269	268	270	273	274	276	274	273	272	273	273	274	271	269	268	270	269	265	266	268	271	273	271	271	272	271	271	273	274	280	278	277	276	275	273	274	276	276	276	275	271	277	274	276	277	278	278	275	275	276	273	273	278	276	279	280	280	280	279	280	280	278	279	279	280	280	276	275	276	279	283	281	281	282	279	277	277	272	272	275	277	283	284	282	281	280	281	284	286	281	281	281	281	282	278	282	282	281	279	275	275	276	277	277	276	276	278	276	276	279	277	275	271	272	275	279	281	283	285	284	284	283	278	277	282	285	283	284	284	284	283	279	278	276	279	279	279	279	279	280	278	274	280	277	275	280	283	281	280	280	280	280	279	280	284	285	283	281	282	279	280	283	287	287	283	283	279	279	279	279	280	282	284	285	284	280	278	282	281	281	282	283	280	280	279	275	278	283	283	280	280	282	281	281	280	279	280	280	280	280	276	278	281	282	287	287	281	277	280	280	280	278	276	277	279	274	274	277	279	280	281	286	280	279	278	276	277	275	273	270	276	279	274	270	273	274	274	274	275	275	275	278	278	275	275	274	274	270	270	270	270	271	275	275	272	272	265	268	274	274	278	280	280	279	279	279	281	279	277	273	273	275	278	278	277	277	276	277	275	270	270	272	273	275	274	273	273	273	274	275	275	275	273	276	276	275	280	279	279	283	277	279	279	278	276	276	279	278	273	272	275	277	272	270	270	268	269	271	271	274	272	273	272	273	275	271	271	269	267	265	270	270	262	265	264	270	272	271	270	270	270	268	272	272	271	275	275	272	267	272	270	270	271	269	268	268	266	266	271	269	269	269	267	269	265	262	262	263	264	267	263	262	262	264	270	273	272	266	263	263	266	272	269	269	263	259	258	263	266	267	268	267	266	265	265	266	264	262	263	261	262	262	262	262	266	263	261	258	256	257	261	268	265	265	261	259	257	257	257	258	256	260	260	261	257	263	260	265	265	264	264	264	266	264	258	260	265	268	268	267	262	260	259	266	258	260	260	260	265	263	263	263	260	260	260	263	262	259	259	258	258	256	260	259	258	254	253	253	261	259	260	263	263	263	260	259	262	262	265	265	265	259	259	258	258	259	259	263	262	254	251	252	252	260	262	259	259	259	259	260	263	262	259	259	256	254	251	249	251
275	279	278	278	278	269	265	266	267	267	267	269	276	281	281	281	278	271	269	265	265	265	268	272	265	271	273	273	273	267	266	271	272	271	271	268	271	279	282	273	273	268	269	271	271	272	269	265	265	264	267	269	272	269	265	265	265	265	269	264	268	273	273	262	259	268	274	277	276	277	277	275	270	270	266	266	266	266	262	262	268	274	278	283	278	269	263	267	267	268	271	273	273	272	270	263	264	264	267	266	269	268	271	273	273	275	276	276	269	264	261	257	262	263	263	265	268	268	270	271	272	260	262	263	266	269	273	274	274	274	272	270	270	273	277	275	276	275	269	272	272	272	272	271	269	268	268	265	266	266	270	269	270	270	270	270	270	270	272	272	276	276	276	276	277	278	277	279	278	275	275	271	277	271	269	272	276	277	275	270	268	266	274	279	274	273	274	274	278	278	281	278	277	274	276	279	277	276	275	276	279	284	279	278	282	279	277	276	271	272	274	275	276	280	283	281	279	281	282	284	286	282	278	278	278	278	278	278	277	276	278	278	278	277	276	275	272	279	283	281	277	277	275	271	272	278	283	283	283	284	283	284	280	278	277	282	285	283	279	279	280	280	274	275	276	278	278	280	279	279	278	276	273	272	273	275	276	274	276	281	287	287	280	280	283	285	284	281	283	282	274	277	282	286	286	282	282	280	279	279	279	277	279	281	281	278	277	277	277	279	278	279	279	274	277	280	281	279	276	274	274	279	279	279	275	276	280	281	281	279	276	276	275	276	280	280	282	282	285	281	280	279	275	273	276	275	274	276	276	276	275	279	285	280	278	278	277	276	274	270	275	276	274	271	270	272	273	275	275	273	274	274	278	278	275	275	274	274	270	269	273	272	274	274	275	274	277	274	276	277	278	278	280	279	279	278	274	276	275	276	276	278	274	273	273	274	274	273	273	273	270	270	273	273	275	274	272	272	269	272	273	273	274	274	273	276	275	276	273	276	272	271	276	274	274	272	275	277	277	275	268	271	273	274	274	272	271	268	270	271	273	272	272	272	272	273	270	268	269	267	265	265	263	264	259	264	267	267	269	270	270	267	268	266	265	268	269	269	269	266	271	269	270	268	267	267	268	266	266	266	266	265	269	268	268	266	264	264	263	265	267	268	263	263	267	267	267	271	268	266	266	266	272	269	269	263	261	261	261	265	266	266	266	266	262	262	262	262	262	265	265	265	262	262	262	262	261	261	260	259	257	260	262	264	264	264	264	262	258	257	253	252	258	260	261	255	255	255	262	265	264	264	264	264	263	263	258	259	267	267	267	264	260	259	265	262	262	258	259	258	260	261	258	258	258	265	263	262	258	256	258	258	254	258	261	259	252	252	258	258	257	254	256	258	258	259	260	262	262	262	262	264	263	262	256	253	253	254	253	255	254	253	253	252	260	264	256	256	256	259	262	265	262	259	259	256	256	255	253	249
264	274	275	275	269	264	261	265	267	259	258	259	259	269	274	274	268	272	275	275	271	271	265	261	265	271	264	264	264	265	268	269	268	268	268	268	272	278	279	275	268	268	269	270	271	274	276	273	273	269	266	268	271	262	257	257	263	263	261	264	268	263	258	258	261	265	272	273	272	271	272	272	275	270	268	266	264	265	262	262	262	277	279	273	273	272	263	261	261	259	260	262	266	268	266	265	265	265	266	266	269	268	268	270	274	270	267	267	266	264	261	264	272	273	269	265	270	273	273	273	263	260	262	262	266	269	274	274	273	273	273	273	272	275	275	271	269	268	269	269	274	269	269	270	269	268	268	268	269	266	267	269	269	269	268	268	269	270	272	273	275	275	276	275	276	279	277	279	277	274	271	271	268	271	269	272	279	278	276	274	273	275	277	276	274	275	275	278	278	281	281	278	274	271	273	275	275	276	277	277	279	282	276	276	281	280	276	271	271	272	271	271	273	280	280	280	279	277	276	276	277	277	276	276	278	278	277	276	277	269	271	278	278	277	276	275	272	279	283	283	279	278	277	274	279	283	281	281	282	281	283	283	280	278	276	276	280	285	279	279	280	280	274	275	275	274	275	275	279	279	278	278	273	273	273	276	276	272	275	279	285	287	279	281	282	283	280	280	280	278	278	277	281	284	284	281	281	278	276	278	279	278	277	277	279	278	278	278	279	278	275	277	274	274	276	279	282	280	276	274	275	278	275	273	276	279	279	280	281	278	278	273	275	278	279	279	280	281	284	282	280	280	274	273	273	273	274	273	271	269	267	270	275	280	278	277	279	276	272	275	275	275	274	271	270	270	275	275	275	273	274	274	278	277	275	275	277	273	274	277	277	275	274	273	273	271	273	273	272	271	272	272	274	272	273	274	275	276	275	274	274	277	275	274	268	268	269	270	273	273	273	272	274	273	272	271	268	267	269	271	271	273	274	274	274	274	273	273	273	273	273	269	268	267	268	274	272	277	274	275	271	267	267	264	264	264	267	271	268	270	271	274	273	273	272	272	270	268	268	267	262	262	262	263	261	262	264	268	270	271	268	267	266	266	266	266	266	266	266	265	264	265	268	269	267	267	263	263	269	268	268	266	264	269	266	266	265	264	264	266	267	268	268	264	267	268	267	264	266	266	266	266	270	268	268	262	258	258	259	259	261	264	264	262	262	263	262	262	262	264	263	265	262	261	261	259	257	263	264	263	260	260	259	259	260	264	264	262	255	254	255	252	252	258	261	260	258	254	257	259	259	261	262	262	262	261	259	257	257	263	267	264	266	262	262	262	262	258	257	258	258	261	261	261	263	264	264	261	258	256	256	255	254	257	259	257	254	254	256	258	260	258	254	254	254	259	260	261	261	262	262	262	263	262	261	258	258	256	254	255	253	253	253	255	258	255	252	257	257	264	266	265	261	261	261	260	256	255	253	253
267	269	271	267	267	266	266	265	259	259	258	263	268	272	267	267	261	265	274	273	272	267	267	262	261	263	264	264	263	262	264	264	266	266	266	277	277	277	274	267	267	267	268	270	271	266	274	271	271	271	267	267	261	259	264	269	269	264	258	259	260	263	258	269	266	268	270	270	269	272	268	268	268	266	259	262	264	265	264	262	262	277	269	267	266	265	262	261	261	257	259	260	264	266	267	265	264	264	264	266	268	268	268	266	267	269	270	270	270	269	265	264	264	265	266	260	261	267	267	267	263	263	262	262	266	269	276	275	273	269	269	273	273	272	268	267	267	270	268	268	263	262	262	264	265	267	268	268	269	266	267	268	269	269	268	268	268	268	271	272	274	273	275	275	274	276	274	275	273	274	262	262	260	258	268	277	279	278	274	273	274	275	275	272	271	274	276	279	279	280	278	275	273	269	270	269	274	277	277	277	279	280	279	274	275	278	275	273	273	271	271	271	273	280	275	275	274	273	272	272	271	272	276	278	280	281	279	276	274	269	271	276	276	272	275	275	275	276	276	277	279	282	283	284	280	274	273	273	274	279	285	284	282	279	277	273	274	276	279	271	270	270	271	275	275	274	275	275	279	279	283	280	277	276	277	279	279	278	276	275	278	274	273	279	284	283	273	277	278	276	276	277	273	278	282	281	279	279	276	278	278	279	277	275	275	278	280	283	279	279	279	279	274	271	272	277	281	282	280	280	278	279	277	277	276	278	279	279	280	279	277	277	278	278	277	277	278	279	280	280	281	279	278	275	270	273	273	271	273	273	265	264	268	270	269	271	272	274	279	275	274	275	274	271	270	270	275	275	274	271	271	274	277	275	274	275	275	273	273	273	272	264	266	263	266	270	275	277	274	274	274	274	272	273	273	274	275	276	277	277	274	273	273	269	267	265	266	269	270	271	272	274	270	267	262	261	263	265	269	271	271	270	273	273	272	270	268	271	271	271	271	268	268	268	268	270	270	272	270	270	267	268	266	266	264	261	266	271	272	268	270	276	274	273	272	272	268	268	267	266	266	264	265	265	264	265	266	268	268	273	272	268	267	266	266	269	269	270	266	262	258	258	268	269	271	270	264	257	258	258	263	263	265	266	268	267	268	266	268	267	265	264	264	267	269	268	267	264	266	267	267	261	262	262	260	256	255	255	256	259	261	259	259	262	262	262	262	262	264	264	263	261	258	259	259	258	258	259	264	263	264	263	265	265	263	264	263	261	260	254	255	253	253	257	259	262	256	252	253	257	257	259	261	264	262	261	259	259	257	263	267	265	266	264	262	264	264	256	252	254	256	260	262	262	261	265	264	261	259	256	256	254	254	256	258	254	254	254	256	259	260	259	258	254	254	254	255	258	257	256	256	257	258	256	258	259	259	260	263	257	253	256	256	261	262	260	256	256	258	261	261	259	262	262	262	260	256	256	255	255
269	270	267	272	272	271	269	259	256	261	261	263	268	258	261	264	264	266	270	271	266	267	267	262	255	260	265	263	263	262	263	264	266	278	279	279	278	275	270	266	265	265	265	263	262	266	274	272	272	272	265	260	265	270	270	269	269	269	267	270	271	272	269	266	266	270	270	269	270	265	262	264	264	264	259	261	267	265	261	264	264	275	269	267	265	265	262	260	259	259	261	261	261	263	264	262	262	264	264	267	266	267	265	266	267	269	270	269	269	268	267	265	264	263	263	261	262	263	266	266	266	262	262	264	267	269	276	265	267	267	267	266	261	264	263	265	267	268	271	267	260	258	259	259	264	264	267	267	267	267	267	268	269	267	265	266	266	267	269	268	267	268	268	268	264	265	268	269	269	268	264	264	264	267	277	277	276	275	274	273	274	276	277	277	272	273	276	280	280	280	279	272	267	268	269	273	276	279	279	276	276	279	280	272	272	274	275	275	275	275	272	269	268	272	275	275	274	267	266	266	266	270	272	274	276	276	275	272	270	271	272	272	276	276	274	276	276	276	274	278	282	283	282	280	275	272	271	272	274	276	279	281	281	280	278	273	273	276	277	268	267	267	267	272	272	273	273	275	278	280	283	280	277	276	277	279	279	278	278	276	278	276	273	270	275	274	273	273	274	279	278	276	273	279	280	279	275	275	276	275	274	273	273	264	267	273	279	281	284	284	280	278	278	276	275	276	279	282	281	280	278	282	283	279	278	280	277	277	277	278	275	277	278	278	275	275	279	280	278	280	278	275	274	273	269	269	274	276	273	271	269	269	271	268	269	271	272	274	279	275	274	273	273	272	270	270	275	275	274	267	267	268	269	271	274	275	275	274	273	272	268	267	262	263	265	268	272	277	274	278	276	274	271	271	273	275	276	276	275	275	275	275	271	272	271	267	265	267	273	273	273	269	261	259	262	261	263	265	269	271	270	269	269	269	270	270	269	268	268	268	267	267	267	267	270	268	267	267	266	265	267	266	266	266	265	267	265	262	271	271	271	276	274	273	272	272	271	268	265	266	266	267	265	266	265	266	267	268	268	272	269	268	267	266	267	267	270	270	267	262	258	258	262	266	266	263	257	258	258	258	259	261	263	265	268	268	265	268	273	273	267	267	267	268	269	268	264	262	262	264	267	261	261	261	261	257	255	255	256	257	258	259	258	258	259	262	262	262	264	265	261	255	255	255	259	260	259	260	260	261	264	265	265	265	263	263	264	261	260	255	253	253	259	262	261	258	256	257	259	261	261	261	259	262	264	262	259	259	259	261	264	265	264	262	260	260	259	255	254	254	254	255	255	259	261	265	262	259	257	255	255	256	254	256	257	257	257	260	255	253	257	259	258	258	256	254	254	257	258	258	257	257	255	257	257	257	258	255	263	257	252	252	250	252	254	253	250	250	258	258	256	256	256	256	262	259	256	259	259	260
270	268	268	273	273	273	270	257	261	266	266	265	261	258	261	265	265	266	268	269	264	264	264	260	264	254	261	265	262	262	263	264	271	276	274	274	271	275	268	266	264	259	259	255	258	262	267	272	272	271	261	261	267	271	270	270	270	274	269	268	268	269	268	268	268	270	270	269	267	269	264	264	264	266	261	258	259	260	263	265	266	266	263	262	265	265	265	262	260	260	260	259	261	264	263	264	262	265	267	267	266	263	263	265	266	269	270	266	267	267	267	266	265	263	260	260	261	262	266	266	266	263	264	263	267	267	267	265	267	266	262	262	259	262	261	263	264	268	269	267	257	258	258	258	259	258	263	266	268	266	268	268	269	267	264	266	265	265	267	269	267	266	265	264	260	266	267	269	270	273	279	276	276	276	276	276	275	274	273	274	274	276	277	276	279	273	274	275	276	276	276	274	270	270	272	272	274	275	275	274	273	277	277	272	270	270	273	280	280	270	270	267	265	270	270	269	267	267	266	266	268	269	269	270	270	275	273	275	271	270	272	272	274	274	276	276	278	276	281	276	274	274	277	277	273	272	272	272	273	274	278	281	282	282	282	274	272	274	276	270	267	266	266	269	271	270	270	273	279	280	282	281	279	276	276	278	275	275	278	276	278	276	273	270	275	274	273	269	272	275	273	273	272	279	280	277	279	279	279	282	274	270	269	272	272	269	272	274	275	279	278	280	279	279	276	277	275	276	277	279	279	277	284	282	280	278	279	278	279	280	278	277	275	272	278	278	284	282	280	278	275	270	270	270	269	269	274	276	273	271	269	269	271	268	268	272	273	277	277	271	271	270	274	273	270	271	276	276	275	275	273	263	264	268	270	271	274	274	275	274	268	262	261	264	266	271	273	272	271	271	272	270	268	268	273	275	274	271	271	274	276	275	273	269	266	264	266	266	269	270	272	269	261	259	262	263	264	270	270	271	273	267	267	267	266	272	272	271	268	268	267	262	261	262	268	265	261	262	263	267	266	266	266	269	272	273	269	269	271	271	271	271	272	271	271	270	266	266	263	263	265	265	266	266	266	265	266	266	267	268	268	271	269	266	266	264	265	270	267	260	259	259	260	261	257	255	257	258	258	258	259	261	263	264	267	267	267	267	266	266	266	266	267	268	269	266	261	259	257	256	256	258	258	258	257	257	258	257	255	255	259	259	258	258	259	262	262	262	262	264	261	255	254	254	258	259	261	260	260	260	261	262	262	269	267	263	264	260	256	254	258	258	265	263	257	256	254	257	257	257	261	261	260	262	264	262	262	262	260	264	262	263	264	261	260	260	258	258	256	256	254	250	255	259	258	259	261	259	256	256	256	256	257	256	262	262	262	261	254	253	257	259	259	257	255	255	255	257	256	256	257	255	255	257	258	258	258	255	258	255	254	254	254	252	251	251	254	254	252	251	256	255	256	256	260	259	256	256	256	259
270	269	272	271	271	271	259	256	263	268	262	262	258	260	262	265	266	263	262	263	263	261	259	259	265	263	257	260	261	261	262	263	271	276	268	271	271	267	266	265	263	259	259	256	259	263	266	270	271	261	261	261	266	261	261	260	264	264	266	267	266	267	266	267	270	270	269	269	267	266	268	264	266	266	263	260	258	257	258	260	261	261	262	262	263	266	265	262	261	260	260	264	262	261	263	266	267	267	266	266	265	265	265	265	265	265	266	266	267	267	269	267	265	263	262	259	262	268	269	270	270	266	266	268	269	267	264	264	264	266	262	260	262	262	259	260	261	267	269	266	261	258	260	259	259	260	260	265	266	268	270	269	269	266	264	266	265	264	266	266	266	264	267	265	264	267	272	272	271	270	273	271	265	265	266	266	269	273	274	273	272	272	273	276	279	273	276	274	270	269	269	272	273	273	268	267	268	273	272	271	271	274	274	272	270	270	277	276	276	271	271	268	270	274	275	273	271	269	266	269	268	269	269	270	270	273	274	276	272	270	270	272	275	275	275	275	276	276	270	275	268	270	273	275	272	270	270	268	272	272	272	279	281	282	282	276	276	273	275	269	267	269	268	268	267	268	268	272	277	278	272	272	272	274	273	275	276	277	278	277	276	275	270	267	264	263	265	269	272	275	273	273	272	279	280	277	279	279	279	282	274	270	270	269	270	267	273	272	274	269	278	275	279	279	277	277	274	272	275	277	277	276	275	279	277	279	279	279	280	280	278	277	275	272	272	278	284	282	280	278	275	270	270	270	273	273	276	274	272	272	274	274	273	271	268	269	270	270	271	272	270	271	268	270	273	274	274	275	275	275	268	266	263	265	268	274	270	269	271	269	269	266	267	269	274	273	267	264	262	262	264	263	265	265	265	267	268	270	270	271	275	273	273	269	267	267	269	266	269	270	272	271	271	270	266	265	265	267	269	270	272	272	266	265	265	270	272	270	271	266	260	259	261	261	265	260	264	264	266	267	268	268	271	272	271	273	269	269	270	272	276	276	267	266	266	266	266	264	263	263	263	264	264	265	269	269	265	264	266	267	268	269	266	264	264	264	265	268	266	263	262	262	262	258	257	256	258	258	258	260	259	261	261	262	262	266	267	267	265	264	266	266	267	268	267	264	261	259	255	249	255	255	255	261	260	257	258	258	255	254	255	255	259	258	258	257	255	260	262	263	261	261	261	256	254	258	259	259	263	264	263	263	262	269	267	264	264	263	260	255	255	260	262	259	260	258	259	258	256	256	255	261	260	262	262	266	263	263	263	258	258	264	257	261	261	260	260	258	259	256	254	250	250	254	255	259	258	257	259	259	258	258	259	260	263	265	265	261	254	253	252	256	256	255	252	251	254	256	256	257	255	255	253	254	258	258	254	261	259	255	254	254	254	252	253	254	254	254	251	250	256	255	255	254	252	256	255	255	254	257
268	269	272	255	258	258	258	255	263	269	264	264	262	262	262	263	263	263	262	260	258	259	261	261	261	266	267	266	266	266	263	264	266	267	268	271	261	262	264	264	261	258	259	259	261	262	261	268	272	260	260	261	266	258	260	260	263	263	266	267	266	268	268	265	267	267	268	270	269	266	268	266	270	270	263	259	258	258	258	260	262	262	262	262	263	265	266	264	261	260	258	259	265	261	259	259	266	269	270	268	268	267	265	264	264	264	264	266	267	269	269	267	263	260	262	262	267	269	266	268	268	267	267	268	267	265	261	262	263	263	260	262	262	262	258	258	261	264	268	268	261	263	260	262	262	262	263	265	266	266	269	270	264	263	261	263	264	266	266	266	263	260	263	264	267	272	271	271	268	267	265	265	260	260	264	267	271	272	273	273	272	268	270	276	278	278	276	274	270	272	274	274	276	273	272	269	269	267	270	269	268	271	274	273	271	273	275	273	269	268	268	268	270	271	273	273	271	272	272	271	272	272	271	272	270	273	274	276	271	269	273	273	274	275	275	274	272	269	274	270	270	269	271	273	269	270	267	267	264	267	269	270	271	271	277	280	276	272	271	270	267	268	271	271	262	262	267	268	276	274	272	270	272	272	273	273	274	271	274	272	272	268	266	265	266	264	267	268	273	274	273	272	275	275	275	273	276	276	273	273	273	271	270	269	270	267	273	272	274	269	278	275	279	279	277	277	274	272	275	277	277	276	275	279	277	279	279	279	280	280	279	278	278	278	278	279	280	280	280	278	273	269	269	275	274	274	274	274	272	273	273	274	274	271	269	270	270	269	269	267	267	270	270	270	268	271	274	273	272	272	268	269	268	267	270	272	271	270	270	270	268	268	273	274	269	270	268	267	264	263	263	262	266	267	264	265	267	267	268	268	272	272	268	268	267	267	269	268	270	272	272	273	274	272	266	266	267	269	269	269	269	269	268	266	266	270	271	272	272	266	260	261	261	263	267	266	264	265	265	265	264	264	271	272	271	270	270	268	270	271	269	269	264	264	265	266	266	265	265	263	262	261	263	266	266	264	264	265	266	265	266	265	266	266	264	262	267	265	264	263	263	263	259	257	257	256	258	258	260	259	259	260	261	263	261	263	266	267	265	264	264	266	267	266	265	264	261	259	257	255	255	255	256	260	258	257	258	257	256	258	255	255	255	257	257	258	256	258	260	260	259	259	259	260	261	260	258	257	258	259	261	263	262	261	266	268	263	260	256	256	256	261	260	259	264	261	260	257	257	256	255	261	263	262	258	260	260	261	258	256	260	261	260	263	263	261	258	257	259	256	255	255	254	253	255	255	256	253	253	257	257	256	253	256	256	263	265	256	254	252	253	253	253	252	249	249	250	252	252	252	253	258	253	254	254	253	253	254	258	257	257	255	250	254	253	253	253	253	251	250	252	253	253	254	252	252	254	254	254	252
271	270	259	255	258	251	251	253	258	264	271	271	275	266	261	265	267	267	262	260	258	257	260	260	263	263	261	261	261	262	262	262	262	260	261	261	261	257	260	262	258	259	260	260	263	262	269	274	269	258	258	257	259	258	260	261	264	268	268	266	265	263	264	267	267	267	268	268	269	268	268	266	270	263	259	258	255	256	257	260	263	260	260	261	260	262	260	256	255	258	259	259	260	257	258	261	260	266	269	269	269	266	265	263	261	260	260	265	267	269	269	267	263	262	260	260	260	263	266	265	266	266	266	265	262	261	259	259	261	262	261	259	259	259	258	258	259	261	266	267	264	262	264	267	269	269	271	270	264	262	261	261	259	258	258	263	264	270	266	266	263	260	263	263	264	266	271	267	264	264	267	264	261	264	264	268	272	273	273	272	272	267	270	274	276	276	270	273	274	272	274	274	259	267	269	266	263	259	264	266	266	271	273	273	274	271	269	266	268	266	268	268	269	269	269	270	271	274	275	273	274	276	273	272	272	273	275	273	271	269	273	273	275	275	272	272	271	269	272	270	271	270	272	271	270	270	269	266	263	265	267	267	268	270	275	274	276	279	278	273	270	269	273	273	270	268	269	268	268	269	268	270	273	272	271	271	270	270	269	266	266	266	266	267	268	267	268	270	271	273	273	274	274	273	273	269	269	269	269	266	266	268	268	268	272	273	272	272	268	272	268	273	274	275	276	275	272	270	271	273	274	273	274	271	269	269	269	274	276	276	275	275	276	276	276	278	279	277	278	273	269	267	269	274	274	273	274	273	271	272	272	272	272	272	272	272	274	272	269	268	267	268	270	270	269	270	271	272	272	270	270	268	268	272	268	269	268	269	270	267	271	273	274	274	272	271	270	269	268	267	265	265	267	268	267	267	270	270	268	267	272	272	268	268	267	267	269	270	271	272	271	272	273	272	269	268	268	268	265	262	262	262	266	267	267	267	269	268	267	265	265	265	263	266	265	264	265	265	265	265	265	264	265	266	266	262	262	264	265	269	267	264	265	264	265	266	266	263	263	263	262	261	264	265	265	263	264	264	266	265	266	265	266	266	267	263	264	263	262	262	262	261	259	257	257	257	257	257	258	259	261	262	260	261	264	263	266	267	264	264	265	266	267	266	265	263	261	261	260	260	257	257	263	261	260	259	257	259	256	258	258	258	258	254	253	252	254	255	254	253	256	256	258	259	259	259	254	251	255	259	261	261	259	261	261	260	259	256	254	254	258	257	260	266	264	263	260	258	257	256	258	263	263	258	256	257	257	258	258	258	260	262	264	264	263	257	258	257	255	256	254	254	253	254	255	254	252	249	249	251	256	256	252	252	256	256	259	255	253	253	254	254	254	251	250	248	249	250	250	251	253	258	252	253	253	253	254	253	254	253	253	251	248	255	256	254	253	253	251	251	251	251	250	252	252	253	255	255	254	258
266	266	261	259	251	251	251	252	254	257	265	270	270	267	264	266	268	261	261	260	259	257	260	259	259	256	255	253	254	255	255	256	260	258	255	254	257	257	260	258	257	258	261	260	260	264	264	273	269	258	258	258	253	257	259	261	264	262	262	260	260	269	265	268	267	270	270	269	269	268	268	271	263	259	259	257	257	257	253	254	252	256	256	257	260	259	258	256	255	256	259	259	260	257	256	258	259	261	266	267	266	266	260	261	259	255	259	262	264	265	265	265	265	262	260	257	260	262	264	265	265	265	266	265	262	260	257	254	260	262	261	257	258	258	258	259	259	261	262	257	256	258	260	263	266	266	267	267	264	267	268	269	263	262	262	264	266	268	267	267	265	264	263	263	262	264	265	269	266	267	267	269	269	263	263	267	272	274	274	272	270	267	270	273	276	272	271	269	275	274	267	259	259	267	269	267	264	264	264	263	261	261	263	263	264	266	266	266	266	269	270	272	272	273	271	270	273	271	271	271	273	273	271	266	267	266	266	266	269	270	273	274	275	275	272	272	269	269	271	268	267	273	274	271	271	271	266	264	266	266	267	267	268	269	272	273	273	276	275	273	273	270	268	270	270	273	274	275	271	268	268	275	271	272	268	268	268	267	270	270	269	266	266	269	269	268	268	269	270	270	272	273	274	269	269	269	269	265	265	267	267	266	267	266	267	265	263	268	268	269	267	270	272	271	273	273	272	273	273	271	269	271	272	270	268	267	267	267	269	270	270	272	272	274	274	278	277	278	278	269	265	267	271	275	274	273	273	271	265	265	267	271	273	273	270	270	272	273	272	268	267	269	269	269	269	268	268	267	267	267	270	268	268	266	266	267	266	268	268	268	269	273	272	272	272	272	270	270	269	266	267	265	269	268	267	266	267	270	268	267	267	266	266	266	265	268	269	269	269	269	269	269	273	273	272	271	269	268	264	263	263	267	271	266	266	265	267	266	265	265	264	264	265	262	263	261	257	265	265	265	265	261	259	261	261	261	260	262	262	265	266	265	266	266	264	263	266	266	264	268	266	265	267	266	263	265	265	264	266	265	265	264	264	265	266	264	268	268	263	262	262	262	258	259	260	260	260	259	260	261	262	260	259	261	264	261	259	260	263	263	262	266	265	265	263	262	260	259	261	259	259	261	265	262	260	258	257	259	260	261	260	260	256	254	252	252	253	255	255	252	252	252	257	259	259	255	253	251	255	259	259	261	259	259	257	255	254	253	254	254	258	256	257	261	266	260	260	260	258	258	258	258	256	255	255	255	257	257	257	258	258	263	261	261	263	257	256	255	253	253	253	253	253	253	252	253	251	251	251	249	251	251	252	252	252	253	255	255	250	250	254	254	255	252	249	246	246	246	250	251	249	255	258	258	250	244	244	253	258	258	252	251	255	254	256	256	254	254	254	251	250	250	249	251	253	255	255	259	259	258
263	263	261	259	257	253	253	252	254	260	259	259	259	265	264	267	269	265	265	262	258	256	258	259	259	255	254	254	256	258	260	260	262	254	254	254	254	254	259	258	257	256	260	261	261	262	263	267	272	262	261	261	259	253	254	258	262	262	260	261	261	263	263	265	267	267	267	264	262	261	264	263	260	258	258	257	257	259	255	250	251	255	258	258	260	259	256	253	250	249	256	258	258	257	256	258	260	263	267	267	262	262	259	259	258	258	259	260	260	265	269	269	268	264	255	257	260	263	264	264	264	264	264	264	264	260	257	256	257	261	260	257	254	254	255	259	260	263	262	257	256	256	257	257	260	264	264	264	264	268	268	262	263	264	263	263	264	263	264	266	266	263	262	261	262	264	265	267	265	265	266	267	271	266	265	265	264	268	271	273	267	265	268	268	273	271	267	265	263	264	258	252	252	259	261	267	264	264	265	265	265	263	261	262	263	265	265	264	264	269	269	273	273	273	273	272	268	271	271	272	272	267	265	266	266	267	267	266	269	270	273	276	272	269	268	269	269	269	271	268	266	267	269	276	274	272	269	267	267	266	266	269	266	262	267	268	270	270	266	266	267	270	270	268	268	268	269	269	271	268	267	270	276	272	267	265	267	267	271	268	271	270	270	268	269	269	270	267	269	270	269	271	271	270	268	267	265	266	266	265	266	267	268	267	267	267	266	263	265	265	267	268	270	272	272	271	272	273	272	271	270	270	273	270	268	268	268	269	266	264	266	267	271	275	275	273	276	268	268	270	270	268	275	273	273	269	268	262	261	262	266	271	273	273	271	270	272	273	268	268	267	268	268	267	267	268	268	268	265	266	268	266	266	263	262	265	265	266	268	272	272	272	269	268	268	269	270	269	264	268	265	265	269	268	267	266	266	266	268	264	263	262	265	266	265	266	267	267	268	267	274	274	274	272	272	273	269	267	268	268	266	273	270	268	267	265	264	265	266	263	265	264	262	262	263	261	257	258	259	259	263	263	262	260	258	258	260	260	264	266	265	264	266	265	263	261	265	265	267	268	267	264	265	265	265	265	265	263	262	261	261	263	263	264	266	261	264	265	264	262	261	262	259	259	259	259	259	258	258	258	259	260	259	260	259	255	256	258	258	259	261	262	262	261	261	260	260	259	260	263	263	261	261	261	260	258	257	259	260	260	260	260	257	254	252	252	254	257	254	252	252	253	258	261	260	255	253	254	258	258	258	257	253	257	259	256	254	252	253	253	253	257	255	256	266	260	256	256	254	255	256	256	255	255	256	256	257	258	257	258	257	259	261	261	259	257	256	254	251	249	249	254	256	256	255	253	253	253	251	249	251	251	254	251	251	252	257	257	252	251	251	252	255	250	246	247	246	246	248	249	246	253	255	255	252	245	247	259	255	255	255	249	255	254	246	246	249	256	253	249	241	241	241	245	249	250	250	259	259	259
260	260	260	260	262	263	259	259	257	260	259	257	257	256	264	268	268	264	264	263	262	257	257	257	255	255	254	259	262	263	264	264	262	259	254	252	253	255	255	256	256	256	260	263	261	261	262	264	265	266	263	265	265	264	256	253	258	259	261	261	261	256	255	257	261	260	255	255	253	255	261	261	259	258	257	257	258	259	255	254	253	254	257	257	260	261	260	258	259	259	257	257	257	253	254	261	260	263	258	258	257	256	256	256	258	259	259	258	261	264	268	267	267	261	254	255	259	263	264	264	260	260	260	263	264	263	260	260	261	263	263	256	254	255	255	260	263	264	264	263	262	256	257	258	260	261	261	264	266	264	262	260	263	267	268	264	263	263	263	264	264	264	261	259	262	263	265	267	265	261	262	261	262	262	262	262	264	266	267	264	263	263	263	266	267	263	262	262	262	257	263	261	262	262	264	264	266	262	265	265	265	262	260	261	263	263	262	262	268	269	272	270	270	270	271	269	270	269	271	272	268	266	268	267	269	268	268	269	268	269	270	272	269	267	265	269	269	267	270	270	266	267	269	276	274	270	266	266	266	266	267	267	262	266	261	261	264	266	266	266	267	269	267	267	268	268	268	268	269	269	265	268	271	267	265	266	268	267	265	267	268	271	271	269	269	269	268	268	267	268	267	268	269	272	269	266	266	266	266	267	267	268	266	265	266	266	266	265	267	271	274	268	268	269	269	270	272	272	271	268	269	269	269	268	268	269	271	273	267	263	265	267	268	274	274	273	268	266	268	264	272	272	272	272	270	268	267	266	261	260	267	270	271	272	270	271	272	269	272	268	267	267	267	264	265	267	267	267	267	269	268	267	264	262	263	267	267	268	268	268	272	271	268	265	267	266	268	269	264	268	265	269	266	265	266	266	265	267	266	264	260	259	263	266	264	264	266	266	268	267	267	269	271	268	269	269	268	266	264	264	266	267	272	268	268	267	263	263	266	263	265	264	262	262	260	260	261	257	259	259	263	266	264	261	257	259	260	261	261	262	265	263	263	263	260	262	262	265	266	264	263	263	265	265	265	264	265	266	263	260	258	258	259	261	259	261	262	265	262	258	258	261	259	259	259	259	258	257	258	258	259	260	261	261	260	256	254	256	256	259	259	257	256	257	259	257	257	257	259	259	261	262	261	261	260	256	254	255	254	256	256	256	256	256	255	255	257	254	252	253	253	256	259	261	260	254	257	259	257	257	254	251	252	255	258	256	252	251	251	251	255	251	255	256	264	262	262	255	250	256	257	254	252	252	256	256	257	260	256	248	257	259	259	251	248	252	255	250	249	249	249	253	255	255	254	255	252	252	251	249	251	251	250	247	247	250	253	253	251	246	246	251	250	248	246	247	247	248	245	249	251	250	250	250	252	253	256	258	254	254	255	249	248	250	250	251	256	256	249	247	247	247	247	249	250	250	250	251	252	256
255	255	257	259	262	264	263	263	262	261	263	257	256	258	265	267	268	266	262	262	263	263	263	257	254	254	254	259	262	263	265	265	262	260	256	254	255	255	255	253	256	257	262	263	261	261	258	258	261	263	262	258	258	260	257	247	249	253	255	255	256	256	255	257	257	258	255	255	261	255	261	260	254	255	253	253	256	261	259	254	253	255	257	259	259	265	264	260	258	257	257	255	254	254	250	254	257	256	258	258	257	259	259	259	259	256	261	262	260	263	265	262	262	259	255	256	258	261	263	258	260	260	261	261	263	264	262	261	263	265	259	255	256	256	256	261	265	266	267	266	263	257	258	258	260	263	266	266	267	265	263	259	262	266	269	268	262	262	262	263	262	262	266	263	264	264	265	267	266	261	262	261	258	260	260	261	261	262	265	265	259	257	261	263	262	263	263	258	259	262	263	261	262	262	263	263	263	260	265	269	266	262	260	261	261	260	261	261	263	267	268	270	270	270	270	266	267	268	269	268	266	265	267	269	270	266	264	264	265	269	273	270	267	263	262	267	268	268	270	271	270	271	273	275	274	270	266	266	266	266	261	259	265	262	265	262	264	265	264	265	266	266	267	266	267	267	266	266	267	267	263	268	267	265	265	266	266	265	265	266	268	270	271	271	269	268	268	267	265	266	268	266	268	272	270	268	268	268	268	267	267	266	265	266	267	265	266	268	264	268	272	268	268	269	267	270	269	268	268	269	268	268	270	268	269	272	272	272	272	269	266	265	269	270	270	268	272	266	264	265	272	272	272	270	268	267	267	266	265	265	266	268	267	264	264	266	264	266	269	269	268	266	263	262	263	265	266	266	266	266	267	265	264	265	265	268	272	271	268	269	271	267	268	265	267	266	268	269	262	265	271	272	269	267	262	262	263	264	267	264	260	257	262	265	264	264	264	265	266	266	267	266	265	264	267	269	267	266	266	264	265	267	270	267	265	265	265	263	266	263	265	265	263	259	258	262	262	259	259	260	264	0	0	0	263	265	266	264	261	260	255	257	260	258	259	259	260	263	260	256	263	263	267	265	263	261	263	264	266	264	260	260	259	256	252	257	263	260	258	258	257	259	258	259	260	260	258	257	256	257	257	261	264	264	260	256	255	255	256	259	257	257	256	255	254	254	256	257	258	259	261	262	264	262	260	259	256	256	257	257	257	258	258	255	255	259	257	257	255	255	260	256	259	259	258	259	258	256	254	254	252	253	252	257	258	253	252	251	251	253	255	251	250	252	256	257	257	261	257	258	255	245	246	244	244	250	252	251	256	248	248	248	248	248	248	252	252	250	248	248	250	252	253	253	253	252	255	252	250	249	247	245	251	251	250	248	250	252	249	249	249	242	250	248	249	249	249	249	250	251	250	250	250	249	255	254	254	253	258	254	244	250	242	251	251	254	256	256	254	249	249	250	255	254	250	250	247	247	247	250
250	255	255	261	263	267	267	267	263	261	263	258	258	258	265	266	267	267	268	268	266	264	257	253	253	253	258	260	261	263	265	261	261	261	259	257	260	260	260	260	259	258	259	260	261	261	258	255	259	261	260	255	255	254	255	252	251	252	252	257	257	261	262	257	257	257	265	266	266	261	260	265	262	261	260	255	255	258	261	256	253	255	257	257	257	261	266	256	255	255	254	252	256	256	257	258	257	254	256	257	258	259	259	258	258	257	258	261	260	264	262	263	260	260	255	258	261	263	261	259	258	256	261	261	263	263	263	260	263	266	259	257	257	259	261	261	263	265	263	261	261	258	258	261	262	263	266	266	267	264	260	259	260	263	267	265	264	260	264	262	266	266	262	260	261	263	262	263	266	263	261	260	258	260	260	261	263	263	262	259	255	258	259	260	261	262	260	256	258	260	262	263	263	262	262	263	261	268	266	270	263	264	261	264	261	260	261	261	261	261	265	267	265	263	263	263	267	267	265	266	267	267	266	267	267	267	267	266	269	270	266	269	269	264	262	268	267	267	268	270	270	274	274	272	272	268	265	264	265	264	261	259	265	262	265	264	265	265	265	264	263	265	265	264	266	266	265	260	261	261	262	264	261	265	265	262	262	262	264	265	266	268	270	268	268	269	268	266	265	266	268	265	267	264	270	269	268	266	266	266	266	265	268	267	268	266	267	266	262	268	268	268	267	268	266	268	268	268	266	266	268	268	267	269	271	271	268	268	267	266	264	267	265	265	268	268	269	273	267	267	267	270	272	272	266	263	264	264	267	268	267	266	265	265	263	263	263	268	267	268	266	263	261	260	261	266	266	270	272	272	266	264	264	267	270	270	272	271	268	269	271	267	265	269	262	267	268	263	259	268	265	261	262	263	263	264	266	268	264	264	258	257	261	261	265	266	267	266	267	267	266	265	257	258	260	266	263	263	263	260	260	265	270	268	265	265	265	267	265	262	261	265	263	260	262	262	261	0	0	0	0	0	0	0	0	0	0	260	260	257	254	255	258	256	258	258	259	263	260	256	259	263	264	260	260	260	260	263	268	270	270	260	254	253	253	254	255	257	258	258	261	259	258	256	259	260	259	257	256	257	262	263	261	260	256	254	254	254	256	256	257	257	256	253	254	253	255	257	257	258	258	260	259	258	257	258	258	258	258	258	257	256	252	253	255	256	256	253	256	255	260	259	257	258	258	260	259	256	256	254	254	253	256	261	256	253	249	249	251	253	255	255	254	249	252	252	252	255	255	256	252	248	251	251	251	250	248	251	251	250	248	248	249	248	247	248	248	248	248	248	247	249	251	251	253	252	252	253	252	249	245	245	245	245	250	250	249	249	251	251	249	242	248	249	248	248	248	248	250	251	250	247	247	249	252	249	254	253	253	251	248	241	241	240	240	249	254	256	255	255	247	250	255	254	249	249	245	243	243	245
