528	525	521	524	524	524	527	541	555	525	525	526	530	528	510	467	467	478	481	490	490	483	486	486	494	503	544	532	533	531	531	544	564	564	559	527	532	532	540	543	570	555	551	538	538	523	512	505	494	493	502	522	522	539	549	547	535	515	488	480	498	498	493	489	515	533	545	533	514	514	484	460	445	453	504	505	499	512	517	517	512	482	472	477	482	488	499	507	496	496	480	470	479	484	493	505	497	490	478	484	484	480	476	480	484	490	488	485	484	488	494	500	500	505	509	505	499	495	495	493	493	498	499	489	485	485	484	486	496	502	502	500	503	509	513	509	505	496	495	492	492	494	497	499	498	499	508	517	514	506	499	499	504	513	522	523	523	523	532	548	554	515	502	509	517	491	478	471	504	498	495	495	504	506	510	520	546	583	583	617	657	715	727	740	744	761	819	879	919	953	956	955	919	913	951	977	982	948	1014	988	914	884	867	860	865	866	864	864	860	850	841	843	842	834	820	817	811	808	803	875	908	925	968	1028	1066	1055	1043	1034	1040	1037	1023	1019	1004	968	948	938	927	943	944	941	936	953	966	985	1006	1004	958	935	932	926	908	893	895	888	838	820	816	816	775	753	735	711	703	704	710	712	711	727	712	702	696	698	696	691	671	678	686	677	672	659	638	626	626	627	635	642	650	650	650	649	666	675	670	666	666	663	670	668	664	658	650	656	683	693	696	704	706	702	691	684	687	691	687	686	671	664	661	658	652	648	656	666	666	663	664	670	676	686	694	695	691	686	676	667	662	658	656	652	648	646	638	641	644	645	641	642	645	651	664	665	665	693	700	702	692	700	719	715	708	792	851	936	978	1014	988	974	985	986	979	956	952	960	963	956	956	929	869	832	823	820	818	800	782	767	752	745	745	727	691	685	675	665	658	654	632	621	613	608	602	592	579	572	571	572	564	565	566	565	545	547	543	537	519	510	504	524	537	542	539	531	520	525	525	526	526	529	533	537	530	528	530	540	556	548	562	560	551	512	505	508	514	532	533	536	535	538	535	521	509	509	509	518	521	521	545	529	506	501	493	492	496	499	507	519	519	510	491	498	502	505	510	522	503	497	491	491	494	499	493	493	495	501	507	509	506	496	472	470	469	472	475	478	478	477	483	485	481	476	472	465	463	462	459	464	469	473	476	476	477	480	477	471	462	457	460	464	465	465	463	451	451	463	490	489	480	469	453	444	449	456	463	468	468	460	438	437	445	455	462	468	464	460	454	454	454	466	466	462	461	461	465	464	461	461	459	455	453	449	448	453	457	455	455	453	450	453	456	453	450	447	448	449	449	451	452	458	458	455	455	455	455	456	456	462	462	466	467	467	469	470	460	451	449	456	456	465	458	441	445	458	465	465	436	422	412	447	443	440	440	443	447	453	456	456	453	453	443	433	437	443	452	452	459	459	457	455	456	455	455	460	470	475	471	462	462	432	441	445	440	440
581	570	537	524	524	530	549	567	566	553	553	543	537	527	522	523	523	521	514	512	522	537	569	569	552	548	544	532	0	556	556	577	581	576	552	541	552	552	545	538	534	528	542	534	530	530	530	531	505	487	473	480	491	491	491	482	463	449	459	497	498	498	484	481	489	525	524	500	476	454	454	427	431	477	509	507	495	479	458	458	463	468	491	491	485	453	463	473	473	473	478	502	489	489	491	492	490	475	478	491	491	481	481	486	491	488	486	483	484	487	491	497	497	503	506	503	497	500	500	496	489	489	491	485	486	486	484	489	494	498	498	494	495	499	501	497	494	488	489	491	491	494	497	496	494	498	508	515	516	509	503	503	504	513	519	521	522	522	519	517	514	528	501	504	484	491	478	477	493	504	532	562	592	625	667	698	758	847	880	880	907	930	945	948	964	1016	1062	1100	1149	1180	1188	1166	1151	1151	1160	1155	1132	1067	1014	988	1021	1011	1001	978	976	995	1011	1004	1004	984	969	959	966	944	880	869	866	871	921	988	1032	1051	1062	1077	1070	1065	1055	1050	1045	1022	1002	953	929	906	893	898	913	927	937	940	934	947	956	983	1000	996	955	931	858	831	823	809	776	730	724	734	712	671	671	664	673	644	630	635	657	662	663	671	671	659	647	649	650	652	657	635	631	635	636	639	634	611	612	613	623	624	629	635	634	639	646	648	639	622	622	630	660	664	664	655	647	641	649	659	675	679	679	676	668	664	671	676	671	670	661	655	651	634	618	613	615	645	655	659	643	641	644	646	653	652	640	637	636	631	623	620	619	618	619	616	612	607	618	631	629	625	627	631	630	627	635	691	697	700	687	698	709	707	701	695	694	704	703	700	698	692	675	654	644	642	644	650	657	648	648	626	629	617	605	594	593	592	581	586	582	583	582	563	564	554	546	539	536	526	531	533	540	543	538	528	527	526	534	545	553	545	561	557	538	541	535	528	519	520	524	525	531	537	538	531	522	530	530	529	529	531	537	542	532	529	532	542	556	548	542	545	548	512	508	512	516	533	537	536	538	539	535	520	507	506	510	515	532	532	526	530	541	541	542	542	543	541	534	530	525	518	514	518	519	516	516	513	507	505	505	509	523	533	520	513	490	472	493	501	499	495	485	474	469	472	484	488	488	480	475	479	472	466	466	472	465	459	463	468	472	475	476	476	477	483	477	468	460	455	451	460	462	461	453	456	456	466	472	481	476	459	452	450	458	466	469	469	468	460	449	443	446	452	463	468	466	458	458	454	458	462	460	460	457	457	461	454	454	455	449	447	441	440	451	456	456	453	453	452	452	451	451	450	447	447	447	448	450	452	450	438	449	458	464	464	465	457	452	451	451	457	468	468	470	464	455	447	444	449	449	459	465	463	457	453	453	453	446	422	412	433	442	444	444	449	452	454	452	452	447	447	437	431	436	446	450	450	447	437	427	437	437	437	440	447	458	468	472	472	462	432	433	433	427	427
554	525	508	478	478	464	477	512	537	547	547	551	552	532	521	512	508	508	494	518	561	635	0	0	0	0	0	0	0	556	586	597	579	572	575	577	564	564	561	551	528	514	519	530	526	526	537	528	503	471	464	471	481	481	477	466	442	435	444	482	496	496	484	481	434	468	473	462	454	453	453	473	483	486	489	499	506	511	516	516	472	461	462	465	467	449	461	468	486	486	511	507	499	489	488	484	481	484	490	491	491	492	494	497	493	490	485	481	482	481	484	490	490	496	498	494	495	496	493	490	478	476	480	482	486	486	489	492	495	498	496	490	490	490	491	486	479	481	484	487	487	492	495	496	494	497	503	514	515	508	508	509	517	532	565	574	560	520	520	486	483	461	478	498	491	488	487	541	586	635	689	739	815	886	1019	1058	1073	1102	1107	1107	1112	1092	1070	1043	1025	1044	1062	1105	1141	1168	1180	1164	1153	1154	1156	1143	1123	1095	1051	1026	1021	1011	1002	981	980	999	1016	1012	1012	988	969	963	967	934	867	875	913	953	959	983	1021	1043	1059	1068	1074	1066	1058	1055	1023	999	964	950	932	911	894	883	875	882	881	840	823	810	797	796	794	788	782	779	744	702	684	652	613	622	628	631	633	635	635	646	657	634	629	633	647	653	659	665	665	657	620	607	609	610	611	600	603	614	622	626	628	625	621	602	616	612	603	601	605	609	602	600	596	594	594	602	602	601	600	609	610	605	601	613	613	611	608	604	600	606	617	619	622	607	592	591	596	609	586	583	580	583	591	595	600	602	605	596	578	551	541	543	538	548	552	552	551	554	566	573	578	568	598	615	613	613	608	605	612	606	596	592	587	581	583	584	587	587	587	591	585	576	570	570	567	583	575	558	568	578	580	573	569	569	568	567	560	563	560	560	571	587	591	593	585	582	580	563	563	554	544	540	536	527	530	537	542	544	540	529	527	526	534	545	552	545	551	535	535	526	512	519	517	520	528	528	531	533	538	534	529	530	557	557	572	571	574	569	566	563	532	542	556	547	545	542	550	561	578	593	610	614	607	606	581	553	545	535	526	513	506	502	502	506	511	518	534	535	541	542	544	544	534	528	521	515	510	514	518	514	514	512	506	503	503	510	517	526	516	504	488	469	482	492	489	491	480	474	474	477	483	483	488	482	473	472	469	471	472	474	464	463	465	469	473	475	475	476	474	476	466	460	456	451	448	451	461	463	461	461	462	467	471	472	451	450	449	446	465	469	469	469	463	441	440	444	445	454	462	468	469	458	458	450	452	454	452	452	448	451	455	454	454	446	443	441	437	445	445	448	456	456	461	461	454	451	447	450	447	446	446	448	452	453	449	432	445	457	457	463	463	454	449	446	446	453	453	470	470	462	453	452	452	451	451	456	463	460	462	455	448	453	446	442	440	422	428	445	445	454	457	453	451	444	440	440	432	430	435	440	441	441	438	431	424	434	431	431	428	429	435	429	472	472	446	439	445	453	453	453
554	525	482	476	476	462	466	506	530	530	530	517	494	483	455	451	468	468	513	0	0	0	0	0	0	0	0	0	0	586	586	597	554	566	577	580	574	567	567	556	533	518	516	533	550	550	543	521	482	461	453	468	476	476	471	452	432	418	436	452	464	464	472	453	434	468	455	463	473	485	485	490	482	471	470	480	493	506	516	501	501	469	468	468	478	478	477	476	480	485	485	489	486	487	484	484	484	486	492	496	492	492	494	487	488	483	469	474	476	472	473	479	479	485	486	483	483	484	482	477	470	462	461	475	487	492	492	495	497	497	494	489	484	483	480	477	470	471	476	482	488	488	494	496	493	497	503	503	505	488	486	487	497	531	549	537	540	508	508	482	487	481	521	550	575	620	667	809	862	985	1018	1035	1049	1045	1035	1044	1049	1081	1077	1082	1082	1066	1040	1014	1000	1019	1041	1092	1123	1154	1165	1159	1136	1118	1103	1101	1094	1083	1039	1033	1026	1016	1002	981	882	866	866	868	880	880	855	834	811	802	833	869	908	941	949	970	981	987	1008	1017	1006	1003	1001	994	987	946	917	890	864	847	829	794	771	768	755	704	677	658	657	650	642	638	641	645	626	602	586	558	555	562	586	599	602	608	607	607	601	596	593	596	607	614	624	631	630	595	549	525	521	523	526	533	549	566	584	580	579	574	569	555	557	549	541	527	532	534	532	524	528	540	549	547	541	551	553	545	547	560	561	553	557	556	556	563	560	564	565	571	568	555	550	557	564	562	571	576	575	579	580	585	595	600	605	595	573	542	539	541	528	545	550	553	551	554	568	574	578	570	592	605	602	599	592	607	597	593	592	587	584	590	588	589	592	590	587	589	585	573	574	582	583	596	588	565	571	581	578	573	567	567	566	565	566	565	562	565	571	584	591	592	590	590	593	597	593	574	553	553	556	561	560	558	565	567	564	562	558	556	556	567	569	577	571	574	575	559	541	524	541	554	567	533	533	534	511	512	526	540	569	569	570	569	559	561	566	563	552	559	558	555	548	552	553	562	573	592	610	608	603	603	599	575	551	537	522	509	504	499	499	499	501	500	504	505	514	529	543	552	536	529	510	507	506	506	506	513	512	507	501	501	499	500	500	496	488	483	489	477	466	471	479	491	480	474	474	475	480	480	474	466	466	468	466	466	474	469	463	463	466	471	473	474	474	466	468	474	464	458	452	447	450	453	457	462	463	463	466	466	466	461	445	446	447	458	465	469	462	462	444	438	437	442	445	448	452	455	459	455	455	446	446	450	450	444	445	447	452	450	450	447	444	447	443	438	438	441	437	437	444	447	447	451	447	445	438	436	436	441	455	449	443	436	435	442	442	447	446	447	447	444	446	454	454	459	458	457	453	451	451	450	450	452	454	454	454	455	448	448	444	440	439	441	437	438	438	441	452	460	458	438	438	433	428	428	429	430	429	429	431	428	430	433	429	429	423	429	435	429	427	427	432	426	441	446	449	449
483	477	482	476	459	450	468	504	527	517	486	486	0	0	0	0	0	0	0	0	0	0	0	0	0	595	560	540	541	555	553	553	554	566	577	545	552	545	545	536	528	520	512	511	513	513	508	501	500	503	500	486	469	469	459	450	440	440	469	493	483	460	460	452	444	448	455	463	479	486	486	485	477	465	464	466	467	471	481	484	484	477	474	474	478	478	474	473	472	474	474	476	481	483	485	484	484	487	496	511	511	511	487	487	488	478	478	478	474	466	465	470	472	472	471	471	472	474	474	472	463	458	456	462	472	480	480	480	478	482	483	482	467	464	473	470	463	466	476	482	487	487	495	495	489	492	494	503	497	496	501	509	518	529	499	502	524	533	533	533	537	535	546	569	624	724	778	803	839	997	1023	1039	1054	1055	1027	1000	960	948	942	963	963	973	959	912	896	899	914	930	949	969	973	978	966	952	937	944	960	992	1016	987	960	922	898	893	882	866	699	699	704	704	704	694	683	679	690	710	719	719	727	741	743	743	737	727	742	743	745	685	642	641	640	642	648	640	630	614	615	615	601	578	558	537	521	528	536	546	552	549	542	531	525	528	535	539	546	549	546	539	532	530	530	534	536	554	559	559	554	554	557	550	530	525	521	520	525	535	549	563	584	580	578	571	567	551	560	552	538	521	511	530	526	522	527	536	544	543	535	549	552	542	545	557	560	550	552	550	548	559	556	564	566	571	566	552	550	553	563	560	561	547	542	544	552	569	583	598	602	596	590	581	577	571	572	574	573	572	590	572	562	566	570	607	619	611	606	607	604	597	593	587	587	582	582	589	593	598	609	614	610	592	590	594	595	595	603	607	601	605	605	598	589	587	587	579	578	576	577	575	575	578	572	574	573	574	578	584	596	596	590	585	564	556	556	562	573	581	580	572	562	557	557	562	576	589	597	603	609	599	585	573	552	549	544	540	541	562	532	504	509	514	505	520	550	550	586	577	559	561	572	576	568	571	571	570	568	567	564	563	564	569	597	598	602	595	578	561	542	518	496	491	487	486	486	486	493	491	491	496	508	513	520	524	499	499	498	498	502	502	496	496	509	503	495	495	491	493	499	508	508	505	489	478	472	471	479	474	468	465	464	466	464	464	464	463	463	467	460	458	456	467	461	458	462	469	472	471	471	454	455	457	469	461	450	449	451	451	454	460	464	464	465	464	455	449	446	442	447	458	470	473	469	469	454	440	444	444	452	456	460	443	439	439	441	445	446	445	438	437	441	446	450	450	450	447	449	454	449	442	434	434	437	437	442	444	447	452	451	445	438	435	435	436	443	449	439	434	434	435	435	444	453	455	452	441	441	442	442	442	441	442	452	450	446	446	444	443	443	454	454	449	447	447	443	435	432	435	430	429	429	431	430	437	443	448	448	434	422	422	422	417	404	404	408	414	427	432	431	429	423	419	416	417	425	425	421	417	420	434	441	441
438	459	471	459	450	450	481	510	516	488	473	473	0	0	0	0	0	0	0	528	518	499	464	432	432	443	472	494	511	505	508	508	523	537	546	545	552	512	512	500	476	464	455	460	467	478	478	482	479	475	472	467	462	466	466	471	466	461	469	490	478	472	472	466	464	461	467	474	479	486	483	483	475	469	464	462	463	468	471	473	473	474	474	474	478	477	474	471	468	462	462	465	474	485	490	486	484	495	483	463	462	462	459	466	480	478	478	473	480	467	463	470	474	474	471	469	471	471	471	465	459	455	451	454	468	474	474	472	471	472	481	478	467	462	466	459	470	489	494	496	499	499	496	500	506	506	513	521	497	496	502	508	518	524	489	501	525	543	547	547	536	537	547	565	626	724	773	797	813	822	836	840	839	828	822	808	780	771	789	799	799	800	800	803	808	806	803	808	819	823	795	787	778	774	765	768	775	786	785	766	762	761	763	753	742	721	699	699	572	577	577	584	592	598	619	621	614	604	592	594	595	593	587	577	604	604	604	562	545	551	550	548	554	558	557	553	549	548	552	557	545	539	529	528	539	546	552	547	542	532	525	524	536	538	543	546	544	535	531	528	528	531	536	549	555	559	555	550	552	550	535	528	525	526	531	540	545	550	555	559	567	568	554	546	540	532	522	511	509	520	527	548	546	551	552	553	555	556	562	564	568	564	557	560	564	567	558	554	580	605	607	604	599	599	597	599	597	596	602	592	591	597	618	636	638	637	629	600	584	583	588	612	614	610	602	603	609	624	633	637	624	614	607	606	616	621	622	628	627	617	606	603	604	601	595	595	607	611	604	585	589	599	602	604	600	606	609	607	603	596	587	586	586	586	583	580	582	582	581	579	574	565	565	564	566	568	589	590	586	573	566	561	563	564	576	576	567	558	549	539	542	561	575	585	588	599	606	603	589	582	564	558	549	543	543	556	559	532	497	500	521	541	541	551	586	577	566	565	569	574	570	570	572	566	566	571	569	566	563	559	552	544	552	568	572	549	523	513	484	490	493	493	488	487	491	490	496	510	507	511	493	511	496	495	494	485	482	493	498	495	488	497	490	490	484	494	497	502	502	497	491	478	472	476	481	478	467	465	462	461	461	463	463	463	462	459	458	456	450	451	455	453	456	463	468	468	467	458	445	447	442	439	462	455	451	449	448	448	448	450	448	447	446	447	444	442	447	458	468	474	474	466	457	453	450	446	452	457	443	454	439	439	429	430	433	438	437	430	436	437	439	439	446	453	449	449	452	447	433	433	438	438	442	444	445	444	447	445	438	438	433	433	433	436	429	429	428	436	436	442	454	452	448	440	432	430	430	434	433	435	442	446	442	442	438	443	443	443	439	440	440	441	439	432	424	422	422	422	418	423	425	421	426	435	435	438	421	421	419	415	415	402	405	411	420	432	431	431	422	419	416	412	411	411	410	413	420	427	427	429
406	399	411	414	435	435	481	510	509	477	476	476	483	498	493	475	480	480	481	458	440	426	413	426	426	445	470	494	510	507	498	498	491	490	497	511	515	512	512	447	456	460	461	468	476	488	488	486	476	461	458	462	472	479	479	485	487	488	480	471	469	468	468	467	467	465	469	475	481	484	483	483	469	465	467	467	471	467	469	473	473	472	473	476	476	476	475	471	465	460	460	461	475	493	488	484	476	482	463	467	462	462	459	464	477	476	472	473	480	466	466	472	471	471	462	455	450	451	462	465	462	455	451	452	454	463	462	462	460	462	472	482	501	502	478	462	469	484	484	479	483	491	491	497	506	507	514	521	499	496	502	508	462	455	460	467	478	488	491	491	490	492	494	501	521	558	585	595	597	594	591	590	602	625	621	612	597	584	585	589	593	593	602	608	614	611	610	614	615	615	607	604	601	599	588	581	599	602	605	610	613	616	614	602	596	590	573	570	572	577	539	542	546	545	548	545	538	533	536	532	526	519	522	523	525	518	524	529	544	548	546	544	550	555	557	555	549	549	550	554	551	546	552	549	548	547	545	545	545	524	522	523	525	529	536	554	563	553	545	540	540	540	547	548	549	549	559	571	566	557	551	551	554	551	551	555	560	565	571	576	581	582	579	568	562	552	545	541	538	565	588	596	593	596	601	604	610	607	607	602	603	607	608	603	610	616	628	638	622	624	619	609	603	600	604	607	610	609	614	616	618	623	631	639	638	635	629	599	585	586	596	614	610	607	602	602	604	616	625	620	619	616	607	612	620	624	622	626	624	615	608	602	601	600	591	591	597	593	580	576	586	599	582	575	572	591	607	599	592	580	577	577	579	583	581	579	584	585	582	575	565	559	557	554	555	562	575	570	565	567	569	566	565	565	566	567	563	554	544	533	536	548	558	571	578	591	588	586	580	585	576	564	556	552	544	553	553	550	543	537	538	546	541	551	557	576	572	569	570	571	569	568	566	561	563	569	573	570	563	552	542	538	548	549	533	532	531	494	485	494	497	497	496	495	495	497	500	512	503	504	488	492	492	494	489	483	469	478	485	486	482	487	487	483	478	488	495	496	498	493	491	485	478	479	480	478	472	467	463	463	463	460	459	457	456	457	457	453	449	451	449	448	444	441	440	440	431	429	434	432	433	447	452	448	441	434	427	419	419	420	423	428	428	447	444	445	449	457	464	464	464	462	462	462	452	438	444	445	440	434	434	434	430	430	434	433	437	435	434	419	438	438	438	435	446	448	447	447	441	439	433	438	439	441	445	439	437	432	428	428	432	429	429	426	419	419	420	433	433	439	446	444	442	436	426	426	420	423	424	425	430	435	434	442	438	435	434	436	436	436	436	436	436	431	417	413	412	412	414	428	430	420	415	416	416	422	427	414	408	410	410	411	408	411	420	427	427	424	424	421	417	415	415	424	425	425	421	414	414	412
409	427	446	452	464	464	490	510	509	477	557	557	559	521	482	446	453	446	446	456	457	461	457	441	441	435	475	486	480	475	460	460	456	472	476	467	457	450	447	447	456	466	464	467	473	477	477	477	468	463	471	471	465	463	463	466	474	479	478	472	471	469	469	467	469	472	473	479	482	481	476	476	469	465	472	477	475	472	463	457	463	463	474	475	470	466	466	467	464	459	459	459	461	466	466	462	467	470	469	466	457	457	457	463	471	475	471	468	469	466	456	461	466	458	458	437	440	439	444	453	455	450	444	444	449	461	454	454	453	459	469	481	503	500	475	459	469	483	483	481	481	493	493	479	467	454	443	440	444	446	460	462	462	455	469	462	461	464	468	476	476	484	487	484	484	490	495	496	499	500	505	511	522	529	525	518	514	512	518	524	528	528	535	537	535	539	551	564	564	567	567	566	565	562	574	572	554	554	550	553	559	557	555	556	557	554	549	544	539	539	542	542	544	542	553	549	545	535	532	526	522	519	525	528	526	521	521	538	551	562	568	568	558	557	560	563	568	566	557	554	561	566	566	561	563	576	580	579	573	556	556	556	561	568	569	560	555	556	552	556	553	553	556	554	552	555	565	567	562	551	551	556	561	561	565	562	562	571	579	584	593	597	585	577	573	567	558	558	564	592	614	614	593	595	598	602	607	606	602	598	596	603	609	608	611	618	630	640	637	630	621	609	602	601	602	604	606	609	612	615	624	633	632	611	596	593	591	596	593	593	603	614	626	611	602	597	597	601	606	614	618	613	611	607	617	620	613	616	616	610	605	601	592	581	574	570	563	555	550	562	579	579	572	569	573	587	598	595	582	573	573	567	567	576	577	578	581	583	578	573	559	554	550	550	556	576	575	571	564	561	568	569	565	563	563	560	556	549	543	536	531	535	542	544	554	569	568	575	582	585	580	575	569	556	546	551	544	538	535	538	538	538	546	555	557	559	565	570	574	570	561	552	556	556	559	564	568	567	556	551	531	535	542	533	535	533	535	519	499	499	499	499	497	497	497	503	503	509	501	494	490	488	495	495	490	477	470	475	483	488	487	480	480	486	474	477	484	489	498	493	489	482	481	482	481	476	469	461	451	451	451	454	452	451	452	458	461	458	454	449	449	446	445	451	458	458	459	449	438	431	432	434	438	437	432	423	414	403	403	428	433	428	428	427	436	438	438	439	442	450	450	456	452	445	441	438	435	432	429	432	437	437	434	433	433	434	432	431	432	416	435	435	428	430	437	444	437	430	441	439	439	441	436	434	435	432	431	426	420	420	419	426	426	430	433	427	424	424	424	425	428	433	417	410	410	410	414	433	432	429	431	435	434	434	430	429	432	434	435	433	433	434	435	434	424	410	412	412	429	438	435	426	418	419	419	422	424	421	410	408	408	411	408	410	414	416	416	420	424	424	420	420	420	426	424	425	421	415	415	412
420	439	461	464	485	485	499	520	526	538	557	557	538	499	462	433	449	443	443	453	467	482	491	464	452	452	458	478	476	474	471	466	466	470	475	468	455	448	451	451	456	466	464	458	456	453	453	452	453	460	464	458	448	441	441	443	457	464	468	467	455	447	444	444	451	461	462	466	470	471	468	463	463	462	472	477	444	444	438	439	440	440	447	453	464	469	471	471	468	462	461	461	461	454	452	447	453	458	473	470	466	456	456	452	449	448	450	454	456	453	456	461	458	458	458	443	441	440	440	447	449	433	435	445	450	450	443	443	447	455	467	488	483	471	454	461	470	474	469	467	471	476	476	469	466	466	465	464	462	449	446	452	462	469	469	462	462	463	466	477	477	483	486	482	481	489	490	493	496	498	503	509	517	524	523	518	513	516	522	528	530	536	536	541	539	541	554	566	569	570	572	566	565	566	573	574	557	554	553	556	560	563	558	556	559	556	552	544	538	539	540	540	544	542	552	557	552	557	562	546	524	529	535	534	536	541	545	549	553	556	560	561	558	556	557	561	564	562	551	550	555	561	559	555	560	572	578	581	579	565	563	563	564	560	553	552	555	563	563	559	559	554	554	553	554	561	564	563	558	548	546	553	559	565	566	559	565	577	585	594	605	596	574	573	575	577	566	564	574	599	618	616	609	587	588	593	601	600	597	586	583	594	613	632	634	629	623	602	601	595	586	579	590	596	606	609	609	615	613	603	604	606	604	594	591	593	602	598	595	594	598	603	612	621	602	595	592	593	600	607	610	596	597	595	594	594	591	595	608	605	601	601	595	587	577	567	558	556	556	570	579	563	559	562	566	573	585	585	579	547	547	540	558	560	560	557	550	548	551	565	552	550	550	557	572	571	566	559	554	552	561	559	556	550	547	547	547	551	558	556	552	542	534	529	539	543	544	543	550	579	576	568	566	559	554	542	540	535	535	538	540	540	550	557	560	563	570	576	576	568	558	545	535	538	543	549	554	553	549	535	528	528	525	529	522	529	533	527	515	503	503	496	496	498	502	501	505	502	500	494	492	496	504	500	493	477	476	482	487	491	487	487	487	478	472	471	484	489	486	484	481	466	463	466	468	452	452	459	448	448	449	450	445	447	447	456	463	460	454	452	450	445	446	452	452	456	455	418	416	418	419	424	426	422	415	410	412	412	414	428	433	438	434	424	419	420	420	419	422	422	432	442	447	446	441	437	429	424	421	425	425	439	438	431	429	430	421	420	418	417	417	418	421	440	440	439	437	430	433	440	440	438	435	433	431	431	430	426	418	418	411	406	404	429	434	432	426	426	422	416	417	429	422	401	404	404	409	416	429	429	431	435	435	425	423	427	433	437	434	429	429	427	426	430	432	431	430	430	425	427	430	423	420	420	419	418	420	418	412	408	408	410	406	404	404	410	410	417	420	419	422	418	418	417	417	411	398	392	392	391
456	481	495	489	474	474	475	499	541	560	566	538	538	499	462	466	463	451	451	448	450	459	488	490	487	487	477	472	474	481	481	480	480	477	475	467	455	450	455	455	458	459	458	458	456	449	447	447	448	453	453	448	451	452	451	451	450	456	461	470	454	444	438	438	443	443	447	452	463	468	462	450	450	443	437	441	444	442	439	439	437	437	443	453	464	470	472	471	468	462	461	461	461	455	452	448	451	458	470	469	460	451	451	448	447	447	449	453	454	454	455	455	458	458	444	447	445	439	418	427	427	428	430	448	453	452	446	448	448	455	469	486	478	466	452	458	468	474	470	469	470	476	469	469	468	468	464	464	461	449	444	454	463	469	471	465	462	479	480	476	476	472	467	472	494	516	532	543	546	542	542	544	548	550	548	547	540	534	536	539	546	558	558	561	557	542	535	539	554	565	582	582	582	588	592	584	578	580	584	595	598	596	585	578	565	562	551	543	535	529	532	539	539	545	552	557	556	565	567	553	551	539	544	546	545	547	550	552	556	554	557	559	559	557	558	561	564	557	539	545	545	543	555	558	559	570	577	579	578	568	564	563	569	564	558	551	557	564	574	568	558	554	554	550	554	555	556	559	555	547	551	554	558	563	566	568	571	585	593	605	607	592	590	603	617	633	627	616	616	624	621	612	588	585	587	592	596	597	594	585	583	593	603	605	603	602	596	594	596	590	582	577	585	595	612	616	620	620	616	608	600	600	600	597	594	591	604	602	595	586	581	588	599	612	598	594	595	592	590	581	576	579	573	568	560	566	571	579	588	604	605	601	596	589	579	568	557	560	568	580	571	553	549	551	559	565	566	559	551	551	545	541	542	548	554	560	556	550	544	543	543	537	537	549	545	537	530	531	536	545	547	548	539	541	546	545	542	538	533	535	538	542	533	526	518	520	528	539	550	556	570	566	562	549	535	538	540	535	535	541	541	543	545	546	548	544	554	555	555	557	553	549	541	532	531	528	527	529	528	527	515	485	481	499	507	521	524	523	510	510	504	498	496	518	530	532	527	518	494	489	492	497	503	508	505	499	492	490	486	484	482	482	480	478	472	471	477	475	478	463	468	459	458	452	449	441	439	437	435	435	438	440	440	438	439	445	453	460	455	449	445	445	450	455	455	456	427	406	419	421	429	427	427	421	418	414	414	412	414	432	436	440	435	429	419	419	418	417	419	419	427	437	444	444	439	429	427	424	419	415	415	417	431	438	432	425	412	413	411	410	410	414	419	439	440	439	432	424	423	433	433	433	433	429	429	430	430	427	427	420	413	405	410	421	422	419	418	418	415	414	414	427	419	400	399	399	403	416	429	427	426	429	429	430	419	414	418	420	421	421	423	420	419	426	431	432	432	430	423	417	419	421	418	418	411	412	414	418	412	412	412	413	409	405	403	407	407	410	413	408	409	413	413	416	417	419	417	418	418	410
470	471	469	444	446	449	449	457	487	491	498	492	492	483	475	466	463	457	457	455	458	455	481	493	486	486	481	476	474	480	481	480	480	477	474	467	456	452	455	455	458	459	458	457	453	449	447	442	441	448	448	445	448	450	451	451	452	456	458	472	448	437	434	434	441	445	449	456	465	466	461	448	448	441	435	438	441	442	439	453	452	450	450	446	446	449	454	457	459	456	450	444	444	440	445	450	459	461	451	430	425	452	447	447	440	435	438	450	455	453	453	454	454	444	447	447	450	438	430	432	442	448	452	453	449	448	453	459	459	473	472	465	458	450	446	440	436	450	456	452	458	470	496	496	489	469	459	458	465	470	471	475	476	475	470	473	476	479	480	487	491	491	499	509	519	532	543	549	555	556	551	548	550	553	554	553	548	545	540	542	548	558	564	564	550	537	529	533	547	561	576	575	583	585	584	579	580	584	589	590	588	584	580	576	568	562	547	536	532	525	527	530	530	542	551	558	556	565	559	552	555	554	549	550	551	553	556	557	559	557	559	560	558	560	566	566	562	552	549	553	554	550	552	562	562	557	559	562	564	562	559	563	575	574	562	554	551	560	563	559	553	552	549	549	548	551	551	555	556	558	555	550	552	553	561	578	588	595	584	583	599	611	615	629	668	675	665	647	636	624	619	611	592	586	582	580	579	586	588	585	585	589	596	598	594	591	591	588	585	579	572	575	584	594	607	621	621	617	612	607	597	597	595	596	592	582	576	568	566	568	572	575	577	583	600	598	597	590	587	586	580	576	570	561	550	551	555	562	576	588	595	594	593	588	578	560	560	570	576	579	567	557	550	548	550	553	556	553	555	555	551	550	548	551	552	552	551	551	553	546	540	536	539	544	541	537	532	529	533	539	539	536	536	536	543	544	538	534	527	530	535	539	535	525	508	508	521	536	552	557	559	549	540	523	535	538	534	532	534	539	539	541	536	531	518	526	536	541	538	534	527	532	541	521	497	493	489	491	495	501	503	490	490	481	485	492	503	526	515	515	509	503	501	521	527	531	527	526	518	513	510	505	505	506	505	499	492	489	484	481	483	483	480	478	471	473	474	467	455	457	459	449	447	448	444	445	430	431	431	431	431	441	440	436	436	435	440	443	444	438	432	430	425	422	422	409	402	411	408	417	431	430	431	424	425	424	414	414	421	428	430	434	440	426	420	418	423	421	411	411	418	429	435	438	440	437	428	453	427	422	422	420	422	424	416	414	408	408	407	407	407	413	419	439	441	435	423	420	417	417	416	428	427	426	417	422	426	425	425	423	416	410	409	412	411	407	407	405	412	413	419	429	420	399	399	399	403	408	416	419	415	422	422	419	412	390	399	410	427	427	426	423	422	415	410	415	415	414	408	396	384	385	399	399	411	412	414	414	416	416	416	413	414	410	408	408	405	400	398	399	406	410	410	411	409	409	411	411	411	406
462	462	463	449	449	447	447	455	471	483	480	476	476	464	461	459	456	457	455	458	458	455	448	479	491	491	486	476	466	462	457	446	446	449	457	466	470	464	456	449	449	458	475	465	449	442	442	442	441	431	432	432	434	437	447	447	448	450	460	458	442	431	443	443	463	457	454	453	453	450	446	438	438	435	437	443	455	453	453	453	452	442	442	433	431	434	440	450	448	445	442	446	446	451	456	464	468	462	453	440	431	444	466	466	454	446	454	458	461	457	456	456	454	454	456	456	450	438	436	441	449	455	454	441	429	423	431	445	445	457	459	453	442	440	434	444	434	443	451	450	456	462	466	466	467	477	463	460	466	469	473	476	475	473	475	474	476	481	486	487	491	493	498	510	518	534	544	552	557	554	547	548	547	548	544	545	546	544	542	552	579	590	584	584	576	553	530	532	542	554	567	576	579	583	583	578	574	576	581	584	582	583	572	574	567	560	543	520	515	514	512	515	516	516	523	550	556	560	559	552	560	568	577	580	584	587	594	600	588	579	576	578	581	584	585	574	574	556	553	557	558	555	560	563	562	557	552	553	556	559	565	575	577	574	565	554	543	545	541	546	547	548	548	546	546	545	549	554	557	556	556	547	537	538	553	563	574	575	577	593	615	613	616	626	655	668	663	651	645	632	611	598	589	585	581	578	585	590	593	591	578	584	590	588	574	579	581	579	574	579	583	576	578	590	595	595	592	603	604	600	589	591	592	590	586	579	573	568	561	561	555	560	568	575	581	597	598	590	589	588	583	575	568	559	552	552	557	561	574	590	587	583	578	572	558	553	558	568	573	574	569	560	553	551	551	548	551	553	553	551	554	549	545	546	547	547	542	543	545	540	531	529	529	536	539	538	536	528	526	524	526	529	531	534	539	542	532	524	522	523	534	540	535	518	502	507	518	530	542	543	541	540	540	523	526	531	532	529	523	523	522	518	514	509	513	522	532	532	529	510	511	507	515	489	477	479	479	480	484	489	482	480	491	488	488	475	465	485	486	486	480	481	481	477	490	501	523	525	518	512	510	502	499	502	501	499	494	485	478	473	473	483	479	477	472	478	475	470	457	452	451	443	438	444	440	440	424	423	423	425	425	433	436	435	434	436	440	444	441	434	434	430	423	423	415	401	401	410	417	424	427	442	432	423	425	424	420	420	416	422	426	429	426	417	418	418	423	421	416	416	409	417	428	434	431	423	418	412	405	405	417	415	414	412	412	409	406	404	404	408	407	413	427	438	436	429	420	417	416	416	416	424	423	418	407	413	424	423	423	419	416	413	412	412	406	402	402	403	409	417	426	426	421	399	399	398	396	399	407	406	403	407	407	407	401	395	399	403	415	415	427	434	431	420	409	408	408	406	399	390	389	415	399	399	409	405	409	411	418	418	418	415	415	412	412	412	405	396	389	401	406	406	407	402	398	398	401	401	407	409
455	454	453	454	461	452	452	452	453	455	466	466	466	461	463	461	460	461	458	458	458	462	457	449	474	467	467	461	453	460	459	450	439	439	446	456	460	458	452	453	453	454	460	466	464	459	438	438	433	431	432	454	455	452	454	454	468	476	472	457	449	437	437	438	438	439	438	430	427	428	426	431	438	438	455	459	463	465	463	457	449	442	442	431	432	438	440	445	444	440	438	442	442	447	458	474	477	468	452	444	440	442	452	452	463	474	469	474	475	466	457	451	453	458	458	458	446	437	436	438	458	468	461	457	442	430	424	430	446	446	449	449	445	446	452	452	445	433	434	454	460	461	461	467	467	476	466	460	461	457	456	458	470	479	480	479	478	479	483	486	493	498	498	497	504	511	523	532	539	538	540	538	543	537	538	543	548	554	557	568	575	578	582	582	582	571	560	548	542	556	571	576	579	574	569	567	566	564	571	582	583	583	568	571	562	541	531	506	499	498	506	515	524	524	525	529	550	554	559	554	560	568	589	598	596	588	577	575	573	569	573	581	589	593	585	577	573	570	568	561	556	552	557	560	557	553	550	551	554	558	567	573	571	565	558	549	541	535	537	541	544	547	546	543	543	544	547	554	549	549	549	545	526	523	532	556	572	575	571	587	594	615	610	600	578	592	600	607	609	589	596	597	591	583	577	576	582	590	593	590	577	574	557	549	552	564	573	571	572	576	580	576	580	579	581	583	589	593	586	581	580	584	584	583	580	577	569	566	560	557	550	554	563	572	579	580	583	583	582	583	588	597	604	594	578	571	569	574	580	581	579	575	568	554	548	551	556	567	570	572	567	559	556	552	550	549	548	553	553	547	547	540	538	538	540	542	538	540	538	528	520	514	521	528	536	542	547	530	520	513	515	522	528	531	537	536	528	522	522	530	536	542	530	512	505	508	516	521	518	543	541	540	537	530	517	513	519	517	505	505	499	494	494	489	493	508	524	519	513	492	494	510	490	481	477	470	470	477	486	492	481	477	488	490	488	474	462	471	471	468	468	460	457	457	457	456	468	474	473	472	470	462	456	460	459	455	454	455	456	473	473	470	460	451	448	469	478	467	442	450	446	440	435	430	427	422	417	410	410	413	420	424	436	437	433	435	439	439	442	433	434	430	422	422	406	403	404	409	419	414	430	442	432	423	415	418	418	425	425	423	422	420	422	420	418	419	421	421	421	416	411	412	417	417	418	417	412	409	405	405	413	413	417	411	403	402	404	408	404	404	408	410	416	423	431	426	419	418	419	419	422	425	418	412	401	405	411	413	413	412	412	416	417	409	404	401	401	401	405	419	434	426	421	399	399	399	397	396	399	398	397	397	398	405	402	400	402	399	406	406	415	417	416	412	407	407	407	405	397	393	389	415	415	423	408	412	405	411	415	415	419	412	413	410	404	404	399	390	384	404	405	405	402	395	390	390	398	398	407	409
461	460	456	445	434	432	432	438	446	452	455	453	453	453	451	450	453	454	454	454	464	462	457	443	444	442	442	442	445	445	454	456	454	454	450	439	437	444	453	456	456	459	464	464	455	443	435	437	437	444	452	454	455	452	454	464	464	473	470	459	450	438	439	441	441	439	439	440	441	438	433	433	437	437	453	456	459	460	461	453	446	437	437	431	432	443	443	441	438	440	437	448	464	464	466	467	464	456	448	437	439	438	440	440	440	448	455	445	447	449	449	443	444	444	442	434	434	427	428	438	458	458	457	453	447	438	426	427	442	442	449	451	451	459	459	455	449	441	431	432	434	429	427	434	434	444	452	457	457	455	456	456	461	465	471	484	483	478	473	473	480	486	486	497	504	484	495	509	531	534	538	535	527	531	539	560	562	564	564	571	578	576	576	579	579	575	569	567	573	580	581	575	577	563	547	558	562	561	558	553	551	560	560	537	534	541	521	517	519	516	518	521	523	525	525	531	552	558	553	555	567	575	589	598	594	581	574	572	572	571	575	582	591	592	580	563	561	561	565	565	552	546	544	543	539	535	543	545	549	552	563	559	557	555	545	535	528	525	525	537	538	539	540	537	539	539	542	545	543	539	535	534	525	516	513	527	545	557	564	565	595	598	599	577	570	574	572	572	557	549	555	559	549	547	554	552	568	569	562	554	546	532	525	526	530	536	533	527	525	533	559	581	580	576	577	578	587	598	597	587	574	574	575	576	577	577	574	568	564	556	550	550	556	560	571	572	572	568	570	550	552	608	625	617	604	596	594	593	597	581	567	567	554	542	544	549	555	563	566	568	563	560	553	553	555	553	544	544	543	541	539	533	528	531	535	534	530	516	529	522	513	507	508	524	535	550	541	522	504	496	491	494	501	507	523	533	524	521	525	530	534	529	518	510	506	508	516	521	518	518	517	523	524	519	515	513	531	521	521	511	487	477	480	492	489	495	508	507	504	492	491	493	492	487	478	470	469	476	484	489	484	490	495	498	498	490	482	476	476	464	460	457	462	463	459	459	458	452	451	452	451	460	461	460	456	451	444	455	456	457	457	453	446	446	440	439	436	438	452	446	443	441	439	433	428	427	403	403	406	395	403	422	422	428	434	431	433	434	436	430	430	429	425	425	416	412	403	409	414	410	430	442	433	424	419	420	420	424	425	426	423	422	419	417	417	423	424	417	417	409	403	411	414	415	415	413	412	408	407	407	412	417	417	409	407	405	405	408	418	418	422	425	425	424	423	425	422	421	421	420	422	414	412	408	397	394	390	390	400	406	411	414	410	402	405	404	404	402	409	419	434	429	401	399	399	397	395	394	396	398	402	402	405	402	402	401	402	404	404	397	398	411	413	407	404	404	405	407	397	393	394	401	401	422	420	414	404	401	414	414	419	421	417	400	386	386	381	380	404	413	412	412	387	385	388	394	398	398	405	406
454	454	445	431	427	430	435	435	447	453	461	457	453	453	445	437	432	438	437	437	446	452	449	443	444	442	442	437	432	433	438	449	457	457	451	450	443	443	452	456	456	461	464	462	457	452	449	448	448	447	443	447	453	452	456	462	462	462	455	452	445	434	436	439	439	436	438	441	440	440	437	434	428	428	427	431	437	439	441	438	426	421	425	425	433	443	443	436	437	434	440	461	465	465	462	460	457	451	429	428	436	440	442	445	445	442	430	439	438	444	446	436	433	429	429	430	430	422	423	433	448	458	457	455	448	438	428	432	442	442	447	453	457	462	462	456	443	432	424	424	427	437	444	451	454	454	460	462	458	456	456	458	463	461	457	454	458	457	463	466	474	479	479	483	485	484	487	489	515	527	533	528	522	528	542	562	561	559	560	571	576	575	567	573	573	573	570	569	574	583	582	575	550	533	532	543	555	556	550	546	541	534	532	521	519	531	534	524	521	518	516	520	525	533	533	557	561	557	553	555	568	581	598	597	594	581	574	571	573	574	586	591	595	588	557	553	548	550	556	562	550	545	541	540	536	531	532	540	543	548	546	543	545	543	538	534	526	521	518	525	527	527	528	534	534	534	537	540	537	537	536	535	526	519	516	520	542	553	554	555	563	572	583	581	580	579	578	571	553	551	551	555	541	532	528	535	534	526	523	521	518	515	516	521	523	530	533	528	525	535	559	580	583	578	575	576	575	580	579	572	562	556	563	575	574	575	574	576	570	561	552	542	538	548	555	562	562	558	559	541	557	604	624	617	618	613	608	612	601	578	568	562	557	546	540	541	545	558	561	562	562	558	557	558	557	547	547	538	535	532	533	533	532	528	514	510	506	512	522	515	510	506	508	516	525	523	512	501	486	487	492	499	505	501	514	519	516	518	522	528	525	516	511	509	506	508	516	520	513	509	513	520	519	517	512	517	536	536	527	516	486	476	479	491	488	494	504	500	499	495	494	494	493	489	487	487	481	478	476	475	484	492	499	503	503	491	487	487	481	476	469	479	459	464	462	461	461	456	455	452	453	460	465	461	454	451	444	439	437	437	441	441	443	442	441	434	431	434	441	445	442	438	440	437	433	414	413	413	408	405	417	423	428	433	431	425	428	430	429	423	423	430	430	419	419	421	411	407	414	410	406	430	437	427	420	421	421	421	422	424	422	418	414	412	416	423	420	417	417	400	383	388	404	414	412	412	411	407	407	407	414	418	417	414	409	405	405	409	417	417	424	429	425	423	423	422	420	419	419	414	406	403	406	408	408	390	388	388	399	404	405	404	395	398	399	399	404	402	409	410	411	412	409	409	405	399	397	396	396	399	405	405	406	403	399	394	405	403	403	403	405	404	399	393	392	392	405	407	406	405	406	406	406	411	415	411	411	399	399	398	403	412	411	410	406	406	393	396	406	406	402	402	396	389	388	394	403	403	407	404
439	439	424	412	414	421	440	440	447	449	456	456	450	450	440	430	428	433	433	438	438	441	439	440	442	442	442	439	430	425	426	440	455	455	460	454	447	449	452	451	437	437	433	446	448	450	450	445	445	440	441	445	451	452	456	462	437	443	440	438	428	432	434	431	430	430	428	430	438	439	431	427	425	425	422	420	425	434	437	437	430	425	422	422	430	439	437	436	437	429	435	453	459	459	455	449	436	425	414	424	430	441	444	447	447	442	431	442	446	445	438	432	429	433	434	431	431	421	419	422	443	450	454	455	448	425	423	432	442	446	446	450	453	457	459	456	452	445	429	423	429	439	446	452	457	457	466	468	466	462	460	461	461	458	452	452	456	463	468	469	468	470	474	474	477	485	487	489	509	516	513	504	504	508	514	517	516	514	519	524	532	540	549	548	545	545	549	558	557	552	542	521	520	520	523	531	541	546	541	540	537	537	534	527	514	515	536	542	536	534	523	529	550	568	563	563	556	551	552	551	568	581	585	591	587	576	571	571	573	548	552	558	562	558	554	547	540	544	551	547	538	534	533	531	535	526	528	534	538	538	539	540	542	541	535	531	523	519	517	524	526	521	513	519	528	538	538	544	532	530	529	528	525	521	520	521	535	561	561	556	552	556	566	579	577	575	577	579	567	554	552	549	541	535	529	532	532	525	521	519	513	512	512	514	517	523	528	532	530	545	558	573	581	576	565	556	557	553	553	555	550	543	543	560	564	554	548	548	549	544	538	533	530	538	543	547	546	544	552	554	561	574	603	620	620	617	614	619	603	579	560	555	552	543	541	538	540	546	532	539	545	549	549	550	556	546	546	540	534	531	532	534	536	512	509	515	516	520	519	517	514	518	517	519	520	509	496	492	491	493	494	499	505	500	496	510	508	503	508	509	513	508	502	509	506	507	515	513	511	512	516	518	515	514	509	511	509	509	509	505	497	488	482	480	482	493	501	503	500	497	499	497	493	490	483	486	482	477	474	474	480	490	495	500	495	489	482	482	482	485	484	468	474	472	466	452	451	456	458	454	463	471	486	461	454	447	440	433	432	432	435	433	436	437	438	436	433	431	431	432	438	440	440	431	425	418	416	416	415	409	422	427	435	427	432	428	416	425	412	419	417	419	419	416	414	417	421	407	410	407	399	409	414	415	414	414	411	415	418	408	404	407	408	403	402	408	412	412	413	396	392	395	402	404	405	400	393	392	392	396	401	410	427	414	409	407	406	403	403	401	404	409	406	402	404	415	410	408	408	404	403	399	402	406	410	415	409	409	405	401	398	392	384	382	384	399	404	405	400	400	399	396	403	403	403	401	402	402	411	407	400	400	392	389	397	396	406	403	403	400	400	400	399	397	392	392	397	401	404	402	399	392	392	391	394	392	384	385	385	388	390	390	392	398	398	408	418	415	415	412	412	407	396	389	391	399	399	404	406	404
439	439	410	404	406	434	446	446	443	440	443	452	448	448	441	434	429	430	427	426	426	430	430	437	443	446	439	439	430	424	424	437	456	474	474	455	444	437	434	431	430	430	429	423	426	431	427	426	426	427	433	440	441	435	434	437	437	443	439	428	417	414	415	415	415	415	417	418	422	431	428	427	422	416	416	415	418	430	443	440	438	431	427	427	427	430	431	428	427	429	431	436	442	442	449	435	422	407	409	429	433	433	431	427	427	430	438	448	453	449	439	431	429	434	437	436	425	425	419	426	434	444	450	444	432	425	423	433	439	444	444	446	447	450	451	452	451	444	431	422	428	438	446	453	462	462	471	472	470	465	462	462	461	453	449	451	459	465	464	462	462	465	472	472	479	481	482	491	509	516	504	502	505	511	516	520	517	510	496	496	502	514	530	534	521	521	518	521	528	526	521	518	515	518	520	528	538	539	534	535	539	542	544	541	546	548	551	558	563	568	571	573	574	572	564	564	554	545	547	549	552	574	583	577	576	574	564	563	563	548	552	558	541	541	539	534	532	529	524	536	540	531	520	515	523	526	527	531	532	531	534	537	541	540	537	528	522	518	521	524	525	523	513	508	515	540	540	531	525	523	525	527	526	524	521	526	535	549	557	556	556	555	556	557	562	572	571	569	577	579	572	558	544	535	534	532	534	533	526	518	512	511	513	523	523	529	543	546	546	548	554	562	560	554	547	547	549	553	552	548	542	536	530	533	534	533	534	534	538	537	534	538	538	536	537	540	540	543	547	540	534	544	562	575	593	588	577	562	555	549	546	548	542	545	547	543	535	526	526	532	533	536	532	537	542	542	544	541	532	525	519	511	490	497	499	499	515	514	510	496	505	509	510	510	502	497	493	492	492	490	492	496	499	497	492	498	498	500	500	507	513	508	502	497	499	507	513	513	513	514	518	517	516	505	498	503	503	503	504	503	495	488	482	480	481	487	488	487	489	495	496	497	495	488	478	481	474	467	465	469	475	478	489	485	483	478	478	476	481	491	488	471	457	451	449	445	446	449	457	465	470	471	486	473	467	454	441	442	442	428	430	427	434	434	428	433	431	427	423	420	423	428	428	427	421	414	414	414	413	402	415	428	432	427	430	411	406	401	411	415	418	418	415	412	413	417	421	417	417	415	411	399	398	396	397	397	405	414	421	412	397	401	399	394	395	398	401	401	404	405	403	404	405	403	405	403	397	391	391	400	404	410	427	428	426	409	393	394	394	401	409	410	411	407	408	410	407	403	403	400	399	400	400	401	400	402	399	399	397	393	386	384	384	382	384	384	401	404	401	398	397	398	402	402	404	400	401	399	410	407	407	399	389	390	397	402	399	403	403	400	397	398	399	397	396	396	396	399	398	398	399	399	399	388	382	378	378	391	391	395	394	384	379	386	386	394	400	401	405	412	412	407	404	397	398	403	403	404	405	402
424	424	410	404	411	440	437	437	429	428	435	452	451	447	447	441	437	436	428	421	421	419	421	427	437	441	437	437	428	424	424	453	450	438	438	425	421	426	429	427	430	430	434	436	436	434	432	432	429	429	427	432	430	425	430	445	450	450	439	428	413	414	414	414	414	414	412	408	406	407	412	421	423	419	419	417	423	441	446	443	442	436	428	421	421	422	417	418	421	427	431	436	425	423	423	421	405	410	420	432	437	437	435	432	436	436	442	450	454	452	440	430	422	421	413	411	412	412	414	419	423	424	425	422	420	416	422	433	439	440	440	439	440	436	434	435	431	430	428	425	421	434	444	452	450	449	449	450	448	449	450	449	443	446	453	458	460	459	450	451	455	455	460	467	467	475	483	497	508	508	504	502	516	520	525	530	531	527	519	514	513	520	527	532	526	520	520	520	524	523	521	519	518	518	521	526	537	542	535	533	541	548	552	552	556	557	559	560	565	567	571	573	574	568	547	535	535	535	546	552	559	558	557	554	551	546	541	536	537	524	519	530	541	541	500	503	504	500	498	502	505	513	510	508	509	514	526	528	528	518	503	511	516	510	507	505	504	512	524	521	520	516	517	519	514	513	504	504	508	516	524	529	527	527	531	542	538	547	556	558	557	553	546	540	538	554	556	561	572	575	567	553	541	538	541	543	548	549	541	532	525	526	549	546	549	559	564	563	547	544	535	527	525	530	535	540	543	545	542	537	533	529	525	529	536	529	531	536	536	532	530	537	539	538	536	537	541	540	541	534	527	523	523	531	556	551	537	530	526	526	523	529	532	527	526	527	526	520	519	523	525	516	498	502	507	507	524	525	519	514	508	496	492	497	497	495	492	488	488	496	507	513	514	506	502	493	493	490	491	490	492	495	499	497	492	486	490	491	500	507	501	496	493	494	498	506	508	509	512	513	506	501	496	479	476	485	485	491	494	490	488	487	478	474	474	474	470	466	467	477	486	479	488	491	487	477	466	458	460	468	469	471	474	470	467	470	470	475	483	491	489	470	455	451	449	449	451	453	462	467	470	468	480	470	465	456	444	437	437	429	424	422	431	436	434	421	424	424	420	418	420	423	425	426	414	412	412	412	406	407	404	423	420	417	405	398	395	404	410	415	417	417	414	412	413	413	414	415	411	410	410	405	395	387	392	392	401	398	402	393	383	379	383	387	390	391	405	405	409	409	406	406	403	399	395	391	391	395	395	400	404	419	418	412	407	393	396	399	399	402	402	416	415	415	407	397	386	386	399	398	399	399	399	398	397	395	395	395	395	385	378	384	384	387	391	391	400	402	400	398	394	395	405	405	413	400	398	397	382	387	387	384	383	392	400	403	405	401	401	396	397	398	401	402	402	400	396	395	394	397	400	400	400	393	381	378	387	393	393	398	399	393	383	384	384	384	383	381	405	412	412	408	403	401	399	407	407	407	404	403
416	416	402	398	411	440	425	425	422	423	439	446	449	448	448	446	445	441	439	428	428	415	414	419	429	436	429	429	415	420	437	453	450	438	438	431	429	428	432	430	432	432	439	442	438	433	428	426	425	425	419	415	419	422	424	432	432	432	420	418	413	414	415	417	415	415	411	407	403	405	408	412	418	421	421	426	434	444	444	445	440	437	431	421	421	404	397	402	430	434	426	426	425	423	425	426	426	424	427	434	440	441	438	434	433	433	431	427	425	415	413	416	418	417	417	414	419	419	428	429	424	424	421	421	418	414	418	428	439	440	433	433	435	433	429	426	427	430	426	422	415	426	447	449	441	435	435	430	427	431	445	445	438	447	455	455	447	445	447	454	457	455	459	463	463	471	482	490	493	503	514	514	516	520	521	530	527	521	515	512	512	518	526	527	526	520	520	521	523	525	524	522	523	524	525	527	536	542	543	539	538	534	527	547	567	566	564	561	560	559	553	533	528	523	504	500	500	501	519	527	537	536	532	538	537	530	526	524	521	518	513	514	506	504	500	503	504	493	490	487	483	502	501	495	498	510	521	524	524	509	509	497	496	505	503	498	498	491	491	506	510	517	522	522	518	514	508	508	510	519	526	527	529	529	528	532	535	545	553	556	557	553	546	536	529	530	534	545	551	553	547	540	537	540	543	549	551	548	545	544	552	554	553	543	546	555	562	548	548	537	516	501	503	509	526	532	536	541	540	536	533	531	531	535	536	533	531	530	532	531	529	530	532	534	532	530	532	535	526	527	527	522	518	511	508	505	509	524	525	523	515	505	505	508	512	515	515	511	511	513	506	490	488	488	488	496	504	508	508	504	486	487	499	499	496	492	487	483	487	495	509	516	506	495	485	490	490	490	490	490	491	493	497	500	503	486	490	491	499	499	496	491	484	477	480	489	497	513	501	499	494	486	479	474	480	480	481	486	484	486	485	485	481	475	472	472	472	470	470	472	473	471	473	489	483	480	476	464	466	469	471	467	460	459	461	461	468	478	479	478	475	471	466	460	461	461	462	462	462	467	469	467	466	460	450	449	451	451	448	427	422	429	440	438	436	422	420	424	421	420	421	425	425	424	414	414	411	407	401	394	390	407	404	403	401	407	411	412	416	423	421	417	414	406	400	398	397	406	408	406	405	406	399	392	392	384	387	400	397	384	383	384	383	391	394	401	401	405	407	408	406	405	403	399	393	390	384	391	395	394	397	402	404	404	395	394	386	387	387	386	382	391	404	406	403	394	388	388	382	395	399	398	395	390	388	385	385	381	385	385	378	379	384	387	387	389	399	407	414	411	406	397	397	395	392	382	384	387	395	380	380	376	366	380	397	405	407	407	401	396	391	392	391	393	393	403	392	390	385	385	388	388	393	393	384	382	387	387	392	398	394	385	390	392	392	384	383	381	386	395	395	397	399	400	393	395	395	404	401	393
406	407	407	408	411	418	425	422	425	428	435	441	445	448	448	448	443	445	440	435	425	425	426	437	433	416	414	414	424	425	434	437	440	438	438	435	438	443	440	434	427	432	432	437	433	425	419	421	417	417	420	430	428	423	417	409	414	414	423	426	417	411	415	417	418	412	412	407	401	405	409	411	418	424	424	424	426	429	436	435	433	430	425	420	420	414	419	424	432	436	435	428	426	425	425	426	429	430	426	417	414	414	417	423	430	430	432	431	421	413	409	412	415	417	419	421	425	435	435	432	426	426	424	423	418	413	418	426	432	433	433	433	430	430	425	425	425	425	422	417	414	423	443	442	438	429	429	431	437	440	440	445	447	447	446	445	438	441	451	453	457	458	460	464	464	471	466	470	476	492	495	496	495	499	521	530	512	510	506	506	509	520	521	521	518	515	516	516	521	524	523	517	520	525	526	529	529	528	523	517	518	510	505	523	540	530	527	531	543	547	544	530	515	497	483	483	483	483	491	500	506	514	518	516	513	509	506	507	509	512	512	510	511	496	492	492	493	493	490	481	479	481	492	500	493	505	517	519	519	518	508	496	494	502	502	498	498	491	487	503	508	517	521	520	520	517	514	514	514	518	521	524	523	514	501	512	524	539	544	551	552	548	546	543	528	527	533	531	528	527	528	532	538	540	546	547	547	547	545	544	550	556	559	544	534	540	548	551	544	524	502	494	490	490	494	519	527	536	545	537	533	531	532	535	535	532	524	524	524	524	525	524	528	530	525	522	517	519	519	523	525	522	514	500	497	497	500	504	509	515	512	505	500	494	494	497	500	503	504	500	489	479	477	485	485	492	498	502	504	490	483	486	496	496	490	495	503	505	502	494	484	478	473	480	486	486	485	489	486	486	486	495	497	500	503	498	493	489	490	486	485	477	469	465	470	484	491	491	488	481	475	476	470	477	478	478	479	481	483	481	482	482	481	476	473	474	475	471	468	469	474	471	469	473	477	480	476	465	468	470	466	461	454	454	453	453	461	468	472	474	477	475	469	468	464	459	462	462	463	464	468	467	460	455	448	443	440	440	440	441	443	439	439	438	432	423	420	419	424	429	432	430	422	416	414	414	418	413	397	385	384	385	386	397	396	405	414	419	410	423	423	421	406	399	396	392	390	392	393	393	391	406	405	384	384	380	383	395	396	389	386	388	386	397	402	398	398	396	396	402	406	405	402	399	396	389	384	384	390	391	389	391	393	394	387	387	386	386	387	386	384	392	401	404	401	394	391	391	391	398	398	395	389	385	380	375	375	381	385	388	385	384	385	382	382	387	394	400	403	407	407	389	389	384	383	385	387	394	391	388	388	382	361	363	379	392	407	407	399	394	388	387	382	379	379	391	385	385	382	381	382	382	388	387	383	380	378	378	388	393	392	387	387	390	392	394	387	387	390	398	398	400	403	400	392	392	387	385	394	401
408	406	406	410	417	421	424	425	425	428	425	430	439	445	445	448	442	438	434	430	434	434	442	434	407	401	403	406	406	410	421	429	433	431	435	435	438	436	436	432	424	418	418	426	432	422	421	417	410	410	424	425	441	445	438	432	426	428	428	431	425	412	410	416	418	412	416	402	399	400	409	416	420	426	427	427	424	424	425	427	424	416	418	419	419	424	424	432	435	434	432	427	421	422	426	426	429	430	415	398	394	403	413	419	425	431	431	430	421	414	411	415	419	421	417	413	428	434	434	435	431	429	423	414	408	405	409	417	423	424	429	429	430	430	420	422	424	425	421	417	416	424	437	441	435	426	430	430	432	434	442	445	444	442	442	445	444	449	452	456	455	455	447	450	454	454	443	460	472	478	477	482	484	496	512	519	512	510	494	497	499	509	519	509	480	486	493	493	488	492	490	492	507	509	508	504	507	506	500	501	501	496	499	498	491	488	484	491	512	524	537	527	508	500	480	479	482	482	486	492	499	503	509	507	502	496	502	507	516	524	523	518	508	493	492	492	493	491	487	481	479	481	487	496	499	496	507	512	513	515	515	515	519	522	521	510	508	505	499	501	505	517	517	516	517	517	512	514	515	515	509	488	490	495	497	500	500	516	539	541	540	528	528	526	520	518	521	524	526	522	521	526	528	529	530	531	535	535	530	529	533	538	537	533	527	530	539	546	535	519	498	491	485	484	489	492	499	507	519	540	538	531	530	532	535	531	522	518	518	520	520	521	524	532	523	514	502	489	489	494	496	498	502	504	506	506	500	496	499	503	503	491	486	480	478	484	497	505	503	497	485	474	474	474	478	482	488	494	495	490	486	484	486	492	507	508	504	505	499	489	478	472	471	479	483	482	457	476	471	471	486	495	497	502	503	494	484	480	478	478	478	474	471	468	465	475	486	486	483	481	476	475	476	473	473	477	478	478	477	479	479	478	480	475	472	474	476	470	468	470	475	482	483	483	478	477	476	471	468	459	450	441	441	457	457	459	452	452	457	468	475	474	474	470	464	459	457	455	451	456	452	446	444	443	447	440	438	438	438	433	436	436	432	430	430	420	418	418	420	428	431	426	425	423	424	424	423	413	398	386	380	384	393	396	400	402	410	414	410	413	413	415	423	402	397	394	399	399	396	395	393	395	400	400	397	382	380	378	389	391	392	393	397	401	395	387	387	380	390	395	400	400	396	395	396	389	388	388	392	394	392	392	390	388	387	389	391	391	390	391	393	394	399	401	399	392	392	389	389	391	392	379	377	374	373	380	375	374	384	392	392	391	381	371	371	374	380	397	402	404	393	387	387	384	385	385	384	383	382	382	381	381	380	378	379	392	391	391	382	386	384	384	378	369	369	372	374	374	376	376	376	378	381	385	382	379	378	378	382	388	389	387	387	387	392	397	387	386	392	392	401	405	404	397	387	387	384	379	390	397
403	401	401	409	418	427	431	436	436	430	425	430	441	446	446	440	431	428	430	427	435	435	435	413	403	394	398	397	397	404	411	418	422	428	431	431	434	436	436	426	421	416	416	410	423	425	421	408	407	424	424	425	443	447	440	435	431	430	430	432	425	412	410	417	426	416	416	402	398	398	413	417	421	424	422	422	421	420	419	419	412	409	408	414	418	418	436	436	429	422	425	420	416	418	425	425	430	430	415	398	399	404	411	417	424	428	428	429	431	429	424	422	421	421	411	410	424	439	439	438	434	421	407	393	391	393	398	405	422	419	421	425	425	421	420	422	428	421	425	424	427	424	431	440	438	426	419	419	428	431	441	439	441	437	438	441	439	435	429	429	431	435	435	434	434	434	440	452	454	455	462	468	482	483	495	513	498	494	494	497	489	494	493	481	483	475	458	456	456	474	479	486	490	492	498	514	505	490	482	485	493	495	489	488	489	482	483	485	488	500	514	517	511	501	492	483	485	483	483	488	493	495	498	497	495	490	490	497	502	514	516	512	483	475	480	482	484	487	486	479	472	475	487	496	499	496	502	504	506	511	508	510	517	519	520	505	503	498	496	499	504	517	515	513	510	511	507	508	507	507	489	488	484	478	480	481	485	493	503	508	510	515	519	519	516	514	520	524	528	526	522	523	523	522	524	522	522	519	514	514	518	534	535	534	523	524	526	533	521	501	494	489	484	484	481	479	479	489	502	520	529	521	518	520	526	523	514	513	514	516	519	523	526	520	509	494	483	477	479	482	482	468	468	471	472	472	470	470	469	481	479	475	465	465	467	470	480	487	493	492	486	473	471	471	470	474	479	484	487	490	489	492	494	504	507	507	503	500	486	473	457	447	447	447	444	439	455	476	471	471	470	475	480	485	486	485	479	471	469	471	472	473	472	471	467	478	485	486	483	482	478	474	469	466	466	470	477	477	477	476	469	466	474	472	470	469	459	447	442	444	463	476	485	482	473	464	463	463	459	450	444	439	438	445	445	456	463	460	458	456	452	451	474	470	469	467	465	464	452	440	436	433	435	435	437	443	443	440	437	431	431	430	427	425	415	419	420	420	420	415	411	407	407	409	409	411	413	410	408	411	412	413	408	396	390	381	410	414	403	407	407	411	413	406	395	386	393	393	392	387	387	395	398	398	392	385	378	384	393	394	394	391	392	390	395	395	386	383	381	379	380	389	396	395	393	389	389	390	391	393	392	387	385	386	389	393	393	393	391	392	392	394	397	390	391	390	390	386	390	385	381	374	373	373	373	373	378	378	384	392	387	384	372	373	373	375	377	383	395	395	391	387	387	383	386	383	382	380	379	379	380	381	380	378	376	380	380	376	381	386	382	381	372	372	365	365	364	366	369	375	375	379	383	384	379	378	378	378	381	388	389	387	391	391	391	382	377	383	386	386	387	394	394	383	380	380	377	380	385	393
401	399	399	407	416	427	438	438	438	431	430	428	441	446	435	435	422	426	429	427	433	433	424	410	403	396	399	399	399	401	407	412	417	422	423	423	423	423	426	426	421	412	412	410	407	406	405	401	400	401	401	420	425	431	433	425	421	414	414	410	409	409	409	416	428	422	408	408	398	398	419	418	422	424	418	420	420	416	413	412	407	403	402	403	406	406	410	413	410	412	416	417	413	413	424	424	429	427	410	397	399	422	414	416	420	428	428	431	430	432	430	429	416	413	411	412	413	427	429	429	421	414	401	392	396	401	405	406	412	414	411	414	414	408	414	430	428	420	428	428	432	421	423	427	427	427	418	421	421	429	430	424	428	436	435	438	438	435	430	425	424	433	434	432	433	443	443	455	456	456	460	465	470	484	493	506	504	490	486	490	489	494	489	481	478	477	460	454	454	470	472	474	480	490	502	497	488	471	474	469	466	464	469	472	482	476	481	483	490	497	506	512	515	514	509	509	506	499	499	489	490	491	492	492	490	488	486	490	496	491	482	469	464	469	476	482	488	491	487	476	469	473	483	491	496	496	502	504	500	507	499	491	493	493	496	498	492	487	489	492	498	505	487	478	475	484	496	507	494	493	493	486	478	474	473	478	480	482	484	487	494	509	516	514	512	511	516	524	529	528	525	525	520	516	515	513	511	511	509	509	503	506	511	513	507	499	501	504	504	500	497	494	491	484	474	468	468	473	481	491	502	504	505	513	517	516	508	504	507	513	518	515	513	510	500	487	481	474	480	479	473	458	449	449	453	452	453	451	451	454	456	451	458	461	470	469	470	477	480	483	483	479	479	471	468	472	474	478	482	482	489	492	495	506	507	487	488	484	464	452	445	447	451	447	444	439	455	463	471	470	456	458	461	467	471	468	464	461	459	460	459	458	468	471	468	476	477	483	483	481	477	480	481	481	479	473	476	477	479	468	460	454	455	452	457	460	457	448	443	443	446	459	470	473	465	450	452	452	449	452	449	446	446	446	441	453	460	461	452	440	452	451	452	449	450	452	454	455	454	444	444	442	440	435	422	426	426	421	416	415	419	418	415	414	419	425	422	413	409	413	415	409	404	396	396	392	395	397	397	400	403	405	401	396	390	381	393	399	397	397	397	394	389	390	389	385	386	391	393	391	393	394	391	391	387	389	385	383	379	379	378	384	387	390	391	391	389	384	381	377	380	389	386	387	388	389	389	392	393	387	382	383	384	384	386	388	388	387	388	391	385	383	379	380	371	372	372	368	373	384	380	378	373	373	374	374	373	378	380	381	387	382	374	374	374	378	385	380	393	388	387	387	390	388	390	384	383	379	375	375	379	381	381	380	378	375	375	375	369	371	377	376	367	367	362	363	360	367	374	378	378	381	384	389	389	387	387	378	381	387	388	391	391	391	390	376	379	381	383	383	370	371	370	369	362	362	364	374	385	390
402	400	408	408	415	433	435	428	423	423	424	439	443	447	435	435	416	423	431	425	430	415	415	409	405	403	403	406	406	406	404	409	413	414	416	416	418	419	417	419	418	412	410	409	406	405	403	398	391	393	393	399	412	427	422	413	414	413	413	409	408	406	409	413	413	420	412	412	410	416	419	414	406	403	408	419	419	417	411	405	400	401	400	396	399	399	406	409	407	410	412	412	407	409	409	413	413	422	414	413	420	422	414	409	413	425	430	430	435	433	429	422	416	409	410	410	405	415	418	418	415	412	407	403	402	407	408	407	410	412	409	402	398	398	406	426	427	420	428	427	418	415	418	422	425	425	409	425	425	427	414	415	420	428	430	435	435	434	433	432	431	431	432	432	434	445	445	461	464	458	460	462	467	484	486	493	501	499	486	472	477	484	489	481	477	476	476	470	467	467	468	470	475	478	483	484	463	460	463	471	475	468	468	471	474	481	478	482	489	495	499	509	507	499	503	508	507	499	494	494	486	487	488	489	487	483	482	484	484	477	469	460	463	468	475	483	489	495	494	477	468	469	480	488	493	490	496	497	500	507	499	489	489	493	494	487	473	475	479	480	483	484	484	481	477	476	484	490	493	489	489	487	484	469	468	472	480	485	484	484	490	502	511	510	507	510	517	521	521	525	527	528	521	505	503	497	501	505	511	511	504	501	502	507	503	499	500	501	502	501	493	492	496	491	482	468	467	471	476	483	487	498	495	499	504	506	503	503	504	507	503	501	500	503	495	488	479	474	484	481	464	459	445	444	454	448	446	444	441	453	456	461	456	460	462	470	466	470	471	477	480	478	478	471	469	471	472	476	474	475	471	463	463	465	467	467	468	467	452	445	446	447	451	447	442	437	436	439	445	452	440	439	440	455	458	457	456	452	456	457	456	454	461	463	464	469	470	468	470	475	474	482	481	481	479	472	474	479	468	460	450	450	452	452	454	459	457	449	444	441	445	448	451	458	453	443	443	450	447	439	449	443	444	444	447	448	447	447	452	440	436	435	438	440	441	446	450	454	449	445	441	442	439	432	424	424	417	420	420	414	405	405	414	420	426	432	408	407	408	415	415	410	397	397	392	390	386	387	395	403	403	403	401	396	389	386	386	393	395	395	395	384	376	374	379	379	378	387	393	391	392	390	390	388	385	386	383	384	389	387	382	385	387	389	390	390	385	383	381	377	377	382	382	380	381	388	388	390	388	384	382	382	382	382	380	379	379	381	385	386	381	368	364	374	367	365	365	365	366	377	380	378	375	375	375	375	373	379	379	381	380	367	374	374	374	379	387	377	388	380	380	380	382	387	391	391	384	379	376	375	379	379	377	374	371	366	366	372	368	366	371	372	374	374	376	362	364	367	373	379	379	382	385	389	387	387	387	385	385	389	391	392	388	388	388	375	371	363	370	370	367	372	373	363	363	346	351	362	375	376
402	402	410	410	420	423	421	419	408	408	404	415	440	447	437	437	416	423	428	428	417	409	409	410	411	408	408	408	408	408	404	409	410	410	411	411	411	415	412	413	412	410	409	409	406	405	399	394	388	389	399	399	414	429	430	418	412	414	415	415	413	408	409	411	412	414	413	413	416	420	423	414	406	394	408	419	419	423	410	402	396	396	406	405	406	413	413	416	417	417	417	406	398	398	402	405	405	409	413	414	415	413	410	409	413	404	406	406	415	422	421	411	402	396	396	394	400	411	414	414	413	413	411	408	408	407	402	399	401	413	413	404	405	405	399	391	401	415	424	427	418	391	400	404	404	401	414	412	412	419	409	410	414	414	419	422	423	425	427	429	431	429	427	430	440	451	464	464	466	464	460	461	463	470	488	482	479	472	463	457	463	471	476	476	477	466	465	466	466	466	465	466	472	478	478	475	451	451	457	465	465	467	471	471	472	482	483	481	489	493	492	503	502	497	502	502	494	492	482	482	472	475	466	467	467	465	456	450	450	453	458	466	469	471	470	482	489	493	492	477	464	472	476	477	482	486	488	490	495	498	495	489	489	493	483	475	471	485	486	482	477	478	481	478	478	478	490	498	496	490	486	486	477	469	468	471	482	488	488	486	487	496	502	504	506	507	512	518	519	524	529	527	506	496	491	497	506	508	511	511	499	496	498	501	502	502	501	499	500	495	488	488	495	489	483	470	468	469	477	479	485	483	489	500	502	505	503	503	500	496	492	487	489	493	492	489	486	478	479	462	457	458	440	443	451	446	445	445	439	453	458	462	458	462	462	474	463	463	466	477	479	479	477	469	471	473	472	470	468	463	460	454	459	461	456	456	457	457	452	445	446	452	455	456	447	446	428	413	415	426	432	429	433	438	449	455	454	450	449	455	450	444	449	457	458	456	460	461	456	452	456	467	467	471	469	460	462	465	465	451	451	450	454	453	454	453	454	453	449	442	445	446	450	455	447	447	447	445	439	439	443	440	439	439	435	433	447	447	442	438	433	434	436	438	438	440	438	448	447	443	440	438	441	433	427	427	427	429	426	409	401	401	404	409	409	411	408	406	408	418	410	408	397	397	394	390	389	386	386	397	403	403	400	394	388	384	384	390	390	391	390	379	376	374	377	380	378	377	380	381	380	380	380	383	384	383	381	381	381	382	382	381	385	390	390	391	385	383	377	373	376	373	377	376	380	380	390	391	387	382	382	381	381	378	377	376	376	381	381	381	381	366	367	377	370	370	368	368	366	377	381	378	376	375	375	373	372	369	374	373	369	360	368	368	370	369	376	374	373	373	368	368	367	374	388	390	390	379	379	376	378	378	376	373	371	367	367	370	370	376	375	374	371	371	365	362	362	363	371	371	376	379	375	389	387	386	386	384	382	385	388	392	392	381	379	363	360	360	360	357	361	368	370	380	380	379	375	367	375	376
401	403	407	407	410	416	417	420	404	404	397	405	433	436	442	442	435	428	428	428	408	405	405	412	416	413	410	407	405	405	404	404	406	405	403	406	406	411	412	413	402	398	406	406	409	405	404	396	399	405	417	417	424	428	425	420	417	415	418	418	412	410	408	409	411	413	417	417	419	414	405	401	395	394	408	418	418	422	418	411	410	406	400	397	396	399	399	403	407	410	405	401	396	395	398	403	403	407	409	403	407	402	403	407	405	404	406	417	417	421	414	399	388	387	389	390	395	405	408	410	410	406	406	410	410	396	389	390	391	393	399	396	391	391	390	378	382	404	412	417	415	391	400	389	394	400	403	410	421	421	412	407	405	404	408	414	414	420	421	426	426	426	428	432	443	456	461	461	464	463	457	459	471	473	472	456	444	441	443	447	456	460	468	471	468	466	465	464	464	462	462	465	470	470	469	449	441	446	452	461	466	464	462	454	457	472	479	475	475	470	471	477	480	483	487	482	468	467	452	441	441	444	439	437	437	437	438	439	436	441	450	456	455	471	474	465	475	488	473	458	467	473	476	480	479	479	478	474	474	487	488	485	489	491	483	475	471	486	487	483	477	477	476	479	479	477	491	494	492	476	473	473	472	475	477	479	482	492	492	488	486	487	494	499	504	506	508	507	515	521	522	519	498	487	491	495	506	512	511	510	496	488	491	497	508	512	512	505	500	494	488	482	478	479	485	486	475	473	463	462	471	478	486	497	499	502	501	496	486	478	469	468	465	470	480	485	484	473	479	467	458	447	453	450	443	440	444	444	443	466	472	471	468	463	470	469	475	460	457	474	477	477	477	471	468	471	471	468	466	464	459	457	471	471	456	456	457	457	446	453	460	457	453	445	440	450	445	433	433	434	433	431	432	431	440	445	443	444	445	449	446	442	448	452	450	452	451	454	448	438	441	442	442	435	435	439	443	450	452	448	448	452	456	456	453	453	451	451	449	446	446	447	448	449	449	444	450	440	435	435	433	434	434	434	435	433	433	432	429	425	435	434	435	435	436	439	437	444	444	443	434	430	431	431	431	427	429	424	418	411	408	406	407	410	412	404	397	391	389	395	402	400	394	394	393	392	388	387	385	397	403	403	401	395	384	377	377	381	381	385	389	386	378	378	379	382	380	381	380	376	373	370	370	374	379	381	380	380	378	377	374	374	380	390	390	391	382	376	374	369	373	370	372	374	380	380	386	389	386	381	378	375	377	377	376	376	374	378	378	374	372	368	368	380	379	379	368	368	370	368	369	374	375	373	373	371	370	366	363	362	365	368	368	373	376	371	371	373	370	366	366	360	360	368	383	390	390	387	387	380	378	378	375	373	370	370	369	369	369	366	362	360	360	362	361	362	360	362	368	368	374	379	375	375	375	374	374	374	373	376	379	378	378	370	366	363	360	349	349	352	359	364	368	377	377	376	375	367	352	345
403	402	404	404	404	408	416	421	422	422	404	415	431	428	420	413	413	407	410	408	408	405	397	404	412	412	408	407	402	402	399	400	400	393	390	396	396	414	417	413	401	391	399	399	406	407	404	396	399	402	412	412	419	425	420	415	415	418	418	418	405	387	383	384	393	415	418	417	417	412	408	402	401	405	412	418	422	416	415	415	397	394	397	397	396	399	399	403	403	404	401	399	394	391	394	392	396	396	396	390	386	390	396	404	407	403	406	417	417	401	389	384	388	393	384	378	377	383	398	386	386	386	386	393	409	399	391	388	390	391	391	391	390	394	394	394	393	395	398	399	399	391	393	389	394	403	405	416	422	422	417	408	400	400	404	414	415	417	419	421	421	421	419	415	422	433	443	444	444	447	447	449	457	458	450	442	446	456	463	468	468	463	457	462	457	459	459	464	464	458	458	463	458	452	450	448	447	449	452	461	470	469	465	457	448	448	449	444	447	459	476	481	478	476	473	462	460	443	439	444	439	439	432	428	429	436	438	439	440	445	445	445	450	470	470	460	459	468	462	457	454	465	474	477	477	480	478	473	469	481	482	486	488	484	481	476	478	486	487	483	477	460	464	476	476	475	476	485	478	460	458	459	459	466	475	478	479	476	478	486	488	483	480	480	483	493	500	507	497	489	483	476	479	482	487	492	502	505	508	508	507	486	484	493	506	508	509	506	498	492	487	482	480	484	489	492	491	476	469	464	469	475	487	490	498	495	491	481	474	470	468	464	462	457	466	473	472	478	471	469	462	464	460	457	448	448	448	440	451	468	474	471	465	466	472	473	476	466	455	452	452	446	443	460	463	464	467	470	472	458	458	457	471	471	465	462	458	460	454	454	463	460	464	453	447	446	449	439	438	436	438	438	439	439	433	437	437	437	437	439	445	442	446	449	449	448	443	444	445	446	443	443	433	432	430	428	428	430	434	441	441	443	452	451	451	449	446	444	438	437	439	441	442	445	444	443	430	431	431	431	428	428	434	434	435	434	435	436	433	431	423	427	430	433	436	438	447	442	441	433	426	424	425	426	426	426	424	420	413	407	405	405	406	408	408	402	398	394	391	391	390	389	389	390	389	388	386	387	385	383	398	402	400	394	384	376	378	378	378	379	381	385	384	382	383	383	380	382	377	368	363	363	362	363	374	378	380	378	379	376	374	378	376	390	390	391	382	374	368	370	372	370	372	372	379	379	387	388	384	377	372	371	374	375	376	376	375	372	370	370	369	368	373	379	379	379	375	373	369	364	369	373	375	372	372	369	367	363	359	361	358	366	366	367	367	369	367	369	369	369	369	362	355	368	383	388	388	382	382	376	374	374	373	371	369	369	369	367	367	365	365	365	365	364	360	356	356	358	368	368	374	375	371	372	373	373	370	367	364	362	374	376	376	375	367	363	364	361	361	360	351	340	354	373	377	376	372	362	352	347
408	406	406	401	401	401	406	411	415	414	414	420	420	420	415	405	405	402	403	398	394	397	404	404	405	408	408	407	403	403	399	398	399	392	391	397	397	418	421	411	398	395	398	403	403	407	405	406	399	402	408	408	411	412	413	410	407	398	396	388	388	387	387	389	391	405	411	411	411	411	408	402	400	406	412	414	416	416	415	394	389	389	391	401	403	402	401	401	401	400	400	396	391	389	391	390	394	394	394	391	379	381	387	394	403	408	409	408	408	401	385	376	388	391	389	384	394	401	400	402	402	396	390	385	394	394	392	387	391	391	391	391	392	397	397	396	395	392	395	396	400	399	396	394	396	403	405	411	415	415	415	407	405	405	402	408	415	415	414	418	421	421	419	417	420	426	431	436	436	441	451	453	454	450	446	444	453	460	466	468	470	465	459	455	450	447	444	452	459	458	463	463	442	445	445	444	445	448	452	460	473	472	468	451	444	442	445	447	457	461	464	465	470	473	472	467	463	442	439	447	444	444	437	428	429	437	439	439	441	446	446	446	449	457	458	458	458	458	464	453	451	453	452	457	456	458	464	469	472	473	471	471	464	461	472	474	469	463	459	457	452	460	464	476	476	472	470	476	465	456	457	457	457	462	468	472	476	476	475	471	467	466	466	472	482	489	496	495	490	471	469	468	471	478	481	487	494	498	499	502	502	501	496	494	493	487	488	493	494	494	487	484	483	485	490	494	485	475	471	468	476	481	485	489	489	480	478	479	471	465	461	460	449	451	452	456	463	461	462	466	461	456	453	452	451	446	443	443	452	463	463	463	466	467	471	477	472	456	438	433	433	428	418	445	446	453	454	470	472	458	458	469	462	460	448	445	438	436	440	448	456	457	463	453	447	444	443	437	437	444	449	453	445	432	432	431	431	427	429	428	422	423	436	442	442	441	441	442	447	448	441	441	439	439	443	449	452	451	446	442	441	440	440	441	441	441	435	430	426	429	433	439	440	438	433	425	419	423	424	427	428	428	428	426	429	434	436	433	433	428	424	419	419	420	426	433	438	443	428	423	419	418	418	420	420	418	415	412	406	401	403	402	404	408	406	404	402	397	393	389	384	384	384	384	385	388	386	383	377	376	386	392	395	394	391	383	379	379	376	376	375	380	382	382	380	382	382	382	374	375	375	375	368	364	368	370	373	378	378	376	378	378	376	376	376	383	384	375	373	373	372	368	367	365	365	371	377	383	384	371	368	367	370	373	374	374	374	372	371	368	365	369	374	379	379	383	386	385	379	372	367	371	374	374	374	368	364	360	356	357	356	363	363	366	367	369	365	370	368	359	359	362	355	364	376	368	383	378	378	370	361	358	356	367	368	368	368	363	364	364	366	365	365	362	360	358	356	358	368	368	370	369	362	368	369	369	369	367	363	362	372	375	375	374	368	370	371	367	367	356	356	358	354	373	373	371	359	356	355	355
408	411	406	401	401	400	398	402	406	408	408	410	407	407	404	399	399	397	400	397	390	390	399	399	405	408	408	407	401	396	396	395	397	392	391	406	420	420	412	410	402	393	391	398	398	403	402	398	398	399	408	411	402	402	405	405	401	396	387	387	387	390	392	398	395	394	394	401	401	401	395	387	385	392	405	406	405	405	400	394	389	388	391	397	406	408	403	403	400	396	396	398	396	395	396	394	393	393	395	392	379	378	384	382	400	409	417	408	397	397	385	376	377	380	381	382	385	391	397	398	393	393	392	392	393	391	390	389	391	391	387	392	396	397	395	395	398	391	392	398	399	396	394	392	396	401	405	411	405	394	394	398	402	406	409	404	403	401	399	403	416	421	420	418	422	425	430	433	433	438	451	451	451	449	444	445	452	460	464	467	468	466	460	452	449	442	436	442	447	452	450	450	442	445	438	440	444	447	448	451	450	455	450	444	439	435	442	447	452	457	457	457	458	472	473	469	468	463	460	455	451	446	446	437	437	442	455	458	451	450	452	457	458	454	457	458	457	458	462	463	468	466	466	455	451	451	466	469	472	473	473	464	465	463	465	464	464	460	456	452	447	445	447	456	469	472	470	476	465	450	451	454	461	461	471	470	476	474	471	466	464	463	467	474	480	490	484	476	471	469	470	469	465	469	476	481	483	470	471	478	480	480	476	472	469	465	471	474	479	479	479	479	480	481	479	481	479	473	469	466	473	482	483	479	474	466	462	463	463	463	455	452	449	451	449	446	445	445	455	464	459	457	453	453	453	450	445	446	453	457	461	460	462	463	444	439	443	450	431	431	428	427	427	445	446	453	454	454	452	454	436	463	449	445	426	427	434	435	437	445	453	454	445	436	428	433	439	442	443	442	438	432	447	453	449	436	434	427	430	428	421	421	434	441	440	438	440	443	446	449	449	446	439	439	441	444	445	448	449	445	441	445	440	429	415	424	421	417	421	424	435	435	433	429	423	414	414	418	424	427	425	425	427	428	429	424	424	428	427	424	422	417	417	417	420	419	420	426	427	418	417	419	413	413	412	414	410	405	402	398	398	402	403	405	404	404	404	395	389	384	383	383	384	384	385	383	381	372	375	377	380	380	379	379	382	386	378	378	375	373	378	380	381	382	379	379	379	378	371	376	378	378	376	375	375	372	370	372	374	376	378	376	373	373	372	372	376	372	369	372	370	369	371	370	370	362	364	360	355	365	369	366	364	366	366	373	363	365	381	382	376	369	374	381	381	381	379	378	381	373	367	367	368	368	366	361	358	354	352	348	351	366	366	370	368	364	362	365	368	359	359	354	358	361	363	365	373	373	376	367	367	356	358	359	369	369	370	367	357	362	362	363	363	362	360	358	356	357	357	360	364	366	366	366	365	365	361	362	358	360	359	359	359	359	356	358	357	357	355	355	356	358	372	372	387	387	352	345	344	344
406	411	406	401	401	396	395	394	398	400	400	400	396	395	395	395	395	395	397	392	388	392	402	402	409	408	408	407	400	395	395	391	394	396	408	407	405	405	403	409	407	389	374	378	378	392	391	392	396	399	404	402	402	402	399	404	397	392	390	388	388	389	395	392	387	384	394	396	396	396	390	385	387	390	394	392	390	387	387	385	386	388	390	398	402	407	411	411	405	399	399	402	404	407	403	400	394	391	391	391	384	378	380	392	391	393	400	404	399	399	387	376	377	380	379	378	381	385	390	392	392	392	392	391	392	391	385	392	398	387	382	388	391	392	395	395	397	395	393	397	395	389	387	391	396	388	400	406	405	394	398	398	402	406	407	403	400	399	407	412	414	414	414	429	427	423	416	416	428	428	431	434	439	447	451	449	447	447	454	464	468	466	457	450	450	456	445	441	443	439	442	435	435	436	438	440	441	443	445	445	444	441	441	438	436	434	439	445	448	450	450	454	452	456	471	471	469	464	458	448	447	448	448	453	456	460	465	469	471	469	466	466	462	457	456	460	458	461	463	459	459	458	461	468	471	470	469	464	461	461	450	461	465	464	458	452	450	452	456	453	446	443	441	443	454	461	472	466	445	450	451	454	461	446	450	464	472	469	466	460	454	460	468	475	485	475	457	457	457	442	432	432	433	434	443	449	456	467	469	465	462	458	452	452	453	451	450	463	467	471	473	475	476	474	471	467	468	469	470	471	474	472	465	455	449	450	451	454	459	465	465	455	454	456	446	433	426	425	434	457	462	461	456	454	457	455	451	450	448	450	453	455	447	445	445	440	441	445	426	431	428	427	427	423	416	440	439	430	425	429	434	436	433	431	424	421	417	427	440	452	458	454	442	433	430	442	452	457	459	462	454	438	454	459	461	443	444	442	432	422	424	431	440	440	435	436	438	442	445	445	446	447	439	438	439	441	443	445	443	439	435	433	426	403	397	409	410	411	419	427	429	427	426	424	422	418	414	418	420	426	426	427	426	424	423	422	421	417	422	422	408	411	410	408	406	405	404	414	412	413	404	399	397	397	403	407	406	404	398	396	394	398	401	402	395	391	395	394	390	384	384	383	384	385	385	386	379	373	381	383	378	377	373	375	379	384	386	386	379	374	375	380	379	375	372	373	376	360	371	379	379	379	371	369	372	374	374	372	374	377	376	373	371	371	373	373	372	368	367	367	366	375	375	371	371	362	357	354	351	350	361	359	357	359	359	364	365	359	366	382	376	378	371	361	361	360	364	372	383	379	364	362	360	360	355	351	348	342	357	371	372	372	368	364	364	364	365	365	368	368	361	359	358	360	362	365	371	371	373	363	362	363	364	367	367	370	371	375	372	369	364	364	365	366	360	359	357	357	357	360	364	368	366	363	362	362	366	367	361	360	359	359	353	346	349	349	347	347	355	355	359	364	369	369	377	379	374	369	365	365
395	405	409	401	401	388	392	391	390	395	395	394	390	389	389	389	389	389	390	386	388	392	396	396	403	405	408	405	400	395	393	388	393	399	398	398	395	395	401	408	401	391	376	371	370	370	378	388	391	390	398	396	396	398	399	404	396	390	381	385	385	382	383	383	380	395	395	395	394	394	390	390	389	394	393	389	386	382	382	382	386	389	390	398	393	402	401	408	408	405	400	395	397	397	396	406	401	390	390	391	390	384	380	379	385	393	398	398	389	389	379	373	374	376	379	378	374	373	376	375	385	386	386	392	395	395	391	387	384	383	385	386	388	392	393	393	392	388	391	394	397	391	386	382	388	396	390	399	402	394	398	398	405	406	401	396	399	403	408	413	412	409	411	437	443	437	425	417	429	429	435	440	449	455	451	444	444	445	451	455	452	441	435	439	445	450	454	445	438	439	438	431	431	432	433	436	441	443	436	439	441	444	436	433	430	430	432	428	424	424	437	447	446	439	442	445	454	453	453	451	452	453	457	457	458	456	459	460	462	462	463	463	465	462	461	458	456	455	452	451	453	455	456	456	461	465	467	465	457	453	459	462	463	460	454	448	445	447	448	449	446	440	440	442	442	453	460	439	429	434	439	448	446	450	450	464	472	469	440	435	441	452	468	469	468	454	445	430	428	418	418	413	412	416	414	421	442	464	465	466	462	458	453	451	453	451	449	445	444	450	464	470	470	461	454	456	456	457	455	449	455	452	447	436	436	444	448	460	462	465	470	472	469	456	441	423	422	424	422	437	466	463	455	456	457	457	452	448	439	434	436	444	445	445	445	440	441	445	445	426	428	421	417	418	419	426	428	432	423	424	425	431	416	416	415	412	417	428	430	442	458	454	450	448	444	444	444	449	457	461	465	466	467	456	458	452	448	443	439	434	435	436	431	430	430	433	433	433	436	436	441	442	438	436	435	433	433	432	435	434	432	429	424	408	398	398	403	408	412	415	417	417	413	415	422	418	418	414	417	423	423	427	418	423	426	422	418	415	415	407	406	404	400	399	401	405	403	405	407	407	404	397	397	397	403	407	407	402	397	393	384	378	373	373	377	380	383	388	388	384	384	384	388	393	387	383	383	383	386	385	384	375	370	374	381	387	387	391	392	385	381	379	365	365	365	364	356	359	370	372	372	369	366	365	369	371	374	373	374	376	373	373	373	372	373	376	373	371	366	364	365	370	367	367	356	360	360	353	352	349	356	366	369	357	357	366	364	359	366	376	381	379	359	359	359	360	363	370	386	378	364	352	352	351	350	349	349	341	355	368	372	372	367	362	360	364	365	367	363	363	364	365	365	367	365	365	370	370	368	368	371	373	376	373	373	372	369	375	373	369	363	363	365	366	366	360	361	362	362	361	364	369	367	363	363	362	358	364	363	361	355	355	343	339	341	348	347	347	351	354	360	364	368	368	372	376	370	366	363	363
390	386	389	390	388	388	392	384	386	384	385	385	383	385	388	386	386	386	385	388	389	388	389	392	392	399	402	404	399	393	393	396	397	398	394	388	385	385	402	399	399	391	380	373	372	372	373	378	382	394	391	394	397	397	399	399	396	390	387	384	386	386	383	379	391	394	394	391	390	390	396	405	407	405	396	387	382	382	382	381	386	388	391	392	393	402	398	395	395	396	395	394	390	384	383	382	385	396	396	394	391	389	391	380	386	388	393	396	387	380	380	372	373	376	377	373	374	373	383	385	382	378	378	377	385	389	386	385	382	384	387	393	394	394	392	391	391	389	392	394	394	391	387	385	383	386	391	393	400	404	403	403	405	406	389	393	397	403	405	396	410	413	430	440	445	445	437	432	438	443	443	454	450	451	450	447	441	441	444	440	439	436	432	430	442	447	450	448	442	438	435	430	428	428	428	432	434	439	436	439	443	441	436	430	428	430	434	442	443	442	446	441	442	437	430	429	429	432	440	452	459	462	461	461	459	458	457	461	460	459	451	446	453	464	465	463	459	453	450	450	452	452	453	455	459	465	476	473	468	459	459	462	459	456	451	447	439	440	442	442	441	440	435	431	439	440	435	431	429	432	435	437	440	439	439	443	447	447	440	435	441	452	468	469	447	439	429	422	413	413	417	411	405	413	417	430	437	445	455	461	464	461	458	455	454	456	453	444	439	435	439	442	447	451	451	444	446	454	447	445	443	445	445	443	441	442	443	445	447	451	456	463	480	463	436	426	430	434	433	438	446	450	458	448	453	455	454	438	439	434	436	444	445	445	445	445	443	444	444	433	414	410	416	416	415	418	431	433	424	422	422	426	414	412	410	410	410	423	437	439	455	454	449	445	444	443	443	450	455	460	464	465	461	452	456	449	446	443	439	434	433	433	427	427	428	427	433	435	435	435	435	436	435	432	429	426	425	424	425	427	421	417	413	410	408	402	406	413	413	414	409	411	413	415	418	421	420	411	406	406	404	406	415	428	426	422	414	410	409	404	396	394	396	397	400	406	406	402	397	397	390	397	397	401	407	410	411	410	402	391	386	382	377	378	379	379	383	388	388	377	377	373	386	386	380	374	371	371	369	366	368	372	378	380	380	387	387	388	390	390	379	373	367	364	365	363	357	360	359	359	358	358	356	359	369	371	374	373	372	370	369	369	369	370	371	371	369	369	369	367	361	357	351	351	351	356	354	349	351	354	351	353	358	358	374	366	364	367	371	383	380	366	359	359	354	352	356	357	367	385	372	361	361	355	352	350	348	354	360	359	354	354	351	347	360	359	363	364	362	362	362	363	366	368	368	368	368	366	366	369	374	376	376	370	370	368	365	364	361	359	363	363	365	365	366	364	360	362	362	364	363	361	360	360	360	355	362	365	364	354	354	349	344	341	341	348	347	347	342	348	359	361	360	360	367	367	363	358	358	357
389	383	378	379	381	381	386	384	386	384	385	385	386	388	390	389	385	385	389	392	392	391	386	382	382	387	399	400	398	397	396	396	397	401	394	384	381	390	390	401	396	393	379	370	371	371	370	375	377	394	390	394	396	396	399	397	395	390	387	384	385	385	385	388	391	393	390	387	389	396	396	405	406	401	391	383	380	380	383	383	386	390	392	386	383	389	398	395	382	390	390	393	390	386	385	382	380	383	388	388	399	400	388	382	383	388	388	383	377	379	379	385	390	390	385	377	371	378	383	385	388	385	385	386	389	389	386	384	381	382	387	392	396	398	401	397	397	393	388	385	389	387	388	386	382	380	386	392	393	394	398	402	402	391	389	393	400	405	396	396	407	415	426	437	444	442	435	434	436	442	442	449	450	450	444	437	431	433	435	436	434	435	427	428	436	439	443	441	439	438	428	418	417	417	420	423	421	431	431	441	443	441	440	434	431	429	439	440	441	444	440	436	436	434	431	427	431	424	435	441	444	450	455	456	456	460	454	451	457	456	449	447	449	461	467	465	459	453	451	452	456	457	458	464	468	467	464	456	446	439	435	440	451	452	450	448	439	437	437	438	436	432	426	442	436	427	422	419	424	428	430	425	432	436	440	440	443	444	443	440	445	456	459	450	447	439	429	422	413	413	417	412	406	415	418	422	429	437	448	453	461	463	462	458	458	460	461	455	443	436	432	438	445	449	449	442	442	442	441	438	434	432	436	435	436	437	432	436	442	449	461	468	456	439	435	437	437	435	434	432	437	450	458	448	453	455	454	438	438	440	437	440	444	445	446	439	435	435	435	428	422	418	421	418	416	430	428	424	423	422	420	419	413	410	401	399	397	412	422	430	432	433	438	441	439	435	424	418	425	431	436	436	431	429	430	427	427	433	437	430	419	415	402	406	415	425	432	436	436	435	431	434	431	426	423	419	420	418	418	415	414	414	414	414	411	409	409	408	405	414	409	411	408	404	406	407	411	415	400	400	393	389	389	400	407	412	412	410	404	398	393	385	381	381	388	393	389	388	387	388	398	398	405	404	406	399	397	395	390	394	391	385	384	382	382	382	383	386	386	387	387	387	383	379	377	372	367	367	364	363	365	370	375	376	377	377	371	373	374	376	375	375	371	364	361	357	358	356	354	354	355	358	356	359	366	368	370	368	369	366	366	366	367	366	365	361	366	369	368	359	359	358	352	352	353	356	353	350	354	352	350	351	356	358	374	358	363	366	374	385	380	370	360	360	355	353	353	357	365	363	363	366	366	352	353	354	352	361	353	349	349	345	351	347	351	353	356	352	352	346	344	350	364	369	372	370	370	367	365	368	370	372	374	374	369	367	365	362	361	359	357	357	356	363	363	360	361	361	361	363	361	360	356	357	357	362	363	364	358	351	351	347	344	341	341	347	347	345	342	348	354	356	356	355	360	362	358	354	354	353
385	383	380	378	383	383	387	385	382	384	385	387	390	393	395	396	395	393	393	392	395	389	381	381	381	384	392	394	394	393	395	395	399	401	394	378	380	381	381	387	394	385	377	367	365	365	368	378	391	389	389	393	398	398	394	388	388	387	387	391	385	386	389	390	389	388	386	388	391	399	399	404	404	397	386	379	381	384	382	382	382	385	391	386	378	381	387	382	390	390	362	360	362	379	384	383	384	388	394	394	395	396	385	380	382	387	385	380	376	380	380	385	389	389	384	376	372	378	384	385	388	383	385	385	388	389	384	385	380	378	382	389	391	391	398	395	389	389	381	382	383	382	382	381	372	374	386	391	392	393	397	400	400	388	389	394	400	405	402	391	391	397	405	413	423	429	434	432	432	435	438	438	442	440	435	429	428	429	429	432	432	429	425	425	425	427	428	431	437	432	423	415	407	403	403	400	421	418	434	442	443	442	440	434	434	433	426	423	424	428	430	435	434	431	428	429	430	437	441	439	434	432	438	445	445	445	445	445	453	457	450	447	451	464	457	454	448	444	443	444	446	449	449	444	451	461	461	452	441	435	431	435	436	439	443	444	442	422	429	434	435	428	430	433	422	418	412	414	419	425	420	419	428	434	438	438	442	445	444	442	444	452	453	454	433	428	427	417	411	416	418	412	406	415	418	422	429	437	448	453	461	462	462	459	455	454	453	451	444	439	437	439	443	447	448	442	441	441	433	434	431	420	419	420	427	429	432	436	436	439	438	468	456	439	435	437	437	435	434	432	437	443	446	449	437	437	438	433	438	437	436	433	435	437	446	441	438	438	438	435	431	427	427	423	424	422	424	422	424	422	407	413	408	400	398	404	410	404	415	425	428	423	426	426	431	434	431	424	437	437	433	426	417	407	402	398	403	411	415	408	406	402	392	397	406	414	429	429	435	432	428	430	434	424	421	416	413	412	409	413	413	414	414	417	417	410	402	408	405	405	406	411	407	405	403	403	407	409	409	407	398	394	394	401	401	400	396	393	389	387	393	389	391	392	386	383	381	379	380	385	385	385	391	389	387	394	402	402	400	391	387	389	389	384	382	382	378	382	386	386	390	390	384	373	369	366	367	368	364	362	360	366	375	378	377	377	376	377	378	376	370	366	362	363	363	361	360	358	359	359	355	358	360	361	367	372	368	367	361	361	360	360	358	361	357	362	366	367	367	357	355	355	355	355	361	361	355	354	352	348	346	346	356	356	364	363	366	361	353	343	349	362	362	368	369	355	351	350	353	353	361	361	355	352	355	355	355	348	342	339	349	345	344	352	353	357	358	340	340	339	341	349	365	372	372	368	368	357	351	360	363	365	367	367	368	355	365	362	360	357	357	357	353	353	358	360	361	361	362	360	360	359	356	357	357	362	364	364	350	346	351	347	344	346	345	344	344	336	339	350	348	349	349	351	354	356	357	353	353	350
386	387	400	401	394	394	386	380	376	379	387	387	390	409	407	404	401	398	398	395	390	386	381	381	381	390	394	389	388	387	391	391	395	396	387	378	380	376	376	377	383	380	376	372	371	378	378	390	389	388	388	392	394	394	391	384	382	381	382	384	386	389	389	388	384	383	381	386	394	399	399	390	386	378	375	377	386	385	380	380	377	375	373	377	378	376	364	364	365	365	362	360	365	366	373	371	372	378	379	379	378	376	384	371	373	377	383	385	387	387	383	383	384	383	382	375	372	377	382	383	384	383	385	381	382	390	391	384	379	369	370	371	372	372	382	389	385	385	380	381	385	381	378	368	359	359	360	366	372	381	385	385	387	387	391	392	395	401	402	391	381	380	399	407	416	419	423	420	420	421	428	428	435	431	427	425	424	421	422	432	431	429	427	424	420	422	424	436	436	432	422	415	403	404	404	407	412	421	444	444	443	445	444	438	434	433	426	420	421	427	431	434	434	434	429	425	425	429	436	432	425	424	421	427	433	433	433	456	455	457	455	457	458	460	450	448	444	444	448	447	451	447	442	437	451	459	457	452	440	435	430	428	429	421	420	422	423	417	422	424	424	431	429	425	422	416	407	409	418	418	418	419	426	431	436	442	442	442	430	416	414	417	423	426	425	419	412	407	403	408	415	419	417	414	422	419	429	440	447	446	455	462	462	459	455	454	453	451	444	439	437	439	443	447	448	442	441	441	433	434	431	420	419	420	427	429	432	436	436	439	438	440	438	438	439	439	440	442	438	431	433	434	443	445	437	434	431	432	432	433	431	430	431	433	436	451	451	452	451	439	432	426	422	416	416	419	422	425	429	415	397	398	405	410	399	403	403	410	413	425	424	424	423	422	424	423	428	431	435	432	429	425	418	405	398	388	389	392	400	404	407	404	400	397	401	406	415	415	424	430	427	430	434	428	418	412	407	401	400	402	397	398	398	402	404	410	402	398	400	407	415	414	410	405	400	397	402	405	405	402	396	395	397	401	407	404	393	388	391	393	387	387	386	388	385	383	386	386	382	376	376	377	374	371	374	379	381	383	389	389	389	389	389	384	379	373	375	379	383	383	384	372	366	364	361	363	365	367	365	360	361	364	368	369	370	370	370	370	372	371	366	359	361	362	362	363	357	357	358	359	358	362	364	364	366	367	363	361	360	361	359	359	359	360	358	359	367	367	358	357	353	353	353	355	362	361	356	353	348	347	346	346	346	355	361	358	357	358	359	341	339	353	353	357	365	366	360	360	357	355	350	350	342	340	338	343	342	345	342	339	339	337	339	351	355	358	358	355	355	341	341	354	373	377	371	360	360	350	347	346	355	355	345	345	368	355	351	349	348	355	355	357	355	353	357	358	361	361	361	360	359	357	357	357	357	356	354	356	350	346	346	341	336	336	337	336	336	336	338	343	345	345	345	345	347	349	351	347	347	349
386	388	401	403	395	379	379	375	372	377	391	403	403	409	407	397	391	389	389	387	380	383	389	390	393	393	393	387	379	376	376	379	379	381	377	375	377	376	377	372	372	373	371	374	379	383	383	383	385	386	386	379	378	385	385	382	382	380	374	372	376	386	386	388	384	375	368	372	384	391	399	399	401	398	381	378	382	387	375	367	367	366	368	382	382	373	362	351	368	368	368	365	365	367	365	354	358	365	370	373	373	373	375	377	379	376	370	370	376	380	376	376	377	376	375	369	364	364	366	367	371	380	381	382	382	375	375	373	369	367	370	371	373	373	380	384	391	391	389	386	386	383	373	367	362	372	379	385	389	394	387	382	383	383	389	393	395	393	393	387	381	380	391	399	403	405	404	413	416	427	433	438	438	439	426	421	418	421	428	439	443	438	430	423	421	420	427	438	437	433	424	420	414	410	412	412	416	419	424	453	452	446	444	438	426	422	420	420	421	428	428	432	435	433	431	427	422	425	429	429	426	423	421	418	414	418	418	435	440	442	441	431	433	443	448	442	439	438	440	448	450	447	440	437	438	444	450	445	438	431	430	430	429	424	423	423	429	429	427	424	423	419	428	426	424	420	414	414	412	413	419	420	425	430	434	436	436	431	419	408	405	407	409	409	411	412	411	406	405	414	416	421	419	417	421	421	421	432	445	446	443	453	453	450	449	446	445	441	434	431	436	439	444	445	448	444	441	432	427	426	424	423	429	427	426	422	425	428	428	426	428	427	428	426	437	440	444	448	448	445	443	440	439	443	438	435	432	435	432	432	430	425	426	427	429	434	434	441	441	444	440	431	420	414	417	420	422	419	419	410	394	390	401	402	408	413	413	431	430	407	396	398	410	426	431	430	429	416	416	423	426	420	409	400	390	388	394	395	400	404	406	404	403	401	404	407	407	414	415	415	425	429	431	417	403	398	401	403	405	405	395	394	398	402	404	403	397	395	396	399	405	410	411	406	396	393	399	399	398	393	390	392	392	395	395	390	384	392	397	392	387	387	384	383	380	381	386	386	382	380	380	380	371	364	363	362	361	362	369	375	389	389	385	376	372	363	362	372	372	373	369	368	367	365	361	361	362	366	366	363	361	364	365	367	367	366	365	361	366	364	359	352	354	358	358	355	345	357	357	356	362	363	361	360	358	358	358	360	356	355	355	357	357	360	359	357	355	356	362	362	362	359	359	359	363	359	352	350	348	347	344	340	340	342	351	357	358	357	358	352	338	341	341	345	364	363	361	361	363	359	358	358	357	354	347	347	342	345	346	346	346	347	351	353	355	352	353	351	351	347	338	353	374	377	368	368	354	349	346	345	346	349	345	345	364	362	352	348	347	354	354	355	350	350	354	364	364	364	360	357	355	349	342	342	341	343	354	356	353	353	344	338	335	336	335	335	335	342	347	349	350	351	351	346	346	345	349	349	349	349
380	380	383	391	392	379	379	370	374	387	395	405	405	406	406	397	391	377	377	380	377	380	385	389	387	387	392	382	369	363	363	367	367	373	374	375	377	374	372	372	372	375	385	378	369	368	368	370	372	375	373	370	370	369	369	378	380	378	370	370	378	385	385	384	378	375	368	372	381	390	399	399	403	388	380	380	385	382	371	369	369	367	367	367	367	363	360	358	376	373	373	371	366	367	365	359	362	365	367	367	367	368	372	375	376	372	367	364	369	367	370	370	372	375	371	368	366	366	367	366	366	368	370	374	374	375	375	370	369	368	369	372	374	376	376	374	378	378	378	387	385	377	371	366	369	374	379	383	390	392	387	384	379	382	382	383	377	374	379	387	388	386	391	399	390	391	403	411	416	423	434	442	442	445	441	438	433	429	428	430	428	424	423	423	421	423	429	437	435	433	427	414	413	414	415	415	417	418	424	429	435	436	440	429	424	424	425	423	423	428	428	420	425	432	430	426	425	426	431	432	425	417	417	416	416	418	418	423	432	439	435	430	420	438	439	436	429	428	426	425	434	431	436	434	434	439	440	438	436	431	431	432	428	424	423	428	429	431	429	420	419	417	425	425	419	415	417	417	412	414	420	424	429	430	429	429	429	419	416	410	409	410	419	430	414	410	406	405	409	414	424	426	425	420	414	408	411	420	431	442	438	436	443	444	443	441	434	432	428	427	432	437	441	444	440	438	433	430	424	421	423	429	426	424	423	421	420	420	421	417	413	416	421	428	438	444	448	442	441	437	438	437	438	439	444	438	438	436	433	433	430	425	423	424	425	425	419	413	419	423	427	426	412	410	417	426	422	417	421	419	407	389	387	387	391	396	400	406	409	399	393	398	410	417	417	414	412	404	398	422	426	415	408	394	396	396	405	400	402	401	394	388	375	379	386	397	397	395	385	390	398	397	394	391	398	401	399	405	404	401	395	394	398	403	398	392	394	395	392	391	394	384	395	395	390	390	390	392	396	386	390	389	389	390	390	386	384	391	396	398	397	397	399	389	383	378	375	371	378	378	379	376	377	371	368	367	367	370	369	375	371	376	373	372	369	366	361	361	361	367	366	366	364	364	362	360	360	362	366	366	365	362	362	364	364	363	360	360	365	364	359	354	356	345	343	355	345	347	347	356	359	359	358	354	355	356	354	351	356	355	355	358	362	365	365	362	356	353	350	345	346	346	347	353	353	354	352	350	346	344	342	335	335	342	346	355	357	354	349	347	344	344	344	346	350	347	346	351	351	350	350	351	352	352	347	347	350	352	353	353	351	349	349	351	349	342	346	346	351	351	342	336	356	361	358	358	354	345	353	358	346	349	349	345	364	363	353	348	351	351	354	353	343	341	344	358	358	354	350	343	342	345	341	341	341	343	347	348	348	348	353	353	343	337	333	333	337	344	348	352	353	353	352	348	344	345	347	349	349	346
