0	0	0	0	0	0	0	0	0	0	0	0	0	0	0	0	0	0	0	0	0	0	0	862	876	885	885	0	0	0	0	0	0	0	0	0	0	0	0	928	928	939	932	926	916	920	927	0	0	0	0	0	0	841	849	867	867	875	890	902	928	945	935	924	924	908	906	903	899	894	898	921	937	937	942	944	928	919	920	919	911	889	857	857	832	818	830	848	854	852	852	867	875	875	860	850	864	886	917	907	892	880	875	871	871	863	847	849	877	894	909	928	929	913	889	874	874	870	883	885	908	930	938	941	943	942	929	901	883	883	869	866	871	879	898	903	907	896	885	893	910	922	918	904	887	887	883	881	879	882	894	919	933	913	897	888	895	903	915	927	946	953	953	963	976	981	972	953	931	909	892	902	911	913	922	951	979	980	952	934	923	940	965	993	993	984	963	941	933	933	947	956	955	952	959	967	978	974	964	962	967	962	951	937	933	938	938	927	909	895	891	909	909	923	923	947	958	968	965	959	964	963	944	931	909	919	946	985	992	973	968	955	946	946	935	949	952	934	913	896	877	879	892	912	926	937	946	947	953	963	965	964	957	964	964	962	961	962	966	974	978	964	962	958	969	969	976	973	965	959	961	965	959	947	934	931	930	931	931	924	920	936	961	965	972	971	972	956	947	957	957	948	934	934	943	954	958	957	952	952	958	963	962	957	961	973	979	950	948	938	932	933	943	972	989	988	975	959	949	949	957	957	944	936	936	950	953	963	974	996	1009	1004	992	976	966	973	981	977	983	992	1015	1034	1026	1019	1002	980	968	937	930	941	986	1008	1000	977	965	942	930	918	911	917	925	926	923	914	902	892	892	887	888	886	879	881	892	900	914	926	938	940	936	930	925	915	906	894	894	906	919	922	924	915	908	898	895	900	911	905	894	896	903	903	901	885	893	916	921	946	939	922	910	908	909	892	883	890	908	924	909	909	898	884	874	870	879	891	896	903	903	898	921	942	939	915	884	871	860	886	904	901	892	886	883	876	856	845	850	864	873	873	871	862	861	865	859	853	854	866	890	907	910	900	882	863	857	857	870	859	872	882	884	884	876	858	850	855	866	878	877	872	858	857	852	842	835	837	847	861	869	869	856	836	820	811	817	825	841	862	881	893	888	867	837	819	819	811	832	851	856	849	848	832	830	827	809	797	808	812	812	809	814	832	851	861	864	854	848	868	882	882	882	875	863	841	825	810	801	807	818	827	836	836	858	868	868	850	834	843	845	837	834	834	834	844	854	860	837	815	815	830	830	835	830	821	816	818	822	839	842	842	830	825	816	811	829	833	835	835	805	795	789	784	796	821	837	837	849	844	842	844	843	852	861	861	857	836	825	815	819	826	826	838	850	839	817	806	794	794	806	804	804	813	828	831	831	830	835	850	878	875	875	860	838	833	830	830	840	840	837	828	819	820	814	814	808	795	821	830	826	826	810	777
0	0	0	0	0	0	0	0	0	0	0	0	0	0	0	0	0	0	0	0	0	0	0	0	867	885	885	0	0	0	0	0	0	0	0	0	0	0	907	921	936	936	934	938	931	923	930	0	0	0	0	0	0	830	849	867	896	897	886	893	917	931	924	903	885	885	872	871	867	875	892	909	923	923	926	924	915	912	921	931	913	892	858	858	842	838	837	848	854	873	878	891	892	892	881	884	900	924	928	904	860	851	856	858	858	862	855	846	846	876	895	913	907	883	854	839	839	843	861	877	890	905	917	941	943	932	920	906	886	870	870	854	853	868	881	885	890	885	882	888	906	913	918	903	882	882	870	867	873	880	898	916	916	899	877	870	880	902	917	927	938	946	947	947	955	969	972	953	930	922	921	909	907	901	902	903	924	941	932	902	887	906	942	947	938	938	922	909	905	914	932	945	943	940	940	955	964	965	960	962	968	959	943	929	932	943	951	939	924	932	938	933	930	936	950	950	967	970	975	983	977	972	953	933	929	939	966	985	992	996	969	939	924	914	915	920	925	912	901	882	874	870	881	905	926	940	951	957	960	972	977	976	962	965	960	958	961	959	959	970	959	944	929	934	949	969	969	963	946	934	940	946	942	935	921	915	922	934	932	929	929	934	942	949	952	950	960	946	943	954	949	938	935	939	952	954	959	957	949	949	945	944	934	934	940	952	961	951	954	952	941	945	951	961	966	944	939	935	942	941	938	952	953	947	949	949	945	943	952	967	979	968	945	936	941	959	964	952	951	958	977	1014	1015	1004	994	984	967	938	919	939	967	967	956	955	956	943	918	906	902	902	905	904	892	878	869	876	876	893	890	878	861	860	874	907	925	931	927	928	930	921	906	884	871	861	880	900	915	915	913	909	898	893	893	896	905	889	881	881	883	885	889	900	909	916	921	921	924	914	917	922	916	892	876	878	896	908	904	904	891	891	892	894	892	886	889	891	895	896	906	903	904	884	866	858	856	886	899	893	888	890	888	877	861	848	853	873	880	880	877	865	860	858	859	853	853	864	879	901	913	893	877	888	886	857	870	888	900	900	894	894	874	851	842	844	845	859	864	861	854	854	853	843	830	823	824	838	853	853	856	851	852	835	827	817	824	831	861	883	878	855	834	815	815	822	834	840	846	849	836	820	810	809	811	808	797	797	795	797	815	842	865	872	854	840	844	859	866	866	871	860	836	809	804	795	785	791	797	807	807	828	849	858	859	850	834	825	827	822	822	824	823	830	848	845	829	813	822	815	815	813	808	809	810	817	834	847	845	845	831	809	803	800	816	826	824	835	805	777	768	778	785	803	827	827	833	831	829	834	840	850	852	852	851	833	816	806	802	814	814	841	849	835	818	801	794	794	784	778	777	793	806	819	819	818	810	812	831	849	849	847	826	816	822	837	837	835	831	812	807	804	804	807	808	795	804	817	817	818	814	796
0	0	0	0	0	0	0	0	0	0	0	0	0	0	0	0	0	0	0	0	0	0	0	0	0	0	0	0	0	0	0	0	0	905	905	888	865	868	891	904	919	919	926	932	938	943	926	911	911	870	837	801	807	831	875	896	896	897	880	882	901	903	897	879	861	861	858	855	859	875	885	902	904	899	899	897	893	886	902	909	898	879	855	855	842	845	837	845	855	873	898	903	899	899	896	891	892	903	893	879	852	828	825	847	847	862	853	849	837	852	880	889	880	853	826	825	846	846	863	861	867	878	899	917	927	932	920	907	889	877	877	863	857	866	878	882	880	875	881	881	893	901	903	899	894	894	884	872	874	882	896	906	904	881	874	874	887	906	922	921	928	934	937	937	939	940	945	933	930	922	908	905	905	902	888	882	885	900	912	905	909	922	939	938	915	915	884	869	878	901	924	933	929	922	908	925	938	938	943	952	961	955	943	930	927	935	950	968	973	970	947	919	908	928	945	945	965	968	978	988	991	980	960	941	940	958	984	1006	1003	996	969	939	908	902	901	904	905	895	880	887	888	876	876	888	906	931	946	958	967	981	981	971	953	941	937	940	948	957	950	948	934	916	900	911	928	946	946	942	929	924	929	936	941	931	922	915	916	918	920	913	911	922	927	931	930	940	940	935	934	930	936	933	932	939	949	959	958	953	951	942	931	923	916	914	918	934	954	966	975	969	955	952	954	936	917	905	910	924	932	930	918	928	947	953	950	947	943	931	939	954	966	952	939	919	927	943	940	937	935	945	951	955	954	940	919	924	938	962	977	978	957	937	923	940	957	945	918	896	889	893	898	894	885	866	868	868	889	896	901	880	864	866	881	915	927	933	928	930	924	918	906	880	872	872	875	893	905	903	895	888	883	877	884	897	900	888	861	858	857	861	889	900	909	920	917	905	891	896	911	918	917	897	876	863	878	895	895	897	891	904	910	914	901	885	876	877	882	878	879	874	871	870	864	862	861	875	889	887	886	884	887	876	860	845	852	873	873	879	871	866	867	865	869	870	862	860	863	863	870	868	883	888	886	868	886	904	916	912	912	889	848	831	834	828	827	834	844	850	851	852	859	852	839	824	811	815	815	820	838	859	857	842	824	815	810	816	846	857	848	844	827	827	814	817	836	840	846	836	822	809	808	811	811	809	795	795	781	783	806	833	839	823	806	799	804	825	831	831	819	816	814	808	801	794	795	795	793	799	799	813	827	858	859	838	820	804	808	820	820	827	825	822	825	821	814	815	814	808	808	795	793	800	807	810	826	843	843	843	838	819	803	806	810	826	824	824	803	763	762	774	790	800	816	816	821	821	821	818	831	841	841	843	833	830	815	796	786	803	803	828	844	839	818	801	790	790	784	780	776	785	797	797	809	804	786	777	792	809	809	812	801	787	785	808	808	826	821	807	804	806	804	807	803	804	814	816	816	811	808	801
0	0	0	0	0	0	0	0	0	0	0	0	0	0	0	0	0	0	0	0	0	0	0	0	0	0	0	0	0	0	0	884	903	889	889	876	866	860	882	895	919	919	921	925	937	940	928	910	891	891	848	821	816	834	871	895	899	899	880	882	859	848	842	851	852	852	863	862	860	866	876	882	894	897	897	885	866	864	865	869	873	872	868	851	851	848	850	847	863	871	898	903	879	875	875	866	853	852	859	859	848	836	838	844	861	861	858	849	835	842	853	854	843	830	815	823	847	847	856	855	856	867	890	908	923	928	919	907	890	869	869	850	848	865	875	883	878	878	881	885	876	876	884	886	889	892	892	893	884	879	883	885	885	882	883	894	907	924	914	918	926	925	914	907	907	902	910	906	909	914	908	905	901	895	897	893	901	906	915	909	907	920	931	938	917	886	886	867	879	907	923	932	930	913	901	901	915	919	923	929	943	934	922	907	911	925	943	969	986	987	954	919	900	917	925	939	939	958	978	986	984	979	960	944	940	969	983	971	969	964	943	928	908	902	888	902	900	891	895	908	905	893	883	883	887	901	905	909	920	936	947	935	920	909	904	900	923	934	927	912	891	874	869	882	893	913	924	924	926	926	925	931	941	937	929	916	908	911	910	905	909	911	922	924	920	928	933	924	924	931	946	940	936	940	946	947	944	946	949	944	929	914	907	907	912	929	952	972	975	957	928	921	914	904	886	888	909	931	926	915	907	923	937	951	955	948	939	941	942	949	951	945	934	925	917	929	927	918	924	932	941	941	933	907	885	895	918	954	965	966	949	924	919	940	949	943	925	900	887	899	901	894	879	867	868	868	871	872	877	888	907	910	912	915	917	924	922	924	923	918	906	891	880	874	880	885	893	885	873	864	856	860	879	895	902	886	857	839	857	861	874	890	908	914	911	891	879	881	900	910	905	882	854	837	844	854	854	867	885	896	912	920	902	883	872	865	869	869	869	866	861	860	862	865	861	855	863	873	879	874	871	865	855	857	852	865	865	866	867	864	872	873	874	873	863	859	854	849	862	877	883	896	891	875	884	913	912	890	890	871	855	839	833	825	822	828	832	837	843	851	861	863	854	839	822	815	815	817	825	839	849	837	820	810	815	824	832	820	817	827	824	824	821	817	836	835	829	812	806	803	808	812	809	799	800	800	786	783	795	814	825	819	803	784	791	796	807	807	808	809	804	801	797	790	798	812	817	808	808	813	827	840	835	823	809	788	770	762	762	768	764	762	767	780	800	810	813	813	806	799	801	799	800	800	817	831	831	841	836	823	812	806	810	816	812	812	805	779	761	774	787	798	813	813	816	815	819	827	833	829	829	829	817	810	807	787	778	790	790	814	844	839	820	809	809	801	801	803	800	800	804	804	802	786	771	771	779	793	793	799	791	779	779	779	779	786	812	818	804	806	806	813	813	816	821	812	812	801	793	784
0	0	0	0	0	0	0	0	0	0	0	0	0	0	0	0	0	0	0	0	0	0	0	0	815	822	821	821	828	838	859	884	903	891	891	870	874	866	882	911	918	918	914	912	915	926	916	900	888	888	860	837	826	833	855	871	871	871	870	863	859	848	838	841	853	853	861	858	852	850	858	866	875	880	880	876	851	845	845	851	867	872	883	878	878	868	861	853	869	876	882	886	879	875	860	847	832	819	825	839	855	850	858	851	858	858	859	847	837	831	834	834	824	815	809	815	836	836	845	841	842	860	882	904	926	927	916	898	890	869	830	830	825	845	866	873	878	880	880	882	870	862	856	858	862	878	878	873	868	865	879	880	876	879	879	891	901	901	902	903	912	917	908	893	893	887	880	883	889	901	901	896	901	895	907	911	910	909	909	900	902	915	930	930	916	898	898	886	889	909	921	923	929	915	901	900	918	923	921	915	911	906	896	890	893	916	935	952	980	987	967	940	918	891	869	897	897	918	942	947	931	936	918	911	914	928	945	951	952	940	931	913	895	882	888	902	900	894	892	905	901	893	885	884	878	868	862	864	886	905	913	908	898	879	875	885	904	918	924	906	887	870	878	893	904	908	908	908	910	913	918	922	930	936	925	911	903	910	914	912	917	923	933	934	924	922	927	929	929	951	960	951	936	928	936	940	934	934	944	941	932	916	914	924	925	928	939	953	949	922	920	915	909	890	879	887	906	924	922	907	910	918	935	949	956	952	940	933	937	940	940	938	929	920	910	898	890	889	897	912	919	915	907	884	868	871	893	922	944	954	946	931	925	933	936	939	922	904	898	900	898	889	874	870	870	867	858	858	864	882	904	915	908	903	899	904	901	906	915	909	897	884	873	866	869	880	884	880	859	844	838	842	869	889	896	886	857	839	836	851	864	876	885	889	897	883	873	872	882	886	891	867	823	806	815	815	828	846	868	887	901	905	896	879	865	854	853	860	863	868	862	860	860	858	854	843	837	826	829	846	850	852	858	863	865	865	861	856	850	848	863	873	863	861	857	852	843	836	862	877	890	897	890	880	887	892	900	900	890	886	866	857	841	833	829	825	827	828	835	845	861	871	871	857	844	844	834	824	824	832	843	831	804	796	797	794	793	790	796	809	823	824	821	834	834	823	807	796	799	808	810	807	804	794	794	782	777	777	788	798	811	815	795	782	778	784	784	795	799	799	797	797	788	785	790	802	807	817	808	807	813	817	821	812	805	789	777	780	780	779	775	766	762	780	805	817	817	817	809	798	800	801	797	795	805	820	820	823	820	823	812	806	806	806	806	804	792	774	757	761	794	809	809	817	816	814	823	838	843	836	836	809	782	787	787	784	787	787	790	814	836	832	818	809	809	814	826	837	845	832	809	809	790	772	766	770	777	777	785	790	793	787	791	774	774	786	812	818	828	839	839	833	823	812	805	797	797	785	768	772
0	0	0	0	0	0	0	0	0	851	853	0	0	0	0	0	0	0	0	0	0	0	0	797	812	839	839	839	840	836	857	891	897	891	891	883	869	883	911	930	920	897	897	887	894	895	894	880	866	866	849	839	840	855	859	863	858	858	857	852	852	850	838	841	850	850	850	854	849	847	842	851	861	861	853	853	838	831	840	854	861	875	881	884	884	880	872	872	882	889	894	890	873	860	860	847	819	804	809	830	851	864	853	858	861	861	854	847	838	827	825	823	818	815	800	797	797	810	810	816	825	839	863	883	910	908	888	872	858	848	830	830	814	827	852	868	874	879	879	885	876	857	836	823	834	837	837	842	851	866	877	881	876	870	871	873	876	873	878	879	892	903	905	896	896	883	881	883	886	897	899	894	893	904	907	911	901	904	891	889	894	910	921	920	912	900	893	893	900	896	900	910	915	916	906	912	928	928	919	900	878	861	863	860	860	868	890	904	924	938	932	927	894	869	867	888	907	907	918	916	898	892	881	895	913	928	935	940	941	926	915	893	873	867	880	903	904	894	892	886	885	878	880	886	886	873	857	846	853	878	895	893	879	870	869	874	891	914	922	912	894	891	898	905	904	899	891	884	884	884	885	897	895	904	905	899	904	911	925	926	927	937	945	940	927	916	921	932	957	977	978	958	937	924	932	929	923	924	928	936	936	923	928	931	928	921	929	933	932	918	919	911	898	883	868	878	895	910	909	912	912	929	944	950	954	953	946	942	937	936	930	925	917	914	900	881	868	868	880	888	894	890	873	854	853	856	879	906	919	928	919	904	897	909	916	909	899	899	900	905	896	875	865	873	873	864	857	852	862	877	893	904	897	886	873	869	871	868	878	881	872	859	852	854	861	878	878	868	855	830	815	835	869	889	896	887	865	845	841	847	859	860	867	871	869	876	866	862	859	861	860	847	822	810	809	809	823	841	858	873	885	885	877	865	853	850	851	856	863	870	865	857	860	860	854	842	822	815	816	826	833	844	854	856	854	854	846	840	834	840	862	866	862	850	847	839	843	836	850	876	886	891	869	862	872	871	864	864	871	879	891	869	855	836	835	829	822	814	814	838	860	865	859	849	834	834	832	823	813	806	818	805	785	773	779	788	793	791	789	809	809	823	837	837	828	823	816	806	812	827	820	807	787	769	769	757	765	776	788	786	794	798	790	778	773	775	775	777	785	790	797	796	790	782	780	778	807	807	798	794	791	798	806	808	792	784	783	783	789	794	791	790	788	797	811	818	816	816	804	796	789	777	776	775	777	782	782	823	820	821	810	807	800	797	797	795	779	766	757	757	775	788	788	797	808	819	824	821	814	794	794	785	784	763	761	775	787	787	796	819	820	815	802	804	804	819	838	862	862	834	806	806	775	758	757	760	764	764	777	786	792	793	789	791	774	784	805	816	827	836	836	829	823	805	797	797	789	773	768	769
0	0	0	0	0	0	0	0	0	851	829	852	0	0	0	0	0	0	0	0	823	823	808	822	845	861	853	853	853	849	866	887	901	896	883	883	869	887	911	920	913	884	884	863	867	881	884	868	854	854	841	847	867	884	872	864	849	846	846	845	856	860	848	833	850	850	859	852	841	826	830	848	847	847	838	838	835	839	846	867	880	884	887	884	884	878	876	876	883	890	897	895	871	847	828	828	819	804	816	826	843	841	836	831	833	837	837	832	826	826	824	830	834	822	797	771	777	791	791	795	805	823	847	871	877	870	858	833	827	825	818	818	814	827	845	868	876	881	871	878	874	855	829	822	825	836	836	836	837	851	877	884	875	865	861	859	851	847	847	854	874	895	904	908	897	897	888	890	903	911	905	895	885	888	898	905	901	904	867	867	882	904	912	904	896	886	883	883	866	870	877	892	906	911	912	922	929	932	918	892	861	841	842	851	857	860	864	876	874	887	898	899	882	874	870	882	895	895	901	887	870	861	868	883	901	922	929	933	931	920	899	878	860	845	861	881	888	889	891	886	885	878	871	887	898	896	878	858	862	880	891	891	885	872	865	870	883	904	927	928	921	917	916	920	906	887	877	872	862	862	864	868	877	891	902	907	910	922	929	925	931	935	940	939	925	914	907	919	947	967	979	964	933	922	918	909	904	895	906	922	927	926	918	918	919	902	908	907	910	916	911	904	890	877	857	854	871	890	911	916	922	926	939	954	958	961	956	942	934	925	915	901	905	905	888	875	865	865	855	852	843	840	843	840	843	855	871	884	880	868	862	860	868	880	884	875	874	879	894	902	882	865	858	858	862	858	856	857	868	875	881	884	876	867	857	848	846	836	847	856	844	834	840	847	860	875	873	867	851	848	815	835	850	867	880	879	871	850	837	839	842	847	852	858	864	870	867	849	842	840	845	838	828	820	820	820	823	846	856	865	874	864	861	849	844	847	851	859	863	859	851	843	849	862	857	845	828	811	808	816	825	824	832	837	837	835	821	812	818	836	852	851	847	842	847	839	827	819	826	853	864	861	839	834	845	850	838	838	838	859	867	864	846	833	831	828	815	809	811	824	835	824	822	816	828	828	833	823	816	806	803	795	780	765	770	785	795	796	789	787	787	801	812	813	817	820	823	829	839	838	820	797	774	774	758	757	765	774	781	778	776	780	783	782	775	766	766	761	767	777	792	805	798	786	780	778	781	781	779	771	779	786	804	805	791	790	786	786	794	804	805	799	799	798	806	811	811	814	799	782	771	775	784	783	777	777	782	788	790	811	809	796	791	794	794	793	789	770	762	767	773	773	773	786	799	815	815	806	798	798	784	785	787	784	761	775	801	801	821	829	823	810	799	798	798	816	829	838	838	825	825	794	768	751	750	755	762	762	766	777	781	793	789	789	788	790	801	809	820	820	819	821	805	789	773	773	763	759	766	762
0	0	0	0	0	0	0	0	0	819	829	852	890	923	923	927	0	0	0	848	827	827	825	838	855	866	864	851	851	851	868	887	906	900	895	895	885	887	911	894	898	874	874	864	859	863	867	863	852	849	849	859	879	894	880	863	849	843	843	847	854	860	845	838	854	859	859	852	831	813	823	836	840	831	830	830	833	844	855	872	879	879	874	878	872	872	865	858	876	885	891	885	867	853	836	836	825	821	816	826	826	821	805	806	811	821	821	817	820	821	823	835	835	824	792	766	764	775	775	795	808	840	858	862	859	846	836	819	812	811	813	811	811	823	845	868	887	881	870	861	864	847	831	827	834	838	827	827	820	829	861	872	875	870	872	869	845	826	821	840	860	889	900	900	886	886	871	861	864	868	866	869	864	863	866	883	883	878	867	867	857	878	887	878	871	863	861	861	861	859	873	883	896	897	901	896	897	899	896	878	856	840	833	838	852	861	864	865	863	864	882	888	888	876	880	886	892	886	886	872	855	847	859	874	895	908	921	915	909	902	885	857	825	821	837	856	869	883	885	878	864	859	871	887	898	911	908	889	880	891	890	889	883	866	864	873	890	910	928	932	924	926	926	921	900	885	877	868	856	856	852	847	868	882	896	905	918	926	924	915	909	900	909	931	930	919	901	902	915	945	955	946	927	907	906	895	879	871	882	908	921	911	911	921	914	890	880	891	907	911	911	898	885	875	857	850	864	894	914	922	916	915	920	941	945	942	932	920	914	908	897	891	891	885	876	859	847	847	843	832	824	827	840	865	878	895	897	870	831	801	804	835	861	877	880	870	863	862	873	874	875	855	844	844	836	840	856	869	871	878	874	870	858	854	854	845	843	839	837	838	826	821	828	847	864	868	852	867	851	848	854	854	848	846	850	853	851	843	835	831	831	833	842	854	867	869	857	848	834	824	822	828	823	824	824	829	839	847	854	858	862	851	846	839	838	843	846	849	846	840	841	841	847	859	863	853	831	818	816	816	815	814	812	818	818	811	801	798	806	827	840	840	847	842	837	833	825	818	813	813	815	817	815	815	820	826	826	821	825	847	862	856	838	826	824	822	816	812	812	815	812	807	800	807	807	822	824	818	810	804	797	790	774	763	767	780	795	796	794	791	791	793	797	800	803	796	804	819	837	831	810	789	775	775	768	762	773	783	778	767	765	776	782	777	771	771	762	755	748	759	780	802	798	786	766	763	763	763	764	760	769	784	794	800	802	797	799	799	799	802	809	806	802	793	792	799	799	803	791	767	765	775	790	795	777	777	774	782	788	792	785	779	767	769	769	780	788	787	773	766	771	770	770	774	789	798	804	807	793	793	781	782	787	784	766	761	761	780	802	824	820	813	801	801	799	802	805	808	805	804	804	789	769	753	748	753	754	754	751	777	781	786	782	782	780	775	777	785	798	798	804	798	788	772	763	763	753	747	753	755
0	0	0	0	0	0	0	829	829	811	813	842	890	923	923	923	0	0	0	858	852	852	834	839	853	849	848	844	844	854	866	892	911	909	895	895	889	887	890	894	898	872	872	874	872	870	861	854	843	847	847	868	887	890	876	851	841	836	836	838	849	853	839	840	853	861	849	849	831	813	818	824	837	832	833	840	840	839	848	859	864	857	848	838	847	847	843	843	846	860	862	862	852	849	857	857	844	832	824	821	826	805	799	797	800	805	805	811	813	819	825	832	843	844	838	824	825	835	838	838	832	834	844	852	847	848	837	825	816	816	815	818	818	832	850	870	887	881	872	857	852	836	826	827	836	836	825	811	811	817	848	863	870	874	873	868	854	830	812	820	852	874	885	878	871	859	859	849	858	860	855	848	841	842	848	865	871	862	852	853	857	878	866	856	853	860	856	851	851	847	857	870	877	876	876	875	876	885	891	877	857	841	841	851	858	861	862	857	851	854	864	875	881	880	882	888	888	881	881	864	857	856	863	871	881	892	898	898	894	890	874	850	843	838	839	848	862	872	874	861	833	823	859	878	900	911	908	889	890	893	887	881	871	855	866	877	897	917	921	911	912	906	902	885	871	873	875	870	849	838	838	837	852	868	883	905	913	914	909	897	887	889	908	922	932	915	897	893	895	917	940	936	924	904	891	880	872	873	878	884	901	893	895	908	908	886	866	866	889	901	900	893	883	874	857	856	867	889	899	903	900	903	909	914	910	910	896	884	885	884	880	873	870	872	862	847	842	846	856	845	848	848	855	871	883	881	870	843	812	801	813	836	855	865	871	860	854	846	854	862	859	843	843	828	826	845	856	872	876	874	875	871	862	864	864	862	860	854	853	847	833	827	828	839	864	868	852	833	847	871	882	873	858	846	845	845	849	848	838	827	828	821	831	850	867	862	852	844	834	815	803	796	808	808	822	834	844	850	860	862	863	862	860	847	838	837	839	833	832	827	830	840	853	866	862	849	827	816	812	816	822	824	820	820	811	801	796	793	803	819	840	840	825	819	823	837	845	839	827	818	810	800	794	802	809	812	812	811	820	847	856	849	827	812	811	814	809	804	805	811	807	801	810	818	818	814	815	807	799	798	795	775	769	773	767	780	793	794	795	795	791	792	786	787	778	775	784	805	825	826	809	789	778	778	780	778	776	773	776	771	770	772	774	775	766	766	755	754	746	754	780	802	812	792	768	779	779	777	769	763	766	774	783	793	797	801	801	803	805	803	800	802	790	774	758	758	758	757	756	759	764	770	790	795	779	779	773	775	780	788	786	767	752	752	748	765	783	800	788	772	774	774	772	769	772	778	793	796	789	789	785	782	785	788	781	758	758	769	792	814	818	810	796	796	799	780	767	770	771	780	780	783	785	772	755	750	750	754	751	757	764	761	761	761	737	736	745	746	762	762	787	794	789	771	751	751	729	729	736	739
857	0	0	0	0	880	866	841	807	807	805	833	880	914	923	923	870	0	0	857	850	830	830	832	831	841	831	826	826	834	863	889	900	896	886	886	876	875	877	885	878	872	874	872	883	883	876	857	853	854	854	874	886	877	866	843	835	826	826	828	834	838	839	848	851	856	843	843	820	814	818	852	860	864	866	856	856	843	838	840	848	847	838	829	835	835	831	832	827	826	822	829	835	853	864	855	855	842	823	817	811	805	799	822	821	810	799	799	813	820	827	847	861	868	858	842	835	820	805	805	797	809	826	839	847	855	861	845	829	816	815	816	838	838	854	874	883	881	872	862	856	838	830	832	836	834	817	801	801	808	838	846	855	860	864	861	851	831	823	832	846	857	862	866	852	853	853	847	847	849	848	835	830	832	843	857	866	858	844	844	861	871	866	856	857	859	853	838	830	830	834	844	848	853	858	854	861	871	883	877	856	839	840	850	859	863	858	846	842	849	857	865	875	879	884	888	887	875	863	863	856	862	866	856	851	861	867	875	873	872	871	866	856	851	851	860	865	871	867	846	821	812	848	871	890	898	901	894	890	893	887	874	860	857	864	885	900	914	898	881	882	879	878	867	852	857	861	853	842	830	830	832	839	844	867	890	905	901	884	875	871	883	899	912	911	902	898	891	895	904	922	932	918	902	886	880	877	876	887	885	875	880	887	901	886	873	856	852	859	875	883	881	876	868	866	861	863	875	878	878	881	888	891	889	874	875	871	865	862	864	864	857	853	859	843	836	838	856	863	857	849	846	848	850	863	856	850	841	831	827	840	855	866	866	853	850	849	843	846	850	840	831	831	832	840	855	866	875	876	874	871	868	875	876	875	865	864	860	850	842	828	827	828	839	844	849	836	834	841	840	844	842	838	846	848	848	845	832	829	826	826	827	826	846	854	845	834	833	822	804	793	795	806	806	820	837	844	860	864	862	862	865	862	848	841	834	827	824	822	816	824	838	851	855	851	837	820	818	814	822	842	849	839	839	815	805	806	806	803	819	825	820	806	806	818	839	848	845	837	822	804	796	793	797	803	803	795	797	819	851	869	847	824	803	800	797	800	796	803	805	808	812	812	812	807	806	803	807	810	804	792	782	769	773	793	808	804	798	793	793	787	784	782	769	765	764	779	798	816	822	811	797	797	785	778	779	775	775	780	777	773	769	769	761	758	758	754	755	746	754	767	794	808	807	795	793	793	802	799	795	781	776	780	788	795	803	803	806	806	803	794	787	779	778	771	769	769	763	763	760	764	770	777	781	764	764	765	774	776	777	779	781	757	757	746	760	785	806	783	778	772	772	768	764	758	763	775	786	785	789	785	777	774	774	768	759	759	757	784	808	812	792	772	772	762	757	752	745	750	763	763	773	779	774	761	750	750	753	752	755	750	751	745	745	736	737	734	739	758	758	775	785	769	742	742	724	718	727	739	745
850	847	851	851	860	872	870	848	827	827	816	828	851	881	893	893	870	0	819	827	820	813	813	818	821	814	800	799	808	808	828	865	878	878	872	855	855	853	855	873	880	876	872	872	883	875	871	869	863	869	876	876	883	873	860	836	829	823	831	831	841	845	850	854	857	853	848	848	845	846	851	852	860	885	883	864	864	837	834	834	845	838	834	825	822	825	825	811	796	792	797	803	833	845	855	849	849	835	822	811	811	804	812	822	821	827	804	804	819	834	841	859	870	864	855	839	818	799	788	788	790	798	815	830	846	855	862	854	848	831	820	819	821	821	849	860	878	883	872	862	856	840	833	836	828	820	803	803	803	815	825	832	836	837	843	840	843	855	863	861	852	843	842	849	852	852	848	848	833	834	842	842	836	836	857	868	872	863	850	849	869	882	880	866	857	852	847	837	825	825	823	826	831	837	840	836	848	866	876	869	847	833	828	836	847	859	853	851	849	845	844	852	857	870	877	880	880	871	856	856	851	858	854	837	824	820	834	845	858	866	868	871	865	852	848	856	869	872	863	837	821	826	852	871	876	884	885	886	883	890	880	874	860	857	854	877	890	890	874	864	865	868	868	858	843	839	842	841	831	823	821	821	828	833	849	877	886	881	867	858	865	874	884	887	891	883	887	886	889	892	909	915	909	896	882	871	874	877	884	882	879	881	888	885	870	857	847	835	834	840	854	864	864	865	866	863	854	851	854	842	857	866	873	861	849	852	857	859	855	856	848	843	850	848	835	827	837	847	857	846	844	847	842	851	861	849	845	839	838	845	858	871	872	863	839	844	844	845	845	843	834	834	830	829	849	862	870	871	870	867	866	865	864	863	862	859	862	861	850	842	828	823	826	831	837	837	834	818	815	802	786	781	808	834	845	843	834	828	820	825	832	832	828	839	829	817	808	807	800	802	805	814	814	827	834	837	848	851	860	855	852	854	856	848	837	829	823	814	812	811	829	836	848	850	841	833	825	821	821	823	835	836	830	830	811	802	806	806	806	818	816	812	806	806	821	836	844	843	835	819	803	788	793	796	791	791	782	777	797	826	826	817	798	786	780	780	777	780	792	800	808	810	810	810	807	795	803	807	816	815	792	782	779	786	802	811	811	798	798	784	785	792	802	797	798	798	798	803	809	808	800	784	784	775	773	775	772	772	772	778	773	769	765	765	765	760	754	755	758	762	770	786	795	799	797	797	800	808	804	800	798	788	781	784	795	801	801	804	802	797	782	774	775	780	773	773	772	769	763	760	759	759	759	757	757	754	759	765	766	762	765	763	763	763	766	773	785	779	776	778	775	775	767	758	757	759	767	786	786	785	777	769	760	758	749	741	741	739	764	789	789	782	775	775	765	761	754	740	740	740	745	753	755	774	761	756	756	762	762	759	757	751	751	746	745	740	735	728	728	751	767	775	766	736	736	712	719	739	739	745
861	850	848	848	855	870	863	859	846	846	835	839	828	833	826	826	818	812	819	827	804	810	810	817	810	799	775	758	761	761	787	827	854	868	859	841	841	828	825	846	848	850	855	855	864	875	859	871	879	887	886	886	883	871	850	833	825	831	838	838	849	853	854	858	860	854	843	843	846	862	874	879	878	885	883	851	851	828	821	835	836	830	820	817	824	813	813	786	771	777	809	832	835	833	833	836	836	820	809	806	813	813	831	844	840	827	804	814	814	829	841	848	848	849	845	827	794	788	790	792	792	799	814	828	835	843	846	833	835	836	830	816	810	810	809	804	815	826	837	843	850	840	833	833	837	835	824	822	822	822	817	818	821	821	815	817	839	859	879	880	873	852	842	844	851	855	843	843	832	829	841	850	848	848	854	863	873	862	846	842	858	883	885	873	857	852	847	841	833	832	832	827	828	831	826	826	835	850	858	856	844	832	823	819	825	842	850	852	851	841	837	831	838	856	865	862	850	848	846	841	841	844	829	811	795	792	802	812	823	840	853	860	854	843	839	843	858	870	861	837	827	837	856	878	883	876	874	873	883	881	883	869	857	849	854	877	890	879	864	855	862	868	861	852	841	829	826	829	824	818	812	812	810	818	838	859	869	864	855	852	859	860	860	865	861	860	866	866	874	875	883	893	898	882	861	850	860	878	881	878	884	883	882	874	861	853	844	836	830	825	831	846	858	869	872	857	845	834	834	836	845	855	856	831	830	839	856	863	858	851	844	833	817	812	817	819	833	841	838	831	841	842	854	859	851	826	820	824	843	861	875	879	873	857	832	832	842	846	844	840	834	834	831	831	850	861	866	869	866	855	856	853	853	854	862	859	862	861	854	837	824	815	814	826	832	840	846	840	829	804	781	764	774	819	842	838	826	819	822	823	832	834	830	821	804	797	789	787	789	793	799	817	817	823	832	836	840	838	833	826	830	838	839	841	833	821	821	818	814	819	828	832	835	838	827	822	830	830	824	823	817	818	818	817	811	802	805	811	816	814	809	804	807	810	814	822	829	830	825	817	796	783	791	795	795	781	771	760	777	796	798	788	781	777	776	768	762	759	761	776	794	803	810	810	806	798	797	805	813	815	799	793	795	798	804	807	802	788	788	779	785	798	808	814	808	805	803	807	801	799	782	764	764	753	758	766	768	767	767	766	768	766	765	766	766	760	750	756	764	769	777	780	789	789	795	795	797	801	801	799	800	799	802	798	801	801	806	804	797	788	773	767	769	777	776	776	772	769	765	760	753	749	748	754	754	761	764	762	753	748	747	748	748	751	758	764	768	775	778	783	783	779	771	769	767	759	767	772	772	770	764	759	753	743	739	739	732	733	750	767	772	774	774	770	766	763	752	746	740	740	737	753	755	761	767	764	764	766	764	769	769	763	763	760	754	745	734	719	719	727	760	761	751	721	721	698	719	739	758	765
881	867	845	845	846	860	860	857	854	854	840	826	802	777	766	769	769	777	785	794	804	810	807	808	809	782	754	734	742	742	760	797	837	864	865	831	831	810	804	815	817	813	818	818	834	841	859	871	863	883	881	881	878	860	839	831	824	830	833	833	843	848	843	845	847	842	839	848	848	862	878	889	886	886	872	851	828	821	817	827	824	820	813	807	812	803	803	784	773	790	813	831	828	817	807	802	794	794	795	805	812	828	844	855	850	828	810	814	814	818	829	831	832	831	822	800	788	792	807	818	818	823	818	821	826	822	815	810	816	814	811	806	802	804	804	800	800	808	810	821	833	833	832	833	837	834	835	829	823	823	819	814	813	808	805	815	837	858	879	890	879	857	840	829	836	836	837	835	835	837	843	849	848	843	842	840	843	840	839	833	839	858	876	877	858	848	842	841	833	836	836	834	836	828	811	807	816	831	847	853	846	837	828	825	831	835	840	856	858	846	833	834	839	845	840	833	833	841	847	846	834	834	817	805	800	807	808	817	825	837	847	847	847	836	830	834	847	865	872	853	833	837	868	885	891	876	865	866	871	876	876	865	852	840	844	866	881	879	864	855	862	857	852	852	843	829	819	817	815	801	795	798	798	811	830	848	862	856	851	855	864	863	860	856	863	851	845	851	861	865	874	881	876	862	848	837	846	858	869	869	875	868	865	857	854	843	838	837	825	822	826	829	838	854	862	852	839	827	813	838	848	845	843	832	829	838	856	862	851	847	844	829	814	800	806	812	828	834	825	823	825	834	836	833	825	813	803	805	820	840	864	864	861	839	824	829	840	846	841	837	837	834	840	851	856	854	858	859	850	841	835	853	853	854	860	859	853	857	856	843	823	803	809	814	828	840	852	855	847	819	786	768	765	820	835	830	822	815	819	824	831	826	819	806	798	790	782	787	794	786	786	786	789	803	819	830	835	835	827	811	806	810	809	809	810	811	809	812	810	818	816	815	818	814	812	816	830	837	829	819	805	800	818	817	810	806	804	817	815	802	790	796	797	799	802	806	814	814	813	806	798	785	789	793	793	783	768	757	775	785	795	790	789	782	781	774	770	761	755	765	784	800	800	806	804	791	783	805	813	806	804	802	802	800	799	797	791	785	785	778	779	790	802	813	807	808	803	804	803	791	774	774	761	753	754	765	768	762	762	762	766	766	767	766	766	768	764	767	774	782	780	783	779	780	789	789	795	792	791	793	798	808	807	802	801	801	795	782	778	772	766	756	748	763	776	776	775	770	761	754	748	748	748	757	757	770	774	766	746	732	727	737	737	728	738	753	774	780	782	783	783	783	785	769	767	763	758	756	756	747	746	742	742	745	741	741	736	732	738	747	762	766	766	762	758	753	751	752	755	740	737	740	748	759	774	774	775	772	760	761	772	773	773	766	761	752	745	745	745	749	746	736	727	709	721	698	715	734	763	771
869	853	844	836	836	836	832	815	817	805	805	806	766	742	738	739	739	756	777	778	786	807	808	808	797	776	748	732	747	747	760	795	831	875	879	843	843	814	810	801	803	793	792	794	794	807	828	852	863	883	871	871	866	854	829	817	817	810	813	823	823	823	820	815	811	824	833	835	835	852	866	874	874	867	853	830	821	821	817	802	809	805	791	798	807	799	787	787	786	805	818	831	824	817	807	787	780	780	786	801	814	819	839	847	847	827	811	811	811	818	840	824	804	798	801	797	797	794	794	798	798	800	797	797	801	799	794	795	801	805	810	808	807	812	812	806	803	804	803	810	819	826	819	821	827	834	835	828	819	816	816	816	817	809	805	816	832	857	871	883	874	852	831	817	816	820	827	832	832	833	829	833	834	835	830	830	832	836	838	838	841	853	862	860	848	836	833	840	842	836	834	834	828	816	807	800	803	818	829	833	837	836	834	831	833	838	850	853	863	859	844	834	830	828	822	816	820	832	846	843	830	830	823	816	816	819	822	819	831	841	841	837	838	839	835	836	848	864	868	866	843	839	851	882	882	864	849	845	856	858	855	851	835	830	840	858	871	877	877	873	861	857	852	852	843	818	803	813	810	800	796	797	797	816	829	841	856	854	850	850	867	877	877	879	868	856	843	843	853	862	861	857	863	851	838	837	842	844	847	845	839	843	842	840	845	847	847	838	823	824	815	813	818	833	840	843	837	823	819	820	836	847	850	845	840	856	867	855	843	839	834	826	804	806	805	805	820	826	834	832	828	823	822	828	827	822	810	811	820	830	843	848	841	822	822	824	832	829	814	799	799	802	825	834	845	846	850	859	850	841	835	837	844	847	847	847	841	839	835	834	822	816	820	822	835	848	860	865	859	834	800	775	792	818	827	826	819	811	815	815	823	818	804	789	787	784	783	787	788	789	782	782	782	789	803	828	842	839	829	812	795	779	770	776	783	790	797	804	804	804	798	801	806	800	805	820	832	837	823	806	805	805	800	807	818	819	819	818	814	790	780	774	787	783	787	791	801	799	797	799	797	800	798	801	801	786	771	761	770	776	789	793	795	797	795	789	779	758	753	764	780	795	795	800	794	791	783	791	798	800	802	803	797	789	785	780	776	776	774	772	766	767	774	787	792	791	793	795	789	780	772	772	762	753	756	771	773	773	766	766	769	766	767	767	770	775	775	780	780	785	785	776	777	779	779	783	788	784	781	780	792	801	800	795	790	790	770	767	761	754	746	740	750	763	763	775	773	760	749	744	746	749	753	753	763	780	780	762	736	728	723	728	728	720	734	754	773	780	776	774	774	783	785	778	774	767	756	740	740	734	727	730	742	751	751	751	745	736	741	748	759	755	755	748	745	745	749	752	755	755	749	749	757	775	786	786	781	767	759	753	766	774	774	763	755	745	749	750	750	763	764	765	727	709	709	680	701	732	758	758
869	831	814	816	816	815	801	797	784	792	792	790	774	752	729	736	736	748	776	782	778	793	797	797	797	776	752	745	763	781	781	798	829	857	878	863	837	837	822	810	796	785	782	780	780	782	796	815	831	857	871	866	858	842	819	803	791	794	796	802	802	805	801	788	780	795	814	823	823	830	837	843	847	843	830	814	807	807	798	802	809	774	769	783	795	788	786	786	789	809	818	835	830	829	818	793	780	780	780	790	800	809	824	829	837	842	842	842	840	840	840	824	805	804	799	799	796	796	796	798	793	793	788	791	790	788	788	787	798	804	811	816	814	812	809	809	810	802	796	798	808	806	805	801	808	826	829	828	812	814	814	826	829	820	805	811	828	846	866	865	853	834	816	804	804	810	822	829	829	824	814	811	817	810	815	825	832	837	847	851	861	861	854	833	824	821	820	831	831	832	834	834	828	816	815	804	803	799	804	807	813	834	843	841	840	839	848	854	854	842	835	825	817	814	809	808	820	840	853	857	846	838	838	830	836	838	831	822	825	827	830	829	840	847	851	850	848	855	852	838	835	831	843	853	845	833	827	829	836	836	839	838	832	826	835	851	858	866	868	872	864	856	843	845	831	818	803	813	810	826	809	817	830	830	842	842	856	853	842	837	841	860	874	880	866	851	839	831	848	849	837	822	828	830	827	832	839	840	827	809	811	821	835	843	848	855	857	836	823	814	808	805	807	817	833	839	835	824	819	823	837	844	850	856	863	877	867	847	832	824	814	818	817	816	809	810	820	838	841	846	835	826	815	815	819	821	813	814	824	833	839	838	829	817	814	816	827	829	821	821	812	814	821	834	845	846	850	858	844	835	835	835	832	836	841	840	835	829	821	821	818	822	833	843	852	861	866	863	848	824	795	779	793	809	824	824	819	818	815	818	813	806	792	783	782	778	773	773	777	783	783	780	779	782	800	827	839	841	829	811	790	773	759	766	774	786	792	799	801	792	790	789	796	807	819	826	827	826	823	806	795	795	793	808	815	816	817	813	807	786	780	776	773	772	772	786	795	796	792	793	801	811	808	808	799	794	782	775	774	775	776	788	795	805	803	799	781	754	745	758	773	773	787	800	794	782	772	775	780	779	779	784	783	781	779	773	766	766	764	758	757	755	760	761	764	771	776	771	764	768	772	772	767	765	767	777	785	782	775	766	769	767	769	769	770	773	779	778	777	777	777	775	778	776	776	777	761	748	744	760	779	784	780	775	775	764	754	750	746	728	722	740	750	770	770	784	786	769	751	745	745	748	750	750	759	766	769	764	762	728	734	743	743	756	766	765	758	751	753	774	774	782	784	777	771	765	756	756	743	733	732	733	745	759	762	762	757	748	745	753	758	752	752	743	738	745	749	754	754	762	771	779	779	782	780	780	780	764	751	752	761	761	753	742	731	722	735	735	748	758	764	765	759	759	745	716	693	685	683	683
839	831	814	810	810	803	804	794	784	793	793	798	801	783	752	739	765	765	785	784	773	771	782	782	788	769	752	745	787	792	792	797	817	836	861	862	850	850	832	825	808	780	771	768	768	765	773	792	819	838	861	858	858	842	802	789	777	779	782	799	799	799	784	766	758	775	794	801	808	808	809	814	817	818	819	806	788	780	780	781	786	774	766	778	790	784	782	782	787	806	824	835	837	838	823	800	774	760	760	765	777	781	795	812	827	834	837	843	849	849	845	825	805	804	795	794	792	794	794	792	786	786	783	784	786	786	782	791	803	812	820	818	807	798	794	794	797	795	785	780	787	791	789	783	790	811	819	820	812	814	815	815	827	816	791	791	807	825	842	839	822	805	786	780	770	783	802	820	820	820	793	784	786	793	805	819	830	847	860	874	878	872	847	823	804	807	811	818	825	827	827	818	818	815	815	804	799	791	792	796	811	831	850	850	841	838	843	842	840	829	822	824	818	809	808	810	829	852	862	867	867	868	868	863	857	849	837	819	814	823	829	830	845	862	868	852	841	834	836	824	830	833	845	854	850	836	822	817	821	822	824	833	832	834	843	837	836	840	846	855	854	854	853	843	827	813	803	817	837	826	809	817	830	838	846	846	854	851	828	815	820	840	860	863	857	839	816	810	810	806	801	806	814	818	817	829	834	835	818	801	804	824	839	849	847	843	846	837	824	817	813	813	823	834	839	841	842	847	841	836	842	854	859	863	873	868	850	835	824	813	812	814	821	823	810	812	820	820	831	843	837	825	818	813	812	813	811	808	816	831	838	834	821	804	803	803	818	826	818	821	812	814	821	816	807	811	820	832	828	828	825	822	818	819	829	830	817	785	766	771	781	798	815	831	848	852	839	841	836	827	806	804	814	824	825	824	819	821	820	814	806	800	793	779	769	767	757	764	772	772	775	781	776	778	795	816	834	840	824	810	789	773	770	769	770	782	788	795	791	782	773	779	796	815	823	818	827	826	813	798	798	790	787	794	801	805	806	805	800	789	783	780	773	770	775	785	791	791	783	792	809	818	813	813	807	797	794	795	782	773	769	780	794	808	810	805	779	750	743	753	763	773	787	784	781	777	768	765	772	771	771	772	773	773	768	762	751	751	747	752	754	760	756	753	747	753	751	747	752	758	758	765	762	762	765	771	780	782	775	768	768	766	763	763	761	762	766	770	765	762	760	760	766	760	760	741	733	730	743	742	759	764	765	760	760	752	744	735	720	728	722	726	736	750	750	765	784	791	767	743	738	743	735	735	739	746	757	770	790	791	793	793	790	800	798	790	775	751	753	753	757	768	772	767	766	760	757	757	752	744	742	740	750	762	762	768	768	759	755	743	740	740	734	732	738	733	737	741	741	754	768	774	776	781	775	775	763	748	743	749	764	764	768	753	738	723	709	709	748	758	763	767	770	770	761	734	715	699	698	698
802	793	798	810	810	808	811	810	796	802	802	813	810	799	767	760	772	772	779	777	763	754	759	759	770	770	758	758	787	792	797	800	809	814	817	827	835	835	823	827	813	788	768	761	767	767	768	787	811	830	847	842	842	829	802	789	770	777	775	788	788	789	776	760	749	758	768	780	782	782	790	790	792	804	801	799	786	778	778	778	775	768	766	778	802	787	773	778	778	800	817	820	829	823	822	796	773	749	749	752	757	761	788	801	820	826	827	832	836	836	830	816	802	796	795	794	802	802	798	792	786	778	778	783	788	786	796	802	805	813	812	792	780	775	776	776	780	768	767	772	777	784	783	784	783	798	805	801	790	799	815	815	774	771	767	765	775	792	801	791	789	783	782	775	779	785	792	806	820	820	806	782	781	794	802	811	827	853	869	879	883	867	839	812	790	794	813	820	822	818	820	816	816	819	813	805	799	791	793	807	818	835	847	848	837	831	837	827	819	811	816	821	821	806	802	804	822	856	864	862	861	854	841	841	843	837	835	821	816	822	834	838	850	864	866	850	827	810	816	825	829	837	844	848	844	831	822	808	805	812	818	829	834	835	834	816	814	816	825	837	845	860	852	842	827	811	811	822	831	824	819	830	838	846	846	846	854	851	827	811	803	812	831	838	831	821	812	812	813	813	821	820	826	827	808	812	824	824	818	813	811	823	837	833	829	820	824	829	828	825	824	830	841	846	845	840	839	848	849	847	857	862	861	851	832	819	821	819	807	798	800	807	816	808	805	804	804	801	792	791	801	816	813	806	810	809	806	805	810	821	826	821	805	792	803	803	818	826	826	818	805	807	810	807	806	804	810	815	811	810	805	800	795	792	799	797	789	783	777	780	794	804	820	828	842	854	865	864	848	835	816	808	792	776	778	790	805	815	808	802	800	799	792	774	761	762	760	767	778	778	792	791	779	776	791	809	825	828	822	811	787	769	764	766	763	770	781	789	783	777	770	773	794	809	823	818	813	805	794	784	784	784	780	782	780	791	789	790	788	787	785	783	788	789	784	791	792	787	784	786	801	808	808	802	793	792	792	795	786	774	765	769	783	785	792	789	780	766	747	753	763	763	774	774	767	763	758	764	767	769	766	763	761	758	759	749	749	740	732	739	760	764	758	752	742	741	741	744	748	755	755	757	754	752	751	752	780	782	775	765	757	755	755	755	749	752	755	759	755	745	739	738	742	742	739	733	729	733	743	738	742	752	752	749	749	746	728	735	720	728	744	750	737	737	725	727	755	770	747	711	722	720	720	722	723	725	745	766	784	788	783	783	771	785	780	790	775	759	742	742	739	747	744	733	731	735	748	748	751	746	739	740	751	765	765	766	759	751	747	740	735	735	734	732	723	715	716	732	732	745	752	761	772	769	769	760	751	734	729	744	760	760	755	749	734	719	709	709	719	736	751	763	773	773	768	751	729	711	698	698
783	771	781	803	808	808	811	821	814	814	804	804	796	784	772	765	771	771	774	774	753	747	751	766	766	782	784	779	792	797	797	799	802	797	786	784	787	787	791	810	805	800	788	784	782	782	784	788	807	828	827	818	810	810	790	779	770	777	778	779	775	775	774	760	759	753	760	769	779	779	780	774	773	788	802	802	792	788	788	782	784	787	786	803	802	787	771	770	770	779	793	797	793	782	784	791	795	779	779	759	743	762	786	798	805	812	818	818	824	820	820	808	793	780	785	792	802	802	797	792	788	784	784	788	791	796	792	797	789	791	785	773	766	765	765	764	764	761	769	779	790	785	778	777	782	784	790	790	773	774	778	778	774	771	744	742	745	752	759	768	771	777	785	792	799	807	817	813	817	821	821	818	812	802	803	800	811	850	865	870	872	853	829	801	787	792	811	828	831	819	814	818	811	811	807	801	793	787	793	807	831	835	841	841	833	827	826	818	811	800	804	812	813	809	798	800	815	824	847	848	840	832	819	819	822	826	828	824	821	830	840	844	853	864	862	843	819	814	818	831	840	840	843	845	845	833	819	806	796	799	813	823	831	831	820	800	788	800	815	827	839	846	837	820	803	798	801	815	822	822	815	822	833	843	843	850	853	841	827	811	803	812	831	838	820	813	809	811	816	828	823	812	807	803	795	782	797	819	825	824	818	818	819	815	802	797	803	809	823	826	828	834	844	849	853	845	839	840	830	829	837	837	822	812	791	784	786	790	788	781	790	803	811	802	794	789	775	772	757	761	776	790	803	803	807	808	794	789	810	821	826	821	805	792	786	786	788	800	800	810	797	790	799	801	806	808	797	792	795	789	785	783	781	783	788	785	779	786	789	792	799	813	825	836	847	853	862	857	844	824	814	800	780	766	771	788	806	810	807	803	802	794	777	765	765	763	773	788	788	800	812	807	788	776	781	803	827	828	827	816	794	767	758	759	759	768	780	787	781	774	773	778	794	809	809	793	787	777	771	771	773	778	778	780	776	778	780	778	781	782	778	785	795	804	802	799	797	792	781	783	783	780	780	779	781	776	780	782	776	764	764	761	764	764	758	733	738	766	747	746	746	755	767	766	757	747	756	765	776	773	766	758	752	749	742	738	738	730	721	726	743	758	758	745	739	740	738	738	745	745	746	747	737	730	751	752	763	773	768	755	744	742	742	743	743	741	743	745	742	736	731	731	735	735	731	729	730	731	746	747	743	742	742	742	740	746	728	702	711	724	738	746	733	733	722	704	714	736	736	721	714	713	713	716	717	722	717	744	764	779	770	770	759	745	780	771	763	752	739	739	733	734	733	724	720	730	730	736	739	735	729	732	744	752	752	756	740	735	734	735	735	735	730	731	725	711	705	709	709	719	727	738	741	742	742	734	713	712	718	731	731	747	750	748	734	719	714	714	710	723	733	748	755	755	761	757	740	709	709	693
773	771	775	799	810	810	831	821	814	817	801	801	779	763	747	756	771	771	778	783	774	765	771	770	770	788	809	817	809	803	799	799	802	784	771	762	762	768	768	778	793	800	795	793	787	787	778	788	805	820	801	790	785	785	780	765	768	774	778	779	779	779	774	772	767	760	764	774	773	764	764	755	757	778	788	792	793	790	796	796	791	794	800	808	810	786	771	770	768	770	781	777	768	762	766	774	776	773	759	759	754	767	788	795	794	783	774	778	791	804	804	794	785	780	783	790	796	799	797	783	782	779	779	780	785	782	782	778	769	765	760	755	756	761	757	756	756	762	770	790	796	793	785	780	780	778	784	790	787	782	782	771	771	754	744	742	727	733	752	760	762	770	783	799	808	815	820	821	821	820	820	815	812	812	811	810	825	836	846	858	854	847	829	808	790	802	821	832	828	816	806	807	803	803	796	789	789	790	800	820	831	835	827	828	823	819	816	804	781	775	780	800	821	827	812	804	812	818	827	827	824	809	806	810	810	817	825	822	815	823	834	843	850	858	850	835	823	817	820	824	824	831	830	829	829	824	821	807	797	802	811	821	829	827	815	795	780	799	807	811	818	820	790	785	778	785	798	810	815	812	810	810	816	829	832	832	832	833	822	806	795	797	811	818	820	813	809	811	816	828	823	808	799	798	791	779	774	803	824	822	808	803	801	801	793	790	791	796	799	814	813	823	836	846	855	852	836	823	811	808	812	812	807	791	780	777	772	777	774	782	794	800	795	782	774	770	774	768	761	761	763	790	803	803	807	808	794	789	798	803	812	807	793	779	772	768	767	767	765	774	786	803	809	813	802	783	771	777	782	781	777	778	776	777	779	776	769	769	784	797	803	814	824	828	832	840	830	802	802	802	796	790	776	777	787	790	797	777	760	765	779	789	779	765	768	780	794	807	807	821	824	814	799	774	776	803	820	820	820	814	805	783	761	753	753	766	771	778	772	774	773	778	784	780	774	777	785	778	763	763	774	783	792	790	783	779	778	777	781	782	779	790	791	804	813	807	799	785	778	775	771	771	764	756	758	765	768	771	768	772	776	788	782	768	751	738	738	759	765	767	767	770	766	761	754	754	749	747	747	749	755	762	753	738	736	736	730	723	721	724	733	747	745	732	729	728	734	734	736	736	735	731	737	730	727	728	741	749	753	740	733	733	729	732	731	735	734	732	727	727	731	741	738	738	733	732	730	731	741	748	743	736	728	742	740	733	720	713	715	724	737	739	735	735	718	700	699	719	719	719	724	733	733	721	727	727	723	727	731	738	738	745	759	745	741	735	741	737	737	734	726	728	726	717	711	715	715	722	726	725	712	712	729	729	741	745	734	727	734	735	734	734	730	727	721	708	703	703	700	700	698	703	706	712	712	711	714	717	730	738	738	742	750	748	731	728	728	724	715	706	708	716	716	733	749	752	736	709	709	686
778	782	783	786	812	812	829	830	822	817	801	805	773	738	723	735	771	789	789	797	798	795	795	794	794	803	812	820	822	812	805	805	797	784	771	762	751	741	741	754	762	781	791	789	778	778	769	773	781	793	787	775	771	771	764	759	756	767	774	782	779	805	801	786	770	762	759	770	771	762	762	753	759	771	782	781	789	791	786	786	784	790	801	811	811	790	775	768	770	770	787	771	763	754	754	759	765	767	763	763	765	770	782	782	773	763	754	752	753	767	767	778	779	778	778	777	775	777	783	783	782	763	762	762	762	766	759	755	755	757	753	753	750	747	745	745	753	753	764	790	806	807	796	787	775	774	782	790	793	786	783	764	764	751	739	733	727	733	754	769	776	771	780	797	816	819	826	832	828	819	798	798	805	821	828	826	829	830	832	836	843	840	831	815	804	812	821	827	820	796	783	771	766	782	782	787	794	796	808	826	838	833	827	828	801	804	798	789	777	773	782	810	826	833	828	806	794	793	790	788	793	803	800	802	802	797	801	801	801	806	814	826	831	825	810	815	814	814	815	811	806	801	806	799	793	799	797	796	802	804	806	816	814	811	806	778	778	780	788	794	795	789	776	768	773	780	795	809	811	810	805	802	800	805	808	808	815	819	817	801	788	782	795	800	804	807	804	809	816	824	818	808	799	798	791	779	774	803	824	822	808	787	796	797	796	796	792	794	790	795	799	806	820	839	853	852	822	805	791	795	798	803	802	799	793	783	779	782	796	798	797	800	795	782	774	770	774	768	761	761	763	778	791	805	803	795	789	780	784	796	802	800	791	773	762	763	763	763	756	749	752	768	781	777	777	773	772	778	789	794	794	785	772	770	760	760	754	750	760	777	782	788	797	800	791	783	777	783	794	800	798	792	785	778	770	770	775	767	754	747	752	757	768	773	781	788	803	803	809	810	816	809	794	772	765	785	805	803	798	802	803	783	765	750	750	755	752	778	772	772	778	779	777	771	764	769	774	786	786	784	777	782	790	796	792	785	776	767	766	764	763	748	759	774	776	761	748	743	751	761	765	765	757	743	754	763	771	766	766	769	784	784	773	761	751	738	727	736	750	750	759	763	762	763	758	752	747	744	745	742	741	740	741	733	737	737	726	718	716	718	727	731	721	716	710	712	722	731	730	730	735	731	725	714	711	715	723	728	727	729	725	725	716	718	726	735	729	717	716	719	726	743	743	743	739	733	728	728	736	735	731	725	728	728	715	708	708	723	739	760	772	778	778	743	726	717	710	717	716	714	723	723	736	733	738	736	730	710	704	718	738	745	746	745	740	728	726	725	725	724	722	723	722	710	700	701	701	710	714	707	698	696	711	711	733	739	734	727	727	731	731	737	731	727	723	714	706	706	699	697	696	697	711	715	715	718	721	726	740	745	738	742	745	741	734	729	729	721	718	708	700	703	703	724	732	737	729	706	706	699
781	787	788	787	799	799	810	821	825	814	805	805	773	751	738	733	776	807	807	817	810	807	799	778	778	787	807	813	814	805	800	800	786	768	762	762	751	739	739	720	719	729	767	786	781	766	766	768	765	770	772	774	765	765	760	740	731	744	775	804	805	801	801	798	771	760	763	774	779	772	772	771	769	770	773	779	774	766	753	753	760	770	784	800	801	793	783	779	776	776	787	771	772	762	753	762	766	768	766	766	766	769	774	764	754	752	753	745	752	764	778	778	777	779	776	760	747	749	757	763	761	763	762	740	749	752	747	738	742	756	765	751	735	728	732	735	744	744	762	783	797	797	790	776	781	787	785	780	782	774	779	767	757	757	748	736	731	734	754	769	793	799	785	787	795	804	813	816	810	803	793	793	798	813	828	827	829	826	821	828	829	831	828	830	823	821	814	807	791	783	770	759	758	765	765	774	785	787	807	825	830	820	809	801	801	804	798	783	774	776	783	801	822	832	823	795	781	777	777	777	781	790	788	780	785	785	767	767	765	778	794	797	786	782	783	791	797	805	811	801	798	794	787	781	783	783	786	791	797	808	807	808	804	795	784	775	762	764	776	795	793	794	786	781	775	780	791	803	807	809	806	801	791	788	789	801	801	809	819	818	808	794	788	797	801	808	804	801	798	801	803	799	792	786	786	778	776	786	814	811	797	787	796	797	796	796	792	794	790	795	799	806	820	839	853	852	822	805	791	795	798	803	802	799	793	783	779	782	796	798	797	788	778	767	762	755	759	770	773	771	770	778	786	805	804	793	778	773	769	781	791	796	791	783	775	765	765	760	745	742	755	765	774	775	770	771	775	778	781	787	788	782	766	746	734	733	737	738	743	753	764	776	789	790	782	771	772	779	787	789	787	792	790	777	770	772	774	772	763	760	758	759	759	764	771	782	796	796	793	791	790	792	784	762	748	762	780	777	770	764	782	771	753	736	742	755	752	752	749	761	771	779	774	762	756	755	763	779	779	784	777	776	781	789	791	783	783	771	763	753	750	754	762	768	766	752	737	728	731	739	739	750	754	744	755	768	767	764	758	771	772	763	773	761	752	739	731	732	738	738	745	749	759	759	753	746	738	741	741	735	732	728	727	726	725	725	721	709	698	701	711	710	709	708	708	709	713	719	731	730	720	718	717	723	722	717	713	716	720	729	727	727	717	711	721	725	728	716	711	715	714	723	723	729	735	731	724	718	720	719	731	725	725	721	707	698	690	699	735	735	742	746	746	748	746	739	739	739	728	711	704	704	715	750	752	732	716	705	704	718	718	740	753	739	722	710	711	720	720	725	722	718	717	707	699	689	689	693	696	697	692	690	701	701	733	739	728	722	729	737	737	741	733	732	731	725	713	713	701	697	703	708	721	721	726	731	732	736	740	745	745	749	747	740	718	704	704	699	709	706	701	707	707	725	725	720	713	711	711	707
790	790	795	787	794	803	803	816	828	810	799	774	774	751	738	783	798	814	814	816	812	804	792	780	775	775	783	788	789	791	779	766	766	761	764	772	763	739	720	706	696	707	731	747	758	758	758	754	755	757	772	778	771	754	754	731	717	731	762	810	817	815	815	798	771	770	768	778	788	784	769	769	764	763	762	766	761	763	762	755	755	756	758	773	780	782	783	793	801	801	793	783	772	776	772	773	768	762	759	765	765	768	774	770	772	771	776	772	770	777	780	780	783	787	787	761	739	733	743	750	750	740	740	749	749	749	745	736	735	756	759	749	734	712	722	732	747	747	757	770	780	776	754	762	791	804	796	777	767	762	766	775	767	767	757	745	746	754	771	784	793	799	754	767	782	793	796	801	809	804	790	793	793	800	814	829	829	824	822	818	817	817	824	827	828	825	810	793	779	777	768	757	742	744	755	755	769	775	781	787	791	794	788	776	777	782	787	783	774	779	777	779	793	821	808	774	767	771	774	773	781	787	790	771	749	733	733	726	738	744	766	780	786	783	779	774	783	795	810	804	803	795	788	781	778	785	791	793	800	804	805	805	796	785	784	777	766	762	768	781	787	793	793	792	784	777	779	787	792	799	800	799	793	788	781	789	789	802	802	801	796	796	800	795	795	798	797	795	790	792	790	788	784	778	775	768	782	794	805	803	789	790	796	795	795	793	798	802	803	800	794	796	805	828	841	837	813	786	785	789	796	799	803	800	793	785	785	790	796	799	788	771	757	746	744	738	744	765	783	788	782	778	786	796	808	800	786	775	768	772	784	790	790	787	780	771	771	755	746	760	776	782	777	777	778	771	766	757	758	761	765	760	749	735	728	722	720	724	726	731	745	766	787	789	777	768	769	774	775	778	777	782	778	766	754	751	753	751	749	752	760	774	782	770	757	754	754	759	756	753	761	774	772	764	740	743	752	751	746	748	743	736	726	736	742	740	732	730	728	736	750	765	765	752	738	741	752	752	761	768	764	768	769	777	782	788	784	777	759	744	746	753	760	766	766	748	726	718	719	726	726	734	739	738	751	751	747	734	722	734	772	763	754	748	743	740	728	729	729	729	731	742	757	749	746	734	727	736	738	730	721	719	719	721	721	724	721	708	701	698	693	682	681	691	698	705	704	719	719	721	719	721	724	746	742	721	707	701	713	728	728	731	723	713	711	715	719	717	709	707	712	712	712	720	728	725	714	713	720	719	721	719	719	717	707	700	700	705	722	720	709	709	709	707	703	699	703	707	695	677	678	678	690	707	715	723	716	705	706	706	721	738	748	731	707	698	704	727	727	730	724	716	718	708	698	698	689	686	686	692	696	692	701	701	709	713	712	711	728	744	744	743	731	729	731	732	724	724	708	707	715	731	738	738	738	742	732	736	742	742	738	740	737	727	706	685	685	686	695	703	701	723	723	728	723	710	712	712	721	707
785	802	800	794	789	802	802	801	810	808	786	768	768	762	766	783	798	807	807	818	806	794	781	769	762	762	767	773	781	777	760	753	753	750	769	788	779	743	706	706	696	694	705	699	710	740	740	746	747	756	774	783	782	762	762	737	710	721	743	796	811	813	813	803	782	770	768	785	793	779	767	767	761	754	754	753	756	771	793	794	794	779	775	768	761	759	765	772	792	793	793	788	777	776	772	770	761	756	749	758	758	773	783	782	781	779	783	781	779	780	780	780	779	787	782	761	742	733	745	746	740	735	738	749	749	749	745	740	739	746	746	737	732	722	723	731	749	753	753	756	760	746	734	760	785	801	794	774	759	754	765	778	779	763	763	755	759	767	769	774	764	766	754	767	757	768	784	794	803	798	786	771	771	771	783	810	825	836	832	828	814	805	810	811	819	819	802	791	771	772	764	741	730	730	748	748	764	769	758	760	765	768	770	762	763	765	774	780	774	779	777	763	748	753	764	769	770	782	784	772	763	759	757	755	743	726	726	723	747	778	817	824	804	789	784	778	781	789	792	797	800	805	792	784	786	797	803	801	801	797	797	792	780	782	783	779	770	757	752	756	770	784	796	798	786	771	767	770	775	790	792	793	793	792	788	787	787	787	784	783	780	786	786	775	773	779	790	791	786	778	780	782	777	766	756	745	755	765	796	806	802	800	800	794	788	785	793	805	813	807	802	790	791	809	816	813	795	769	770	781	786	794	793	792	787	786	790	793	799	796	784	755	745	743	747	759	771	768	773	774	769	767	772	782	798	802	802	781	772	770	779	785	789	789	780	780	763	752	759	770	785	792	786	778	775	767	758	752	753	759	769	761	750	740	736	743	739	739	736	741	751	770	781	771	755	760	765	765	769	763	766	762	760	749	741	734	738	719	730	741	751	764	769	772	765	759	759	755	749	745	751	761	761	749	736	736	734	748	750	750	743	736	726	739	747	746	732	723	720	726	724	728	724	725	728	735	735	743	750	752	756	755	757	764	775	788	786	779	765	738	730	733	747	754	750	731	715	711	715	715	723	730	724	723	724	732	734	718	722	734	740	742	732	732	736	741	744	729	729	725	726	741	750	745	737	727	726	734	737	732	720	716	715	716	716	723	727	717	710	703	693	679	666	671	686	705	704	702	702	709	712	717	732	741	748	739	725	698	701	706	706	717	716	702	695	701	706	706	695	694	690	690	693	696	704	707	714	713	718	720	717	719	719	718	710	705	715	725	719	713	710	710	705	694	678	673	681	701	705	699	699	691	692	705	715	723	718	713	710	710	718	734	742	737	722	702	704	704	723	735	738	734	731	715	711	711	693	684	689	691	696	692	692	695	698	703	700	717	742	742	746	728	723	720	723	724	724	720	713	709	714	720	728	728	738	742	739	740	733	733	731	728	727	714	698	698	685	692	700	710	722	722	731	735	726	717	711	712	721	729
801	812	812	810	800	789	789	777	771	768	754	747	747	753	771	784	798	807	818	795	795	781	763	758	754	754	756	767	767	762	749	735	735	745	777	800	793	761	719	719	697	694	705	685	691	706	740	740	744	753	762	779	775	765	765	746	718	712	747	777	795	798	796	796	786	778	781	785	793	780	766	766	758	753	746	759	767	787	797	794	794	778	771	765	757	756	757	764	782	793	793	785	773	770	768	770	761	738	733	743	761	761	776	782	782	777	776	776	775	774	773	771	771	773	773	752	743	742	747	749	750	751	752	754	754	755	745	740	739	735	734	726	723	741	752	759	755	750	750	750	741	729	722	746	777	790	785	771	752	749	756	762	776	779	779	771	755	740	733	740	745	747	735	739	757	768	762	779	777	782	754	760	752	752	768	791	818	838	841	839	813	800	796	792	797	803	800	795	782	771	754	739	732	742	753	765	765	765	750	740	750	763	764	762	765	762	769	779	787	793	779	763	748	753	750	768	782	788	785	771	762	761	759	752	749	754	763	763	776	792	811	821	819	801	790	781	782	782	783	784	789	794	797	797	798	810	811	804	796	790	782	772	765	768	774	780	774	766	752	747	758	773	789	796	787	767	755	758	775	785	789	789	790	792	790	784	772	772	761	755	754	766	766	763	762	770	781	784	779	769	774	779	772	758	752	745	746	754	772	800	806	808	802	792	780	773	787	800	810	813	800	777	776	784	794	793	763	747	754	766	768	771	778	783	780	782	786	792	794	793	786	774	759	757	768	778	776	770	760	743	741	741	751	763	777	781	781	781	768	768	773	780	786	784	768	768	756	761	764	765	776	781	781	776	773	769	763	761	774	768	761	753	749	755	760	763	756	751	751	748	746	746	747	744	740	738	749	746	756	756	751	747	743	737	729	730	716	715	726	737	747	754	744	751	752	752	745	738	733	728	731	735	731	733	734	736	739	750	750	750	742	728	726	742	751	748	738	730	724	719	716	711	711	714	725	733	733	735	739	737	739	749	747	751	756	762	765	737	736	734	734	734	730	721	718	709	708	708	717	717	731	734	729	721	721	723	734	718	709	716	722	727	720	721	730	737	743	743	737	728	717	729	738	738	731	729	728	728	729	727	717	710	713	713	717	727	729	724	710	700	686	675	665	671	686	693	694	694	694	699	701	709	718	727	745	740	729	702	705	707	707	707	705	698	696	692	693	691	691	687	689	689	696	707	704	707	699	709	718	723	712	712	702	701	713	723	730	722	723	724	715	715	710	703	688	689	698	708	714	713	713	701	692	705	717	721	721	713	712	712	720	731	739	739	735	724	706	706	722	732	736	728	711	692	689	689	689	692	689	691	694	703	703	704	687	685	698	745	742	742	726	719	719	716	716	714	714	713	704	703	707	719	732	728	728	739	746	747	739	739	736	725	717	718	707	707	694	693	695	705	726	726	729	737	725	717	711	711	722	735
788	796	807	809	800	779	779	748	731	733	719	715	735	735	758	765	776	793	795	795	795	767	754	747	750	752	752	760	755	742	729	727	727	744	770	797	794	768	732	709	709	700	689	685	691	708	725	725	738	743	756	765	767	758	751	751	736	732	743	755	772	779	776	776	772	773	777	788	791	780	766	762	762	750	751	765	770	773	783	768	758	758	762	766	761	749	746	758	770	778	778	771	762	764	768	767	757	738	733	729	750	750	760	764	770	768	763	758	759	760	754	753	753	757	748	733	729	733	747	756	756	753	752	752	746	746	745	739	739	735	711	713	727	761	763	755	750	741	734	734	725	721	721	737	754	760	761	745	730	733	755	769	775	774	774	769	746	728	735	758	766	755	745	737	746	756	762	779	758	748	752	755	758	758	760	775	805	822	823	825	828	799	779	776	784	794	797	794	781	767	750	741	747	762	798	788	788	771	755	752	754	758	758	762	764	760	769	779	788	798	786	766	749	743	750	768	791	790	780	769	760	768	761	752	750	762	772	772	776	779	791	805	803	791	778	777	776	776	777	778	780	787	791	796	804	810	809	800	787	779	766	764	755	755	762	773	768	767	766	768	753	764	776	782	775	761	751	771	783	790	791	791	791	793	791	784	768	768	753	746	737	744	757	757	753	762	770	773	769	769	771	773	766	755	745	743	740	745	762	787	796	798	797	788	771	767	778	788	799	801	792	775	767	768	768	756	733	732	736	740	747	751	758	764	767	772	778	784	780	781	783	776	774	770	778	776	775	753	724	711	713	723	734	745	755	757	756	762	764	765	772	769	762	752	752	756	760	761	760	760	765	772	770	756	756	758	756	761	763	760	758	756	752	755	760	761	754	749	754	751	749	740	744	740	733	731	732	736	738	722	710	706	707	708	711	706	707	714	731	743	750	754	748	744	744	735	724	717	718	715	713	715	712	709	706	736	739	750	759	757	744	728	729	742	745	740	742	737	731	720	713	709	713	719	726	726	731	733	732	731	729	728	735	738	737	730	725	722	726	730	733	733	726	715	708	704	709	720	720	740	737	729	730	736	721	723	716	717	729	725	721	720	715	709	718	731	740	740	733	719	711	711	705	704	710	718	724	719	705	700	705	707	713	713	723	726	723	718	706	695	684	675	665	670	683	694	696	696	692	689	692	704	710	715	718	722	716	714	718	718	717	712	708	702	701	711	705	698	697	709	716	716	696	707	706	712	720	724	715	713	704	704	693	691	698	717	727	726	720	725	723	723	717	704	698	706	705	697	688	682	682	701	695	704	720	734	722	694	694	691	692	707	734	744	741	724	713	713	715	731	737	723	701	688	688	685	689	692	692	692	695	692	692	690	692	711	730	725	715	715	708	708	713	712	710	713	713	706	700	694	701	719	719	732	731	733	743	744	739	739	735	726	722	721	708	708	696	692	691	699	720	720	730	737	725	717	702	702	704	714
756	756	777	788	792	758	730	730	724	722	719	716	728	728	744	754	770	779	778	778	778	767	747	732	734	751	751	749	740	724	711	720	728	728	755	771	770	756	736	710	710	692	691	684	690	708	725	728	737	740	753	759	767	762	756	756	748	736	740	748	764	772	766	766	761	763	771	778	783	784	774	762	762	745	751	765	761	762	751	759	765	765	779	774	755	736	717	730	746	751	750	750	746	755	768	768	751	734	722	729	750	741	749	749	758	760	753	745	742	736	714	726	730	730	729	712	708	713	739	754	753	742	735	735	738	738	738	743	735	722	711	713	753	757	757	746	742	735	721	721	712	713	728	740	740	750	760	769	765	759	753	764	776	783	790	790	770	757	748	769	774	758	742	731	734	745	754	755	758	748	751	768	761	750	750	736	740	750	746	760	778	773	768	762	772	782	792	790	782	772	756	749	757	785	795	768	738	738	747	764	760	747	746	741	753	762	775	780	784	793	788	770	753	746	760	777	791	790	780	743	741	749	772	758	749	749	761	763	763	762	776	784	788	772	759	760	769	777	774	772	770	781	784	791	790	799	795	790	781	772	766	749	749	749	749	752	748	755	759	761	744	753	766	767	757	744	753	796	794	799	801	804	803	797	783	772	760	755	755	746	735	723	727	731	741	753	760	764	761	767	767	767	768	759	744	733	735	753	761	779	787	780	779	770	766	766	766	773	773	775	774	771	767	764	756	744	750	746	732	735	745	746	747	748	754	759	771	776	776	769	769	767	769	767	772	767	749	733	738	738	750	754	751	747	744	739	734	741	747	744	745	735	735	739	739	748	752	752	757	755	754	741	724	730	741	748	728	736	747	752	759	757	759	748	745	749	750	747	748	742	733	733	736	736	731	732	740	741	744	721	706	708	730	738	731	716	715	726	740	752	761	760	754	748	748	731	715	703	703	707	717	717	711	709	706	705	717	732	747	744	728	727	730	735	733	733	734	737	735	727	720	724	725	726	723	723	728	723	724	723	719	713	708	717	723	717	715	714	718	741	744	738	738	735	727	717	715	737	737	737	717	707	730	736	731	730	742	756	737	726	717	729	725	711	713	726	730	730	731	718	710	711	706	693	687	691	692	685	676	667	672	713	713	721	730	725	723	721	707	695	684	679	675	683	688	697	697	698	691	684	689	699	704	706	708	705	709	721	719	719	717	709	705	706	719	719	722	716	713	712	712	716	711	699	696	705	714	720	721	712	705	705	694	689	696	711	721	725	720	720	720	722	710	696	692	704	694	692	690	688	682	683	692	701	710	714	713	711	711	706	702	705	715	725	733	723	723	712	708	707	701	699	695	687	687	685	690	686	686	694	705	705	701	699	709	718	716	702	693	693	687	692	703	705	707	707	713	704	691	694	701	709	709	720	724	725	735	729	729	725	722	723	728	724	708	708	696	698	703	710	710	720	730	730	722	706	706	699	694	699
756	756	760	770	759	744	738	738	740	745	743	742	737	737	743	759	775	779	775	775	766	755	747	732	717	734	734	737	727	714	702	709	717	717	725	729	739	735	728	713	713	694	695	688	691	711	728	737	732	740	756	767	776	775	764	764	751	736	732	742	753	759	760	757	757	757	760	760	766	767	756	747	747	745	736	753	755	755	754	769	779	779	790	784	755	728	710	713	725	730	727	727	739	755	770	774	760	735	722	726	741	749	749	739	744	743	737	732	717	684	690	699	705	705	706	699	697	707	731	745	736	722	714	716	723	733	733	738	732	725	726	737	753	757	735	731	731	728	718	718	714	723	730	732	735	745	756	769	766	755	751	756	777	794	801	801	789	774	768	766	762	742	734	716	717	728	739	747	733	732	751	768	753	739	739	729	713	708	711	729	759	773	777	773	776	783	792	794	789	775	761	753	758	780	767	739	741	741	745	751	763	759	744	737	748	771	781	777	770	767	774	765	751	749	762	772	782	776	760	743	741	751	759	753	746	737	735	738	738	748	764	776	774	762	751	751	760	767	774	767	761	766	776	787	788	777	775	774	770	764	759	749	748	742	740	740	739	742	744	729	733	738	753	756	746	750	775	780	770	763	759	769	776	777	773	764	754	756	756	756	740	721	709	715	738	750	757	760	760	757	747	749	758	773	753	735	738	747	756	767	774	764	760	756	754	749	746	739	740	743	747	763	763	757	750	757	763	757	742	740	745	743	740	737	738	740	752	760	758	754	750	750	750	748	749	738	735	742	755	768	775	773	770	756	749	746	735	726	722	727	737	744	734	734	737	739	744	747	749	749	737	727	716	715	725	718	710	720	733	749	752	756	743	728	745	756	754	735	713	701	709	715	723	730	737	740	747	752	751	735	726	730	743	747	740	730	733	746	754	763	762	750	743	743	734	724	711	708	711	722	717	717	711	701	698	701	710	726	744	743	738	740	743	749	730	723	729	734	732	725	733	749	753	744	744	731	717	708	705	711	721	723	729	735	734	720	715	720	737	748	739	728	728	733	730	727	729	729	737	737	717	707	712	724	730	738	745	759	747	733	723	726	737	719	702	716	716	723	728	726	721	716	704	690	687	691	687	676	668	664	674	713	713	724	742	725	733	721	707	695	700	708	693	692	696	701	701	696	691	684	689	697	702	701	705	700	703	707	707	707	707	702	702	706	711	718	721	715	711	712	712	714	706	691	688	688	704	714	712	708	708	700	695	694	698	702	716	714	706	704	704	687	682	683	684	682	680	692	690	690	685	689	692	692	706	709	704	707	707	703	701	706	713	715	716	709	709	706	703	696	698	698	695	687	687	686	691	700	696	707	722	722	724	717	720	717	706	682	682	674	675	677	686	685	691	691	699	704	691	688	692	701	701	708	715	714	719	720	720	714	714	717	717	708	708	705	712	716	712	701	710	707	691	685	700	687	687	693	697	703
758	758	760	738	733	731	740	740	755	768	767	757	749	749	748	758	777	779	771	767	767	752	737	716	717	734	721	728	716	701	693	698	708	708	704	703	703	719	724	714	714	712	702	693	699	704	731	732	732	740	746	776	781	776	767	753	753	741	734	729	738	749	750	750	750	756	754	748	742	740	740	735	731	731	736	753	739	745	747	766	780	794	794	786	764	737	721	716	718	718	720	720	730	748	764	765	756	727	715	721	733	736	736	739	735	723	714	706	699	682	684	692	697	697	698	699	694	710	728	728	723	720	715	713	720	723	723	727	727	728	733	746	749	746	735	731	716	712	713	717	717	723	729	726	727	738	751	761	763	745	728	728	730	741	751	760	760	749	724	734	741	734	725	707	707	713	729	733	720	714	727	744	753	739	741	741	737	731	720	732	751	772	779	779	778	785	791	793	788	771	760	745	752	763	754	747	746	749	749	749	747	759	765	762	778	778	773	766	762	766	770	775	764	757	759	766	771	768	756	743	742	751	759	753	737	736	731	732	746	746	765	778	782	765	746	746	753	759	769	763	756	753	764	779	777	770	758	758	751	747	743	744	744	741	739	740	745	744	741	733	728	727	737	743	743	739	755	765	760	756	762	772	783	782	776	761	757	761	759	759	747	723	710	724	742	752	758	765	764	759	754	750	746	767	768	749	734	734	735	743	757	756	748	759	766	754	739	729	726	726	735	743	747	746	746	748	758	757	755	754	749	742	729	723	727	731	743	751	752	745	737	737	737	734	731	727	731	744	751	754	752	753	749	744	744	754	756	743	730	734	746	746	738	738	729	731	736	744	746	746	733	721	711	720	726	720	717	716	730	742	744	740	723	726	738	744	743	727	707	695	704	719	726	731	737	746	761	761	752	738	730	731	732	734	737	737	743	752	758	763	751	746	744	744	733	722	716	716	711	722	732	730	717	701	689	695	714	730	742	746	752	758	764	764	751	724	717	718	723	725	742	745	749	749	749	735	724	714	711	727	748	761	764	759	748	735	725	727	738	736	730	722	723	724	726	730	729	729	737	737	717	707	711	723	731	735	743	752	752	734	721	731	733	716	695	704	704	717	726	725	722	717	713	700	694	691	682	677	672	676	692	700	700	722	719	725	733	735	726	733	745	753	735	719	696	687	687	681	679	681	692	703	704	705	707	697	688	693	693	692	697	694	696	700	705	709	714	715	711	711	711	704	692	688	682	685	720	709	702	696	696	698	700	706	700	703	706	701	696	699	699	689	690	685	676	682	680	682	691	691	694	700	693	676	663	660	660	660	665	671	685	697	704	706	707	701	701	695	695	696	697	698	695	695	691	692	697	706	715	720	725	725	729	721	710	675	663	661	661	660	665	662	655	652	663	691	699	694	684	676	678	678	684	698	704	710	715	710	710	705	703	700	698	699	699	698	707	714	712	701	701	685	681	683	682	683	683	698	714	704
763	763	748	738	733	733	747	747	760	768	763	762	749	741	741	745	767	780	774	762	762	744	730	717	713	721	728	728	708	692	683	695	709	711	711	702	691	696	717	727	719	719	703	692	685	695	718	726	726	731	746	776	778	766	761	757	757	736	722	713	715	716	720	732	732	743	750	746	742	737	735	727	723	723	723	736	739	745	730	744	759	776	776	779	769	756	740	730	724	719	715	723	723	737	750	752	741	720	713	711	726	731	731	732	735	723	703	692	685	692	694	701	709	729	729	742	748	744	740	727	723	728	729	722	714	708	708	714	721	734	742	744	740	729	717	717	716	712	705	717	717	727	719	711	711	721	738	738	734	730	729	728	724	716	709	704	704	713	720	726	737	734	726	715	701	697	701	710	722	724	733	746	747	746	741	741	752	744	736	743	756	771	782	776	781	782	781	782	779	766	749	743	742	751	749	743	748	751	751	739	741	744	757	755	757	753	762	763	765	766	762	761	761	762	764	763	760	759	753	744	744	754	753	744	737	736	743	746	752	766	766	777	779	769	759	751	749	752	757	759	756	758	763	772	771	762	747	729	714	720	726	731	734	736	743	751	757	759	753	742	731	724	722	727	730	728	728	733	743	747	756	778	783	783	768	755	753	761	763	763	756	736	734	740	757	760	760	762	765	767	764	756	747	745	762	750	741	729	723	722	721	728	749	766	773	755	733	718	720	720	730	736	739	739	739	750	757	759	758	767	759	747	730	729	732	740	742	744	739	737	726	726	729	727	722	721	726	733	737	736	728	730	727	729	734	753	764	762	750	743	744	741	735	735	728	723	733	740	738	730	732	723	706	721	735	731	726	722	731	731	725	722	718	715	717	719	722	713	707	710	722	728	734	734	741	754	763	763	749	736	730	725	722	722	723	726	738	742	744	742	739	742	742	739	728	722	716	716	724	734	745	740	723	701	690	694	714	728	742	747	755	759	756	752	740	721	712	721	732	733	732	731	730	730	728	727	718	711	716	730	741	751	761	757	748	741	730	725	725	724	724	724	723	717	720	725	730	729	724	735	737	712	708	712	717	729	737	746	741	730	733	732	722	703	692	692	709	732	733	723	714	714	711	709	709	704	684	681	691	699	698	698	706	716	719	714	688	689	708	723	739	746	732	707	698	698	686	680	669	668	671	684	686	677	669	660	670	677	677	685	689	697	699	697	699	709	714	715	714	714	707	696	683	681	681	686	723	707	697	684	684	691	706	714	707	704	698	693	692	692	698	698	698	685	676	666	661	658	658	665	680	688	688	681	667	658	655	655	656	667	682	695	703	707	703	703	695	689	690	696	697	695	700	700	701	701	701	703	711	713	717	717	711	704	699	668	658	661	661	664	660	644	636	652	663	663	673	678	668	666	666	666	677	685	702	711	712	707	707	699	697	685	665	648	648	640	707	714	714	702	702	690	688	689	678	678	692	714	710	703
759	738	738	726	723	733	747	763	763	766	758	754	739	729	729	732	745	767	769	763	763	751	729	718	716	728	724	724	708	692	687	690	704	713	713	707	686	684	708	723	723	723	702	697	699	702	709	715	715	726	744	769	778	766	746	740	740	731	719	708	705	700	705	713	726	726	739	745	743	735	733	723	713	713	710	721	724	719	730	744	730	738	738	755	764	768	757	749	736	721	711	713	713	732	735	735	723	714	702	707	720	724	724	724	723	714	703	692	694	704	710	714	722	737	737	756	765	759	751	733	719	722	720	718	707	704	708	708	721	731	736	734	725	715	709	703	701	705	705	717	710	710	700	701	712	742	742	733	727	728	733	732	722	709	701	702	711	711	730	741	742	742	747	741	718	707	708	713	722	731	736	745	755	759	759	752	752	744	751	748	756	758	770	763	763	767	770	769	767	755	741	738	745	750	744	738	730	728	732	732	734	744	752	754	746	751	756	761	763	759	752	752	750	759	771	771	761	755	749	745	759	750	743	734	737	741	743	746	752	770	770	775	769	758	755	750	751	745	749	751	759	761	767	758	759	749	733	715	707	711	714	717	722	730	743	757	763	763	759	751	742	723	713	718	715	715	709	705	704	716	750	769	770	768	746	735	736	748	758	759	759	744	741	753	763	758	747	742	756	764	766	756	743	736	744	742	732	725	717	717	712	720	738	757	726	712	708	708	715	721	726	733	733	729	733	750	755	759	769	775	767	746	735	734	738	735	746	736	723	713	710	720	726	722	719	721	723	716	715	720	718	712	715	713	723	748	760	751	740	727	734	731	731	728	727	728	732	747	732	725	722	709	708	699	698	715	728	729	714	702	708	708	710	706	701	702	704	709	724	729	736	741	741	738	743	750	758	759	750	731	723	715	709	707	711	719	727	726	723	719	723	728	742	739	728	718	717	715	722	736	745	733	726	711	704	703	712	725	743	746	746	738	735	735	723	712	709	724	736	737	729	723	720	720	715	709	703	704	715	725	728	730	732	737	730	730	719	712	712	711	723	733	730	723	720	725	725	726	722	720	720	728	729	721	719	719	720	723	722	730	742	733	716	696	695	695	710	726	727	720	713	710	708	705	707	722	724	715	711	705	704	704	706	716	711	696	671	683	702	714	723	724	716	707	698	698	689	682	667	664	670	665	655	649	653	661	668	668	674	683	687	695	705	697	699	705	706	711	712	712	703	691	684	678	677	692	701	706	682	682	686	694	707	718	718	707	692	688	687	687	696	698	698	686	674	666	660	661	661	669	680	689	689	683	671	660	652	652	649	658	675	685	692	700	696	696	689	689	690	675	686	692	695	695	699	697	693	698	697	697	697	696	691	672	676	680	665	665	662	661	653	644	636	637	637	648	664	670	663	659	658	658	663	676	697	706	708	708	707	702	692	676	666	666	648	640	656	678	697	697	708	701	682	665	676	676	692	703	704	699
739	726	726	710	720	742	758	763	763	761	761	740	727	711	711	716	731	747	731	749	746	746	728	725	729	739	738	738	721	695	687	690	705	724	724	714	682	665	676	700	719	719	724	718	720	717	718	716	720	720	735	746	746	746	746	740	734	734	723	720	709	699	699	707	718	718	723	732	734	730	726	718	710	700	700	698	701	708	714	727	730	738	726	726	740	750	754	750	737	725	715	717	724	724	728	722	714	711	704	700	708	707	710	710	719	720	711	699	694	704	714	717	722	737	750	750	760	762	756	741	718	715	714	717	716	706	700	700	707	711	711	710	710	709	703	703	702	699	709	716	710	710	701	702	726	748	745	736	730	732	734	730	715	699	694	711	737	737	755	753	745	749	752	736	709	705	708	717	729	734	741	746	754	758	769	768	768	759	751	748	735	737	744	749	740	748	753	755	741	742	741	738	749	752	743	740	738	741	745	745	749	750	748	738	741	748	751	746	737	732	737	743	744	755	761	766	757	754	754	763	759	744	732	734	741	746	758	763	767	770	775	775	757	750	744	750	752	749	745	752	763	769	761	753	743	741	732	721	704	702	706	711	716	728	736	747	754	754	750	747	747	750	755	752	741	718	697	687	693	706	739	760	762	757	728	721	725	738	752	751	751	743	743	749	757	750	740	727	735	752	756	748	736	730	732	734	733	723	721	716	714	721	729	723	709	702	702	705	715	723	731	736	737	725	728	734	747	758	769	776	767	746	736	728	730	735	740	736	719	699	696	711	714	722	718	720	713	710	711	709	715	713	711	708	713	732	740	733	727	723	725	723	723	720	728	735	744	753	740	725	717	710	699	688	682	691	693	691	686	679	682	693	703	704	705	706	714	717	724	733	741	746	742	734	730	736	748	750	744	734	721	708	702	701	710	717	729	722	720	718	723	723	728	724	717	712	706	702	699	701	707	715	719	720	715	710	715	721	740	745	740	729	718	714	708	702	708	725	738	739	724	715	715	711	702	698	691	693	706	714	711	706	711	719	716	708	703	699	695	689	695	729	730	723	715	712	712	710	711	710	715	724	722	718	713	698	691	686	693	710	725	724	710	693	693	688	697	713	715	713	710	705	705	700	704	705	706	702	704	705	705	704	705	708	706	694	680	683	695	688	670	656	657	676	676	692	691	678	667	653	658	655	650	648	657	666	676	676	683	681	681	681	705	706	708	709	709	712	712	713	702	693	685	680	679	675	674	678	676	676	676	683	697	707	707	700	688	683	683	683	696	703	702	687	675	669	668	669	669	672	683	688	687	686	682	674	674	675	679	667	658	671	679	679	679	696	689	681	660	660	675	680	680	685	681	678	676	681	680	680	680	678	667	648	655	666	666	666	655	661	653	640	637	638	638	649	662	668	665	655	651	651	658	674	695	708	713	713	710	704	692	681	666	666	654	653	655	656	661	661	659	653	646	649	662	662	680	691	695	691
710	695	695	696	717	741	755	768	768	761	761	731	719	712	712	721	721	708	711	714	724	724	717	719	733	755	752	729	729	710	693	692	705	724	720	704	675	659	666	696	716	732	732	730	735	733	732	717	718	718	719	716	721	722	727	732	734	734	733	730	718	715	711	712	714	714	712	715	721	726	724	716	695	687	687	684	691	697	703	704	700	701	726	683	711	728	738	736	733	728	726	726	727	727	723	720	716	718	713	705	694	690	693	693	710	721	715	708	706	708	714	717	720	729	738	738	753	755	754	744	729	725	723	722	715	708	701	697	697	700	700	697	706	708	707	711	717	723	726	723	707	701	701	702	736	745	747	730	731	731	734	725	706	696	696	721	740	754	754	747	744	744	746	730	708	703	714	721	729	736	740	741	740	747	753	756	758	758	748	734	735	737	733	721	704	701	711	726	739	738	743	741	750	743	740	737	739	742	748	754	754	758	758	747	730	712	696	702	716	723	728	736	742	752	758	758	756	749	753	755	746	726	721	728	743	754	765	776	777	769	765	765	757	750	744	748	754	751	732	727	736	757	752	733	731	733	729	720	709	709	703	712	717	726	735	742	743	734	723	718	727	740	752	759	755	743	709	696	687	699	726	746	752	738	720	713	727	742	748	744	744	732	731	741	735	727	721	714	720	740	741	738	733	731	733	734	734	727	726	722	722	730	726	710	702	706	707	718	724	731	739	747	736	735	736	745	754	759	757	762	757	742	733	725	723	727	732	727	709	699	699	703	702	707	711	715	713	704	710	714	719	720	711	702	707	710	723	725	717	717	711	711	713	716	734	751	754	754	738	725	719	720	707	697	691	692	700	697	690	684	688	693	708	713	713	717	721	724	718	722	734	740	741	731	716	708	723	735	720	721	720	702	697	707	720	730	738	722	720	718	718	718	719	722	713	711	704	696	684	681	688	703	718	725	727	728	715	716	720	717	719	717	711	708	693	699	715	724	725	718	709	706	706	699	698	691	688	689	701	706	704	707	715	727	731	719	700	686	689	689	695	729	727	718	707	707	704	699	697	699	708	717	724	721	717	710	701	692	686	693	698	707	705	692	692	682	674	678	681	681	679	680	684	691	699	697	694	694	704	705	705	700	703	704	700	692	686	691	706	708	698	682	673	673	673	670	668	659	651	640	642	651	656	654	661	671	671	681	681	678	681	681	694	700	711	713	713	712	712	707	699	692	684	682	680	679	684	689	689	685	674	676	685	697	695	687	674	672	683	683	682	690	692	683	678	678	683	683	685	683	683	690	692	689	694	691	691	693	685	670	659	657	657	679	679	679	680	671	649	649	664	674	674	669	663	660	665	663	669	668	668	664	655	646	648	657	663	666	655	641	631	629	632	642	642	657	667	669	661	651	651	652	664	693	709	712	716	716	713	708	692	681	672	672	670	675	669	667	659	659	655	645	640	641	656	656	668	681	682	681
691	678	681	681	694	719	745	760	761	761	756	731	719	718	726	726	720	707	701	710	709	709	704	709	720	747	751	733	733	721	719	720	719	720	704	704	676	662	672	697	713	731	731	733	735	737	733	716	705	705	698	693	694	703	714	721	731	731	733	730	721	719	718	717	715	706	706	706	706	715	716	714	699	682	682	678	681	690	694	690	678	670	683	683	711	687	691	704	721	731	734	735	726	726	722	723	729	731	730	715	699	687	689	705	705	712	708	709	711	708	709	717	720	729	724	724	733	732	730	724	723	726	727	725	713	702	693	690	690	689	692	695	706	711	719	717	731	741	741	740	721	712	712	721	736	745	738	722	718	719	720	710	704	694	702	718	731	741	741	742	743	740	738	721	709	706	714	722	724	730	732	728	724	724	730	731	734	734	727	725	729	736	733	721	719	699	700	717	725	738	744	741	737	735	731	727	728	736	747	757	757	751	744	729	711	696	692	697	714	718	722	727	737	740	747	743	741	736	744	743	728	709	705	716	735	749	765	777	776	766	759	751	751	741	741	748	754	751	711	711	716	726	726	715	710	714	715	713	711	708	706	709	716	723	730	728	724	713	701	705	710	724	737	745	743	742	740	734	732	733	743	754	747	727	705	703	717	729	736	715	704	704	715	717	716	705	696	692	698	701	710	722	733	741	736	735	731	723	726	724	728	730	726	713	712	724	731	729	725	732	736	739	736	737	742	752	761	761	756	748	744	734	723	720	714	723	725	721	702	691	694	695	691	692	703	711	712	706	709	714	715	714	709	708	704	706	716	721	717	712	708	708	705	726	740	751	751	743	728	717	714	715	716	707	698	699	710	711	703	695	696	698	704	716	717	724	723	722	713	720	725	727	731	733	729	712	706	713	717	713	698	682	678	701	720	730	738	733	725	717	717	722	724	718	713	712	703	697	693	681	685	699	717	728	730	723	716	707	704	707	709	718	734	744	733	725	718	715	715	712	700	700	694	694	693	690	687	691	696	703	699	702	714	726	730	712	693	678	689	689	686	690	711	711	700	700	692	688	691	696	706	714	716	716	713	709	701	692	682	681	689	699	699	699	688	677	670	672	672	673	673	673	677	686	694	693	694	694	696	696	693	691	689	681	680	687	686	693	703	708	710	711	703	703	701	704	709	704	687	663	664	676	692	701	698	680	680	663	681	678	668	674	683	689	692	703	709	708	708	700	695	691	687	683	682	691	698	697	697	690	679	680	677	681	685	677	674	672	672	672	669	674	687	679	681	687	690	690	690	690	691	695	693	693	691	692	692	684	677	657	649	649	657	659	659	656	662	660	657	646	643	643	643	649	651	652	655	661	662	662	658	665	678	671	654	657	657	663	661	650	646	634	633	633	643	654	667	670	657	649	649	653	670	686	700	698	698	697	713	708	699	699	693	693	687	687	687	677	672	672	665	650	641	643	643	654	666	673	675	681
701	694	683	683	694	704	728	749	757	757	742	727	719	718	726	725	722	717	713	711	711	711	711	724	747	744	736	723	723	720	740	743	732	712	696	696	676	662	688	700	699	702	702	711	714	720	717	700	688	686	686	677	679	688	698	715	729	732	732	728	721	711	713	714	714	701	701	695	694	702	708	708	694	676	668	668	677	691	697	684	664	644	652	673	673	687	691	689	705	732	738	731	727	724	724	730	736	738	734	720	712	695	675	667	667	678	696	706	708	704	705	705	713	719	724	683	683	691	693	695	704	716	724	715	701	689	680	684	684	681	684	691	706	715	720	721	731	748	756	754	741	729	733	733	743	749	738	713	704	707	702	700	690	695	705	715	715	729	733	733	729	717	723	718	710	707	712	716	717	722	729	723	719	715	712	717	722	728	728	726	718	725	728	721	719	699	707	713	723	737	746	741	730	731	732	727	723	742	754	764	757	757	744	723	700	692	692	705	710	719	714	708	708	712	722	727	724	719	712	718	700	693	694	708	719	734	751	762	767	764	754	745	745	736	737	739	749	728	711	711	716	700	708	707	700	696	703	709	714	712	703	700	715	723	726	721	711	700	695	695	700	711	723	732	729	731	734	745	750	750	745	739	733	717	705	703	704	698	694	695	700	700	710	713	706	700	708	704	697	695	705	718	726	722	714	711	714	722	724	723	723	725	722	724	728	736	740	735	728	727	730	730	734	736	738	738	750	750	741	728	720	714	720	707	714	723	724	718	694	684	689	691	689	692	704	709	707	701	697	694	698	702	709	710	721	720	726	731	722	714	708	708	719	731	736	740	737	731	724	713	711	713	711	708	699	699	704	711	712	711	706	696	696	708	715	711	713	714	713	718	716	719	724	737	735	722	701	698	705	696	698	682	678	701	718	735	738	731	722	722	718	721	713	705	700	706	717	721	709	694	687	693	709	713	722	714	710	704	704	700	699	711	722	735	723	716	709	706	707	702	686	686	686	685	685	683	689	688	693	689	688	691	683	686	712	712	693	678	677	686	692	691	687	699	699	702	703	705	704	692	697	708	708	706	704	699	696	679	670	664	671	681	686	686	685	672	668	669	671	674	672	670	679	688	694	693	686	682	679	679	676	671	649	655	666	670	669	677	692	703	702	703	696	696	685	688	698	705	707	690	685	688	703	720	722	705	680	663	667	671	672	679	677	677	676	685	696	696	696	690	690	690	689	689	683	687	697	700	700	693	685	681	679	675	685	677	667	663	663	660	663	669	676	682	685	679	676	676	683	691	704	703	696	687	687	687	686	679	663	647	649	649	653	656	656	656	651	651	651	649	649	650	650	659	659	659	659	658	658	658	653	665	682	687	654	653	653	662	666	664	660	651	649	649	647	654	653	651	646	641	641	653	664	681	688	690	698	697	703	704	707	705	705	694	690	681	666	667	667	676	680	673	663	654	654	655	666	673	675	676
727	719	711	711	692	694	716	744	745	745	745	731	725	726	725	725	722	696	692	714	726	735	735	740	753	748	729	714	714	721	738	746	732	713	698	698	686	686	688	709	695	687	688	688	707	721	722	703	689	682	682	682	680	688	700	711	723	725	725	715	714	711	713	704	708	703	703	691	684	689	695	697	680	660	655	655	672	696	717	709	687	648	643	659	659	674	675	689	705	712	722	721	717	718	718	723	732	729	727	720	715	697	676	661	661	661	674	691	700	698	697	696	694	690	676	683	683	676	673	677	688	698	706	700	683	675	677	683	683	683	683	688	698	711	717	715	724	744	755	752	742	737	743	743	743	740	727	713	704	687	680	678	675	683	702	711	714	713	718	718	715	706	703	712	711	711	710	711	708	718	718	721	717	715	711	714	717	718	718	720	715	716	712	717	717	715	707	713	720	726	740	730	728	726	732	723	723	737	764	772	767	767	742	708	694	689	695	703	707	713	711	707	709	712	724	728	726	711	695	686	683	685	691	697	705	713	725	746	754	759	755	750	732	732	736	741	734	712	698	692	698	700	708	707	700	687	694	705	712	706	697	705	721	726	724	717	706	700	697	707	711	714	717	725	725	722	725	734	750	750	739	732	720	710	701	700	700	697	690	691	700	704	704	701	692	698	707	710	705	705	705	713	704	699	694	694	699	711	716	713	717	717	709	712	721	727	722	731	724	725	726	723	725	719	725	719	729	734	718	709	708	702	699	701	709	718	715	716	700	685	689	691	695	696	704	702	686	683	692	705	708	707	710	708	706	712	719	722	720	710	710	711	717	726	725	728	726	726	724	718	708	708	704	703	700	695	699	711	719	721	714	704	696	696	702	702	703	708	712	711	706	697	693	706	707	696	681	698	705	696	682	665	662	676	694	722	728	722	702	702	698	699	705	704	702	708	720	723	721	704	684	684	687	705	705	706	706	709	701	696	696	704	712	702	705	700	683	676	667	664	664	670	681	693	688	683	687	688	687	681	676	676	673	686	712	698	686	678	677	685	700	692	690	698	698	707	711	709	709	686	675	685	687	693	690	688	679	669	657	658	663	669	669	669	669	667	662	675	683	689	686	679	679	688	691	687	677	672	666	666	659	654	655	656	659	661	663	669	678	682	679	679	672	672	673	680	684	689	700	707	704	697	692	693	722	722	705	681	671	678	679	677	670	670	666	672	679	679	684	682	682	680	680	677	682	690	686	686	682	682	681	675	679	675	683	677	666	666	660	654	658	667	678	685	680	671	671	667	673	680	689	685	679	677	678	678	676	670	663	647	640	639	647	647	655	652	649	642	649	648	646	646	651	656	654	649	644	643	648	648	656	666	682	687	671	657	657	662	667	667	659	652	651	651	653	651	638	637	637	637	644	645	662	674	688	690	690	688	687	689	690	688	688	679	678	674	657	660	660	674	688	685	671	656	656	655	666	672	669	672
737	728	713	713	693	684	703	733	745	745	747	751	737	729	726	705	705	696	692	706	722	730	730	736	736	728	706	689	706	706	725	726	726	715	715	714	714	712	712	709	695	691	688	688	700	707	707	699	689	684	684	683	685	701	712	716	721	722	722	711	706	705	705	704	708	700	693	693	680	675	674	674	669	656	659	659	676	702	713	717	691	672	667	678	682	682	687	689	702	712	722	708	705	703	703	704	708	706	708	711	715	702	680	663	664	664	668	681	691	693	697	696	693	681	672	675	676	676	673	676	681	690	690	692	685	683	684	689	694	694	690	689	692	705	712	713	716	725	725	725	728	728	727	727	724	723	716	701	693	687	680	659	655	669	690	703	707	711	717	711	711	703	698	700	706	709	711	709	714	716	719	720	719	715	713	708	702	704	705	705	710	705	701	705	711	720	726	714	720	726	740	718	722	741	746	737	722	724	734	749	745	714	714	703	690	686	689	702	707	710	712	718	718	716	723	726	715	704	690	693	707	718	709	692	683	696	719	731	734	738	750	738	737	737	739	737	725	706	688	685	688	703	709	706	698	687	694	705	693	692	695	708	720	727	724	710	698	696	701	711	718	715	713	717	717	716	719	727	742	727	715	706	708	706	704	701	698	695	696	693	694	696	696	688	688	700	710	717	716	717	709	700	690	684	680	684	690	697	699	688	683	682	686	693	702	712	715	709	714	712	712	707	707	707	706	697	694	709	708	708	706	696	693	693	704	712	710	712	700	696	702	698	698	700	701	684	676	684	701	711	714	710	708	703	701	699	703	707	704	705	705	709	719	722	718	713	718	722	723	718	704	701	700	699	697	691	693	700	721	728	719	704	695	685	688	696	697	702	704	695	690	687	685	680	707	696	681	683	685	680	673	666	662	668	678	701	711	706	706	701	694	703	710	708	705	712	720	727	717	691	678	683	688	690	693	702	708	699	679	680	674	672	667	670	680	680	680	683	685	678	678	682	695	702	701	683	680	682	681	674	670	676	673	666	680	687	685	685	685	690	700	694	693	693	696	706	708	708	690	661	658	671	676	684	689	682	672	662	654	656	664	667	667	667	660	660	666	674	673	671	686	679	682	689	689	683	672	663	663	656	653	656	657	661	660	654	658	664	673	675	670	668	668	670	673	673	675	676	685	693	692	678	692	693	707	707	706	700	697	693	686	673	662	653	653	664	664	673	674	673	672	668	664	664	668	677	680	680	671	668	681	675	667	668	675	677	668	668	660	653	653	655	658	641	637	647	647	649	652	665	662	668	665	664	663	663	676	670	665	645	636	630	636	636	647	650	645	634	630	641	652	652	661	659	649	648	647	649	649	656	656	666	670	667	657	651	651	655	660	654	645	642	642	651	656	651	639	631	640	640	646	656	662	674	680	680	680	674	666	659	653	660	660	667	668	667	654	650	650	658	674	674	665	656	656	648	647	649	655	655
725	718	699	680	680	676	698	717	740	749	749	751	747	733	725	707	707	687	690	706	722	713	713	703	693	676	658	655	686	686	701	708	710	711	720	722	722	719	718	713	700	691	688	684	689	691	698	688	689	680	681	681	691	711	726	730	723	715	712	712	710	706	693	694	698	700	693	699	675	661	665	668	673	665	665	680	680	701	710	711	691	687	682	684	687	687	698	700	701	701	705	708	705	691	683	683	681	682	689	690	685	682	680	662	654	654	656	666	674	683	687	694	693	692	677	678	681	681	671	676	681	696	698	694	697	695	692	692	696	690	690	683	686	699	707	703	707	711	714	716	715	710	698	697	697	700	700	697	687	682	671	659	655	658	676	693	707	707	705	707	707	707	701	698	697	701	708	714	715	720	722	721	720	721	715	701	694	691	695	695	707	705	697	696	697	711	724	732	721	708	718	718	722	711	716	712	709	703	696	690	694	703	699	699	691	690	698	705	713	715	714	714	719	718	713	711	709	695	683	685	705	725	727	714	697	700	709	700	687	696	715	726	732	740	740	737	727	704	687	685	692	705	713	710	699	687	683	683	693	692	695	708	723	727	720	694	680	690	695	708	713	707	705	701	701	696	697	701	700	693	692	708	711	712	712	708	704	706	705	701	699	691	691	685	688	697	711	722	725	716	708	692	680	675	676	693	701	693	686	688	686	677	680	684	697	708	709	708	698	696	692	691	692	694	707	700	688	690	694	712	713	700	691	687	695	704	712	704	713	713	696	695	702	693	682	675	672	679	696	713	715	709	703	698	687	689	684	681	690	690	701	708	709	690	681	686	698	707	712	713	712	704	710	710	701	695	697	701	705	713	707	702	687	680	682	686	694	698	699	693	690	687	685	680	669	661	654	655	657	666	669	666	665	666	673	688	704	705	705	702	705	716	718	712	715	715	704	692	678	670	664	661	664	670	670	671	670	659	642	649	669	674	681	685	686	686	687	694	697	697	692	683	693	704	692	678	671	677	679	674	670	667	664	656	662	682	688	689	689	695	697	695	695	695	701	708	704	688	671	658	655	659	664	674	681	672	663	657	658	657	667	667	664	663	665	669	674	673	673	671	672	680	683	687	687	677	666	665	665	662	663	660	664	664	669	658	656	661	667	667	666	660	660	662	670	669	669	671	682	686	692	678	669	676	676	679	686	681	688	687	675	656	650	649	651	659	659	666	670	674	668	659	653	651	658	663	667	667	669	668	668	666	662	661	663	664	664	666	660	656	654	648	637	631	629	640	640	650	649	649	652	663	666	656	664	663	659	663	665	664	636	635	639	639	642	640	629	629	634	648	661	661	667	663	654	646	643	651	649	656	665	666	662	655	645	645	644	643	649	643	635	641	641	651	654	650	639	633	640	640	646	656	663	674	673	673	670	659	652	645	647	647	653	660	664	663	655	655	645	640	653	656	665	665	655	645	640	641	645	645
