809	808	810	808	813	813	817	807	786	776	775	775	790	791	786	770	763	754	754	752	750	757	764	780	780	802	807	795	778	779	785	785	793	788	773	749	731	711	711	741	766	777	776	769	776	795	795	797	794	796	804	816	810	810	796	788	780	784	781	783	789	794	794	776	764	758	764	786	806	794	794	764	744	753	775	780	773	757	758	758	771	774	763	755	753	750	741	736	733	733	739	755	782	790	793	793	794	802	811	811	810	798	797	796	804	818	810	798	788	783	774	774	770	779	781	775	757	744	737	734	740	745	752	748	762	774	777	782	786	785	780	774	776	773	787	798	808	808	812	799	774	749	739	744	759	781	798	796	794	778	774	774	782	782	802	807	800	784	790	809	794	794	800	810	809	798	809	810	805	792	777	777	768	784	816	822	817	806	788	788	788	797	800	806	801	797	787	783	781	786	792	798	783	768	768	755	744	767	809	811	805	799	786	786	785	787	787	775	775	777	770	767	766	769	778	795	798	797	791	784	781	788	794	797	808	808	805	801	793	801	817	813	805	808	802	792	793	803	819	823	828	819	807	797	797	799	794	785	769	758	768	781	809	817	819	803	791	780	765	749	750	769	785	787	797	802	809	809	805	799	787	774	768	769	772	781	781	780	770	766	768	782	808	812	806	799	798	803	811	806	803	796	797	796	786	793	788	790	806	817	838	844	836	822	809	796	781	767	767	773	780	779	779	775	774	769	772	787	796	799	803	813	812	797	781	770	773	783	800	821	823	813	793	783	784	785	791	796	800	801	794	791	791	789	781	781	780	779	769	766	771	773	769	764	766	774	774	785	792	782	763	753	753	761	770	772	777	782	777	763	768	788	790	788	781	784	791	805	800	797	803	798	785	772	769	765	764	767	787	801	813	808	796	778	756	756	764	763	757	758	760	765	762	773	782	805	804	804	786	780	779	784	785	776	759	760	762	759	748	741	729	726	732	740	743	767	782	781	778	772	768	765	772	771	765	752	750	743	743	742	745	748	746	738	735	736	753	752	755	753	747	736	743	760	775	770	757	741	734	728	728	736	732	727	732	740	734	732	735	739	737	729	738	742	747	747	748	754	763	763	770	774	769	757	749	738	733	732	730	726	723	722	711	708	704	704	714	733	744	749	753	756	751	743	731	717	719	727	747	762	755	749	735	728	729	734	724	710	708	701	697	697	696	702	729	749	764	760	758	752	743	740	740	742	747	747	751	743	736	732	717	706	706	701	689	681	668	667	686	692	700	703	703	714	719	714	710	702	701	711	725	725	762	768	763	752	747	741	703	718	718	721	713	713	712	722	727	728	728	726	721	718	732	740	745	730	730	713	693	689	696	713	723	723	730	719	693	678	690	706	706	709	703	709	726	737	739	739	734	718	688	677	682	682	698	718	719	711	705	694	694	692	690	690	697	706	706	716	734	741	729	717	717	708	724	736	750	755	755	749
819	820	825	820	825	808	808	801	787	769	778	783	783	791	786	767	757	746	746	741	741	751	759	775	798	798	803	775	755	761	779	793	793	798	773	747	717	711	741	749	776	781	774	756	763	776	776	787	798	794	803	811	809	806	806	798	788	794	790	793	795	790	790	776	764	761	756	769	777	770	746	746	736	749	766	780	775	764	755	771	771	783	760	752	745	741	732	729	734	734	754	769	782	784	782	761	738	738	750	768	768	770	774	781	795	804	796	777	773	778	772	772	770	766	763	755	743	731	728	730	733	741	748	762	762	748	757	766	766	760	752	755	759	761	773	781	786	786	790	784	761	742	726	727	738	763	775	775	767	764	765	778	784	784	800	800	797	786	787	792	794	794	785	801	807	793	790	790	795	787	776	771	771	782	808	827	822	809	796	793	797	797	805	810	811	803	793	787	786	788	786	787	778	770	762	762	759	765	785	807	798	786	775	775	785	791	787	775	775	776	767	763	761	764	766	770	781	782	782	780	779	785	779	771	767	774	774	776	775	788	814	837	832	804	785	773	772	781	799	805	819	814	801	791	782	785	786	779	762	750	757	775	794	806	800	793	784	768	758	753	761	778	785	788	789	785	784	788	794	796	781	769	759	765	772	778	778	771	765	764	759	758	759	764	758	769	792	799	801	800	789	788	788	796	788	795	801	793	796	807	824	830	823	807	797	785	779	774	770	776	779	782	774	766	759	752	749	761	778	778	787	799	797	793	785	777	780	789	798	807	810	796	782	775	774	774	775	772	763	762	770	780	786	782	772	766	768	779	773	771	776	777	764	752	751	767	767	787	787	776	759	755	752	761	778	789	797	795	773	755	751	764	770	761	751	739	753	766	774	773	784	810	827	809	781	761	753	758	779	798	804	795	786	764	750	754	763	759	753	747	749	752	753	749	760	780	780	813	797	790	798	801	798	781	766	766	762	751	734	728	724	729	732	740	743	753	771	781	780	767	756	751	757	763	750	740	731	731	736	739	742	747	747	742	747	749	744	737	741	743	738	731	738	750	769	762	745	723	717	722	722	727	734	728	721	720	718	723	724	724	737	729	732	734	737	734	727	732	732	751	764	775	771	763	753	741	728	719	715	713	714	715	706	698	698	697	704	706	711	720	736	748	747	735	721	706	696	727	727	725	726	720	702	695	700	711	715	709	704	705	705	701	705	707	713	733	743	743	742	738	736	735	735	740	754	757	757	748	736	732	719	709	709	704	696	689	686	688	700	716	724	724	724	724	718	706	691	685	683	671	673	673	675	685	697	714	747	741	743	743	743	743	731	715	705	706	715	729	729	725	717	718	730	736	736	736	720	701	681	687	701	718	723	723	718	692	673	673	686	702	702	711	699	693	710	737	750	750	758	745	703	675	685	685	710	726	719	711	705	705	702	699	695	693	691	696	696	710	709	699	699	703	703	698	700	713	736	736	745	749
808	819	827	835	843	838	838	827	801	779	773	786	786	782	777	767	757	751	751	752	743	741	754	770	794	794	786	762	748	747	762	782	782	788	780	758	731	724	749	749	776	770	764	753	755	771	771	787	789	789	793	791	802	801	801	789	787	787	790	796	799	793	793	782	771	761	756	752	758	744	724	724	729	743	770	769	754	732	756	767	767	775	774	773	776	763	742	726	731	750	750	775	780	784	782	746	735	740	749	759	759	759	766	765	777	782	774	764	760	762	756	756	747	751	748	742	733	728	725	732	734	741	745	753	753	748	757	752	750	738	733	732	743	750	759	752	755	754	754	751	746	725	717	722	727	740	763	762	753	747	759	767	784	801	801	807	805	786	770	760	763	769	785	801	814	807	787	784	786	786	777	767	767	771	774	799	815	814	807	805	801	803	802	804	811	805	795	791	790	790	773	769	774	777	781	781	778	781	797	804	797	782	774	780	793	806	792	785	779	776	767	765	766	771	766	766	763	761	777	781	788	777	768	767	762	756	756	755	766	779	786	790	796	788	770	758	754	764	777	785	787	789	789	777	764	766	765	769	763	747	752	770	781	785	791	790	773	762	752	759	776	786	785	784	774	764	769	780	786	793	779	767	763	769	777	781	781	776	767	765	756	749	745	743	742	744	755	770	776	774	779	782	788	793	790	778	773	766	767	779	798	810	806	793	783	777	782	785	787	790	791	791	784	776	757	754	746	755	755	763	779	783	785	788	790	788	784	784	790	792	787	775	764	756	762	770	775	772	762	757	758	762	771	772	767	761	769	775	777	782	780	775	770	757	764	764	766	772	761	762	753	749	749	761	778	782	789	790	803	799	775	760	750	744	743	743	733	727	728	730	740	745	800	823	807	789	776	771	782	777	778	772	763	754	749	761	762	749	741	736	724	723	728	745	745	763	763	769	770	769	781	785	778	771	771	766	753	743	724	717	724	729	732	737	738	754	765	775	774	765	751	744	738	739	736	734	734	728	736	741	749	749	747	745	757	759	745	731	720	725	727	726	728	729	736	727	708	700	704	704	717	727	727	722	702	692	702	743	724	724	717	723	722	724	729	724	715	715	715	729	749	772	778	768	763	749	732	714	706	706	705	701	695	684	684	685	698	702	710	713	725	736	735	723	708	706	696	702	702	712	715	706	693	693	697	705	711	704	694	701	701	707	713	723	720	706	700	694	694	699	709	709	720	725	732	742	757	748	744	730	716	709	709	709	705	704	709	720	730	729	726	726	732	731	717	697	687	696	707	716	716	700	675	673	697	714	729	739	736	736	734	733	726	712	701	703	708	708	715	731	715	713	724	729	730	730	719	701	698	707	701	718	718	723	708	688	675	684	704	704	712	700	686	682	688	706	706	729	728	724	713	693	701	701	710	726	728	724	718	718	705	701	700	695	705	705	712	712	701	685	685	685	682	680	680	693	714	736	745	745
792	802	822	848	864	858	858	840	804	782	779	782	782	781	770	762	755	751	752	757	751	751	762	772	789	789	780	757	741	737	746	758	758	766	769	765	748	745	759	759	770	770	764	743	746	757	780	780	785	771	763	773	777	783	783	779	769	772	790	801	802	796	786	786	773	763	756	752	758	724	713	713	710	741	756	735	723	730	750	767	767	773	771	777	782	771	749	732	735	765	765	784	781	777	756	746	735	752	760	759	753	753	751	756	763	764	752	752	749	741	734	731	731	736	741	742	737	733	732	733	739	742	746	744	744	743	747	752	750	729	716	717	733	747	748	733	724	722	722	730	727	710	696	704	717	728	752	756	740	728	740	757	770	775	775	777	779	768	760	751	749	756	768	789	814	807	788	781	785	790	783	772	760	760	767	785	806	813	810	812	807	802	799	799	806	798	789	791	790	772	762	761	768	787	795	800	800	796	797	791	785	779	773	780	802	812	802	786	776	772	766	765	766	771	772	764	759	759	770	776	782	780	774	770	769	773	774	774	776	771	770	771	780	769	763	758	750	756	766	770	769	771	773	765	756	742	746	743	747	745	746	754	762	767	779	785	775	761	759	768	781	786	787	780	770	759	765	775	783	789	786	774	770	779	778	783	770	770	765	760	748	746	747	746	739	742	752	764	766	769	773	780	785	784	780	774	769	758	755	769	780	790	793	787	777	777	784	796	801	798	800	798	804	802	798	781	764	759	757	765	768	777	784	790	794	788	780	776	776	777	772	763	756	749	752	765	772	771	766	754	751	756	764	768	762	752	758	770	774	782	782	778	770	766	761	761	756	751	746	753	757	747	745	749	751	766	777	782	773	761	753	740	733	734	738	745	745	736	728	719	706	704	706	731	742	745	753	753	756	750	744	740	739	739	749	754	738	728	719	713	708	713	745	745	749	749	747	747	753	760	763	766	767	772	772	762	754	738	724	717	721	727	731	731	738	750	763	767	766	759	748	737	727	716	719	722	722	725	733	744	749	749	743	746	755	758	748	729	719	710	715	719	726	734	730	721	707	700	708	708	720	723	715	712	705	707	702	743	735	733	727	730	722	718	719	716	706	706	700	716	737	758	770	765	755	734	724	718	706	703	695	692	685	685	676	679	699	713	711	715	713	716	714	723	708	695	685	685	693	701	705	703	696	691	701	708	712	700	692	695	695	706	719	726	719	704	686	684	692	698	712	712	710	691	732	742	734	727	738	727	713	713	707	701	698	698	704	706	717	721	721	721	727	727	721	710	698	699	709	726	726	729	675	673	684	697	721	734	733	733	725	713	706	699	698	699	702	702	711	718	722	722	724	726	720	720	710	711	698	707	720	724	724	726	710	692	683	688	699	699	703	697	689	686	686	695	695	706	714	717	715	722	736	701	721	731	734	728	713	713	698	682	686	704	715	715	715	704	685	669	667	667	657	659	670	693	714	714	727	730
768	787	817	838	845	849	849	832	804	788	784	779	780	780	767	755	761	759	757	757	751	759	768	779	784	767	767	756	734	727	723	731	731	738	752	757	759	758	753	746	746	742	741	743	746	746	761	761	756	756	744	747	759	762	757	757	748	770	794	795	790	786	773	773	777	766	758	750	741	724	713	720	720	742	742	720	713	722	742	761	762	762	763	763	772	771	752	747	750	772	772	782	779	763	746	743	743	752	760	769	755	755	747	747	753	752	743	749	746	732	723	723	723	735	748	755	755	747	740	738	732	733	739	740	744	744	745	740	738	729	727	751	749	751	745	731	709	703	715	715	713	710	689	693	706	721	735	732	730	729	740	740	748	752	752	749	743	736	742	744	743	747	764	780	800	802	788	781	794	802	794	780	761	761	760	771	793	800	803	802	807	805	795	793	796	786	778	774	768	765	756	753	767	791	807	805	805	796	789	783	774	764	760	764	791	803	802	779	764	763	762	766	779	779	772	764	760	759	759	771	770	774	769	765	767	773	777	777	779	771	762	766	780	790	786	775	765	760	761	760	763	766	768	769	756	742	736	741	749	750	751	745	738	744	771	786	783	773	765	768	778	785	788	782	772	761	747	752	759	777	776	778	776	783	783	781	774	774	765	763	756	761	762	758	751	747	754	767	775	771	778	778	776	769	763	764	751	756	754	764	773	784	788	783	772	767	779	791	802	800	790	800	813	820	809	784	758	744	745	751	758	771	778	783	784	773	765	767	762	766	765	763	759	757	766	765	778	777	765	752	753	760	763	768	762	765	768	767	758	769	775	775	766	750	750	748	738	733	729	737	749	756	752	746	752	761	768	763	758	747	737	724	723	726	732	739	743	734	731	718	706	695	703	721	730	740	744	747	760	747	742	739	742	738	737	725	725	725	716	706	700	717	750	765	765	757	758	756	760	762	757	754	755	762	757	762	754	738	722	716	720	723	726	726	730	743	752	754	755	752	750	735	719	703	702	702	707	721	729	736	746	742	739	738	739	743	737	723	715	708	710	722	731	735	725	715	703	709	709	718	716	707	702	708	705	707	728	739	733	732	736	739	731	718	715	713	706	706	703	706	724	744	749	732	714	699	686	692	700	694	675	677	677	677	676	678	701	712	713	712	709	716	714	711	708	700	693	693	693	698	700	702	701	703	702	703	708	701	694	694	699	711	714	712	708	700	699	695	693	701	696	696	710	691	694	706	705	707	720	721	715	715	705	691	686	688	690	698	708	709	711	711	710	712	721	720	705	698	699	706	706	729	725	717	712	705	709	714	714	721	721	718	714	696	693	698	706	706	706	706	708	709	712	715	715	713	710	711	713	723	727	730	730	729	713	694	679	684	693	693	700	701	695	686	689	701	701	704	712	715	722	722	722	736	741	742	737	729	710	710	692	679	685	711	724	724	722	698	677	659	651	651	646	659	670	688	702	702	718	719
783	783	810	813	820	809	806	806	790	781	774	776	785	785	782	775	772	764	768	768	765	759	764	760	758	754	754	750	741	720	710	698	700	700	721	741	752	749	746	731	731	721	712	725	735	746	761	749	745	736	727	729	742	758	752	752	744	761	773	789	781	770	762	762	765	767	752	745	731	712	702	720	720	736	732	719	703	706	711	731	744	744	754	754	758	756	747	746	749	756	768	768	762	751	745	741	749	758	768	769	755	759	746	738	739	744	746	752	751	734	715	725	738	738	757	766	766	762	750	743	731	727	735	746	749	749	728	727	720	721	727	751	756	748	739	731	716	713	712	712	725	721	720	732	717	716	715	715	716	716	724	733	742	748	749	749	745	743	745	750	743	738	751	769	777	776	777	785	794	802	808	798	795	797	797	787	776	775	775	762	757	758	768	772	772	766	764	765	766	759	752	745	758	780	795	793	750	750	744	760	765	757	750	749	761	782	764	742	737	751	763	775	777	775	768	764	760	759	759	763	766	764	759	748	746	740	760	774	774	768	757	760	778	788	790	781	772	764	751	746	755	766	772	775	777	771	758	766	767	776	773	744	737	738	762	787	795	783	765	755	753	767	781	781	770	748	733	728	730	742	744	737	745	758	764	766	764	764	764	763	770	777	777	777	769	767	760	770	775	779	778	780	769	756	749	744	748	764	762	764	771	780	784	777	771	765	771	781	786	775	765	764	788	802	781	761	743	736	737	738	748	766	769	767	766	754	757	763	768	767	767	765	762	767	781	794	789	770	758	750	756	761	756	744	737	748	760	767	758	759	765	768	759	748	748	742	732	720	719	722	736	748	761	770	764	766	763	756	746	734	730	720	719	719	723	733	735	733	723	722	712	715	722	726	734	741	746	751	766	771	766	753	739	737	732	726	726	727	725	704	702	705	749	769	769	770	769	765	766	766	764	756	748	762	757	754	752	745	737	737	755	754	749	744	740	737	741	742	750	755	753	739	718	699	694	694	704	713	718	726	730	735	735	735	736	737	734	725	710	706	711	722	730	734	721	711	704	714	714	715	706	699	702	708	709	712	720	726	729	733	728	718	712	710	715	724	730	730	736	741	727	736	727	713	687	691	701	695	689	686	677	674	674	671	681	686	701	711	712	712	709	706	706	707	705	705	705	695	692	697	704	715	714	709	705	705	704	700	700	700	704	705	708	699	703	706	710	707	705	702	702	696	692	686	694	700	704	703	709	722	713	713	702	689	678	679	687	697	708	707	707	708	700	702	721	722	702	697	695	699	706	714	719	717	718	717	708	697	697	703	700	704	708	705	698	704	704	708	709	708	714	697	697	695	695	713	708	702	698	707	720	720	727	729	725	713	701	691	696	696	700	700	697	691	691	691	705	715	716	715	722	725	725	730	738	732	730	722	722	713	697	691	703	722	728	728	726	703	674	654	654	651	646	653	668	692	692	703	711	714
783	783	788	795	795	787	776	776	773	762	752	755	774	774	796	800	787	777	781	781	778	769	764	760	729	732	732	741	741	726	699	680	682	682	703	720	735	746	747	727	727	709	704	699	722	738	749	745	744	726	723	725	744	752	746	746	741	748	762	770	763	749	741	742	742	728	724	718	709	704	702	722	722	736	729	720	707	702	709	720	731	731	735	737	737	737	731	729	735	732	737	737	742	742	743	747	756	759	771	771	759	746	746	733	732	737	748	756	754	730	718	722	738	738	758	765	766	758	756	746	731	724	730	739	731	717	717	708	706	727	749	761	756	748	730	727	720	718	724	724	737	748	743	725	713	713	713	715	716	713	718	729	739	751	754	754	748	747	746	746	741	735	747	753	759	756	755	778	792	811	808	798	771	767	767	768	764	753	745	735	730	734	742	750	755	765	767	768	767	757	750	751	758	764	770	737	723	723	719	732	750	762	767	775	775	770	752	737	744	754	774	778	771	767	759	761	771	771	764	763	766	757	749	737	720	715	725	736	736	744	747	753	764	776	780	777	767	743	735	735	744	759	774	780	784	780	777	779	787	793	778	762	742	738	770	789	795	785	762	734	734	752	772	778	771	753	734	730	735	746	756	759	750	743	742	752	751	757	757	765	776	783	776	764	758	760	758	765	766	771	774	779	771	758	748	751	757	765	761	757	756	759	776	774	769	766	767	767	763	755	738	737	748	762	762	751	746	735	732	736	751	761	763	759	740	742	752	765	774	769	768	757	760	764	780	790	787	771	759	754	754	749	740	728	727	744	759	771	768	761	758	751	740	740	737	732	725	722	720	723	727	742	741	720	743	754	742	735	728	727	724	721	717	708	708	710	715	720	723	730	725	721	722	730	737	743	747	754	761	759	758	742	747	750	739	731	729	728	723	716	701	709	726	726	756	763	757	771	783	782	764	756	748	738	738	741	739	741	743	747	747	745	738	727	740	737	732	735	748	756	764	747	727	728	728	719	713	715	720	726	727	728	734	737	733	731	726	727	719	710	712	727	735	732	720	715	717	717	720	721	706	699	707	716	716	714	711	716	719	726	724	710	706	707	715	724	724	733	739	746	745	737	726	682	676	689	696	695	687	685	677	675	675	672	683	696	713	711	712	707	707	708	706	706	708	703	703	691	682	695	708	721	722	711	706	713	716	715	715	710	713	706	701	695	693	700	706	707	709	702	702	700	690	686	695	700	699	701	705	713	713	713	702	690	675	669	681	692	704	710	710	705	696	688	688	696	699	697	695	695	699	710	712	710	721	722	713	704	704	690	687	695	709	703	694	696	696	695	697	694	707	684	682	695	695	697	704	707	697	688	693	693	713	717	724	721	711	700	700	693	696	698	694	692	693	693	707	715	716	720	717	718	718	713	712	709	705	704	704	706	708	709	714	718	718	718	716	710	708	695	654	654	659	661	673	690	690	706	705	705
769	769	788	773	777	772	768	768	766	755	752	747	763	763	786	797	788	778	781	779	779	770	752	740	729	732	730	742	742	735	705	676	677	677	695	709	729	743	743	738	738	718	705	707	725	730	740	744	744	726	737	743	753	745	735	724	724	732	746	756	746	737	724	715	715	717	713	719	714	707	706	720	732	732	729	720	714	705	709	720	721	725	725	723	727	727	721	720	718	715	721	721	727	740	741	743	745	748	760	764	763	748	748	733	736	735	742	741	748	727	718	722	735	735	742	753	753	752	748	743	729	723	730	738	731	723	723	714	726	736	752	764	761	742	730	727	729	725	732	737	737	748	746	734	717	712	713	716	724	723	730	735	736	736	736	742	742	742	742	739	736	738	741	746	748	745	742	745	760	774	781	774	771	767	748	748	745	744	739	733	725	732	738	746	750	759	765	768	766	753	752	756	761	759	732	713	718	726	726	730	727	749	772	794	806	793	773	757	752	765	784	775	766	757	751	759	771	777	771	767	761	757	749	737	728	726	715	718	724	724	733	738	744	754	768	771	761	732	725	727	737	748	755	763	763	765	764	766	769	776	778	761	749	752	766	775	779	764	738	726	733	752	770	774	767	759	744	738	751	761	773	765	754	743	730	734	737	746	754	754	762	759	755	749	753	756	756	752	754	758	763	773	774	769	763	757	761	766	754	745	734	724	718	714	734	746	739	731	725	720	729	722	719	723	730	741	753	746	739	743	751	764	767	756	732	735	751	765	774	767	757	752	752	756	771	778	776	762	758	760	756	748	737	731	723	733	751	755	754	745	740	736	725	725	720	720	723	725	727	725	730	739	715	723	736	743	736	720	713	717	719	724	723	719	707	702	710	716	732	736	730	720	714	719	730	734	739	746	750	742	729	725	733	744	748	734	728	722	717	706	707	714	726	726	735	734	738	763	783	782	773	757	733	714	703	707	717	725	735	736	740	733	722	707	713	718	720	737	753	767	778	767	743	724	724	717	718	724	729	728	721	720	724	732	728	728	723	723	722	722	720	727	732	728	720	720	724	724	720	721	708	704	710	720	720	715	707	708	712	714	710	705	708	714	716	721	721	723	730	738	732	726	717	683	661	683	693	697	692	689	678	667	667	671	690	696	713	713	691	684	690	704	707	705	693	678	678	665	663	675	700	718	721	716	715	720	719	714	714	709	711	707	700	691	684	689	699	707	709	709	708	700	692	691	694	698	693	687	691	704	704	704	698	685	667	660	671	682	697	706	706	701	696	687	677	696	699	697	692	692	690	695	688	696	700	712	719	719	727	727	720	716	707	697	687	682	682	679	677	681	670	684	682	682	689	697	706	709	703	688	684	684	688	708	717	718	713	701	701	684	682	683	690	695	700	693	707	715	715	707	701	701	694	691	688	685	683	684	684	685	697	708	714	716	716	720	708	712	708	695	695	683	681	674	680	693	693	698	694	689
756	756	768	773	777	776	774	774	766	761	749	746	758	772	772	787	778	772	765	773	773	760	742	731	730	730	742	742	751	744	722	702	701	710	710	717	723	724	729	725	717	717	716	725	734	731	738	741	741	745	737	743	750	729	726	718	718	717	725	731	722	721	715	722	722	734	739	749	743	714	710	718	730	730	729	720	714	705	718	722	717	711	711	711	720	721	714	708	704	700	704	713	713	732	747	753	749	752	750	751	752	748	748	741	736	735	730	723	729	729	716	714	725	731	731	732	740	744	741	741	730	721	716	731	738	732	732	732	735	740	748	755	754	749	728	728	729	725	730	737	737	744	741	736	724	717	709	704	707	708	717	722	725	714	715	713	713	720	723	723	726	726	731	739	747	743	732	723	731	739	750	760	762	755	748	748	736	737	736	727	721	728	740	744	746	755	761	760	751	750	750	755	755	732	719	716	711	729	729	730	739	744	744	744	744	737	737	729	731	745	758	762	751	746	753	754	767	778	773	767	760	755	749	740	728	726	717	710	719	730	730	736	737	739	761	769	751	730	721	728	736	741	741	733	737	743	747	751	753	758	761	759	753	756	761	759	755	752	746	740	746	766	775	771	760	753	744	738	755	770	776	766	745	728	722	728	734	740	743	743	743	735	733	736	746	760	763	745	738	733	733	732	747	758	769	760	758	760	752	743	724	709	707	713	721	725	731	740	746	740	735	725	718	715	721	733	745	748	734	744	750	760	765	758	741	731	736	754	761	758	747	745	748	750	760	761	758	752	754	755	758	755	743	732	715	722	736	751	751	743	731	724	718	718	716	721	723	725	718	714	727	732	713	708	730	734	727	704	701	712	719	723	723	721	708	703	703	715	733	742	730	715	702	702	709	717	722	731	730	720	711	710	718	737	744	732	719	712	704	704	707	718	718	724	725	734	738	763	779	779	761	742	713	689	674	682	703	727	736	732	727	719	700	691	689	696	714	726	740	749	749	737	719	719	713	717	718	722	726	726	719	714	715	718	719	723	716	711	709	712	715	724	725	717	713	715	720	724	726	724	713	703	708	709	713	705	697	692	695	695	711	716	715	715	706	706	702	706	712	717	716	715	710	702	670	662	686	698	703	704	677	677	665	666	690	706	710	681	661	648	659	687	703	695	691	691	675	668	671	681	697	697	704	717	716	689	690	687	687	696	701	700	695	690	682	689	699	705	712	712	718	716	703	690	699	699	690	674	680	690	690	695	691	677	659	657	662	671	683	683	691	690	687	687	677	677	676	671	671	670	672	676	681	684	683	693	700	700	710	716	714	703	693	688	679	679	673	666	662	681	670	664	672	672	688	699	707	708	699	692	686	686	680	682	697	703	702	691	691	678	675	678	687	695	700	700	703	702	696	689	679	679	674	678	684	675	669	665	665	668	673	683	690	690	690	693	708	712	712	698	698	696	692	687	682	682	690	693	689	679
741	754	754	763	775	776	774	759	759	753	739	733	725	749	749	765	767	762	762	763	763	765	744	734	734	735	743	743	751	744	743	727	717	721	721	730	713	704	710	709	708	708	714	729	733	739	747	745	745	751	755	758	750	729	724	717	717	713	713	708	710	711	718	729	745	745	756	764	764	723	715	722	722	722	724	722	722	715	718	722	721	707	707	702	706	707	704	705	696	696	693	699	699	734	756	764	764	759	747	745	749	751	749	749	739	733	730	723	719	729	733	725	714	720	720	725	736	738	738	744	732	717	710	725	733	736	741	741	741	737	730	729	740	730	735	740	737	731	730	737	731	731	726	722	709	710	701	698	693	693	694	705	708	696	692	694	699	699	702	703	708	721	735	731	723	714	725	736	744	752	757	755	751	745	743	736	736	737	739	730	721	726	734	734	741	752	756	748	738	735	737	723	728	718	719	718	724	740	752	752	753	750	742	736	731	731	724	716	719	728	746	748	743	741	760	760	765	766	764	761	754	754	749	745	740	730	717	710	719	732	732	736	739	742	749	753	746	730	721	727	737	734	722	712	721	733	744	746	747	750	750	749	748	747	749	745	741	741	740	753	765	774	767	760	746	737	728	720	721	731	740	744	739	735	744	750	749	743	741	735	735	721	710	718	736	741	745	745	736	728	723	722	725	731	747	746	740	741	738	735	726	714	712	715	710	715	728	741	748	745	736	725	713	705	706	723	737	723	730	741	752	760	759	752	742	723	731	735	746	751	749	742	742	747	748	753	748	739	742	752	759	756	752	733	719	720	737	745	746	735	725	713	713	711	723	726	730	728	713	716	723	725	726	709	717	719	714	705	706	702	711	719	720	711	703	698	698	707	723	735	730	713	698	691	691	695	709	724	723	711	705	700	710	727	736	723	714	701	700	705	715	720	718	724	725	723	724	733	739	742	736	710	682	669	673	680	707	737	744	733	718	706	696	695	701	704	710	719	727	732	726	722	717	717	716	716	715	715	720	724	717	709	701	695	687	689	692	703	711	708	712	719	719	715	713	715	715	720	724	724	720	713	704	688	682	681	681	689	698	707	711	704	691	682	680	680	684	694	698	699	700	707	707	700	688	684	701	713	711	693	672	672	665	666	677	710	708	684	661	646	651	676	694	697	688	688	676	675	677	686	694	687	680	670	670	671	670	670	671	669	678	686	696	690	682	683	684	693	701	701	702	700	694	691	692	689	676	668	673	673	685	687	680	672	664	663	658	663	671	671	677	690	687	680	670	667	668	666	666	665	666	673	678	680	677	679	685	685	697	703	704	696	690	681	672	672	665	666	662	656	656	659	671	671	689	702	703	700	694	690	690	686	683	673	664	678	683	683	686	679	672	678	687	700	700	705	705	700	686	674	669	669	667	675	679	674	666	666	659	660	658	652	654	654	690	693	703	702	687	687	680	681	682	690	694	694	690	693	688	672
741	750	750	762	768	779	779	759	759	729	717	704	700	719	719	737	741	751	747	753	761	761	749	747	754	754	752	752	756	757	743	727	731	736	736	733	714	689	684	688	699	699	704	724	736	747	749	750	750	750	756	751	745	737	724	717	725	725	720	709	699	699	704	718	737	737	754	768	763	740	720	723	720	716	716	721	728	726	723	721	721	707	701	701	699	703	705	701	703	705	701	703	718	718	758	770	771	765	751	742	746	746	739	739	729	716	711	712	719	729	733	725	717	720	726	726	727	728	733	740	730	718	713	715	723	728	736	736	736	721	702	699	716	726	740	749	749	737	732	727	731	731	708	698	702	701	696	692	686	686	686	689	690	680	673	674	681	681	694	699	716	735	739	729	722	716	722	739	754	756	755	745	734	726	726	732	732	738	739	730	725	719	722	732	737	750	745	739	727	726	712	702	706	708	714	725	738	754	766	766	769	766	754	742	730	719	709	709	716	724	738	750	749	749	750	751	753	748	752	751	754	752	750	745	741	730	722	712	720	732	736	736	736	744	749	744	735	727	721	728	731	719	705	705	718	729	731	728	730	743	750	744	735	738	735	732	727	726	729	745	757	754	740	721	713	724	716	709	715	727	739	743	744	742	755	763	759	751	743	729	729	713	705	705	712	714	717	731	731	728	720	712	707	716	721	723	727	729	728	721	717	721	727	720	707	712	722	741	744	730	713	708	696	681	680	684	695	714	724	737	748	755	754	747	733	728	729	732	735	743	729	734	735	743	744	744	734	731	738	740	748	752	742	730	724	727	731	737	734	733	720	713	713	717	728	734	741	741	725	724	727	726	724	722	720	722	721	719	704	697	696	709	712	705	705	700	700	699	711	723	723	710	698	685	680	680	699	714	718	713	705	703	711	722	723	714	713	714	712	718	715	715	720	721	718	720	725	733	736	724	700	686	676	669	674	687	710	735	750	731	710	697	696	707	712	716	721	719	717	719	719	718	718	717	714	717	708	704	709	714	711	699	676	670	666	674	685	693	696	700	701	703	719	715	711	716	716	724	729	727	724	719	700	689	693	703	701	699	699	709	708	699	685	679	679	677	679	685	694	697	703	710	710	699	688	686	690	697	700	689	693	672	658	655	662	681	706	697	685	676	676	690	721	717	717	697	683	683	680	683	687	680	671	664	668	671	675	675	681	677	674	681	696	694	692	687	686	685	685	682	674	672	672	673	674	662	655	653	662	662	669	677	674	670	674	672	669	670	670	670	677	676	674	668	663	662	660	660	660	659	663	663	666	673	678	675	675	681	679	691	691	685	679	669	663	672	665	660	657	654	656	664	664	676	692	698	693	691	683	679	679	681	679	668	665	661	666	666	668	679	672	674	680	693	693	702	703	699	679	668	666	666	670	673	673	668	656	656	653	655	652	646	654	654	658	664	675	690	696	696	692	690	695	697	699	699	694	690	684	666
725	742	742	746	753	768	762	740	740	729	717	686	683	692	692	708	716	711	720	732	738	738	745	749	759	769	763	763	763	758	757	743	731	736	728	720	708	684	668	670	679	704	704	720	734	745	750	742	739	739	730	727	728	732	734	734	725	725	740	719	707	693	679	682	675	675	684	727	748	742	734	721	715	717	717	724	727	726	729	728	720	708	701	697	700	707	718	718	718	715	710	709	711	711	742	757	763	755	748	743	741	736	729	729	713	701	697	703	717	728	733	725	715	713	716	716	722	721	724	729	721	711	709	710	695	697	690	695	695	699	697	701	715	723	734	746	748	736	714	709	712	708	708	698	695	696	690	682	680	682	689	686	690	680	672	675	685	703	703	710	726	732	730	720	714	717	724	736	749	754	748	736	721	717	720	732	744	744	749	744	725	719	713	711	714	708	732	730	729	724	712	695	699	699	703	709	728	748	763	767	767	763	752	748	746	748	746	735	729	730	746	757	757	752	747	738	734	736	738	744	746	752	749	743	734	730	723	721	727	731	730	730	736	744	749	742	736	726	722	723	714	710	702	707	714	713	708	711	726	746	750	745	737	720	714	717	720	721	731	738	736	739	727	712	699	683	676	684	697	720	733	744	746	745	761	766	764	753	738	726	726	708	702	700	699	697	702	724	728	726	711	701	696	701	705	711	716	729	721	709	705	715	726	717	709	707	720	730	718	695	695	698	694	685	681	680	690	694	699	718	733	736	743	740	735	735	733	731	729	722	725	721	723	726	727	728	721	719	723	734	742	743	734	730	730	728	725	726	728	726	720	720	716	719	730	743	746	751	742	737	732	732	720	715	714	720	723	720	717	710	709	713	711	709	706	705	704	701	702	711	708	706	698	682	676	678	690	707	710	707	707	707	711	712	708	706	713	714	712	718	718	718	718	719	720	724	735	741	735	722	704	683	678	674	674	677	697	726	734	713	695	689	697	705	731	739	730	709	709	705	706	711	711	711	717	713	704	696	695	698	695	679	665	663	668	671	679	684	690	691	701	703	703	706	704	704	717	726	724	717	712	708	705	699	693	703	709	704	702	704	707	697	687	680	680	678	678	689	702	709	714	713	705	693	682	675	677	691	700	689	689	668	656	653	656	661	664	671	676	680	697	723	739	748	748	725	701	686	673	668	675	672	661	657	663	671	671	676	686	691	674	681	696	698	693	687	687	688	688	679	667	660	661	667	663	658	651	646	646	647	658	665	669	675	679	676	668	674	670	670	665	666	665	659	659	661	657	657	655	656	658	666	665	666	677	681	681	680	675	675	678	669	664	669	669	663	661	663	657	657	661	671	671	681	695	698	694	683	678	674	674	671	669	673	675	670	663	666	668	657	659	668	669	670	670	684	694	689	673	663	663	668	669	671	668	659	651	651	652	659	652	646	644	644	645	654	673	684	693	693	700	689	694	703	707	707	702	696	677	661
711	722	722	722	733	744	734	720	712	712	701	686	683	697	714	714	714	713	712	716	725	725	736	745	755	762	770	758	758	757	758	746	732	728	720	720	705	690	680	686	704	716	716	718	732	748	747	732	717	717	700	699	711	729	742	748	748	748	740	719	715	698	685	682	674	676	676	687	718	730	723	714	711	713	713	719	726	720	715	724	718	707	697	697	700	703	710	715	717	722	717	712	708	708	719	732	746	748	748	741	732	727	716	694	694	684	687	695	716	727	731	722	715	713	706	706	702	702	708	714	702	687	685	694	692	685	679	682	682	687	696	708	711	719	727	729	735	725	698	699	700	699	699	694	695	696	673	669	677	687	692	704	697	690	682	690	701	702	702	718	729	724	711	700	700	710	716	727	730	721	715	708	708	709	718	727	743	743	757	761	745	727	713	711	701	707	715	735	730	738	734	737	730	716	709	713	725	728	728	729	729	732	739	741	745	750	751	740	736	735	748	759	759	752	739	726	722	727	734	734	738	746	747	742	728	715	715	726	727	727	728	737	737	750	751	742	736	726	712	698	688	694	703	712	714	719	719	717	719	733	747	749	728	718	710	709	715	720	722	715	708	710	710	709	715	717	721	721	721	725	726	722	717	716	736	756	753	745	736	728	725	725	718	712	701	693	706	716	725	719	708	696	689	690	694	710	738	731	721	706	695	703	703	705	700	705	718	726	700	691	695	700	700	695	687	690	691	695	702	703	717	725	728	736	741	738	736	731	719	718	722	722	719	723	728	717	707	712	718	723	729	731	726	731	729	724	719	720	722	722	718	718	715	722	729	741	743	743	738	730	729	712	706	711	708	714	721	725	729	728	723	724	713	708	707	715	711	706	701	706	704	697	702	695	697	697	701	708	709	707	703	704	704	696	708	706	713	722	722	713	713	712	713	716	720	732	740	740	732	713	703	698	678	676	674	685	697	711	714	697	680	674	685	699	701	695	690	688	696	699	696	696	695	703	707	707	698	692	686	685	677	670	662	662	669	677	678	679	690	691	682	676	672	666	669	669	695	711	712	707	698	694	695	690	688	696	700	699	694	693	699	691	686	686	679	673	673	675	690	711	713	697	691	680	669	665	677	691	691	691	682	673	667	667	664	661	667	673	679	697	717	739	734	734	720	701	689	674	664	663	667	672	671	668	668	676	676	689	686	691	693	694	698	697	688	682	685	687	687	681	671	664	660	664	666	658	650	643	643	643	658	664	665	667	672	668	668	674	674	676	669	666	668	660	666	664	658	658	651	651	656	668	666	667	673	676	676	672	669	665	660	655	664	658	658	652	656	661	659	663	670	678	678	689	697	705	695	688	676	676	668	668	664	670	673	670	670	663	655	653	656	664	667	667	667	660	670	667	662	661	661	662	661	665	670	664	664	659	652	659	659	652	640	640	641	655	670	678	697	697	702	689	688	699	699	711	713	701	684	661
705	713	705	705	713	723	720	711	704	704	698	699	696	697	714	735	734	720	697	695	702	702	719	732	745	755	764	758	758	754	750	733	716	709	704	704	705	690	712	733	739	737	737	734	739	748	741	721	698	681	681	682	694	721	739	746	752	743	743	730	715	702	690	684	681	683	683	691	705	713	710	689	681	682	690	690	690	692	702	708	709	703	695	695	695	703	710	706	712	717	719	707	696	694	694	707	726	738	742	728	709	685	668	671	671	671	682	697	718	732	730	720	709	711	706	697	697	694	696	698	688	677	671	682	686	688	679	680	680	681	699	716	716	715	710	708	709	700	691	695	695	688	683	683	679	674	673	668	677	695	714	713	709	707	714	710	705	708	719	719	718	710	707	699	697	704	709	710	711	706	702	702	704	707	710	716	732	746	746	757	750	734	722	706	701	707	722	744	757	764	759	734	719	718	716	719	720	722	720	719	721	721	727	730	735	744	736	733	738	750	752	743	748	740	731	726	727	728	731	730	726	736	737	735	719	719	719	724	725	727	725	734	734	746	752	745	737	724	712	698	688	691	696	703	708	715	719	722	705	715	737	734	722	712	708	710	716	723	716	700	694	693	706	720	732	734	730	726	718	710	703	701	699	689	691	721	735	741	740	742	727	727	723	723	710	700	690	695	710	719	720	717	706	706	712	728	737	736	724	708	697	696	698	693	694	702	717	725	704	695	702	711	712	704	698	699	697	698	698	706	714	732	745	746	747	737	728	723	714	717	723	723	726	731	734	730	713	701	702	699	689	692	700	697	716	717	715	718	720	719	715	715	713	720	727	733	729	725	718	711	700	698	697	703	704	707	715	727	730	737	734	722	716	714	720	719	716	710	706	707	705	701	707	713	721	720	721	722	713	700	703	704	704	696	689	697	710	718	716	716	708	700	702	709	722	733	729	718	709	703	703	701	694	669	677	686	698	711	717	700	677	677	682	694	700	694	686	681	690	690	684	684	685	685	692	695	694	688	687	687	681	678	671	663	672	677	678	679	679	680	675	670	662	656	656	658	668	680	693	691	685	679	682	674	677	686	688	680	662	656	658	664	675	675	673	666	650	658	668	677	689	682	678	673	669	665	671	677	678	678	678	675	664	660	659	659	664	673	683	694	714	709	695	695	679	667	666	668	670	665	669	676	677	675	670	665	676	689	695	700	696	691	693	687	685	681	681	681	680	674	673	667	663	664	670	666	664	662	662	664	672	664	649	640	672	668	665	671	671	675	677	673	666	667	667	665	656	656	651	652	659	665	662	662	668	668	671	670	661	657	660	655	647	646	646	646	651	651	653	661	666	666	666	670	677	690	696	685	662	662	646	645	655	663	673	666	666	662	660	660	663	662	668	668	661	654	650	651	647	642	642	646	656	667	673	667	664	659	656	663	674	679	679	669	664	658	662	673	673	693	699	687	678	689	689	702	711	701	684	662
731	727	717	717	701	708	708	698	695	695	715	729	736	741	735	735	734	719	683	682	685	707	707	725	735	747	757	747	747	745	737	722	695	677	680	680	692	700	712	726	731	728	730	730	740	743	737	712	685	663	663	665	688	716	728	728	732	737	737	726	717	702	690	678	679	685	685	697	705	706	700	680	657	647	659	659	689	694	701	706	703	690	677	677	677	682	690	706	712	712	707	699	688	687	687	697	715	727	730	718	693	682	670	666	668	668	680	701	723	734	730	722	713	703	700	697	697	692	683	682	679	670	665	672	690	690	687	676	676	676	693	710	714	717	712	704	697	691	691	692	696	691	683	683	674	669	668	668	677	710	717	719	720	722	719	711	703	706	708	708	712	704	705	703	698	703	705	700	695	693	693	700	706	703	703	709	722	732	732	740	742	729	719	711	705	708	722	744	756	769	752	721	715	715	721	716	714	711	708	693	693	693	699	711	718	728	728	730	732	732	723	711	720	729	735	732	728	723	725	726	726	727	737	742	733	732	734	736	731	729	725	733	741	741	748	747	734	722	693	682	688	691	696	703	708	704	705	704	697	708	718	720	710	705	703	708	724	728	719	706	698	701	717	730	733	728	721	710	706	701	698	698	694	679	681	697	717	729	729	714	703	705	705	705	698	691	689	699	710	721	720	719	709	705	703	713	729	730	722	713	708	709	701	694	695	706	712	719	706	706	718	724	719	708	704	703	700	701	703	704	711	736	755	754	742	739	716	709	704	715	721	722	729	726	722	711	697	692	693	689	702	713	717	709	720	715	713	709	711	713	713	716	714	715	718	722	715	707	701	694	686	686	692	697	692	695	704	720	726	723	725	717	710	711	717	720	717	713	714	713	704	703	718	728	731	725	722	722	713	700	696	696	692	686	686	693	707	708	701	701	695	691	691	697	713	722	713	700	698	701	705	702	694	680	654	674	691	710	719	710	702	699	697	702	700	689	679	677	676	673	673	670	673	678	681	686	689	689	693	699	700	696	688	663	672	676	677	674	677	672	668	668	667	664	664	659	664	679	690	681	672	664	659	666	671	669	669	667	665	655	644	644	644	651	656	659	650	654	658	662	667	671	678	673	668	659	666	671	673	673	667	669	662	657	654	652	672	678	680	689	699	699	688	688	672	670	670	672	677	676	665	658	653	652	670	670	665	662	663	672	672	674	678	681	679	675	672	672	669	667	664	664	662	665	670	673	663	663	655	660	660	657	649	640	636	649	650	650	664	672	674	675	669	675	673	670	670	669	659	653	653	658	657	665	668	668	665	659	661	657	648	643	640	640	641	649	657	658	653	663	662	662	661	655	657	664	660	654	647	647	637	637	655	663	663	656	656	661	666	671	667	661	648	648	632	641	645	651	653	653	651	648	654	664	673	667	667	656	652	658	667	672	672	662	659	658	657	665	665	679	680	674	675	674	674	702	711	701	680	662
745	743	735	735	715	708	694	682	694	694	723	751	771	774	782	752	752	719	683	671	678	703	703	718	721	731	737	733	732	732	722	695	671	658	665	678	678	695	711	726	731	714	721	721	734	735	722	702	679	662	662	667	683	701	713	717	721	726	726	718	714	706	694	678	679	684	700	700	703	701	692	676	659	653	662	662	682	693	694	703	698	682	665	662	663	663	677	693	707	712	707	702	687	688	688	693	709	711	717	713	695	682	676	673	675	675	684	705	723	733	726	718	712	708	700	696	692	692	683	676	671	666	662	666	686	690	684	670	664	664	675	696	706	711	713	710	701	692	693	696	702	690	681	681	671	667	675	681	687	710	717	714	716	716	710	706	701	703	699	702	702	704	707	702	694	691	691	684	680	677	684	697	704	702	702	705	714	723	727	727	726	718	716	714	709	713	730	739	756	769	752	713	715	716	711	700	689	683	679	675	678	691	691	708	721	725	719	718	711	710	695	691	702	719	731	734	731	724	715	706	709	730	749	749	740	732	730	723	717	713	709	710	725	725	739	732	726	717	698	691	683	686	688	691	701	704	705	704	682	690	699	706	710	704	700	708	722	727	725	716	706	709	721	730	731	718	710	693	693	695	691	689	673	675	680	692	705	713	711	697	689	692	692	694	690	691	689	699	707	716	714	710	703	697	697	704	713	722	720	722	725	718	707	701	705	712	713	704	702	709	719	723	720	702	700	706	697	693	698	702	707	712	725	733	733	736	715	700	692	711	712	709	715	705	695	689	688	692	684	684	704	719	721	708	711	719	710	710	705	706	706	713	713	713	710	705	702	695	692	684	674	678	689	689	689	685	694	704	712	706	703	702	702	702	705	706	710	712	716	713	708	701	707	728	731	725	722	716	708	694	683	684	684	683	693	707	713	711	711	704	694	692	687	689	700	704	698	687	682	686	699	704	677	662	643	652	669	688	697	695	689	683	680	680	676	671	666	658	657	665	665	672	673	674	674	675	678	683	695	705	712	696	688	676	671	673	675	678	678	671	664	664	667	667	671	667	669	681	685	677	673	671	672	672	669	666	669	679	679	669	659	654	654	650	653	659	660	659	656	665	667	671	679	688	680	674	663	663	663	661	661	661	654	644	637	645	648	667	665	675	687	695	695	689	677	672	677	681	678	675	673	669	653	652	653	653	659	662	660	659	659	660	657	658	663	668	668	664	659	655	654	654	655	659	666	665	657	657	646	640	660	657	642	630	631	631	640	640	654	664	666	670	668	663	665	670	670	670	668	666	659	657	659	665	669	669	665	659	657	653	648	642	641	641	647	659	675	669	666	663	658	658	651	646	644	657	663	659	659	648	637	637	638	650	654	657	657	664	667	675	674	664	664	648	631	631	644	652	661	661	657	654	654	664	671	665	665	651	643	649	653	656	656	650	647	659	662	666	666	669	666	661	662	674	674	682	691	696	684	684
739	748	746	740	740	721	692	673	675	706	706	736	758	769	772	747	747	712	674	671	678	699	699	703	707	715	719	715	710	710	700	684	655	646	655	668	668	680	693	711	714	714	721	715	724	719	708	688	675	666	671	671	684	701	708	711	709	713	713	713	714	706	686	667	666	684	700	697	695	699	693	679	666	653	660	672	672	682	694	700	691	679	663	660	665	665	678	693	716	724	715	702	687	671	682	682	695	702	705	705	688	681	681	682	691	691	694	703	711	717	706	701	705	713	701	691	675	675	675	676	671	667	668	670	671	679	678	669	660	667	667	677	695	705	710	711	703	695	692	698	700	692	674	665	665	671	682	697	706	715	715	714	716	707	705	701	700	697	694	693	693	698	700	694	682	677	677	679	676	673	676	689	697	697	702	707	717	715	715	715	712	713	715	712	708	710	712	722	721	718	716	713	715	694	701	688	677	669	667	673	686	693	708	708	717	715	705	693	687	676	677	682	692	707	718	729	730	720	709	698	701	707	742	748	726	702	697	688	674	673	686	700	704	723	723	729	722	707	704	696	687	675	673	677	680	687	691	683	682	690	699	706	702	706	700	684	691	711	721	720	708	706	711	718	712	702	694	691	695	698	686	671	664	672	678	686	697	704	694	688	686	683	683	685	681	685	689	698	706	707	705	699	699	701	701	708	708	709	709	697	698	699	698	694	698	702	703	695	695	703	712	714	697	685	690	700	703	690	690	694	696	699	705	711	713	709	699	680	683	698	699	700	701	693	687	687	686	687	681	678	684	712	717	693	698	710	708	707	701	701	701	708	708	700	700	700	690	690	693	706	712	714	716	708	700	689	694	693	697	711	700	698	695	696	682	680	694	706	714	713	708	701	707	728	737	741	737	728	706	688	672	676	679	687	693	711	719	717	717	706	699	695	692	685	686	681	680	674	660	658	683	704	708	703	692	685	677	676	681	691	701	700	692	682	681	682	677	671	664	664	666	670	673	676	671	672	671	677	688	705	712	705	692	670	667	671	677	683	684	677	659	660	660	666	674	675	678	681	681	677	672	675	674	669	665	664	674	689	695	686	673	673	650	646	652	660	669	665	656	665	672	682	693	694	687	672	663	652	652	649	646	643	644	644	635	637	641	647	651	659	676	689	689	699	690	679	679	681	677	672	673	669	651	648	648	646	653	656	656	651	655	651	654	654	659	662	662	657	651	652	648	650	652	654	661	657	653	653	647	640	643	640	639	632	628	628	628	638	661	674	675	669	660	659	660	662	662	662	666	676	678	668	662	660	665	669	665	657	657	659	651	641	640	640	655	671	683	688	677	659	641	641	637	643	652	662	664	662	659	648	640	639	639	642	647	647	654	658	665	672	669	660	660	645	628	629	633	640	650	650	657	654	654	663	667	667	656	641	636	639	643	643	643	632	642	657	667	667	668	655	654	655	662	662	661	664	680	687	683	683
739	739	734	734	734	724	700	671	667	675	675	701	730	740	741	727	727	690	671	671	685	699	703	691	700	696	697	695	695	695	693	682	658	653	675	678	678	686	692	706	707	715	715	724	724	704	695	680	671	666	668	668	680	695	701	694	699	711	718	718	718	714	688	669	672	684	697	697	695	684	686	681	667	653	652	663	663	674	681	689	686	681	676	671	676	676	684	697	722	734	707	675	667	671	682	674	685	689	693	695	694	684	685	688	696	697	697	695	697	699	699	691	689	690	692	675	664	664	668	672	670	667	668	676	675	677	678	672	668	669	669	677	686	691	695	684	684	688	686	690	696	691	672	664	664	670	685	701	705	701	695	698	699	707	705	709	708	693	685	681	686	686	687	679	673	666	684	693	689	679	684	687	690	694	704	711	711	704	701	697	697	706	712	712	708	696	694	700	714	731	749	720	693	694	701	703	681	671	675	682	685	693	701	701	712	711	690	677	674	678	683	687	693	699	704	717	720	715	704	697	697	699	702	704	684	680	680	681	674	671	676	684	694	691	692	692	700	704	695	666	651	654	657	663	667	676	680	677	669	668	681	693	702	706	700	684	677	684	692	693	691	692	694	695	693	692	694	698	701	701	688	674	664	669	677	682	687	693	687	691	683	679	673	673	670	675	684	696	702	700	696	693	698	704	713	714	705	693	690	692	691	691	685	683	688	693	690	685	684	689	690	682	669	668	678	684	698	709	697	693	682	665	660	646	635	646	655	670	694	690	696	696	693	689	682	681	681	680	678	673	666	668	668	679	685	691	693	694	694	694	691	692	684	681	677	676	677	682	691	696	704	712	716	718	712	699	687	687	698	708	713	700	687	672	659	658	694	706	714	713	708	696	707	724	741	755	758	750	729	705	681	676	678	688	696	707	716	716	714	702	686	675	667	657	661	657	665	653	662	658	648	690	697	692	684	676	674	664	671	679	685	680	677	672	674	677	676	681	681	681	674	674	670	674	671	671	671	677	688	700	699	682	665	664	658	662	667	676	685	676	663	657	657	660	671	676	681	680	675	669	668	674	672	670	662	662	674	688	697	695	674	674	655	650	656	659	669	665	663	665	671	681	690	688	677	663	655	655	652	645	638	634	633	642	660	644	646	641	644	650	661	661	677	699	688	682	675	677	665	672	671	677	665	649	649	648	652	652	652	650	646	650	653	654	656	650	650	653	651	653	648	649	652	654	654	653	653	653	647	636	630	628	630	631	633	640	640	656	664	671	675	669	662	657	650	650	652	653	654	669	678	668	662	660	660	662	664	661	663	654	641	638	638	636	651	669	680	684	676	661	661	641	635	645	656	654	664	662	662	652	646	644	638	635	636	636	645	651	659	665	664	658	658	638	626	620	623	627	650	650	657	657	655	662	662	662	655	637	629	626	632	632	633	636	640	651	662	662	662	650	654	655	662	662	662	657	670	672	667	667
729	739	734	711	711	706	699	680	664	656	656	673	692	702	697	683	665	665	670	681	692	699	691	691	700	687	673	672	673	678	678	679	667	668	674	689	700	700	710	715	715	713	712	712	712	704	695	679	668	659	662	662	674	682	685	689	691	702	716	716	726	719	698	679	673	674	668	676	676	684	686	683	669	651	644	648	648	659	663	662	670	682	685	687	690	696	696	704	710	717	699	666	658	662	674	685	660	648	651	672	683	688	688	691	694	694	694	692	687	693	690	684	674	675	671	667	660	660	660	666	665	671	672	676	675	674	669	667	676	682	689	689	692	685	680	675	676	678	682	689	696	690	670	660	659	659	667	684	688	688	676	676	681	696	702	709	708	689	686	691	690	690	689	683	677	681	690	696	696	691	691	693	689	689	693	705	700	694	685	688	688	699	706	705	702	697	709	711	709	714	716	705	690	689	699	703	681	687	685	685	688	689	697	706	706	706	692	678	675	679	686	691	695	695	695	701	707	706	701	697	697	697	692	680	673	672	683	675	666	668	673	686	689	692	698	698	707	707	676	659	647	643	647	651	666	683	689	684	668	660	671	682	688	684	673	672	677	684	692	693	678	672	673	679	683	688	697	697	700	699	687	675	669	671	681	685	684	687	688	689	688	677	667	667	661	670	677	689	691	694	690	693	693	694	701	706	698	691	689	692	690	686	680	680	682	685	679	684	679	672	667	656	651	664	677	683	690	701	714	714	703	694	685	676	676	679	678	681	677	690	688	680	672	662	666	675	676	671	657	656	668	685	689	688	684	673	673	683	686	686	689	687	680	676	673	673	673	672	676	680	692	697	705	712	707	697	683	681	696	710	699	668	687	672	659	658	680	694	704	707	703	682	693	710	730	762	768	758	733	706	685	680	684	692	699	708	708	704	699	695	683	666	655	643	636	639	648	681	687	668	656	663	670	674	673	667	668	660	655	656	664	668	655	655	666	673	676	677	677	681	686	690	682	672	671	671	675	673	682	681	669	670	672	661	650	654	658	667	672	666	658	658	656	660	669	671	676	673	666	664	662	662	666	666	655	661	667	678	693	682	663	663	655	653	656	659	660	658	657	655	659	665	676	676	666	655	648	648	645	644	643	638	637	648	655	667	659	644	642	646	657	657	685	688	677	670	670	677	665	657	650	648	658	658	658	651	646	647	646	644	641	640	646	649	650	650	656	656	655	648	650	655	660	657	653	653	653	648	641	630	624	627	629	630	636	648	648	658	665	667	666	661	656	650	642	642	641	636	642	639	642	668	660	659	659	659	668	669	669	648	636	629	629	628	634	649	667	673	670	662	662	640	635	643	656	654	650	650	651	653	654	647	638	630	629	629	635	638	643	657	653	633	633	617	618	616	617	627	627	633	648	657	652	655	659	659	650	638	621	616	620	620	630	634	638	644	652	652	662	650	646	654	662	662	664	661	663	657	657	655
708	714	714	711	706	693	696	684	671	660	669	669	680	685	680	666	659	659	671	677	693	698	696	696	691	687	660	660	657	662	662	662	661	666	680	684	700	700	710	720	723	717	710	697	697	691	692	679	668	671	670	673	673	681	679	680	685	688	701	710	710	705	692	676	671	670	672	678	678	688	689	683	670	653	642	636	613	613	625	639	660	681	687	692	693	700	700	700	703	702	700	685	670	675	672	660	660	648	631	648	669	675	681	671	672	675	674	674	678	686	688	681	678	675	678	667	653	649	649	653	660	669	681	683	684	674	669	665	676	687	696	696	697	691	681	665	667	676	686	694	696	688	668	655	651	651	655	668	682	681	668	651	649	663	688	698	701	689	686	692	698	698	695	677	677	681	684	691	689	693	699	697	693	685	687	693	689	684	691	696	697	697	702	697	691	690	694	699	704	711	713	698	695	694	700	703	699	687	685	685	681	681	694	709	709	710	702	690	678	677	682	684	689	691	695	691	689	689	694	694	694	693	692	686	681	686	698	683	667	665	673	685	691	693	696	700	700	694	678	667	660	672	681	683	695	709	705	693	673	661	666	671	669	668	664	664	669	681	690	687	678	672	673	679	679	684	692	697	694	682	670	665	670	672	679	683	683	682	687	696	699	689	679	679	664	664	674	682	689	690	690	687	686	684	692	694	697	694	691	693	688	683	682	678	682	680	679	682	682	672	664	658	662	674	684	688	694	698	693	683	692	698	700	694	685	684	688	689	683	682	684	689	690	688	669	670	669	656	650	653	669	697	710	704	681	673	670	676	676	682	691	686	679	673	672	667	665	658	654	662	666	678	691	694	699	699	698	681	696	710	699	668	661	652	662	668	676	685	690	697	695	682	665	663	675	707	718	715	665	648	652	662	675	691	696	697	697	681	686	687	675	661	647	645	645	653	695	683	663	652	652	656	666	668	663	660	651	645	644	645	648	656	663	677	681	679	675	675	669	670	680	690	682	672	670	666	669	672	671	665	661	669	669	656	648	642	646	657	660	658	654	654	654	663	665	660	654	662	657	651	653	647	642	651	659	663	663	674	680	667	667	656	655	653	653	656	652	648	647	641	642	644	649	658	655	654	654	648	642	643	647	648	643	646	651	656	658	653	648	656	656	668	675	674	667	670	670	672	664	653	647	644	650	650	646	642	636	640	642	642	644	642	640	642	644	644	656	660	654	647	647	661	670	657	653	653	647	645	639	635	634	634	635	634	639	639	650	654	656	654	649	642	636	632	631	631	634	633	621	639	642	642	649	649	654	657	671	671	664	649	636	629	629	629	632	639	645	642	643	639	639	632	635	643	646	646	639	639	643	639	635	635	631	628	628	622	623	621	626	627	623	623	617	610	615	616	617	620	620	625	637	651	649	652	652	655	649	636	621	614	621	621	627	630	634	632	652	652	657	649	644	648	648	654	660	657	653	650	650	647
686	688	688	686	693	693	696	689	683	685	687	687	686	680	672	660	655	655	663	678	690	692	691	681	681	672	660	660	655	653	653	653	664	666	675	678	691	691	701	715	716	705	684	684	684	686	681	676	672	671	670	677	677	678	675	673	678	682	688	688	688	682	672	670	668	673	679	686	686	693	697	684	670	653	653	643	612	612	616	630	658	675	687	676	668	661	661	660	664	671	671	673	677	678	672	656	656	638	631	648	651	664	663	650	637	629	644	644	661	684	696	695	691	696	687	679	664	654	651	651	658	676	685	693	691	673	659	665	676	689	698	698	698	689	674	657	660	665	676	684	683	675	666	654	649	658	658	668	684	677	659	640	638	655	671	671	665	676	683	692	698	669	669	661	658	667	670	673	676	688	696	703	693	689	693	691	687	701	696	696	695	695	692	693	684	677	678	684	697	708	714	712	705	700	701	700	701	693	686	681	681	681	678	701	717	717	723	716	698	683	669	673	682	706	708	689	672	666	677	684	686	691	691	689	695	702	705	692	665	667	679	700	694	690	686	683	683	675	674	678	687	692	691	689	690	705	706	689	668	656	665	670	670	666	662	661	666	688	695	685	671	663	659	669	679	684	692	697	694	676	666	665	664	672	675	679	677	680	687	696	694	692	676	665	665	659	664	674	681	688	688	686	677	679	684	687	683	690	692	688	686	683	684	680	681	678	678	680	683	688	682	674	677	684	690	690	694	694	698	701	698	705	707	691	683	682	683	685	686	686	686	690	693	691	682	667	661	651	645	647	666	690	717	703	688	677	674	674	674	679	687	688	679	668	662	663	659	647	635	636	642	659	676	694	699	699	698	705	697	684	667	655	652	665	666	670	673	680	684	686	684	675	660	653	659	670	680	671	652	635	634	640	657	665	664	664	663	675	663	649	639	627	648	646	651	655	656	654	647	647	649	653	660	662	661	655	638	637	636	635	641	650	659	665	671	666	669	669	671	670	680	690	695	693	678	654	655	659	661	659	662	668	669	660	647	639	639	642	646	648	648	646	644	649	643	640	645	644	647	661	673	674	665	664	670	670	664	663	674	670	667	656	647	641	647	647	637	626	624	623	625	628	636	645	654	659	659	654	651	646	652	654	641	640	644	649	648	648	651	658	658	657	652	674	667	667	666	663	663	657	647	645	648	648	649	640	634	636	642	643	649	647	645	645	645	643	647	654	653	648	651	661	670	662	654	654	650	649	643	642	640	639	641	642	644	644	648	651	647	644	634	626	624	623	623	631	632	633	621	622	631	637	646	646	645	653	664	667	663	652	643	643	638	633	634	631	631	635	633	633	633	632	622	624	632	639	643	643	645	640	636	630	630	626	626	614	609	614	621	628	621	621	617	610	615	626	625	625	625	618	621	625	620	615	615	614	616	626	634	638	638	639	634	620	634	632	632	641	648	639	636	638	638	640	646	650	648	645	645	644
657	664	674	684	689	689	692	689	683	691	694	694	695	682	672	664	664	664	667	667	675	675	677	671	671	661	661	658	655	653	653	653	658	671	679	682	687	695	695	705	704	695	678	676	674	674	671	675	678	689	687	677	690	679	676	669	668	668	664	660	660	655	656	658	659	654	668	684	694	694	694	692	685	678	653	643	650	650	647	656	669	684	680	668	654	647	643	643	647	652	657	672	675	681	676	665	641	641	632	640	651	664	657	645	629	627	634	634	658	681	694	697	698	693	693	690	683	669	658	658	662	668	681	691	682	673	664	659	670	689	682	684	684	668	647	636	638	656	676	686	682	679	670	653	643	647	647	659	666	650	638	638	647	661	672	670	660	660	663	671	677	669	669	653	643	639	634	638	650	661	668	678	684	696	696	691	693	700	695	688	679	681	681	684	681	674	667	672	687	705	712	706	698	693	699	704	697	692	679	672	669	670	678	701	717	690	699	698	698	698	697	694	703	712	696	680	668	663	665	672	673	677	682	683	691	700	702	682	669	670	689	707	705	683	677	672	670	670	670	682	686	695	692	681	662	664	653	646	638	653	662	672	671	666	659	656	666	685	691	675	666	659	661	665	672	676	684	685	685	676	666	665	664	672	675	677	676	677	683	690	690	685	678	667	667	659	660	670	682	690	685	676	671	665	663	668	673	680	683	673	672	678	680	679	678	673	676	679	685	688	684	675	675	682	687	685	689	698	698	698	695	702	709	693	685	676	678	683	687	686	690	695	694	693	672	673	662	655	651	652	666	687	709	716	694	684	670	670	670	683	686	687	678	667	655	665	670	647	635	636	642	659	676	695	716	715	710	693	685	662	654	650	652	665	672	673	667	672	674	675	673	667	657	648	652	659	669	664	651	641	648	664	674	676	664	664	654	647	648	660	655	645	641	650	651	656	658	662	657	653	652	655	660	668	666	655	642	633	628	633	641	656	658	668	660	661	661	669	671	666	673	678	681	681	675	665	664	665	662	661	663	669	671	661	659	658	653	641	638	640	640	640	639	634	636	636	647	656	665	672	672	673	667	663	666	665	659	656	674	674	670	648	637	632	633	638	622	615	615	624	621	626	629	641	656	656	663	666	659	663	666	651	639	638	641	645	642	645	652	657	657	657	652	646	650	659	661	660	655	653	648	647	647	649	644	636	633	636	641	646	649	653	649	646	646	639	638	643	646	648	651	661	668	662	653	653	650	653	651	648	646	645	648	648	648	648	648	649	643	628	626	623	619	619	619	631	632	630	614	614	623	632	642	642	642	649	659	660	654	648	643	643	641	637	626	615	609	616	626	633	633	628	627	632	637	642	642	648	648	643	636	630	627	620	620	609	610	611	622	629	631	621	617	611	617	632	632	632	626	621	622	624	626	616	616	613	613	620	632	639	639	640	634	620	628	630	630	639	641	627	616	616	616	626	638	642	642	644	644	641
648	656	672	686	695	695	693	684	686	691	694	701	699	687	682	680	678	664	664	659	659	664	667	664	664	658	661	660	654	649	653	653	659	672	687	688	685	687	687	694	699	687	669	663	662	662	665	675	689	696	703	690	679	679	670	667	663	657	644	638	637	637	636	644	649	642	642	657	681	681	695	703	704	697	683	665	650	647	645	650	662	677	682	673	662	657	655	655	649	653	653	661	667	681	680	672	653	653	640	642	651	658	657	645	631	626	632	651	651	670	680	681	679	678	686	690	691	683	675	675	668	664	673	670	663	654	660	662	671	680	682	684	652	635	625	620	627	650	683	686	680	672	660	644	636	635	641	641	642	639	643	654	667	673	668	662	654	650	659	676	681	669	653	653	643	639	623	643	668	670	661	660	672	674	685	685	686	686	681	668	661	667	667	673	674	671	668	670	687	703	698	690	684	684	693	701	696	684	671	665	665	663	673	683	690	699	699	681	684	693	693	697	690	681	673	670	670	667	666	662	660	668	674	680	688	696	693	670	662	665	687	699	699	680	673	667	672	672	672	678	687	683	672	659	653	652	647	640	639	649	659	667	664	660	656	657	662	678	683	675	673	664	664	665	669	670	670	679	675	671	666	663	670	676	675	677	676	677	683	690	690	682	676	669	663	663	667	672	682	682	674	665	664	664	664	667	667	667	655	649	653	660	667	674	669	667	670	673	678	678	668	656	658	661	660	665	676	689	695	693	689	682	678	679	679	677	672	669	675	684	700	701	689	682	680	676	669	661	656	663	670	679	690	709	698	677	670	670	678	686	680	687	678	667	655	665	670	656	633	630	644	666	682	703	723	715	692	672	663	655	650	646	649	657	657	658	659	660	663	664	661	654	652	647	652	663	669	663	653	648	642	646	669	669	669	665	658	655	654	648	642	640	656	658	662	661	665	667	659	654	657	659	668	674	663	658	652	640	632	633	654	663	662	662	660	661	661	667	671	671	669	670	666	666	664	666	664	664	661	660	669	673	672	669	665	664	664	655	641	641	638	633	634	636	639	638	643	655	663	667	664	664	666	664	658	653	659	656	661	661	664	652	642	636	640	638	629	619	629	633	628	627	634	639	648	648	655	657	658	665	662	650	637	637	637	639	636	640	645	652	657	652	644	643	648	658	662	658	650	646	643	642	642	646	642	633	630	633	634	640	649	654	650	643	643	635	630	635	646	648	646	643	635	633	633	647	658	656	652	652	647	647	648	645	645	648	646	646	641	630	626	623	623	619	619	619	615	598	593	608	611	615	615	620	623	631	637	635	632	624	623	623	634	633	627	617	612	616	626	626	633	641	641	651	657	649	649	647	640	627	628	622	620	620	616	614	616	621	623	629	629	631	623	618	624	633	638	638	634	630	630	633	635	635	624	619	618	623	630	636	639	640	630	615	606	617	617	624	628	619	604	605	605	620	628	637	639	639	635	634
646	660	675	692	695	688	688	675	686	693	701	699	699	680	678	677	669	656	656	653	651	661	662	659	656	656	654	660	656	647	651	651	659	672	683	689	683	676	676	682	683	680	663	646	643	643	656	676	690	706	707	696	682	682	670	667	663	651	640	632	628	628	635	637	648	650	652	663	679	679	696	707	707	700	686	668	653	645	645	650	658	670	683	691	684	676	667	662	662	653	654	655	658	663	664	659	656	656	639	641	651	653	653	646	631	626	631	641	641	651	660	664	658	661	674	679	680	677	673	671	671	664	660	651	643	634	634	643	665	677	673	652	635	635	618	618	631	660	673	669	663	652	640	639	638	637	650	650	651	646	644	653	661	664	658	650	646	649	660	677	684	678	652	652	640	632	623	643	672	670	671	683	677	673	660	663	668	668	657	645	638	651	661	661	667	664	658	667	681	688	684	673	672	676	687	692	688	672	662	664	672	680	687	683	678	673	673	681	684	693	690	687	676	672	667	673	676	675	670	662	658	658	664	679	689	692	682	665	662	664	671	682	682	674	672	670	681	681	681	680	679	675	655	646	643	647	651	647	641	644	650	658	657	652	649	652	665	677	680	678	671	669	667	672	673	666	663	665	662	664	663	662	665	674	680	675	669	675	681	687	686	682	676	669	663	663	667	672	668	666	663	656	657	669	675	676	665	648	638	635	635	645	651	657	657	662	664	669	665	657	645	637	641	646	659	667	672	682	687	683	677	668	666	674	678	678	669	671	681	694	687	680	687	686	680	674	670	665	655	656	662	669	674	709	698	677	670	670	678	686	680	679	669	655	642	635	639	660	659	658	659	670	675	688	696	685	674	658	648	650	641	641	646	641	635	642	647	653	653	652	649	644	637	636	648	660	665	660	660	657	642	664	669	665	665	661	662	660	658	653	645	645	645	663	663	671	679	676	671	666	670	664	659	658	658	655	652	647	647	643	645	665	662	662	661	661	673	672	668	670	667	662	662	659	660	660	658	653	650	655	665	670	666	662	664	664	668	658	652	652	641	634	632	635	641	643	641	642	650	653	654	657	664	661	658	653	651	653	653	655	657	654	652	646	640	641	636	642	641	638	636	636	638	638	638	645	644	645	644	650	649	642	643	639	637	637	634	640	645	645	642	639	640	638	640	648	654	652	644	635	635	632	632	634	636	632	627	626	627	633	638	648	646	646	644	637	630	635	640	646	634	635	636	638	638	636	641	656	656	657	651	640	633	625	625	634	646	651	642	629	622	623	623	623	619	620	620	613	609	603	610	613	613	614	614	619	627	628	624	615	615	618	630	636	635	617	612	620	620	624	628	641	658	664	659	648	648	634	622	616	614	612	617	617	621	626	633	621	623	638	638	642	637	628	628	637	639	639	643	650	655	645	642	642	633	626	626	631	630	630	636	632	633	620	604	604	599	598	601	597	601	601	599	618	628	636	629	629	635	634
657	668	678	694	695	679	679	672	673	691	686	685	685	680	678	661	653	649	649	648	656	662	658	655	643	643	651	653	650	645	642	655	655	668	683	689	669	660	656	656	660	659	650	640	637	649	649	661	683	693	701	692	682	682	671	668	663	651	645	637	638	638	639	647	652	655	670	674	684	700	700	713	714	701	670	656	647	642	647	647	658	670	676	694	695	684	666	659	659	655	649	645	651	647	647	644	639	631	631	636	648	652	645	636	633	627	631	641	636	636	641	645	650	657	666	665	664	662	666	671	671	670	661	647	628	613	613	635	673	678	669	647	628	628	618	618	643	644	644	640	639	639	635	636	639	653	658	658	658	653	645	650	655	657	654	646	646	648	660	671	682	662	652	639	639	624	635	656	672	670	665	679	671	664	654	653	654	653	644	631	629	645	658	658	657	652	646	655	667	672	666	658	661	669	676	680	675	664	651	656	673	690	695	687	674	670	674	674	679	686	690	687	671	669	668	670	678	682	674	662	657	657	662	681	691	691	681	676	670	670	674	680	671	665	664	671	680	680	680	680	675	658	646	637	641	652	657	660	660	651	650	646	643	646	653	656	666	672	671	669	665	665	672	671	670	666	661	658	655	654	654	657	660	668	676	670	658	664	675	682	683	683	674	666	664	664	665	665	668	666	663	656	657	669	675	676	665	648	638	627	635	642	646	650	651	654	654	650	641	641	642	636	637	640	652	666	672	671	673	671	666	654	657	667	675	674	670	677	689	696	693	684	687	686	680	674	670	665	655	656	662	669	674	669	656	645	645	638	638	647	647	642	634	629	625	617	630	637	647	658	667	677	679	673	668	673	669	656	649	649	644	640	642	636	636	640	646	650	647	645	640	638	648	661	660	653	655	657	659	659	655	656	665	665	663	660	659	664	664	659	663	669	676	669	664	664	668	673	672	664	645	643	645	650	651	650	651	651	650	643	645	665	669	668	666	666	673	672	666	661	656	659	660	660	659	658	657	646	640	639	652	660	654	650	631	635	646	660	660	663	654	639	628	627	635	636	630	632	636	640	646	657	664	661	654	640	638	641	641	645	648	655	658	653	651	647	646	647	642	637	627	626	629	627	627	634	637	634	636	635	631	628	636	641	639	637	634	634	634	629	626	628	624	618	622	634	641	635	632	626	627	627	627	624	618	623	632	637	638	637	638	638	635	635	644	637	630	633	632	628	634	637	639	639	639	632	633	630	640	649	644	635	629	629	624	635	650	647	635	619	622	617	617	617	617	620	624	626	626	621	618	613	613	611	612	616	622	622	618	615	615	628	641	636	635	628	619	625	625	626	626	636	653	651	644	644	637	623	617	617	616	616	617	617	621	626	633	635	634	636	636	644	642	640	639	643	643	644	654	661	664	661	650	650	641	631	626	631	634	634	635	636	635	636	634	634	615	599	591	588	587	587	593	612	631	641	629	629	625	625
679	688	689	689	686	677	677	672	674	673	673	666	666	654	657	661	653	646	650	650	661	667	662	648	646	646	662	662	659	645	635	641	641	659	679	679	669	660	638	638	643	646	647	642	641	639	639	650	668	673	679	678	678	678	678	675	666	660	645	637	648	655	655	653	662	665	678	679	684	698	698	712	708	691	655	642	638	639	642	642	650	658	676	694	683	676	661	654	654	650	653	649	643	643	638	633	629	622	622	614	626	632	630	624	621	625	625	628	636	618	618	622	639	650	661	661	655	651	657	668	668	668	651	633	616	621	631	642	647	656	653	644	633	625	625	631	643	644	636	633	631	632	631	633	644	654	661	661	661	651	647	651	654	652	646	643	646	650	653	658	661	657	650	639	639	633	642	655	658	660	665	679	661	656	651	649	649	645	633	624	631	645	657	656	656	651	648	653	660	661	657	651	652	662	662	664	660	651	647	654	667	687	685	671	665	665	668	670	670	675	683	679	671	669	668	668	667	667	669	663	653	658	668	684	692	693	686	679	676	675	676	674	664	658	648	656	665	666	667	667	667	660	651	641	646	652	659	665	667	664	654	639	640	646	652	652	655	656	654	654	645	657	669	671	673	670	666	662	658	653	653	654	654	663	669	661	657	657	669	681	685	678	663	658	658	657	657	653	648	647	651	652	656	668	677	675	656	642	629	627	635	642	646	650	651	654	654	650	641	641	642	636	637	640	652	666	672	671	673	671	666	654	657	667	675	674	670	677	689	696	693	684	682	678	673	669	666	658	647	652	657	667	668	661	649	645	645	637	634	641	649	652	634	624	625	625	626	636	642	654	665	676	677	662	645	643	650	645	646	655	657	649	643	643	651	658	662	658	653	647	630	640	648	652	653	648	645	646	651	641	641	646	650	650	651	647	647	650	661	663	661	656	645	631	632	639	636	634	639	642	647	649	646	646	645	647	651	651	650	656	654	660	660	664	664	662	663	661	656	653	653	653	654	658	659	661	659	652	642	644	645	642	637	632	622	619	626	640	640	649	658	657	649	630	623	619	626	636	640	649	646	657	660	651	644	640	635	635	632	632	638	648	653	652	650	651	650	646	641	634	628	626	621	621	624	636	643	641	632	626	619	624	634	641	639	638	630	628	628	617	612	615	615	608	611	618	623	624	626	629	637	637	649	641	629	625	626	629	636	637	639	635	638	635	636	634	630	624	617	625	630	636	640	640	635	629	625	624	629	632	637	630	622	622	617	619	639	638	635	619	612	612	612	616	612	622	629	635	635	625	619	619	617	616	616	622	622	622	613	618	618	628	641	642	640	637	636	626	626	624	621	627	634	632	626	626	619	621	617	623	627	626	626	617	621	626	639	644	644	644	641	638	636	637	642	642	642	641	647	649	647	646	644	644	641	631	627	628	636	636	639	636	626	620	626	626	635	619	591	585	585	585	588	603	631	641	641	632	620	615
686	686	680	684	679	674	666	666	671	667	658	650	641	641	646	646	651	646	650	652	661	659	658	660	661	661	677	674	665	650	643	642	642	651	658	660	654	642	638	638	631	634	646	645	640	639	639	646	659	666	666	670	677	682	682	676	670	663	650	646	648	655	655	659	664	672	670	661	660	671	671	675	682	676	660	634	631	631	630	630	632	637	650	678	683	654	654	650	645	645	647	647	645	642	646	656	645	624	611	611	620	623	616	614	621	623	628	621	618	618	618	607	619	632	649	653	647	645	652	661	660	660	651	612	612	637	642	638	634	645	651	648	639	634	634	637	634	641	636	633	632	636	638	645	649	657	659	657	657	645	649	656	664	660	645	634	624	629	631	635	644	648	646	644	635	635	641	646	645	642	643	655	661	656	644	640	640	636	630	625	627	633	647	654	654	654	658	663	664	661	653	646	644	650	661	665	666	656	652	653	665	674	671	666	665	665	666	659	659	660	670	669	669	668	671	668	667	667	646	638	645	655	668	677	683	684	681	675	670	670	669	657	647	634	636	645	653	657	662	667	667	664	654	648	648	658	664	664	666	665	647	642	645	646	646	644	636	635	629	632	630	637	655	666	678	678	667	662	660	657	650	647	643	649	659	663	656	656	674	684	680	674	660	648	646	645	645	641	636	643	653	658	660	655	661	657	651	639	638	640	643	649	655	660	651	649	650	653	651	651	638	631	635	640	645	651	653	655	652	659	661	650	650	662	676	672	669	676	689	693	696	688	679	647	644	647	645	634	630	637	653	662	660	654	649	648	648	639	631	633	643	653	646	639	631	626	626	634	649	647	653	659	659	654	650	646	642	638	644	644	646	637	630	632	640	640	641	646	647	647	644	638	641	647	646	648	638	630	624	623	626	637	637	643	651	658	656	649	640	634	634	630	623	618	620	622	639	638	639	645	651	650	643	636	645	647	650	652	647	639	654	662	663	662	662	661	658	652	644	641	647	650	651	653	654	655	660	659	647	646	642	637	634	630	630	620	609	609	618	628	646	658	652	638	623	616	623	636	640	649	654	651	645	643	642	646	650	650	644	630	627	639	649	648	656	661	656	650	640	630	625	624	619	619	624	631	639	637	630	620	619	624	634	637	637	638	633	633	625	614	606	606	608	607	606	608	615	617	619	623	623	635	634	636	640	629	627	627	633	633	639	635	635	626	628	634	635	628	627	630	633	635	635	635	629	625	619	620	624	628	632	626	615	615	612	609	639	638	628	615	605	608	608	618	621	627	632	639	629	612	614	614	622	627	627	623	622	619	613	613	618	628	642	640	634	629	626	626	623	619	619	620	620	615	609	609	610	619	624	628	632	628	626	619	617	621	633	640	644	644	639	627	625	627	634	633	633	632	631	630	627	628	628	644	641	632	622	625	625	632	637	631	618	608	616	616	625	635	598	592	592	593	588	603	617	613	613	611	611	609
686	664	672	671	670	651	657	657	658	660	651	645	646	646	653	652	649	645	652	652	668	661	658	662	664	677	677	672	666	659	647	642	643	643	644	644	640	633	631	631	631	645	651	655	651	654	649	649	658	663	663	668	671	675	675	675	667	654	645	643	646	655	655	659	650	657	664	667	664	662	655	655	649	652	665	666	645	631	620	617	617	616	628	651	653	654	654	646	648	648	650	648	635	631	638	643	645	641	641	641	640	636	631	621	620	623	618	616	609	609	609	607	619	621	637	646	648	648	648	656	658	624	624	618	626	624	623	623	628	635	648	652	648	643	636	636	633	630	634	628	632	636	649	650	652	653	653	646	638	638	642	651	661	662	652	641	629	621	621	623	631	636	649	655	650	650	645	645	640	636	636	645	650	650	644	640	637	636	627	624	623	630	638	647	654	654	660	668	664	659	650	642	635	640	653	669	673	668	662	662	660	663	662	661	664	666	666	654	648	648	652	660	674	680	680	671	659	649	646	638	645	648	660	666	666	666	666	655	663	666	661	648	634	627	634	645	649	652	653	659	659	661	655	653	653	656	660	659	655	652	656	653	646	644	639	637	635	622	620	617	622	632	640	648	654	661	656	653	655	650	650	643	645	652	666	668	656	651	661	672	673	665	655	646	641	643	643	640	639	649	657	669	664	657	652	646	641	645	642	643	651	656	659	664	655	647	650	657	662	653	639	632	634	637	641	647	647	648	641	634	635	650	650	658	670	672	670	672	677	686	691	664	629	624	629	634	637	642	638	634	638	646	643	646	646	646	641	634	623	627	638	650	653	650	639	628	630	646	663	659	654	653	654	653	654	653	650	645	636	637	635	637	633	635	632	628	627	636	641	645	642	638	638	635	638	641	639	629	615	611	615	615	631	645	655	661	659	648	643	642	649	644	637	624	622	621	624	635	639	645	648	650	643	636	636	641	648	651	646	644	648	661	666	666	664	654	641	642	642	641	642	645	645	639	634	644	650	657	650	645	644	640	638	633	632	626	620	620	614	620	634	643	650	639	624	616	623	636	646	653	649	645	637	634	635	641	641	647	652	641	628	624	634	634	630	630	628	622	620	621	635	653	657	657	641	632	633	630	621	620	619	624	630	634	634	631	627	627	620	609	603	610	611	604	603	604	605	608	607	610	610	616	619	623	632	633	630	630	633	633	629	629	622	616	614	621	637	636	633	630	630	627	627	625	616	611	610	616	623	631	631	621	621	612	612	609	615	632	623	613	607	607	607	621	625	627	630	631	622	610	613	613	626	630	631	625	617	613	613	613	619	629	636	634	624	616	613	613	610	609	612	616	619	618	618	617	618	622	627	624	632	628	628	618	609	602	608	623	634	634	628	618	616	621	626	626	621	618	614	610	611	628	628	627	624	615	609	609	609	615	619	614	606	597	597	600	620	630	628	603	603	593	594	599	606	618	618	623	604	605
664	664	652	652	643	634	634	634	638	650	640	638	642	642	660	661	656	655	661	668	668	661	652	649	651	665	665	665	668	657	648	642	637	637	642	643	643	636	630	635	635	645	651	659	655	655	654	654	652	650	646	651	657	666	664	664	660	655	637	633	640	648	655	655	650	645	659	675	671	659	646	646	639	642	657	662	659	638	628	618	618	615	621	634	640	643	645	646	648	650	645	633	622	608	603	615	626	634	643	648	648	653	657	657	656	637	623	616	608	600	600	597	594	621	637	643	645	650	653	652	635	624	624	630	631	623	621	622	626	629	642	650	648	642	635	635	626	625	627	634	640	649	649	650	639	644	641	633	619	619	624	640	650	662	663	650	635	624	619	621	630	641	656	664	661	654	654	653	650	646	643	640	642	644	639	636	637	636	626	619	619	625	633	639	648	648	660	656	658	658	650	640	628	630	643	659	670	664	654	653	648	652	652	655	663	667	663	650	644	644	651	660	669	675	681	674	661	652	645	638	635	648	660	666	645	624	620	629	646	658	654	641	631	631	639	648	650	646	648	650	652	652	649	646	646	651	656	660	662	661	658	653	648	642	639	638	636	627	625	618	621	628	634	641	649	648	646	644	646	645	648	649	655	661	672	669	655	641	639	654	660	656	650	643	643	643	644	644	650	658	669	673	672	658	646	637	647	653	642	643	650	657	661	663	646	639	642	650	655	654	637	626	621	627	632	640	645	643	639	633	638	644	645	648	660	671	671	670	672	676	663	634	618	621	625	632	636	645	655	654	636	634	638	637	638	638	641	630	622	621	627	644	653	652	644	629	629	644	661	659	652	649	648	651	656	661	661	653	644	642	637	631	633	630	626	616	618	628	636	642	639	634	633	633	638	646	645	627	617	608	609	609	631	645	650	656	662	655	646	649	657	651	641	625	619	615	614	623	639	645	648	649	644	638	636	637	648	651	650	652	658	665	665	664	659	638	630	640	651	650	636	630	632	633	631	632	639	647	649	649	644	641	639	636	637	633	633	621	616	617	628	638	638	639	624	619	628	640	649	650	645	644	640	629	625	630	630	639	641	637	625	618	618	627	639	638	630	628	625	625	621	621	621	622	632	623	611	630	621	620	618	624	631	630	616	606	606	601	600	600	607	612	612	606	601	599	599	598	600	600	603	605	605	609	616	621	630	630	632	635	634	634	629	622	618	617	633	634	636	631	621	618	618	616	613	607	611	616	627	631	627	618	621	612	607	603	608	625	627	622	615	615	612	609	614	623	624	620	610	610	610	619	625	629	629	620	617	613	610	610	621	626	632	629	623	614	614	610	607	602	602	615	624	632	632	636	623	622	627	624	626	626	622	614	600	588	585	589	589	608	615	612	611	619	619	619	616	608	605	610	611	614	614	615	613	605	598	594	594	596	597	597	592	591	591	624	627	629	627	603	603	602	604	613	622	631	631	623	610	598
642	652	652	652	618	610	616	627	627	634	637	638	644	657	657	661	661	663	669	668	668	661	652	649	633	647	647	658	664	658	647	645	646	646	646	648	645	645	650	648	648	653	655	659	655	647	639	634	634	629	628	636	646	655	655	655	651	649	650	648	645	647	640	640	635	645	659	663	673	657	638	628	628	638	649	654	654	646	637	629	629	629	631	636	640	641	647	646	650	645	645	627	612	603	601	618	632	632	635	640	640	645	651	655	657	642	628	629	634	640	639	639	631	603	628	643	645	635	637	630	624	619	626	626	633	629	622	621	626	627	634	645	647	640	625	625	620	621	628	636	643	642	642	636	639	644	622	617	615	621	621	632	645	659	668	657	640	627	624	628	634	651	664	670	667	663	663	659	666	655	645	637	636	640	641	635	629	631	626	619	619	624	638	641	636	635	635	637	640	644	646	638	634	636	646	656	659	656	650	644	642	638	642	645	655	659	656	650	645	655	655	661	666	674	676	671	660	654	650	643	635	641	651	653	645	624	620	630	648	659	657	646	637	633	643	646	646	641	639	644	645	645	642	634	635	646	653	658	661	658	656	652	650	645	642	643	642	639	629	625	623	625	633	635	640	640	641	645	642	638	644	646	653	664	670	668	654	642	633	637	647	649	643	637	637	638	650	650	657	667	673	679	683	663	642	647	651	652	640	638	642	652	657	650	635	629	632	639	649	640	630	624	625	626	629	633	638	640	639	641	655	649	639	636	638	653	658	660	659	654	653	634	623	619	623	630	638	650	655	656	654	646	637	632	635	635	637	633	621	618	626	636	640	642	640	638	635	638	641	640	642	642	641	643	655	664	665	659	653	649	641	626	625	626	622	615	616	624	631	629	630	634	630	631	640	651	650	632	617	615	615	622	631	639	644	643	641	647	652	658	657	657	649	632	617	615	614	623	638	647	661	662	647	639	636	636	639	644	646	650	657	662	662	657	637	631	632	643	648	642	628	622	626	631	639	639	634	636	645	650	644	644	640	637	635	630	630	624	616	612	618	638	638	635	628	628	633	643	647	641	638	639	640	631	624	624	624	633	635	631	627	622	630	628	628	628	626	629	629	624	614	597	597	584	593	623	611	608	609	616	623	628	628	625	617	608	608	603	604	607	609	611	612	606	597	601	602	602	604	604	604	599	599	599	616	621	625	627	630	635	634	634	630	623	620	618	617	614	611	609	611	611	614	625	625	627	629	628	623	624	627	618	618	608	601	597	606	625	631	631	620	620	603	601	613	627	629	621	611	604	604	611	627	632	629	620	615	612	612	608	612	622	627	626	623	622	622	617	610	603	599	609	620	629	629	633	623	622	623	624	621	621	619	611	604	583	581	588	588	604	617	617	614	617	617	617	613	608	605	602	601	601	612	619	625	602	590	581	581	578	577	585	587	593	593	610	630	629	627	614	614	608	610	616	625	625	631	623	609	581
631	629	629	623	618	610	603	618	618	623	630	629	642	652	652	650	657	666	671	668	668	655	646	638	633	647	646	646	656	654	646	639	643	641	641	637	635	638	644	643	648	648	650	654	648	647	639	615	615	609	613	630	643	649	646	644	644	650	647	648	647	640	635	631	631	632	644	663	673	636	628	628	628	638	648	652	646	645	642	643	647	647	646	642	633	638	643	642	640	637	637	627	612	610	617	625	629	629	628	630	630	637	641	638	629	624	620	622	634	641	619	619	624	620	619	623	631	635	637	620	619	614	620	620	632	627	621	621	625	627	631	639	638	630	615	610	610	615	625	631	637	632	625	624	629	627	622	617	619	613	613	618	633	655	659	654	641	631	629	640	654	668	674	671	663	663	668	668	668	658	640	631	635	652	651	630	615	607	611	614	619	624	638	641	637	637	637	644	643	637	635	637	637	637	643	647	649	650	644	636	630	623	625	632	645	651	652	646	648	653	653	656	661	666	668	667	656	653	643	632	621	627	642	654	651	624	612	630	648	659	648	640	634	627	638	643	640	634	631	632	633	630	630	623	624	633	643	651	649	651	649	648	645	645	645	643	641	637	630	629	643	642	635	635	637	640	641	642	627	626	637	644	644	654	660	663	662	647	633	631	632	636	629	622	622	633	655	655	660	668	677	682	684	649	644	654	654	648	638	630	635	644	654	653	634	624	624	639	643	638	627	622	621	616	622	629	635	645	656	664	660	649	634	623	625	632	634	638	633	638	635	637	627	623	628	632	641	648	653	651	648	641	635	632	628	628	626	628	626	624	624	629	630	631	634	638	638	637	631	626	630	636	638	644	653	662	664	664	657	654	638	626	619	624	620	619	622	628	624	622	630	633	628	630	635	650	632	619	618	627	627	641	648	647	638	637	635	635	636	635	634	638	649	632	617	606	608	617	639	659	673	673	655	632	628	623	628	628	634	641	649	649	651	628	621	618	629	636	636	625	616	610	618	629	642	642	632	624	633	645	648	643	640	640	635	635	630	623	616	612	618	632	634	638	637	637	640	644	641	630	627	630	633	626	622	622	621	626	628	628	628	629	614	612	621	623	622	624	625	624	614	614	603	584	593	612	622	606	603	615	624	628	629	629	626	620	620	614	610	611	611	612	605	594	595	600	611	617	617	614	614	610	599	599	591	596	615	621	623	621	621	616	614	619	619	620	616	613	613	615	625	625	623	618	624	624	629	631	623	624	616	616	600	597	598	601	607	622	629	626	619	619	603	608	614	627	629	622	612	612	602	610	627	632	626	621	623	626	626	613	604	610	616	619	623	624	624	625	621	607	606	603	609	609	629	633	620	616	615	621	627	627	622	615	610	595	591	595	595	599	595	604	609	614	614	617	613	605	601	600	604	604	615	620	627	604	584	584	571	561	567	570	581	581	589	610	630	631	626	626	614	607	606	612	618	618	624	620	605	576
639	630	630	616	611	602	603	618	616	628	625	628	631	637	637	638	645	658	660	658	640	640	634	625	627	630	646	646	645	644	646	641	645	634	634	624	619	621	627	628	635	635	643	652	650	650	638	615	615	613	619	632	647	647	646	640	640	639	638	638	641	638	639	634	634	635	641	644	648	636	628	632	632	636	641	638	639	644	643	654	660	660	652	645	634	636	642	639	635	628	618	618	613	610	617	621	618	614	616	625	636	636	636	627	612	592	590	606	621	615	611	613	613	618	609	613	619	624	623	620	619	613	609	609	619	626	626	623	625	627	629	624	617	614	608	604	604	606	617	620	616	606	599	595	604	615	621	621	619	613	613	613	621	638	649	644	636	629	632	636	650	661	667	664	662	659	664	664	662	648	628	616	632	643	641	629	615	609	607	607	631	652	648	641	637	638	647	647	646	640	639	638	639	637	638	637	638	642	641	628	619	613	614	623	641	647	649	646	645	647	654	654	656	662	657	658	661	654	634	624	619	626	647	653	651	643	639	643	645	649	648	640	634	624	624	633	631	627	623	626	630	624	624	619	620	627	631	634	639	636	639	641	642	645	641	642	640	637	639	646	673	650	634	633	637	643	645	635	625	623	626	634	637	646	649	656	661	648	635	623	619	618	614	607	613	640	646	646	656	664	665	632	629	631	641	645	648	639	629	629	634	643	648	653	636	630	631	639	642	635	629	622	617	618	619	624	630	642	651	655	654	644	625	616	617	626	629	625	619	619	629	630	630	630	629	628	637	641	645	647	641	635	635	627	627	626	625	626	626	623	622	626	625	624	627	634	636	633	631	625	625	631	634	639	649	654	660	660	653	643	640	629	621	623	625	626	627	640	618	619	622	631	628	629	635	623	618	618	630	630	635	639	639	642	644	649	641	636	635	635	634	638	637	631	630	621	621	628	637	654	670	676	662	629	618	614	613	617	609	603	601	601	601	607	606	609	616	625	622	617	608	601	610	629	638	639	629	611	617	629	648	652	647	640	634	634	630	623	615	614	613	622	635	641	647	648	649	646	643	631	622	620	626	623	623	623	622	625	625	625	626	623	606	604	609	618	616	618	618	622	614	614	603	594	584	597	611	618	593	591	594	614	630	634	630	630	628	617	613	615	614	614	601	591	595	600	606	617	617	615	614	610	607	597	587	583	603	612	615	613	613	611	612	618	625	627	627	621	619	623	622	622	614	604	603	611	625	631	631	616	602	602	589	591	605	612	617	623	623	618	618	614	611	613	621	621	619	616	612	612	602	610	620	627	627	623	619	619	621	617	609	600	600	606	601	601	599	604	619	615	605	599	609	609	617	608	608	608	612	621	621	625	625	624	620	617	609	609	604	598	583	586	597	614	614	607	600	591	591	603	612	612	618	619	620	606	593	593	576	568	568	567	575	581	589	605	623	628	620	620	608	602	597	602	607	607	618	606	597	582
646	634	618	618	616	611	608	616	616	628	635	624	623	628	622	622	623	630	640	635	628	628	626	623	627	625	629	629	645	644	646	653	653	641	641	619	612	613	616	619	624	624	642	654	660	657	643	616	613	613	619	642	643	642	634	630	630	631	626	629	632	641	647	644	644	643	642	635	622	618	620	632	636	635	633	628	629	638	643	651	657	656	656	644	639	643	646	640	630	620	616	616	609	612	619	621	618	602	611	623	634	634	635	629	615	595	579	588	603	618	604	611	611	608	602	607	613	619	618	613	614	613	609	613	613	624	633	627	625	621	616	608	603	606	605	607	606	606	609	614	609	599	593	591	602	617	624	627	620	614	613	613	605	615	619	623	627	629	625	630	639	644	633	623	611	618	637	641	641	636	616	601	602	616	629	626	620	612	608	611	646	654	651	644	636	638	647	647	650	650	646	640	634	633	630	628	628	634	633	625	609	601	608	619	637	641	645	639	637	645	649	649	651	650	650	648	648	645	629	619	624	638	649	652	643	632	627	628	641	645	641	635	629	624	624	633	626	626	620	616	618	617	617	617	623	631	631	626	622	627	634	639	641	641	639	639	642	648	647	668	678	673	632	633	639	652	646	637	630	629	631	626	623	630	642	652	648	638	622	617	617	618	618	626	638	644	639	626	626	625	629	625	617	618	629	637	640	629	628	628	633	641	644	646	635	629	635	645	642	635	628	624	622	622	620	622	628	636	643	645	649	644	632	632	645	647	640	629	620	620	622	620	625	628	624	622	628	632	639	646	642	640	634	633	633	631	631	636	627	619	620	623	622	621	619	624	628	632	638	640	639	631	626	619	621	636	648	649	646	639	638	634	622	625	630	635	651	653	615	614	621	625	624	626	624	612	608	623	628	628	632	633	633	636	646	649	641	636	635	632	633	628	627	629	642	644	638	634	632	635	647	660	653	624	606	600	608	609	601	590	590	592	589	599	607	612	615	615	611	607	605	603	612	625	631	631	621	607	602	614	631	639	647	645	640	634	626	616	615	616	618	623	633	641	649	652	658	658	649	633	615	606	616	627	627	627	625	626	630	627	626	623	618	597	600	610	615	601	597	622	622	614	607	600	602	600	597	617	620	590	589	599	614	626	626	626	618	610	609	615	617	619	603	595	595	599	602	606	606	615	614	615	617	609	599	593	599	606	607	607	607	606	609	617	628	634	634	629	622	621	621	617	609	605	604	611	625	631	631	625	625	613	599	598	603	607	607	611	607	612	612	618	617	618	616	614	614	609	612	612	602	607	607	611	606	609	608	608	607	607	611	606	600	595	590	590	591	599	606	610	602	599	598	598	587	596	602	606	622	628	628	627	622	621	620	618	610	610	599	588	576	586	597	606	606	602	600	592	595	602	602	608	608	610	612	605	602	602	593	582	580	567	575	575	584	597	606	604	599	599	592	584	577	575	575	584	588	589	586	582
645	630	626	626	625	621	617	618	628	628	635	624	613	618	616	616	615	616	617	620	619	619	622	622	620	611	615	629	629	641	646	653	666	649	627	627	612	608	609	611	629	647	647	657	664	662	647	631	622	622	629	642	643	623	622	627	624	624	617	622	630	636	639	637	634	634	642	638	625	626	629	630	635	635	633	627	627	629	632	638	640	633	633	630	641	641	643	634	627	625	612	612	606	605	609	605	600	602	611	621	633	637	637	634	622	606	599	601	613	624	622	610	610	594	591	603	610	614	610	607	605	614	608	613	613	635	635	627	623	614	604	596	595	603	610	614	615	615	614	614	610	598	593	597	611	626	629	627	625	614	603	605	605	615	612	612	612	618	628	637	637	635	652	652	638	637	649	654	654	641	629	603	596	603	616	625	627	625	618	609	643	650	647	641	636	635	644	650	650	650	638	629	624	627	623	618	616	620	623	617	606	596	596	609	620	632	636	633	633	641	644	647	647	645	640	633	634	631	627	622	632	638	643	640	636	613	608	618	638	637	636	626	622	620	618	624	626	626	620	616	613	608	617	617	631	638	634	623	616	629	636	640	641	639	637	640	647	649	652	661	665	641	631	630	640	642	636	633	631	634	634	634	639	639	629	613	614	625	618	612	614	612	618	630	639	638	628	614	614	608	614	621	618	620	624	632	643	635	626	633	635	635	633	629	627	624	637	647	642	634	625	629	630	634	627	619	620	626	629	636	641	638	634	637	639	639	637	628	617	610	608	610	615	622	624	623	622	624	632	633	639	635	629	636	636	638	638	641	629	622	622	626	625	615	612	619	624	631	633	634	631	619	612	605	613	629	641	645	641	635	635	622	619	617	624	638	661	661	623	609	610	617	617	610	601	594	610	617	617	622	622	623	633	636	646	650	645	632	629	627	629	627	627	631	631	626	624	620	614	608	614	620	615	606	595	596	595	595	598	593	593	592	594	604	610	617	619	612	606	600	601	601	614	620	623	620	616	610	601	605	614	639	647	645	645	630	621	609	609	614	625	628	626	633	639	626	626	635	638	625	598	587	594	594	625	634	641	639	631	625	620	616	615	612	610	609	610	601	597	607	607	611	609	605	606	604	600	595	607	611	602	600	603	608	608	610	601	597	602	612	621	622	624	604	597	595	600	602	606	605	605	610	615	614	606	601	599	601	601	601	600	600	605	617	625	631	630	626	617	611	611	608	609	605	604	604	617	625	629	625	625	614	601	601	603	605	606	605	601	601	599	610	622	616	608	606	605	609	609	607	601	603	605	603	605	603	602	602	601	607	600	603	599	596	587	587	585	589	595	610	602	595	595	582	581	589	598	613	622	626	626	627	622	619	615	614	604	604	586	588	576	578	594	594	601	600	596	590	588	597	597	605	603	603	598	597	597	597	596	582	580	574	574	576	586	602	606	599	599	586	580	573	571	571	571	576	580	576	586	582
642	632	629	629	638	630	621	616	622	622	620	617	613	618	613	613	610	619	622	618	614	614	614	615	614	607	609	624	624	645	658	660	666	649	626	626	609	600	609	619	636	647	647	650	648	644	637	627	621	621	623	630	627	623	614	619	622	622	623	635	635	627	629	633	627	627	638	644	646	641	639	637	635	635	631	627	627	616	617	619	632	640	640	639	631	629	630	636	637	627	612	606	606	602	597	594	592	594	607	621	624	635	635	637	629	616	614	621	628	627	615	604	594	594	591	602	610	618	610	604	612	615	614	621	635	635	635	627	616	608	599	595	593	595	603	612	621	622	622	617	613	604	602	607	616	629	639	634	618	608	601	611	611	615	612	612	612	613	628	646	651	658	653	646	643	645	650	654	638	638	620	600	601	608	619	632	639	636	626	625	640	646	647	646	642	636	637	640	640	640	638	629	624	627	622	615	610	615	617	615	607	599	599	610	615	631	641	639	642	640	644	645	642	642	632	626	624	625	624	626	627	631	628	628	612	598	606	617	627	625	626	623	616	614	628	633	630	630	625	618	613	608	617	638	638	643	635	618	622	628	633	640	640	641	643	643	645	644	646	648	648	641	632	638	629	634	631	625	625	631	637	641	642	636	622	613	612	614	615	614	612	614	619	629	632	633	624	612	612	609	614	618	622	618	629	637	647	648	635	636	636	632	624	621	621	627	641	650	641	633	624	623	632	633	626	616	615	618	621	628	630	631	631	631	629	637	628	620	608	598	594	599	605	617	621	625	626	627	624	620	628	629	628	628	628	636	637	636	630	629	630	630	622	616	615	620	626	629	630	626	626	612	602	602	606	618	633	642	639	629	616	616	617	617	618	622	640	651	642	610	595	590	593	595	596	589	603	611	617	622	622	623	627	635	642	644	637	626	616	614	616	623	627	623	612	613	614	610	605	604	607	618	616	604	597	595	593	603	611	611	621	626	626	629	634	633	623	615	608	605	602	602	608	609	610	615	616	612	605	605	614	621	627	627	632	627	612	603	605	611	626	620	610	615	624	622	614	609	603	597	597	598	597	597	608	638	640	623	621	613	607	605	606	611	613	609	610	608	600	600	604	607	603	608	607	606	603	596	597	603	605	609	612	611	611	600	585	588	596	606	616	620	623	618	607	595	600	600	602	599	593	598	612	611	602	600	598	597	595	595	593	594	596	607	613	618	621	617	604	604	599	608	609	608	606	605	616	609	614	621	621	613	599	598	601	603	603	600	594	594	588	603	615	612	604	606	605	603	603	599	602	603	602	602	605	605	605	602	591	582	591	596	596	596	596	590	582	589	595	602	596	587	587	573	575	583	593	615	621	621	625	618	618	618	612	604	604	591	586	573	567	578	590	590	597	593	587	583	579	572	572	568	579	591	591	590	590	597	596	591	583	582	582	583	602	616	621	597	597	581	576	573	567	571	571	575	580	576	580	580
654	643	643	643	641	629	617	611	600	600	598	601	601	613	613	610	620	628	629	623	609	605	605	613	611	603	606	621	621	645	661	668	670	651	626	619	603	604	615	625	640	636	636	632	631	632	630	629	619	615	615	613	608	606	614	619	624	624	638	643	634	629	629	629	637	637	638	642	647	648	651	646	644	637	637	631	620	616	611	625	639	644	644	644	639	635	634	636	632	625	616	610	610	602	594	587	583	588	599	611	624	635	620	618	621	612	615	634	638	626	613	597	592	592	595	601	609	614	610	610	614	616	614	626	637	637	640	627	616	613	596	588	586	587	598	611	624	619	619	608	603	607	616	619	621	625	634	632	629	615	610	614	614	614	606	604	607	613	628	658	660	643	639	644	637	638	639	633	620	602	602	601	604	613	626	634	640	640	633	629	640	644	645	640	636	631	633	640	643	643	638	626	621	627	622	616	615	617	616	614	610	609	614	613	618	631	644	649	648	642	642	643	642	642	633	626	624	624	623	626	626	622	616	604	602	607	613	620	625	623	623	622	620	625	632	637	638	633	631	625	618	616	622	638	643	643	635	615	614	620	627	629	634	638	640	641	636	630	624	629	633	638	633	622	633	636	631	627	626	629	638	652	656	644	622	612	613	619	624	624	622	618	618	621	625	624	614	613	613	613	614	616	616	618	629	636	641	639	635	635	633	627	627	632	633	636	643	645	638	633	622	619	625	628	622	614	605	604	611	622	625	626	626	627	625	625	621	615	605	596	590	589	598	609	621	625	627	624	615	612	615	619	620	620	623	626	626	625	620	623	630	634	626	621	618	619	622	619	618	618	617	611	605	601	602	610	621	632	632	625	614	612	617	622	623	619	616	617	631	620	593	579	581	588	596	589	603	603	611	612	620	622	629	638	640	638	629	616	607	607	616	622	621	616	602	595	597	604	608	609	620	620	616	608	600	597	602	606	606	616	623	629	631	630	634	635	630	627	625	631	624	605	600	601	605	612	616	612	605	607	611	615	615	619	619	621	617	607	608	613	606	600	599	604	619	617	618	612	604	596	601	602	602	605	603	600	601	609	608	601	597	596	600	611	613	609	606	604	601	601	600	598	589	584	587	593	590	582	587	599	603	605	604	604	602	594	581	588	595	603	601	604	608	618	607	597	597	595	598	592	586	589	599	600	598	593	594	594	594	591	589	585	587	591	601	607	608	602	601	604	599	594	594	597	599	604	609	606	603	603	600	593	591	592	597	598	595	593	588	588	593	606	608	612	604	602	599	599	598	599	605	607	607	604	604	601	601	595	577	575	583	588	589	588	588	590	582	585	589	597	587	576	576	564	563	571	582	598	610	610	608	614	617	610	598	590	604	591	575	562	563	572	585	585	588	587	585	583	576	576	568	567	574	588	595	590	590	588	591	589	583	579	579	581	593	605	605	600	600	585	574	567	564	564	571	575	575	573	576	576
654	649	644	644	644	636	613	597	590	589	589	599	608	613	619	620	620	628	628	620	605	598	598	611	609	613	613	621	630	630	634	642	657	644	619	603	603	605	610	628	637	627	619	619	617	617	622	628	615	606	606	603	600	601	609	620	624	638	641	639	633	631	629	630	629	630	630	634	635	638	639	635	627	621	621	587	584	590	611	625	637	641	639	639	634	628	628	628	629	630	625	624	617	617	603	590	586	585	597	609	616	620	618	618	596	595	612	624	625	614	598	598	598	604	604	612	621	627	624	619	616	609	614	624	642	648	648	641	630	613	596	587	581	582	599	619	625	624	613	613	603	604	611	624	630	629	627	616	617	615	614	610	610	610	604	597	601	612	624	658	660	641	620	607	597	598	599	599	596	591	591	593	606	620	631	634	631	622	619	623	628	628	631	629	622	619	627	639	644	641	641	628	623	622	621	616	615	617	616	607	607	618	618	613	619	630	644	647	646	645	644	640	638	632	632	627	623	622	622	622	620	612	599	599	616	614	613	617	620	620	624	624	624	621	625	632	634	630	627	624	624	622	630	636	643	643	622	615	614	620	627	627	630	635	636	631	628	613	609	612	624	627	603	612	628	639	640	631	629	631	637	650	648	636	623	617	620	625	634	636	632	623	616	613	618	609	610	614	611	611	612	611	611	618	624	622	619	623	625	627	626	614	622	631	629	626	627	634	632	630	620	614	615	619	619	616	614	602	604	614	617	617	618	623	625	623	622	617	609	599	589	585	593	603	621	627	625	614	608	611	612	613	616	616	622	620	618	614	614	618	621	628	623	620	619	614	613	608	611	616	618	613	607	600	601	605	611	616	618	616	604	610	619	626	625	617	605	593	599	606	593	579	581	588	589	595	602	602	606	611	616	624	628	636	635	629	620	611	607	610	618	622	616	610	599	596	599	602	603	609	624	621	616	609	602	597	601	605	605	607	603	604	602	602	605	612	622	630	628	628	624	619	599	601	605	612	619	614	613	611	614	614	614	614	617	617	621	625	621	607	603	603	601	604	610	618	616	610	600	601	604	604	610	612	604	599	596	595	603	596	592	596	600	609	608	597	592	586	586	589	598	606	601	598	591	585	582	582	591	603	599	597	597	597	591	586	585	589	597	600	600	604	608	616	624	618	618	612	599	582	582	584	590	595	588	585	587	591	591	589	589	587	587	590	597	603	604	602	601	601	597	591	590	588	590	597	604	604	600	600	593	585	568	566	587	596	599	599	599	602	605	606	608	601	596	598	599	599	598	598	606	608	604	595	596	598	598	593	585	581	582	584	578	588	588	576	575	578	585	591	573	573	566	556	554	563	577	585	588	588	598	603	603	599	598	590	590	579	564	560	565	576	576	581	585	585	584	586	583	583	576	573	582	591	595	595	591	593	591	588	585	585	580	585	592	594	594	594	596	589	579	569	564	564	567	571	574	571	566	566
