660	674	686	684	678	675	675	681	689	676	663	660	660	666	661	662	665	656	638	638	619	602	603	613	622	622	631	636	640	649	673	690	690	681	674	681	692	716	729	716	716	687	655	643	641	640	644	645	645	647	638	631	629	640	664	670	670	659	633	621	612	609	617	628	628	638	653	670	678	668	651	637	627	614	614	613	607	611	620	621	617	618	619	619	630	637	646	644	637	634	636	647	652	642	642	627	617	642	639	634	646	670	687	678	649	649	620	603	598	603	616	612	620	630	639	646	644	628	628	618	620	630	634	636	642	645	645	642	644	645	646	649	660	660	677	699	714	711	705	695	689	686	696	716	724	715	703	735	751	739	739	731	722	720	725	734	745	753	763	764	767	771	788	823	867	899	923	945	959	974	974	967	965	956	953	949	941	934	943	951	953	957	957	951	945	944	947	975	970	970	976	982	989	988	972	966	978	978	1000	1010	1010	1018	1029	1031	1026	1015	996	960	945	944	971	999	1016	1028	1027	1020	1012	1001	995	1017	1022	1013	999	978	968	966	971	985	1002	1008	1005	1004	1009	1016	1015	1009	992	976	969	966	974	1025	1048	1072	1085	1085	1058	1033	1006	977	951	951	946	930	923	915	919	922	920	924	928	933	943	941	938	943	940	945	950	960	983	978	971	976	993	1017	1034	1028	1005	995	1022	1036	984	977	960	933	917	922	927	937	948	955	960	969	968	959	950	944	939	943	949	961	960	975	989	1014	1029	1046	1055	1053	1037	1018	1001	960	959	978	995	1006	1020	1026	1022	1006	1007	1008	997	985	974	967	957	933	917	925	949	971	976	992	1020	1042	1054	1055	1041	1011	982	952	932	925	919	911	895	881	874	904	922	952	984	980	978	945	955	954	948	941	933	936	939	909	880	863	864	862	860	850	845	842	840	836	831	829	840	874	894	910	919	917	901	888	882	882	877	882	894	908	912	922	941	954	957	962	957	957	971	977	980	983	974	919	912	881	867	868	889	917	953	995	1004	991	993	995	977	961	938	934	936	934	919	910	905	905	902	909	912	908	889	863	863	849	865	887	899	901	889	874	854	837	824	845	859	870	900	948	958	939	906	889	882	880	879	878	867	862	854	849	849	823	821	822	818	804	794	782	772	750	736	725	715	710	704	701	691	683	669	658	658	646	646	654	649	649	655	663	664	661	658	648	634	617	626	643	642	642	618	604	592	592	588	576	574	577	584	587	599	613	619	619	619	620	619	601	634	613	579	578	578	593	594	589	589	594	593	583	576	573	577	583	593	598	591	591	584	581	581	587	602	604	592	583	573	575	575	584	593	596	595	582	560	567	584	579	579	574	575	574	571	565	563	564	563	563	563	563	558	556	557	552	537	521	521	521	526	541	552	581	570	588	588	589	590	582	569	566	558	558	558	556	556	561	569	562	538	538	522	543	556	569	572	566	566	566	572	570	537	530	538	538	544	550	551	543	556	556	564	568	561	541	547	549	549	555	552	545	544	543	543	544	542	536	531	535	535	524
671	687	681	677	676	685	685	695	689	676	663	671	671	670	675	691	678	666	647	647	629	626	627	627	625	622	622	626	633	655	675	683	666	666	656	665	678	700	705	693	693	671	656	653	653	650	645	646	646	641	638	631	629	634	655	664	664	642	626	621	622	622	621	629	632	632	648	663	667	654	631	611	608	607	607	613	610	605	611	617	622	619	619	615	615	624	634	635	629	622	623	621	618	640	640	638	636	639	639	634	650	667	676	678	657	630	630	618	617	627	630	621	619	623	629	637	635	624	615	615	606	614	629	635	639	631	620	634	642	649	644	638	643	643	661	678	689	687	681	675	660	658	661	674	673	672	681	687	694	707	707	703	702	707	724	736	747	753	762	761	766	778	795	826	863	889	911	947	976	975	975	969	956	943	928	918	919	922	928	940	945	954	955	944	935	930	938	953	975	991	1001	1001	1001	994	978	967	977	994	994	1005	1004	998	1012	1019	1014	992	970	942	927	928	950	989	1009	1009	1011	1009	995	984	981	998	1014	1017	1005	987	975	971	977	990	1004	997	984	980	989	996	993	966	923	935	951	948	955	979	1011	1017	986	986	966	949	948	955	951	951	926	929	929	926	927	926	927	926	933	933	935	915	911	923	916	918	928	936	946	961	959	955	956	964	969	963	954	949	952	951	954	937	905	903	911	919	926	936	949	957	958	959	951	948	940	941	946	953	952	957	955	964	964	991	1016	1034	1042	1049	1029	1008	986	961	956	951	970	988	993	990	979	984	988	1000	991	977	962	947	913	906	900	915	942	946	964	978	997	1021	1042	1051	1043	1020	982	953	932	922	913	897	860	843	843	859	868	887	902	954	894	896	909	913	928	923	923	924	929	899	868	855	861	861	850	839	834	840	840	830	815	809	819	858	894	910	918	916	903	885	861	861	853	847	854	883	906	925	942	946	906	884	896	924	953	967	954	942	937	939	936	919	882	875	886	911	929	926	915	922	928	939	946	944	932	924	921	921	895	887	885	894	898	904	914	911	899	870	870	855	867	891	895	880	867	853	845	840	840	849	855	866	871	895	917	917	912	901	894	888	884	881	874	861	854	854	846	823	823	823	814	809	798	791	771	743	726	725	715	706	695	690	690	685	674	659	659	651	654	653	646	641	635	642	653	656	651	635	626	611	607	616	619	619	613	605	587	586	580	566	565	573	584	589	598	609	615	615	618	620	615	597	584	599	634	613	591	584	583	577	577	567	571	579	580	573	577	585	598	602	597	597	586	582	576	575	581	588	581	564	556	564	564	576	579	581	574	576	560	545	558	562	562	566	571	569	562	555	555	563	565	565	568	568	564	555	553	548	537	537	523	524	531	541	552	549	556	569	569	579	586	572	558	547	543	543	548	553	564	569	570	574	564	564	565	563	561	562	560	555	555	555	557	547	539	535	533	533	534	536	539	538	542	542	564	568	561	552	554	554	556	559	553	531	532	532	528	532	531	532	537	537	522	513
681	682	670	665	670	680	680	693	692	687	672	671	671	673	670	670	667	656	644	644	648	651	647	642	643	634	634	635	631	640	655	659	651	651	644	648	654	670	671	659	659	644	630	613	608	619	627	624	624	627	627	618	616	634	655	652	652	641	624	621	636	629	626	631	638	638	651	661	667	660	634	604	593	598	598	604	610	610	607	616	620	629	626	615	615	614	623	633	625	619	612	604	612	632	632	638	640	640	639	642	650	667	675	671	644	624	624	619	626	628	633	628	623	629	638	637	622	601	595	595	597	611	618	603	597	601	611	621	628	645	648	634	640	640	655	663	671	660	650	646	647	650	650	658	659	664	669	675	682	690	690	684	690	707	720	740	751	760	762	761	766	779	785	801	826	853	890	933	964	969	963	963	959	944	937	935	933	928	925	932	945	948	950	943	929	921	928	947	988	1006	1037	1008	1002	993	978	966	969	983	983	990	983	977	988	987	974	959	940	930	923	926	943	969	982	987	995	995	993	984	982	1005	1025	1032	1015	997	980	978	983	989	992	977	962	940	940	925	907	820	830	838	846	848	853	869	900	917	911	898	898	884	912	907	915	922	926	929	918	926	935	936	937	933	929	929	907	893	896	902	905	900	909	925	937	942	946	934	929	952	959	957	955	959	961	951	926	883	881	888	905	921	927	937	949	956	953	951	948	945	945	955	972	984	983	968	957	958	951	960	992	1025	1036	1039	1024	996	967	960	953	945	954	968	976	969	970	967	969	984	974	962	945	933	895	903	896	917	950	964	961	973	994	1009	1021	1034	1028	1002	976	950	931	917	890	857	835	819	809	812	822	829	842	854	848	838	850	845	859	859	859	854	842	817	801	811	830	846	843	839	837	841	836	816	799	809	819	858	887	903	911	894	872	841	841	799	805	803	799	797	849	908	909	888	880	879	897	927	950	961	963	952	954	959	955	939	912	885	892	912	920	917	907	913	925	936	946	944	928	916	905	891	878	872	865	869	880	907	919	920	904	904	886	864	849	845	858	867	852	834	823	828	836	848	852	851	854	860	883	896	907	907	893	883	878	879	881	872	858	858	843	825	817	813	807	806	802	797	769	743	726	713	703	696	692	685	680	679	672	672	656	658	662	661	658	651	639	640	643	641	645	638	619	600	598	607	607	608	604	606	599	599	581	597	608	607	595	583	587	603	607	607	611	607	600	586	580	582	587	582	584	580	568	559	559	559	566	579	580	579	582	589	601	601	596	596	574	574	571	567	569	569	565	556	553	564	564	573	578	577	564	564	566	560	557	557	548	551	560	558	549	547	550	554	565	565	575	580	562	550	541	540	540	540	523	524	531	544	553	541	534	534	537	543	552	556	550	543	538	538	544	556	568	570	576	589	589	595	589	562	539	528	532	535	535	543	541	543	540	533	533	534	531	516	544	550	542	542	553	556	560	552	545	545	549	559	543	525	522	522	527	529	527	534	543	543	551	557
684	682	669	660	663	674	674	685	685	680	674	675	673	673	670	670	629	624	625	625	648	668	669	665	654	647	647	637	634	636	640	634	625	625	628	633	638	643	639	637	637	627	615	601	601	602	601	597	597	598	608	601	604	626	644	652	652	636	626	636	637	633	621	624	632	632	643	654	665	654	639	607	588	592	592	600	611	611	609	607	617	633	632	617	617	622	626	631	622	617	607	599	590	597	616	616	614	611	609	633	653	666	675	671	629	611	611	621	626	629	630	632	626	627	631	617	605	587	574	574	587	611	647	626	610	590	588	605	617	619	614	598	599	608	608	618	632	636	631	631	638	638	636	638	649	658	661	663	672	677	677	684	689	705	723	735	740	739	739	756	766	779	782	794	811	832	863	902	923	946	945	945	942	946	946	952	898	872	879	923	935	936	922	901	889	894	902	928	962	1001	1027	994	989	981	973	961	952	951	955	955	925	921	925	922	915	913	908	915	920	930	943	957	965	970	965	966	973	973	977	986	1005	1015	1000	987	978	983	987	984	965	932	921	918	916	903	837	821	829	838	845	849	854	873	900	917	916	905	905	900	927	920	918	923	919	905	918	926	935	859	881	888	890	890	881	879	886	886	893	890	896	909	922	918	916	880	870	875	885	940	953	962	956	941	861	823	816	816	839	856	891	905	922	929	924	929	944	948	956	970	985	997	998	982	971	952	943	930	914	908	913	922	938	948	956	953	945	941	943	954	947	955	956	947	945	950	957	942	933	914	898	897	902	938	957	961	986	987	973	989	1000	1002	1006	977	958	907	866	858	848	840	817	808	808	822	829	838	842	826	824	817	817	841	843	844	841	834	810	799	793	799	822	837	834	835	841	849	842	816	799	793	804	816	858	853	850	844	837	837	813	796	800	801	796	785	793	811	822	839	849	872	899	923	947	958	962	950	949	953	969	965	934	909	898	901	907	905	907	912	923	935	943	938	918	900	881	878	876	873	865	867	881	898	908	919	912	912	891	870	854	848	852	853	843	826	819	829	838	847	845	842	843	850	859	865	876	886	880	873	867	864	876	867	854	854	835	822	816	816	807	809	803	791	769	738	717	702	692	690	687	680	673	663	655	655	654	659	665	670	670	665	652	641	633	638	639	633	615	590	601	603	603	601	602	607	597	603	583	608	613	600	601	588	585	590	590	596	599	599	590	580	567	571	571	568	567	565	563	563	552	559	566	579	584	585	586	593	603	599	583	583	560	550	564	565	569	568	564	558	558	558	563	573	575	583	583	578	569	568	559	559	549	549	560	558	551	548	547	550	550	556	571	577	565	541	533	531	540	540	533	552	553	557	558	539	534	534	534	540	547	550	549	541	532	532	519	522	535	552	565	576	576	579	569	552	522	523	527	527	533	534	527	532	534	540	540	544	553	516	544	550	546	546	548	551	541	533	521	521	518	530	528	518	520	520	531	538	533	531	536	536	550	555
680	664	653	664	663	657	657	662	663	664	654	646	638	638	635	635	629	624	627	627	647	669	675	671	656	643	643	641	636	637	629	627	617	617	619	626	634	632	620	609	613	613	609	609	609	614	607	581	581	575	583	590	599	617	632	637	636	636	626	650	644	629	615	619	626	626	630	645	650	636	616	597	580	580	580	595	605	606	597	598	610	626	630	629	629	635	642	641	628	618	612	596	581	596	605	605	612	614	605	616	645	665	669	665	629	611	588	587	595	612	619	614	609	605	603	595	583	578	576	576	601	621	632	628	614	605	606	603	605	607	619	613	608	607	607	590	596	601	631	632	611	607	607	625	650	658	654	659	664	677	685	685	693	704	714	722	725	723	728	747	767	778	782	794	791	808	826	842	870	888	905	905	914	928	942	953	900	872	879	913	912	915	899	854	857	866	877	887	905	935	958	968	975	975	969	958	944	928	920	920	920	925	925	922	909	906	909	913	926	936	939	937	944	954	961	960	963	966	968	981	989	987	968	961	958	977	980	964	945	918	909	914	906	862	831	839	845	845	841	851	875	903	919	915	916	918	919	919	936	936	929	926	912	893	872	818	849	859	881	849	857	850	841	846	859	874	878	874	871	873	884	887	868	845	810	821	842	896	905	880	860	852	836	826	821	820	840	852	883	893	906	922	917	908	913	951	965	978	986	993	995	985	966	955	936	911	903	893	884	896	920	939	946	944	940	932	927	916	918	921	929	900	889	927	940	942	935	915	897	901	906	916	932	955	973	971	941	912	929	952	948	891	868	856	834	817	815	816	809	806	812	824	832	848	854	832	821	824	809	836	841	840	840	834	814	801	798	802	825	819	815	817	837	849	842	815	800	799	807	812	817	827	831	831	824	824	812	804	803	807	809	795	786	789	795	810	827	852	879	911	932	941	947	939	936	939	958	960	929	912	897	888	893	899	906	910	921	924	921	911	891	875	874	880	882	889	886	871	871	878	874	868	856	856	854	856	856	848	849	851	847	835	831	840	844	846	842	843	850	850	848	846	842	836	807	796	798	822	826	838	838	832	826	822	818	799	772	753	803	791	761	728	704	690	684	680	670	664	656	648	644	644	652	661	666	671	654	635	621	614	605	598	590	589	592	602	602	600	600	596	599	609	611	608	614	623	624	619	607	591	585	591	591	595	594	591	572	566	560	559	562	559	558	552	553	563	552	551	562	581	594	594	591	585	598	601	584	584	555	545	557	566	571	573	564	556	557	557	559	560	565	571	573	570	573	577	564	564	546	537	550	557	551	544	545	543	543	543	558	561	551	531	533	531	537	537	546	548	551	557	556	541	512	512	510	523	535	545	553	547	537	537	518	519	522	529	534	532	532	530	519	517	514	518	524	524	539	538	501	506	514	519	519	544	553	556	530	532	532	532	530	526	537	530	522	522	522	523	522	520	523	523	531	541	538	525	525	525	527	530
652	644	648	651	644	640	640	641	644	648	649	635	622	622	618	606	610	615	627	627	647	653	659	656	649	647	647	642	634	638	636	625	623	623	624	631	634	631	616	602	601	601	599	603	610	605	593	579	570	570	576	594	613	618	613	613	626	626	641	650	644	629	577	560	568	568	584	608	612	591	590	586	579	578	588	588	598	594	587	572	570	594	621	637	637	646	646	635	603	579	564	569	584	594	605	605	611	611	610	617	622	613	622	595	613	588	587	587	589	593	575	568	581	588	583	574	565	565	573	595	595	616	619	624	619	612	613	608	611	610	620	616	611	613	613	615	624	627	601	589	601	603	610	620	647	657	646	645	654	664	677	677	686	696	709	714	715	717	713	721	744	759	759	761	791	767	795	830	862	879	892	905	905	922	936	947	945	928	914	908	894	842	820	818	823	824	830	830	822	829	893	949	960	966	961	938	926	908	913	913	924	935	935	935	922	914	910	923	937	944	942	934	936	945	950	954	957	949	943	942	941	945	933	905	921	925	962	949	929	911	908	898	880	846	832	826	829	826	827	837	878	896	898	890	898	906	886	886	884	878	866	849	831	822	820	831	830	839	842	849	857	850	840	843	848	865	875	870	872	874	874	868	847	814	806	817	839	860	864	854	853	852	849	842	844	868	890	906	894	886	889	892	890	887	888	900	937	959	962	968	968	966	959	948	907	900	896	893	886	887	904	919	936	935	929	900	873	864	870	883	864	862	878	896	936	929	913	897	876	874	876	898	911	913	901	880	865	841	851	866	865	866	857	842	818	818	818	811	805	808	816	828	838	848	852	841	834	846	863	850	843	838	844	840	838	831	822	820	837	844	815	817	837	851	848	826	811	809	810	811	809	815	819	820	820	815	814	811	839	847	818	800	788	788	793	806	822	846	878	891	903	936	929	913	904	895	900	910	912	903	894	881	878	880	892	904	908	908	896	881	863	862	873	877	884	891	886	868	856	853	845	831	831	830	834	829	828	829	826	838	842	840	846	842	843	843	843	846	854	855	844	838	841	819	802	791	789	800	810	811	811	809	812	814	807	793	772	753	745	744	726	704	694	683	679	672	663	651	636	630	627	627	631	636	634	626	615	617	614	607	603	595	590	589	590	596	595	595	586	580	583	601	611	608	606	609	596	603	604	602	591	581	581	571	567	573	556	553	553	553	556	555	552	552	553	553	550	548	558	576	590	594	584	572	565	567	567	573	567	550	546	546	555	546	542	539	535	535	547	557	565	564	556	552	551	549	536	536	525	531	541	546	551	543	534	527	527	523	539	546	551	531	523	525	531	531	544	547	552	554	550	532	498	498	491	501	527	542	548	546	535	535	526	516	518	523	521	511	511	507	507	508	512	512	525	525	522	492	485	478	514	519	519	519	523	536	537	538	538	535	521	524	517	533	531	531	532	526	523	526	528	528	534	537	542	533	510	510	485	519
621	621	626	624	618	612	616	616	620	616	616	620	613	613	596	583	585	599	614	631	631	653	659	626	631	628	628	627	627	629	644	644	644	639	639	639	640	628	615	596	584	584	577	580	581	574	562	562	562	562	578	599	604	602	597	595	607	607	622	637	629	608	577	560	539	563	563	582	578	584	593	592	588	592	597	597	606	600	593	584	579	583	587	589	598	598	593	581	558	558	567	580	581	587	595	595	605	613	612	609	608	610	609	597	572	570	575	575	589	593	573	565	577	586	590	587	578	571	577	592	592	611	618	612	610	608	612	606	608	612	618	621	615	615	615	618	625	621	587	581	599	601	610	631	649	650	644	641	644	656	671	671	677	685	702	717	724	714	706	713	739	753	753	757	756	767	795	848	883	902	915	918	918	925	929	930	937	931	919	883	836	813	798	796	798	804	802	783	768	806	822	868	945	950	932	903	891	891	901	921	921	938	944	946	937	927	928	929	938	945	944	940	916	895	896	898	895	879	870	862	833	827	832	857	869	892	900	895	880	870	865	867	848	833	831	821	813	811	812	819	839	871	878	872	865	842	835	847	847	850	846	842	840	840	840	842	842	847	851	859	866	852	840	843	855	863	878	884	885	886	880	870	850	818	813	818	832	847	842	833	840	847	856	860	868	885	918	948	946	935	923	893	877	879	879	887	909	928	941	947	950	944	934	915	896	893	895	896	892	888	889	886	878	884	885	877	840	827	816	812	823	847	864	891	922	908	890	863	862	855	856	862	873	872	870	848	831	820	821	825	827	832	830	816	808	811	822	834	829	815	815	820	826	837	852	849	845	871	900	920	862	837	839	840	838	827	821	820	837	844	848	849	853	852	841	827	814	809	811	806	780	790	798	815	815	819	826	832	841	847	815	789	791	791	793	807	831	853	867	875	873	854	838	837	823	800	812	840	870	895	881	866	848	850	862	884	892	879	848	823	797	809	826	839	844	847	845	836	829	823	816	812	812	815	820	812	798	799	796	797	799	798	801	822	824	819	820	836	833	832	832	834	840	824	797	784	783	789	786	785	785	785	789	797	807	793	748	726	726	723	717	702	689	676	670	662	653	642	627	622	622	626	632	630	629	624	618	617	609	601	598	595	594	589	590	595	588	588	579	571	576	587	599	601	598	587	577	580	589	593	586	572	572	563	552	547	542	545	547	551	552	555	552	550	548	548	554	565	569	571	566	559	556	547	540	541	541	547	557	559	565	570	573	565	556	546	542	542	549	555	564	560	551	547	543	543	538	538	527	527	533	539	541	534	524	515	515	517	539	546	538	520	511	514	514	517	526	545	542	514	508	495	486	486	478	477	508	536	540	519	519	503	485	474	476	492	505	504	504	486	496	509	537	528	523	523	517	514	485	478	488	481	481	482	488	524	531	536	536	509	516	524	523	528	548	548	515	498	479	470	480	480	488	495	505	516	521	521	524	535
604	604	589	579	590	590	593	593	585	572	576	582	594	594	592	582	581	592	604	615	615	628	628	626	631	628	604	604	601	600	607	611	611	610	610	619	626	636	626	587	569	569	558	558	559	550	534	535	548	548	571	578	579	566	556	559	582	582	608	620	613	567	542	534	539	563	544	564	580	589	600	607	602	604	605	605	604	603	594	589	583	578	575	542	582	582	589	569	600	617	578	587	604	597	595	598	598	603	602	606	602	601	598	593	574	574	580	580	600	591	573	565	577	588	591	594	587	582	583	592	592	602	602	599	598	598	606	604	601	609	614	617	618	614	604	604	598	603	600	578	580	598	618	635	652	652	641	636	630	633	645	658	658	677	681	696	713	707	696	711	735	746	747	755	754	764	792	848	883	904	916	922	922	933	937	930	932	931	878	837	807	794	790	787	790	791	784	764	751	757	775	818	865	875	879	877	852	849	845	858	858	865	876	894	912	925	925	926	934	935	933	900	840	844	845	847	820	796	808	810	789	778	787	827	850	857	876	865	853	844	834	837	832	832	840	823	812	801	805	814	829	834	835	833	833	829	829	843	843	852	855	855	848	846	849	850	851	855	873	879	873	860	849	847	855	863	878	892	896	898	893	878	851	837	823	819	821	825	820	807	817	840	858	868	877	898	928	939	942	932	920	893	871	871	868	878	892	913	924	916	877	865	864	859	869	886	901	902	897	890	886	875	866	858	855	851	845	837	827	820	825	843	865	885	898	890	864	848	852	860	859	870	878	876	868	852	812	805	798	794	793	806	811	805	798	803	817	829	829	814	810	812	810	817	820	836	856	894	918	921	845	827	831	834	830	827	821	821	832	838	842	845	850	848	832	818	807	799	791	763	752	758	779	779	790	818	826	828	828	817	798	795	795	800	802	815	839	854	860	862	843	829	819	802	796	795	798	819	854	865	859	843	833	822	812	807	797	794	795	791	792	787	776	781	787	796	800	812	808	804	802	802	794	798	799	790	786	792	790	792	790	780	782	782	794	797	798	804	811	804	817	833	844	828	797	778	776	772	770	770	768	760	752	797	777	736	728	724	721	718	711	698	680	665	659	654	641	630	623	625	625	631	630	628	626	628	632	628	616	596	589	587	583	580	583	597	594	594	576	565	566	572	587	593	584	567	562	572	581	581	572	572	564	556	544	539	530	534	533	541	552	552	552	549	549	549	573	574	567	566	556	538	529	544	549	552	552	554	558	562	567	573	577	574	567	554	546	546	548	552	547	541	536	533	536	525	525	520	514	529	533	535	533	533	529	515	515	517	531	532	531	526	506	506	506	513	527	542	536	510	502	487	487	475	479	511	521	514	515	510	510	507	505	505	508	514	517	519	519	521	512	511	534	529	522	522	517	514	511	540	528	528	524	521	521	535	525	532	532	503	488	487	496	487	487	438	438	441	453	463	467	467	459	468	491	530	530	528	507	513
584	584	577	570	573	583	578	578	572	562	560	566	571	571	578	582	591	592	596	597	597	590	595	597	607	611	604	604	568	580	594	602	609	613	613	620	625	632	627	600	569	569	557	564	564	564	550	541	544	544	562	570	572	558	546	553	573	573	591	593	558	545	537	533	533	544	544	564	558	571	581	591	595	604	607	607	606	598	587	584	581	571	536	574	587	587	590	571	598	612	581	591	593	624	625	611	611	598	596	599	596	592	595	589	580	579	591	591	578	566	565	565	577	588	593	598	599	595	593	595	595	594	593	584	582	585	594	602	603	607	613	615	615	611	605	605	596	597	604	612	611	615	623	635	645	646	638	630	625	627	629	640	640	650	646	636	630	630	655	688	716	727	730	738	743	756	785	854	888	904	916	885	898	898	897	895	881	871	836	768	768	768	780	783	785	782	769	760	749	753	755	783	802	822	825	821	811	801	789	781	783	783	799	819	849	861	876	851	839	841	845	847	838	831	826	820	785	770	779	786	782	774	774	790	825	848	856	859	854	843	833	829	834	843	852	838	820	806	800	811	825	830	839	835	814	813	818	828	836	836	860	860	851	850	855	858	860	869	878	878	873	861	854	853	858	869	883	892	896	898	879	874	854	830	817	796	791	789	795	798	799	827	855	867	876	893	912	910	919	914	869	868	865	867	866	875	889	901	901	882	871	856	848	850	861	876	903	915	912	897	893	876	866	851	854	855	852	847	840	833	836	852	864	872	875	869	868	863	865	870	873	883	886	883	865	838	816	810	805	794	792	802	805	802	798	798	803	816	819	809	807	800	782	775	781	798	814	853	873	850	828	810	831	834	830	828	818	815	812	814	834	840	839	832	791	777	772	768	763	760	751	753	757	757	770	803	813	820	820	809	801	796	800	797	803	812	836	857	862	847	827	807	796	794	788	780	776	765	765	764	765	773	772	767	766	769	770	773	778	784	787	783	775	779	788	794	793	784	773	775	781	781	783	791	788	779	783	789	789	789	782	775	770	774	784	785	786	792	798	803	813	822	835	821	794	776	771	756	749	749	747	760	752	749	736	730	722	714	711	710	704	690	675	658	644	638	631	627	626	628	628	631	627	620	621	615	605	605	610	614	615	597	569	563	578	588	573	573	566	561	560	566	574	566	561	552	547	552	565	567	563	563	559	553	546	537	529	516	533	541	547	552	551	558	558	571	573	559	549	538	520	505	496	518	541	552	552	559	564	564	567	565	559	564	576	577	577	577	544	510	518	528	529	526	518	517	517	502	492	509	532	531	533	533	529	529	525	521	525	529	525	510	496	497	497	511	524	530	519	507	504	505	505	500	498	501	492	493	498	501	501	503	505	504	512	517	522	522	521	522	511	502	499	529	529	522	516	512	510	540	529	529	525	521	524	535	525	497	497	495	510	490	483	490	490	473	481	461	448	449	449	454	450	448	445	473	473	478	491	529
568	568	569	571	583	586	584	584	582	575	575	578	581	581	581	579	585	588	597	596	596	585	578	578	585	590	578	578	568	580	581	594	604	615	615	615	618	621	611	590	572	569	569	571	571	568	560	552	555	555	545	539	546	560	559	548	535	533	533	534	538	542	543	544	532	541	541	551	558	571	567	577	586	593	603	603	592	572	548	541	537	535	563	574	574	574	583	555	561	577	585	590	593	601	608	595	595	581	575	582	577	577	583	578	579	578	573	568	568	560	561	569	580	586	593	598	595	594	592	586	580	580	580	581	577	575	573	579	588	594	598	599	605	609	606	606	601	601	608	614	612	617	624	620	615	625	626	621	620	621	626	627	627	633	628	627	627	634	654	676	691	699	718	723	735	744	763	782	812	848	872	885	898	805	791	766	750	738	730	723	738	752	769	785	787	780	770	762	753	745	750	769	793	812	824	822	815	807	798	778	749	749	755	768	786	800	811	799	812	820	837	846	845	825	821	806	772	771	774	783	780	775	779	797	822	839	853	860	863	850	847	840	852	867	871	849	828	808	809	811	823	828	816	804	799	797	808	820	837	837	851	866	868	865	867	865	869	871	875	875	866	858	857	854	822	804	804	822	845	874	879	874	854	770	766	761	765	778	784	790	794	829	854	864	873	885	899	898	901	844	830	844	858	865	863	875	884	894	900	899	880	856	851	843	832	858	909	916	911	900	894	889	878	867	856	858	858	851	846	847	853	866	870	866	864	866	870	872	873	877	878	883	886	884	876	850	832	833	852	843	838	835	819	801	794	785	778	796	805	799	797	789	778	771	773	780	803	815	847	850	828	810	820	821	821	823	829	829	825	812	803	814	813	792	780	767	765	764	763	762	763	758	758	752	743	760	791	802	809	809	805	803	802	799	797	797	810	817	820	820	806	793	780	769	758	754	745	749	753	761	761	765	773	775	775	768	763	762	768	780	785	770	769	774	781	788	788	780	765	762	768	768	778	787	785	782	778	784	787	784	791	813	801	781	777	778	784	787	795	802	806	810	811	798	783	771	760	745	738	749	747	744	746	744	737	727	717	708	701	691	682	668	642	616	612	608	601	621	628	628	631	625	617	610	609	594	593	604	617	619	622	607	600	569	580	590	590	595	562	554	560	562	566	557	550	544	545	559	563	560	552	552	547	551	546	537	529	516	530	553	543	534	530	533	533	547	542	531	518	511	510	512	512	513	513	513	521	533	540	545	541	529	528	529	521	518	518	515	519	523	525	532	527	523	520	518	518	512	500	508	515	531	533	538	543	543	547	543	543	539	526	511	498	495	495	507	513	511	505	507	523	529	529	532	521	511	498	498	501	509	509	507	504	510	516	517	513	513	505	496	497	502	499	499	499	513	496	491	475	499	539	539	551	512	514	544	513	439	439	455	486	493	491	483	483	495	482	463	0	0	0	0	0	480	455	470	470	478	491	529
575	575	577	579	585	595	605	605	608	601	595	592	595	591	591	582	581	591	596	598	598	589	571	563	557	564	563	563	567	575	581	594	595	585	585	570	576	589	581	567	554	549	549	556	566	559	545	549	559	572	572	567	574	584	584	561	551	546	546	540	537	543	545	551	550	542	542	538	538	553	567	577	573	567	562	555	555	542	535	530	536	567	573	573	574	553	553	543	566	579	584	586	586	591	589	583	583	570	569	568	561	569	569	569	569	576	575	566	566	559	561	568	577	588	595	595	595	594	584	574	572	572	573	580	580	580	577	575	581	573	573	575	574	584	590	590	591	590	595	604	609	606	614	602	598	600	608	613	615	616	620	633	641	641	638	627	624	634	650	670	679	677	693	713	725	733	736	742	751	767	785	797	805	805	733	721	712	714	718	721	734	753	769	781	784	777	772	772	775	771	762	762	772	798	819	832	826	817	798	758	753	753	744	736	751	779	791	797	790	817	831	840	846	842	836	826	778	765	767	771	778	784	800	818	826	839	851	864	866	869	860	855	867	879	880	856	833	813	803	804	805	800	791	778	766	779	792	814	831	846	846	855	858	860	866	867	865	869	870	868	864	849	840	810	769	764	770	788	798	790	783	783	783	770	766	761	765	775	778	776	798	831	845	854	861	880	887	890	842	814	817	838	855	866	865	870	882	892	900	901	897	887	854	838	831	853	891	911	900	892	892	889	885	871	864	866	862	855	852	860	868	878	873	867	865	861	864	870	873	873	873	872	874	872	866	856	859	872	894	870	844	837	816	798	787	779	770	779	796	795	794	786	783	774	766	780	803	815	847	845	840	805	809	811	813	818	830	827	819	812	801	786	783	778	777	767	761	760	757	760	764	761	761	742	720	727	760	786	800	801	797	800	797	795	781	759	770	784	805	810	805	792	779	765	757	741	742	743	749	752	757	760	760	763	778	768	759	745	746	748	751	746	742	753	776	781	782	764	755	753	753	762	778	790	795	794	788	782	784	796	806	805	799	782	781	786	797	803	804	815	818	810	794	769	744	752	757	745	745	738	736	744	749	749	742	729	716	703	692	677	668	656	633	609	604	597	591	619	634	634	629	625	610	605	598	576	581	599	614	618	611	586	585	590	610	592	592	569	566	571	583	595	597	589	571	557	551	547	517	550	546	546	544	544	546	537	521	516	538	558	536	532	524	519	519	517	522	520	506	508	524	542	547	540	527	527	511	506	506	507	510	512	511	508	509	509	509	510	518	525	530	534	528	519	518	521	521	523	505	508	515	526	526	529	527	527	530	535	540	540	531	515	505	500	500	505	509	505	504	513	518	526	526	528	518	509	500	502	504	512	512	506	510	516	520	518	509	509	499	496	497	506	510	513	513	516	515	490	504	510	527	527	564	533	524	514	505	489	489	477	466	469	475	473	473	479	493	459	0	0	0	0	0	496	465	470	470	503	530	550
566	566	574	582	592	604	618	628	628	628	614	606	602	600	600	595	588	595	597	602	602	591	566	558	564	563	565	565	566	572	578	583	595	585	585	543	542	546	555	549	543	543	543	551	558	555	550	552	563	570	570	562	563	577	581	568	560	554	554	550	544	543	545	549	548	537	534	534	534	549	565	573	573	567	553	544	544	530	526	530	568	575	576	576	574	558	558	546	567	577	549	537	559	583	582	573	573	562	557	566	557	559	555	556	560	568	573	568	568	560	556	562	571	583	584	588	587	587	584	558	556	556	559	587	598	598	586	575	566	557	551	545	554	559	562	560	560	566	573	581	586	593	591	592	596	601	603	607	611	612	631	642	642	642	639	629	619	631	650	649	649	659	675	700	710	714	720	724	719	725	735	743	740	733	733	721	715	712	713	717	731	752	770	778	779	769	774	775	775	777	768	766	770	787	806	819	831	826	807	792	758	743	743	733	739	754	778	781	790	800	824	832	849	852	856	845	819	772	764	769	783	793	816	831	840	848	861	871	873	875	877	887	896	894	885	856	832	802	793	787	791	794	783	774	769	772	783	796	801	801	809	809	822	837	845	837	833	818	806	794	787	773	766	763	766	764	771	781	786	783	774	771	765	761	757	759	764	775	778	776	800	802	831	839	826	818	838	835	818	799	807	829	853	854	857	852	857	872	896	905	890	859	852	849	844	863	896	896	891	884	885	885	883	880	878	866	860	858	855	865	869	871	862	857	851	858	857	860	864	868	865	855	862	853	839	844	849	858	887	866	840	810	789	789	787	775	767	786	795	796	804	786	783	774	766	779	795	811	831	836	836	816	799	799	803	809	817	815	808	796	786	764	704	691	696	703	706	713	730	736	730	730	720	704	701	709	728	761	790	791	789	788	787	782	741	739	748	769	778	804	806	793	781	767	751	741	738	741	747	750	748	741	745	751	742	719	720	730	744	742	737	734	729	739	759	775	802	796	792	782	782	763	764	781	798	810	798	782	779	782	791	797	793	790	822	859	857	850	825	826	866	903	913	905	851	810	757	759	759	782	771	768	769	771	761	727	714	687	672	663	656	637	605	591	588	580	567	572	588	588	577	592	606	608	572	531	525	531	558	571	585	608	609	608	614	628	628	627	611	604	597	577	596	588	573	554	549	543	518	540	540	531	544	544	543	531	512	525	530	528	528	524	522	522	522	523	516	508	500	505	502	512	542	538	525	525	512	494	487	503	505	506	507	507	505	504	504	507	510	520	529	532	527	514	514	514	521	523	505	505	514	521	526	526	523	523	520	521	530	533	534	534	512	512	504	507	504	503	503	509	512	519	519	516	512	505	501	506	511	511	510	511	515	521	521	509	512	509	499	493	496	516	499	493	493	517	518	508	532	534	522	522	528	531	523	525	515	515	498	470	457	444	451	448	448	451	478	482	498	490	490	486	0	496	465	493	493	535	559	573
566	569	569	578	592	612	636	642	642	638	622	608	610	603	603	594	600	597	595	586	575	575	563	562	565	568	571	572	572	583	582	582	579	558	543	543	542	537	541	541	543	552	552	555	563	568	572	566	554	563	563	562	563	574	573	556	558	557	557	554	554	548	545	547	537	531	532	532	535	559	574	580	577	565	553	544	537	523	520	556	562	564	568	576	576	582	582	584	557	541	529	521	525	550	552	538	526	526	534	541	541	517	526	540	552	562	565	564	564	556	550	557	571	562	555	546	545	551	558	558	556	542	542	551	559	572	574	572	559	548	536	535	544	554	554	552	552	556	562	578	592	595	580	582	588	599	616	633	634	631	621	624	610	610	593	582	586	600	619	631	642	653	665	685	701	704	701	701	714	721	736	739	729	721	721	720	715	712	708	716	724	720	739	765	768	758	766	776	784	782	781	777	780	787	806	818	823	821	814	796	771	736	736	728	735	751	766	777	785	800	818	833	854	861	857	839	829	806	769	772	787	816	838	847	852	859	867	872	872	866	877	885	901	885	872	843	813	794	788	787	785	786	782	774	768	771	782	790	790	793	800	800	807	814	822	815	803	788	784	784	771	760	764	767	762	761	759	757	756	761	762	760	758	758	756	758	767	771	773	776	800	802	831	839	781	799	812	809	800	793	806	825	831	827	821	790	796	810	840	856	864	851	836	839	855	868	873	871	862	859	853	848	841	839	841	839	837	838	851	849	847	845	846	837	834	838	848	853	857	863	862	847	829	812	807	817	824	830	823	815	806	791	782	778	778	777	780	786	795	796	804	808	807	800	788	795	799	806	821	839	832	812	783	774	774	784	799	804	798	785	744	711	706	684	684	689	695	699	720	733	720	720	701	693	691	698	707	722	755	781	778	776	769	731	718	720	728	750	767	789	806	800	782	765	747	739	743	750	753	759	760	763	758	752	747	727	719	729	751	774	742	739	739	758	783	830	913	913	901	901	870	852	851	871	897	908	902	886	884	892	885	876	881	907	938	1020	1036	1018	990	986	1033	1106	1148	1153	851	810	824	824	841	879	866	860	859	857	827	834	836	833	817	796	780	751	668	654	642	640	631	635	635	629	614	613	622	615	608	612	629	640	646	647	638	625	614	600	607	607	623	631	613	600	597	573	593	588	544	522	524	536	548	548	540	531	499	519	537	544	537	533	528	525	522	524	519	519	512	515	511	508	507	507	502	498	504	502	499	499	495	490	487	483	493	499	507	507	502	502	500	503	505	512	516	511	511	510	509	514	521	525	509	506	513	520	524	521	521	516	515	512	516	520	528	532	532	532	518	507	503	502	503	503	501	501	501	508	508	503	502	506	508	508	507	518	517	498	521	509	512	512	536	529	476	453	472	507	507	465	438	449	469	508	521	521	523	527	527	529	519	519	494	460	434	427	406	390	390	419	445	466	468	453	490	486	508	487	485	510	510	541	559	559
551	569	569	578	588	605	625	642	642	634	624	607	605	576	576	595	598	604	600	589	574	574	564	558	560	563	570	577	577	583	585	578	563	548	534	534	539	537	541	546	552	564	564	566	569	581	584	570	559	549	549	561	563	549	544	543	547	551	551	554	547	536	525	527	549	552	548	548	548	557	575	585	577	562	548	537	537	523	535	542	543	556	568	574	579	574	574	547	540	540	528	517	513	525	534	529	523	523	524	516	509	511	520	525	527	534	551	563	566	566	558	561	565	560	552	522	510	519	530	540	542	542	542	552	547	545	549	552	557	549	536	538	540	550	553	550	550	551	565	584	603	591	580	578	582	586	586	598	608	611	624	619	613	597	597	583	588	607	631	649	667	671	668	677	683	692	700	702	721	742	742	733	722	704	704	704	705	708	708	716	712	711	709	714	743	740	744	746	762	774	783	782	787	790	796	804	811	813	811	795	763	739	727	727	726	735	755	770	789	795	812	834	850	857	857	839	829	810	773	774	781	790	842	851	856	855	856	850	837	825	821	830	846	849	836	814	790	788	789	784	778	774	776	796	811	812	798	786	780	787	791	799	799	802	796	788	782	780	781	774	766	769	770	770	768	758	732	713	710	723	731	740	751	753	756	758	751	754	762	775	790	799	788	781	781	799	812	809	800	799	811	816	806	782	760	742	738	728	726	737	779	793	816	834	856	866	861	857	843	839	825	818	818	824	831	830	825	811	790	781	787	790	788	801	799	774	771	779	827	853	854	833	801	780	780	797	807	815	819	820	809	794	783	778	778	777	780	783	791	805	812	813	810	800	800	804	808	812	819	829	829	785	741	712	699	697	700	705	714	720	715	709	689	684	683	682	695	709	725	707	707	702	695	690	688	685	681	679	680	705	706	706	702	690	670	663	652	669	692	708	721	717	705	691	682	689	711	751	755	762	757	763	762	757	751	727	745	827	939	1017	982	966	963	980	1005	1110	1160	1166	1153	1153	1166	1187	1235	1345	1388	1419	1436	1449	1456	1444	1414	1396	1374	1303	1260	1273	1285	1323	1334	1322	1285	1250	1148	1153	1118	1031	1034	1034	1041	1055	1097	1100	1096	1085	1081	1098	1125	1159	1133	1103	1071	1019	926	817	743	684	665	690	690	720	726	705	670	633	628	633	649	660	656	650	639	622	597	570	573	573	604	626	615	574	554	565	546	519	524	540	547	549	548	548	548	535	527	533	531	527	516	524	518	516	514	514	514	514	509	510	512	515	516	513	507	501	496	493	493	496	495	490	488	488	494	500	494	487	480	480	484	490	487	483	477	489	493	510	509	509	511	513	522	501	502	508	512	515	515	506	501	489	476	481	490	499	498	498	489	487	496	498	498	492	490	490	491	499	502	491	476	472	499	499	559	559	517	498	495	496	496	492	520	528	465	460	447	439	439	427	438	453	452	463	463	476	480	468	479	493	503	503	482	448	425	426	422	422	380	398	430	444	468	468	453	439	445	461	481	481	528	542	530	520
543	560	560	575	588	605	548	539	539	534	545	551	553	570	570	588	601	597	592	582	569	569	559	553	552	559	569	575	575	580	584	573	564	548	535	535	541	534	536	546	552	562	571	571	582	589	584	566	542	537	537	534	544	542	536	530	531	531	534	534	529	507	486	484	498	525	532	532	537	543	562	575	569	559	543	538	535	535	535	542	540	552	568	575	572	543	517	517	521	526	530	519	517	524	531	528	532	532	538	520	514	513	518	524	529	533	546	553	549	549	548	556	564	561	544	511	509	511	523	540	545	552	552	552	547	531	538	542	547	548	540	538	544	552	555	553	555	555	567	590	593	581	577	571	571	567	566	566	584	608	613	615	612	599	599	592	594	608	626	647	666	674	670	668	680	690	699	713	731	747	746	719	711	702	699	699	704	704	711	717	712	712	709	709	716	723	714	717	734	753	772	777	775	771	752	748	751	752	749	750	750	737	730	730	732	731	755	765	780	789	795	798	800	782	773	768	770	780	780	779	767	759	753	755	765	772	769	765	761	755	756	777	787	788	777	768	745	750	755	757	756	758	774	794	806	810	790	778	776	774	778	785	785	792	788	785	779	772	768	760	760	766	778	774	763	733	708	697	690	698	711	721	737	745	741	731	735	739	747	767	774	784	794	787	791	802	807	803	794	799	811	816	806	782	760	742	741	728	724	729	767	776	803	843	855	859	852	840	829	821	815	813	818	823	819	805	775	734	703	702	716	729	737	752	751	696	689	711	730	748	750	743	734	732	736	738	743	815	819	820	809	794	783	771	773	777	780	778	767	760	761	770	768	729	716	728	735	738	748	754	753	741	730	709	688	682	683	673	679	699	701	694	680	668	662	677	671	667	673	673	688	701	707	706	706	693	680	669	669	676	681	681	677	672	670	670	670	677	674	700	731	730	717	698	684	683	707	756	771	783	815	856	871	902	916	943	1001	1162	1378	1369	1324	1273	1242	1217	1230	1255	1309	1384	1430	1430	1487	1530	1541	1537	1523	1493	1462	1451	1462	1457	1445	1433	1423	1414	1368	1322	1325	1337	1347	1339	1285	1250	1221	1208	1205	1220	1206	1206	1179	1152	1142	1134	1123	1113	1118	1167	1199	1214	1170	1127	1078	1010	910	818	752	714	684	685	685	708	727	737	692	661	641	651	669	672	668	643	574	524	534	547	552	552	558	527	491	503	526	538	541	525	527	527	547	549	547	537	537	532	527	520	523	518	512	507	511	510	509	513	513	510	508	509	512	516	521	515	509	499	495	498	498	496	494	491	490	492	498	500	499	494	495	495	490	490	491	493	491	489	493	502	510	510	512	500	492	490	493	496	498	498	498	495	491	487	485	492	500	498	493	493	484	479	483	488	483	485	482	482	486	496	465	460	455	455	491	491	559	559	519	519	555	528	528	486	462	460	451	453	455	455	437	436	450	464	465	461	461	475	468	455	445	461	491	491	477	449	423	437	459	459	480	398	430	444	448	448	427	410	404	439	489	489	559	530	514	482
551	563	563	578	573	566	548	539	538	526	525	528	542	561	579	579	587	587	582	580	569	569	562	557	560	562	565	565	565	568	570	570	570	552	544	544	547	549	553	554	558	562	571	559	559	550	541	532	529	528	535	535	545	545	528	515	514	517	527	527	521	507	492	484	497	509	529	532	532	534	550	568	569	557	562	548	533	533	527	533	540	552	564	569	526	516	513	513	517	527	532	522	519	523	527	527	528	534	534	521	514	512	517	527	532	535	540	541	536	536	530	533	553	551	536	520	511	509	519	528	544	552	552	555	538	531	538	540	543	543	525	528	537	554	557	551	550	550	560	576	570	574	572	567	567	567	567	565	570	586	603	609	610	600	600	599	601	604	610	639	662	665	661	661	674	690	709	717	735	745	733	717	713	710	711	711	714	712	721	726	715	712	709	705	706	711	701	697	718	738	754	761	762	754	744	742	748	752	748	742	743	745	739	733	733	736	745	753	759	757	756	738	727	723	720	704	693	692	686	682	685	687	699	716	726	735	738	743	751	755	753	756	754	750	739	729	726	724	731	739	747	754	762	772	773	763	747	737	741	750	764	763	775	775	788	788	783	774	765	752	754	766	776	773	766	744	703	684	680	694	710	725	739	743	734	727	727	728	741	756	767	778	789	793	800	812	813	802	791	795	798	812	801	779	755	742	741	728	724	729	767	776	803	925	913	927	859	848	824	813	816	815	823	818	767	728	706	707	713	720	723	724	725	724	718	711	706	699	709	748	750	743	734	732	736	738	743	750	765	779	779	765	754	748	751	753	744	727	714	710	723	738	744	729	695	688	685	689	692	733	739	740	717	698	697	711	710	694	701	712	711	701	679	675	675	679	676	668	664	664	667	686	705	704	700	691	683	678	662	681	684	681	679	672	674	673	672	680	676	707	746	756	778	775	784	824	909	1007	1070	1105	1199	1270	1324	1418	1393	1387	1380	1382	1370	1341	1298	1251	1216	1199	1215	1265	1329	1384	1384	1439	1486	1523	1544	1530	1510	1474	1427	1405	1413	1431	1433	1432	1437	1423	1400	1346	1330	1330	1347	1339	1322	1297	1259	1250	1242	1244	1244	1245	1219	1201	1200	1189	1166	1146	1143	1196	1243	1227	1181	1138	1073	1001	913	833	761	718	696	696	689	707	728	740	707	670	653	624	612	619	608	586	552	515	504	520	530	530	527	490	469	474	484	506	517	518	514	527	525	533	533	533	528	519	510	502	505	512	507	502	500	500	505	506	506	505	505	509	512	517	517	510	498	489	487	493	493	503	503	496	493	494	495	496	498	500	499	499	495	498	497	493	491	491	494	498	506	506	502	493	492	491	490	487	484	484	484	482	474	473	484	503	509	505	484	484	476	471	480	481	478	475	473	473	501	481	441	425	443	453	491	491	568	508	502	498	497	503	503	477	461	448	448	448	442	442	448	474	510	524	507	492	492	476	459	452	481	510	547	547	545	536	522	526	520	459	480	489	466	441	416	416	396	389	409	460	504	504	497	428	420	418
555	565	565	572	563	554	548	538	538	526	525	518	525	552	566	566	576	575	571	572	575	575	569	563	559	567	562	565	565	565	573	575	560	553	552	552	557	558	554	556	554	555	559	559	559	550	504	500	511	517	530	530	535	526	514	506	507	515	521	521	518	512	506	501	500	514	523	532	532	534	541	555	563	562	555	542	534	534	529	528	535	546	564	569	528	528	529	529	527	528	535	525	522	524	524	521	521	517	517	516	512	510	517	524	534	536	531	522	519	517	517	522	535	543	536	528	518	517	533	536	536	532	527	527	524	524	531	540	543	525	513	521	542	560	561	546	537	537	539	550	559	565	565	565	568	567	568	563	568	579	594	598	601	601	604	604	601	598	599	620	649	656	650	652	664	680	673	692	713	719	714	713	720	722	726	730	730	731	734	733	719	706	711	705	706	671	664	674	693	731	748	754	753	744	734	737	747	750	747	739	738	741	736	733	733	733	736	738	735	728	725	724	724	720	715	702	693	683	680	672	674	679	697	718	724	725	732	740	751	756	754	750	741	738	735	724	719	718	726	740	754	762	765	768	764	760	748	737	738	744	748	750	763	763	783	789	783	775	763	751	735	742	753	770	759	741	722	712	715	720	732	740	726	734	741	753	747	745	755	775	791	803	813	821	832	841	830	812	800	793	787	805	794	784	777	771	777	772	765	764	815	839	870	925	913	927	859	848	824	813	816	815	823	818	767	728	706	707	713	720	723	724	725	724	718	711	706	699	709	716	716	716	724	735	739	737	719	718	723	728	735	735	740	742	747	748	735	725	720	713	710	721	720	714	704	692	689	699	705	706	739	767	752	715	711	721	727	727	724	717	715	710	687	682	679	683	680	671	671	666	670	686	703	702	696	695	687	686	659	679	682	703	704	704	724	754	756	734	768	892	996	1044	1068	1084	1152	1219	1352	1396	1422	1454	1488	1509	1490	1460	1430	1416	1402	1378	1353	1322	1283	1227	1210	1204	1221	1266	1319	1373	1373	1436	1480	1510	1521	1491	1462	1420	1383	1353	1354	1373	1384	1379	1395	1408	1389	1336	1320	1330	1342	1338	1330	1308	1277	1257	1251	1262	1262	1255	1241	1230	1223	1218	1178	1138	1133	1181	1238	1234	1188	1123	1052	969	879	794	723	690	684	684	657	656	639	593	560	554	522	491	514	538	539	533	525	514	509	514	514	521	522	512	493	488	488	492	494	518	514	511	506	503	500	500	487	473	469	485	502	508	507	501	492	488	496	499	499	500	502	506	509	514	513	505	491	486	485	489	489	494	498	496	493	491	493	498	497	483	483	479	473	498	497	494	493	493	494	502	502	512	504	495	493	491	487	481	478	478	478	480	472	463	469	491	499	507	507	486	472	468	465	464	456	467	466	466	502	484	444	432	443	453	453	477	550	508	498	494	481	479	479	475	470	455	447	450	449	449	447	461	483	480	471	419	419	409	417	447	459	461	461	470	477	475	489	526	520	520	510	483	455	446	435	435	414	401	425	466	469	469	440	442	443	463
563	565	565	560	565	561	553	531	521	521	518	518	525	530	535	535	551	559	565	568	578	559	559	548	541	544	563	562	561	561	562	552	554	551	553	558	558	553	525	511	521	527	533	533	526	515	504	500	501	510	516	516	526	525	519	514	511	517	523	523	527	526	519	511	501	505	516	522	522	522	530	540	554	559	553	544	539	539	538	553	556	547	543	533	528	528	533	533	531	533	536	535	530	526	521	519	518	517	517	513	511	512	516	517	514	517	519	511	506	508	508	515	528	535	535	535	531	523	530	529	526	524	520	520	519	520	525	537	540	525	509	523	544	543	551	551	545	538	538	551	557	559	559	559	563	566	564	559	561	576	586	592	589	582	589	589	591	592	575	579	608	614	615	613	610	624	658	678	691	699	704	715	727	734	735	726	726	714	710	701	674	650	642	646	675	671	664	662	662	715	741	750	751	738	717	699	692	690	691	688	707	731	731	728	728	733	733	722	708	718	717	723	723	720	712	682	671	670	672	664	665	674	693	712	714	732	750	757	755	750	759	757	747	732	732	734	740	748	756	767	770	767	763	762	755	748	745	748	747	729	703	682	690	747	747	762	763	753	743	733	738	756	799	816	799	775	770	813	815	822	851	858	854	853	859	870	884	882	876	870	882	898	907	910	907	916	912	892	856	842	833	914	974	977	975	964	952	926	882	850	846	844	872	941	921	925	871	859	857	846	831	812	787	751	721	717	722	732	735	729	720	720	723	728	724	719	713	717	723	727	724	732	734	734	732	730	722	714	717	724	726	732	736	738	734	729	723	721	722	720	716	715	717	712	702	695	689	699	703	716	754	783	775	756	722	719	722	721	715	716	718	719	717	716	714	715	705	698	698	697	703	704	704	699	696	693	690	681	674	681	717	787	800	802	843	927	972	978	1071	1218	1321	1366	1388	1407	1429	1435	1423	1419	1419	1439	1473	1493	1496	1472	1451	1430	1413	1386	1346	1288	1238	1235	1239	1243	1257	1287	1334	1334	1378	1410	1435	1469	1475	1441	1411	1386	1353	1322	1311	1316	1296	1277	1276	1293	1286	1336	1320	1318	1309	1314	1320	1289	1263	1250	1249	1251	1251	1267	1258	1247	1248	1233	1180	1136	1033	1016	1005	980	921	819	762	712	658	610	571	604	568	568	525	531	526	494	477	489	482	467	477	514	523	492	490	503	518	520	520	517	512	495	487	493	499	492	494	500	502	496	484	459	452	452	454	464	478	491	508	508	506	497	486	480	480	493	493	496	499	500	507	510	506	492	478	477	481	481	484	487	491	494	492	493	493	493	478	465	465	479	473	474	495	494	491	489	498	504	504	511	508	495	496	491	482	475	472	472	476	478	476	465	461	464	495	496	496	496	477	467	463	466	455	462	462	464	463	464	444	432	445	446	446	462	469	465	459	461	482	491	491	492	491	444	451	463	454	454	452	452	432	430	440	452	452	462	469	475	476	481	481	479	477	475	489	490	469	469	465	459	460	460	456	456	450	452	453	461	477	477	469	465	465	459
565	563	554	554	558	561	551	537	525	525	516	514	523	530	535	530	529	536	534	534	538	525	525	521	523	524	535	544	552	552	544	535	537	547	560	546	546	534	526	515	516	528	533	533	523	513	501	500	501	510	517	517	524	526	527	521	521	527	541	536	536	529	522	515	502	501	511	515	515	514	514	521	534	544	549	549	545	539	539	555	556	553	550	540	534	536	533	531	530	532	536	536	536	529	524	519	515	522	522	519	517	517	518	510	503	508	508	506	503	505	505	509	516	526	536	542	547	538	519	511	505	504	518	518	518	509	505	506	509	506	509	523	522	548	562	558	547	526	526	539	560	564	558	525	523	526	549	554	568	578	586	594	590	585	567	567	563	566	569	568	562	554	548	565	579	595	629	649	659	670	687	703	704	683	663	662	662	662	655	647	609	574	574	577	603	613	639	662	662	658	663	673	681	687	685	660	635	629	633	640	653	675	674	673	677	677	685	693	715	724	723	730	734	735	736	731	737	744	741	731	725	730	731	727	741	812	824	823	808	800	808	823	840	860	872	876	892	908	920	914	896	877	853	842	827	800	780	772	777	779	781	783	824	871	871	896	917	923	909	880	881	898	974	975	963	968	968	960	960	969	987	1044	1097	1158	1193	1210	1236	1263	1260	1250	1259	1282	1279	1222	1069	994	949	904	869	849	839	914	989	996	994	974	956	927	882	860	873	885	889	872	858	810	755	735	751	765	772	774	757	744	731	731	725	728	725	717	710	716	726	731	727	723	720	723	736	740	739	708	693	695	701	698	693	689	689	696	706	710	719	727	720	715	711	715	715	712	707	709	705	701	697	687	689	701	703	713	761	880	867	765	729	709	708	708	706	710	714	714	714	713	719	726	734	734	736	732	719	709	716	729	749	790	818	828	838	876	899	958	1037	1121	1237	1308	1395	1363	1356	1360	1373	1379	1385	1400	1433	1437	1428	1418	1405	1410	1440	1472	1470	1456	1443	1422	1415	1379	1318	1235	1232	1250	1269	1291	1309	1351	1373	1373	1352	1341	1327	1366	1381	1389	1381	1361	1318	1296	1281	1191	1032	1025	1042	1293	1286	1254	1236	1217	1160	1129	1106	1106	1129	1186	1182	1182	1152	1102	1082	1074	1065	1052	1013	978	902	800	733	691	675	666	658	611	558	512	509	528	528	501	495	491	491	475	467	473	478	479	481	490	494	489	490	490	505	507	507	504	497	484	489	493	499	501	500	500	492	482	474	469	469	468	468	479	491	503	518	509	506	496	485	477	485	485	492	493	496	492	487	488	488	499	481	481	487	487	474	463	457	464	475	472	462	468	472	465	465	462	464	464	464	468	467	464	465	467	467	468	467	463	471	463	458	459	456	456	468	469	452	450	454	472	473	474	474	458	465	473	461	456	456	468	468	469	463	464	475	456	449	447	447	449	467	470	464	462	461	461	458	453	458	474	482	481	459	459	456	442	433	432	437	437	448	460	470	476	480	483	481	479	440	467	466	474	474	463	460	458	459	460	456	456	451	454	455	463	477	477	472	468	464	458
557	561	550	550	552	551	545	540	538	538	544	554	547	533	530	530	529	513	498	500	508	525	525	524	519	521	526	533	538	538	527	525	529	539	555	543	543	530	528	529	538	541	537	522	522	509	506	504	500	510	517	517	511	520	527	531	533	529	533	528	528	524	520	511	501	503	504	504	504	494	496	506	534	545	549	545	538	533	533	537	551	555	544	534	531	533	529	530	530	532	532	534	536	532	526	516	518	528	529	529	524	521	519	509	504	499	499	501	508	515	515	500	496	503	520	536	536	538	509	505	509	530	533	533	525	513	507	504	507	510	514	518	522	548	534	529	525	523	523	531	542	550	545	526	521	524	532	534	537	549	564	573	575	569	557	541	541	534	557	560	548	535	521	518	557	584	597	600	630	651	653	650	630	603	584	582	580	580	567	564	544	539	524	537	569	602	616	635	656	658	659	664	676	681	684	659	634	626	629	638	653	674	671	669	674	674	684	694	744	785	798	822	823	822	828	837	849	845	840	826	824	842	838	823	796	798	848	898	981	992	998	1009	1025	1046	1093	1107	1113	1102	1073	1026	968	918	900	878	893	918	929	918	909	939	973	993	1002	1002	1002	1002	1016	1059	1088	1105	1082	1045	1000	977	970	974	977	971	966	973	994	1064	1141	1213	1384	1363	1292	1282	1282	1273	1268	1301	1298	1227	1070	993	947	892	859	879	890	913	922	891	838	780	788	779	765	752	739	741	741	745	745	726	723	724	726	735	752	760	755	749	741	735	724	723	717	706	700	708	718	725	722	718	718	725	733	737	710	701	688	667	663	663	665	666	673	676	677	683	687	703	702	696	699	704	705	702	703	705	703	697	688	682	684	694	703	697	726	785	860	846	756	718	707	701	706	708	709	704	709	705	753	796	815	815	812	808	804	791	832	903	987	1065	1100	1147	1250	1319	1346	1385	1444	1490	1506	1487	1431	1398	1380	1370	1362	1362	1371	1385	1408	1425	1424	1403	1385	1360	1360	1362	1367	1379	1387	1390	1353	1305	1253	1225	1226	1250	1286	1302	1302	1310	1310	1313	1282	1246	1233	1249	1238	1251	1255	1250	1209	1190	1130	974	913	1025	1042	1057	1056	1059	1056	1047	1023	1008	980	962	954	953	959	959	970	983	949	904	868	830	790	755	715	668	607	571	551	555	558	567	538	512	489	488	488	499	506	486	468	469	479	485	493	492	486	485	485	488	490	495	501	501	493	487	481	484	489	491	497	504	510	498	479	473	471	473	473	484	479	471	469	472	497	500	496	489	479	480	484	484	477	476	475	471	464	465	468	472	470	465	465	465	473	460	463	465	463	453	454	468	472	455	455	454	459	455	452	454	453	456	477	481	481	480	485	483	467	454	457	458	456	456	469	470	451	450	452	471	470	476	476	461	466	474	464	460	460	468	468	469	466	450	439	463	458	457	457	453	468	467	464	461	457	457	457	454	461	475	485	482	482	459	457	442	436	432	437	437	457	463	465	455	480	483	483	480	434	434	438	445	445	456	458	461	464	462	462	457	457	465	464	462	462	460	468	476	476	463
549	551	544	544	542	542	535	534	546	546	565	572	558	527	521	520	520	513	498	500	502	520	520	529	538	529	524	525	526	526	523	524	521	522	527	539	539	544	537	537	549	547	539	519	519	513	510	510	499	493	497	511	511	520	529	538	536	524	524	520	520	514	502	502	509	508	507	497	490	490	490	501	521	537	549	542	532	524	524	526	545	553	539	530	527	526	525	529	529	533	532	534	512	512	502	512	517	529	529	529	521	514	519	515	507	499	494	499	509	499	484	484	480	487	500	507	496	495	490	488	492	497	498	496	496	492	474	471	484	520	515	506	485	534	534	529	504	509	512	512	513	514	517	512	501	498	501	514	524	529	530	528	525	520	525	530	530	539	544	550	547	544	540	520	521	536	543	549	606	619	617	598	573	553	537	518	507	507	516	518	515	521	529	537	560	588	634	635	655	656	659	664	674	678	675	676	671	669	669	657	673	691	704	706	723	734	734	802	832	872	877	891	897	880	857	854	854	848	842	836	821	827	820	803	791	792	870	976	994	992	1003	1020	1046	1099	1121	1120	1119	1100	1081	1016	974	906	892	878	896	932	944	939	929	953	983	997	1006	999	990	1012	1012	1054	1088	1102	1076	1048	990	978	981	979	976	971	963	963	985	1060	1090	1231	1379	1370	1323	1295	1280	1233	1137	1092	1070	994	919	852	789	739	715	728	739	742	743	737	713	681	696	705	707	700	685	704	712	716	717	720	720	725	719	726	731	738	746	744	737	732	724	721	707	696	695	701	711	715	714	696	690	704	713	710	699	693	670	660	655	668	672	669	662	661	667	670	680	685	682	682	686	691	695	694	697	697	696	690	688	686	685	684	681	700	723	793	861	858	817	755	723	729	736	766	783	776	779	785	827	925	925	1007	1045	1063	1075	1126	1219	1258	1304	1291	1273	1281	1305	1334	1354	1390	1439	1482	1504	1480	1438	1402	1383	1362	1343	1345	1351	1364	1396	1411	1396	1363	1281	1233	1231	1213	1202	1186	1191	1194	1190	1173	1156	1153	1160	1178	1189	1187	1164	1151	1151	1126	1093	1071	1057	1034	1002	984	967	950	930	912	883	974	913	940	957	959	940	927	908	907	927	936	947	940	926	915	915	897	885	869	825	752	693	650	610	597	601	566	525	520	518	520	526	528	507	503	482	487	487	495	501	498	492	498	500	500	500	489	485	478	472	472	473	477	471	471	472	472	481	480	476	478	489	492	497	483	464	463	462	451	451	462	454	455	459	462	458	455	454	465	467	456	444	444	448	456	470	471	465	466	468	471	468	463	464	464	471	458	462	464	463	447	454	467	471	471	455	455	459	456	453	456	453	456	476	476	480	480	487	481	466	452	463	477	473	473	461	458	458	459	468	478	485	485	477	465	463	463	462	460	460	468	468	470	466	450	439	461	468	468	467	467	466	465	483	479	459	459	451	448	446	451	459	455	455	461	469	473	470	468	464	464	456	452	465	455	458	452	452	448	442	444	449	462	462	473	476	472	466	464	464	462	459	461	460	455	455	454	465	480	493	491
530	540	529	529	525	519	519	539	560	560	571	572	530	513	510	506	506	505	503	494	502	520	512	523	533	529	525	517	517	517	520	528	570	544	550	560	555	555	543	526	526	529	533	533	533	518	514	511	493	481	481	494	494	514	529	538	547	541	535	530	530	523	497	481	476	480	484	486	488	488	488	496	513	526	527	519	494	495	495	503	513	527	528	521	519	516	494	505	505	508	511	510	512	512	510	498	506	522	525	525	517	513	519	515	512	503	481	470	488	499	497	497	499	501	509	507	484	481	480	483	482	486	492	492	492	491	469	465	474	514	515	509	504	507	501	499	504	509	512	512	511	508	507	506	500	492	493	505	515	519	520	519	517	517	522	533	533	543	546	546	543	541	522	512	530	507	529	537	564	569	559	540	525	510	512	514	525	521	521	521	515	524	551	560	580	608	634	652	658	658	660	667	674	678	814	830	829	813	790	773	770	792	812	838	860	867	867	870	878	871	881	886	886	865	843	835	839	851	850	845	834	818	812	801	797	877	980	999	1004	1009	1022	1049	1106	1123	1118	1123	1110	1066	1009	987	946	914	886	880	903	946	960	973	986	993	989	974	963	960	966	977	977	990	1018	1028	1019	987	974	979	987	979	958	910	902	906	943	989	1076	1111	1072	1003	992	969	933	849	831	848	832	786	756	719	700	684	667	666	671	681	684	695	698	694	663	660	665	666	678	680	702	708	714	716	714	703	702	702	709	708	715	725	729	719	707	687	686	687	687	693	697	701	691	685	679	683	686	690	676	680	675	669	666	675	679	671	661	661	656	655	655	659	665	669	664	662	657	658	674	689	687	682	684	685	683	683	673	680	766	863	891	883	858	834	827	834	854	920	1042	1061	1017	1057	1131	1192	1192	1210	1214	1197	1190	1232	1277	1300	1298	1299	1271	1270	1293	1324	1335	1377	1430	1478	1487	1483	1438	1384	1332	1302	1293	1298	1280	1263	1243	1215	1179	1143	1101	1047	1032	1023	1003	949	906	905	919	937	960	960	941	919	906	905	915	915	888	833	833	847	817	781	694	684	683	679	662	912	883	836	833	816	801	793	784	771	757	768	786	776	762	743	729	707	707	686	656	623	599	567	547	528	500	499	518	511	492	497	505	503	502	489	468	469	473	473	470	467	474	489	491	489	489	497	495	492	483	480	473	474	473	477	469	469	472	472	471	464	460	462	469	481	492	483	465	463	460	460	449	459	454	457	460	461	458	454	456	465	467	451	443	443	447	453	467	467	454	449	471	496	493	486	486	478	469	464	462	464	463	447	447	445	445	445	434	464	477	490	491	490	476	467	486	486	477	476	468	458	451	445	443	447	447	451	448	442	450	460	456	457	461	461	466	467	466	463	462	463	465	465	461	454	447	442	450	461	466	466	472	473	470	469	479	475	470	470	461	455	434	428	438	448	448	464	473	475	481	480	470	464	456	452	454	459	458	458	453	447	441	444	448	461	461	476	483	477	472	466	466	462	459	462	455	450	450	453	467	484	486	487
521	525	523	523	519	514	515	536	557	568	568	540	512	498	495	500	500	506	504	491	498	512	523	523	503	485	485	489	489	488	488	502	557	541	512	500	493	493	511	517	507	490	483	475	475	471	478	481	481	476	477	490	490	511	522	546	547	541	510	509	509	508	497	490	485	493	515	518	504	504	494	483	476	488	498	500	498	502	503	503	507	513	508	500	495	497	495	500	504	504	505	513	518	513	510	498	510	506	492	492	484	482	500	514	511	505	495	482	482	498	504	504	507	505	487	484	493	506	512	512	502	490	493	497	497	502	503	491	489	490	496	503	503	505	503	502	505	509	512	513	507	497	488	479	481	489	497	503	508	512	515	519	519	522	528	538	547	547	547	540	531	536	525	505	496	511	522	511	504	496	492	493	500	508	512	514	525	528	528	547	566	607	657	678	677	678	694	708	738	747	757	767	770	778	814	830	994	983	942	870	846	851	859	864	878	882	887	887	889	889	885	883	870	830	813	813	823	837	848	845	825	817	821	859	917	993	1026	1037	1044	1048	1061	1073	1098	1123	1123	1093	1049	981	982	974	953	931	932	971	985	983	986	973	962	943	919	909	926	940	955	960	925	925	903	879	881	908	917	913	900	883	801	776	775	784	796	818	822	821	773	737	751	756	733	695	686	719	723	700	686	668	662	662	657	647	655	660	666	675	672	657	645	644	653	664	673	681	686	698	706	705	690	684	684	688	684	684	690	688	688	692	686	680	675	677	680	690	692	689	682	673	663	656	662	672	677	677	676	676	677	684	682	673	662	657	653	658	652	645	650	666	674	650	648	656	671	681	678	672	666	679	705	730	736	752	880	1003	1029	1025	1028	1023	1000	991	984	987	985	974	970	1055	1152	1152	1205	1213	1209	1190	1188	1225	1267	1277	1226	1191	1140	1087	1049	1074	1097	1090	1073	1046	1025	1004	989	961	867	843	849	848	807	756	746	738	733	734	707	670	668	672	671	664	624	626	636	643	650	647	642	635	623	619	615	615	586	581	593	598	586	578	570	545	544	543	662	640	637	638	640	624	598	579	576	580	574	584	596	585	573	570	545	533	533	520	505	511	519	518	496	496	504	502	520	512	493	497	502	501	499	487	468	469	473	473	471	467	472	487	489	488	488	496	505	501	491	479	469	465	467	467	477	469	471	474	472	465	459	459	459	462	475	472	461	450	449	449	458	461	461	460	480	480	472	460	460	473	477	472	472	472	475	479	476	465	465	458	460	464	467	463	463	460	460	462	462	464	463	456	462	468	466	466	465	472	474	476	480	479	469	468	471	471	480	478	473	459	451	449	451	452	452	451	446	443	451	460	458	457	462	462	467	467	466	463	464	465	464	464	460	452	447	446	453	461	463	463	468	474	475	469	467	467	466	466	461	459	436	431	437	449	449	463	473	481	484	480	470	470	463	453	456	460	469	469	464	458	456	451	442	435	435	435	449	457	463	469	469	465	459	457	453	447	447	449	455	470	474	487
519	521	521	514	514	507	504	500	530	527	527	501	474	461	473	499	499	512	517	533	573	562	540	540	503	485	468	470	470	472	472	483	508	521	507	495	483	483	489	503	515	496	490	479	479	466	460	474	489	498	503	499	499	504	514	524	530	524	510	509	450	450	462	481	484	494	507	510	499	499	483	465	458	468	484	495	498	499	507	507	512	512	509	502	495	497	497	503	508	508	515	514	522	516	495	499	510	506	486	485	485	485	488	490	488	486	482	477	488	493	498	499	499	492	480	478	488	502	511	511	503	492	495	497	501	501	503	493	488	489	496	500	499	493	498	501	504	510	513	507	507	495	486	481	486	494	501	505	506	505	511	518	524	525	531	535	542	542	533	525	526	532	513	494	509	477	489	494	505	498	492	489	488	500	519	540	576	617	617	652	682	734	781	805	801	808	845	872	910	942	951	950	928	936	958	983	994	983	1023	931	903	899	898	894	891	896	899	899	901	896	896	891	867	823	804	799	809	822	825	858	896	907	931	979	1033	1050	1055	1046	1045	1044	1042	1046	1004	1003	1000	983	948	961	961	969	975	1001	995	999	1025	1033	998	973	938	920	911	903	902	906	902	876	821	821	798	788	769	751	745	730	728	727	697	704	706	711	714	705	696	685	681	695	689	685	680	664	658	665	666	658	652	647	643	636	632	630	634	653	661	651	651	646	642	639	644	654	673	688	691	699	697	688	684	685	686	687	680	680	675	678	667	674	680	679	669	666	676	687	686	681	669	652	645	650	660	671	675	673	673	678	680	677	676	668	657	655	657	651	648	638	638	656	662	642	643	653	665	669	687	694	701	705	726	738	730	740	883	1001	1032	1028	1028	1020	989	975	982	980	978	958	951	961	961	935	864	859	858	870	873	866	844	825	815	804	757	708	685	686	688	689	689	629	615	624	633	640	596	590	585	579	559	534	531	530	530	542	538	532	532	525	520	539	543	539	533	527	524	519	525	524	524	528	528	529	525	515	509	509	526	539	542	542	544	543	544	533	517	513	508	520	527	528	529	538	540	532	540	544	541	535	533	533	532	518	504	510	518	518	493	492	495	511	517	516	491	505	509	511	510	494	493	496	501	501	492	483	505	507	508	514	513	506	502	500	495	465	463	463	467	467	467	464	470	482	480	478	477	474	477	492	492	483	479	474	471	471	474	481	476	470	476	487	494	492	488	483	476	471	471	469	478	478	475	471	466	458	457	460	458	460	460	460	460	462	463	463	456	455	462	471	467	467	464	470	472	472	477	474	469	465	472	472	480	480	475	457	457	467	470	474	474	473	464	462	463	462	459	457	459	462	467	468	468	466	464	460	459	459	456	452	450	448	456	459	461	461	462	468	472	469	462	456	456	453	453	459	458	454	448	448	445	443	436	481	484	484	484	474	465	456	452	456	465	465	457	455	458	457	445	445	433	433	442	446	451	449	449	450	455	454	452	449	449	448	455	470	474	474
546	569	598	595	595	579	526	504	490	495	495	503	518	530	512	492	492	497	504	510	492	507	497	497	481	468	468	470	463	463	463	475	501	519	514	493	473	473	472	500	525	527	551	555	549	549	541	543	535	523	493	470	467	467	473	469	459	450	449	449	450	450	453	476	487	483	482	487	480	463	463	444	446	464	478	482	491	496	499	499	495	471	436	421	441	473	506	505	507	507	503	497	506	502	494	490	490	494	486	490	490	492	492	493	491	485	479	480	485	487	490	490	490	489	480	480	488	502	507	504	489	487	491	497	502	502	499	495	493	493	496	496	486	486	486	494	499	506	508	505	505	495	486	485	491	503	510	511	507	506	513	520	527	527	528	528	529	529	527	531	531	520	511	509	472	477	489	498	502	496	516	553	590	620	662	709	771	854	890	890	917	952	983	977	973	993	1052	1094	1142	1155	1153	1155	1175	1195	1169	1124	1105	1082	1023	931	1004	1002	1000	988	985	979	988	989	989	980	974	952	942	930	884	847	841	863	951	986	994	994	1000	1016	1031	1046	1046	1042	1032	1026	1024	996	955	935	922	923	927	943	961	973	987	1009	1004	1012	1030	1042	1002	941	884	868	825	795	737	729	736	727	695	687	687	692	695	669	645	643	642	642	646	659	678	681	684	673	660	647	639	646	651	658	660	645	633	633	635	621	611	612	622	626	624	625	628	634	634	631	639	648	639	640	641	647	653	661	675	676	666	659	652	648	648	655	661	669	661	653	655	654	654	648	644	652	667	672	666	655	648	644	646	665	682	677	658	639	630	626	622	614	605	598	593	599	616	614	635	631	624	623	615	623	627	639	655	671	685	692	704	706	723	730	725	708	697	687	692	706	708	676	655	644	663	668	655	644	639	633	633	596	592	600	611	624	630	625	606	603	591	580	592	592	587	575	563	556	555	550	545	547	551	555	556	521	518	521	516	512	509	515	532	538	537	532	532	526	531	537	546	539	535	531	525	517	518	529	528	528	528	528	525	516	509	508	527	539	542	542	545	548	546	530	516	514	507	520	532	528	532	539	541	535	540	542	540	534	529	529	530	533	539	549	559	564	566	560	549	547	544	547	543	543	532	529	519	507	496	499	499	502	511	523	522	517	492	495	501	499	496	497	497	492	463	463	475	478	478	472	469	469	471	471	473	482	488	491	486	480	476	470	471	471	477	484	475	472	471	483	487	492	486	474	469	468	468	467	467	474	469	465	463	458	457	459	458	458	460	460	460	461	461	456	456	457	460	464	464	466	462	457	448	450	453	462	468	461	461	465	469	471	453	443	446	452	473	473	473	467	464	459	461	466	461	457	457	459	466	469	468	467	466	462	462	462	461	460	455	452	441	447	458	458	457	456	456	457	452	444	444	434	428	430	433	436	438	438	438	443	436	465	477	476	476	468	458	453	450	438	433	433	444	449	453	453	450	450	443	441	441	441	443	443	434	437	434	430	422	422	449	448	451	454	452	452
566	583	604	607	607	600	559	552	548	557	557	577	591	608	589	557	534	534	520	500	502	0	0	0	0	0	0	486	463	463	458	481	540	571	550	515	485	485	482	513	526	534	550	553	554	554	548	549	552	528	502	492	487	487	492	486	468	459	451	451	448	448	453	476	498	488	491	496	502	489	489	478	476	474	470	469	477	492	517	517	515	487	469	468	488	496	493	480	472	472	474	483	492	496	493	484	478	481	487	490	490	493	496	496	489	483	477	476	483	483	485	485	485	483	482	483	494	503	505	498	487	484	485	491	494	494	495	493	494	500	503	498	490	479	483	487	495	500	504	500	500	494	489	485	491	507	514	509	505	506	513	524	524	515	509	509	521	542	542	550	549	526	515	508	519	526	532	563	598	628	679	772	849	914	1020	1061	1074	1084	1085	1085	1095	1080	1061	1049	1037	1043	1080	1116	1147	1160	1156	1164	1189	1207	1181	1136	1103	1070	1034	1017	1004	1002	995	987	976	975	984	988	988	975	962	947	942	931	890	892	911	973	985	997	996	997	1001	1015	1030	1036	1036	1034	1028	1025	995	966	934	922	911	908	909	901	890	879	874	841	798	786	805	805	776	748	721	699	662	636	618	618	633	637	641	631	631	629	647	668	665	657	641	629	622	625	635	641	641	630	623	616	605	600	612	627	642	640	619	614	617	602	594	593	609	622	618	609	596	591	592	598	608	614	614	611	606	602	606	614	620	621	613	609	604	605	607	619	622	623	621	605	588	590	593	602	608	618	615	610	607	605	609	611	610	624	618	593	579	576	575	568	564	555	550	548	547	553	572	602	602	614	603	599	599	610	616	624	630	626	621	589	590	586	588	584	582	585	579	566	559	562	572	590	586	580	583	587	581	567	562	562	563	567	566	576	590	602	609	608	596	580	577	577	589	589	587	575	563	558	555	547	544	546	550	555	554	521	518	520	516	512	508	513	529	543	541	532	525	520	532	541	546	539	532	532	530	524	520	534	554	554	562	562	549	530	530	529	527	539	542	542	548	546	553	570	582	585	588	584	580	586	596	584	564	549	543	532	524	524	524	525	528	533	539	543	559	563	563	561	548	548	543	542	541	544	529	524	515	497	496	495	495	496	511	517	514	511	487	487	493	489	489	494	494	492	472	474	478	478	482	476	468	467	470	472	472	478	485	485	483	480	474	473	473	471	480	476	465	466	466	475	483	481	475	466	461	461	466	467	467	468	457	454	460	456	456	458	458	458	452	444	440	430	424	433	447	453	456	457	457	456	460	454	449	447	448	455	461	458	458	454	455	446	440	444	443	446	448	448	447	442	435	453	457	466	461	455	455	452	461	466	465	463	463	461	461	459	461	462	457	450	440	443	443	455	454	446	443	441	440	435	435	430	426	420	425	436	438	438	438	440	447	456	462	453	453	444	437	439	443	437	429	429	437	440	443	440	439	439	442	442	441	436	429	429	422	422	424	426	422	422	421	427	431	437	439	439
566	583	570	576	576	569	556	556	569	582	582	599	604	617	617	600	578	578	568	0	0	0	0	0	0	0	0	503	473	458	458	481	553	554	539	518	494	510	510	527	538	545	546	545	548	548	556	554	555	536	533	522	514	514	506	503	493	486	481	478	469	469	449	468	498	488	495	493	488	481	481	473	470	471	478	487	493	493	490	489	489	488	488	482	480	473	464	464	471	477	477	482	481	477	481	480	479	480	482	490	493	493	496	484	484	472	465	471	478	481	482	482	482	480	484	486	488	489	491	491	487	481	480	485	486	488	488	488	492	497	503	500	488	478	472	471	469	472	471	478	488	488	493	493	496	507	514	490	486	495	506	519	515	517	533	551	536	516	516	534	539	540	541	600	636	652	706	745	796	991	1028	1052	1061	1030	1032	1049	1057	1059	1063	1065	1065	1055	1039	1033	1029	1036	1062	1116	1149	1161	1153	1160	1187	1196	1164	1125	1087	1042	1023	1010	1003	997	995	987	832	827	829	839	837	837	830	829	832	842	857	865	920	980	994	1002	1000	1003	1020	1039	1031	1018	1000	987	971	965	961	952	930	906	869	846	786	742	710	692	688	669	636	617	628	626	632	638	603	574	559	562	575	582	597	613	611	609	608	608	615	625	630	624	615	603	600	596	595	585	566	551	553	558	557	549	552	566	592	595	595	591	591	568	554	545	540	544	544	538	529	520	522	530	533	540	539	540	539	539	549	556	556	555	552	544	551	574	571	567	570	572	571	561	565	571	553	551	574	609	607	602	600	601	597	607	610	626	617	583	570	568	563	567	563	556	550	550	549	557	570	599	610	596	593	588	587	598	602	613	622	623	617	597	589	583	582	578	579	583	582	575	574	575	582	590	585	580	583	587	580	567	559	559	563	566	568	576	590	600	602	602	596	582	579	578	587	610	609	598	579	577	577	579	582	566	565	568	572	568	559	558	555	549	551	560	568	581	578	565	553	526	529	546	557	535	534	533	528	530	534	546	560	560	559	573	568	565	530	529	546	556	558	573	576	577	576	579	586	595	593	585	582	589	593	592	566	546	539	525	522	522	522	523	526	526	534	534	533	532	529	518	504	506	504	514	522	527	524	518	514	501	486	486	498	492	485	482	479	486	482	474	475	479	478	494	494	488	473	471	473	473	468	464	466	470	474	476	474	471	464	464	462	466	464	458	458	464	465	466	462	460	459	464	465	469	462	456	454	454	460	462	467	465	454	451	451	458	456	458	453	453	447	444	438	435	426	428	439	433	446	447	447	441	438	451	449	444	449	453	455	451	451	448	446	444	438	441	440	443	441	441	444	429	422	453	457	457	455	449	449	445	441	449	448	441	433	432	432	431	429	454	458	456	456	460	460	455	447	440	436	433	433	434	434	431	424	423	433	436	438	438	436	435	439	445	451	457	457	459	457	452	452	450	450	448	441	438	433	433	427	427	432	431	432	427	418	418	414	422	424	426	423	423	422	425	430	436	437	437
531	554	570	576	542	534	542	544	556	546	552	552	0	0	0	0	0	0	0	0	0	0	0	0	0	503	569	567	523	501	520	520	553	554	539	464	465	470	470	478	478	463	438	429	441	441	454	483	526	527	520	499	478	478	470	460	469	483	500	517	509	492	492	484	484	492	495	493	452	456	456	466	475	478	480	478	474	471	474	474	474	473	477	480	478	469	464	468	477	480	480	479	473	471	475	478	477	478	478	481	496	496	498	484	484	486	479	467	477	480	480	478	477	477	477	478	480	480	479	479	484	480	473	473	476	476	476	480	483	488	488	488	474	464	464	467	463	461	462	471	485	485	494	499	496	499	496	490	495	484	482	484	494	502	521	559	558	547	547	538	527	520	538	560	636	744	795	798	800	997	1023	1040	1048	1029	984	973	964	964	966	978	978	985	987	954	949	957	962	985	989	987	977	973	966	955	940	924	921	935	948	919	870	850	835	833	832	827	670	661	665	665	677	683	690	697	706	715	748	778	785	789	790	812	826	828	793	769	750	710	681	670	662	638	640	645	649	627	580	566	557	554	560	554	535	534	553	550	552	548	539	513	496	501	511	535	551	557	557	544	547	565	565	577	575	545	539	562	575	579	576	561	540	537	537	543	546	548	552	565	591	595	593	590	589	562	556	546	539	518	517	523	521	518	522	530	533	535	537	538	537	536	545	552	553	550	545	537	543	569	566	566	569	571	570	560	562	563	553	551	561	574	562	552	553	569	566	554	554	579	579	577	583	582	587	555	550	551	581	584	584	587	588	585	603	618	627	621	603	595	596	602	615	619	614	609	598	589	588	597	602	599	595	592	585	587	592	588	591	602	629	623	626	605	605	586	584	582	581	576	574	576	580	590	585	586	584	584	594	607	610	602	590	582	576	574	567	556	551	553	562	572	577	580	580	581	583	583	584	584	577	564	553	548	553	559	556	551	531	514	525	530	504	522	555	555	559	578	568	565	569	565	557	562	561	562	564	571	575	578	587	592	593	591	589	587	586	570	546	522	510	505	504	503	503	507	512	510	509	501	493	511	508	504	517	515	513	506	510	510	513	507	508	495	482	482	481	485	487	488	487	487	479	477	476	479	478	472	469	467	467	466	459	459	456	462	465	472	472	474	469	462	458	459	454	447	446	447	447	451	457	452	458	457	458	458	458	456	450	447	447	447	453	462	465	462	457	454	458	458	457	454	450	450	448	444	437	426	428	430	438	428	426	426	424	430	435	446	442	438	443	450	454	452	452	447	443	444	447	445	438	439	443	443	444	435	422	433	436	438	438	438	438	435	438	440	441	433	424	415	415	416	423	446	455	449	447	453	453	456	452	446	433	431	431	431	434	434	426	423	433	441	439	439	437	435	435	441	444	448	448	451	446	443	441	443	443	443	444	439	430	425	418	418	419	424	427	422	417	418	414	419	423	422	423	423	425	425	424	429	438	438
491	513	532	542	534	534	524	524	520	509	0	0	0	0	0	0	0	0	0	518	481	447	436	456	456	523	521	506	497	500	509	509	522	511	483	464	465	432	432	445	481	511	481	466	454	451	451	452	529	527	513	473	437	431	431	431	445	482	509	500	485	473	473	468	465	468	464	457	452	456	465	465	471	475	477	468	466	473	482	481	481	471	472	474	476	470	467	470	476	475	475	473	471	469	470	474	474	461	454	463	454	454	467	482	488	486	479	483	475	479	478	478	474	474	472	473	475	477	478	474	469	463	458	461	474	477	477	482	482	484	487	484	475	462	468	484	490	466	466	472	481	481	482	483	496	485	474	501	495	484	482	481	490	499	519	559	552	541	539	539	530	521	539	561	636	739	796	811	809	784	779	781	793	810	826	835	837	832	818	795	795	776	769	782	793	796	802	821	810	797	777	752	745	734	718	717	727	746	761	756	756	752	731	715	698	688	670	661	557	558	558	553	559	570	582	601	605	611	600	596	593	596	602	607	588	574	573	574	560	549	539	525	534	551	559	567	557	546	539	556	556	550	535	534	556	550	552	546	539	513	498	499	509	531	551	553	554	541	546	563	563	575	572	543	538	563	574	574	575	559	536	532	529	513	511	519	539	551	557	564	564	562	536	523	517	517	527	516	517	516	504	540	564	566	566	561	551	528	523	522	524	553	566	567	567	566	581	588	594	590	584	581	571	565	572	582	592	593	615	609	600	595	596	622	621	623	627	609	602	596	601	596	605	610	612	607	599	602	605	609	609	612	630	637	642	633	619	596	588	594	609	621	613	605	595	593	595	601	601	593	593	596	594	590	589	583	593	607	626	624	626	606	606	589	585	581	581	578	574	571	573	569	571	572	576	577	583	597	603	596	592	580	578	575	570	560	555	556	560	565	571	581	582	582	581	582	583	579	577	563	557	553	556	560	557	543	541	532	499	500	543	549	549	549	559	578	573	570	568	568	563	562	560	558	555	559	565	571	578	586	587	584	575	563	555	537	527	515	502	494	499	499	499	502	505	502	498	496	508	506	502	503	503	500	506	484	497	507	505	501	496	492	482	482	479	490	489	488	485	487	479	477	476	478	476	472	467	466	464	458	458	458	453	458	466	469	472	468	459	456	441	442	445	441	438	438	442	450	447	444	443	447	471	458	451	446	443	443	443	450	456	462	466	469	466	454	458	458	453	451	451	443	443	446	432	428	431	439	432	433	430	430	419	421	427	434	437	432	435	439	441	441	437	433	441	449	452	443	428	434	439	439	444	435	427	425	437	437	435	435	431	427	432	437	438	428	420	412	412	412	430	448	454	454	445	441	441	451	451	449	441	433	433	433	435	434	426	425	436	435	435	433	435	436	437	440	442	442	443	446	440	434	432	434	434	435	432	434	431	422	422	415	420	426	428	422	417	417	421	424	422	420	425	425	425	421	420	425	425	431
443	435	466	496	521	521	524	524	467	477	495	495	519	0	0	455	457	457	472	459	448	442	447	453	453	443	448	480	497	497	492	492	493	491	485	474	436	432	432	483	493	495	487	480	467	459	459	446	461	499	485	459	432	412	412	419	434	482	485	476	465	456	456	459	467	471	469	459	454	456	465	465	465	463	459	467	476	475	477	480	480	476	468	471	474	470	468	470	472	474	474	471	467	466	468	472	470	465	461	452	451	451	461	480	486	486	483	483	475	474	468	469	470	470	471	475	475	471	466	461	460	461	460	467	472	478	484	484	476	469	464	460	448	440	454	475	484	493	450	430	432	458	458	467	491	486	475	501	495	485	482	481	490	491	488	487	494	500	501	501	497	489	489	496	518	565	585	602	615	625	614	613	597	596	593	590	591	621	631	633	609	609	591	590	593	596	627	628	626	614	596	591	584	580	572	572	583	594	605	610	625	625	600	587	584	578	561	550	557	558	556	555	559	552	549	548	553	555	546	537	528	521	523	525	530	532	538	539	540	541	531	524	533	550	561	569	556	547	536	547	553	555	556	542	539	536	528	530	532	536	533	530	525	524	526	531	531	552	560	564	561	561	563	555	554	559	577	580	574	568	557	547	547	542	544	547	548	552	559	568	581	587	585	564	559	566	574	580	577	572	575	601	599	595	590	588	592	590	590	588	588	613	629	654	662	663	645	624	617	608	590	581	577	570	590	600	610	623	639	639	627	625	621	620	623	623	626	608	607	605	602	597	606	612	617	615	605	601	602	606	612	623	631	637	641	633	616	597	590	599	616	622	615	604	593	593	588	577	577	580	586	588	581	570	572	593	598	608	615	607	597	597	591	589	586	583	584	584	580	569	561	557	557	558	564	570	574	581	591	591	582	570	566	572	574	567	560	557	560	563	570	574	575	579	576	579	571	571	566	564	564	558	559	561	541	538	537	538	537	542	546	545	549	549	544	561	566	565	558	556	563	563	559	554	552	549	548	556	569	579	583	579	564	547	535	532	522	507	499	498	498	498	496	499	500	498	496	497	503	503	502	503	501	498	490	489	492	494	509	496	489	479	479	485	477	491	491	490	485	481	479	477	474	472	471	466	462	456	440	440	440	452	458	461	465	474	461	457	454	451	449	440	425	428	435	435	442	440	434	420	417	426	443	442	437	434	438	434	434	433	433	438	443	469	466	462	459	456	447	437	437	439	442	445	430	434	435	436	432	424	428	428	423	421	425	432	429	428	431	428	417	417	417	425	430	439	437	430	424	428	434	439	446	443	434	428	430	436	446	446	430	419	424	433	438	437	430	424	424	418	425	432	438	438	433	433	428	418	418	418	423	434	435	433	435	435	434	433	432	424	424	415	410	429	436	440	441	441	441	443	434	422	421	423	423	423	422	414	412	414	414	421	424	426	428	424	424	428	434	428	422	416	416	410	415	418	421	417	417	421
427	419	437	478	504	504	494	475	467	477	480	480	502	484	465	435	405	388	388	446	447	450	450	462	462	444	434	483	487	479	467	467	435	466	474	481	463	450	483	483	493	473	473	472	472	465	465	444	443	459	470	461	448	447	447	448	455	485	490	492	463	459	459	459	468	471	470	462	461	466	467	467	465	463	452	467	467	465	457	465	463	463	459	457	454	450	445	453	456	455	451	451	446	447	448	462	466	461	457	450	453	468	468	476	486	486	481	481	482	474	463	462	466	465	465	465	455	446	443	450	455	456	464	466	470	480	481	481	470	465	461	460	444	435	448	474	489	493	449	432	431	444	444	453	461	469	479	478	449	451	463	482	490	491	473	468	473	482	492	487	487	488	484	487	495	495	494	479	487	500	519	516	511	508	508	511	523	531	534	534	526	526	523	518	519	528	536	546	544	544	553	573	574	566	543	544	546	544	538	538	543	546	549	547	543	538	534	540	554	556	555	555	556	555	554	553	558	557	546	534	528	522	521	525	530	534	541	543	539	545	551	557	561	555	558	566	581	585	580	573	572	565	564	570	566	561	568	573	580	580	577	573	570	572	573	570	570	576	575	572	552	552	556	563	567	573	578	583	581	572	566	565	567	566	565	556	553	557	563	568	570	578	593	599	595	588	583	584	582	594	601	601	594	592	591	591	597	595	591	590	591	615	627	651	658	658	645	628	621	608	592	586	585	581	591	599	609	623	638	641	629	623	615	610	613	607	602	594	602	601	594	594	608	614	617	616	614	608	604	608	612	617	624	629	634	628	613	596	590	607	622	625	611	591	587	588	577	568	575	585	583	577	570	569	575	590	612	609	603	589	589	559	555	573	581	583	587	584	578	571	559	550	545	546	555	563	569	577	582	579	569	559	562	568	569	572	568	562	552	543	546	557	564	563	564	562	559	560	559	563	570	572	568	559	540	536	537	538	542	544	546	546	545	544	542	546	555	557	556	551	550	552	552	553	550	548	547	553	563	578	577	568	547	531	535	535	513	511	502	502	502	504	498	501	500	503	501	498	498	500	499	500	498	499	495	496	496	496	493	483	479	482	482	476	482	481	477	477	485	481	478	468	465	462	463	459	458	451	446	454	454	454	458	456	456	453	460	460	454	451	449	444	440	443	450	450	453	455	452	442	431	424	426	431	436	431	428	433	433	430	427	438	443	451	467	466	458	437	437	440	440	441	440	440	438	435	434	430	423	433	431	431	426	422	433	432	427	425	427	425	414	414	422	418	426	431	429	417	424	428	428	435	444	452	451	444	440	438	437	437	438	423	416	418	426	444	449	449	442	422	424	428	421	418	419	419	420	410	411	414	423	434	435	435	433	434	434	431	427	413	413	405	400	403	419	434	438	438	434	434	429	421	418	420	420	419	415	410	407	409	409	421	424	428	433	430	430	434	435	433	427	416	416	410	413	419	424	422	422	422
434	422	431	464	493	493	500	452	433	434	480	480	458	458	451	425	403	409	409	461	493	491	483	482	476	476	470	464	458	448	445	445	445	450	466	469	460	460	467	467	471	473	473	465	468	462	462	446	442	446	450	450	449	452	452	464	478	480	478	468	459	452	455	455	466	471	473	473	476	478	470	463	463	451	452	467	450	450	455	461	458	458	457	458	467	465	460	464	452	444	441	441	439	440	441	437	431	431	435	437	443	448	448	462	470	471	468	476	476	468	463	462	440	456	456	455	452	445	441	449	452	447	447	451	452	451	446	446	448	454	462	457	455	456	462	463	465	463	463	464	457	451	451	453	458	463	463	462	459	455	458	462	469	473	473	468	477	481	491	488	488	488	484	488	495	496	488	478	485	498	519	517	513	510	509	512	523	533	536	533	524	518	518	518	519	525	536	544	547	548	555	574	573	570	542	545	550	547	540	544	549	555	552	545	541	535	536	538	556	560	556	556	556	555	556	554	557	561	561	555	531	524	524	525	538	555	561	567	566	561	559	557	552	547	551	567	578	584	575	571	566	564	563	569	569	572	571	576	581	583	583	580	572	571	571	571	571	577	575	575	574	568	568	563	569	577	580	581	580	575	570	571	570	571	568	556	557	560	563	571	572	600	603	596	593	590	580	578	582	585	593	596	595	591	594	597	599	595	591	586	588	585	584	592	598	609	600	590	585	577	568	567	570	586	592	601	604	609	612	606	603	606	610	612	602	598	591	592	597	592	587	587	593	609	612	615	616	613	608	607	606	609	609	595	591	606	601	592	594	604	604	600	595	590	589	584	572	572	576	584	584	575	570	571	572	579	606	613	601	553	553	543	540	545	555	570	578	576	572	565	556	548	547	550	546	540	539	545	560	561	559	558	562	563	560	558	556	552	545	539	541	542	546	541	543	544	537	541	549	561	570	570	566	554	546	547	546	546	542	544	545	545	545	546	545	546	552	553	551	544	540	542	540	534	532	537	547	557	569	573	563	542	528	533	534	516	507	504	504	504	504	503	502	504	508	504	505	501	502	508	508	508	510	509	507	508	498	498	491	483	475	478	478	475	481	477	477	477	478	478	467	461	456	453	454	449	451	457	457	457	461	458	455	452	446	448	457	455	452	450	451	445	442	442	442	449	451	456	457	455	440	429	427	427	424	427	427	427	447	430	427	428	437	442	439	434	429	429	432	432	432	438	438	435	437	429	422	425	428	431	431	437	430	431	433	427	426	423	420	419	419	423	425	425	422	426	429	417	417	427	427	432	438	444	448	445	440	437	432	432	432	430	416	412	414	419	422	422	422	429	430	423	422	415	417	417	422	420	413	414	423	430	430	419	423	429	432	427	422	411	411	401	396	397	409	424	429	429	426	426	426	423	422	422	422	418	413	411	411	409	409	413	414	413	419	425	425	429	431	430	429	420	420	409	404	413	433	439	439	436
420	427	440	452	468	468	481	491	491	483	473	458	458	458	451	452	446	462	462	466	475	480	485	479	471	471	466	465	463	463	464	472	472	473	468	460	448	433	430	430	437	446	457	465	468	460	450	450	445	445	448	447	461	468	464	464	473	473	474	470	448	443	448	448	451	446	447	447	444	439	435	452	452	457	459	454	450	449	452	458	456	456	454	458	467	467	461	462	454	444	442	442	440	441	441	439	430	431	432	437	440	445	445	461	469	471	466	463	456	453	449	446	440	456	449	448	449	454	458	459	452	446	447	453	456	452	447	447	447	452	460	455	456	456	461	459	463	462	465	465	460	452	452	452	458	464	465	463	461	456	460	464	470	473	473	471	477	474	467	456	456	463	475	504	512	519	521	532	540	549	552	558	562	553	539	532	540	549	552	545	545	548	548	549	551	562	576	582	580	584	582	574	575	572	583	582	586	584	591	600	598	594	579	560	537	533	532	532	534	547	555	555	555	557	556	554	556	561	561	556	554	536	534	535	541	552	561	569	572	563	558	554	550	543	551	560	573	575	561	553	554	554	555	567	576	577	576	580	583	584	584	581	573	566	565	563	567	574	569	565	568	571	571	573	575	576	572	575	577	572	575	577	578	573	567	560	558	562	567	573	602	605	604	597	576	575	581	586	591	591	589	592	594	596	599	600	596	595	591	591	588	593	592	593	595	598	590	582	577	576	570	570	572	587	593	599	602	597	596	595	599	610	613	613	600	594	582	580	577	575	569	576	585	595	597	609	615	614	603	593	585	574	566	561	556	573	576	580	584	595	605	601	600	596	593	581	570	573	580	584	578	576	571	571	571	571	573	570	561	561	550	543	540	544	551	557	553	546	543	540	538	540	543	545	546	546	545	548	545	529	527	530	531	539	543	545	545	542	538	541	539	545	542	541	535	530	530	533	538	545	558	563	558	540	541	548	546	546	549	548	548	546	547	557	565	559	555	550	545	547	546	543	538	535	518	514	528	541	543	541	516	519	524	523	512	506	498	500	503	503	506	509	517	524	532	527	518	514	528	532	522	520	514	508	507	507	501	499	497	486	484	484	480	476	481	477	475	476	474	480	475	455	450	450	447	450	455	462	455	455	442	438	438	443	443	443	447	448	446	456	451	446	445	446	446	437	412	419	430	452	451	438	432	436	428	423	421	427	447	443	437	428	440	437	436	430	424	428	431	431	429	433	433	431	429	425	423	427	429	432	432	431	432	425	425	427	426	421	422	420	420	423	426	431	422	426	420	415	415	423	423	433	439	439	443	439	420	421	421	426	428	426	416	412	412	414	420	420	415	427	427	420	415	414	417	417	420	420	413	416	420	429	429	434	417	421	424	427	423	423	425	420	409	406	408	419	419	426	427	426	421	427	425	425	422	415	410	411	411	411	413	412	412	416	418	420	420	422	418	413	416	416	416	415	417	421	428	429	429	437
438	442	473	478	475	473	473	474	467	451	442	436	436	441	451	452	446	467	467	472	480	485	477	479	471	471	470	471	463	461	464	471	471	471	467	460	450	433	430	430	437	445	457	464	464	460	450	459	456	446	447	444	461	466	462	462	473	474	472	472	445	438	446	446	448	444	446	447	444	437	431	449	449	456	461	454	449	449	452	452	467	457	457	447	434	442	445	445	446	443	436	435	435	439	445	444	445	445	445	441	450	446	443	443	459	464	468	462	455	449	445	443	438	449	448	448	451	454	454	441	443	449	458	467	458	451	438	435	435	441	448	452	453	455	459	466	459	461	472	483	482	465	467	467	469	475	483	486	490	493	491	491	490	480	473	475	481	474	467	487	494	494	512	512	508	514	530	539	549	553	558	561	562	557	551	549	549	550	546	545	546	549	558	558	557	557	568	573	570	571	568	559	559	558	569	574	580	584	595	606	602	590	576	564	545	535	528	528	533	545	551	550	550	549	551	550	556	561	559	554	554	545	535	531	530	541	559	568	574	570	570	559	551	554	560	562	562	559	559	557	559	557	555	564	574	575	580	581	581	582	581	573	566	559	556	551	552	566	560	554	556	564	571	571	571	570	568	566	567	564	570	573	574	570	563	567	567	565	568	600	623	633	638	638	639	643	638	624	602	591	593	601	606	608	613	614	603	580	588	593	592	594	595	596	596	590	586	575	568	574	581	583	581	586	593	599	594	591	589	594	601	609	610	610	599	592	585	582	578	575	568	567	574	583	580	600	604	595	587	580	575	570	566	557	554	559	567	581	591	593	601	599	600	600	597	576	570	576	579	578	575	573	567	555	543	538	546	550	551	551	547	550	547	550	557	568	551	535	531	539	544	542	536	533	535	539	543	539	526	517	515	516	520	533	539	545	545	539	534	541	541	540	539	541	535	530	524	523	523	516	514	516	521	530	541	548	548	548	549	548	548	545	544	550	544	543	542	541	530	522	525	525	525	521	503	503	502	496	494	490	483	488	485	492	473	465	465	475	499	499	509	514	521	528	532	532	526	523	519	514	513	511	509	504	505	505	495	494	492	484	484	484	480	476	478	478	473	475	480	479	459	447	448	450	446	446	440	448	448	460	458	440	439	439	441	442	446	447	445	434	417	425	428	433	433	422	411	414	423	439	445	436	438	437	430	424	421	421	435	432	427	421	428	432	432	425	420	422	430	430	433	428	428	429	429	428	425	427	417	417	417	421	422	414	411	415	419	420	421	421	421	426	426	431	431	428	422	421	425	425	429	435	440	440	426	416	417	420	420	426	429	423	415	411	410	407	407	409	407	408	411	410	405	410	410	417	420	423	417	415	416	423	423	429	432	430	430	422	421	421	425	422	417	412	413	415	415	415	417	417	422	425	420	420	422	415	410	410	412	412	411	411	414	416	419	419	423	423	410	416	418	417	417	416	417	422	427	427	422	425
437	466	479	480	477	467	467	464	464	454	445	444	444	457	465	466	465	467	472	473	481	485	488	473	478	478	476	476	478	469	459	446	446	434	434	441	444	450	456	459	459	447	437	431	431	442	459	459	456	471	469	467	472	470	465	465	462	463	459	469	460	431	434	434	437	443	428	428	429	425	421	424	424	434	447	464	463	437	442	452	467	448	448	442	442	440	439	439	445	448	450	452	452	462	471	463	453	444	442	441	447	442	431	431	443	468	464	460	455	446	438	433	433	436	448	448	451	454	447	439	438	441	443	441	439	434	430	430	430	436	452	460	464	468	461	452	454	460	470	478	474	465	464	464	466	470	478	490	491	495	492	487	483	473	472	474	479	485	484	487	494	497	512	514	507	517	531	543	551	559	557	561	559	560	555	550	551	550	545	541	551	575	586	586	587	566	553	557	559	553	552	542	544	549	560	564	569	573	583	594	591	586	573	563	544	537	532	524	522	522	518	523	534	534	540	541	551	556	559	554	559	559	560	563	557	557	568	572	568	564	565	574	584	589	578	568	568	560	563	562	562	559	560	563	569	572	567	567	569	571	564	560	559	554	547	539	538	534	537	541	548	560	569	569	569	566	563	559	549	554	559	562	562	557	543	545	566	574	588	627	638	638	641	644	645	647	643	633	611	598	605	604	607	609	615	606	595	596	594	584	574	585	591	593	586	584	578	569	564	568	572	571	567	575	585	590	588	587	585	590	600	607	609	606	600	596	592	589	584	579	571	566	565	571	578	568	574	579	587	585	577	569	566	558	556	557	566	580	593	597	593	592	593	595	582	570	572	575	571	569	572	568	565	556	545	537	543	547	547	547	545	540	538	541	549	568	549	541	535	533	533	533	527	526	528	530	531	515	513	509	508	511	513	515	522	531	532	532	537	538	536	535	535	535	535	539	535	530	515	511	508	513	521	530	538	541	543	542	538	538	534	535	538	538	543	541	541	535	521	518	520	523	514	498	489	486	482	471	472	483	478	475	485	479	475	461	459	468	470	470	478	486	488	484	485	517	525	520	515	510	510	508	503	495	490	490	489	488	489	468	468	484	477	475	472	480	476	475	477	467	455	450	449	450	445	442	434	436	436	456	459	438	440	439	439	441	442	444	438	429	418	422	428	428	430	428	412	415	428	433	436	446	438	439	430	424	416	416	405	398	414	416	428	430	430	424	420	417	419	419	422	422	423	426	431	428	423	410	405	405	408	415	411	405	410	412	415	418	412	425	421	426	436	437	432	429	423	426	432	432	435	434	439	424	412	407	414	422	422	425	429	421	416	410	410	400	400	400	403	409	407	401	398	410	410	414	413	417	419	418	414	418	418	421	425	421	406	421	422	422	417	416	415	415	413	410	410	390	388	395	400	404	420	420	407	407	404	402	408	408	413	414	412	414	417	417	418	419	415	423	420	420	418	415	416	416	419	419	416	418
441	456	480	480	474	465	465	457	455	454	452	453	453	459	470	471	469	469	473	473	481	473	468	459	463	461	461	456	451	458	457	452	445	445	436	434	435	437	437	441	441	439	436	432	427	433	449	449	476	471	469	451	447	439	439	439	440	437	440	440	445	439	441	442	442	445	446	444	435	422	415	423	437	437	445	444	443	444	443	449	448	448	448	440	436	439	440	439	449	452	455	458	458	471	475	475	469	461	444	444	452	465	457	457	442	442	441	444	444	445	441	439	443	451	461	461	463	460	447	455	458	457	439	434	429	427	424	425	431	431	443	469	477	463	443	446	450	448	453	466	465	462	464	467	467	472	479	490	492	489	485	476	475	475	473	475	481	484	485	490	497	512	512	515	522	531	542	548	554	555	556	554	553	552	555	557	555	553	556	564	565	572	582	582	594	587	570	543	534	537	544	539	536	534	538	543	550	555	564	582	583	582	569	556	551	541	527	529	529	524	516	513	517	517	533	540	545	555	559	560	559	559	572	575	573	566	566	570	572	575	578	586	590	590	583	579	567	574	577	575	569	560	558	562	567	568	563	562	564	561	556	553	551	548	546	543	541	543	544	538	543	547	552	559	559	561	559	551	545	548	547	545	548	541	529	536	560	571	590	621	621	643	645	650	637	609	595	584	578	587	593	600	604	611	611	602	590	593	592	583	569	580	585	573	574	572	573	566	564	567	570	567	565	566	571	577	580	583	585	592	595	601	603	602	597	597	596	591	584	576	567	561	563	567	574	571	569	577	585	589	590	587	574	568	566	568	581	591	596	590	585	583	581	576	572	568	566	568	562	561	564	565	563	556	548	538	538	544	544	544	540	532	527	527	536	554	558	539	533	531	530	529	526	519	520	521	509	509	509	511	512	508	509	512	520	531	534	534	537	540	535	532	531	529	526	532	531	526	520	511	508	513	525	536	529	521	518	516	505	505	504	504	505	518	515	531	538	531	515	509	517	516	506	491	487	483	476	473	476	479	481	478	486	480	475	462	460	462	462	469	471	456	454	451	447	458	484	479	473	468	467	468	484	464	459	451	462	469	476	468	468	459	448	448	458	467	480	479	471	455	452	451	448	443	437	432	429	425	425	449	447	437	446	444	436	436	435	435	437	433	422	422	425	425	427	428	430	431	427	427	436	438	438	439	436	428	428	418	413	415	415	417	426	430	431	429	419	416	416	418	419	417	410	415	418	416	406	405	403	403	403	410	413	402	407	425	434	437	412	412	425	426	427	427	424	430	425	430	435	435	436	432	430	419	399	398	405	412	412	419	419	418	409	396	395	396	396	398	402	404	400	401	398	404	404	409	412	412	413	412	411	411	410	413	408	404	402	402	412	412	426	426	420	412	410	409	409	404	397	395	400	404	404	398	398	394	392	394	398	398	406	414	413	407	411	411	415	419	419	419	419	419	419	415	412	414	413	413	416	418
442	449	460	468	450	438	438	430	435	440	445	446	448	448	454	462	467	472	474	474	478	473	468	454	452	455	455	457	455	444	443	452	458	458	458	459	457	450	435	436	436	440	451	462	465	459	455	459	459	463	460	451	447	427	437	440	440	441	440	443	447	446	451	452	452	454	457	448	437	427	422	428	436	436	442	442	442	442	445	447	447	442	442	440	436	438	445	449	450	455	455	469	475	475	471	472	472	469	452	450	447	446	436	432	432	441	446	432	432	438	446	452	461	467	471	469	469	446	449	455	458	451	443	438	441	435	426	426	435	435	448	460	462	448	438	444	449	453	451	450	455	459	458	460	460	463	462	464	469	471	473	473	475	476	479	482	486	490	494	499	506	509	509	515	522	502	516	531	554	559	558	549	539	537	542	561	577	576	567	567	570	574	582	591	591	584	573	563	564	572	560	545	544	546	530	524	530	541	554	561	556	554	554	552	547	529	523	523	528	525	521	518	518	529	529	540	557	562	559	560	562	565	572	575	572	566	568	573	575	577	580	582	587	583	577	561	555	544	542	546	555	557	554	555	558	554	554	557	559	556	547	542	541	542	544	545	546	552	548	543	539	543	549	554	554	554	556	542	542	541	529	517	512	507	500	501	519	552	571	585	611	613	617	613	576	568	557	544	547	548	548	553	557	557	570	571	562	555	551	547	542	521	517	516	518	524	531	536	544	551	563	563	562	563	569	570	569	569	571	577	587	596	598	592	593	594	594	591	583	574	565	558	555	560	568	566	566	574	582	588	589	594	589	581	583	594	606	614	617	592	582	573	563	566	569	566	567	563	556	552	552	560	560	558	555	549	541	541	540	543	537	521	517	520	527	541	548	535	534	531	531	530	527	522	515	509	514	509	514	513	512	506	506	515	523	531	534	536	541	542	536	535	519	513	518	522	524	526	520	521	522	517	515	519	525	524	518	513	513	505	501	501	502	499	503	504	514	513	509	504	503	509	503	493	486	485	477	476	474	478	488	494	491	482	475	471	466	466	466	466	452	452	450	443	443	448	446	450	451	457	467	466	466	463	461	459	461	469	476	469	469	461	455	441	436	444	458	458	454	451	450	449	446	439	434	428	426	426	425	422	424	434	439	445	434	423	424	429	433	430	424	418	416	416	416	417	429	425	425	425	436	438	437	433	430	424	424	418	417	421	419	420	424	427	429	425	416	408	408	409	405	401	407	414	417	410	406	400	394	394	394	399	404	404	413	424	435	437	434	434	419	413	408	410	419	421	426	428	428	431	431	428	423	417	406	385	385	385	402	410	411	410	402	403	399	396	396	396	397	404	400	392	393	402	402	409	409	407	407	408	409	409	407	403	400	399	397	400	400	406	420	424	414	408	407	407	406	401	397	395	395	401	401	404	402	392	388	380	386	386	394	399	407	407	404	404	404	408	422	389	392	392	393	404	406	406	413	413	410	409
