292	292	294	298	301	301	300	306	311	314	311	311	297	295	294	297	304	304	305	306	309	308	312	315	315	314	311	305	305	307	307	315	314	309	306	306	306	306	305	305	303	298	296	297	297	297	300	300	295	301	307	307	314	309	303	302	300	303	302	302	295	291	290	297	299	300	300	300	305	306	307	310	305	300	299	300	300	299	300	300	303	299	300	300	295	295	295	303	304	307	302	297	305	303	303	305	306	307	307	308	310	303	300	298	298	298	302	304	304	303	303	307	296	301	298	301	301	299	299	299	302	301	298	300	302	304	302	302	299	299	299	304	300	297	296	296	297	293	299	284	295	295	297	298	300	295	293	292	292	297	305	306	308	304	304	304	302	299	303	307	309	310	304	301	308	304	302	298	299	300	293	304	304	307	308	308	311	317	319	309	304	310	312	314	315	316	316	319	316	311	312	319	319	322	315	314	313	312	314	316	318	317	315	317	319	323	317	318	314	312	311	310	312	314	315	316	316	315	317	321	320	319	317	318	317	317	313	312	308	308	309	313	319	320	318	317	320	319	316	317	319	317	316	317	317	317	316	316	317	318	319	323	321	321	319	322	323	323	317	312	315	312	312	312	312	316	316	319	317	314	317	318	317	318	318	319	320	324	326	323	322	320	322	321	319	318	316	317	316	315	315	316	323	322	321	317	318	319	321	320	322	321	317	316	314	320	320	323	328	330	329	328	327	327	324	325	318	311	319	321	318	312	307	308	312	315	315	316	318	317	313	312	313	314	320	319	315	314	317	316	315	316	316	315	327	330	330	324	323	322	319	319	320	321	320	318	320	321	320	319	316	315	312	310	306	301	305	308	309	307	304	306	308	316	313	313	311	313	316	312	308	307	316	315	315	313	317	319	320	322	320	317	318	324	329	328	320	317	316	315	314	314	311	310	314	311	310	311	311	312	313	315	317	314	311	303	303	309	311	310	310	310	303	306	307	310	310	310	305	303	304	310	310	310	310	306	302	307	309	311	311	311	309	310	309	312	313	314	315	316	316	312	319	315	305	304	296	297	301	301	298	299	305	304	301	301	302	304	303	300	299	297	307	307	302	296	296	301	303	300	306	302	299	297	298	296	297	297	303	301	298	298	294	291	294	291	290	287	292	294	299	301	301	299	299	297	294	293	293	291	288	287	291	295	295	287	287	290	292	294	291	291	289	287	289	291	295	295	294	292	290	290	296	295	294	292	292	292	291	291	288	285	283	283	285	290	294	294	296	297	298	294	297	297	298	295	295	295	292	288	292	289	288	292	292	293	283	284	289	290	291	296	296	293	292	290	288	288	286	288	288	288	287	289	286	284	282	282	279	283	289	284	283	283	283	288	288	286	283	281	275	275	278	281	286	289	291	281	281	284	287	288	290	287	287	287	288	287	287	286	286	286	287	283	280	285	285	283	283	284	287	290	290	289	285	284	282	281	281	280
289	287	287	286	294	294	300	306	312	314	306	306	296	296	296	295	296	295	295	302	306	306	309	311	311	314	311	307	307	310	310	312	315	312	308	305	299	299	299	303	301	297	294	296	296	297	300	289	298	307	305	300	300	301	305	297	297	293	290	290	290	291	293	295	298	299	300	304	304	306	307	309	304	300	298	300	300	301	300	296	297	299	304	295	294	294	293	303	304	307	299	295	291	289	300	300	302	305	305	305	302	299	296	295	290	290	291	291	293	296	297	299	296	301	301	302	302	300	298	297	296	297	298	298	298	299	301	302	302	301	300	300	297	295	294	294	294	296	289	284	295	300	306	306	297	294	293	295	297	296	300	301	301	304	304	302	302	302	300	297	297	302	304	307	307	305	310	299	296	295	293	304	307	307	307	301	303	301	300	305	307	310	313	312	313	314	315	317	315	311	317	319	319	320	314	312	313	313	315	314	318	318	316	315	316	312	316	316	314	312	311	310	312	315	318	318	318	318	319	317	317	314	317	318	315	313	314	314	313	309	308	307	312	318	320	319	315	315	316	316	320	316	316	314	312	312	313	314	314	313	314	320	319	319	320	319	318	320	320	315	315	315	316	317	319	317	314	314	313	315	315	318	317	318	318	319	320	324	323	322	320	317	316	316	317	318	318	324	328	329	329	326	324	319	318	318	320	322	322	320	324	324	319	316	316	317	319	323	324	324	321	319	312	308	319	319	311	311	314	317	313	312	311	305	311	312	315	315	316	315	314	314	314	317	318	321	318	319	319	321	321	321	322	326	332	331	329	328	327	322	320	319	322	326	320	318	320	321	320	319	315	306	305	304	304	301	304	306	306	305	305	303	305	312	313	314	316	318	323	319	313	312	311	307	307	309	308	313	316	319	322	322	322	322	322	322	322	321	319	317	316	308	308	312	315	316	313	310	311	312	311	312	314	316	312	312	311	302	307	303	310	310	303	303	306	309	309	307	309	304	306	308	309	309	302	300	301	301	305	305	304	305	306	306	308	309	308	309	309	310	308	315	312	316	304	298	297	302	300	300	298	299	298	298	297	297	296	303	301	301	303	301	300	306	303	292	292	294	294	300	298	290	293	296	296	299	297	298	299	296	296	298	294	294	295	294	287	286	286	288	290	294	297	297	296	293	291	290	291	291	289	290	291	291	287	287	288	290	292	292	292	287	284	287	291	293	293	289	289	287	288	291	294	293	292	293	292	292	294	294	289	284	283	281	281	288	288	289	292	293	289	290	295	296	296	296	293	292	288	287	287	288	287	290	292	293	292	289	287	291	292	297	297	293	293	291	289	289	287	287	288	290	286	286	285	284	278	278	280	283	283	284	283	283	283	285	287	287	286	285	281	281	281	280	286	289	290	290	282	280	285	285	284	286	286	285	286	284	287	289	289	288	286	283	280	281	281	282	282	282	284	284	284	285	280	276	277	277	280	281
291	289	287	287	288	298	298	306	312	314	301	297	297	297	296	296	293	292	292	299	305	305	306	308	308	310	309	307	307	304	308	308	312	308	305	300	300	299	299	301	299	294	292	292	295	295	295	289	304	307	300	299	299	303	303	299	300	303	300	295	295	293	295	296	296	296	297	304	304	300	303	306	301	299	296	298	301	301	299	295	297	297	304	295	302	293	293	302	308	305	299	295	297	302	304	304	305	306	301	301	298	296	295	294	292	292	295	294	294	297	296	293	296	297	301	302	301	299	298	298	298	298	295	293	292	296	299	302	302	301	303	299	297	298	292	295	300	303	296	294	300	306	306	305	306	300	300	301	302	300	300	301	301	305	306	306	306	306	303	299	296	296	303	304	307	314	315	306	301	297	298	304	307	307	313	307	308	306	302	304	306	309	311	310	314	314	315	315	314	314	317	316	313	313	313	313	313	312	310	306	312	315	317	316	312	315	319	316	317	312	307	310	312	315	317	312	313	313	309	307	306	311	312	313	314	311	309	308	306	309	306	303	303	311	314	314	314	314	313	313	313	317	312	314	311	307	312	317	317	317	312	307	305	322	314	314	315	316	315	316	317	316	317	320	315	315	315	314	314	314	314	315	316	316	315	317	321	321	323	322	320	317	316	316	317	318	321	322	321	322	319	319	318	316	317	312	311	319	319	323	319	318	322	321	322	322	321	320	318	317	313	313	307	315	318	306	309	312	315	316	315	316	315	315	310	312	314	319	320	321	319	314	314	315	316	315	312	315	319	317	317	317	316	313	314	316	329	328	327	322	320	319	322	326	324	320	318	318	317	308	305	301	303	306	301	301	302	302	304	309	309	306	305	306	311	312	313	316	317	315	313	308	308	308	307	307	308	310	312	318	320	320	317	317	318	318	318	310	306	308	304	306	308	314	317	316	313	309	307	308	312	312	316	312	313	313	313	308	307	303	305	306	306	306	308	317	311	308	306	303	305	304	307	307	304	304	301	304	303	303	300	301	300	298	298	298	300	302	303	305	306	308	313	314	304	299	298	302	302	300	295	291	292	291	292	290	290	295	296	296	295	289	291	297	295	295	292	291	291	290	288	288	289	290	291	293	292	291	292	296	296	294	292	294	295	294	293	286	289	284	286	289	294	294	292	288	288	290	289	289	289	290	288	288	289	287	288	290	293	295	296	290	287	290	292	293	293	292	293	290	288	289	292	295	297	296	296	295	296	295	289	284	280	280	277	282	282	288	284	284	284	294	294	292	292	292	292	289	286	282	286	288	287	287	290	292	291	293	291	291	287	287	291	291	291	294	291	292	290	290	293	294	291	286	285	285	285	280	280	283	284	283	286	288	288	289	292	291	289	287	287	285	281	280	281	286	285	285	286	281	283	281	285	285	286	280	281	283	282	282	286	288	286	282	281	281	280	280	282	283	284	284	284	286	282	276	279	279	293	281
297	293	289	288	291	296	296	302	309	310	301	297	294	294	296	295	293	291	291	298	304	304	300	295	295	295	296	299	299	304	308	309	310	301	304	305	306	305	305	299	300	300	298	297	300	300	301	296	304	307	303	295	302	302	306	302	301	305	305	300	300	298	296	287	289	290	295	297	297	300	303	299	297	295	293	283	296	296	300	298	296	296	300	300	295	306	306	307	303	297	298	298	297	302	306	306	306	307	301	300	297	293	293	292	293	296	296	296	295	295	293	293	294	297	302	301	299	299	298	294	291	288	286	287	289	293	296	296	300	300	301	300	298	298	298	303	302	297	294	293	296	301	301	305	306	301	300	300	302	301	301	301	301	299	302	304	305	305	302	300	299	300	297	298	301	303	301	303	302	304	308	311	313	313	313	307	308	309	309	308	307	310	309	309	312	312	315	316	316	314	317	315	316	316	313	313	314	312	305	305	303	309	311	312	312	315	318	322	319	309	308	308	311	314	317	312	313	307	307	306	306	309	313	312	312	310	310	308	305	304	302	301	300	301	298	301	307	311	308	312	310	312	314	307	313	316	315	314	312	312	308	308	305	301	298	310	312	315	316	314	314	314	316	320	313	312	314	312	312	313	313	313	313	313	314	316	318	319	319	316	313	315	316	316	317	320	321	322	321	322	319	319	318	316	317	312	305	311	311	311	308	309	310	309	315	317	318	321	317	315	314	314	317	316	315	305	306	312	315	315	315	316	314	313	309	311	313	319	321	319	318	315	311	309	305	315	312	315	319	317	317	317	316	313	314	316	318	319	320	324	325	323	319	314	309	305	309	314	313	312	308	306	306	307	308	305	304	304	310	312	308	305	306	304	304	308	308	312	305	304	306	308	308	308	308	309	309	309	310	314	314	310	311	310	308	307	304	302	302	302	302	301	308	311	314	308	308	309	311	310	310	309	310	312	312	313	313	308	307	302	302	303	304	305	305	313	314	310	307	305	311	312	309	308	306	305	304	305	305	304	302	301	299	298	297	299	300	303	303	304	304	305	312	310	305	299	298	298	298	297	292	290	291	295	297	295	296	298	295	294	288	285	290	294	294	294	292	290	291	289	291	291	290	289	289	288	292	291	292	292	293	290	289	294	298	294	292	295	283	284	286	288	291	291	291	289	291	290	288	290	289	288	290	291	289	289	296	292	294	294	291	292	290	289	290	295	295	294	291	291	290	284	291	294	295	294	294	290	296	295	290	282	279	278	276	276	279	283	287	285	288	290	288	286	286	279	281	281	279	283	286	288	290	290	291	292	293	287	287	286	286	286	282	283	284	286	291	291	292	292	295	294	291	288	284	283	283	280	280	279	278	284	287	287	287	289	290	287	284	282	287	285	283	281	281	281	286	286	284	284	284	279	279	279	279	281	282	284	283	282	286	285	283	280	278	278	277	284	287	284	285	285	286	286	285	279	280	279	293	286
298	301	296	293	293	294	294	298	302	296	296	294	294	294	295	294	291	290	299	299	305	303	294	292	293	293	293	291	295	302	309	310	310	304	301	301	298	297	297	299	304	304	299	292	290	292	292	293	294	299	303	295	295	295	296	291	290	292	304	305	300	300	298	295	294	296	296	301	302	302	300	299	297	292	292	283	294	294	299	299	295	295	298	298	296	301	301	306	303	301	300	299	300	304	306	300	300	300	299	298	289	284	283	286	289	291	291	294	294	291	290	292	295	299	302	301	299	299	298	294	288	292	291	288	287	290	292	292	295	295	296	294	292	294	299	301	299	295	292	292	292	298	303	303	304	301	300	298	297	298	303	305	302	301	301	304	304	304	301	300	301	300	298	297	295	295	299	304	304	305	309	312	313	311	311	304	307	309	309	313	311	311	309	308	311	314	314	313	314	315	317	316	316	321	321	318	315	309	297	297	300	303	307	308	309	311	315	318	316	311	307	308	305	309	312	310	309	307	307	306	304	307	309	310	310	310	310	310	312	304	302	301	300	298	299	304	306	306	308	308	308	310	312	310	309	312	312	310	303	303	305	305	304	300	296	303	309	315	315	313	312	309	309	313	310	309	309	309	311	313	314	309	310	311	311	314	316	321	319	316	310	312	314	315	316	317	316	322	321	321	317	317	316	312	308	312	305	311	311	311	308	309	310	309	315	317	318	321	317	315	314	314	317	316	315	305	306	312	315	315	315	316	314	313	309	311	313	319	321	319	318	315	311	309	305	309	317	313	309	306	303	303	303	310	306	303	307	308	312	312	311	307	306	303	302	307	311	315	312	307	302	303	307	312	310	311	308	307	310	310	305	303	303	306	303	304	305	306	306	305	302	305	305	307	309	311	309	308	307	306	304	311	313	311	306	300	302	302	306	307	307	306	310	309	308	309	307	305	303	307	308	309	310	310	312	312	311	308	306	304	299	300	304	303	300	313	311	309	310	311	313	310	308	306	305	305	306	300	300	300	299	301	301	302	299	299	300	304	303	303	303	305	305	310	305	301	298	298	298	296	292	295	296	297	296	301	300	298	295	294	295	296	295	292	292	291	290	289	286	283	283	287	290	289	289	288	290	297	299	299	293	291	291	291	291	294	295	294	286	284	286	284	284	293	293	292	292	291	290	286	286	287	290	291	291	293	298	297	293	290	292	292	289	289	290	290	289	286	289	289	285	283	287	288	292	292	294	290	294	294	291	285	279	278	284	284	285	287	287	287	288	288	282	278	278	278	281	282	279	283	287	291	291	291	291	292	291	285	286	285	285	285	284	283	284	282	281	287	287	292	295	295	293	286	283	279	279	280	281	278	278	278	284	284	284	285	288	286	283	282	282	286	286	286	281	281	281	283	284	281	278	274	275	275	278	283	285	284	283	283	282	280	281	282	280	280	281	281	282	284	285	285	283	286	282	279	279	280	284	292
298	298	294	287	293	291	291	291	293	289	289	290	294	294	295	294	291	297	305	305	303	292	295	295	301	301	301	299	301	301	300	304	304	304	299	299	296	293	294	294	296	296	293	285	287	291	291	289	287	288	289	285	295	295	288	284	280	281	283	286	300	300	302	298	294	295	296	300	301	301	299	294	292	292	292	293	295	296	296	297	293	295	298	300	300	302	304	304	301	298	297	297	302	303	304	300	300	291	292	291	287	282	282	284	286	289	293	293	292	291	292	294	296	300	296	291	288	289	289	287	288	292	292	291	287	288	288	290	290	293	293	290	288	292	295	299	296	295	294	290	291	292	295	295	297	299	300	298	297	301	297	297	295	295	296	297	298	297	297	297	298	301	303	302	300	298	297	302	306	309	310	312	309	306	302	302	302	304	309	313	311	309	307	309	310	311	311	306	311	313	309	301	303	305	305	305	303	302	301	298	298	300	301	302	307	308	308	306	307	309	309	307	304	307	309	308	307	304	304	304	304	307	309	305	304	304	304	303	304	303	304	302	300	299	303	307	304	306	307	307	306	308	310	308	306	306	306	303	309	303	303	304	314	304	296	297	304	310	310	309	303	305	307	309	309	307	305	304	310	313	311	311	307	312	311	315	316	315	317	311	309	311	314	316	316	316	316	314	315	316	317	317	315	307	311	307	308	309	311	312	312	310	309	312	313	312	317	318	317	312	312	317	315	315	318	314	310	308	310	311	312	315	317	314	312	313	312	319	318	317	316	313	313	308	306	314	307	304	304	300	300	299	301	308	305	301	305	307	309	308	303	300	301	302	307	314	319	314	309	303	298	300	307	310	311	310	301	304	308	306	305	305	303	303	301	302	302	305	306	305	299	303	303	307	308	308	307	307	307	302	301	308	310	306	303	301	302	304	304	302	302	301	302	306	305	302	309	309	303	307	308	309	304	304	308	308	307	308	306	303	299	298	300	299	299	298	308	307	309	308	309	308	304	302	301	304	304	304	301	297	296	303	304	302	300	302	303	304	303	302	303	305	305	306	302	301	299	299	298	296	295	296	296	295	300	297	294	294	294	294	294	295	293	294	294	295	293	289	286	282	283	282	290	289	292	295	296	290	290	289	290	291	290	286	285	286	288	289	278	278	278	289	289	295	297	298	297	297	291	290	286	287	290	292	292	291	294	293	288	291	291	284	284	284	285	285	286	283	287	288	287	287	290	283	292	292	289	288	289	288	286	284	283	283	287	287	286	284	285	285	285	281	276	279	279	282	281	282	285	286	287	291	291	292	291	289	285	282	286	287	287	286	284	284	290	293	286	287	287	288	291	290	288	288	284	284	282	282	284	281	278	278	278	283	283	282	281	286	283	283	280	282	286	288	291	289	289	289	285	281	278	276	276	276	279	283	285	289	289	285	281	278	277	281	281	280	279	280	280	280	280	280	281	286	282	281	281	282	292	288
297	297	293	288	285	288	289	289	290	281	282	286	294	294	294	295	291	297	303	303	300	292	289	291	296	296	296	294	291	291	287	285	285	295	299	299	298	297	297	297	298	298	295	287	282	282	282	286	286	286	290	291	289	288	288	284	283	281	283	287	294	294	302	297	294	293	298	299	287	287	287	289	285	285	287	293	295	300	300	295	293	296	296	296	298	301	302	302	299	287	283	287	293	300	299	295	291	291	292	287	290	280	282	287	289	287	287	287	288	290	293	295	300	297	292	288	287	287	287	287	289	292	292	291	289	287	285	288	290	290	290	286	286	292	294	295	294	293	293	288	287	287	292	298	298	300	302	301	300	301	297	303	302	301	301	302	300	302	302	293	297	298	302	301	299	299	296	301	303	306	309	309	306	300	300	300	298	303	308	311	310	309	307	309	310	309	309	302	300	300	300	299	296	297	299	299	305	305	298	295	296	297	300	302	305	307	306	303	306	306	308	305	305	299	295	293	298	300	305	305	307	309	307	305	304	304	299	300	301	302	302	299	298	307	308	307	302	302	307	306	305	307	306	309	302	300	303	305	306	308	308	313	314	313	303	298	302	308	304	301	303	305	306	310	307	304	304	305	305	305	310	306	307	311	311	313	315	317	313	309	303	309	311	310	307	311	310	306	303	308	311	321	321	321	313	311	312	312	310	313	312	312	312	310	310	310	311	315	313	311	308	316	316	314	317	318	308	306	305	308	310	311	313	311	312	315	317	320	317	314	311	311	312	304	302	305	306	304	302	303	303	307	306	306	307	305	303	304	304	301	299	296	300	305	304	306	309	309	301	302	296	293	298	304	304	300	300	302	307	305	303	303	303	303	299	301	305	305	306	296	293	293	294	309	311	312	308	306	300	299	302	296	296	300	301	302	308	308	307	302	302	302	304	304	302	302	309	309	306	308	309	310	310	310	307	305	304	303	303	299	301	299	298	297	297	297	297	305	305	304	303	303	300	298	299	302	302	300	299	295	294	295	303	302	301	302	302	303	303	302	300	302	300	299	298	295	295	293	296	296	296	295	297	294	291	294	290	292	292	291	293	295	293	293	291	292	294	293	289	286	283	282	288	292	296	298	294	288	288	287	285	284	284	280	278	282	284	284	277	277	278	278	278	292	294	293	288	282	291	290	289	289	290	290	288	282	282	286	282	282	282	284	283	287	287	288	290	286	285	284	285	286	290	283	283	279	278	279	283	284	283	284	286	286	286	283	282	282	284	287	282	276	277	277	279	282	283	286	284	286	286	287	287	287	283	280	282	282	285	286	286	287	286	294	294	293	286	281	281	280	279	277	278	279	286	286	288	287	283	286	281	280	280	281	281	282	281	281	279	279	279	280	278	281	282	283	283	281	284	281	279	277	277	276	279	282	285	288	288	286	281	278	277	281	281	281	280	279	279	274	274	280	281	281	279	279	279	282	286	287
297	296	294	288	289	290	291	291	292	283	285	292	294	294	296	297	298	303	303	290	290	285	281	284	287	288	288	287	286	282	287	295	300	300	301	298	298	297	302	302	298	291	289	284	282	285	289	289	286	286	293	295	292	289	289	286	283	281	282	282	283	292	292	294	299	299	293	284	285	286	286	286	285	284	285	300	300	300	295	292	291	292	292	294	296	296	296	296	296	292	289	292	293	299	298	295	294	294	292	287	290	281	289	290	298	290	291	293	293	294	296	296	296	293	293	293	291	290	287	287	289	291	293	293	289	287	283	288	295	289	284	284	291	290	292	292	292	292	292	289	287	289	290	298	298	298	300	296	295	302	301	303	302	301	305	300	298	299	299	299	295	292	296	298	301	299	298	301	302	303	307	307	303	299	299	295	295	300	305	307	310	310	310	310	310	309	303	300	301	300	299	298	296	299	305	305	305	304	302	296	290	293	293	299	302	296	297	298	297	303	307	303	303	302	300	299	307	310	313	313	313	313	309	303	301	301	299	300	301	302	300	298	299	306	307	305	301	300	301	305	306	304	306	304	302	302	301	305	306	308	311	311	314	312	311	299	299	304	306	305	305	303	303	303	303	301	299	300	302	305	306	306	310	309	311	310	304	309	309	300	299	304	310	306	307	315	314	311	306	307	310	313	313	306	302	305	303	302	304	306	308	308	307	305	306	303	307	312	312	312	312	317	315	314	315	316	310	305	305	307	310	311	306	311	311	308	311	318	316	311	310	310	310	302	300	303	301	302	303	305	305	307	306	306	299	300	302	300	297	296	293	296	296	297	299	299	297	296	304	299	298	296	296	299	299	295	299	301	300	299	298	305	304	302	301	304	302	304	298	294	295	295	295	307	311	315	309	306	301	302	297	298	296	297	298	303	305	307	306	301	302	301	304	304	302	304	300	309	308	306	306	310	310	310	309	307	299	299	300	302	301	297	294	292	293	300	300	299	303	299	296	296	294	294	296	299	299	299	297	293	294	294	293	301	301	302	302	303	303	303	302	301	299	299	296	295	295	296	292	292	294	292	286	290	296	296	296	294	291	287	285	286	290	290	292	293	288	291	289	286	284	284	288	296	296	295	289	289	285	285	286	287	289	286	281	282	282	289	284	284	287	287	287	291	290	293	288	282	288	291	289	290	287	287	281	278	285	282	284	282	280	280	285	286	286	289	288	288	287	286	285	286	285	283	283	280	280	279	279	276	283	287	286	288	288	284	282	283	287	287	283	279	277	277	284	287	286	287	284	279	280	280	282	285	288	286	282	282	282	282	285	287	290	294	294	294	291	291	285	284	281	281	282	283	282	282	282	281	281	279	284	285	285	281	281	280	279	280	280	280	280	279	278	282	280	280	278	278	279	277	277	278	277	278	279	280	282	286	286	287	281	276	278	279	279	279	278	276	270	274	274	275	275	276	276	276	274	278	284	283
296	294	294	295	294	294	294	294	294	288	293	301	303	293	293	291	293	296	296	290	290	276	277	281	287	286	286	284	284	282	291	300	304	304	302	297	293	296	302	298	288	286	283	279	280	289	298	298	297	300	301	302	302	299	299	296	290	281	282	282	287	288	288	291	292	292	284	283	286	289	289	288	285	293	285	286	287	291	292	292	291	287	286	288	290	293	293	295	295	293	292	290	290	289	289	288	291	291	291	292	291	281	289	287	282	284	288	291	291	292	292	292	291	292	292	289	291	291	292	292	292	292	293	294	293	287	283	288	294	293	292	292	287	290	287	291	293	293	293	292	290	291	292	295	299	299	295	295	288	289	302	303	305	303	305	300	298	298	294	294	297	296	296	295	292	290	292	295	295	297	294	294	294	293	291	297	297	297	297	303	309	312	314	310	309	307	303	300	301	299	298	295	296	297	305	305	305	305	306	299	290	290	289	290	294	294	296	299	302	304	296	291	293	299	300	299	300	310	311	313	313	314	306	303	301	299	298	298	298	299	300	298	299	302	301	306	302	298	298	298	299	299	300	297	296	297	297	303	307	309	307	307	309	309	309	308	307	309	308	306	304	304	300	299	297	296	293	296	295	298	303	301	305	304	303	302	302	304	305	301	298	305	312	309	307	311	311	307	305	304	304	300	300	301	301	298	297	301	302	305	307	307	307	307	307	305	303	301	312	317	317	312	312	311	309	306	303	305	305	308	310	312	304	301	302	306	309	313	308	302	306	306	304	303	299	301	300	296	301	302	302	305	304	301	301	298	299	299	296	295	293	294	294	297	297	299	296	297	298	302	306	300	293	298	297	297	300	300	300	298	299	304	303	302	301	299	298	298	295	292	292	293	303	305	306	312	307	307	307	302	298	300	298	297	298	299	304	303	306	301	302	301	301	298	301	302	304	299	306	306	306	306	303	305	304	299	300	304	303	306	304	300	286	288	289	292	291	291	298	297	294	292	291	291	288	288	289	293	293	293	292	293	292	301	301	303	306	308	304	303	302	300	299	297	295	295	288	297	295	290	293	292	291	290	291	294	295	296	291	287	288	287	287	288	288	288	288	291	288	287	284	282	283	293	294	293	289	289	285	285	288	290	294	291	289	283	284	288	287	286	286	286	288	291	290	289	287	283	282	286	290	290	290	286	284	280	285	286	284	281	283	285	287	287	286	288	288	287	287	286	289	293	289	286	286	282	280	277	275	275	274	283	287	287	286	288	289	286	282	282	276	279	279	280	280	281	286	286	282	280	279	279	280	285	289	286	281	281	284	284	283	287	290	293	294	291	284	284	280	277	276	275	280	284	284	287	284	278	277	278	282	284	285	282	279	279	279	281	281	279	283	283	284	280	274	274	274	275	276	277	277	277	278	279	279	282	284	284	284	282	271	269	272	272	271	268	266	265	270	270	270	275	276	275	275	275	272	275	274	276
297	298	298	295	294	296	298	293	293	295	300	302	294	291	291	292	295	294	291	284	284	276	277	281	288	291	286	286	284	286	294	301	307	307	301	299	293	290	293	288	288	286	285	276	276	281	288	288	289	292	292	289	286	291	292	292	292	299	291	287	287	288	291	291	292	291	285	286	286	289	290	290	292	295	283	284	284	285	285	285	290	287	286	284	284	284	287	288	288	291	292	290	287	285	282	281	287	292	292	293	295	288	292	287	282	282	286	290	290	291	292	290	291	290	289	288	289	290	290	291	291	292	293	294	292	284	283	287	294	293	291	295	295	294	289	291	293	293	293	294	294	293	295	293	291	291	294	290	287	299	297	296	295	298	293	294	298	298	289	293	293	298	299	298	295	296	296	296	298	295	295	290	291	293	293	293	293	293	296	300	308	309	310	311	308	305	304	300	299	299	298	298	295	295	295	297	297	297	305	305	299	294	290	289	289	293	296	301	304	298	294	293	297	296	296	298	299	306	309	311	313	313	309	304	302	299	296	298	295	295	296	298	301	302	301	306	302	300	296	292	289	290	293	297	298	297	298	302	303	305	306	306	306	307	308	308	310	310	308	307	304	304	303	293	296	293	293	293	293	296	298	300	303	306	299	299	299	307	311	311	309	306	303	303	300	303	305	305	305	306	306	304	304	302	301	300	299	299	304	307	308	307	306	307	307	306	304	304	300	305	308	310	304	303	306	308	310	313	313	313	309	306	304	299	301	304	308	303	303	302	302	301	304	302	299	299	297	294	298	298	301	302	301	297	295	298	294	291	290	298	300	293	292	293	293	299	300	296	296	300	306	305	300	300	299	300	301	304	303	297	298	299	299	305	300	298	298	297	296	295	295	300	297	303	303	310	296	299	307	300	299	302	302	302	299	299	304	303	302	301	302	301	296	296	296	300	301	299	296	302	300	300	295	293	296	293	292	292	296	305	305	292	285	285	282	281	284	292	293	292	290	291	293	293	290	290	293	293	293	297	292	293	292	296	294	296	298	298	304	306	303	296	292	289	288	288	294	296	290	292	290	291	290	289	284	286	296	295	289	286	287	289	289	288	288	288	288	289	288	286	280	282	285	289	291	292	292	287	285	284	284	287	286	287	285	284	285	288	290	290	290	286	288	288	286	287	287	286	285	285	287	287	287	290	284	287	290	284	281	281	283	286	289	289	288	287	288	287	284	285	290	292	288	288	285	282	280	280	275	277	275	278	283	283	283	292	287	283	281	282	276	278	278	277	279	279	281	281	277	277	277	277	276	278	278	276	281	284	282	282	283	280	281	291	287	284	284	277	277	276	276	275	279	283	283	287	283	276	276	278	282	282	281	278	275	279	280	282	282	282	284	284	282	279	274	274	274	274	276	277	278	278	275	275	278	279	282	282	281	272	271	271	272	272	271	268	266	265	268	268	270	274	276	277	273	273	270	269	273	272
292	298	298	300	298	296	298	295	295	300	297	295	295	291	291	292	293	292	292	286	276	276	274	281	288	293	294	294	286	287	292	301	303	295	295	293	288	284	279	285	287	287	285	276	283	285	287	286	286	284	286	284	287	290	295	295	295	298	302	290	289	289	291	291	294	289	284	283	285	285	294	294	298	300	296	293	283	285	284	286	286	286	285	284	284	283	286	285	287	287	288	287	285	285	286	285	281	287	293	293	294	289	285	284	282	282	286	287	291	291	291	289	286	285	283	284	284	285	283	285	285	282	283	283	285	285	287	288	290	291	291	295	291	298	299	293	292	292	294	295	297	295	293	290	285	292	292	290	285	285	295	297	296	297	299	295	294	285	289	293	291	292	294	295	295	297	297	300	298	295	293	291	290	291	287	291	293	293	293	297	302	305	308	307	302	299	301	295	297	294	299	298	295	295	299	305	301	301	299	303	303	295	295	295	294	292	294	297	297	296	295	294	298	295	296	297	299	303	301	303	308	308	311	309	304	302	297	295	296	294	296	295	295	297	297	296	303	300	296	292	289	286	291	295	296	298	299	299	300	304	305	305	305	304	305	306	309	308	307	304	301	300	299	291	291	288	288	289	289	293	298	298	300	300	294	294	298	300	306	303	305	304	301	297	300	302	304	306	304	304	304	304	303	303	304	304	304	304	306	307	306	305	305	307	304	305	301	304	304	303	301	303	303	302	307	305	305	310	311	310	306	305	304	299	301	302	303	302	302	301	299	300	300	301	299	295	299	295	293	293	298	299	301	297	293	294	293	293	290	292	296	295	294	295	291	290	291	293	299	306	305	304	301	301	300	300	301	301	302	297	296	298	300	293	296	293	296	300	301	301	301	297	302	301	299	295	294	298	300	300	300	302	302	302	299	299	298	298	301	305	306	308	298	296	295	298	298	299	299	297	297	295	293	291	288	287	287	292	300	302	295	291	286	286	286	287	291	295	293	293	286	285	290	291	291	293	294	293	293	297	297	293	292	297	295	293	292	292	294	298	296	288	287	289	289	292	294	296	291	291	290	294	290	285	295	296	300	295	290	290	288	287	289	289	287	287	286	288	288	283	281	279	282	285	286	290	290	289	285	284	285	284	285	285	283	282	284	287	292	290	290	287	286	282	282	283	283	283	286	287	284	284	282	282	286	293	297	296	285	282	283	285	285	286	288	287	288	287	280	279	280	285	282	282	278	278	281	282	285	283	279	277	277	282	284	285	282	283	281	283	272	272	277	275	274	280	282	279	275	276	276	274	274	273	273	274	277	276	284	282	282	280	278	282	280	274	274	273	276	277	276	279	281	281	278	276	276	276	276	276	278	278	277	276	273	275	280	282	282	285	289	285	283	280	280	275	274	274	275	277	278	278	274	273	274	278	279	279	278	273	272	273	272	272	271	268	265	266	268	268	271	274	275	273	273	271	268	266	268	269
290	297	301	301	300	301	296	295	300	292	292	294	296	292	291	291	290	292	291	285	283	283	283	289	295	293	294	289	290	288	290	302	303	295	295	290	284	278	282	285	287	287	285	283	283	285	285	285	285	283	286	288	289	291	295	297	297	300	297	290	290	290	292	292	294	281	278	279	280	280	293	298	298	301	294	293	288	286	286	286	286	286	286	285	283	283	286	283	281	281	281	282	283	286	289	288	282	286	290	290	288	283	285	284	282	284	285	287	291	286	285	286	286	284	284	285	286	286	282	282	288	288	291	291	288	287	288	289	291	291	290	291	298	298	295	292	288	285	287	289	294	294	288	283	283	284	284	290	290	285	285	285	294	295	294	290	290	287	287	291	292	292	291	293	295	296	298	297	293	293	295	292	291	291	290	292	292	292	292	297	299	300	299	298	294	297	295	295	292	300	303	298	295	299	299	305	301	302	302	302	299	298	297	296	299	297	295	296	296	297	297	294	296	292	295	300	299	300	300	301	308	312	312	307	304	300	297	295	296	296	294	299	295	297	295	292	291	291	291	289	287	286	291	295	296	297	299	297	300	299	302	304	304	304	298	299	299	300	298	298	297	294	293	291	287	288	289	295	300	297	295	298	301	299	295	291	300	300	300	302	304	301	298	303	304	306	306	305	304	303	297	299	302	302	305	307	308	305	304	307	305	304	305	304	301	302	297	298	299	300	300	296	297	306	304	297	297	300	301	300	305	302	300	301	300	301	302	302	303	300	299	297	302	302	296	294	293	293	293	293	292	299	302	302	299	296	294	294	294	294	295	295	295	293	293	289	290	295	298	301	300	301	299	299	298	299	299	298	294	294	297	299	293	289	293	292	293	296	301	301	302	304	301	299	295	291	293	298	300	300	300	300	299	299	297	295	292	304	307	306	303	303	300	290	292	296	292	293	297	294	294	292	294	294	293	292	288	292	295	292	290	288	287	288	289	288	291	291	296	293	288	287	288	288	288	293	294	293	293	294	296	292	290	288	291	291	290	288	288	291	296	293	289	284	284	289	292	292	291	291	290	289	286	285	292	301	295	291	288	290	290	288	288	286	285	284	288	289	289	284	280	280	282	283	286	286	289	291	288	285	285	284	283	282	280	279	284	287	292	292	289	287	286	281	280	281	281	282	286	287	287	287	282	281	282	285	283	281	276	281	285	283	285	286	280	278	280	279	279	276	276	279	279	273	275	277	281	286	288	285	280	283	283	279	276	285	282	279	282	275	273	273	267	271	272	274	276	275	276	277	277	276	275	275	275	275	277	276	276	280	279	276	273	273	278	281	281	282	282	277	278	278	279	279	277	276	276	275	272	275	275	278	277	275	273	276	279	279	279	281	282	282	279	275	280	275	275	273	275	277	277	277	273	272	272	274	274	277	277	273	272	273	273	272	272	269	264	265	265	268	270	272	273	270	270	271	269	265	266	269
292	298	306	306	304	299	291	292	292	292	292	295	295	294	290	290	290	288	279	283	286	286	286	285	278	278	289	290	290	287	288	298	300	293	293	286	286	279	278	285	287	287	285	281	282	284	285	285	281	283	284	287	288	291	295	295	295	290	289	288	289	290	290	293	293	281	278	274	277	279	295	298	298	293	289	280	285	289	296	294	286	286	287	285	283	286	286	283	274	272	272	276	281	283	283	283	283	287	283	283	281	282	284	285	284	283	285	285	286	285	285	284	286	280	278	281	281	282	280	281	286	286	292	293	290	285	284	286	287	289	290	288	293	293	295	292	284	285	284	283	289	289	284	283	284	288	293	293	291	285	282	283	286	288	289	292	290	290	289	290	291	291	291	293	295	296	296	294	291	291	290	293	290	288	292	305	302	298	297	297	297	298	297	295	293	292	295	297	298	302	298	295	298	300	301	303	303	302	302	300	300	296	297	295	301	303	303	300	297	293	293	294	294	295	300	302	303	303	302	302	307	308	305	305	301	297	293	295	295	296	299	295	298	294	293	291	293	290	292	290	287	284	288	293	296	297	299	297	300	299	298	301	301	301	296	295	298	302	299	297	297	295	293	293	293	292	294	300	303	301	295	297	297	296	293	297	298	299	300	305	305	299	299	301	300	299	300	304	302	300	298	297	295	295	301	304	304	302	301	301	299	299	300	301	303	300	295	293	294	298	294	296	299	300	298	295	296	299	302	299	293	299	299	299	299	300	301	307	308	302	300	300	302	299	293	291	294	293	292	292	291	294	300	300	297	295	292	293	295	298	295	288	289	291	294	295	295	298	294	293	294	294	292	288	289	291	292	292	292	293	288	287	286	287	291	287	292	295	295	299	304	300	301	299	295	291	293	297	298	297	299	295	295	298	295	294	293	298	301	304	301	301	300	298	289	288	290	295	294	294	291	294	290	289	290	292	288	287	287	289	293	292	289	289	288	284	285	290	296	298	285	285	288	288	288	289	292	293	293	293	292	291	289	288	286	288	288	288	288	288	290	294	294	294	289	287	290	289	287	291	288	288	288	287	289	293	293	291	288	287	287	284	285	285	286	286	290	291	290	286	283	281	283	283	286	286	286	288	290	288	286	282	281	281	281	279	284	286	286	286	283	282	279	278	277	279	277	279	285	287	287	286	282	280	279	283	282	280	277	275	285	283	283	285	280	278	276	275	276	276	277	276	276	273	276	275	274	274	275	279	284	283	283	279	276	281	281	283	278	274	265	265	265	269	270	273	275	277	274	274	276	280	281	279	275	275	273	273	274	275	277	275	274	273	276	276	277	279	280	276	273	276	274	274	277	275	274	273	271	274	274	277	279	275	272	276	275	275	279	281	279	273	279	279	275	274	274	274	275	274	274	273	274	272	271	272	272	278	278	279	272	273	273	275	274	272	269	269	269	269	267	267	262	268	268	268	266	265	266	266
297	302	303	303	300	290	290	285	287	287	290	295	295	292	292	292	291	285	290	290	286	280	280	282	284	279	280	289	289	287	288	285	285	289	290	290	283	284	272	272	274	286	286	285	284	282	280	281	283	283	285	291	291	289	281	288	288	286	284	285	287	287	288	284	284	279	274	274	277	287	291	294	294	288	278	277	276	283	285	287	290	290	290	290	287	285	283	276	274	272	275	276	279	281	284	284	282	282	282	278	278	282	283	287	288	285	290	287	285	286	286	284	286	278	278	277	281	282	284	282	282	288	288	286	287	283	281	284	285	286	284	289	292	289	289	287	284	285	282	285	284	283	283	283	283	287	290	290	287	284	286	289	290	290	291	292	293	289	289	289	290	291	291	291	294	296	296	289	289	289	288	286	286	290	298	295	296	293	293	293	296	297	296	293	287	292	296	300	301	294	295	299	299	299	301	302	300	303	300	300	300	296	293	293	294	296	301	300	297	295	293	291	295	297	307	305	303	299	302	306	308	310	307	307	300	294	294	293	298	297	298	300	298	295	294	292	292	289	292	292	285	280	290	292	296	298	297	298	300	299	298	301	301	296	296	296	295	297	299	296	296	298	296	293	291	291	290	293	296	299	298	292	293	293	294	293	293	294	300	304	299	298	293	289	289	292	298	298	299	301	297	298	296	296	297	298	301	300	296	295	295	298	299	300	297	295	293	293	295	298	294	299	298	299	298	295	296	299	299	298	294	294	298	298	297	301	302	304	302	299	297	299	299	298	298	296	295	292	292	291	293	295	293	294	295	293	293	294	296	299	294	291	291	293	300	298	298	296	294	293	293	294	294	288	288	293	290	288	288	287	288	287	287	288	289	289	287	287	295	299	304	300	294	291	288	291	291	296	298	299	297	293	289	296	296	294	292	295	297	297	293	299	299	296	289	287	288	288	288	286	292	295	293	289	289	290	288	287	288	289	294	292	288	282	282	279	287	281	295	298	285	285	285	285	288	292	292	292	293	293	292	291	290	286	285	283	285	285	287	289	289	289	289	290	290	289	289	284	283	284	289	288	286	286	289	293	293	289	289	289	293	290	290	290	290	288	287	284	290	287	283	282	279	278	278	279	282	283	287	286	282	280	277	281	281	281	282	285	285	283	281	280	278	276	276	276	275	276	281	285	285	286	284	280	279	281	280	280	277	275	281	281	284	285	282	279	275	272	272	273	276	276	279	281	281	281	280	283	279	282	283	284	283	277	276	276	282	281	272	271	271	270	271	273	270	273	274	274	272	272	274	279	281	279	276	273	273	273	275	281	279	278	275	274	274	274	277	279	278	276	272	270	276	274	271	275	275	271	270	271	271	279	281	281	277	272	272	276	275	274	279	273	273	273	274	271	271	272	273	271	271	267	275	276	275	273	273	276	278	279	276	276	276	276	276	276	276	275	275	273	270	267	267	267	268	268	266	273	270	270
287	288	286	288	288	284	280	282	291	297	297	296	294	292	292	295	295	297	295	290	281	280	280	282	285	285	281	284	284	284	284	285	285	281	282	282	282	281	275	269	271	281	281	282	284	283	283	282	283	283	285	287	293	292	285	284	282	282	283	283	285	284	281	277	273	273	273	277	281	287	291	291	291	291	281	273	278	283	278	279	284	284	285	288	286	283	279	273	274	275	276	276	281	281	279	284	283	282	279	281	281	283	284	287	288	293	295	292	286	284	287	287	284	278	278	279	281	279	277	274	278	285	285	286	283	281	282	282	282	282	283	287	288	287	287	284	284	285	282	285	284	283	284	284	287	286	284	284	284	284	283	287	289	288	289	290	291	290	290	288	289	290	291	291	293	293	290	289	289	287	286	287	287	292	292	290	286	287	287	293	293	296	296	293	289	287	290	292	293	297	298	299	299	299	297	294	297	299	299	298	298	296	293	293	294	291	291	295	298	296	287	288	290	293	295	293	291	290	294	299	300	299	297	296	296	296	296	296	297	295	297	298	301	298	295	294	293	294	294	292	291	292	292	294	293	293	300	301	301	297	297	298	298	296	296	296	295	297	299	296	296	298	295	292	290	291	290	292	296	296	292	292	293	293	294	293	293	295	296	294	292	291	289	289	290	293	297	297	299	300	299	299	298	298	298	299	300	300	298	294	299	299	297	296	291	291	291	292	297	299	298	299	299	295	295	296	294	296	297	299	300	297	298	296	295	293	293	300	299	299	299	298	297	297	294	292	291	291	291	292	294	293	298	294	292	295	295	294	294	293	289	292	290	293	292	292	294	295	294	294	293	293	291	289	289	289	290	289	288	287	285	288	289	288	289	289	287	287	287	290	294	290	289	287	286	286	293	290	291	298	295	292	288	287	288	290	292	293	290	289	289	292	293	293	293	287	285	285	285	289	289	293	289	287	287	285	285	286	286	287	287	286	284	282	280	279	287	281	295	297	285	283	283	283	288	292	292	290	290	290	289	289	286	284	285	283	281	285	288	289	289	286	286	284	280	281	281	279	280	283	288	286	286	286	284	286	289	291	295	295	296	295	290	286	286	290	288	285	283	282	284	282	279	279	279	278	279	279	279	284	280	280	277	277	278	281	282	282	285	286	287	282	280	277	275	276	275	275	279	279	282	282	279	278	276	280	280	280	279	277	277	277	279	283	284	283	282	282	281	277	277	277	279	279	280	282	284	287	283	282	283	283	279	277	277	277	279	273	269	271	271	273	275	276	274	273	274	273	273	270	274	279	280	278	277	274	274	274	275	276	280	275	274	272	272	273	277	278	277	275	272	270	270	268	267	268	275	272	271	271	270	278	281	280	285	275	275	270	275	274	266	263	265	265	268	274	274	275	275	275	271	268	268	277	277	277	273	276	277	273	272	272	272	275	275	270	275	275	277	272	271	268	265	267	268	269	268	265	275	275
278	280	279	275	275	277	284	294	299	301	301	296	294	295	296	295	295	285	287	287	285	285	285	282	282	285	290	283	277	277	280	281	279	281	275	277	277	281	278	277	275	274	274	273	273	274	277	282	284	284	284	287	293	279	277	277	278	278	282	283	282	279	278	275	269	269	272	274	279	285	289	291	291	281	273	272	271	273	273	275	277	283	283	285	283	280	275	274	277	278	281	281	281	281	277	277	275	271	274	276	281	281	284	284	286	288	288	286	284	279	279	279	282	280	277	279	281	276	276	276	279	286	286	284	280	275	277	282	281	282	287	293	289	286	287	287	286	285	284	282	284	283	284	289	286	283	281	283	283	277	279	281	288	289	290	292	291	291	285	288	290	290	290	290	291	290	290	287	287	287	286	287	292	288	286	284	281	282	285	290	290	293	294	293	289	287	289	292	294	297	298	299	299	299	300	295	294	296	299	299	299	295	290	290	289	291	291	295	292	287	286	291	293	293	290	289	289	290	291	294	292	291	291	292	292	290	288	288	289	292	296	297	296	296	292	291	290	294	295	294	293	290	292	297	298	298	301	301	300	300	288	293	293	293	292	292	296	297	298	296	296	298	295	292	292	286	290	296	299	296	295	295	295	295	295	294	296	296	293	288	288	289	289	291	297	296	295	299	298	299	298	298	297	295	295	295	297	298	297	292	291	290	290	293	290	291	291	294	295	301	299	298	294	293	292	291	292	293	295	297	294	298	299	296	293	290	290	292	298	300	299	293	292	290	290	289	292	294	294	296	293	296	296	293	289	293	294	290	293	288	287	285	292	292	292	293	293	294	292	293	293	292	291	290	288	288	288	289	288	287	285	288	289	291	289	289	285	285	285	286	289	290	288	287	286	289	289	287	286	283	285	286	291	289	290	289	290	293	292	288	289	290	292	291	287	289	287	287	283	285	288	288	286	285	283	281	281	286	286	286	282	283	286	282	280	279	280	291	288	287	284	284	281	283	284	290	290	289	288	286	284	284	284	284	283	281	282	282	286	286	286	286	282	280	279	279	280	280	279	278	288	286	285	283	283	284	283	285	285	285	284	282	279	283	285	285	287	284	283	277	275	276	276	276	282	281	276	276	277	284	280	279	277	280	281	281	280	280	286	287	287	286	279	276	274	274	273	275	276	276	277	278	275	274	276	280	282	281	279	278	278	280	280	280	282	283	284	282	278	276	278	278	280	281	279	278	278	287	283	282	282	280	279	275	275	277	272	272	270	270	272	276	280	285	277	275	275	275	273	270	274	275	272	272	273	273	273	275	275	279	279	276	273	272	272	274	277	277	277	275	273	272	272	273	271	275	274	274	269	269	269	271	272	276	278	272	272	270	268	268	268	267	267	268	270	271	269	272	274	274	273	271	270	273	277	277	274	272	268	267	267	267	270	272	272	272	271	271	274	272	270	268	265	265	268	268	267	271	271	275
278	278	277	277	277	281	289	297	299	296	296	299	294	295	294	293	293	285	285	284	285	282	281	281	281	285	295	288	276	276	273	280	281	276	275	277	280	283	278	277	276	275	275	275	277	279	277	277	276	276	276	277	278	279	277	275	277	281	281	284	286	278	276	275	268	268	265	265	276	281	286	288	281	273	273	282	283	277	273	274	278	283	283	282	279	278	275	277	278	283	283	285	285	279	277	277	272	274	274	281	284	284	282	283	275	282	281	282	280	279	280	278	278	279	281	282	277	276	276	279	281	285	281	281	287	282	283	287	282	282	282	281	281	282	285	285	288	289	284	284	284	281	286	289	286	285	283	281	285	285	287	284	283	283	287	290	290	284	279	283	288	287	285	284	284	283	283	283	290	292	293	292	292	288	287	280	277	278	283	286	291	291	293	293	290	292	294	295	297	298	297	295	294	298	300	294	293	288	291	295	293	293	290	290	289	292	295	296	292	287	286	299	296	298	295	290	288	288	292	294	294	293	292	292	290	290	287	283	285	288	289	295	295	292	290	287	285	288	288	293	293	288	291	294	295	294	297	296	300	287	285	288	292	292	291	291	294	296	294	292	290	291	291	292	292	286	290	296	299	296	288	292	296	296	293	295	295	290	284	284	285	288	293	302	298	295	298	298	295	296	298	296	292	292	292	294	293	292	286	285	283	285	284	284	292	291	291	293	294	300	299	294	292	292	297	290	288	292	292	291	290	291	289	291	290	291	291	292	291	293	293	298	295	294	295	292	293	292	292	291	292	293	293	289	284	286	286	287	287	287	283	290	290	291	289	289	294	295	295	296	293	292	291	290	288	288	288	288	284	286	286	286	287	290	289	288	288	284	284	284	292	288	288	290	292	288	288	292	287	287	285	283	287	286	286	288	288	292	292	289	288	288	289	291	288	287	287	287	288	288	288	291	294	286	279	282	285	293	292	292	282	283	286	287	285	285	285	289	288	286	284	284	280	283	288	287	287	287	286	284	282	283	280	280	281	281	280	280	284	283	283	283	280	279	279	278	280	280	279	278	281	283	284	283	282	283	282	284	284	285	284	283	281	278	282	284	285	282	282	281	278	278	279	279	278	285	281	276	277	282	281	279	279	280	283	283	283	283	281	280	278	281	275	274	272	272	270	274	274	277	275	274	275	274	276	276	276	277	278	277	277	276	277	278	278	278	277	273	275	277	277	277	279	279	278	278	278	281	278	279	279	278	278	274	273	274	273	272	270	270	274	276	280	281	286	280	275	275	275	275	273	274	273	272	273	274	274	276	276	276	279	278	278	277	277	273	277	277	277	275	273	273	272	273	273	273	275	274	274	270	269	269	271	273	274	278	272	269	270	269	266	269	269	270	269	269	265	264	264	265	263	265	267	273	275	275	273	271	270	268	270	270	271	273	272	272	273	273	273	270	270	268	268	262	266	265	266	274	274	275
279	278	277	279	283	283	287	292	290	290	288	288	292	294	291	279	281	281	285	284	283	283	284	284	284	287	294	287	276	276	276	278	278	273	275	280	280	283	276	272	271	274	276	276	280	281	276	278	275	275	275	276	276	273	275	275	277	282	282	287	286	278	276	271	269	266	266	264	273	275	277	276	278	281	281	282	283	279	280	282	283	279	277	277	278	277	276	277	283	274	275	275	275	275	275	275	272	274	281	282	286	281	281	278	275	277	278	277	277	280	283	284	284	280	288	280	280	278	276	279	281	276	289	289	284	288	290	285	285	282	282	277	274	276	278	286	286	288	283	283	282	280	288	293	290	285	283	285	290	290	291	288	278	282	284	287	280	280	278	279	282	284	283	279	279	276	276	284	289	292	296	296	294	291	287	280	277	277	281	284	289	289	290	290	290	291	292	293	294	294	294	293	289	286	288	286	286	289	292	292	292	292	290	288	288	291	294	293	288	289	290	299	296	298	296	293	290	288	291	294	293	291	291	291	289	289	286	283	282	286	284	290	295	298	301	297	292	288	288	290	281	279	282	287	286	294	294	293	289	283	285	289	295	289	291	292	292	292	291	291	291	289	287	285	285	289	289	290	292	290	288	292	296	296	293	295	295	291	285	282	286	287	291	298	299	289	287	291	291	287	287	290	294	297	297	293	295	289	288	289	291	295	295	297	297	294	292	291	298	295	295	291	289	291	291	298	293	291	290	287	288	287	291	291	290	289	289	289	287	288	288	290	292	293	297	296	294	293	293	291	290	292	292	292	284	281	281	282	282	284	285	289	289	289	289	289	294	295	295	296	293	292	289	288	288	289	288	286	289	288	286	285	286	288	287	286	286	281	283	283	281	280	287	288	290	292	293	292	291	287	283	282	285	284	285	286	286	288	291	290	287	288	292	291	290	291	291	291	287	284	281	286	288	288	283	288	290	293	292	292	292	288	290	292	291	287	287	285	282	283	283	283	285	287	288	287	287	286	285	283	282	282	281	281	280	280	279	280	281	282	282	280	279	276	276	278	280	280	278	276	276	286	283	283	281	280	282	282	283	284	283	282	279	282	285	284	278	281	281	280	280	280	280	281	278	285	281	280	282	281	281	282	282	282	283	282	282	282	280	280	278	274	271	273	272	269	273	274	274	275	275	274	272	272	274	275	276	279	279	279	279	279	279	280	280	275	272	271	270	273	273	275	276	279	278	276	273	274	273	273	272	271	272	271	272	272	274	274	275	275	276	276	279	279	286	280	276	276	273	273	272	274	275	275	276	276	278	278	276	275	274	272	272	272	277	273	274	273	276	275	273	273	273	275	275	277	278	274	274	271	270	270	271	273	274	274	275	271	269	267	270	267	267	269	270	271	268	264	264	260	258	265	267	269	269	272	274	271	268	267	267	269	271	272	273	274	274	274	273	270	268	266	266	264	261	260	264	272	272	267
272	272	275	279	283	279	278	280	280	280	280	280	279	290	289	289	281	281	282	284	283	283	288	288	289	289	290	276	270	272	272	271	272	273	278	282	279	279	276	272	271	273	274	290	290	284	279	279	275	273	274	274	276	273	274	276	278	282	282	279	279	275	272	271	269	270	270	272	273	277	273	273	277	285	285	285	281	279	280	284	284	276	275	275	278	278	280	280	275	274	277	275	275	274	274	274	276	279	281	282	281	278	278	277	276	276	275	275	279	279	284	284	279	279	283	288	281	275	273	280	270	276	289	285	285	284	283	284	279	280	281	279	274	275	275	280	280	286	281	277	277	286	277	280	283	282	282	285	290	281	281	281	284	289	289	288	279	277	273	273	274	275	275	277	281	281	282	282	283	283	284	284	285	285	283	280	277	277	281	283	286	287	287	288	287	287	289	291	292	292	292	289	286	281	281	281	284	285	287	292	289	290	290	287	285	286	287	290	289	290	290	291	294	296	296	293	290	290	291	288	289	290	295	293	290	283	283	279	281	282	287	293	294	300	296	294	292	286	288	286	284	281	280	284	280	285	290	287	285	286	287	290	296	294	292	292	292	294	293	294	295	292	289	285	286	285	287	292	291	288	287	292	288	290	294	294	294	291	285	282	286	287	291	298	299	289	290	290	289	288	287	288	294	297	297	295	296	287	287	287	291	293	295	298	298	293	291	290	291	293	294	292	287	288	298	296	295	291	288	287	287	287	291	291	291	291	290	291	288	287	283	284	284	293	294	295	293	293	291	289	290	293	293	289	289	285	281	282	282	284	285	289	289	289	289	289	293	292	291	294	294	292	288	287	289	291	293	292	290	291	287	285	285	286	285	279	279	282	283	282	281	277	276	274	275	279	286	292	293	289	283	283	285	287	283	280	283	282	287	287	288	290	292	292	292	293	293	292	288	285	283	283	288	288	283	288	290	290	290	292	291	290	289	287	283	285	285	285	281	284	284	285	285	284	284	286	287	281	279	279	277	278	277	272	275	275	278	279	279	274	274	277	279	276	276	278	278	281	278	281	275	285	284	280	279	280	278	278	276	277	276	279	282	285	286	284	276	272	273	275	275	281	280	281	281	276	275	273	275	278	279	279	280	281	281	281	276	275	280	278	271	270	269	271	271	272	270	273	274	275	275	273	270	271	270	272	273	273	278	278	277	278	280	278	275	273	270	268	267	267	269	275	276	277	274	275	270	270	269	269	267	270	271	270	271	274	274	274	274	274	279	276	279	279	286	279	276	276	272	272	273	274	269	263	263	263	264	274	276	272	273	271	272	272	271	270	271	273	273	273	273	271	272	272	273	276	277	275	275	272	271	270	271	273	272	272	272	271	270	270	268	268	267	266	269	270	271	268	268	260	258	260	268	270	270	270	268	268	265	268	268	269	270	272	271	274	274	274	272	269	267	263	263	262	260	260	264	264	266	270
278	270	270	273	279	278	278	282	278	281	283	283	278	277	283	290	292	290	290	289	287	288	288	289	283	277	273	269	276	274	274	277	276	283	283	286	282	282	278	275	271	273	279	277	277	293	284	281	279	279	277	277	276	275	274	273	275	276	279	279	279	268	269	270	271	273	271	271	277	275	276	273	275	279	282	282	282	277	281	284	284	274	277	278	278	279	279	281	278	275	278	275	274	274	274	269	270	275	277	278	281	278	281	281	280	275	275	275	277	279	278	275	273	273	279	279	277	274	270	269	273	277	281	285	285	283	283	282	276	277	280	279	278	271	272	285	273	273	273	273	281	280	276	274	280	282	284	280	275	281	281	280	284	288	288	288	285	282	278	274	276	278	280	283	286	286	283	283	283	283	280	279	284	283	280	279	276	275	278	283	286	287	285	286	286	286	287	288	291	291	290	286	282	281	281	283	284	285	285	292	291	289	289	287	287	285	285	288	288	288	291	291	293	294	294	290	291	290	291	288	289	289	287	287	287	287	287	284	282	286	288	294	296	298	294	286	283	284	287	285	281	279	283	286	286	281	284	286	287	289	288	293	295	295	291	290	291	291	291	294	295	290	285	284	284	285	287	290	292	290	287	285	284	285	290	295	290	286	286	291	293	296	288	291	294	291	290	290	289	288	287	288	294	297	295	295	296	287	283	284	285	288	281	284	287	291	289	289	286	285	287	292	292	293	294	296	292	288	288	287	288	291	290	291	292	291	291	289	288	288	288	286	285	288	294	295	293	293	291	289	290	293	293	289	289	285	286	286	285	285	282	277	286	287	288	287	292	292	287	283	282	282	284	286	289	289	294	294	289	290	290	286	283	283	280	280	280	282	284	285	282	279	277	279	278	283	292	292	295	291	285	283	284	287	284	280	282	281	284	287	290	290	289	281	288	288	290	292	288	286	287	283	288	288	291	287	290	290	289	292	292	290	287	284	281	283	281	280	282	282	284	283	284	284	285	286	286	284	282	277	278	276	274	270	270	275	276	276	273	273	274	277	277	272	271	271	279	279	281	279	277	275	281	283	284	284	284	286	289	279	279	281	283	284	282	278	274	270	272	276	275	275	281	281	280	276	273	270	272	273	276	277	277	278	277	277	276	277	273	271	269	267	268	271	273	270	270	270	273	274	271	270	270	268	268	269	271	276	276	272	275	279	279	277	274	269	269	268	268	267	269	272	272	271	271	271	271	273	273	271	271	267	271	269	269	273	273	271	271	274	279	276	276	278	277	275	275	274	272	268	268	267	263	264	261	261	262	264	272	273	273	271	271	267	268	268	270	272	272	271	271	269	268	270	273	275	275	275	274	272	271	272	271	271	271	267	265	265	265	267	268	268	267	266	264	271	272	271	268	262	256	257	263	263	263	262	261	260	268	273	273	274	272	271	271	274	274	273	273	269	266	266	265	263	261	262	264	264	268	270
287	283	277	282	286	284	284	282	278	273	286	288	288	281	285	287	288	284	284	279	280	281	282	283	283	277	283	277	274	275	273	273	273	276	278	280	282	282	284	282	277	279	279	277	283	289	281	281	276	273	272	270	270	267	265	263	265	267	273	273	268	268	269	275	274	272	273	273	276	281	277	271	271	274	279	279	281	277	281	283	277	274	277	272	272	273	277	281	278	281	279	279	275	275	274	271	270	274	277	277	281	283	281	281	280	275	275	277	278	280	278	273	272	273	273	274	274	278	279	276	276	277	278	278	283	283	283	282	275	273	273	274	270	271	277	270	270	270	272	279	277	276	276	278	278	280	283	281	282	282	280	280	284	288	285	285	286	282	280	275	276	278	280	283	285	280	280	280	281	283	281	280	282	283	281	280	277	274	277	283	285	285	286	286	285	286	286	285	288	289	286	281	281	280	282	286	286	284	285	289	290	289	287	287	283	284	283	281	282	283	286	292	293	289	288	291	292	291	292	292	287	289	287	287	284	285	286	286	282	285	288	289	288	286	287	288	285	285	286	284	284	285	281	284	284	287	281	283	285	287	288	293	293	290	287	286	287	287	288	290	293	290	283	283	284	286	287	287	287	287	285	284	283	285	286	292	288	283	286	290	296	297	294	294	293	293	291	292	291	287	291	291	291	293	295	295	291	286	283	284	285	288	281	284	287	291	289	289	286	285	287	292	292	293	294	296	292	288	288	287	288	291	290	291	292	291	291	289	288	288	288	286	285	288	288	287	286	286	285	287	289	291	290	288	288	288	289	287	285	285	280	278	281	286	286	287	291	293	286	283	283	286	285	287	288	288	292	290	288	287	289	289	286	282	277	277	283	286	287	285	285	284	284	286	282	283	287	289	292	292	285	282	283	286	286	283	282	280	281	284	286	282	282	283	284	284	282	292	288	286	287	287	288	291	292	287	286	290	290	290	290	287	285	282	280	279	280	279	282	282	279	280	282	285	286	287	287	285	283	279	276	276	273	271	275	272	272	276	273	273	276	276	278	272	268	268	275	279	278	277	276	276	279	278	276	277	277	282	286	283	282	282	282	277	271	273	272	273	272	276	277	277	280	272	271	270	270	272	272	272	275	275	274	267	267	276	276	276	275	275	273	267	268	270	273	270	272	272	270	269	270	269	271	271	270	270	270	272	272	271	273	275	277	276	273	269	267	268	268	268	269	266	266	270	271	268	272	272	272	272	268	267	268	269	267	269	269	269	271	274	279	276	273	270	267	266	266	268	267	270	264	266	263	264	264	262	263	264	272	273	272	271	271	267	268	267	272	272	273	271	271	268	266	264	266	271	275	275	274	275	275	275	269	268	268	266	265	264	263	261	263	263	268	265	263	271	272	272	271	266	261	262	266	266	265	264	263	263	270	270	275	272	272	271	271	271	273	271	271	272	272	272	264	264	262	262	270	270	270	270
277	277	278	283	286	284	284	278	274	273	286	286	286	286	284	283	283	282	282	279	275	275	276	283	283	283	283	277	272	275	274	274	273	273	275	278	279	283	283	279	278	279	281	283	289	289	283	273	272	271	272	269	269	265	263	260	261	261	262	260	260	266	276	275	274	275	277	277	277	279	276	271	271	270	272	271	271	270	278	276	274	270	272	272	272	270	273	275	277	278	279	281	273	271	271	270	271	272	277	280	282	285	282	280	280	275	278	280	281	281	275	275	277	275	275	273	276	278	279	276	278	277	278	275	272	272	274	275	275	273	272	267	272	275	276	274	274	280	280	276	275	277	277	277	279	281	285	285	283	283	283	283	281	282	285	285	282	284	280	278	274	278	277	281	279	278	278	277	278	282	283	283	282	282	283	279	276	276	280	281	282	284	285	285	285	286	286	280	280	281	280	280	281	281	282	286	287	284	285	288	287	288	285	285	281	279	280	284	286	282	283	283	283	287	288	290	287	288	288	293	290	287	285	284	284	285	286	282	287	288	288	287	288	287	286	285	285	285	284	283	285	285	283	285	281	286	289	285	284	288	286	290	290	287	285	283	282	282	285	288	290	284	283	283	287	286	285	285	287	287	284	283	282	280	280	281	287	286	283	284	285	286	294	294	294	293	294	293	292	290	288	287	287	291	291	291	290	288	289	288	284	283	285	286	292	293	287	287	286	284	287	285	283	280	281	282	284	287	288	286	286	287	287	287	288	291	289	288	287	287	287	286	287	288	287	286	286	286	285	283	289	289	289	289	284	287	288	287	286	282	282	280	277	282	284	287	290	293	292	292	293	292	291	290	290	290	290	289	288	287	289	287	282	280	280	281	286	287	289	287	286	285	285	286	287	287	287	288	288	288	286	286	282	283	283	283	280	279	280	281	284	281	279	280	283	284	282	284	279	278	281	283	283	282	281	281	283	285	286	286	286	284	282	282	280	281	280	280	280	280	279	281	283	285	286	287	289	287	285	278	276	275	277	273	275	272	272	271	271	272	275	276	277	269	269	272	271	277	276	276	275	275	276	280	277	277	276	275	275	275	277	276	274	267	267	273	272	273	272	276	276	273	272	271	271	271	278	271	267	267	270	267	265	264	264	271	273	274	274	275	276	275	268	270	270	270	270	270	270	269	268	270	271	273	272	273	272	272	271	274	273	272	275	278	272	269	267	268	268	264	262	265	266	268	270	270	271	271	271	266	267	266	266	268	268	267	267	269	272	269	276	274	270	268	267	266	266	268	267	271	268	268	268	266	266	266	263	264	267	272	272	274	274	272	268	266	270	272	271	271	271	268	264	263	266	271	271	275	274	274	273	272	270	270	268	269	269	268	268	268	268	265	265	265	263	267	271	271	269	268	268	267	269	269	270	267	267	269	269	269	275	272	270	268	268	268	269	265	265	268	270	270	272	266	267	265	265	270	270	269
277	277	280	283	285	281	278	278	274	278	278	286	286	279	278	281	279	280	279	279	279	277	277	283	284	284	275	269	272	275	273	273	269	270	273	276	277	273	273	273	275	277	278	274	276	276	283	273	269	270	276	280	280	274	272	270	268	265	266	262	262	266	267	273	273	275	277	275	275	274	271	275	277	279	280	279	279	276	273	275	270	268	269	270	270	270	273	272	273	272	273	274	273	273	273	269	269	275	275	276	275	273	272	275	275	277	278	280	277	276	267	269	275	281	281	279	281	283	277	274	274	278	279	277	276	277	277	278	279	277	272	267	271	271	271	272	271	273	273	273	270	276	277	278	278	280	284	288	289	279	278	279	279	279	282	282	282	284	278	278	276	277	281	281	278	278	277	277	276	277	278	274	271	271	271	277	275	273	274	278	280	280	282	286	286	286	282	280	280	281	279	281	281	279	282	282	283	282	285	289	289	288	283	280	280	278	282	284	285	289	283	284	283	287	282	282	283	285	286	287	288	283	282	280	283	284	287	287	287	288	288	284	285	286	283	281	279	281	282	280	284	286	283	276	279	283	289	291	291	284	282	283	285	279	277	278	280	283	283	283	281	274	276	278	280	282	286	285	287	286	285	284	283	281	285	284	289	290	288	288	286	287	285	293	294	294	294	293	288	288	284	288	293	293	291	291	287	285	291	283	282	286	291	294	296	293	287	286	286	285	287	287	281	283	281	284	285	287	289	286	286	286	287	288	290	289	288	286	285	286	286	288	288	286	284	287	286	286	285	282	289	288	287	287	283	284	285	281	280	278	279	285	288	275	286	287	290	291	291	291	292	292	292	291	289	291	292	293	291	289	287	286	286	286	286	283	284	283	283	286	285	285	283	282	283	282	281	280	282	282	282	285	287	287	281	280	278	277	277	276	284	281	279	279	280	280	281	282	281	280	281	282	283	282	281	281	283	284	285	285	283	283	281	280	280	280	280	280	280	280	280	281	282	283	284	287	288	286	280	277	272	273	277	273	274	273	278	277	277	275	275	275	269	268	272	273	276	278	276	273	271	272	274	277	282	282	282	277	275	272	272	271	267	267	267	272	276	273	274	274	274	274	276	275	276	276	277	274	270	271	269	266	266	266	266	269	268	272	273	276	276	275	274	270	268	268	268	269	271	270	267	269	271	273	272	270	272	272	276	274	272	274	276	278	272	268	266	266	266	263	263	265	265	269	271	270	269	269	269	268	267	267	266	268	269	267	267	267	267	269	273	273	269	264	265	265	267	268	267	263	264	269	270	270	272	266	264	266	263	262	270	270	272	270	266	266	267	269	270	270	271	270	265	263	266	269	269	271	270	269	265	264	263	263	264	268	269	269	265	265	265	265	265	265	264	266	266	264	262	264	269	267	268	268	269	266	265	268	269	269	263	263	265	264	272	272	270	268	264	263	263	263	266	268	267	265	265	267	265	265
274	274	278	282	282	279	274	274	273	273	276	279	279	279	278	280	281	279	278	278	276	276	283	285	281	281	274	269	269	271	273	269	268	270	273	275	282	278	273	273	274	276	276	274	273	271	271	270	269	270	275	275	275	275	271	268	266	268	268	267	267	269	271	271	272	273	275	275	275	273	268	269	272	277	276	275	274	274	279	273	271	271	271	269	272	272	271	272	273	277	271	269	271	273	273	273	274	275	270	271	270	270	267	267	267	271	278	277	277	276	267	270	272	276	279	279	283	282	282	277	269	277	273	279	277	277	277	278	277	279	277	271	271	271	272	272	271	273	271	271	266	272	275	278	278	279	282	285	278	273	276	277	277	278	277	275	275	277	278	278	276	274	273	275	276	278	278	278	277	279	278	273	271	269	283	284	283	276	277	279	281	276	275	278	280	280	278	278	276	279	279	281	276	279	275	278	279	280	276	277	290	289	288	282	278	278	278	282	286	287	286	285	282	281	282	280	278	278	282	283	279	279	277	280	279	281	283	282	283	283	283	284	285	286	283	276	277	276	275	281	282	280	278	278	279	281	283	285	283	283	282	282	277	278	282	281	283	285	285	279	274	274	270	274	280	279	283	284	287	287	284	283	284	284	284	288	289	290	288	285	283	282	282	285	291	286	286	288	288	281	286	293	290	290	285	285	283	280	279	285	286	290	291	286	286	286	285	285	285	286	286	285	286	283	283	283	281	282	282	287	288	285	286	287	287	288	286	284	282	284	285	285	286	286	286	285	285	284	285	286	285	287	286	286	281	281	280	275	276	277	281	285	281	284	277	280	285	288	287	287	287	288	286	287	284	286	291	290	288	286	287	285	282	282	280	282	282	282	285	285	282	280	279	278	276	280	279	275	280	279	277	279	280	280	279	279	278	277	277	276	274	278	279	279	282	284	283	285	283	281	283	285	283	282	279	279	282	283	284	283	281	281	280	279	279	280	280	280	280	280	280	280	281	280	283	284	283	278	279	277	272	273	270	272	277	276	278	278	272	276	272	268	268	272	273	273	274	276	277	272	268	268	270	275	275	278	279	278	273	268	267	271	267	264	269	272	273	272	272	272	274	274	275	276	276	276	274	271	272	271	275	271	266	266	264	264	267	272	273	276	278	276	274	270	269	269	264	271	269	267	265	268	270	270	269	273	273	269	270	275	275	274	276	277	275	272	268	268	267	270	263	264	266	269	265	269	268	268	269	267	267	267	266	268	269	267	267	267	265	264	269	274	267	267	267	267	265	264	267	262	271	271	273	270	272	272	270	269	267	263	258	258	266	265	261	261	268	268	268	267	270	270	265	266	266	268	268	269	269	266	265	264	264	264	264	267	267	266	265	265	265	265	265	265	264	263	263	262	266	264	267	268	268	270	268	264	265	268	268	271	264	269	270	269	269	266	274	269	265	263	263	259	260	268	267	265	265	262	261	262
273	277	277	278	278	276	271	271	269	270	273	277	271	271	274	280	282	279	279	279	279	277	278	286	283	276	276	268	265	266	266	268	268	270	273	273	277	277	276	276	273	275	275	276	275	275	275	274	272	273	275	275	265	265	268	270	270	272	272	271	270	270	270	270	272	270	271	273	273	273	263	267	270	272	273	274	276	276	278	271	269	274	275	272	272	273	273	274	275	277	271	270	267	271	273	273	274	274	273	273	274	269	268	268	274	274	272	271	270	267	267	270	277	275	277	277	279	279	282	274	269	271	277	275	274	272	272	272	268	270	270	271	268	270	272	272	271	272	270	270	264	265	272	275	276	277	280	275	275	276	278	281	280	280	277	275	272	275	276	276	273	274	273	271	271	271	278	279	279	282	281	279	271	271	278	288	288	283	280	287	287	281	284	283	273	273	278	273	275	278	279	279	276	279	275	276	284	283	281	276	278	287	288	284	282	282	278	280	282	286	282	283	282	281	278	274	275	276	277	282	280	281	281	282	283	281	281	282	278	278	275	275	278	278	277	276	277	276	275	279	284	286	278	279	279	282	283	284	284	283	282	278	277	278	282	282	286	281	285	285	278	278	275	272	273	279	275	283	284	285	284	279	279	283	284	286	288	289	287	286	284	279	279	279	282	285	287	287	282	284	287	291	289	286	283	283	283	283	283	287	290	292	290	284	284	284	286	284	282	281	282	283	284	284	280	279	273	272	274	279	288	287	285	286	288	287	283	281	282	286	285	285	286	286	286	284	284	283	286	282	286	285	286	287	281	279	279	275	275	278	279	281	285	277	275	278	281	282	281	281	275	274	275	282	286	281	281	282	281	280	279	275	276	276	275	279	280	279	281	282	282	280	279	279	273	271	273	274	274	276	277	275	280	280	279	279	277	275	272	272	287	282	282	280	282	282	285	284	280	282	281	280	282	281	279	277	278	281	281	280	279	279	279	280	279	279	279	279	277	277	279	280	280	279	280	277	283	278	279	277	274	273	277	278	274	275	275	278	271	278	272	268	269	271	271	272	271	273	276	273	268	266	268	270	270	275	277	276	273	268	267	268	268	269	269	272	272	272	274	274	273	272	274	275	277	276	274	270	269	274	275	276	276	276	270	264	267	270	273	278	278	278	273	269	267	267	267	268	265	264	264	266	268	270	273	270	270	265	267	275	275	274	273	268	267	267	267	266	264	264	265	265	263	266	263	266	266	264	269	268	266	267	266	269	270	268	268	266	263	262	265	273	270	267	267	267	267	261	263	274	271	271	273	273	275	275	275	274	271	270	270	264	265	265	263	263	262	265	265	266	270	272	270	269	267	267	266	267	268	265	264	267	267	267	266	266	264	266	265	265	265	265	267	265	263	263	262	262	268	267	268	267	267	270	267	264	263	264	264	267	268	266	268	269	269	269	274	270	266	261	261	259	260	260	255	255	255	255	258	256
273	277	276	277	276	274	271	262	262	257	257	260	271	277	277	282	282	279	278	279	279	277	278	278	279	281	281	278	273	272	270	271	272	272	273	273	271	276	273	273	273	273	275	275	273	271	271	270	267	267	265	266	265	267	267	271	271	270	271	271	270	270	270	271	272	272	276	275	265	265	263	267	267	270	273	272	275	275	275	268	269	269	272	273	272	271	271	273	275	279	279	270	267	271	273	274	274	271	273	273	273	270	269	263	265	265	265	265	265	266	271	276	277	275	271	274	274	278	271	283	273	273	274	271	269	270	270	270	267	265	267	269	271	271	271	271	271	272	265	262	262	263	264	267	270	274	274	271	274	275	275	275	274	274	274	274	275	274	273	272	271	272	271	271	271	266	267	270	270	277	278	278	276	274	276	278	282	284	286	286	285	283	282	279	285	282	282	269	274	275	278	278	278	271	275	276	284	283	283	281	277	283	287	286	284	280	280	280	285	285	283	282	280	279	275	275	276	275	279	280	277	279	283	285	278	279	278	279	278	277	277	277	276	276	274	273	275	273	275	279	284	286	278	279	281	282	284	284	284	280	277	279	279	278	279	281	278	281	282	282	280	278	276	277	274	279	278	274	274	275	279	279	278	279	279	279	284	286	285	281	280	276	275	275	281	282	285	285	282	285	289	287	287	285	284	283	283	284	283	284	286	288	286	284	283	285	287	285	283	282	281	282	282	282	280	278	277	278	279	279	280	283	288	291	291	290	289	285	285	282	279	282	285	285	283	283	283	282	281	279	281	281	284	281	280	275	275	277	279	279	280	281	280	279	277	278	281	281	282	281	279	279	276	277	280	277	276	280	280	280	275	273	273	271	274	273	275	277	280	281	280	279	279	279	273	270	271	273	274	276	277	275	277	276	277	278	278	275	279	274	285	283	283	281	280	284	284	281	279	278	281	280	278	275	275	273	272	275	279	278	277	273	274	275	277	282	282	282	278	272	271	279	280	279	280	277	278	276	278	278	276	273	275	275	273	272	272	276	278	271	272	269	269	271	271	271	269	272	274	273	272	265	267	267	267	271	277	276	269	266	264	267	268	268	268	266	272	271	271	274	272	270	272	274	276	274	269	269	269	271	275	275	275	276	270	266	263	265	266	270	271	271	269	267	267	268	268	268	265	263	263	264	266	269	268	268	265	265	267	266	268	267	270	271	267	266	266	262	261	259	258	263	265	264	263	263	263	266	266	268	266	266	269	266	264	264	264	263	264	264	260	262	270	269	269	268	266	258	264	274	271	267	267	269	271	272	270	273	273	272	272	268	264	264	265	265	260	260	265	266	270	265	262	266	265	265	264	259	260	261	263	264	264	260	260	263	264	264	263	263	263	266	267	268	268	268	268	269	268	268	268	268	267	270	267	263	264	264	264	267	267	266	267	267	267	265	267	267	264	266	261	256	259	257	252	252	248	249	252	255
271	276	276	277	277	276	274	268	268	263	261	265	269	271	271	277	279	280	278	279	278	277	275	273	271	269	269	269	269	269	273	276	270	270	266	264	271	268	268	272	272	273	274	270	270	266	262	262	262	261	266	267	268	267	267	267	267	269	268	271	272	270	270	270	272	279	281	271	265	264	264	265	267	270	269	271	272	272	272	268	266	269	271	272	270	270	272	272	278	274	271	267	268	271	273	269	269	264	266	269	269	270	267	263	267	265	265	264	266	268	271	278	276	272	271	274	260	266	281	274	272	271	266	267	265	265	268	267	267	269	269	270	270	270	269	270	272	270	265	262	262	264	265	273	273	274	271	269	271	274	275	274	273	271	271	269	267	272	273	272	269	269	273	271	269	266	267	270	271	271	271	273	273	275	273	281	282	282	284	286	283	283	285	285	286	273	273	274	274	274	275	277	276	269	274	274	285	286	283	281	277	283	284	286	284	280	280	281	279	279	281	279	276	276	275	274	274	276	282	280	279	280	281	277	277	278	277	279	279	280	280	277	277	277	276	275	276	277	275	282	284	283	280	279	281	282	284	284	278	275	274	278	279	278	278	277	278	277	279	280	280	279	277	274	279	280	278	275	273	273	277	274	275	277	277	279	283	285	285	283	280	279	279	280	279	281	285	287	282	283	285	284	285	285	285	285	285	284	284	283	284	286	288	287	287	285	286	285	282	281	281	281	285	286	283	281	280	280	281	279	280	283	285	283	284	283	284	284	285	281	279	279	280	277	281	284	284	283	280	280	282	280	280	281	279	276	275	277	279	279	279	279	280	276	274	277	279	279	279	278	277	279	279	277	275	274	271	275	275	276	274	271	271	271	273	272	274	273	276	276	274	269	271	271	273	270	271	273	271	274	274	275	278	279	276	276	278	278	276	279	279	279	279	279	282	281	281	279	277	277	277	282	275	272	272	272	273	274	276	276	273	274	273	275	276	276	288	288	284	278	271	279	280	277	276	276	274	275	280	278	277	275	273	269	267	267	267	268	269	268	268	268	271	272	272	271	269	272	273	273	270	267	262	267	267	271	273	273	272	270	265	265	268	268	266	265	265	269	269	270	269	270	270	270	270	270	269	269	269	270	272	275	275	275	269	269	264	264	263	263	267	269	269	270	270	274	274	273	267	264	262	265	267	268	267	268	265	264	264	268	267	261	257	261	263	265	265	264	260	258	256	260	264	266	266	266	264	266	266	264	263	263	266	265	265	265	265	266	269	269	269	257	262	262	262	262	260	258	264	275	270	268	268	267	269	267	266	265	272	273	273	267	260	261	265	267	260	260	260	265	267	261	260	261	261	261	260	258	259	260	259	259	260	261	260	263	267	269	269	268	267	268	268	272	271	271	270	269	269	268	267	268	267	270	265	262	261	261	262	264	268	267	264	264	264	265	264	267	264	264	261	258	260	257	257	252	248	247	248	253
267	275	277	277	277	276	272	267	267	264	259	257	258	265	265	268	272	275	279	278	278	277	266	279	270	269	270	270	272	271	271	271	270	270	268	265	265	268	268	273	273	273	264	265	267	265	262	262	261	265	268	267	267	268	268	267	267	265	270	272	274	269	269	270	279	280	273	270	267	265	265	262	265	267	269	271	270	268	268	265	270	272	272	271	268	269	267	267	264	265	266	266	268	271	272	269	269	262	260	263	267	266	267	270	271	268	268	268	268	268	271	267	262	258	257	260	266	266	281	270	266	265	268	266	264	265	268	270	270	269	270	272	272	269	269	272	273	270	267	263	264	264	265	273	274	270	266	266	268	273	274	274	271	270	270	269	268	270	271	274	275	276	276	276	275	271	271	269	271	271	273	277	271	274	273	279	278	279	277	277	273	275	273	276	278	279	276	276	273	273	273	275	276	274	269	275	275	283	281	282	278	283	284	286	282	280	278	278	278	277	276	276	276	276	275	275	278	282	281	281	280	281	276	277	277	276	276	277	278	280	278	278	278	278	277	276	277	278	278	282	285	284	281	277	278	278	278	277	278	275	274	278	279	277	277	277	280	278	278	277	277	279	279	281	282	280	278	274	272	276	277	275	269	275	275	279	278	280	279	279	280	282	286	284	281	283	286	284	283	280	279	283	284	286	285	283	283	282	283	283	281	281	282	283	285	286	286	282	279	280	280	284	282	280	280	281	280	279	279	279	281	284	277	279	282	281	280	280	280	285	284	281	275	271	277	282	282	283	281	283	281	281	280	279	280	279	276	276	277	276	276	276	279	274	274	276	278	279	278	277	278	279	278	274	275	271	271	271	275	274	274	274	270	271	272	274	273	273	274	276	274	269	271	271	271	272	272	272	274	274	273	274	277	277	276	276	278	278	278	277	279	279	279	279	282	280	280	279	279	277	282	282	274	270	273	273	273	276	277	276	275	274	273	272	280	280	277	288	284	278	275	274	276	274	272	272	272	276	274	278	279	276	274	268	268	268	266	264	265	267	268	268	272	272	272	270	269	273	274	272	271	267	267	262	263	264	269	270	270	269	268	268	268	267	265	265	264	264	267	267	266	268	269	269	269	269	268	266	269	270	272	272	272	269	268	269	270	268	267	265	264	270	272	272	271	270	272	268	266	267	267	266	267	268	268	267	264	264	263	267	266	261	261	261	262	262	262	265	264	259	258	261	265	265	259	266	264	263	261	259	258	259	261	264	264	264	267	267	268	262	262	259	257	257	257	262	260	262	262	262	265	265	264	264	261	266	266	262	264	264	265	264	265	261	265	267	262	262	262	260	265	264	259	260	260	261	259	259	258	259	258	258	260	261	259	259	259	263	263	266	266	266	267	266	266	264	263	262	259	268	267	267	265	265	267	268	269	269	269	270	267	264	262	262	265	265	264	262	262	262	260	260	260	257	257	255	251	250	249	252
266	274	277	277	278	277	272	267	264	264	260	258	257	260	264	264	268	266	266	260	261	261	266	279	272	271	272	272	274	272	271	267	268	268	268	268	270	271	269	273	273	264	263	266	265	265	260	264	264	265	267	266	268	267	267	267	266	265	270	267	264	259	259	261	260	261	268	270	268	266	266	262	263	265	265	269	270	268	267	267	269	275	278	276	266	266	266	262	262	258	257	257	259	264	268	268	262	262	260	257	259	259	264	266	263	265	265	265	265	264	262	267	270	268	265	262	268	268	270	270	266	267	269	267	265	265	266	267	267	267	270	272	273	274	270	270	272	272	267	265	266	266	272	273	274	271	266	264	267	271	274	271	270	268	267	267	266	262	271	272	273	276	276	276	277	277	274	272	267	273	273	277	271	273	275	277	274	273	273	270	267	268	274	278	279	280	273	273	274	273	272	275	276	274	273	270	277	282	281	279	282	284	282	285	282	280	278	278	279	277	275	272	273	275	278	281	280	276	275	276	275	275	276	277	277	276	276	278	280	281	280	280	281	283	282	278	280	282	283	284	284	284	281	277	276	276	273	272	273	273	274	277	278	277	277	277	280	278	279	280	280	280	275	279	279	281	276	272	275	275	275	274	272	271	272	277	279	278	276	278	281	281	275	280	284	286	288	284	283	275	276	278	280	287	284	283	283	282	283	284	283	279	279	281	281	281	283	279	276	277	279	279	278	274	273	275	275	275	276	275	275	276	277	274	278	281	281	280	281	282	282	277	275	278	272	272	275	281	283	279	280	279	279	279	281	279	275	274	274	278	279	276	275	273	275	276	279	278	278	277	278	276	273	276	276	270	269	271	270	272	271	271	271	271	272	274	273	273	274	275	272	269	273	273	274	273	275	271	269	271	269	268	271	274	275	275	275	279	279	280	280	279	278	279	280	280	280	281	282	281	280	273	270	271	275	276	278	279	277	277	275	274	272	270	272	280	277	278	276	273	274	270	269	267	267	266	270	271	273	273	273	277	278	275	275	272	268	263	263	267	268	267	269	272	271	268	267	272	274	272	271	271	264	263	260	264	266	267	268	269	267	270	268	268	267	265	265	265	268	267	263	266	268	267	265	266	268	266	269	270	270	269	267	268	269	269	268	267	265	265	267	270	267	267	266	264	264	267	267	265	265	266	267	268	268	265	263	261	261	259	260	261	261	262	261	261	261	264	266	262	261	265	269	265	265	259	259	261	264	264	263	261	259	257	257	260	263	265	264	263	259	261	265	257	257	256	259	258	258	262	265	265	263	261	259	258	261	261	261	261	261	263	265	261	265	270	270	265	263	260	262	265	262	261	261	260	258	257	256	257	258	258	259	261	259	259	259	259	258	261	261	261	260	260	260	263	262	262	259	255	255	254	257	262	269	271	271	271	265	270	271	254	254	262	265	263	262	259	259	259	259	262	261	260	260	257	256	256	257	249
254	271	277	277	278	273	269	266	264	264	263	264	267	273	266	266	254	263	269	270	274	274	274	270	272	271	272	275	275	275	273	266	267	268	268	276	277	278	278	276	264	264	263	264	263	261	264	269	269	273	268	267	268	266	268	268	266	268	266	267	264	268	274	274	278	273	272	271	270	268	269	269	265	264	265	267	269	268	267	267	265	269	284	278	270	266	265	261	261	257	257	258	265	268	270	265	260	260	257	257	259	258	259	260	265	265	267	267	268	268	265	267	277	278	276	262	260	262	262	263	263	267	269	267	268	267	266	266	265	265	267	273	273	270	270	271	270	270	267	266	264	270	270	272	273	271	266	264	266	269	272	270	268	266	264	264	260	269	271	273	274	273	276	275	275	277	274	272	267	274	279	279	281	273	275	277	273	272	269	267	272	278	282	284	282	280	280	279	279	274	274	277	276	274	273	273	276	276	279	276	280	282	279	282	282	281	278	279	279	277	276	272	272	276	276	280	280	277	276	278	276	275	271	271	274	277	281	285	286	288	287	286	286	284	283	282	282	283	282	284	284	283	276	278	277	271	270	272	275	275	278	277	278	277	277	277	278	280	279	280	280	280	275	279	279	276	274	273	272	273	273	272	271	272	274	279	279	276	276	277	286	285	282	279	284	287	285	285	285	282	282	281	281	280	283	280	280	281	282	284	285	280	279	278	279	279	281	279	276	275	273	275	275	274	273	275	275	276	276	275	275	278	279	274	278	279	281	284	287	284	280	277	273	276	273	273	273	278	276	273	277	275	274	278	279	275	276	274	273	274	275	276	274	274	275	277	279	278	275	275	273	274	276	278	278	274	270	269	270	272	271	271	271	272	273	274	277	276	275	274	271	270	274	274	274	276	273	273	273	272	272	269	270	272	275	276	276	276	279	280	280	281	283	280	274	276	278	279	279	278	275	270	272	274	274	273	274	275	275	272	273	274	272	270	270	273	277	275	272	272	271	272	269	267	268	268	270	272	270	267	270	271	273	272	272	271	270	267	265	267	269	269	268	271	271	270	267	272	272	271	267	267	265	264	262	264	265	266	268	270	267	270	270	268	268	266	266	266	269	268	265	264	266	265	265	266	261	261	264	264	264	264	266	269	268	268	268	268	265	266	267	269	269	267	266	263	259	262	266	265	265	265	265	266	266	266	260	262	259	259	259	259	261	262	262	262	262	262	261	260	260	265	269	257	257	256	255	259	264	265	264	263	257	257	257	261	261	261	261	259	260	261	261	265	266	264	262	262	257	261	261	262	262	258	257	255	254	257	257	260	261	263	264	262	264	270	270	265	261	258	258	263	264	264	261	259	257	255	256	257	257	258	257	257	257	257	252	252	258	260	260	260	258	258	258	263	262	263	259	257	257	255	258	260	265	264	264	264	259	265	267	254	254	253	256	259	255	252	252	257	261	261	261	261	262	263	260	256	257	257
261	266	276	272	272	271	267	265	264	264	263	265	270	271	254	254	255	268	274	274	276	272	272	271	271	269	272	275	270	267	265	265	267	276	276	278	273	273	274	267	260	260	260	264	263	260	265	269	269	276	270	268	269	269	267	274	274	278	270	264	265	268	274	276	276	272	265	260	261	266	269	269	271	268	263	265	267	272	267	265	265	269	270	265	264	266	265	262	262	259	259	258	264	267	270	265	257	254	254	255	258	258	259	256	257	262	265	271	271	266	265	265	265	265	264	264	259	257	257	259	267	267	267	267	268	268	267	265	265	265	265	273	270	268	268	265	267	262	268	262	259	262	262	270	272	272	267	264	266	269	269	267	264	263	260	263	263	269	270	273	272	271	275	276	273	269	265	267	271	274	277	277	279	272	269	271	273	272	265	269	274	275	275	276	279	280	281	281	281	278	275	275	276	273	273	274	275	276	276	276	276	274	276	277	279	279	279	278	278	277	276	272	272	276	281	280	279	277	277	281	280	280	279	278	278	278	279	279	279	280	278	278	278	279	282	282	282	281	278	279	283	283	277	273	271	277	278	281	283	283	278	278	278	276	275	274	276	277	280	281	275	275	277	277	279	276	274	273	272	273	273	273	274	274	278	280	279	275	276	275	279	280	279	279	284	281	284	283	285	281	281	282	280	279	279	278	278	278	281	285	285	285	278	274	275	277	277	280	275	274	272	274	274	273	272	275	276	278	280	283	280	277	273	273	276	278	281	284	286	284	280	277	275	277	278	278	278	276	278	274	274	273	274	275	274	270	272	272	273	274	269	274	270	270	272	274	277	277	270	270	274	274	276	278	278	274	270	269	266	266	266	269	271	272	273	276	277	277	277	274	272	268	269	270	272	271	275	277	275	276	275	274	272	273	275	276	276	276	276	276	275	279	280	278	271	269	267	273	275	275	274	273	266	266	267	268	273	277	275	272	273	273	273	273	268	267	271	272	272	272	271	271	268	268	269	270	275	274	270	270	268	269	269	269	268	268	270	272	275	268	271	273	274	271	271	270	267	267	268	268	268	268	267	266	264	263	262	263	263	268	268	267	270	268	266	270	270	269	267	265	264	265	266	265	265	264	260	258	258	258	263	261	262	264	266	266	269	268	268	265	264	265	265	267	262	259	259	262	266	267	266	265	264	264	264	263	264	259	259	260	261	257	258	261	261	261	261	261	261	260	260	261	262	261	261	261	261	261	261	263	258	257	256	256	257	259	260	260	260	259	260	260	260	262	266	268	265	261	259	259	259	264	265	262	260	254	254	255	257	260	261	264	265	262	261	262	262	261	256	256	257	259	264	264	264	263	257	255	255	257	257	257	256	255	254	253	252	252	258	259	260	260	259	258	258	257	260	263	263	261	261	260	262	263	262	262	262	259	255	261	267	252	252	249	248	247	247	247	248	256	258	260	260	260	265	263	260	259	262	262
261	270	275	270	270	269	267	266	264	262	262	265	270	264	261	264	264	267	269	270	266	270	270	271	272	263	268	270	270	267	264	264	272	271	266	266	261	268	278	265	259	259	259	260	260	260	265	271	276	276	270	266	260	254	259	270	270	279	272	272	272	272	276	276	276	270	265	257	258	260	263	269	269	271	264	264	266	267	268	271	271	273	270	265	261	263	266	262	259	259	260	264	264	266	265	264	261	260	260	257	257	258	258	256	257	262	264	271	271	266	265	264	264	263	263	262	260	265	265	265	265	266	267	269	271	268	267	269	268	268	268	267	263	264	266	267	268	264	258	261	260	262	262	262	269	269	267	264	265	269	269	267	260	258	258	263	263	269	271	268	265	267	270	273	269	263	267	269	272	276	277	273	273	272	271	270	269	267	265	269	274	271	270	268	274	279	281	281	276	276	273	272	272	268	273	274	275	274	275	275	276	276	276	277	277	274	273	273	275	275	274	275	277	281	281	280	279	270	270	273	278	280	279	278	279	275	274	273	273	275	276	276	277	277	278	278	281	280	276	270	279	278	276	269	274	282	283	283	281	281	279	276	275	273	272	272	275	277	279	273	273	275	275	276	276	275	274	274	274	273	273	273	274	274	278	280	279	275	273	273	278	281	279	277	275	274	274	280	280	279	276	279	278	279	278	275	275	275	280	279	276	275	274	272	274	275	275	273	273	273	273	273	274	273	275	280	280	282	282	281	278	277	275	273	273	277	283	283	283	278	275	274	275	278	275	275	275	276	276	279	280	283	279	279	273	272	273	273	273	272	273	269	271	275	272	274	277	277	270	270	274	275	279	279	278	274	270	268	264	268	268	269	272	274	275	276	275	278	277	283	273	270	268	270	272	271	272	277	278	278	278	275	274	274	275	275	276	275	274	274	277	277	270	271	272	267	265	271	274	277	275	273	270	268	267	268	273	277	281	276	273	270	267	267	266	265	268	269	272	272	271	268	267	267	273	270	270	270	267	264	266	265	272	272	271	267	269	271	273	278	278	273	274	269	270	270	270	267	266	268	268	268	267	266	265	265	265	266	267	268	267	266	267	264	265	265	271	266	265	265	264	265	267	269	268	264	261	264	263	263	262	262	264	265	267	268	266	266	266	265	268	268	267	263	262	259	259	261	263	269	268	266	265	265	265	265	265	260	261	261	259	256	255	255	255	258	261	261	261	260	259	261	258	258	260	261	263	269	266	264	260	257	257	256	257	259	258	260	260	258	257	257	257	265	268	267	266	258	257	256	256	261	259	258	256	258	254	255	255	261	261	264	263	257	256	256	257	252	254	254	255	256	256	263	264	263	259	258	257	259	259	256	256	254	252	256	256	260	257	256	257	260	259	259	258	257	260	257	257	257	257	257	257	257	254	254	255	251	255	261	259	259	256	255	256	255	253	253	255	265	260	256	255	255	265	264	257	259	259	259
271	272	273	266	266	266	265	263	259	263	263	256	264	264	261	264	264	265	267	267	263	260	260	267	264	265	261	268	267	267	264	264	261	263	259	259	266	271	272	264	260	258	258	258	261	266	269	271	276	266	265	263	262	258	263	269	269	264	264	267	267	268	271	272	272	270	265	264	262	259	263	264	264	268	271	262	259	256	258	263	266	266	263	260	261	263	263	262	259	259	261	262	261	261	262	263	261	259	258	258	257	256	255	256	258	262	264	266	265	265	264	264	264	263	260	264	266	265	266	266	267	267	269	269	270	270	270	269	268	267	263	263	262	262	261	263	267	261	262	259	258	260	260	260	259	257	263	260	265	268	268	264	260	258	256	254	262	262	269	265	261	263	269	269	269	265	269	270	273	273	273	272	272	274	271	268	267	265	263	263	270	271	270	266	269	274	279	279	278	268	268	267	270	270	269	267	274	275	275	275	275	277	277	277	275	274	268	269	270	270	270	271	274	276	276	273	270	270	270	273	277	276	276	273	275	277	269	270	273	274	275	274	271	271	272	276	278	276	270	270	272	280	279	276	274	274	274	274	280	279	277	274	272	269	268	269	276	277	278	270	270	272	272	274	274	273	274	274	273	273	273	272	275	277	280	279	279	274	273	273	278	281	279	277	275	274	274	275	277	277	278	275	276	277	279	273	281	281	279	280	275	270	270	269	272	273	270	267	267	266	270	274	274	274	274	274	277	278	275	277	277	278	275	273	274	275	273	273	274	276	277	277	269	269	274	274	274	273	274	275	275	278	281	280	273	272	273	273	273	272	273	269	271	275	276	276	277	268	268	268	269	270	274	273	274	271	270	268	268	268	265	271	273	270	270	271	275	275	280	284	274	270	269	270	270	271	274	274	273	273	275	275	273	276	275	275	274	274	274	274	275	275	273	272	274	269	269	272	275	275	273	273	270	268	269	269	271	275	272	271	269	268	268	267	263	263	263	267	268	269	267	267	262	263	268	268	268	267	267	259	262	262	262	267	269	268	267	269	273	278	278	276	274	271	270	270	267	268	265	265	267	266	266	265	265	266	267	267	268	269	269	266	264	261	261	261	263	266	265	263	261	262	264	264	261	263	264	265	265	263	261	261	263	264	268	268	267	267	266	266	269	269	267	263	262	261	259	258	261	263	263	264	264	265	264	263	264	263	263	261	258	254	251	251	255	258	260	262	261	260	258	259	258	258	261	261	264	264	268	260	261	259	259	257	254	259	258	258	258	257	255	255	256	259	263	265	261	259	259	259	258	258	255	257	256	258	258	258	259	261	260	256	255	254	254	254	253	253	251	252	253	253	256	263	265	263	261	259	258	258	259	256	256	255	256	262	262	260	256	256	257	257	257	257	256	255	255	254	257	257	257	257	257	252	248	248	255	251	251	255	260	260	258	256	256	257	258	258	262	264	266	260	256	255	256	255	255	258	258	255
271	271	264	261	262	262	262	256	253	256	262	262	266	263	262	264	265	263	263	262	256	258	266	266	267	261	262	262	255	255	258	259	261	263	267	270	270	266	261	262	261	260	260	261	262	265	270	272	266	265	265	263	259	265	259	255	259	259	266	269	264	261	263	265	266	266	260	264	262	261	262	261	266	266	270	261	258	255	256	260	259	259	259	258	262	263	263	262	261	266	266	264	262	262	259	263	260	259	259	259	259	255	258	259	259	263	266	266	265	265	265	264	261	260	264	266	266	264	264	266	266	274	275	272	269	269	270	268	269	267	263	262	258	258	261	260	260	261	260	259	257	258	260	259	259	259	253	264	260	264	265	264	260	258	256	254	262	261	262	261	264	264	268	269	265	272	272	274	273	273	272	272	269	269	268	267	266	267	266	262	263	268	268	266	269	274	276	276	273	268	268	268	272	273	271	265	268	273	274	274	275	275	274	276	276	275	271	270	269	270	270	270	272	274	274	271	271	272	274	276	277	276	276	273	275	271	270	270	272	273	272	271	269	269	269	270	272	270	267	266	270	276	277	276	270	270	270	271	272	272	275	272	272	268	268	267	271	276	275	269	269	272	271	271	272	272	273	273	271	272	274	276	283	283	278	278	279	280	274	275	278	279	278	275	272	272	275	275	277	277	278	275	276	277	279	273	281	281	279	280	275	270	267	268	272	277	274	270	267	271	267	271	274	274	272	273	274	276	275	275	277	277	277	275	274	269	268	268	274	276	277	277	269	269	269	274	274	273	274	275	275	278	281	280	273	271	272	273	271	274	277	275	268	276	277	276	275	269	269	268	267	265	263	273	273	271	271	268	269	269	268	271	273	270	270	271	271	275	274	269	269	272	270	270	270	272	273	271	269	272	273	271	272	272	270	272	273	273	273	271	273	274	275	275	277	274	274	272	275	275	273	271	271	271	269	266	266	265	268	269	269	269	267	265	262	262	261	264	268	267	261	263	263	262	266	267	267	267	268	267	267	267	266	266	265	268	267	269	271	272	273	276	271	269	270	267	267	265	265	265	265	266	265	263	265	262	268	268	270	270	268	266	264	263	263	261	263	264	262	260	262	263	263	261	261	263	264	264	264	263	259	258	259	263	265	266	268	267	265	265	266	269	266	264	264	261	259	259	262	261	257	257	257	261	261	261	261	262	260	259	258	255	254	251	253	253	253	259	260	259	256	256	256	258	258	263	260	263	259	259	264	264	265	257	254	254	252	253	252	255	255	256	257	261	263	263	260	261	261	261	259	257	255	257	254	256	260	260	256	256	253	252	252	253	253	254	254	252	253	254	253	253	253	259	263	260	259	257	257	257	257	258	257	257	256	261	261	260	256	254	252	255	255	255	254	254	254	250	250	254	257	259	252	248	248	248	244	247	250	254	259	259	259	257	257	258	258	258	261	264	266	260	260	252	251	251	253	253	255	250
268	271	264	257	258	258	259	252	245	254	262	262	266	266	263	262	263	263	263	260	258	258	260	260	266	268	268	267	262	262	257	256	258	263	267	270	261	261	259	260	263	264	264	264	263	264	266	264	264	266	266	263	259	258	256	255	259	259	266	269	265	263	265	263	262	262	261	265	263	261	262	262	258	258	263	258	257	254	256	257	258	258	258	258	256	256	257	259	261	266	262	263	261	265	264	261	263	263	262	260	260	260	260	261	265	266	266	266	265	265	265	264	262	262	263	267	266	262	261	263	263	265	267	266	266	266	267	264	265	268	262	258	258	258	258	258	258	258	261	261	258	261	260	259	259	259	264	259	269	270	270	267	265	264	264	259	261	262	262	264	265	265	265	265	272	271	273	273	274	273	267	266	264	264	264	264	266	267	265	264	261	265	266	265	267	271	276	276	273	266	267	267	269	269	269	267	268	268	271	273	270	271	272	273	275	271	270	270	269	269	269	269	271	273	271	271	271	272	274	276	278	279	278	275	275	271	270	270	270	270	269	270	269	267	267	270	268	268	268	270	274	276	274	269	265	265	269	270	271	268	271	274	273	272	272	270	269	270	272	271	267	268	268	268	269	272	273	273	272	273	273	278	278	277	279	278	276	278	280	279	278	276	274	271	271	272	273	272	270	270	271	273	274	274	275	277	275	275	276	273	271	267	267	268	272	277	274	270	267	271	267	271	274	274	272	273	274	276	275	275	277	277	277	275	274	269	268	268	274	275	275	275	269	267	267	268	269	269	270	271	276	279	280	278	274	272	271	271	272	275	274	272	271	270	274	274	273	272	269	267	264	267	268	265	270	271	269	269	269	269	267	269	269	269	271	273	270	268	268	261	261	262	263	264	267	271	272	271	272	270	270	270	268	268	266	268	270	270	271	273	272	273	270	273	277	274	274	274	274	274	273	272	272	270	268	267	266	266	267	267	269	269	265	262	260	263	263	264	268	264	257	262	263	263	265	267	270	266	266	266	265	265	266	266	265	267	267	267	270	271	271	269	265	266	267	267	267	266	266	265	266	265	263	262	261	261	263	267	270	269	268	265	264	264	263	252	256	257	262	262	263	263	260	260	260	263	264	264	263	261	257	255	255	259	262	265	266	267	265	265	265	267	265	264	264	262	258	262	258	260	258	258	257	259	259	258	259	260	259	260	258	255	255	252	252	253	254	259	259	256	253	254	254	254	258	264	254	252	253	257	259	264	265	263	260	256	253	248	251	253	253	255	255	257	259	260	260	260	260	263	259	257	257	256	255	255	255	252	253	251	251	251	252	254	254	256	256	255	253	254	254	254	253	255	259	259	256	251	251	252	252	251	256	255	258	256	261	257	254	252	251	253	253	253	255	255	252	254	254	259	255	254	252	248	248	248	243	244	248	253	253	257	260	255	258	258	258	260	261	264	261	257	257	249	246	251	251	251	250	248
267	266	257	257	258	253	259	255	249	259	261	261	269	269	268	265	267	267	265	260	258	259	259	259	263	264	266	266	264	263	263	266	268	266	266	261	261	258	258	260	263	264	264	264	263	264	265	262	253	253	253	260	261	258	256	255	259	263	263	267	269	270	269	263	259	259	258	262	263	263	259	262	258	262	263	257	258	259	257	257	260	260	260	259	261	258	257	257	259	262	263	263	261	266	262	258	257	258	260	261	261	260	264	263	266	267	266	265	264	265	265	264	262	262	264	265	262	259	261	259	261	261	262	263	262	264	261	259	258	264	263	261	261	259	258	258	259	258	259	262	261	261	262	262	264	264	261	273	274	271	269	268	265	265	267	266	265	264	264	264	265	265	264	265	266	271	270	268	272	270	266	264	265	265	265	266	267	268	266	265	263	265	265	265	266	269	270	267	268	266	267	267	260	267	267	267	270	268	269	266	265	268	270	269	269	269	270	270	270	269	268	268	271	273	271	273	273	272	275	276	278	277	275	275	274	270	270	270	270	270	269	270	269	269	267	267	268	269	270	271	275	272	272	269	266	266	265	270	271	266	267	271	270	270	272	271	274	277	279	273	270	272	272	272	269	268	270	271	271	273	274	276	277	277	277	273	273	274	275	276	275	271	269	270	270	270	273	274	273	271	270	271	271	271	270	266	269	269	268	268	269	269	268	268	270	277	278	273	270	268	269	272	269	271	269	271	273	272	271	273	275	276	276	272	269	267	265	274	279	280	279	273	270	269	269	267	268	267	269	270	274	277	279	278	271	269	269	270	271	274	272	269	269	268	272	273	272	269	269	268	265	267	268	267	268	269	269	268	268	268	269	267	269	269	268	268	267	266	267	269	259	259	262	264	267	271	273	274	274	272	271	268	268	268	265	270	272	272	273	272	272	273	270	273	275	273	275	275	273	274	273	274	273	272	269	268	268	267	265	267	267	266	265	264	265	264	262	262	263	268	267	265	261	263	261	262	265	267	267	266	266	265	265	265	264	265	265	265	266	267	269	265	267	270	268	269	267	264	264	266	266	265	262	261	261	260	261	262	264	265	268	265	262	262	259	258	257	258	264	264	263	261	260	260	260	262	264	264	262	258	255	253	252	255	256	265	266	267	264	264	263	263	262	263	264	258	261	257	258	257	260	260	263	261	261	259	258	259	259	260	261	261	261	260	258	258	258	259	259	256	254	254	253	254	255	259	255	253	254	257	259	259	259	261	259	259	252	253	252	252	254	252	256	258	258	259	260	262	260	263	263	259	256	253	255	256	256	256	254	251	250	253	254	254	258	255	256	255	254	255	252	252	249	249	258	258	257	254	254	254	254	251	252	253	258	258	264	256	252	250	250	250	252	254	255	254	254	254	254	252	255	254	252	249	249	249	252	253	254	254	254	258	257	252	256	258	258	260	257	260	256	256	250	250	246	247	250	250	248	248
270	271	268	261	253	259	259	258	257	245	260	269	269	270	268	265	263	262	262	262	261	259	259	258	258	258	261	263	263	261	261	261	261	261	262	260	258	258	258	261	262	264	262	260	260	258	263	260	252	252	257	257	258	255	257	255	259	266	266	265	264	267	266	263	259	260	260	259	259	257	256	257	262	263	263	258	259	260	258	257	259	261	261	262	263	261	259	260	259	260	263	263	261	266	257	260	257	257	260	262	263	263	260	263	265	264	264	266	261	262	266	266	261	262	264	264	261	260	259	260	260	260	261	264	262	264	260	254	256	256	263	259	260	260	261	261	259	258	264	263	266	264	262	265	266	266	270	271	271	268	268	268	265	265	263	264	264	264	263	263	263	264	264	265	264	265	268	266	268	271	267	265	266	267	267	271	271	269	268	266	266	265	266	266	267	269	270	269	265	263	260	260	260	267	267	272	269	264	267	265	263	266	269	267	266	266	270	270	271	270	270	270	270	274	273	273	274	275	275	274	272	271	272	273	275	270	270	266	266	266	266	269	269	269	267	267	266	270	270	270	270	273	271	271	270	270	274	274	270	265	266	266	270	269	269	269	269	271	269	270	276	277	275	273	273	274	274	272	269	269	276	276	276	274	271	270	272	271	267	266	266	265	265	267	270	272	275	275	273	270	269	270	269	263	272	271	268	270	270	264	268	269	268	266	267	271	269	277	272	269	267	266	265	267	268	270	271	271	269	269	266	267	270	270	273	272	273	273	271	271	271	270	268	268	268	267	266	264	264	273	275	276	278	275	271	266	267	266	272	272	272	271	270	269	269	272	273	270	268	265	264	267	267	266	268	268	272	268	268	265	269	264	266	267	267	266	263	264	266	268	266	264	268	267	267	267	269	273	271	270	268	268	268	267	266	268	270	272	273	272	271	271	270	266	267	271	273	271	271	273	274	273	273	273	272	274	276	274	274	269	269	266	262	266	268	266	266	262	268	268	268	266	262	266	267	266	266	267	267	265	265	262	263	262	262	261	262	264	265	265	266	266	265	266	270	267	265	265	267	266	262	261	264	262	259	260	260	262	264	265	266	264	264	263	262	257	257	257	259	263	263	258	257	257	256	256	256	258	261	261	259	255	255	255	256	260	259	260	261	261	262	261	260	258	258	257	259	253	253	255	255	262	263	262	261	258	258	259	261	262	264	264	264	264	264	263	258	259	259	259	255	255	254	255	256	254	252	253	254	258	258	258	257	257	258	257	254	253	254	254	255	251	251	256	260	260	260	260	262	267	260	254	252	253	255	255	256	257	255	250	249	253	256	256	258	255	254	254	254	254	254	251	252	256	256	253	251	251	251	251	257	257	252	253	253	256	262	252	250	249	250	250	252	255	254	250	250	250	254	252	249	255	255	255	257	257	259	262	259	259	257	256	256	245	256	256	258	259	261	258	255	255	251	246	247	250	250	249	248	248
