404	399	391	383	380	382	382	382	380	381	388	390	396	396	400	399	393	385	379	379	374	361	360	361	362	365	365	372	377	381	386	385	385	380	374	370	367	367	367	364	364	361	359	365	370	371	374	374	366	356	356	356	365	366	369	369	372	372	367	363	365	369	370	370	373	375	375	378	379	381	380	367	367	364	358	362	357	356	353	355	359	359	364	377	372	367	369	377	378	371	371	364	364	369	371	369	367	366	360	360	359	359	367	370	368	364	362	359	359	362	363	360	360	357	365	371	371	368	373	374	370	367	369	367	365	365	371	371	370	374	364	373	365	373	372	373	371	369	374	374	374	378	372	364	361	368	378	378	371	365	376	384	384	379	379	377	375	373	374	374	377	377	378	380	386	388	395	402	407	423	430	434	435	435	429	427	434	437	440	437	437	435	434	431	423	421	419	426	425	415	412	426	424	425	425	417	417	407	401	395	415	420	421	421	421	424	425	431	435	438	430	422	424	424	423	425	417	425	427	417	416	409	407	408	409	408	408	408	411	413	414	417	419	419	416	411	405	411	421	425	428	426	423	414	415	419	427	427	427	427	419	422	413	411	412	413	413	414	414	417	423	416	418	417	417	416	409	420	422	423	409	408	416	423	417	422	424	424	422	422	422	428	436	426	422	417	418	418	415	412	410	410	407	405	403	409	415	409	416	413	421	428	422	421	415	416	424	430	437	442	441	432	431	439	427	420	419	426	432	425	416	415	415	416	420	419	413	415	412	413	416	420	421	425	424	424	419	417	418	419	423	421	424	424	420	415	411	413	418	424	424	425	432	426	426	426	421	416	415	416	419	417	410	397	389	388	410	398	403	386	385	388	391	396	398	390	394	393	395	396	396	380	384	384	391	395	397	393	396	395	396	399	402	403	401	379	380	380	381	377	383	384	380	383	383	382	390	386	380	378	379	387	388	388	385	394	395	399	398	394	396	398	397	395	391	386	382	383	383	382	386	388	390	389	389	389	388	382	383	385	389	389	389	386	383	379	378	382	386	387	385	385	381	376	373	373	383	388	388	380	359	356	361	366	369	367	363	359	362	365	364	363	356	358	363	362	369	369	373	373	368	347	339	343	342	341	339	344	348	353	356	358	364	364	354	352	354	348	352	352	347	348	343	342	344	349	351	351	350	350	348	345	350	351	353	353	353	353	352	352	350	347	343	344	344	343	348	352	349	347	343	343	342	349	348	344	345	351	350	354	357	357	357	353	347	348	348	346	342	340	341	341	342	340	332	335	346	349	352	349	349	348	344	343	345	346	351	352	352	347	344	350	350	349	345	337	337	337	335	339	343	345	342	341	341	339	338	338	339	340	351	347	347	347	348	348	344	336	341	341	347	348	348	348	348	350	350	349	349	349	351	348	348	346	347	348	349	345	340	340	337	335	340	346	344	344	347	352	358	352	345	345	342	338	335	337	333	333	332	335
366	366	361	362	371	377	379	379	377	376	381	381	390	390	393	394	392	383	372	372	364	361	359	355	358	363	363	367	371	372	377	377	374	374	371	365	361	360	360	360	360	358	356	359	367	371	374	378	365	358	356	358	364	369	370	370	372	372	370	368	363	369	372	372	375	372	370	372	375	380	370	367	367	364	361	361	357	357	356	359	360	360	362	363	362	365	365	369	369	365	359	359	358	359	367	366	367	368	370	360	359	356	358	364	365	360	358	358	360	363	367	369	369	369	367	361	363	368	370	372	371	369	369	367	363	363	367	361	359	358	364	373	357	362	368	366	364	361	362	362	370	370	371	368	368	373	372	375	376	377	377	376	373	370	372	372	375	376	378	376	377	377	373	375	379	392	401	403	407	423	401	415	410	396	396	403	406	410	409	402	398	406	418	420	420	420	424	424	416	406	410	421	422	422	418	392	383	383	382	393	401	415	426	420	420	420	422	423	421	428	426	412	406	408	409	410	417	425	427	412	411	413	405	404	410	406	403	402	402	407	409	411	413	411	414	414	410	405	409	416	420	420	420	418	417	423	427	427	423	421	417	418	417	409	411	412	411	411	412	411	408	410	411	412	411	404	413	410	409	412	407	404	405	409	407	405	401	410	410	420	422	423	429	436	426	424	420	415	412	410	410	408	408	399	393	400	401	408	402	399	415	424	415	415	413	417	417	417	423	427	430	429	421	418	416	412	403	409	410	407	408	411	414	416	419	418	414	416	415	415	417	419	419	416	415	404	396	394	394	390	396	404	412	414	414	410	407	411	414	414	414	416	422	430	430	424	416	415	416	413	404	397	391	392	391	386	389	397	382	380	382	384	375	374	379	382	396	394	391	391	386	386	383	387	390	392	396	400	407	403	399	395	395	401	383	380	388	390	390	388	386	385	380	381	381	381	383	384	380	378	380	387	389	388	385	381	382	386	384	390	392	391	385	380	378	385	388	384	381	379	381	382	382	386	385	385	391	391	387	377	375	377	379	380	380	378	375	377	376	379	371	368	367	371	370	368	376	376	376	370	365	360	361	366	366	366	364	362	364	368	363	355	360	365	366	362	362	362	362	358	351	343	343	343	343	344	341	345	347	346	344	340	340	351	355	364	353	348	352	352	347	345	343	341	346	346	346	344	348	350	348	346	346	348	352	352	347	354	355	355	355	351	349	344	344	350	351	351	350	347	347	343	350	341	342	344	347	347	351	347	352	352	350	346	340	345	347	346	347	343	343	342	342	342	335	336	345	351	352	352	349	348	344	343	347	350	351	348	348	343	344	343	346	349	346	341	341	333	332	332	341	342	340	338	338	339	341	344	344	350	356	356	348	344	343	343	347	347	340	340	343	344	345	344	343	343	347	347	344	349	351	345	345	341	338	346	349	344	344	338	334	333	339	342	350	350	350	352	349	347	347	345	342	341	340	336	336	331	330	329
366	366	359	362	364	368	363	363	366	369	375	382	383	383	382	378	380	379	370	370	363	361	359	355	354	360	360	362	363	363	367	370	373	373	370	363	357	355	358	360	360	360	359	357	363	372	378	365	366	362	373	376	377	377	371	371	370	369	366	368	365	358	359	361	361	362	361	356	356	360	367	369	369	364	359	360	358	359	359	360	363	363	362	361	360	362	362	362	362	359	355	355	355	357	360	364	367	367	369	365	356	358	358	360	361	358	359	361	364	367	370	370	368	368	366	362	364	366	369	369	364	359	358	363	364	369	369	363	349	347	349	352	357	362	364	362	358	355	358	358	360	364	360	364	351	353	372	376	377	377	374	373	372	371	369	369	371	369	374	378	380	369	371	372	373	378	389	401	402	401	401	415	395	388	388	388	391	395	397	393	400	409	413	410	410	414	419	424	425	410	401	405	418	396	386	382	370	370	373	375	394	404	422	422	420	418	408	406	408	403	407	417	407	409	412	424	429	431	409	412	411	399	401	403	413	411	409	404	404	394	404	407	407	409	411	412	403	392	402	405	411	414	417	418	424	428	428	426	423	417	418	418	418	407	407	408	407	407	404	397	401	404	401	410	410	419	422	405	411	399	398	397	399	404	410	403	399	402	402	416	422	419	416	418	419	415	418	415	413	411	410	409	409	412	410	410	403	402	401	401	403	415	414	407	410	424	424	414	405	414	417	426	420	417	403	395	390	389	398	399	401	403	408	413	416	413	416	417	417	416	420	419	414	407	405	397	396	389	388	389	396	402	404	403	398	399	401	408	403	403	403	393	392	392	404	402	397	397	395	394	389	383	374	378	381	374	371	372	377	380	379	375	370	378	381	385	395	392	396	399	395	384	383	385	389	391	392	397	397	394	390	390	389	382	379	381	382	384	389	389	386	382	377	377	381	386	394	400	401	395	380	387	389	388	387	384	383	383	386	379	376	374	371	370	374	381	383	377	377	382	381	378	377	377	377	383	391	396	392	380	376	378	383	386	383	374	372	372	373	372	373	369	365	363	361	368	378	378	376	369	365	360	357	358	361	365	368	368	367	367	362	352	350	358	362	360	360	361	363	351	347	344	344	345	344	341	341	343	344	344	344	340	340	352	347	339	338	348	352	349	348	348	344	346	344	343	343	340	341	347	346	342	342	332	335	338	346	348	348	350	353	351	351	353	348	343	345	347	347	347	347	356	350	338	339	339	343	343	347	348	348	341	339	342	341	341	343	345	343	344	344	345	343	345	343	342	340	351	352	352	350	346	343	340	347	350	349	347	347	343	343	343	347	345	343	347	347	338	335	332	332	340	335	338	338	335	336	338	340	345	345	345	348	347	348	348	348	347	347	339	340	341	341	339	339	339	344	347	344	347	344	340	340	336	335	338	351	350	350	338	335	327	324	326	326	324	328	334	342	349	347	346	344	343	342	337	337	342	335	346
361	361	359	357	361	361	361	361	365	368	370	371	372	372	369	363	361	359	361	358	358	355	350	352	354	360	356	358	356	360	363	367	369	369	363	353	352	357	359	362	362	361	359	359	364	371	376	366	366	362	379	379	379	369	365	365	365	363	363	367	368	380	373	368	368	368	370	365	359	362	363	363	359	359	359	360	362	359	360	361	363	362	362	362	360	358	359	358	354	356	355	355	355	358	359	360	362	361	365	357	353	358	358	360	356	358	362	361	365	367	370	372	371	371	365	361	356	360	368	360	347	346	347	350	351	352	352	354	354	352	349	360	359	357	364	362	355	353	354	358	358	358	359	359	348	349	364	372	378	375	373	369	364	362	366	366	366	361	362	368	365	366	366	367	370	372	380	392	403	395	392	395	395	388	378	378	389	392	393	392	396	402	408	408	406	409	405	408	410	410	398	399	398	393	378	371	370	372	372	375	385	401	405	409	412	410	409	403	402	401	408	420	420	415	412	425	429	431	408	409	407	399	401	403	413	414	415	412	410	410	407	410	406	406	410	404	391	388	397	398	404	407	412	412	412	420	425	422	416	412	416	418	407	404	405	406	406	395	391	391	401	401	401	402	412	417	413	414	412	401	400	400	401	407	411	406	397	400	416	416	418	416	411	409	407	409	401	401	406	409	411	413	409	412	408	405	404	405	405	401	401	401	401	402	409	414	419	410	399	393	391	395	406	404	400	388	389	391	395	398	398	401	398	404	404	410	410	412	416	413	408	408	405	401	397	394	391	390	392	394	394	396	397	396	395	395	398	402	403	404	405	401	382	382	381	385	390	393	393	391	375	380	378	375	374	374	374	373	377	379	375	374	385	384	386	389	394	395	397	398	396	388	385	384	387	391	391	394	394	392	390	385	384	381	381	379	381	383	382	387	387	384	381	381	381	382	392	398	401	395	387	392	397	388	382	381	387	386	379	378	379	379	377	371	368	371	373	368	368	376	381	379	378	384	384	387	395	397	391	385	379	385	389	395	387	382	374	372	375	378	373	372	371	371	371	371	378	378	376	369	366	364	361	359	362	366	368	368	367	363	357	348	358	366	360	358	358	361	362	356	348	347	347	350	345	341	340	343	343	348	354	352	352	353	349	339	338	336	335	342	345	347	357	361	357	338	338	340	338	351	356	351	346	341	337	336	338	348	348	347	351	354	352	348	339	339	340	347	347	347	349	345	342	337	335	336	338	339	343	348	348	347	348	347	339	336	333	334	336	340	340	343	347	346	338	342	340	342	344	344	343	343	339	339	340	343	345	345	340	338	339	343	344	349	350	349	349	343	337	334	335	340	335	335	334	334	334	335	339	338	344	344	341	345	347	348	345	339	339	337	338	338	338	336	336	339	344	342	341	338	338	338	332	334	334	337	341	351	351	349	338	325	322	323	323	323	328	335	342	349	349	345	341	341	345	345	345	338	335	332
359	359	357	357	361	360	362	362	365	370	373	385	392	395	395	390	380	369	357	355	355	351	347	347	353	356	358	358	357	360	362	367	365	354	354	352	353	356	362	360	358	358	355	362	369	365	363	363	363	374	379	379	358	357	360	359	359	358	363	365	371	371	358	358	358	358	358	358	356	356	357	359	358	358	357	363	362	359	361	362	363	360	360	360	361	359	354	353	349	351	353	356	356	357	359	359	354	352	361	350	346	347	347	353	356	358	355	352	355	366	367	362	356	351	351	348	348	349	360	361	355	351	352	347	350	351	351	352	353	351	352	360	364	363	360	362	355	353	361	356	356	358	354	353	351	353	356	357	361	363	364	368	372	370	370	370	370	368	367	363	364	366	370	375	378	378	393	393	394	383	385	386	385	380	378	378	383	395	396	395	395	401	402	403	405	403	404	406	408	407	393	390	394	393	383	373	369	373	373	392	395	400	405	406	407	401	397	392	386	388	398	404	416	420	419	410	404	403	406	409	406	401	403	406	413	414	412	410	406	401	401	398	399	398	400	398	391	392	395	396	399	403	408	406	404	405	412	410	400	395	394	396	398	387	395	404	405	394	390	389	390	401	401	410	411	412	413	410	404	398	400	399	401	411	409	401	396	405	411	411	412	409	408	407	404	397	394	398	403	405	410	410	409	406	406	400	405	408	411	413	413	410	402	398	396	395	389	385	382	382	389	394	393	390	385	384	389	390	394	397	398	399	404	400	399	397	394	397	397	399	403	403	396	398	393	389	391	393	394	394	394	395	395	395	392	397	398	402	402	395	392	386	385	385	385	388	389	391	389	388	382	373	368	372	374	379	382	380	381	379	375	381	388	392	391	387	391	391	396	398	394	389	384	384	390	390	390	392	393	381	381	380	379	382	379	379	380	378	378	379	382	384	384	381	381	382	392	398	399	396	388	391	396	390	377	383	388	381	381	381	383	384	378	372	369	371	365	366	371	370	373	375	375	375	374	381	382	383	382	379	379	381	382	387	383	381	372	365	363	366	370	371	372	370	372	375	371	378	376	372	375	375	374	369	366	367	367	365	363	359	355	356	367	365	357	357	355	357	357	353	348	348	348	352	350	343	339	339	344	354	352	352	349	348	349	349	346	336	336	340	344	345	344	337	338	338	335	337	340	339	343	344	350	349	343	341	338	334	334	345	352	347	348	347	342	339	340	343	345	345	344	345	336	334	332	335	337	339	344	346	346	348	350	348	339	334	331	327	328	328	332	334	338	346	338	329	329	331	331	336	338	340	336	333	334	336	336	336	336	338	342	344	343	342	341	341	343	341	338	334	335	329	330	330	331	331	334	329	329	336	338	338	341	340	344	345	343	337	337	336	334	336	336	336	336	336	340	340	337	336	332	332	330	330	333	337	341	344	344	348	338	329	326	325	325	324	328	335	343	349	349	347	343	338	339	339	336	334	329	326
356	357	357	358	360	360	362	366	366	369	372	379	386	393	393	397	392	381	363	351	351	351	345	342	344	350	355	355	357	360	362	361	353	352	352	356	358	361	363	357	350	350	348	358	360	359	360	367	367	376	375	367	358	357	353	355	355	354	356	358	361	360	358	357	355	355	355	353	350	350	353	357	354	354	353	355	365	366	361	362	361	367	367	368	368	364	345	343	343	346	350	353	353	356	357	355	346	349	351	345	345	349	352	352	354	355	355	352	349	355	356	352	349	350	350	351	354	356	360	367	356	350	350	343	346	349	350	350	348	350	354	359	360	360	357	359	363	365	361	356	356	356	359	357	357	361	365	367	366	363	365	368	369	368	365	369	365	365	367	367	360	364	358	372	379	378	379	387	385	384	383	385	385	382	380	383	383	395	398	395	391	393	396	398	400	400	401	403	403	393	381	388	396	397	401	385	381	387	391	391	403	404	406	409	406	402	394	390	384	384	396	395	403	415	413	397	392	392	397	403	406	407	410	413	411	412	412	410	406	402	402	398	391	397	413	415	401	395	393	395	399	403	406	402	401	400	404	404	399	394	394	391	383	379	382	390	405	407	403	399	391	390	391	395	399	403	406	402	395	394	392	393	395	400	403	399	393	394	398	402	402	401	396	394	395	393	394	396	402	405	404	400	406	395	397	395	399	392	393	396	401	398	396	394	384	381	385	384	383	382	384	391	389	387	382	378	377	388	390	394	397	399	406	407	404	400	395	394	395	402	405	402	395	389	394	393	395	393	395	397	396	394	394	387	379	384	389	391	392	390	393	392	392	390	391	389	389	388	386	384	385	379	371	369	372	376	380	381	391	379	379	384	383	386	384	382	380	379	380	391	392	386	384	387	387	386	389	395	383	378	377	376	377	374	375	374	374	372	372	374	379	383	384	381	381	383	383	381	380	386	386	381	378	374	377	379	379	381	382	384	385	386	377	374	379	380	372	371	371	371	372	375	375	375	369	370	372	372	372	372	371	370	367	366	364	363	361	360	366	363	358	369	369	362	372	375	375	378	375	368	369	375	376	374	368	364	361	361	359	360	359	366	371	364	352	352	353	361	355	351	349	349	347	350	349	348	345	345	348	353	341	341	349	348	354	352	345	336	336	341	342	342	342	339	336	336	334	336	338	337	340	341	342	343	338	330	334	334	349	345	343	342	345	347	342	338	338	337	339	339	341	341	340	339	332	335	336	336	343	343	350	353	346	345	343	335	328	326	325	325	324	334	338	330	328	327	327	327	327	327	334	338	337	334	332	332	334	334	334	335	340	342	344	340	339	339	337	341	338	334	334	326	324	324	322	328	330	327	328	332	332	336	338	342	340	339	340	340	338	336	334	336	336	331	331	327	328	339	339	337	332	332	330	333	332	337	340	340	345	345	339	333	332	332	325	324	328	332	336	336	333	333	336	336	331	331	331	332	325	327
358	356	356	358	358	360	363	366	366	363	367	372	381	387	387	378	374	372	365	347	347	347	345	346	351	358	363	363	362	360	362	361	349	356	356	364	364	361	354	356	353	353	344	349	353	357	366	376	376	376	366	353	357	356	353	355	358	358	358	356	355	361	364	363	356	356	348	348	346	347	349	348	347	346	346	351	353	355	355	355	361	367	363	363	362	361	351	344	343	343	345	350	353	353	355	347	340	349	350	346	348	351	350	350	352	354	354	351	349	355	355	357	356	354	351	351	351	354	357	368	361	351	345	350	350	350	349	349	349	353	355	358	358	356	353	359	361	362	362	356	356	356	353	352	353	358	364	368	364	361	362	364	365	362	360	358	358	358	357	362	359	356	368	379	378	377	378	386	385	381	380	381	383	380	381	385	385	394	398	395	391	389	390	392	391	393	393	401	400	398	381	390	390	395	401	398	392	388	387	387	388	389	387	384	385	383	387	402	398	388	386	398	406	413	411	405	400	398	399	403	404	405	407	409	408	407	410	409	406	402	398	398	394	406	414	406	403	393	390	394	401	394	392	378	378	384	387	388	389	385	373	371	368	372	379	388	402	408	395	389	381	377	375	377	376	378	383	395	390	390	386	389	394	403	401	399	388	392	394	394	394	394	391	388	391	393	393	398	401	396	396	396	395	391	391	392	394	391	393	391	392	395	399	390	384	381	381	383	384	378	378	377	380	380	377	374	374	387	386	388	398	408	409	408	403	401	398	397	396	402	402	402	396	394	391	395	396	398	400	399	398	397	383	378	380	385	387	389	389	392	392	394	394	392	390	387	383	382	381	384	384	380	375	371	370	373	376	384	390	388	380	376	377	381	382	377	377	377	376	375	382	382	380	382	380	382	385	379	389	377	374	372	370	367	370	370	371	369	368	375	379	379	383	384	383	385	382	380	378	377	379	373	370	372	374	374	379	382	383	384	388	389	385	374	380	382	373	372	370	371	374	382	382	374	365	364	363	370	370	369	370	367	370	372	364	367	371	370	368	364	361	356	369	362	362	366	366	367	368	367	368	368	366	365	365	361	360	359	358	360	359	357	350	346	346	348	352	359	353	349	346	346	346	344	340	340	342	345	348	349	353	341	341	341	351	354	336	335	337	340	338	337	337	337	337	337	334	333	333	335	335	335	336	337	333	330	333	333	338	335	330	327	345	345	343	339	338	334	334	335	336	336	336	334	329	332	335	341	342	342	341	341	339	341	343	343	341	334	327	327	324	324	325	327	328	329	330	328	328	327	334	338	340	333	332	329	329	335	335	332	331	340	344	345	340	339	337	337	331	331	331	328	328	327	326	322	323	321	325	332	332	337	340	336	335	340	342	342	338	336	334	336	333	327	327	325	327	341	341	338	335	335	333	334	335	334	340	340	342	340	339	332	332	332	330	324	323	326	325	325	328	337	333	329	328	328	328	325	324	323
357	357	357	356	355	359	360	362	362	363	367	356	360	356	356	341	338	345	338	351	340	340	344	346	352	360	366	372	372	362	359	350	349	356	346	343	340	342	341	347	346	348	348	350	355	363	388	382	372	372	361	360	357	356	354	355	358	358	362	356	354	354	355	356	352	352	349	350	349	346	345	343	342	342	342	347	349	349	352	349	351	358	363	348	352	354	349	351	348	344	345	350	353	353	346	342	343	345	347	346	352	353	351	351	348	349	350	350	349	350	355	357	356	353	349	349	348	350	355	355	354	355	354	354	351	351	354	357	357	366	368	360	359	355	350	357	361	360	357	352	359	353	353	352	352	355	361	359	356	356	356	358	357	355	352	349	347	356	356	360	360	360	366	373	373	373	377	383	383	379	377	379	380	382	380	381	391	391	395	392	391	389	390	385	383	388	394	402	402	398	391	384	396	398	400	402	399	396	393	392	392	391	389	385	378	375	378	384	383	387	391	395	406	409	413	407	403	399	399	402	402	401	402	404	402	403	406	410	405	402	397	397	394	406	414	412	398	388	387	380	386	385	374	376	381	384	384	381	377	378	374	379	381	376	378	387	396	391	382	376	376	374	379	382	383	383	384	379	373	373	380	385	388	390	400	395	393	389	386	386	386	384	385	386	393	395	395	398	397	391	390	393	396	389	390	392	392	391	391	391	390	395	398	392	385	380	381	383	385	378	378	380	381	387	388	388	386	388	389	391	389	397	402	405	402	398	398	397	396	398	397	395	391	386	386	389	398	399	400	401	395	385	378	376	380	383	384	386	386	388	389	389	391	391	389	387	378	373	375	380	381	382	375	372	375	374	377	380	385	387	385	382	375	373	373	374	375	375	373	371	372	376	378	379	376	372	375	373	370	369	372	372	372	373	374	374	371	369	368	375	375	379	381	384	383	384	383	380	378	378	370	377	368	370	375	378	385	393	394	396	396	394	389	367	374	375	374	361	363	364	370	369	369	376	363	359	359	359	364	366	364	366	369	370	367	368	370	374	371	365	361	356	368	377	364	364	368	367	366	360	363	370	378	378	373	368	361	362	363	362	360	354	349	342	342	343	344	348	349	344	343	344	346	343	339	338	340	345	348	349	349	336	338	337	336	333	334	339	340	338	336	332	332	336	336	335	334	333	334	335	335	334	336	334	330	332	332	333	337	336	330	327	334	340	343	338	337	336	336	332	333	331	331	333	329	334	334	337	337	340	340	336	337	340	343	342	337	337	334	327	324	326	327	329	333	335	331	331	334	334	334	340	332	329	326	325	325	327	336	335	331	330	340	345	345	340	333	330	333	330	334	331	331	328	326	323	321	321	323	327	327	336	337	333	337	333	332	342	338	332	329	327	325	324	324	332	338	338	339	338	338	336	334	334	334	332	329	329	328	324	339	332	329	329	327	323	325	324	323	323	321	327	331	330	328	328	324	321	320	320
356	354	350	350	349	351	354	353	352	352	357	356	360	355	342	342	336	342	335	346	343	343	348	350	353	356	358	359	359	356	357	351	346	346	343	343	337	335	354	362	363	358	358	358	367	383	378	367	357	357	348	349	350	348	351	359	363	363	362	356	344	342	353	355	352	349	349	352	352	348	340	335	340	342	342	340	337	338	341	346	347	350	348	348	352	351	350	345	338	340	343	345	346	346	346	344	342	344	345	348	353	354	347	346	346	345	345	347	352	352	354	356	356	353	347	347	346	347	351	351	351	350	351	355	351	352	353	357	357	365	369	362	355	354	354	356	361	361	356	358	353	352	352	351	352	355	356	353	352	352	351	352	355	356	353	346	348	353	353	359	363	365	363	361	362	366	372	379	377	374	373	370	371	378	383	379	385	385	387	390	387	393	390	385	381	385	392	397	394	393	397	399	403	405	404	402	399	399	397	391	391	384	381	375	372	379	380	383	383	387	390	392	394	403	405	401	389	388	392	398	399	397	397	400	400	399	404	405	405	403	402	403	403	408	412	412	398	388	377	387	381	376	373	373	376	374	374	375	378	382	385	386	388	381	383	387	378	372	372	370	370	371	372	372	374	376	376	377	378	382	384	384	389	390	386	389	389	388	384	383	380	380	383	388	395	393	392	390	391	385	384	387	385	388	390	391	388	390	394	393	391	388	384	383	381	378	380	380	377	377	377	379	383	389	390	390	391	391	391	389	392	391	391	397	392	391	390	397	393	388	394	390	390	389	381	382	388	381	379	378	378	375	372	374	380	384	384	382	378	374	376	376	375	374	372	373	373	368	368	369	373	374	377	375	377	378	379	380	383	384	384	380	373	372	369	372	372	371	367	366	369	371	377	381	379	381	379	377	377	381	385	386	379	375	374	374	371	370	370	373	373	378	381	379	374	375	384	380	377	376	376	368	363	373	373	378	384	390	390	388	386	384	383	380	367	362	366	366	364	364	363	363	374	364	358	358	358	359	357	358	357	357	363	369	367	359	357	355	371	365	360	356	357	368	374	374	371	368	365	361	361	369	375	378	374	368	361	361	362	363	361	357	351	351	339	334	336	341	344	343	342	337	340	343	343	339	340	345	348	348	347	343	330	329	325	331	335	342	348	349	344	335	332	332	331	331	329	331	335	339	344	341	342	339	331	337	337	338	337	336	328	326	330	332	333	337	333	333	333	331	329	325	325	331	335	334	334	335	335	336	338	338	335	333	334	335	337	337	337	336	331	328	328	326	333	334	334	334	335	335	334	331	332	330	326	324	324	326	329	335	332	328	340	344	344	345	337	324	320	332	330	330	330	330	328	325	323	324	324	324	333	333	335	332	325	333	333	332	324	322	321	328	328	328	324	319	330	337	336	336	336	334	331	329	327	322	322	319	328	324	323	323	324	324	323	325	322	318	320	320	321	324	323	327	327	324	324	321	320	320
355	356	353	353	350	347	349	346	341	341	345	350	356	355	342	351	350	347	350	346	349	349	351	350	342	331	334	342	342	349	355	354	353	350	341	341	337	335	363	364	372	378	378	384	387	372	367	360	356	352	352	350	348	347	354	359	363	359	359	355	344	340	350	355	355	349	349	350	355	360	357	352	345	343	337	337	335	332	330	327	326	332	339	346	346	351	350	345	340	339	345	345	345	342	342	339	340	344	345	349	343	348	340	335	335	331	337	348	352	353	353	353	355	355	347	346	346	345	343	346	348	348	347	341	345	347	349	352	352	356	359	362	358	356	354	352	358	357	357	349	344	349	352	352	353	357	356	354	357	361	364	362	361	359	347	345	348	352	356	356	366	365	364	355	356	360	371	379	375	374	373	369	374	376	382	378	382	388	388	391	382	383	383	375	381	385	388	389	388	394	397	397	390	392	389	393	395	397	395	389	382	382	381	376	372	382	387	389	390	394	396	396	389	385	383	396	395	393	386	388	389	390	389	391	390	391	395	401	402	403	401	399	399	402	409	396	391	385	377	387	381	371	369	372	372	373	372	372	379	381	380	374	374	377	381	378	372	369	370	371	371	369	369	365	365	368	372	377	380	379	376	376	379	386	392	389	389	387	384	386	386	386	388	394	394	390	379	377	376	376	379	381	382	380	381	383	385	390	393	391	391	386	380	379	376	377	378	378	375	375	373	372	376	382	386	390	396	391	391	389	391	392	386	377	380	385	384	390	393	383	384	384	385	377	368	374	374	374	368	365	370	369	370	371	374	377	376	373	368	372	370	370	366	363	361	363	367	368	372	375	379	378	378	378	378	377	379	381	383	386	387	383	377	371	373	372	369	372	367	363	365	375	382	392	392	389	383	385	391	391	385	386	379	375	373	373	375	370	371	371	377	379	379	374	379	390	391	389	378	372	367	366	362	366	374	377	384	389	390	387	383	383	383	380	367	362	366	366	363	365	360	360	356	356	358	360	359	348	347	348	350	351	356	361	363	359	357	355	351	357	359	360	363	362	362	366	369	366	363	360	359	371	374	376	369	361	358	357	360	361	360	354	349	349	331	334	336	336	337	337	331	330	331	332	343	339	343	343	346	346	342	335	330	328	334	332	332	333	339	341	340	337	337	337	336	336	336	336	339	340	344	344	333	325	325	333	337	338	337	331	327	329	331	329	331	331	332	332	331	327	323	324	327	331	330	331	326	326	326	327	326	331	335	335	334	335	339	338	338	335	332	329	325	325	333	333	332	332	336	330	327	329	329	327	326	326	326	328	328	329	332	328	332	336	336	337	339	334	320	315	314	315	315	318	323	325	338	339	337	337	333	332	334	324	325	320	320	321	319	319	316	316	327	327	324	320	316	317	320	323	323	329	328	329	325	322	322	319	321	320	328	325	325	320	317	313	310	317	317	319	321	323	322	323	323	325	324	321	320	321
357	362	364	364	354	345	348	348	342	342	339	349	354	353	351	351	350	347	346	351	348	350	350	349	341	336	337	343	343	357	362	355	344	339	343	343	344	353	363	361	360	363	362	362	358	354	349	348	350	352	352	352	350	348	346	354	356	359	359	357	344	340	350	356	344	340	340	343	344	350	357	358	353	346	341	341	337	329	336	345	352	355	360	361	361	349	349	345	340	335	339	345	344	340	340	336	341	344	344	341	347	346	339	334	333	333	336	339	344	349	352	350	351	348	346	346	346	348	343	339	345	343	342	342	344	343	345	347	350	350	357	357	353	349	346	345	349	356	354	342	341	340	348	348	354	357	356	354	357	358	364	366	353	349	350	348	349	350	355	355	366	364	364	355	350	358	364	373	372	372	371	372	373	375	375	378	387	391	391	389	382	377	374	374	371	379	388	389	384	393	395	392	389	388	389	387	390	386	382	384	385	385	384	382	377	373	384	389	386	387	387	389	389	378	380	389	390	389	392	383	384	383	381	377	371	369	372	379	382	395	396	393	389	389	391	388	382	385	386	373	373	371	369	372	372	373	372	373	377	378	372	374	367	369	372	376	372	371	371	372	371	369	365	363	364	366	370	373	376	376	374	374	378	379	382	386	384	382	383	381	381	373	373	375	376	374	372	372	372	372	376	381	382	382	380	374	377	379	387	388	383	383	383	375	375	368	369	379	375	375	372	372	373	370	379	389	394	394	382	381	382	384	376	372	373	388	389	383	381	383	378	370	363	363	370	372	371	372	368	366	367	367	367	362	367	373	374	372	368	370	370	369	370	362	361	363	368	371	374	377	381	378	376	377	378	378	379	381	384	385	389	373	373	375	380	370	369	362	363	368	371	375	381	388	390	386	381	385	391	391	389	385	378	376	372	372	374	380	382	382	374	372	374	375	380	387	389	386	376	370	367	366	362	367	367	377	385	386	386	386	382	379	370	366	372	367	366	365	363	353	353	346	348	358	360	359	353	354	354	351	346	351	351	361	363	359	358	354	353	357	363	364	365	364	364	365	364	362	361	361	356	358	357	359	356	357	357	360	363	358	352	345	345	341	339	334	335	337	337	335	331	328	331	332	336	338	340	349	347	347	334	332	336	336	336	334	333	334	330	336	338	340	332	332	331	334	338	339	340	336	335	333	330	325	325	325	333	335	340	337	328	326	326	329	330	331	331	331	328	325	324	324	327	330	330	330	331	331	331	331	326	328	335	335	327	326	330	330	338	330	329	327	325	329	327	336	336	329	324	317	313	314	319	319	321	321	320	321	328	329	329	327	328	328	331	330	332	332	329	321	319	319	315	324	323	340	333	332	335	335	337	333	334	324	316	314	314	319	323	318	316	315	318	318	314	313	310	314	315	315	317	316	320	318	325	322	322	320	320	320	328	325	325	321	318	317	310	319	319	320	323	328	330	321	321	325	324	324	322	322
354	365	369	369	358	347	340	339	344	344	345	349	354	352	349	348	348	347	346	347	348	352	352	350	345	336	335	343	359	359	358	344	333	328	328	337	337	348	357	361	360	346	350	350	347	346	347	348	351	353	353	354	352	352	349	345	350	357	357	358	359	358	356	356	344	339	336	336	338	346	352	352	348	341	338	338	335	331	331	336	344	344	344	346	348	348	350	349	343	335	339	347	344	337	337	334	335	340	349	347	341	346	343	334	337	337	339	340	342	345	347	353	354	351	348	349	348	348	343	340	336	334	332	339	344	346	340	341	345	345	351	355	350	350	349	348	350	356	340	338	339	338	341	341	347	344	341	345	351	358	364	355	357	357	354	351	348	348	358	363	363	362	360	355	351	359	365	368	372	367	366	370	372	372	373	371	385	390	389	389	382	376	373	371	368	368	380	382	384	393	395	375	370	374	381	382	390	387	383	379	377	376	376	373	371	375	380	387	385	382	380	381	381	379	382	385	387	387	381	373	374	375	384	383	380	381	374	369	366	372	380	382	391	391	387	383	382	378	383	373	368	368	367	365	373	373	372	373	376	376	368	369	368	370	372	376	375	369	369	369	372	370	365	363	364	364	368	373	372	372	369	371	377	380	368	372	377	382	378	376	368	370	370	372	375	376	373	372	371	375	377	378	381	383	384	379	377	372	368	368	370	378	372	374	366	373	374	370	375	373	372	373	368	369	370	372	390	388	384	384	378	375	373	371	372	381	387	377	376	374	371	365	361	362	373	378	371	371	368	368	364	366	367	367	361	366	368	368	366	368	368	370	368	363	367	367	372	380	372	370	372	374	369	363	367	379	383	383	381	389	372	378	375	372	369	370	368	362	368	370	374	382	384	385	390	386	381	380	387	389	388	388	385	373	371	369	369	373	373	376	375	373	376	376	379	385	388	381	360	354	350	354	360	361	356	361	370	377	375	371	365	359	357	349	349	354	357	362	358	351	351	346	357	359	362	357	357	355	355	352	350	351	351	356	358	357	357	356	356	358	368	362	361	361	362	364	364	362	361	360	357	354	351	351	355	363	363	358	354	347	347	344	344	339	332	332	338	342	343	344	331	328	326	331	331	334	335	339	339	336	331	320	320	328	330	334	335	336	337	338	337	337	337	330	329	329	334	335	335	335	335	335	330	325	327	327	332	334	330	328	329	327	328	331	334	337	337	334	326	325	328	333	333	332	329	329	330	330	329	327	326	328	329	332	333	324	325	325	325	320	318	319	320	320	319	322	322	319	318	315	318	318	314	317	317	317	320	321	327	327	327	326	328	328	329	330	327	324	324	327	328	328	329	321	322	326	328	328	328	330	337	333	326	324	315	316	316	317	323	327	325	323	323	320	319	322	327	328	326	326	318	316	320	318	323	324	324	320	318	318	318	322	322	321	321	321	320	320	320	323	325	328	325	321	321	321	327	325	325	325
355	363	366	361	361	349	342	339	342	348	348	350	353	351	353	350	350	348	345	347	348	344	344	347	347	342	337	343	353	353	351	342	336	333	338	342	342	345	350	348	350	346	350	345	344	343	346	349	355	356	357	357	354	353	345	343	348	353	359	359	360	352	345	338	333	339	336	335	335	343	345	339	341	340	341	341	341	339	337	334	340	342	341	342	346	346	348	346	342	337	343	347	344	335	329	329	331	339	342	341	347	347	345	345	344	344	337	337	338	341	344	351	356	353	351	350	343	343	341	340	336	333	333	333	338	347	346	344	342	347	347	347	349	352	354	357	354	350	344	344	342	342	339	337	337	335	335	338	347	348	350	355	357	354	350	345	343	345	346	349	349	354	358	353	353	359	362	367	364	361	358	364	367	369	368	366	371	380	390	390	386	381	376	375	368	370	370	371	375	378	381	375	370	360	363	379	389	388	384	382	380	377	374	374	372	372	376	379	378	377	375	377	379	378	378	381	385	385	378	372	369	368	379	380	385	382	380	379	369	367	372	381	387	385	385	383	381	385	380	381	373	368	367	364	368	376	375	376	376	376	368	369	369	371	374	375	374	372	368	370	368	368	368	366	367	371	367	369	373	369	365	362	361	362	366	367	368	373	369	360	366	370	370	372	376	375	373	371	371	371	376	374	376	374	371	369	364	366	372	373	376	373	372	368	372	372	374	372	375	373	372	371	368	368	364	366	372	387	383	388	379	375	371	370	371	375	371	368	365	368	363	360	360	361	362	367	368	369	368	367	364	366	365	359	366	367	367	366	365	365	366	365	356	360	369	375	379	377	369	373	381	383	382	377	375	378	381	378	377	378	377	378	379	375	367	365	364	370	364	372	374	382	384	385	388	385	374	373	377	383	386	382	377	372	368	363	365	368	368	377	379	379	367	364	366	369	373	360	352	352	353	359	364	349	345	348	349	353	359	359	349	349	350	353	345	347	354	365	361	361	351	351	354	362	362	358	358	356	355	352	350	350	357	356	357	356	354	353	356	357	367	358	358	359	360	361	362	363	363	362	359	355	350	352	356	356	356	350	349	347	347	347	342	327	329	334	338	339	343	344	340	334	329	328	328	328	331	335	335	333	331	326	316	315	318	328	332	335	338	336	336	335	335	328	327	330	334	333	342	343	335	335	333	329	329	323	330	332	329	328	327	323	324	326	330	331	331	328	325	327	327	333	333	332	328	327	327	327	327	327	324	325	330	329	327	325	325	326	326	324	324	323	320	318	319	318	318	317	319	320	318	318	316	314	317	317	315	321	323	326	324	325	325	325	329	329	327	326	324	321	322	322	321	321	322	320	320	324	328	330	332	331	326	322	318	318	316	322	324	330	328	325	325	323	319	320	325	328	328	328	318	316	317	316	319	319	317	317	317	317	320	320	320	319	319	318	317	317	319	319	320	320	325	325	321	320	322	326	327	327
355	355	353	347	347	343	343	350	355	358	358	356	351	355	354	351	351	346	345	347	343	344	347	335	342	344	347	345	351	351	349	344	338	339	348	351	351	349	344	342	343	345	345	344	344	348	346	351	357	356	355	355	347	343	339	340	348	349	356	356	350	345	335	329	338	335	335	335	335	346	342	339	346	345	344	344	344	342	339	334	338	344	342	339	341	341	343	342	339	339	345	347	342	335	329	334	335	338	339	339	349	347	348	348	344	339	339	332	333	338	347	351	354	352	346	346	346	346	345	340	335	333	333	334	340	345	346	344	344	345	345	345	345	345	349	349	343	354	353	349	345	342	337	335	335	332	332	340	343	342	341	348	353	354	350	340	349	351	349	347	347	347	351	353	355	352	348	356	357	356	355	360	362	365	365	365	367	369	374	382	382	382	379	378	379	372	366	368	371	372	376	362	359	360	363	367	380	378	374	372	371	372	372	372	374	371	373	375	377	371	371	376	377	377	376	380	382	379	374	374	373	367	367	371	379	378	376	376	376	368	364	376	379	382	385	385	386	384	383	375	374	365	359	362	363	366	366	366	367	368	367	368	369	371	374	375	374	370	363	364	367	369	371	370	370	365	364	368	365	368	364	364	363	364	366	364	365	367	350	353	357	365	374	374	377	375	372	370	369	369	368	363	363	359	358	354	359	362	363	367	373	378	376	373	371	371	374	375	375	375	370	369	371	366	365	361	362	371	384	379	373	368	365	370	370	371	356	353	356	353	356	360	358	359	363	362	361	373	374	371	366	363	365	374	366	365	366	364	360	360	356	361	365	369	372	378	367	366	378	376	374	379	382	385	384	380	380	385	389	393	377	381	374	365	358	356	364	370	364	372	378	381	384	385	388	389	388	389	384	380	381	379	376	374	368	362	360	360	365	372	367	366	360	346	349	352	361	353	350	344	343	348	345	344	339	339	342	344	358	355	344	347	348	351	344	345	346	347	347	345	342	343	344	358	357	363	358	356	355	349	346	346	354	351	349	350	354	353	353	352	354	351	351	355	357	359	361	362	363	363	361	356	352	349	352	353	349	347	349	349	349	349	334	330	333	331	338	339	341	342	340	335	330	326	329	327	327	327	332	331	328	317	323	318	320	324	330	334	335	334	335	335	334	332	326	329	330	335	318	343	340	337	334	329	329	327	323	324	328	323	318	315	317	323	327	326	326	328	324	326	325	321	322	325	327	324	324	327	327	326	322	320	325	324	324	322	322	316	318	322	323	322	319	318	316	316	315	314	317	319	320	319	316	314	314	314	315	322	326	327	324	324	324	325	326	331	327	326	325	320	320	321	321	320	320	319	320	324	324	322	322	328	324	320	313	313	315	315	330	331	330	325	325	320	316	315	315	319	328	328	322	318	313	316	318	318	319	318	317	317	317	317	321	321	318	317	315	315	315	316	320	320	320	320	319	321	331	324	322	322
349	355	353	321	321	331	334	334	335	339	339	346	351	344	344	348	352	352	348	343	336	336	335	335	342	338	338	341	348	348	348	344	341	347	350	348	349	349	344	343	346	353	356	354	354	348	346	349	354	356	351	351	344	339	335	339	344	349	347	347	338	334	336	342	339	332	333	344	344	346	342	332	338	346	346	342	342	335	326	325	334	342	343	342	342	343	343	340	335	339	345	348	345	336	334	335	335	334	338	341	345	351	350	350	344	331	331	330	330	338	347	346	346	345	344	347	348	346	346	343	337	332	332	334	340	342	342	342	341	339	341	341	340	343	347	343	344	347	359	355	349	344	337	336	336	336	342	342	341	341	338	338	338	340	342	340	349	348	346	346	344	344	344	343	344	344	351	354	356	356	354	354	355	359	358	361	364	365	363	368	368	367	360	368	372	363	369	372	371	372	372	370	366	355	356	367	380	378	377	375	370	368	371	372	372	374	373	377	378	378	377	377	376	376	377	378	379	376	367	366	365	365	362	363	368	369	372	368	369	370	362	365	371	372	379	379	378	376	373	357	349	347	347	350	362	358	355	352	351	357	361	370	373	374	370	370	374	370	363	364	367	368	367	366	367	363	359	363	365	368	365	367	368	369	369	366	363	354	361	361	360	359	369	369	371	372	371	367	363	361	354	359	364	362	357	358	360	362	363	365	371	374	372	371	370	371	372	369	374	372	372	371	368	366	363	360	358	362	366	372	373	368	367	365	367	373	370	361	355	355	357	355	353	346	353	354	368	361	368	372	364	365	366	373	371	368	368	372	372	372	366	366	367	369	372	377	367	363	374	376	373	376	380	384	384	377	379	383	388	392	385	378	374	365	358	356	357	359	371	379	383	387	387	382	377	388	391	391	387	382	381	379	375	372	361	354	354	354	360	360	371	366	364	348	345	348	352	352	348	346	341	339	338	338	342	340	342	343	343	347	339	342	344	345	342	343	348	347	347	333	330	338	342	350	357	363	359	361	351	352	356	351	354	353	350	350	351	356	353	351	350	350	350	344	356	357	360	359	361	361	361	355	350	349	348	346	343	342	343	344	339	339	335	329	333	331	333	333	337	337	337	332	328	326	327	326	326	326	330	330	329	326	319	317	316	325	327	330	333	334	338	338	333	325	330	331	326	335	318	336	311	335	328	330	330	332	328	327	324	321	317	315	315	316	323	323	327	326	325	322	319	319	321	323	326	324	324	322	322	322	319	317	317	319	316	318	318	316	316	317	321	318	318	317	316	316	316	319	319	317	319	319	316	315	315	315	317	327	331	332	323	323	323	324	325	326	333	330	326	319	319	320	321	326	320	319	323	323	326	325	324	321	315	311	315	315	314	316	324	330	324	322	322	314	317	319	319	319	319	325	319	318	316	316	321	321	321	321	317	315	319	319	321	320	319	315	311	311	315	316	314	318	320	320	321	328	325	319	319	319
342	338	336	321	331	323	316	316	318	323	338	338	339	335	335	343	347	347	345	335	327	325	325	325	333	338	328	332	338	338	338	338	343	344	342	337	342	342	346	346	358	352	349	345	345	343	347	349	354	353	351	343	343	337	332	330	333	325	326	330	330	338	344	343	335	334	332	335	335	333	330	332	337	341	341	333	328	328	325	322	331	341	344	344	343	343	343	339	336	338	346	351	344	338	336	335	335	334	331	330	338	346	349	343	333	334	332	332	333	336	341	341	344	341	342	343	346	345	345	340	333	327	324	324	335	342	342	341	339	338	335	335	339	341	344	344	341	348	351	347	342	337	332	332	334	334	342	341	332	325	325	326	328	341	348	352	353	348	346	351	354	354	352	346	343	345	347	352	353	355	356	352	351	348	355	358	358	352	344	358	362	362	366	366	366	365	368	370	370	367	370	362	353	353	350	356	375	378	377	375	367	366	367	371	371	376	379	378	373	382	380	374	372	368	374	377	379	368	359	360	360	358	357	353	357	358	358	358	359	370	372	372	370	360	360	362	362	360	360	343	342	346	352	352	354	351	349	351	362	364	368	368	368	366	365	366	368	369	369	367	367	368	367	366	359	364	359	359	359	357	357	363	372	370	369	365	353	354	360	363	359	358	360	360	363	369	368	363	361	361	360	361	364	359	358	359	362	361	361	364	368	370	369	368	369	371	366	365	365	372	372	373	372	370	359	366	366	366	362	363	366	362	360	361	354	354	360	358	352	352	354	355	353	345	345	350	356	365	374	371	369	369	370	373	371	372	371	371	371	372	367	368	367	369	371	367	371	364	361	364	363	365	367	368	373	373	369	383	388	392	385	378	365	350	354	355	356	352	358	361	368	368	365	364	362	376	390	390	387	377	372	372	367	364	364	366	366	361	356	358	360	361	349	348	347	345	338	347	353	352	341	335	337	337	336	341	342	340	341	340	338	338	336	344	344	345	347	347	351	347	335	337	342	350	355	357	361	362	356	357	350	351	350	350	350	354	357	356	353	351	349	349	348	346	342	341	341	346	351	354	351	345	344	345	346	340	333	334	338	339	339	339	335	329	328	328	331	331	331	334	332	330	331	327	326	321	321	324	327	328	326	328	321	322	318	317	324	324	323	326	326	330	331	335	332	331	326	317	319	323	335	331	323	323	322	328	331	330	321	320	317	316	315	312	315	315	322	325	325	321	319	316	320	323	326	326	321	320	318	319	318	317	318	317	317	317	314	314	317	313	312	313	318	316	314	314	310	314	315	317	319	318	321	321	314	315	328	328	327	322	322	323	323	325	328	327	329	325	319	316	316	320	321	326	324	324	323	323	323	327	327	326	318	315	315	315	315	317	316	316	319	319	314	306	314	319	319	318	318	318	316	319	322	322	322	321	318	318	316	315	319	319	321	317	316	313	311	311	309	311	314	310	310	315	322	324	315	315	315	314
342	338	334	329	323	323	316	320	321	327	332	332	333	329	330	338	341	341	337	330	320	320	322	326	326	328	328	332	323	329	329	335	346	342	332	333	336	336	340	356	352	342	334	332	332	331	331	341	352	353	351	341	341	337	337	335	330	323	327	334	334	339	341	340	336	332	335	332	332	330	329	329	337	341	337	336	321	321	320	322	341	346	346	344	344	344	344	342	341	344	334	335	337	335	333	332	332	331	331	330	331	333	332	328	330	329	329	329	331	334	335	340	334	338	332	343	344	341	336	336	329	323	321	322	326	336	341	341	339	335	329	329	333	337	338	336	330	341	344	340	333	330	331	331	334	344	344	345	337	332	330	331	333	343	348	350	345	337	340	351	354	342	342	349	345	344	346	349	351	354	355	349	348	348	354	350	344	345	353	356	362	362	363	368	366	365	362	358	365	366	370	366	364	350	357	360	360	378	377	371	367	366	365	365	368	368	367	363	360	378	380	379	366	367	368	366	367	358	347	348	349	352	352	352	355	358	360	359	356	363	366	369	370	366	364	358	358	362	356	346	350	350	349	346	341	340	342	358	364	368	369	368	364	363	361	362	364	366	368	368	367	362	363	361	359	364	359	359	359	357	353	355	360	368	368	351	348	355	359	360	356	356	359	368	368	371	370	366	364	363	362	365	364	361	361	364	364	359	358	358	360	363	363	367	366	364	362	360	360	361	376	375	373	363	365	359	358	357	357	360	360	352	348	347	357	365	361	355	354	355	356	356	355	350	342	345	356	360	362	369	371	371	370	375	372	371	368	365	365	365	366	366	367	369	368	364	361	353	353	355	357	347	350	368	373	373	369	371	372	372	369	364	354	344	345	351	351	352	347	348	354	357	361	355	355	360	368	371	360	358	366	363	355	363	366	366	370	369	357	348	351	353	342	338	339	338	337	342	347	343	339	336	334	335	336	339	340	336	339	337	341	335	330	337	343	341	343	343	343	347	335	337	343	353	357	357	352	345	347	350	351	351	350	344	349	353	355	356	352	350	350	346	345	345	342	341	337	336	335	336	336	329	330	338	337	334	331	329	333	335	339	339	334	327	327	326	322	327	329	325	326	326	327	327	326	324	324	325	325	325	323	328	326	322	318	319	319	319	319	322	322	321	324	335	332	328	321	314	316	314	308	319	321	321	320	320	317	317	322	320	317	316	315	314	314	315	319	321	320	311	309	316	320	316	315	315	315	316	314	316	318	319	320	321	321	321	319	318	317	312	312	312	314	318	318	314	309	314	315	322	327	325	318	318	305	312	324	325	326	320	320	320	322	323	326	325	324	322	318	318	315	320	325	327	334	330	321	321	322	326	327	326	322	312	312	316	311	315	316	312	309	309	310	306	314	317	320	320	320	319	320	321	312	305	305	307	311	315	320	317	317	317	318	316	316	313	313	311	313	310	308	310	310	315	319	322	315	310	310	310
341	339	336	331	324	324	318	320	321	323	327	327	330	326	329	335	337	337	333	325	323	326	328	316	316	316	317	323	323	329	328	328	342	341	330	330	331	339	339	341	335	337	336	334	333	333	331	330	338	349	346	341	337	335	337	337	328	326	332	335	335	337	339	340	338	336	332	329	328	328	325	329	329	336	337	336	328	328	329	330	330	332	333	339	343	344	331	331	329	329	330	333	333	331	330	328	328	328	329	333	331	333	328	328	326	328	329	329	331	333	336	332	328	329	328	332	339	334	329	329	322	320	320	322	328	334	336	340	339	335	317	319	319	319	319	322	324	337	341	343	336	334	331	329	330	338	338	342	342	342	341	344	347	347	347	347	345	347	342	342	346	342	342	342	348	345	344	344	339	342	344	349	345	344	345	340	341	351	353	354	361	364	364	365	369	371	362	360	363	369	368	364	362	359	359	360	360	365	356	347	348	350	365	365	368	357	356	355	356	365	369	371	368	363	352	351	351	348	344	343	343	344	346	349	353	358	361	361	361	359	363	363	365	366	366	358	357	357	361	359	353	351	350	352	346	347	348	350	352	348	354	364	364	358	356	354	356	359	363	364	365	354	348	351	362	357	358	357	361	357	353	355	360	368	353	352	348	355	355	358	354	356	360	367	367	369	368	365	362	361	358	357	364	364	364	358	355	358	355	357	361	366	366	367	366	362	360	352	352	355	360	363	364	365	358	355	357	356	361	365	362	353	348	346	356	365	363	355	355	356	356	356	353	347	355	345	354	359	358	359	364	370	370	368	365	362	364	362	362	353	345	346	353	357	361	362	353	353	353	355	357	347	350	355	365	370	368	369	365	354	353	354	353	348	342	344	351	351	350	355	350	353	354	344	342	348	361	360	351	351	359	362	354	356	354	354	352	352	351	342	346	347	336	331	332	341	341	341	336	334	338	337	336	337	343	342	335	334	335	334	329	324	330	341	337	341	341	343	343	343	344	346	350	347	341	342	345	346	348	351	351	349	344	344	349	351	355	350	348	345	345	344	342	340	340	341	341	340	338	335	332	330	329	331	337	333	330	332	333	333	335	332	331	328	321	320	319	322	325	322	319	321	325	327	326	326	326	327	322	323	327	328	326	323	322	320	318	318	318	325	325	321	324	329	329	325	319	315	312	310	314	315	315	318	319	317	317	318	319	319	319	317	315	315	315	316	320	321	318	311	309	312	314	312	312	312	316	321	320	315	318	320	323	323	323	323	321	321	313	317	318	315	315	312	312	314	309	312	314	313	323	323	322	322	311	309	316	317	319	316	316	316	317	315	314	310	311	312	313	318	315	319	325	325	332	327	327	320	321	324	327	328	324	312	312	311	314	318	318	312	311	309	310	309	314	317	320	320	320	319	317	311	310	310	310	313	318	324	325	321	321	312	318	316	312	310	310	312	311	308	306	315	315	318	320	318	315	303	303	300
337	341	335	326	326	326	323	320	323	323	327	318	322	328	333	334	331	328	328	322	322	323	325	326	326	322	316	316	320	322	328	328	338	334	330	327	330	331	331	332	333	335	338	338	331	331	328	328	329	338	341	337	335	335	335	331	325	326	332	338	338	338	337	333	333	331	331	331	325	325	319	320	326	331	335	331	328	329	327	329	328	327	330	335	339	343	338	338	330	329	327	328	327	327	327	328	332	332	332	333	332	331	328	328	328	329	331	331	331	335	335	328	329	328	329	332	334	329	324	324	323	323	324	327	332	333	334	334	330	318	317	319	321	323	324	323	325	332	344	346	343	339	336	330	330	335	343	343	343	344	342	341	340	342	342	343	342	344	342	335	335	344	342	342	348	345	350	346	335	337	339	342	349	342	338	336	339	348	352	355	358	363	363	363	369	370	365	360	362	365	363	362	359	358	358	353	349	349	350	352	352	348	350	354	357	356	356	348	349	356	356	358	355	353	347	350	348	346	345	342	343	344	344	345	350	355	358	360	357	356	356	355	359	360	358	354	356	356	352	354	342	340	342	342	340	342	349	346	341	337	346	347	352	356	352	349	350	353	357	360	347	343	346	356	358	356	356	358	357	358	353	357	360	359	353	352	348	355	355	358	354	356	359	364	365	365	367	362	360	357	352	354	360	361	354	353	354	352	355	355	357	361	365	368	366	357	348	337	338	344	353	350	354	356	357	357	357	360	364	367	364	358	353	352	359	361	362	362	364	364	362	361	359	357	349	350	351	351	358	359	358	359	355	352	351	348	349	349	349	348	343	346	353	357	361	362	353	344	344	344	349	348	352	353	361	361	368	363	350	348	349	352	352	344	342	347	350	351	351	351	357	355	350	344	344	353	355	353	353	354	360	354	355	343	343	346	344	345	349	343	338	331	333	331	333	340	341	341	335	334	338	334	336	338	341	337	335	332	333	332	328	329	329	329	337	341	341	339	335	339	336	343	349	349	342	346	350	350	348	345	348	345	342	345	349	352	347	341	342	342	337	339	339	340	339	340	336	335	332	334	328	327	327	327	331	333	330	332	332	332	334	333	330	327	326	325	324	324	322	322	320	322	324	324	324	324	325	322	319	320	325	326	326	324	323	321	319	320	317	318	325	326	323	324	327	325	320	317	315	310	309	313	313	315	317	317	317	320	319	319	320	317	317	316	316	316	321	322	318	315	312	306	300	299	299	308	309	320	321	324	320	321	324	325	325	326	322	316	317	315	313	316	312	312	312	309	306	306	309	310	316	313	313	322	317	318	317	317	317	318	315	315	316	316	314	309	310	312	313	313	318	318	319	322	320	316	316	312	319	320	322	323	323	323	324	317	314	319	316	312	312	311	310	311	315	316	318	318	317	313	311	311	311	311	312	314	318	320	322	317	321	312	309	307	307	309	309	309	306	307	307	315	315	318	319	317	317	317	312	309
328	335	338	324	319	322	322	322	317	313	318	322	322	334	339	340	338	331	331	324	319	319	323	326	328	328	328	325	320	318	329	329	338	334	327	327	327	326	326	330	333	334	330	328	325	325	325	326	325	329	334	334	335	335	335	331	324	325	331	337	338	338	336	329	324	321	321	328	327	327	328	325	325	327	330	328	328	327	327	329	326	325	329	330	330	334	335	332	332	327	326	324	324	323	324	325	333	333	334	332	334	331	330	327	328	329	330	327	327	334	330	328	327	328	330	329	327	322	323	333	333	341	344	339	338	336	333	325	311	310	314	321	323	323	319	323	331	331	332	332	334	339	340	339	336	331	332	332	339	338	340	338	338	336	330	326	333	338	339	333	333	335	343	343	346	350	350	346	335	328	329	332	339	345	343	344	346	346	353	356	359	363	361	361	359	357	354	351	357	362	360	357	357	354	353	351	350	350	352	357	352	352	352	349	350	350	350	348	349	356	348	344	344	345	347	349	349	348	345	342	342	343	341	342	347	348	353	353	351	352	351	351	354	355	355	354	353	356	356	347	343	346	345	337	333	336	341	342	336	337	338	337	336	330	334	332	339	348	353	352	346	343	356	357	357	356	353	355	357	356	355	354	357	357	355	352	349	354	357	355	353	356	359	364	365	365	367	362	354	352	346	354	353	358	355	349	348	350	353	360	361	356	364	367	366	360	345	339	342	345	353	352	349	342	350	355	358	363	365	367	365	362	357	358	360	360	360	360	362	367	363	360	356	356	354	351	350	349	349	350	356	360	355	352	351	348	349	349	349	348	343	341	342	344	355	356	355	351	344	339	342	344	346	354	344	343	351	349	345	347	346	347	348	355	349	352	350	350	349	349	353	349	350	349	349	348	352	353	353	344	345	342	339	342	342	343	350	350	343	340	336	337	333	333	333	336	336	336	338	340	344	338	336	339	342	337	334	334	334	331	328	325	329	329	337	337	333	332	332	334	338	343	345	346	342	342	348	351	348	341	341	342	341	344	350	348	338	337	335	335	335	335	335	335	334	334	336	335	332	328	325	328	326	324	331	333	331	334	334	334	335	334	330	327	326	326	326	326	324	324	324	323	321	320	320	320	321	319	321	321	325	326	324	326	324	322	318	320	317	317	323	323	322	322	325	324	321	318	317	316	313	311	311	312	319	328	323	321	317	308	311	318	325	325	326	323	321	322	322	322	308	305	308	312	312	313	313	313	317	321	323	323	325	325	325	323	319	317	312	307	304	316	312	312	305	306	307	304	305	309	305	310	310	312	317	316	317	317	316	315	315	313	316	315	313	309	310	310	310	309	309	308	312	316	311	305	305	313	310	310	314	315	322	322	323	323	319	319	316	315	315	314	314	315	316	318	316	316	314	309	309	309	310	310	311	314	318	317	322	322	317	310	310	310	309	309	310	319	314	312	308	308	313	314	314	314	307	307	312	309
324	332	334	319	319	327	327	323	321	321	323	328	328	334	339	337	333	328	328	326	326	323	321	324	325	325	326	329	326	327	329	332	332	330	327	327	326	325	327	327	331	333	324	323	322	323	323	328	328	325	324	327	327	327	326	323	324	325	326	329	336	336	332	326	321	317	321	326	328	329	329	328	328	327	327	326	328	327	329	329	326	325	324	329	327	324	319	326	326	325	322	320	322	324	323	330	333	333	333	329	333	332	329	325	328	329	330	327	332	332	329	328	327	328	329	326	323	321	322	325	325	330	335	337	336	334	330	319	312	311	310	313	319	319	319	323	333	331	332	333	329	331	332	332	331	331	332	333	333	341	342	344	342	334	330	326	332	333	330	328	325	336	339	342	342	346	347	346	335	328	329	332	337	338	344	346	346	347	349	354	357	357	346	346	341	335	335	345	354	355	351	348	346	350	354	354	354	354	355	359	353	351	351	348	344	343	347	347	347	348	348	344	347	348	348	348	348	346	342	340	342	341	338	341	344	345	347	347	347	347	348	346	350	353	358	354	354	350	346	346	350	349	343	335	334	335	339	342	343	342	341	341	334	331	328	325	335	342	349	349	350	349	351	353	353	353	354	354	356	357	357	361	357	356	354	352	350	353	352	352	352	355	359	361	361	361	356	352	354	352	346	354	353	358	355	349	348	350	353	345	348	350	356	361	359	356	349	343	345	349	344	347	336	335	340	345	353	361	364	360	357	351	349	349	355	357	359	360	365	364	358	354	356	356	354	351	350	349	349	350	356	360	355	353	353	346	346	343	341	345	347	344	337	337	344	354	354	352	347	344	342	343	342	345	338	337	336	352	354	350	348	345	345	353	352	352	349	348	346	346	338	342	344	351	344	341	347	347	345	342	343	338	342	342	336	342	347	349	336	332	333	334	335	333	333	334	336	338	340	337	340	338	338	339	340	340	334	332	332	331	328	325	326	331	331	331	333	335	334	334	336	337	343	342	337	337	341	347	343	334	333	339	343	348	346	334	334	333	333	336	334	333	335	338	338	338	337	335	332	325	326	329	326	324	323	327	331	331	331	328	328	329	328	325	327	330	329	326	332	330	322	316	319	316	316	315	317	318	318	322	326	325	324	319	317	322	318	322	322	321	321	319	319	318	319	323	317	324	324	322	319	319	315	317	319	323	321	316	311	305	310	312	316	316	326	323	320	316	317	317	304	304	305	305	313	314	312	309	311	312	308	308	309	309	312	312	316	314	312	306	304	300	299	299	301	301	306	307	304	303	303	303	303	306	311	312	315	313	311	313	313	311	314	315	313	309	308	308	308	306	303	304	305	311	310	310	305	305	307	308	305	306	312	312	319	323	319	316	316	316	316	315	315	315	316	316	316	317	313	307	308	308	308	308	311	313	318	317	317	317	314	308	306	307	307	307	304	308	315	313	307	307	306	306	302	301	307	307	307	308
326	336	331	324	331	333	333	343	334	325	325	329	329	333	335	337	333	327	327	327	326	328	325	323	322	322	319	323	324	325	325	330	330	328	327	325	326	325	331	331	335	334	322	318	321	327	327	328	329	324	318	314	313	315	315	320	323	324	326	329	323	327	327	323	320	323	325	328	332	333	333	331	330	326	320	321	324	321	315	315	315	320	324	329	325	322	315	312	312	314	318	316	317	322	327	327	330	331	331	327	323	323	323	320	317	318	319	319	332	322	322	319	318	317	320	323	322	321	320	324	328	328	317	316	313	314	317	324	324	324	318	318	321	318	318	322	333	331	328	331	328	328	329	329	331	333	333	335	335	340	342	343	342	332	331	331	333	331	331	342	343	341	338	337	337	342	346	339	337	328	329	332	330	340	346	346	344	345	346	351	355	351	345	340	340	333	334	342	346	348	345	343	344	347	352	356	356	356	361	356	349	348	347	343	343	342	346	347	347	347	347	346	347	348	348	347	344	339	338	335	337	339	339	341	341	346	346	347	342	341	338	339	346	352	348	347	351	352	345	345	349	352	341	335	334	335	337	341	343	346	347	343	338	334	328	326	335	344	345	348	347	349	349	345	346	351	355	355	356	356	359	363	358	356	354	350	350	350	351	351	351	352	354	355	356	350	350	345	343	342	343	345	351	355	349	347	346	347	354	345	348	350	356	361	359	356	349	343	345	349	344	347	336	335	340	345	353	361	364	360	357	351	349	349	355	357	359	360	365	364	358	354	356	354	354	353	348	351	353	356	361	366	360	356	348	345	345	343	341	342	344	342	340	344	343	342	338	324	340	347	347	345	339	337	337	342	342	343	352	354	345	345	345	349	341	334	334	345	345	345	340	341	340	336	345	347	345	341	341	342	341	339	337	337	334	334	334	337	344	344	346	347	346	343	337	337	336	336	336	333	332	337	338	338	338	337	334	332	332	335	331	328	328	335	335	333	334	333	331	330	333	335	335	337	337	336	341	347	342	340	334	329	328	348	340	340	328	328	328	329	329	329	334	338	338	337	338	336	333	334	326	329	327	324	322	322	328	328	325	325	322	324	327	331	331	328	326	324	326	323	318	314	315	315	313	312	313	314	318	322	324	322	322	319	317	318	317	317	317	318	320	318	317	317	316	316	321	321	318	315	305	305	310	309	307	310	310	310	310	309	309	306	312	316	320	320	318	319	309	308	305	306	307	307	315	313	310	308	308	309	311	308	309	309	311	310	312	314	312	306	300	295	295	296	294	301	305	308	308	304	302	302	303	305	306	309	310	308	303	305	305	311	314	315	312	314	317	315	315	310	304	301	302	306	308	308	304	306	304	307	304	302	302	312	319	320	315	308	305	305	306	312	314	313	313	316	316	315	313	306	306	307	309	309	311	313	316	316	317	317	314	309	305	305	307	307	307	304	303	310	307	307	300	296	302	301	301	302	299	306
336	336	326	320	327	343	348	348	342	330	321	323	325	325	331	333	332	327	327	325	328	331	331	329	326	326	322	322	318	317	315	316	316	318	326	326	327	332	331	331	338	330	322	323	326	328	328	331	330	327	320	319	319	322	322	325	325	322	321	321	323	327	320	319	319	311	314	317	316	315	315	314	313	305	312	316	321	319	314	314	313	320	320	326	325	315	312	311	308	308	313	317	320	320	319	320	327	327	323	323	324	323	319	317	319	318	319	319	322	322	322	321	314	310	320	321	323	324	321	322	318	318	323	321	311	309	316	322	321	319	321	327	327	327	327	327	326	328	328	331	329	328	328	330	331	331	333	338	338	332	331	332	331	331	333	332	329	329	332	341	342	343	333	332	332	332	341	338	340	338	334	331	330	340	343	345	344	342	344	350	352	344	343	340	340	338	337	341	343	343	342	339	340	345	349	356	358	357	358	352	348	346	342	341	341	342	343	346	346	348	348	347	351	351	349	347	344	339	334	332	329	331	335	341	340	346	347	346	336	336	336	339	346	344	346	349	349	343	342	348	348	352	344	332	332	334	336	341	345	347	349	352	339	335	330	337	340	344	344	343	342	344	343	340	340	348	352	354	356	357	359	362	349	349	350	346	343	343	346	347	346	350	352	352	352	351	351	346	342	344	344	345	348	346	345	347	345	341	346	343	345	351	353	353	345	345	345	347	345	341	338	342	343	334	335	339	342	343	353	359	355	349	345	345	349	351	356	362	361	359	357	352	351	340	342	338	336	347	347	347	354	358	349	344	343	341	341	339	333	332	335	338	338	341	343	347	344	331	342	344	344	342	343	346	346	345	343	339	339	342	347	344	342	345	335	332	327	328	328	337	341	332	334	335	335	337	337	338	342	344	342	338	338	336	337	336	339	343	347	351	352	352	353	349	344	341	337	336	336	336	334	332	332	337	338	337	330	329	330	330	332	331	331	332	332	332	330	328	326	324	327	329	331	334	336	336	338	345	341	338	336	334	326	326	325	326	328	328	332	331	329	328	338	338	339	339	338	336	333	334	334	332	329	326	322	325	328	328	331	329	323	325	328	329	331	325	325	320	320	324	318	317	315	315	315	311	312	315	321	320	322	322	322	319	314	317	315	315	315	312	310	312	314	314	314	310	317	320	314	306	306	310	309	306	302	307	309	306	309	309	309	306	306	308	315	315	312	311	311	309	309	308	310	310	314	313	311	308	311	312	315	312	308	308	309	307	312	314	312	302	300	294	294	293	297	301	304	308	307	304	302	302	303	304	306	305	303	305	304	304	305	308	313	315	312	315	319	319	319	311	304	301	302	305	304	304	309	310	302	304	302	301	302	305	309	311	311	302	301	301	302	303	310	309	310	312	312	313	310	303	304	305	305	309	311	311	314	314	314	313	311	309	304	304	311	311	309	304	303	305	305	306	300	296	297	297	297	297	298	301
336	323	319	315	323	328	342	342	336	327	314	312	315	315	318	324	326	324	325	325	330	336	337	334	329	322	322	320	317	311	310	311	316	316	320	325	327	334	337	338	338	336	329	329	327	330	329	329	330	329	323	322	323	327	327	327	329	323	321	319	318	320	320	319	315	318	317	312	311	309	309	309	309	309	308	318	322	320	320	320	320	319	319	322	320	315	312	308	311	311	312	314	318	322	322	317	323	324	322	322	313	314	319	322	324	322	319	319	322	322	322	321	314	310	319	318	319	322	320	318	318	319	319	322	319	315	320	321	321	321	320	324	320	326	324	324	325	326	328	327	329	328	328	324	322	325	328	330	327	327	319	320	325	327	331	328	326	327	330	332	340	334	333	332	331	331	332	336	338	339	339	334	334	341	343	345	345	345	344	350	351	345	342	341	341	341	341	341	340	340	337	333	334	343	350	354	355	357	358	348	341	337	338	339	339	340	342	347	348	348	347	346	344	343	342	343	342	340	334	332	329	338	339	336	348	340	346	339	334	331	328	329	339	339	341	344	345	340	339	340	340	340	339	339	337	337	339	341	344	351	355	342	336	338	335	336	341	344	341	336	339	342	342	342	337	340	343	346	351	352	357	355	346	347	349	346	340	337	337	337	337	341	347	352	353	352	352	349	347	348	350	349	345	345	345	347	344	342	341	341	342	341	347	350	348	345	345	344	339	336	332	334	331	331	333	335	335	337	340	352	353	349	344	340	343	342	347	355	358	357	354	343	335	339	326	327	331	336	337	341	338	342	339	340	340	340	336	332	328	331	336	337	337	341	338	347	348	347	347	348	344	341	338	336	336	337	336	335	332	332	337	338	337	338	341	331	329	327	326	336	338	332	331	333	333	333	336	336	336	338	340	340	336	337	336	338	338	338	336	335	334	334	339	338	336	338	338	335	337	336	332	332	332	337	336	335	330	333	333	334	330	330	331	331	332	331	327	322	321	320	321	324	328	330	330	330	329	338	339	332	330	329	328	323	325	325	327	327	326	327	328	337	334	334	335	339	338	334	330	329	331	331	328	327	325	321	321	326	332	333	327	319	313	306	314	323	321	318	318	317	317	316	314	314	317	319	320	320	319	320	322	318	317	318	313	316	313	313	310	309	311	311	310	311	309	311	314	315	314	306	306	310	306	304	307	309	310	311	309	309	306	306	303	304	313	316	320	320	317	310	309	310	310	313	314	311	311	311	312	315	314	313	313	306	309	307	306	303	301	301	301	296	296	297	299	300	301	304	308	308	307	307	305	305	305	304	302	302	304	304	303	304	311	313	316	319	320	320	317	313	308	307	305	303	303	301	298	303	302	300	302	301	301	302	306	305	303	300	300	300	300	302	304	301	305	305	309	309	308	303	302	305	305	307	307	309	302	300	300	298	308	304	304	305	305	305	305	304	300	301	301	306	303	297	294	297	297	300	303	306
323	323	313	316	319	324	325	325	326	321	311	306	310	310	316	319	323	319	322	330	330	336	336	333	326	318	318	317	317	311	311	314	318	318	321	323	334	339	340	338	338	336	329	325	322	326	324	324	318	323	324	316	320	329	331	331	331	329	322	317	312	314	314	314	315	319	311	310	310	308	308	308	308	311	315	315	317	322	324	321	321	320	319	320	316	313	314	308	311	316	315	316	321	327	325	318	316	312	311	311	311	316	319	318	315	314	316	320	322	322	322	321	311	310	319	317	318	315	316	315	317	321	321	319	320	319	314	312	318	317	318	319	323	317	322	322	325	326	328	325	325	331	328	324	313	325	327	325	317	317	318	320	319	324	327	326	325	326	327	330	333	329	330	327	324	324	324	333	334	334	333	332	333	339	342	344	345	345	346	347	341	335	336	334	336	336	334	331	330	330	333	332	330	339	344	347	348	352	353	352	344	347	341	339	339	340	338	342	344	344	345	346	343	340	338	337	337	337	335	332	329	338	339	336	339	352	352	347	338	336	335	335	335	333	333	340	340	335	335	335	336	336	337	337	334	337	339	342	342	341	342	340	338	340	339	334	332	327	329	329	333	335	336	340	341	331	336	337	337	338	342	342	345	346	348	342	340	340	336	336	336	338	345	349	352	353	351	351	353	352	351	349	347	343	344	347	348	347	338	340	340	336	337	341	347	344	343	342	330	334	333	332	329	327	332	332	329	327	332	341	346	347	344	338	337	340	345	350	348	339	342	338	334	328	326	327	331	332	337	336	334	330	334	335	335	335	337	331	332	331	335	337	337	335	336	342	347	346	345	345	344	340	336	335	334	336	336	332	330	335	337	337	334	336	339	338	330	330	331	332	339	337	335	332	330	332	333	333	331	331	327	327	328	326	328	338	338	338	335	334	334	335	337	337	334	335	336	334	337	336	332	328	326	328	335	335	336	337	336	335	329	330	330	333	330	329	327	327	326	324	320	321	323	320	323	319	328	326	333	330	328	327	328	327	326	326	326	327	326	327	332	332	328	334	335	339	335	333	329	327	327	330	328	326	325	324	324	324	326	331	318	315	310	305	314	317	313	313	318	318	309	311	311	313	318	319	321	320	319	319	311	313	314	313	311	308	308	312	312	311	313	311	308	307	309	309	311	310	312	312	314	311	310	310	310	312	310	311	305	304	305	305	313	313	313	314	315	321	313	312	309	315	315	313	313	314	313	311	311	313	312	312	313	306	301	304	304	302	300	299	309	309	310	306	306	305	304	309	305	311	311	309	303	304	305	306	302	302	300	300	299	303	309	311	313	314	314	316	317	311	308	306	305	302	302	302	298	297	302	300	301	301	303	303	301	299	298	295	295	298	299	298	299	301	302	302	307	308	307	303	302	303	303	305	299	299	299	300	300	298	297	300	304	307	307	305	305	303	298	301	301	306	303	303	300	292	292	292	293	296
313	313	313	316	314	317	320	320	320	316	310	303	307	312	312	317	322	320	317	320	320	326	336	333	319	316	316	310	310	311	315	318	319	319	321	331	334	331	328	325	325	325	326	325	322	322	318	318	318	319	321	314	316	324	326	326	328	325	323	313	309	313	320	320	321	319	311	307	306	306	307	307	307	313	315	315	319	323	327	320	320	317	315	319	323	326	319	317	316	315	315	317	325	318	321	309	308	309	313	317	317	317	319	318	318	316	315	319	325	317	313	313	310	311	307	317	318	307	312	314	311	317	320	320	322	322	317	311	309	308	315	316	318	313	312	312	322	328	329	325	320	317	314	312	313	325	318	319	322	322	322	325	323	318	315	320	322	324	327	330	327	324	325	327	325	322	322	326	330	327	324	326	331	333	340	346	347	347	346	347	341	328	329	334	335	334	334	333	334	335	335	334	332	332	337	342	348	352	351	349	348	348	346	341	340	335	336	336	340	343	343	342	343	339	337	336	337	337	337	333	328	337	338	338	339	352	352	336	338	337	338	335	337	336	333	332	333	333	330	329	331	331	331	335	336	339	341	342	341	340	341	341	339	340	339	336	332	329	326	327	329	331	337	339	337	335	328	326	329	332	337	338	339	343	343	344	340	338	335	335	335	337	343	348	350	350	350	350	351	352	351	348	343	338	341	342	337	337	335	337	336	335	336	337	342	342	341	340	330	328	329	329	328	332	332	329	330	326	331	329	338	340	342	338	337	338	341	342	342	340	341	343	338	328	329	330	333	335	337	334	333	332	331	330	332	332	335	338	342	335	336	335	332	335	337	340	344	342	341	341	339	337	334	332	333	336	335	332	334	338	337	333	333	334	335	335	330	336	338	339	340	338	336	336	336	337	333	336	330	328	328	325	324	319	326	331	333	337	336	335	340	336	334	326	323	335	336	334	332	333	329	326	326	327	334	334	341	340	338	334	330	329	329	330	329	329	327	325	327	326	326	329	331	323	321	323	320	325	328	328	326	328	327	328	323	322	322	322	325	328	331	332	328	329	332	335	335	333	328	325	326	332	336	338	335	335	319	317	316	316	315	307	312	324	323	314	313	316	319	318	308	305	305	311	313	319	321	312	312	311	308	311	310	312	311	312	312	313	314	316	314	311	301	302	303	307	310	307	309	309	309	310	310	308	310	312	312	311	304	303	308	308	311	313	314	309	309	314	322	321	319	319	313	310	312	310	308	304	305	305	312	312	312	312	312	311	294	296	298	300	307	307	306	310	316	317	310	305	312	313	313	311	305	305	305	306	302	292	292	297	298	299	307	308	310	311	311	314	311	307	306	306	305	304	304	302	298	297	298	306	309	309	304	304	301	299	299	299	299	300	300	299	298	301	300	300	302	308	307	303	300	300	299	296	291	290	294	299	299	299	298	309	298	304	304	303	304	303	298	288	288	297	299	300	300	300	295	293	294	298
310	312	312	313	314	317	301	308	308	315	314	313	321	322	322	322	325	321	316	315	315	315	318	326	319	316	313	313	314	315	317	318	319	320	320	325	329	327	326	325	327	327	324	323	321	322	318	317	317	315	313	313	309	314	318	318	318	314	311	312	314	314	320	317	317	318	314	307	306	314	312	312	312	312	314	318	321	325	319	315	315	315	319	323	326	328	327	322	319	317	317	317	325	325	313	307	305	308	311	316	316	317	319	320	319	316	315	318	317	312	316	316	324	313	309	308	308	307	312	309	317	317	319	319	322	324	318	312	309	306	312	316	317	312	306	318	318	325	325	320	314	310	307	303	313	314	318	319	323	322	322	322	323	319	313	315	325	325	327	329	328	327	328	329	326	324	326	326	326	322	322	322	329	334	341	346	350	346	344	340	334	328	329	326	324	329	329	332	335	337	338	335	333	336	337	339	338	341	338	337	336	339	341	341	342	339	336	333	340	340	340	339	338	337	336	335	335	334	329	329	329	331	331	339	334	337	338	336	338	337	337	337	339	337	334	333	329	328	327	326	328	329	329	338	335	341	340	340	339	337	335	337	338	334	334	334	333	331	325	325	327	329	337	340	334	328	323	323	326	331	333	345	344	344	343	342	338	335	330	332	336	336	342	345	347	347	351	351	349	351	348	341	337	332	333	334	332	331	334	334	337	337	337	338	341	343	342	339	331	330	329	332	332	333	336	336	337	333	330	333	334	336	338	340	340	338	337	341	343	348	346	344	342	338	330	331	333	336	336	336	331	331	332	334	333	333	334	341	344	343	336	333	334	335	337	339	341	340	337	337	338	337	335	333	334	337	340	340	338	338	335	333	332	332	331	335	337	336	335	336	336	335	340	339	338	337	338	338	330	328	328	329	328	325	328	329	328	328	336	340	342	332	334	326	323	325	331	332	332	328	326	326	327	331	333	333	335	346	341	333	331	331	332	328	328	324	323	322	321	319	323	328	329	323	323	322	323	324	330	328	328	329	328	325	322	322	320	319	325	328	331	328	326	326	329	331	332	331	325	321	325	331	336	337	328	328	325	311	309	315	309	313	317	311	309	312	316	318	310	308	306	306	307	311	313	313	311	311	311	311	308	307	309	311	311	311	311	311	316	315	313	311	299	298	300	301	309	311	311	304	303	304	310	308	308	310	310	301	300	297	297	304	304	303	301	303	305	308	314	318	313	313	308	303	299	299	306	301	305	305	306	306	307	312	318	297	295	297	307	307	310	310	305	308	313	316	310	307	305	305	312	312	305	305	309	310	296	298	298	292	298	298	303	307	305	304	304	307	308	307	306	302	306	306	304	302	300	297	299	303	305	305	302	303	303	300	300	302	302	302	300	298	296	300	300	300	302	303	302	302	300	300	298	295	293	299	300	300	299	299	299	301	311	311	312	303	304	305	296	296	291	294	299	298	297	297	297	297	298	297
311	312	312	309	309	300	301	308	304	313	316	315	318	322	322	324	324	319	316	314	312	312	310	309	314	313	313	313	317	318	321	317	319	314	314	311	314	315	316	317	319	319	321	320	318	319	319	317	317	317	314	313	313	310	311	313	313	315	314	316	316	317	315	310	310	311	311	312	312	314	312	312	312	308	311	314	318	318	310	309	313	313	317	320	323	326	322	321	325	319	315	315	320	325	313	307	305	306	310	309	311	311	313	312	314	311	311	310	315	318	320	319	319	323	319	315	313	313	308	309	317	320	319	319	318	319	316	309	304	305	311	316	316	314	310	319	319	323	323	319	318	315	307	305	303	305	322	323	323	322	321	321	322	326	330	331	331	331	331	332	332	329	331	332	333	331	330	330	329	330	333	325	331	334	335	332	332	330	328	325	319	323	327	326	324	327	332	332	334	336	335	332	331	332	333	332	331	335	329	332	335	337	336	339	343	338	335	333	338	339	336	336	334	335	331	330	332	329	325	325	326	329	332	338	334	331	330	328	331	333	337	337	339	340	333	331	328	328	329	325	328	330	330	332	340	342	336	337	340	335	328	326	333	338	336	338	336	333	333	333	328	329	333	339	339	334	328	323	322	325	328	342	346	345	339	331	331	326	321	319	329	333	339	339	334	330	332	332	338	340	339	340	334	330	330	328	330	329	335	335	336	337	336	338	341	343	342	338	336	330	332	334	336	337	337	337	335	335	335	331	332	330	334	335	339	338	337	340	339	342	348	341	341	331	329	328	330	337	338	337	336	330	327	326	326	333	335	342	342	337	335	333	335	335	337	341	337	336	335	335	335	338	337	336	335	335	340	337	336	335	334	334	333	332	330	328	330	334	331	330	330	339	341	342	340	337	337	324	324	324	331	333	330	329	328	329	328	330	336	340	342	332	327	323	325	327	329	329	329	324	324	325	328	331	330	328	333	333	331	324	316	316	314	318	320	321	320	320	319	320	322	325	323	325	322	322	322	322	326	329	333	331	329	325	323	323	320	319	321	322	327	325	322	323	327	327	328	319	309	314	319	324	326	326	326	325	325	321	318	314	312	312	311	323	321	312	313	316	309	310	308	306	307	309	308	302	305	306	310	312	301	304	306	308	308	308	309	306	306	310	311	310	299	294	296	298	301	304	304	303	301	304	307	305	301	299	300	299	297	303	303	305	302	297	297	299	303	305	309	308	307	307	299	295	298	301	299	301	299	300	303	303	304	305	305	300	300	303	305	307	307	310	309	307	312	313	310	306	305	305	312	312	312	310	311	310	303	303	301	298	298	297	298	303	302	302	300	299	302	306	303	299	306	306	306	306	301	299	301	305	305	305	299	297	294	298	304	304	305	303	300	297	295	300	300	301	301	297	298	300	300	300	302	298	297	299	301	301	295	299	297	298	302	311	312	308	306	302	298	298	295	297	302	299	297	297	297	296	297	299
310	306	303	303	294	292	293	304	304	313	317	315	317	320	321	321	322	319	313	311	309	309	308	308	312	315	317	317	317	318	319	317	313	310	310	306	303	300	312	316	315	315	312	309	311	317	319	318	317	317	314	319	321	319	308	310	310	314	316	320	320	317	314	310	310	310	309	309	309	313	312	312	308	308	309	313	314	312	309	305	308	312	312	315	320	321	321	322	321	317	315	315	321	320	311	307	305	308	307	305	303	303	305	310	310	311	304	309	308	310	322	320	320	309	316	316	315	314	309	309	316	320	319	316	316	310	308	304	302	304	306	311	313	325	316	322	324	324	323	319	318	316	309	306	305	305	311	319	322	322	321	321	304	319	321	321	321	318	316	330	333	327	333	332	332	325	322	322	322	325	328	332	325	328	329	329	330	328	327	322	322	324	324	323	323	327	332	332	330	330	331	331	329	331	331	326	330	331	333	327	327	336	337	337	342	338	334	332	335	336	332	332	331	329	328	328	331	329	325	324	326	333	338	338	336	328	322	327	333	336	339	344	341	340	333	331	326	327	328	327	326	329	338	338	341	339	334	334	337	337	329	326	332	335	336	337	335	334	328	327	324	327	329	331	331	321	318	306	315	318	324	328	327	331	335	327	325	325	322	322	323	327	328	328	331	329	330	331	331	331	333	337	336	335	335	330	332	334	334	335	334	333	332	336	338	338	340	337	335	332	331	334	337	337	338	336	332	332	331	331	330	328	328	332	332	331	332	335	332	336	336	336	328	325	322	322	326	338	338	336	336	339	337	330	330	327	333	343	345	336	335	333	333	334	336	334	335	331	330	332	336	335	332	330	329	327	326	331	337	335	335	334	334	332	329	325	326	327	327	328	331	338	342	343	336	336	326	323	328	328	332	331	332	330	330	329	328	330	336	337	335	331	330	327	329	330	326	325	324	324	325	324	324	326	328	324	321	323	322	321	321	319	321	322	324	323	320	321	318	319	321	319	321	321	321	322	321	323	321	326	328	327	327	326	325	323	322	323	325	327	320	324	321	319	321	321	322	312	307	305	317	321	322	323	323	325	322	324	320	315	313	309	309	309	311	309	308	311	311	310	310	308	309	307	307	304	302	304	306	306	311	300	301	303	305	305	304	304	302	305	306	306	298	291	292	300	301	305	305	303	301	302	302	305	303	300	300	305	305	305	308	302	297	295	295	307	306	305	304	303	303	304	298	296	299	301	299	307	306	305	305	303	303	306	305	300	298	300	299	300	300	302	307	307	306	311	308	303	305	305	303	313	312	306	306	309	308	308	301	298	302	302	299	298	298	298	298	298	301	305	304	299	305	305	308	307	305	300	300	299	299	301	296	295	293	297	297	297	307	308	305	297	295	298	298	300	301	299	299	301	301	301	303	296	292	289	289	289	290	295	300	298	302	302	303	302	301	301	300	300	298	299	301	298	298	295	292	292	294	297
313	301	297	297	298	299	301	310	318	318	317	315	317	320	323	323	320	315	309	305	305	305	305	307	311	315	316	317	317	319	319	317	309	309	306	306	304	304	305	319	315	313	313	308	310	315	320	321	315	315	316	319	321	321	307	310	313	313	320	321	320	315	312	310	307	307	310	310	309	310	307	306	308	308	309	317	319	308	299	299	305	308	308	308	313	320	323	318	314	312	321	321	320	316	312	308	308	308	307	305	302	303	303	307	306	307	304	298	308	309	307	308	308	308	311	314	313	313	314	310	312	319	311	316	316	306	305	304	304	303	303	307	311	326	326	323	320	320	317	316	320	321	323	304	303	305	318	320	322	319	312	304	304	319	320	320	313	310	314	326	321	315	316	319	329	331	325	327	327	323	330	331	324	325	328	326	324	321	323	323	323	322	322	321	319	323	327	330	330	330	327	327	329	330	326	324	330	329	329	321	324	331	335	334	334	336	335	333	330	335	332	330	330	326	326	328	331	332	329	327	332	338	337	337	334	326	326	331	326	329	337	342	343	334	332	327	326	327	328	327	320	316	321	321	328	330	331	332	332	329	329	332	332	333	335	335	333	324	328	326	323	323	328	327	327	327	322	319	324	324	324	323	323	329	328	325	322	324	324	327	327	327	322	323	325	327	330	331	331	330	330	328	335	336	335	333	335	335	333	332	332	330	330	332	336	337	336	335	333	332	331	331	334	336	336	335	331	332	333	332	328	327	326	326	326	323	330	330	332	326	325	324	323	320	319	323	324	336	335	333	335	338	339	334	334	330	328	338	344	336	333	331	332	329	329	330	329	327	326	326	330	330	326	323	322	324	324	327	332	335	336	333	330	327	321	320	325	329	329	329	331	336	342	337	336	327	320	320	320	324	326	326	332	330	330	329	328	329	331	336	334	330	323	325	327	325	324	319	316	313	322	318	318	318	321	322	319	321	320	321	321	323	323	323	323	323	324	323	322	321	321	318	321	321	322	319	318	316	321	322	321	327	327	326	326	323	323	321	319	324	319	323	317	311	315	316	317	315	312	308	311	312	315	315	316	316	315	315	313	318	312	312	308	307	308	311	311	311	311	313	313	312	311	308	307	306	304	304	304	306	305	304	301	301	301	302	301	299	299	302	305	306	302	291	293	296	300	301	305	304	301	304	307	307	302	300	308	309	309	309	305	300	301	305	308	309	307	306	303	302	302	301	300	296	299	302	300	306	307	306	306	302	306	305	304	304	303	303	300	300	303	301	303	303	302	298	297	303	303	300	297	299	302	302	304	308	306	306	299	302	302	304	302	301	297	297	296	296	298	305	304	304	304	306	309	306	301	301	300	299	299	296	292	288	292	293	303	303	303	308	305	301	298	298	289	297	298	299	302	305	305	304	299	295	289	287	287	287	289	295	300	299	299	296	295	291	291	288	288	283	280	280	284	288	288	293	293	289	294	297
313	306	304	304	307	310	312	318	323	323	317	316	317	320	317	317	315	312	302	300	304	306	306	306	307	310	315	312	312	307	308	309	309	309	305	305	303	303	305	322	320	321	321	317	311	313	314	313	312	312	314	318	321	321	308	309	313	313	321	322	316	312	306	306	310	310	312	312	312	311	307	304	307	307	312	317	319	309	303	303	314	316	316	314	313	313	313	309	311	316	314	314	314	316	312	311	309	309	310	305	305	305	305	306	308	307	305	299	303	308	308	307	307	307	306	307	309	309	311	310	308	307	316	320	306	306	305	305	303	297	296	305	310	311	313	311	313	304	304	305	308	311	313	306	305	305	306	310	317	317	309	312	312	316	320	320	313	311	314	314	304	309	320	325	328	332	323	326	325	325	324	327	325	323	327	326	332	322	322	327	325	324	323	327	323	325	326	328	328	328	327	327	329	327	326	325	326	326	326	317	320	321	323	325	325	324	328	328	329	332	331	330	329	329	326	328	329	331	335	337	335	335	333	333	328	325	328	324	328	326	333	332	327	327	328	327	324	326	327	326	320	316	321	325	325	328	328	324	326	327	329	330	332	331	331	329	328	324	329	327	322	322	327	328	328	332	330	329	330	329	325	325	325	324	325	325	327	330	329	328	324	324	323	323	325	327	328	331	331	331	329	329	328	334	335	334	332	333	331	330	330	327	326	329	331	334	335	335	335	330	329	327	330	332	334	333	333	331	333	331	326	325	321	320	324	329	331	328	327	328	324	323	323	324	321	322	324	333	334	333	335	335	337	337	336	331	328	330	330	333	332	330	328	326	324	324	325	325	325	325	327	325	323	320	325	323	324	329	330	332	330	327	323	321	320	324	319	328	335	337	337	337	336	335	329	320	313	311	320	324	326	326	330	330	330	328	325	326	325	324	322	318	322	325	327	324	321	318	315	313	313	316	316	315	313	317	322	319	318	318	309	314	319	322	319	322	329	328	323	322	320	322	324	321	320	316	314	311	313	322	321	320	320	320	320	320	321	322	319	323	321	318	309	308	314	320	319	316	314	313	312	314	313	313	317	317	319	309	312	310	311	311	311	311	308	311	311	311	306	306	305	309	308	308	310	308	306	304	304	302	302	303	303	302	302	303	299	301	302	301	302	303	303	300	296	296	300	300	305	303	303	303	305	305	307	307	305	304	304	304	299	300	302	302	306	309	309	306	302	302	302	301	300	301	303	299	305	298	298	301	301	301	303	302	305	305	305	304	303	303	300	303	301	298	295	298	297	295	295	296	301	300	300	296	301	305	305	297	297	300	303	303	303	303	303	302	300	296	298	299	304	306	306	306	306	303	299	300	301	301	299	287	283	290	297	298	298	302	303	306	305	300	299	299	297	294	289	289	294	298	298	298	294	293	290	288	288	287	289	294	296	299	299	294	287	286	287	286	286	282	280	278	281	288	288	293	293	289	288	288
310	313	315	315	316	312	316	321	321	321	320	319	319	318	317	315	304	299	295	296	310	310	310	308	308	312	316	315	315	312	309	311	310	307	305	302	300	299	304	320	324	319	319	313	311	312	312	314	313	314	314	317	322	317	308	309	315	315	319	318	309	302	304	308	312	312	313	314	314	312	305	305	308	316	316	318	318	309	301	301	301	299	299	299	292	296	302	315	315	313	312	310	310	311	308	308	309	310	310	309	305	305	307	306	305	306	304	306	306	308	310	311	306	306	305	303	304	308	309	310	304	304	300	303	308	308	309	305	303	309	306	304	302	300	305	306	307	301	301	301	301	306	308	310	309	308	310	309	321	318	314	312	319	319	322	321	320	311	314	316	320	313	319	324	324	320	319	323	325	323	323	324	320	321	325	327	329	326	325	328	325	325	326	329	325	325	328	328	328	328	325	325	327	327	326	320	320	323	317	316	316	319	323	323	322	323	323	327	328	329	328	329	329	329	328	326	326	330	334	336	335	332	331	324	326	318	320	325	326	332	326	319	321	327	327	327	324	321	325	325	317	314	318	325	328	328	328	324	323	324	327	328	328	322	318	318	322	325	327	328	322	320	316	314	317	323	332	333	332	329	327	325	326	325	325	327	330	331	329	326	324	324	322	322	322	324	327	325	329	329	328	324	324	329	332	331	331	327	330	327	326	324	327	326	326	325	331	331	331	330	325	322	322	324	329	337	334	331	332	330	329	320	320	322	326	330	330	329	332	332	330	327	324	325	324	323	325	331	332	333	333	331	331	331	330	329	327	328	327	324	328	326	324	323	319	320	322	325	318	321	325	325	325	321	326	329	328	328	324	324	330	325	321	320	321	320	326	330	331	330	327	325	325	329	329	320	313	313	311	320	320	321	325	326	329	326	324	322	323	314	317	321	323	324	324	324	326	321	316	314	314	314	316	314	316	322	323	316	316	314	312	311	316	314	315	320	323	325	331	323	319	317	318	322	318	311	314	311	313	316	317	316	316	317	320	317	319	329	327	319	320	309	307	311	322	320	316	315	316	315	313	314	314	315	316	317	315	314	308	307	305	308	309	311	308	303	308	313	307	307	299	299	301	298	298	295	296	304	301	300	302	301	300	300	301	302	303	300	297	300	302	305	306	300	296	295	295	298	299	301	300	304	305	306	303	303	303	303	303	299	300	302	302	300	304	304	303	304	304	302	302	302	298	295	297	301	302	299	297	297	297	295	296	297	300	304	306	306	303	303	301	304	300	298	295	297	297	297	298	299	300	304	303	296	291	292	292	291	295	297	302	303	304	304	304	302	300	301	299	298	298	306	306	305	304	297	294	293	294	294	288	283	288	292	294	295	298	302	304	305	305	300	298	298	298	294	291	292	294	294	303	299	294	294	290	288	288	288	292	299	304	306	306	301	289	285	285	285	285	287	286	285	285	285	288	293	295	292	292	292
310	311	317	314	314	310	314	321	325	324	324	322	320	318	313	304	304	299	294	295	309	309	309	310	310	313	316	320	318	318	314	312	310	308	302	300	300	299	302	313	314	317	313	313	312	309	311	316	320	318	318	315	314	311	311	310	315	319	303	303	298	297	301	305	309	312	312	313	311	309	303	301	306	312	312	310	306	302	301	301	300	296	289	289	287	287	303	308	311	312	309	308	308	308	304	305	307	308	310	310	309	307	306	306	306	306	307	301	303	306	301	303	306	303	303	303	305	308	314	306	300	298	299	299	305	312	312	315	315	309	306	305	304	304	305	307	307	301	304	304	308	312	311	312	309	305	304	302	308	314	312	309	312	312	313	315	321	319	322	316	320	322	319	311	307	314	319	316	314	315	315	321	318	321	323	335	334	327	329	323	325	325	325	326	322	323	325	328	326	324	324	323	324	324	323	320	320	323	312	313	314	319	323	323	322	321	323	327	328	330	327	324	323	324	324	324	323	325	326	326	325	324	327	323	317	317	318	322	324	329	324	321	315	324	326	326	324	321	320	320	316	314	319	323	326	326	324	324	323	324	327	329	327	323	319	317	322	324	324	322	317	313	311	316	318	322	324	332	332	329	328	331	328	327	327	328	330	329	326	324	322	322	321	324	330	329	328	326	323	323	324	320	320	325	325	325	326	325	325	326	327	328	328	328	328	326	326	328	327	327	327	324	337	331	334	338	337	332	327	329	330	320	318	328	328	323	325	332	333	334	331	324	323	323	328	324	324	327	330	330	330	326	327	327	326	326	326	326	326	323	321	322	323	322	322	321	318	318	320	320	323	325	325	319	322	325	324	326	321	321	318	318	315	322	322	324	323	322	322	320	327	325	325	329	319	315	316	316	319	313	317	320	320	326	325	323	322	318	316	313	317	319	321	322	322	321	318	315	312	313	313	316	316	316	319	316	317	315	315	309	308	310	315	314	313	314	317	325	328	325	310	316	313	312	318	311	310	310	312	316	317	317	317	316	316	317	317	322	321	321	310	302	309	307	311	314	315	315	315	314	308	308	306	305	307	306	306	308	310	307	305	308	309	311	302	313	312	313	313	311	303	304	301	300	297	295	298	303	302	300	299	300	301	301	304	306	301	296	295	296	299	305	306	301	294	293	293	295	298	303	303	303	304	303	302	302	302	300	300	299	300	300	299	297	299	299	299	304	304	304	302	302	297	295	295	301	302	299	297	297	297	293	293	294	297	301	300	299	299	299	298	304	300	293	289	295	296	296	296	295	297	302	303	296	288	289	289	289	286	286	295	304	309	304	304	303	302	300	298	298	299	299	303	301	291	291	291	292	293	293	290	285	288	292	294	295	295	300	303	301	296	297	297	294	294	296	295	295	301	301	305	302	299	291	290	290	289	292	295	296	299	299	303	303	302	299	298	298	296	296	295	291	285	285	287	287	290	295	294	294
310	312	316	312	312	312	313	315	320	318	318	319	319	316	312	306	306	298	294	292	306	307	309	309	311	313	310	304	301	301	298	297	308	313	306	301	301	299	302	305	311	308	308	308	311	310	311	315	316	316	316	314	311	311	308	307	304	303	303	303	295	298	299	302	307	310	310	310	309	301	298	301	307	313	313	313	310	305	304	302	300	296	299	302	302	301	302	299	298	309	310	308	304	304	303	305	306	309	310	310	309	308	306	306	306	306	306	304	299	300	303	305	305	302	302	300	298	308	307	307	304	302	299	298	302	310	310	316	315	311	308	305	304	305	304	306	305	304	304	304	304	303	313	313	310	308	302	301	300	304	309	312	309	312	312	312	313	321	322	323	314	322	319	313	307	309	305	305	313	314	317	317	307	308	315	319	321	321	321	323	321	315	316	324	327	327	324	317	316	318	318	319	322	318	316	316	316	314	312	313	314	317	320	320	321	321	323	327	330	328	323	321	321	320	320	320	321	327	326	326	324	327	327	325	318	318	317	318	320	323	325	320	318	318	319	315	312	321	320	320	318	316	318	325	327	323	323	324	322	323	327	329	327	323	319	317	322	327	327	322	314	310	315	323	324	324	322	323	330	330	328	327	325	327	327	327	324	323	322	319	318	319	324	327	331	331	327	324	322	322	317	316	315	316	312	316	317	319	323	323	324	326	325	325	328	328	328	324	324	325	328	337	330	330	335	340	329	334	328	325	314	316	314	323	326	318	317	321	321	320	315	315	319	321	322	323	323	327	328	328	324	324	324	324	324	324	325	324	326	325	318	317	316	316	319	323	322	322	320	317	319	323	323	318	314	313	314	312	312	312	317	318	315	320	318	316	323	322	322	320	318	319	319	321	315	315	315	319	320	324	325	327	325	324	323	322	321	317	317	311	314	319	321	321	318	317	320	316	315	312	313	316	316	312	311	319	316	316	314	309	310	312	314	315	315	315	315	316	316	316	312	316	313	312	312	312	310	311	314	316	316	316	315	312	315	319	319	320	321	321	309	299	302	308	309	311	309	311	311	310	309	309	306	304	304	305	305	303	310	307	305	303	304	308	311	311	314	312	312	310	309	310	305	300	296	289	302	304	305	301	297	294	294	297	306	307	302	298	297	296	299	299	298	290	292	292	291	294	297	298	298	302	302	302	300	294	297	297	297	299	299	299	296	294	298	299	299	302	302	298	293	292	292	294	295	297	298	300	300	297	291	295	295	299	299	299	298	298	298	299	298	298	295	289	292	294	293	293	294	293	294	296	302	296	289	289	289	289	288	292	293	304	309	309	306	304	301	297	289	290	293	293	297	292	290	289	291	293	293	293	290	289	288	292	292	292	296	299	300	298	292	289	289	289	295	297	296	292	298	298	301	299	299	291	290	290	294	293	293	292	292	292	289	292	290	291	292	292	294	294	295	291	291	291	290	284	286	292	292	292
309	312	313	311	311	309	307	307	307	309	309	311	311	315	312	306	299	299	294	292	306	303	304	304	309	309	304	298	290	290	294	293	296	306	310	304	304	298	300	305	311	309	307	307	307	307	311	315	316	312	312	312	310	306	304	303	300	298	298	296	295	298	297	301	307	312	312	312	307	300	298	305	314	316	310	310	308	307	305	301	297	292	299	302	302	303	298	296	293	298	309	308	303	303	303	304	307	310	311	310	310	304	300	302	302	306	306	304	307	308	308	305	306	305	303	303	298	301	301	304	304	302	299	299	300	309	315	315	313	310	306	305	304	305	304	305	305	303	301	301	301	301	301	302	305	300	297	297	298	300	306	309	306	303	303	302	303	310	322	327	317	318	317	313	307	310	311	311	312	314	315	315	309	311	313	317	317	321	321	319	316	316	317	326	327	326	322	317	312	312	315	315	315	314	316	317	314	313	313	313	314	317	320	319	322	322	323	321	319	318	314	319	314	314	317	317	325	321	314	314	315	318	321	324	319	315	318	317	318	319	322	315	312	309	310	314	311	313	320	322	322	320	316	319	325	326	326	325	324	326	325	323	323	322	321	319	322	327	327	322	317	315	318	323	323	322	320	320	324	329	326	325	325	322	320	323	321	320	317	314	315	319	322	324	330	330	327	319	314	316	316	315	315	316	318	321	322	319	318	321	322	319	322	322	324	327	325	323	322	322	325	328	329	322	334	339	325	329	315	311	303	308	311	315	318	319	313	313	312	313	313	320	317	317	321	322	324	324	322	321	322	322	322	323	323	323	320	318	319	319	316	315	315	314	314	322	323	324	318	316	318	319	312	308	310	311	316	315	314	316	306	318	315	320	318	316	316	317	319	323	322	321	318	315	315	315	318	320	321	325	329	327	324	323	322	321	318	318	319	321	319	319	321	322	322	320	319	320	317	315	315	320	320	316	310	306	308	308	306	305	308	313	315	312	312	312	314	310	310	316	312	307	303	304	304	311	314	314	315	316	314	314	311	314	317	320	320	321	321	320	317	309	302	303	308	306	306	308	309	309	309	308	306	304	302	302	305	303	298	296	301	303	302	308	308	311	312	312	311	304	301	300	301	302	301	296	293	304	303	301	298	296	296	300	296	297	300	298	297	299	299	297	299	295	293	293	294	294	291	291	290	297	296	298	293	294	292	292	292	296	296	295	295	294	298	298	299	299	299	296	293	294	296	296	295	295	295	296	296	295	289	291	297	300	299	298	298	298	298	294	295	299	290	293	291	292	292	293	292	291	294	295	295	297	293	293	291	289	292	292	293	293	294	294	296	299	296	296	290	290	292	292	295	292	289	289	291	295	295	296	290	289	287	292	290	290	292	300	302	306	292	287	287	290	293	294	287	288	288	294	301	299	293	291	291	291	293	294	293	287	288	288	288	291	289	290	292	292	293	294	294	290	287	287	286	286	286	289	289	291
307	307	313	311	300	300	304	300	302	306	306	306	304	307	309	307	302	302	297	291	302	303	304	297	301	304	299	291	289	290	290	292	292	296	305	301	299	299	300	304	305	309	307	306	306	310	312	315	316	311	306	306	305	302	303	301	302	304	303	303	298	297	297	301	305	307	306	306	305	301	302	306	305	302	301	301	302	300	291	290	293	296	298	302	302	303	298	298	297	288	293	303	303	301	301	303	305	306	306	303	311	311	303	299	299	303	306	305	307	308	308	308	305	303	299	299	299	296	298	303	307	304	302	303	304	306	306	306	304	305	304	304	304	304	303	305	305	300	296	295	295	291	292	295	298	296	296	296	293	296	298	298	304	307	305	305	304	305	306	313	312	312	307	311	311	310	311	307	309	312	318	317	317	318	317	314	312	315	315	315	319	319	321	320	322	324	327	317	316	317	317	317	317	315	314	315	316	315	315	315	317	319	316	319	322	322	314	313	313	313	315	312	306	308	311	311	313	310	309	309	312	314	320	323	320	317	317	317	315	313	313	317	311	308	310	312	313	319	319	320	318	314	314	322	325	325	324	324	321	323	325	323	321	321	323	324	326	327	322	321	317	315	318	323	323	314	314	319	321	321	322	323	322	321	317	315	314	319	317	317	315	316	317	315	319	323	322	319	313	317	317	316	314	317	319	321	320	321	318	318	319	319	319	321	323	325	324	322	319	320	323	327	327	323	322	323	328	315	302	306	315	314	311	316	320	316	313	314	314	315	314	316	323	322	318	320	322	321	319	318	319	321	321	322	319	318	316	314	313	311	312	317	315	315	315	320	322	320	316	312	312	312	308	309	315	306	316	315	314	316	306	309	312	315	313	313	315	318	317	318	317	317	317	315	314	314	317	318	320	323	328	325	323	322	322	318	319	321	323	322	321	318	316	322	325	321	321	319	319	317	316	322	325	323	318	312	312	303	300	299	304	308	313	310	311	313	314	310	310	306	310	309	306	306	307	306	310	313	315	315	315	314	312	313	318	321	321	320	320	317	317	314	309	305	303	303	304	307	307	308	308	306	304	303	302	302	305	301	293	292	293	301	300	307	306	303	302	302	307	305	301	301	301	303	301	298	295	298	298	296	296	296	298	302	298	297	300	301	297	297	295	297	296	297	297	296	297	295	302	292	293	292	295	295	292	292	292	291	293	296	291	295	295	294	296	298	301	301	302	299	294	294	296	297	296	296	299	299	301	297	295	290	289	290	293	298	298	298	295	291	293	299	298	293	293	290	290	290	289	287	284	283	284	289	289	284	288	289	292	292	292	292	292	293	291	290	291	291	291	288	288	285	291	290	288	289	283	283	295	296	298	296	293	287	290	290	293	291	296	297	301	301	295	292	290	290	285	284	288	294	300	294	293	294	294	293	294	293	289	284	284	282	287	286	289	291	291	292	293	292	290	289	289	290	294	294	294	291	291	288
303	306	308	308	300	300	299	300	302	306	304	304	301	300	303	305	304	304	300	294	296	295	297	301	301	302	297	290	289	290	290	290	291	299	303	306	303	303	300	300	304	305	307	306	306	308	312	313	308	306	303	303	302	301	302	304	307	308	307	307	302	296	299	300	305	307	306	306	305	302	302	302	302	299	297	295	295	289	287	294	298	296	290	292	296	296	298	298	298	299	297	294	304	306	306	305	304	306	305	300	304	311	306	299	298	298	302	305	305	305	308	308	308	304	298	291	291	292	297	299	305	304	303	303	303	305	304	304	303	302	300	301	300	303	303	305	305	300	296	296	300	300	300	300	292	297	298	301	301	301	303	301	298	306	308	308	307	307	304	303	302	302	299	301	304	306	308	307	309	312	312	314	314	318	315	312	310	309	309	313	313	310	309	310	310	316	319	321	320	319	319	321	321	318	314	317	317	315	315	317	322	322	317	317	322	322	314	313	313	315	315	312	309	308	309	310	310	310	308	310	310	313	315	322	323	320	319	314	313	308	307	311	306	311	312	310	312	315	316	315	315	312	313	319	326	325	322	322	320	320	321	317	317	321	322	324	325	325	324	320	319	321	319	318	315	314	314	319	321	321	322	321	320	318	316	314	315	320	320	315	315	316	310	312	315	321	323	319	319	318	318	316	314	312	317	317	318	317	317	318	319	319	318	319	322	323	323	318	319	318	319	322	322	319	314	319	320	309	314	319	319	315	312	317	319	316	313	312	313	314	317	316	321	324	320	319	315	306	314	316	318	319	319	317	316	317	315	313	311	312	314	318	318	315	314	317	320	317	314	312	312	312	308	309	315	306	311	312	311	308	307	309	312	316	313	313	312	315	318	317	316	313	316	317	317	318	319	316	314	312	312	313	314	315	315	314	315	324	327	325	321	316	312	316	322	322	321	319	318	318	319	322	323	320	319	313	313	308	303	300	302	307	308	310	311	313	314	310	309	303	305	307	309	306	309	310	310	307	313	316	316	316	316	318	321	324	324	322	319	317	315	315	309	304	300	301	303	304	307	307	311	308	304	303	301	302	303	300	296	291	293	291	296	300	305	303	303	300	298	296	298	291	294	299	302	300	296	297	296	295	295	295	294	302	298	297	297	297	295	294	293	290	294	294	294	297	297	297	301	297	291	292	294	295	293	289	289	286	287	296	291	292	292	290	293	294	304	304	301	298	292	292	297	302	306	304	302	302	301	299	297	289	289	290	293	295	296	296	292	290	293	295	294	293	293	292	292	290	288	284	285	287	279	284	284	289	288	292	291	291	291	290	290	291	289	288	286	284	284	283	283	280	282	282	278	279	283	283	283	286	296	295	293	292	292	288	287	289	289	288	289	289	285	283	283	286	285	284	284	287	293	293	292	292	292	293	291	288	285	281	281	280	281	281	284	291	291	289	282	279	286	290	290	293	293	293	294	291	291	290
