279	279	281	282	286	289	291	291	282	282	280	278	284	275	277	274	271	267	266	266	266	267	275	284	278	278	282	288	287	279	278	278	281	283	281	275	271	270	270	276	282	284	282	268	265	265	279	268	263	268	276	272	272	266	264	262	268	268	267	273	273	276	277	277	276	277	276	270	270	274	275	276	274	276	284	285	285	280	277	271	268	268	269	269	269	269	272	271	273	275	278	275	278	281	281	277	275	275	273	273	270	273	276	280	280	282	281	281	275	273	273	275	275	276	276	270	270	268	278	274	275	276	278	279	280	279	279	279	279	278	269	269	273	271	273	279	280	282	282	284	281	278	276	277	277	279	279	282	285	286	284	284	284	284	279	278	277	284	279	280	280	279	276	273	276	278	282	282	282	282	278	276	276	276	276	275	275	276	285	287	285	285	287	288	288	287	283	283	282	281	283	282	282	282	287	287	288	286	280	281	281	280	278	282	282	282	282	284	284	289	287	287	286	286	284	282	283	289	291	289	289	286	283	281	282	283	285	285	285	285	288	278	278	279	281	278	278	278	279	282	283	285	285	287	290	288	285	284	284	283	279	278	281	281	282	285	287	285	285	285	286	284	281	281	280	280	279	281	281	278	279	281	283	285	286	289	291	289	287	284	283	285	293	292	292	290	289	291	291	291	288	286	286	286	286	286	289	287	287	290	291	293	288	286	288	291	289	288	286	283	283	285	284	291	287	290	288	288	291	288	288	289	289	292	294	293	293	293	291	289	283	283	283	282	283	286	283	283	283	282	288	289	289	289	283	282	281	280	281	284	285	285	284	281	281	281	285	286	287	289	290	291	290	290	287	289	293	295	292	291	291	293	290	292	292	285	281	282	282	281	281	281	282	283	282	284	284	285	280	281	286	286	291	291	286	284	285	285	286	288	285	287	286	286	280	280	284	286	284	280	277	283	289	288	284	284	283	284	286	284	282	281	280	282	282	282	280	280	280	283	284	284	279	281	281	280	278	275	276	278	276	275	279	279	279	279	274	273	273	278	280	281	278	276	280	279	279	272	274	279	281	273	274	272	273	273	276	275	271	271	272	271	269	270	273	272	273	270	270	271	271	271	270	270	270	270	270	271	274	274	273	271	272	272	272	274	275	275	275	275	274	273	270	268	267	268	268	268	269	272	273	274	274	275	269	270	268	268	264	273	274	278	278	280	278	274	272	272	265	265	266	268	268	266	266	266	267	267	273	269	267	267	266	265	268	269	269	269	268	265	261	267	265	267	269	269	271	270	273	270	265	269	267	267	266	268	270	272	269	268	268	268	267	267	267	267	266	264	262	262	262	266	265	270	267	266	266	265	263	260	265	270	270	270	270	271	271	271	268	269	269	271	268	265	261	262	262	266	268	268	262	256	256	256	257	257	258	259	259	259	261	269	270	269	269	269	268	267	266	262	262	259	261	266	261	260	260	260	260	265
277	277	278	281	285	289	283	283	278	276	277	276	275	275	277	268	270	271	270	270	271	275	285	281	284	284	284	286	288	283	278	281	281	282	276	277	280	280	279	279	280	279	272	268	262	261	261	261	263	268	276	272	269	269	265	273	272	269	269	275	275	276	276	277	282	281	271	270	270	274	275	275	275	275	278	279	277	277	276	272	269	270	273	273	269	269	270	271	273	275	278	279	275	276	277	277	277	275	271	271	269	267	272	275	275	281	280	278	275	273	261	266	270	273	275	275	272	269	269	279	276	274	271	267	266	272	272	277	286	286	272	272	273	271	272	273	279	279	281	281	279	277	277	276	276	274	275	278	283	283	283	283	283	279	278	275	273	276	279	280	280	271	271	273	276	277	282	282	282	282	279	278	277	279	279	279	276	284	291	292	291	289	288	284	281	281	280	283	282	282	283	282	279	276	279	282	282	282	283	285	284	283	281	280	283	283	281	282	283	286	285	285	282	284	284	281	288	289	292	290	288	284	282	281	282	283	285	284	283	283	280	278	278	279	281	276	275	275	276	282	282	285	287	289	289	287	287	284	279	278	277	278	277	279	278	277	281	283	283	286	284	284	279	279	279	280	279	276	281	284	282	283	285	288	286	289	288	285	279	278	282	285	284	287	286	285	292	298	296	287	287	287	285	284	285	285	285	284	284	280	280	286	287	287	290	290	287	285	282	281	282	282	283	288	289	291	291	291	290	291	289	288	290	292	294	294	293	292	290	288	283	282	283	283	283	285	285	285	286	284	286	289	288	286	280	279	279	278	280	282	285	281	285	285	286	286	285	283	282	282	285	287	286	284	279	285	291	288	287	286	288	285	286	286	281	278	281	282	280	278	277	276	278	279	282	282	281	283	284	279	278	284	283	286	286	286	285	285	286	288	286	279	280	280	282	282	283	285	281	279	282	288	289	286	282	281	282	283	285	281	281	280	281	281	280	279	280	280	281	282	284	281	279	279	279	277	276	278	275	278	276	275	274	278	283	283	277	277	274	273	278	278	276	274	274	276	277	276	272	276	279	277	272	271	271	273	274	272	267	267	269	271	269	271	272	275	271	269	270	270	272	274	275	272	272	275	275	270	272	274	273	272	274	274	275	275	272	275	275	275	274	272	269	267	267	267	265	268	269	270	269	270	273	269	270	262	262	262	267	267	269	278	278	276	273	272	267	267	267	261	264	265	266	266	263	261	265	265	267	266	265	266	265	265	268	267	267	267	265	263	260	263	264	264	265	265	269	270	269	266	271	270	270	267	266	266	268	271	272	267	268	268	267	266	265	265	264	262	262	259	260	266	265	270	268	265	265	263	258	261	265	267	270	270	270	271	269	268	267	268	269	269	267	264	262	262	262	265	267	269	266	261	261	259	258	257	258	259	259	262	259	260	264	265	265	264	265	264	265	264	264	261	260	266	261	260	260	257	255	256
278	278	278	278	279	284	284	284	274	273	271	273	274	274	270	268	266	270	272	272	275	275	281	282	277	284	284	284	281	279	280	281	281	282	280	281	280	278	279	279	277	275	270	264	262	270	270	270	271	276	276	272	274	274	276	275	273	271	271	271	274	274	276	280	283	275	270	270	274	274	273	278	277	276	276	276	277	277	274	273	272	273	271	270	271	267	267	266	271	275	278	278	272	275	277	277	277	275	271	270	270	270	271	277	282	282	282	271	269	266	261	266	277	279	278	278	276	273	275	278	276	270	264	263	268	267	273	273	279	281	279	274	273	272	272	273	274	276	278	278	275	274	274	274	274	276	279	281	281	281	279	278	282	282	281	276	272	271	273	273	271	271	271	272	276	276	278	281	281	282	282	280	278	279	279	278	284	286	288	290	287	286	276	277	280	280	279	279	283	286	285	285	279	276	279	281	283	286	284	284	285	283	282	281	281	281	279	280	281	282	281	284	281	277	276	286	285	286	288	287	286	286	282	284	287	288	285	284	281	281	280	280	281	280	278	276	275	275	276	280	282	286	287	289	289	286	282	279	278	277	278	280	281	278	275	276	280	281	276	276	277	280	283	279	278	279	279	279	278	282	285	283	285	287	287	286	287	284	278	278	283	282	283	281	279	287	286	287	287	285	284	286	286	283	283	284	284	283	280	279	279	283	290	294	294	289	287	284	280	281	281	282	282	284	284	285	285	282	281	286	291	288	285	286	293	293	291	290	289	286	284	283	282	281	282	282	282	284	282	285	286	288	287	284	280	276	275	278	278	280	280	281	280	283	289	285	281	280	279	276	276	277	281	283	285	280	279	280	281	282	281	281	279	279	279	275	278	279	279	279	282	279	275	275	279	280	279	279	277	277	275	275	283	286	286	286	284	283	289	287	285	285	285	285	282	282	284	284	284	279	275	283	287	287	281	278	279	281	281	279	279	280	281	282	282	282	282	281	279	278	279	277	279	278	274	273	276	278	275	276	278	274	277	280	281	282	282	277	276	275	277	276	272	272	272	273	273	274	274	275	277	277	276	275	275	270	267	267	267	267	269	267	271	271	272	275	272	271	269	269	275	276	276	276	275	274	274	270	265	269	270	271	271	271	269	275	272	273	273	274	273	272	269	268	269	269	268	267	269	268	269	270	270	268	263	263	263	263	264	267	269	267	267	270	274	270	270	268	264	266	264	264	263	264	260	261	261	262	265	265	266	266	265	266	266	263	263	264	264	263	260	264	264	263	263	266	268	268	269	274	274	270	270	270	272	272	269	268	267	268	268	265	265	266	263	264	263	258	258	256	260	258	268	269	267	267	264	260	259	259	260	260	260	262	264	265	263	268	267	267	267	267	264	259	261	261	262	266	268	267	266	262	262	261	260	257	258	260	260	262	262	258	258	260	260	260	262	267	266	264	264	261	260	262	261	261	260	255	252	250
278	278	280	277	274	274	275	274	274	274	274	271	270	266	266	265	266	270	273	273	273	275	276	276	282	281	281	282	281	278	276	275	278	278	280	281	273	278	272	272	274	271	271	270	269	274	274	269	269	269	274	274	274	274	274	277	274	270	268	269	270	270	276	280	278	274	270	269	272	272	273	278	278	277	276	273	272	272	268	272	272	270	269	268	270	269	269	266	267	276	279	278	272	274	276	279	279	274	271	271	269	269	269	273	279	279	271	263	258	258	265	265	277	279	281	277	277	268	276	271	272	269	262	268	268	271	273	273	273	276	276	274	274	272	272	272	274	276	274	269	269	270	271	272	274	276	274	275	277	277	277	277	282	282	281	276	271	271	273	274	272	272	272	272	276	273	274	274	274	277	279	280	281	287	281	280	284	282	284	280	278	274	280	277	273	278	278	279	284	283	281	279	278	275	277	281	283	286	283	283	283	282	282	282	278	278	278	277	280	281	281	280	276	276	277	283	283	282	285	286	284	283	285	286	286	286	284	283	281	281	281	281	281	280	275	273	273	273	276	280	282	286	287	287	287	283	283	282	280	283	283	284	283	278	275	275	276	277	279	279	277	278	277	283	278	279	279	279	277	277	280	284	285	284	283	285	287	286	279	280	281	284	286	278	279	278	282	284	285	281	285	282	281	277	277	279	279	284	285	281	284	285	290	290	291	290	287	283	281	282	280	280	280	279	278	280	281	281	281	285	290	288	287	288	288	287	284	283	285	282	281	281	282	280	280	279	279	279	280	286	286	284	282	282	280	275	275	275	277	277	278	278	278	279	284	282	282	281	281	276	273	274	279	283	285	281	278	279	279	280	279	280	280	278	276	275	273	275	278	279	281	279	275	275	279	280	280	278	277	277	275	275	283	285	284	285	279	281	287	284	281	284	284	281	283	282	284	285	285	282	278	275	284	279	278	276	276	278	278	278	279	279	278	279	281	283	283	285	282	272	271	274	273	278	274	273	274	277	276	274	278	276	275	276	279	281	281	279	276	276	273	271	272	272	273	273	272	272	271	275	275	277	275	275	274	271	267	267	268	272	268	268	266	272	272	271	274	272	272	271	271	275	277	276	274	272	268	265	264	268	270	270	270	271	269	269	264	265	265	268	269	266	264	267	267	269	272	272	268	267	267	267	270	270	265	265	262	263	264	265	265	263	266	267	271	275	275	267	264	265	263	263	262	261	263	260	260	260	264	265	266	264	265	266	264	264	261	260	264	268	263	259	263	264	264	266	269	270	270	274	274	273	273	273	272	271	268	267	266	260	260	257	261	261	262	263	262	261	258	256	255	265	262	264	264	264	261	255	256	258	259	261	261	260	259	261	263	262	263	263	263	264	263	261	259	259	259	263	266	263	264	264	260	261	260	259	261	263	263	264	264	257	257	257	257	259	268	269	264	266	264	261	259	260	261	261	264	263	250	249
279	280	280	277	273	272	273	275	275	276	278	271	265	263	263	264	264	269	273	273	272	273	272	273	276	282	282	284	281	276	273	272	273	273	274	274	273	270	268	269	269	268	267	266	269	271	272	272	272	273	275	272	273	274	274	276	273	271	266	267	271	275	275	277	276	275	270	270	270	275	275	277	278	277	271	271	270	267	267	266	269	269	267	266	268	267	267	267	274	276	277	270	271	274	276	275	275	271	271	270	269	268	268	268	278	272	272	262	258	258	259	265	278	281	281	277	277	275	270	272	268	270	272	269	270	273	271	270	270	268	267	269	272	277	276	275	275	275	274	269	269	268	270	269	271	274	274	274	274	274	271	271	274	272	272	269	272	271	276	276	273	271	273	272	273	273	274	274	270	270	275	274	277	281	283	283	284	282	282	280	277	274	273	271	277	280	280	279	281	280	276	279	279	274	276	280	285	284	283	283	283	281	282	281	280	278	278	279	279	278	276	276	276	276	278	279	283	282	283	286	285	284	284	281	282	283	283	281	280	278	278	279	278	279	277	275	271	271	273	279	283	287	287	287	287	283	283	282	283	285	283	283	282	282	277	276	277	274	275	275	275	275	277	273	279	281	278	277	277	277	278	278	279	280	281	284	287	285	280	284	286	288	281	279	280	279	279	280	277	279	279	281	279	278	278	279	279	280	284	283	286	288	285	286	285	287	283	280	280	280	279	279	279	279	278	279	283	286	289	290	290	288	285	289	287	285	281	281	282	279	278	279	281	281	280	281	281	277	279	285	285	284	280	281	279	279	278	277	277	279	281	279	281	279	278	279	279	279	279	276	275	278	285	287	283	281	273	275	275	279	278	279	279	278	276	273	275	272	274	276	279	275	274	277	279	280	280	278	278	278	275	275	280	282	282	281	280	276	280	281	279	279	279	283	282	280	283	282	284	282	279	278	280	275	273	272	272	274	275	276	275	276	274	277	280	280	281	283	282	279	271	274	273	271	271	273	274	277	279	276	277	273	275	273	272	272	272	271	269	268	271	269	271	271	274	274	272	272	271	272	274	273	267	275	274	271	270	272	272	272	271	267	272	272	271	272	272	272	272	272	273	276	275	273	269	265	265	264	264	265	267	270	270	269	265	264	259	260	261	262	263	267	265	265	265	268	268	267	268	267	264	264	264	264	267	265	262	263	264	267	267	267	266	268	270	272	272	271	264	259	262	262	261	260	261	261	261	260	264	265	265	264	262	271	271	271	269	264	267	269	270	264	265	265	266	265	266	270	270	272	272	269	269	267	265	266	266	265	266	261	261	257	260	259	261	263	262	262	261	257	260	261	260	261	261	260	258	258	259	260	262	262	260	260	259	261	263	266	266	266	265	263	262	261	259	259	259	265	266	264	260	264	260	263	256	256	258	258	263	267	261	258	256	256	262	269	268	269	264	264	266	263	258	259	259	261	263	263	261	251
276	274	274	274	273	272	270	271	271	273	272	267	262	261	261	261	264	268	271	272	272	273	272	271	275	278	272	272	269	270	271	271	269	269	269	270	270	270	268	265	265	267	265	265	274	271	270	270	269	271	272	271	272	275	275	276	273	268	269	269	274	274	274	273	274	275	269	266	272	274	274	277	277	273	271	271	259	263	263	264	269	268	264	264	264	268	273	273	279	281	278	274	268	269	272	275	275	267	267	268	266	265	265	267	270	271	271	270	270	270	275	273	274	275	277	277	275	275	270	268	271	273	268	267	270	275	272	270	270	266	266	267	267	270	272	272	272	272	269	267	268	268	270	272	275	274	273	273	271	270	269	271	274	274	274	272	269	269	276	276	274	273	275	275	275	274	276	276	270	270	276	278	276	279	283	277	273	274	271	276	268	265	268	277	277	279	276	276	276	275	275	278	281	276	274	276	281	280	280	280	279	281	282	281	282	280	281	281	281	281	280	279	277	276	276	277	280	283	287	287	286	280	281	280	281	281	281	280	280	279	278	278	277	279	278	276	272	272	272	279	285	285	286	281	282	283	283	283	283	285	283	283	282	279	279	277	278	276	273	273	273	274	279	283	280	282	280	278	277	278	280	279	279	277	275	273	279	277	273	280	281	281	281	280	281	282	283	283	279	275	278	281	280	279	281	282	282	283	284	283	283	284	285	284	285	285	281	276	276	279	276	276	278	279	281	282	285	287	287	289	289	284	283	282	283	283	286	286	285	280	280	279	279	277	280	282	282	276	280	283	284	284	281	279	281	282	280	279	280	282	284	284	282	279	278	276	276	277	278	277	278	284	286	282	280	276	274	271	275	277	278	278	278	277	277	275	274	274	280	276	279	275	274	277	279	279	278	280	281	277	274	274	280	282	280	276	276	276	274	274	275	275	277	278	279	279	281	280	281	279	272	278	279	275	273	272	273	276	276	276	275	274	273	274	279	279	279	283	282	279	278	276	276	274	273	272	273	276	276	274	270	275	270	271	272	272	272	271	268	269	272	272	273	275	276	277	273	272	272	271	271	273	273	267	270	269	270	270	272	272	271	274	272	272	272	272	272	272	274	274	276	275	274	271	268	265	266	266	267	265	267	267	267	267	269	269	269	268	268	267	264	268	268	268	267	265	268	266	266	267	267	265	262	264	264	267	263	263	265	265	266	267	266	269	270	270	271	271	264	261	256	256	256	262	266	261	261	264	264	263	258	258	258	258	258	259	259	259	260	266	267	261	265	265	265	265	266	265	268	263	269	269	268	264	260	262	263	264	266	266	267	266	262	261	261	263	262	262	264	261	261	263	261	262	262	261	261	259	259	262	262	262	260	260	257	257	257	259	259	261	261	261	263	264	264	266	267	269	269	264	260	260	261	265	253	253	256	256	264	265	258	258	259	259	269	269	268	262	264	264	262	263	260	259	259	261	261	263	263	265
267	270	271	271	270	270	270	271	271	271	269	264	260	259	262	262	268	269	269	275	275	275	272	271	268	274	271	271	268	265	265	267	267	268	268	268	270	271	268	265	265	266	270	275	273	275	269	271	271	270	270	271	274	274	276	276	273	268	269	262	266	270	270	264	265	271	275	272	270	272	272	274	274	273	268	263	259	263	267	267	267	273	276	272	272	271	272	277	277	278	273	269	268	270	270	270	267	267	267	263	264	263	263	263	263	266	270	270	270	270	272	274	273	273	271	267	271	271	271	268	271	265	265	264	268	273	274	270	268	268	266	265	266	267	267	269	272	272	267	263	267	267	269	272	275	274	273	270	271	271	272	274	273	272	272	272	271	266	271	271	273	271	272	273	275	275	274	273	274	276	276	278	276	279	275	273	271	269	269	271	272	266	270	277	275	274	273	273	273	273	275	283	283	284	278	277	279	281	281	280	277	281	280	279	282	280	281	282	282	282	280	278	276	276	276	277	279	285	285	286	284	286	285	283	283	283	280	278	277	276	276	276	277	280	281	278	276	276	279	282	282	285	282	281	283	283	281	282	284	284	281	281	279	279	279	277	278	276	273	272	275	275	279	277	278	282	281	279	279	279	279	278	278	277	278	274	276	279	279	278	279	278	275	277	280	284	288	283	279	278	274	279	282	283	281	284	284	284	286	287	286	280	280	282	283	281	279	278	276	278	275	275	277	277	277	281	282	284	285	284	280	280	281	280	277	279	281	283	281	279	274	273	273	278	277	277	280	282	282	283	284	283	278	277	280	281	281	281	284	286	286	284	282	278	278	276	276	276	276	277	281	279	278	279	279	275	275	275	272	274	276	276	277	277	277	275	274	274	280	279	276	277	276	275	275	273	277	279	278	278	272	270	271	273	273	271	272	278	278	279	279	276	275	278	279	279	277	274	278	278	278	278	275	273	277	276	276	278	275	272	269	267	272	274	274	279	279	275	277	277	273	270	271	271	271	272	274	275	275	274	269	268	269	274	274	273	272	270	270	272	272	273	273	275	277	277	275	272	272	271	271	271	266	266	267	270	268	269	268	270	272	274	273	268	267	271	271	271	273	274	276	273	273	268	267	267	266	266	267	266	266	265	267	269	271	270	266	267	268	267	268	265	259	259	262	265	264	264	263	265	265	265	262	262	262	262	265	262	261	263	264	264	262	265	267	267	266	269	270	264	262	259	256	262	262	266	266	263	263	261	259	260	260	259	259	259	258	260	260	260	259	255	259	265	265	264	263	262	266	263	269	269	268	264	262	258	259	260	264	264	264	265	262	261	262	262	262	261	262	260	262	260	263	263	263	264	263	262	259	261	262	262	260	258	257	255	254	254	259	253	254	257	261	266	266	266	267	269	269	265	265	260	251	250	256	257	257	259	260	264	258	253	253	259	269	263	265	259	259	259	262	261	260	260	260	260	259	263	266	263
264	265	268	268	271	270	268	269	271	266	265	266	268	269	255	255	245	255	264	266	269	269	268	266	268	274	271	268	268	268	268	266	267	267	267	268	273	270	268	267	266	266	270	271	271	264	266	269	269	269	269	271	274	273	271	271	270	266	263	262	266	268	263	263	265	264	260	267	269	272	274	274	272	267	263	260	257	261	267	267	276	283	277	271	271	272	268	270	270	267	263	261	265	265	267	269	270	270	267	263	264	265	265	265	266	270	270	270	269	269	267	267	268	266	265	262	266	271	271	272	272	265	265	262	268	273	273	272	271	271	269	265	265	264	265	265	265	272	267	266	259	269	269	273	276	274	273	271	271	272	276	274	270	271	269	269	265	265	271	273	273	272	272	272	274	275	272	273	276	277	279	279	282	279	275	273	267	268	268	268	276	278	276	275	277	278	278	276	276	276	277	284	284	285	280	276	276	280	279	280	276	280	279	279	282	282	282	282	282	282	276	275	276	280	277	280	281	282	280	279	280	280	279	277	278	279	277	277	278	275	272	281	281	283	284	282	279	277	277	282	281	280	283	283	284	282	281	282	283	283	280	279	278	278	276	277	278	279	273	272	275	275	279	277	278	278	279	278	278	277	278	277	277	277	274	278	276	282	282	281	281	278	274	280	282	283	283	278	279	278	279	286	284	283	285	284	284	285	285	285	284	283	281	279	279	278	278	279	280	279	283	278	275	275	275	280	282	284	285	284	279	273	274	277	276	279	276	276	276	275	275	273	273	278	276	276	279	280	282	280	280	283	279	276	280	285	286	280	279	281	282	282	280	279	278	274	275	275	275	275	275	275	278	278	278	274	274	273	272	274	276	276	277	277	275	275	279	277	281	280	280	279	275	275	275	278	274	273	272	271	269	268	270	269	270	271	273	276	279	279	279	278	279	283	285	283	276	278	279	279	279	278	276	278	278	277	275	274	275	275	274	267	272	274	274	274	270	275	275	276	276	272	269	271	271	272	273	274	272	271	269	268	268	271	271	272	268	270	268	273	274	272	271	275	276	276	275	272	272	271	268	268	268	266	266	269	268	266	265	270	272	272	268	268	268	271	271	271	268	270	273	266	263	259	267	267	264	266	269	268	268	268	269	271	270	270	266	266	267	267	268	265	265	258	258	259	262	262	261	265	265	263	263	260	260	259	259	262	261	259	260	259	261	262	262	263	266	267	265	262	261	259	256	260	260	262	264	261	263	265	267	268	268	268	268	269	266	265	263	259	253	255	255	259	265	263	264	262	261	262	262	270	269	266	258	256	255	257	257	262	264	265	265	264	264	262	262	261	260	260	263	264	259	259	259	260	263	261	259	261	261	260	261	257	255	255	250	250	253	256	257	257	256	258	258	266	267	266	264	262	262	260	258	257	258	258	258	253	254	255	255	253	253	253	258	260	258	257	257	252	254	256	259	259	259	258	257	263	266	266
264	267	268	271	271	271	270	266	266	266	265	270	270	275	267	267	257	257	266	269	271	267	267	267	268	271	271	268	273	268	268	267	267	267	267	271	270	267	267	265	265	265	270	271	271	259	261	265	265	270	270	272	273	273	271	268	268	262	260	262	265	268	263	275	274	272	263	265	265	266	265	265	264	270	272	263	258	261	271	276	276	283	268	267	265	266	265	266	266	265	260	260	262	265	268	268	267	264	264	264	265	265	265	270	270	271	270	270	270	271	270	264	260	259	258	259	265	268	268	268	266	262	262	262	268	273	272	271	270	269	269	266	263	263	263	265	265	259	269	265	262	262	262	268	269	269	270	271	271	272	275	274	269	268	266	261	261	266	267	272	273	271	271	272	274	275	275	278	273	274	278	278	278	264	261	262	267	268	272	271	272	273	276	276	277	279	279	279	279	278	276	277	283	284	281	279	277	276	276	281	280	279	280	281	281	282	280	278	278	277	276	275	276	280	274	275	274	274	272	275	279	279	278	274	274	280	283	282	276	272	268	276	276	278	281	283	282	276	271	271	280	282	283	276	272	272	274	278	283	283	281	279	277	273	274	274	277	280	279	279	277	277	278	275	278	278	279	278	278	277	276	274	276	274	275	276	276	275	274	274	276	275	268	276	282	281	278	278	279	279	284	286	282	282	280	283	285	285	284	281	280	278	280	280	275	276	278	281	281	285	283	278	275	272	273	277	282	286	287	285	278	275	272	273	277	277	275	275	275	275	275	275	277	275	275	275	279	280	280	278	279	280	275	275	275	277	278	274	277	280	279	280	277	275	277	276	275	275	270	270	272	275	278	278	278	274	274	273	268	266	266	272	274	270	270	273	275	276	278	275	272	269	273	273	275	276	274	273	274	273	273	271	271	271	271	271	273	275	279	279	281	279	279	279	279	277	265	274	276	278	277	274	270	269	271	270	269	270	275	275	274	268	268	268	268	267	267	272	272	273	276	272	269	271	271	270	270	268	268	270	270	271	269	269	273	272	272	266	269	268	275	271	271	275	276	276	276	271	271	271	271	268	268	268	267	266	264	265	263	264	269	271	270	268	270	270	270	264	268	270	269	264	263	259	261	266	269	263	258	258	267	267	267	267	270	269	265	263	266	265	264	259	259	258	259	261	262	262	261	263	264	263	262	262	261	261	261	260	259	258	257	255	258	261	261	263	265	264	262	262	261	259	260	258	258	258	264	264	264	268	267	265	263	263	261	261	264	264	261	259	253	258	258	256	265	264	264	263	262	263	263	268	267	263	256	254	254	256	257	262	264	266	266	264	265	265	265	263	262	263	263	262	259	259	255	260	263	261	261	261	261	261	259	255	253	253	252	252	254	257	258	256	252	256	258	259	262	263	263	260	260	261	261	260	258	258	258	253	254	255	255	255	255	255	262	261	251	251	255	258	258	255	254	254	260	258	257	262	267	267
267	267	271	274	274	273	270	267	266	267	267	270	270	265	269	267	267	267	267	266	266	266	266	263	267	271	273	273	273	268	266	264	264	272	266	266	268	263	260	260	263	264	264	260	258	259	261	264	267	267	268	266	264	263	262	258	258	264	271	268	267	273	275	274	274	276	269	259	260	259	262	264	264	264	264	271	263	261	262	267	267	271	268	267	265	265	264	264	265	265	264	262	261	263	265	264	266	264	264	265	264	264	260	270	270	269	269	269	269	270	269	264	262	259	260	267	270	265	263	263	263	261	262	264	268	273	272	270	271	270	270	268	263	263	262	265	263	264	258	263	262	262	262	262	265	265	267	268	270	273	275	274	269	267	265	264	264	265	269	267	267	266	267	269	269	270	272	275	280	283	287	274	274	267	262	265	269	272	272	271	272	271	273	274	275	278	278	278	277	277	272	276	279	281	279	276	274	270	270	273	283	281	281	283	286	286	281	280	276	276	274	270	270	270	274	275	274	269	270	271	276	276	274	272	270	278	280	275	272	271	268	270	275	275	278	278	278	276	272	277	282	282	279	278	278	278	279	282	283	282	279	276	273	271	271	272	273	276	279	275	275	274	274	273	275	277	278	277	277	277	276	274	276	274	275	276	276	275	273	272	276	277	274	269	274	274	275	278	278	283	280	284	281	281	278	279	281	281	281	275	274	275	275	279	277	274	275	278	279	280	278	274	274	272	272	276	279	287	285	284	281	279	276	273	276	280	275	273	270	272	277	275	271	273	278	278	279	278	278	278	275	273	268	269	267	268	275	278	278	277	279	274	272	281	277	276	275	275	270	270	272	274	279	278	276	273	273	273	270	267	267	267	267	269	269	271	273	274	276	269	263	269	266	272	275	275	272	273	273	274	274	273	273	273	273	274	274	279	280	280	280	281	278	274	275	272	271	272	273	273	272	269	268	266	271	270	269	270	269	271	271	270	270	270	265	265	267	267	271	272	273	268	269	268	270	266	264	266	267	269	267	270	271	271	271	274	274	272	265	267	271	271	271	269	271	271	273	272	269	269	269	270	269	270	268	268	266	266	264	267	266	265	264	266	269	269	271	265	269	270	269	264	263	260	260	264	257	257	258	258	259	262	264	267	267	268	266	262	262	263	262	262	261	261	259	261	259	258	262	262	264	262	262	262	263	263	263	261	259	256	255	257	255	255	258	262	265	264	262	261	259	260	258	258	259	268	269	269	269	268	268	266	266	263	261	260	261	264	261	258	255	255	250	257	261	264	266	266	265	265	265	266	261	260	256	255	254	256	256	262	269	266	264	263	264	264	264	264	261	264	264	262	262	260	255	260	260	260	259	259	259	259	258	253	254	257	257	259	256	258	257	256	252	252	251	254	259	258	258	258	258	258	257	257	257	257	260	258	254	255	254	254	253	256	258	258	249	249	257	260	256	256	254	254	260	259	254	257	257	260
269	274	277	274	274	276	273	267	264	266	266	261	261	265	269	263	263	261	263	265	263	264	264	262	266	261	272	274	270	270	266	264	267	266	266	266	260	258	258	259	259	260	260	259	257	259	261	264	267	266	264	263	270	264	263	263	263	269	272	268	268	274	279	280	280	276	269	257	259	259	263	264	264	261	261	262	260	261	263	266	267	267	268	265	265	265	265	263	262	262	263	264	261	262	263	264	265	261	263	263	262	258	264	266	268	269	269	265	265	265	266	266	264	263	269	270	265	262	264	264	265	263	265	264	267	267	269	270	271	271	268	268	263	260	259	262	262	257	264	262	259	260	262	262	261	262	263	265	271	271	274	272	269	267	266	263	267	267	266	265	265	264	267	269	268	266	270	272	276	279	278	274	274	276	268	268	269	271	273	274	272	271	273	271	273	273	275	274	270	268	268	268	273	279	274	265	269	268	269	271	275	287	283	277	279	281	279	274	274	272	272	266	265	268	272	270	268	269	270	271	274	275	274	274	274	275	276	277	274	270	267	267	272	272	275	276	277	276	271	272	274	276	279	281	281	279	273	273	282	279	277	275	272	269	268	269	272	276	278	272	273	273	273	272	274	276	277	277	277	278	273	272	273	277	277	278	276	271	273	272	276	277	274	269	274	274	275	274	278	279	279	275	278	274	275	278	278	278	279	276	274	275	276	275	275	278	275	274	274	275	269	273	273	273	273	276	279	281	283	283	280	278	278	277	279	278	274	273	271	279	277	275	271	273	276	276	279	278	276	275	273	270	269	268	267	268	275	278	278	277	279	274	272	281	282	280	277	268	267	271	270	270	273	271	267	269	271	273	273	273	270	266	266	267	268	268	271	271	273	269	264	264	269	272	274	274	274	272	269	269	272	273	269	270	273	275	273	274	274	276	279	278	275	274	272	271	271	271	272	273	271	269	268	266	267	268	268	269	268	268	271	270	270	269	267	268	267	267	268	271	271	273	269	269	267	265	266	265	267	265	266	266	266	268	272	274	276	274	265	267	271	270	268	268	268	271	271	271	267	267	267	268	266	267	269	268	266	264	262	262	262	266	265	266	266	269	269	265	269	267	266	265	264	263	257	254	253	254	254	257	259	261	263	264	266	265	265	263	263	262	263	263	261	261	262	259	258	255	256	260	261	264	264	263	266	266	266	260	256	255	258	258	256	256	258	262	262	263	261	261	261	259	259	259	265	268	270	269	269	267	267	264	264	257	256	260	261	264	261	258	249	249	253	257	261	265	262	267	266	266	266	263	258	257	256	255	256	256	261	266	266	265	264	261	263	263	263	264	263	259	260	259	262	260	258	256	259	259	258	258	260	258	257	255	260	260	260	260	257	258	257	256	256	251	249	251	251	260	260	260	259	254	254	258	259	259	260	258	255	257	253	253	252	251	253	254	257	257	265	262	262	255	256	254	254	253	254	262	262	265
269	277	279	278	275	275	271	261	263	262	262	262	263	262	264	263	261	260	262	262	263	261	261	261	260	266	260	260	265	265	269	269	267	266	259	257	257	258	257	259	261	263	263	261	259	261	262	269	266	264	264	264	261	261	266	266	267	267	266	264	262	264	265	266	259	259	257	257	259	261	261	261	261	261	263	260	260	262	265	268	270	270	269	266	263	263	265	263	260	261	261	262	263	260	261	256	252	254	257	257	259	263	264	264	265	266	266	265	265	264	265	266	270	269	269	264	262	262	262	266	266	267	266	265	266	267	269	271	272	271	268	268	267	262	260	258	258	262	261	260	263	263	263	262	262	262	262	263	265	271	271	271	270	268	266	263	267	264	266	266	269	268	269	268	266	269	268	271	271	273	274	274	270	270	267	266	268	272	274	277	276	271	270	271	273	273	272	272	270	268	268	268	268	269	271	267	267	268	267	270	275	285	281	276	274	273	273	271	270	273	273	275	273	274	274	269	269	271	272	275	274	275	274	274	275	276	276	277	273	271	269	266	274	275	275	276	276	271	267	270	272	280	282	283	270	268	264	268	272	274	275	274	272	270	270	268	272	275	273	273	272	274	275	275	278	278	277	277	275	276	277	278	278	278	274	275	275	271	273	275	278	279	279	272	271	268	273	274	278	279	279	275	278	274	275	278	278	278	279	276	274	275	271	271	274	273	267	267	268	267	273	271	274	275	275	277	277	279	280	281	280	278	276	275	271	271	270	268	273	279	277	275	271	273	273	276	279	278	276	275	273	270	269	268	270	272	278	278	274	269	269	270	278	283	282	274	270	266	264	270	272	272	268	269	270	271	270	271	270	270	268	268	267	267	264	268	269	270	271	271	271	274	273	272	276	278	272	266	265	265	267	265	266	266	265	268	269	271	271	271	274	275	275	273	272	273	271	271	272	273	271	267	267	269	267	265	265	265	269	269	268	268	267	267	266	263	265	266	268	268	267	269	268	268	272	267	266	266	266	268	271	271	272	269	267	274	276	274	272	270	271	268	266	267	270	271	270	268	266	266	267	266	265	268	266	265	265	261	259	259	260	261	261	261	261	269	269	270	268	265	265	265	264	259	257	253	252	253	253	254	255	259	259	259	262	268	269	267	264	261	262	263	262	261	261	261	258	259	260	260	261	266	266	270	264	262	260	256	255	255	258	259	258	256	258	258	258	259	259	261	260	257	257	256	259	265	265	267	263	265	264	264	265	257	256	256	262	264	264	259	259	257	256	258	265	263	261	261	263	263	266	265	258	257	257	256	260	260	263	260	262	262	256	259	259	260	261	259	264	259	260	259	259	261	259	258	258	258	257	257	258	258	257	255	258	262	262	260	257	258	259	256	256	254	250	249	250	249	249	256	254	253	255	258	259	259	252	254	258	258	252	252	253	252	252	253	253	256	263	261	262	255	255	251	251	251	253	253	263	264
275	277	279	261	276	276	273	262	263	263	264	264	255	258	260	260	260	260	262	259	260	261	261	261	260	260	257	256	257	257	261	263	262	261	259	257	259	258	259	259	263	265	264	264	261	262	269	269	263	262	262	264	261	265	263	262	263	263	267	264	262	266	267	264	255	255	254	258	259	261	261	263	264	264	262	261	260	263	264	266	268	268	268	262	262	262	262	262	260	261	258	259	259	259	254	253	256	259	263	263	263	264	264	263	263	263	261	261	264	265	265	270	269	266	263	263	262	262	261	261	261	263	266	266	263	263	266	269	269	269	268	267	267	262	259	258	261	261	262	259	262	264	265	263	263	263	266	264	264	265	268	269	266	264	261	263	264	266	266	267	264	264	265	265	269	266	268	268	269	268	270	267	264	264	264	267	271	271	271	273	275	269	268	269	272	273	272	272	270	265	264	264	265	273	273	273	273	267	272	270	271	280	276	275	275	275	271	269	271	275	275	275	274	273	271	269	268	270	271	272	275	276	275	276	275	276	276	277	273	271	267	267	267	274	274	274	268	266	268	271	276	274	277	277	273	270	267	265	269	269	269	274	275	272	272	270	270	269	271	270	272	275	277	277	276	276	278	277	277	277	278	278	278	273	273	273	273	272	269	273	277	275	271	274	272	268	270	271	272	273	273	275	274	274	271	273	272	272	272	270	271	273	271	271	274	273	267	267	268	267	273	271	274	275	275	277	277	279	280	281	280	278	276	275	271	271	270	268	273	274	274	274	270	276	276	276	274	273	274	274	273	274	268	271	274	278	279	275	269	269	269	268	272	273	274	273	268	268	270	273	273	273	273	272	270	269	269	268	267	267	265	270	269	268	272	271	272	273	271	270	271	272	272	273	273	271	267	264	264	266	266	265	267	267	265	266	267	267	268	270	272	273	271	269	272	273	271	272	273	273	271	269	268	268	266	266	265	267	269	271	272	272	271	267	261	262	266	268	267	265	261	261	263	269	269	268	266	265	268	270	271	271	272	269	267	265	268	270	268	267	267	268	266	269	271	270	267	266	266	266	269	267	267	266	266	260	261	264	265	266	267	266	261	261	261	263	267	265	264	265	265	265	259	258	257	253	252	252	252	253	253	258	257	258	260	265	267	268	264	261	261	263	262	261	261	262	261	263	258	258	258	258	261	264	263	260	260	260	258	258	258	259	259	258	257	257	254	256	258	259	259	259	259	255	258	258	260	259	259	257	256	264	265	259	256	259	262	263	263	255	255	256	262	260	260	260	258	260	260	262	266	265	263	257	255	256	256	261	258	258	255	253	255	255	255	258	259	257	264	259	258	258	259	256	256	255	255	253	253	259	260	258	256	253	252	258	262	257	257	257	256	253	253	251	249	249	248	247	247	250	251	252	255	258	258	256	252	250	254	258	258	258	260	255	251	252	252	255	263	261	260	259	259	255	250	251	251	251	254	261
270	272	259	261	276	261	276	269	264	265	263	263	268	251	247	254	255	255	258	259	260	261	261	261	260	260	257	257	255	256	256	258	258	257	259	259	259	257	258	262	265	264	262	262	260	266	268	266	259	253	253	259	265	265	263	264	264	267	267	268	268	270	261	256	254	254	257	259	262	261	259	263	264	261	261	259	259	258	257	259	263	263	263	262	261	262	261	259	258	258	259	259	255	254	256	257	256	259	262	263	263	262	265	264	263	261	260	259	260	266	266	270	269	264	263	263	264	263	263	260	260	260	262	265	267	265	263	263	263	263	265	267	267	264	259	258	260	261	261	258	257	264	264	266	266	266	264	271	266	265	264	264	264	267	262	261	262	266	267	267	264	264	263	264	264	268	266	265	266	267	269	266	265	264	264	268	271	270	270	270	271	267	266	269	272	274	278	272	266	265	264	264	263	264	265	268	270	264	265	269	270	268	272	272	276	273	270	269	269	272	277	277	275	273	271	270	269	269	271	272	276	275	274	274	274	275	278	274	273	271	267	267	269	269	269	269	267	267	268	270	271	275	276	277	276	273	270	266	268	268	268	269	269	269	267	266	266	269	270	272	272	273	273	273	272	271	272	273	272	273	271	266	268	272	272	272	273	272	270	267	270	271	273	273	273	271	272	270	269	269	270	272	274	273	271	269	268	268	269	267	267	268	268	268	270	270	269	270	269	269	266	270	274	275	278	275	271	270	269	271	273	276	273	271	270	270	269	272	273	274	274	271	273	273	273	273	273	272	271	271	271	269	272	275	279	279	275	272	269	269	268	269	271	272	273	274	274	273	271	271	274	274	272	270	270	270	270	267	267	265	268	270	269	270	266	264	266	273	274	271	272	272	270	270	270	268	264	263	263	268	266	266	267	268	265	265	267	267	269	269	272	273	271	269	270	269	270	272	271	272	271	267	266	267	264	262	261	260	262	264	264	263	266	262	261	265	264	266	263	260	262	263	269	268	264	264	266	268	271	270	270	271	268	268	266	262	262	264	265	266	266	264	267	268	270	268	268	267	267	269	269	267	267	266	267	261	264	264	268	266	267	266	265	265	262	261	262	263	264	264	263	261	260	258	258	257	254	254	254	256	257	258	256	256	256	265	267	268	264	264	262	261	261	263	265	265	266	261	258	257	258	258	260	261	262	262	261	261	258	258	258	258	257	257	255	256	254	254	254	256	259	259	258	259	259	258	255	253	252	257	256	256	257	260	259	262	262	262	258	258	256	262	261	260	258	257	258	258	260	262	265	267	265	257	255	255	255	255	254	252	251	253	254	254	255	254	259	257	254	258	259	259	259	258	256	255	254	255	255	256	257	257	255	253	252	252	257	256	253	253	249	249	248	250	249	249	250	248	248	252	251	252	252	255	255	256	253	249	254	258	258	261	261	250	248	250	252	255	257	260	258	258	253	256	250	247	249	249	249	253
255	259	256	261	261	276	276	260	262	260	264	262	262	262	259	258	265	265	265	265	263	261	261	264	264	259	257	257	258	258	258	259	260	259	260	259	257	257	258	263	263	259	258	258	258	259	263	264	260	254	257	257	259	258	260	264	264	263	263	260	259	264	258	255	254	260	260	262	264	262	262	263	261	261	261	258	256	257	256	258	259	258	258	259	260	260	260	261	260	256	260	260	255	254	257	256	255	257	260	262	263	263	264	266	264	259	259	260	261	264	270	270	266	264	263	265	266	265	263	260	260	260	261	265	267	266	261	260	261	261	262	264	260	260	260	259	260	261	263	264	264	264	268	268	267	267	272	271	268	262	260	262	265	265	262	263	264	265	264	264	263	263	263	264	262	264	261	266	265	267	266	262	262	259	259	265	267	268	269	266	266	266	268	270	272	275	269	270	269	266	265	263	263	264	265	265	266	264	264	267	266	265	262	262	266	269	270	268	266	266	268	269	269	269	273	270	270	271	273	274	277	274	273	272	272	271	269	266	270	273	271	269	269	269	269	269	266	268	270	270	270	270	275	274	274	274	270	267	270	267	268	267	270	275	275	271	268	269	269	272	276	275	273	272	272	277	278	274	273	274	271	268	270	270	272	274	272	272	270	269	266	270	271	274	271	271	271	269	268	267	267	271	271	265	270	272	269	270	270	266	268	269	269	268	269	271	274	271	270	268	265	270	271	276	272	270	268	267	269	271	269	268	267	270	270	269	272	271	273	273	271	269	271	273	273	271	264	263	264	270	274	275	274	278	274	273	274	271	269	268	268	268	270	270	272	273	273	270	272	272	272	273	271	269	270	273	275	269	269	272	264	269	268	267	263	258	260	268	268	274	282	279	272	265	267	269	269	262	269	268	270	268	268	267	265	265	265	267	269	269	271	271	267	267	267	268	271	267	268	268	267	265	265	266	269	267	266	267	266	266	266	263	259	261	266	270	268	265	259	261	262	268	267	267	271	271	270	268	271	272	272	267	261	262	262	260	260	262	262	264	264	264	265	268	268	265	267	267	265	262	265	267	266	267	266	270	269	264	268	266	265	264	264	264	264	263	265	267	264	263	263	263	258	260	260	259	259	259	258	258	260	260	259	256	256	258	260	257	260	260	261	260	260	263	264	265	266	262	259	256	256	258	259	261	262	261	261	261	258	256	256	256	255	255	257	261	257	256	255	254	255	255	259	259	260	259	258	253	252	256	256	256	257	259	260	259	258	257	256	256	257	260	261	259	258	256	258	258	258	262	265	265	261	256	255	255	255	255	254	251	250	253	255	255	255	254	255	254	253	253	253	254	256	258	259	259	257	257	254	254	253	252	255	253	253	251	253	255	251	250	246	246	247	249	250	250	250	250	248	252	252	254	253	253	258	255	254	250	251	251	250	249	244	241	248	248	250	247	246	249	251	251	254	247	245	247	247	250	252	253
258	258	257	254	257	265	265	260	262	263	260	266	266	260	259	263	264	267	267	270	265	263	263	264	264	259	257	257	260	260	261	261	261	257	260	259	257	257	259	263	263	257	257	258	258	258	259	260	262	257	256	256	259	261	258	256	262	263	260	254	251	254	255	254	258	259	259	262	262	261	262	262	261	259	259	258	256	255	255	255	251	253	256	256	260	260	260	260	260	257	252	255	255	257	257	256	254	255	258	258	263	263	263	265	262	259	258	257	262	261	265	265	263	264	264	265	266	266	264	261	260	260	260	263	264	260	259	261	261	259	259	257	257	257	256	257	258	261	263	264	264	267	266	266	267	267	267	266	263	262	263	267	260	259	257	258	259	258	258	262	262	260	260	261	262	264	261	265	266	265	264	263	260	259	260	260	260	262	262	263	265	267	268	268	270	266	266	266	265	263	262	262	262	263	263	265	266	264	264	262	268	265	260	261	263	266	268	265	262	264	263	268	268	270	274	271	268	271	271	273	273	271	273	274	272	270	267	266	269	273	271	269	269	266	266	266	266	268	270	270	270	270	271	271	269	268	270	267	266	266	267	272	274	271	272	271	266	267	266	269	270	269	269	270	270	272	271	272	273	273	273	270	268	271	275	274	274	274	272	272	268	267	270	271	271	270	270	268	269	267	266	272	273	264	268	274	272	266	266	267	266	267	270	269	267	270	269	271	269	267	265	267	270	272	271	268	268	268	268	271	272	269	269	269	271	272	271	271	269	268	269	267	267	267	267	264	264	264	267	269	270	271	273	272	272	271	270	268	268	268	266	268	268	269	271	272	273	270	272	268	268	270	268	268	272	272	277	277	268	272	267	267	268	267	266	262	264	265	265	269	278	276	271	268	267	268	268	268	268	269	268	268	268	267	265	265	265	265	268	269	271	271	267	266	266	267	268	265	263	265	268	267	266	267	269	270	268	268	267	267	265	260	260	263	268	265	269	267	262	259	259	262	266	268	271	271	270	271	269	269	268	265	262	260	258	258	258	260	264	264	264	264	264	266	264	261	261	261	261	264	264	262	262	265	267	270	269	267	265	261	262	264	264	264	265	262	266	267	265	263	263	261	259	258	258	258	258	258	259	261	261	260	259	260	258	256	261	261	261	256	260	260	260	261	262	263	266	265	261	260	260	260	260	261	262	261	261	261	258	256	256	256	255	255	258	262	259	258	255	254	254	258	259	261	262	259	258	257	254	256	256	257	256	258	258	258	257	255	257	257	257	256	260	259	258	256	257	257	260	259	256	257	258	257	256	256	252	252	253	254	254	254	255	255	254	253	254	254	252	249	249	253	255	256	255	254	255	255	253	251	253	252	254	254	254	250	249	252	252	250	250	251	247	249	250	250	250	250	249	251	253	255	256	256	257	259	260	252	253	253	253	249	244	241	244	244	247	248	245	245	247	247	246	246	246	249	249	250	252	252
259	259	257	256	256	255	259	259	257	263	260	262	262	263	260	262	264	266	266	271	270	265	264	263	259	259	257	256	259	260	260	260	262	264	262	261	262	262	262	261	261	257	257	258	256	256	256	259	255	258	256	261	261	261	259	259	259	259	254	254	251	250	252	257	262	262	262	262	261	263	262	261	261	260	258	258	254	255	255	250	249	251	255	255	258	261	262	261	263	257	257	257	257	255	257	255	254	255	255	254	256	259	259	263	261	259	256	260	263	261	264	262	262	264	264	265	265	266	264	261	261	259	259	256	258	259	261	262	262	259	256	258	255	254	254	256	262	267	269	267	267	267	266	265	262	263	263	265	264	264	264	265	265	262	260	259	257	257	257	257	257	258	259	259	260	263	260	265	266	267	266	265	261	258	256	256	255	257	263	264	266	268	268	267	268	266	257	263	264	257	260	260	262	262	264	265	265	264	264	262	268	266	260	260	262	264	264	263	262	263	266	268	267	267	268	268	268	268	270	271	271	270	272	273	272	268	266	266	265	269	270	271	267	267	265	269	269	267	268	272	270	270	271	271	269	269	264	270	270	265	268	275	270	270	271	268	268	271	266	264	261	268	265	266	270	270	271	271	272	273	272	271	268	272	271	271	272	274	276	272	267	266	269	271	270	269	271	272	271	267	266	268	272	272	266	267	268	266	266	263	264	267	266	267	265	264	268	269	268	267	265	267	269	272	269	268	266	267	268	268	270	269	268	268	269	272	272	271	269	267	268	268	272	266	266	264	263	265	268	263	267	268	269	270	270	270	271	271	267	266	266	264	263	263	264	273	278	275	266	265	267	267	270	272	271	269	269	269	268	265	266	266	271	266	263	263	264	268	268	266	267	267	265	267	267	265	268	268	268	269	268	267	268	267	268	268	265	266	268	269	269	268	265	266	265	266	267	266	266	265	267	274	274	270	270	268	269	269	268	268	265	263	261	267	268	270	268	266	266	261	259	262	266	268	265	266	267	265	265	265	263	262	260	259	258	258	259	255	262	264	262	265	264	265	262	259	259	263	264	264	262	261	262	265	267	266	266	269	268	262	261	261	262	262	261	263	261	267	264	263	263	259	258	258	258	258	258	259	259	261	261	260	261	260	257	257	257	261	261	260	257	260	260	260	260	259	261	264	264	264	264	265	260	261	259	262	262	262	261	260	260	260	258	258	260	262	258	254	254	257	257	259	260	261	262	259	258	258	257	257	256	255	255	256	257	257	254	253	253	253	257	256	260	259	259	260	260	260	257	262	262	260	260	260	256	256	256	260	256	254	254	254	254	250	250	251	253	252	252	250	250	252	253	253	255	254	252	252	253	251	246	243	244	250	250	253	251	252	252	253	253	251	252	248	250	250	250	249	249	251	255	254	257	257	257	254	252	254	253	253	253	249	245	248	248	249	249	248	246	249	249	250	250	249	250	249	249	252	254	255
259	259	257	255	254	254	256	256	260	259	264	262	263	267	258	262	264	268	268	268	271	272	265	260	254	254	253	256	259	261	262	262	265	268	268	268	266	263	263	258	257	258	257	258	256	257	257	258	259	255	256	259	259	261	264	269	269	264	255	255	251	250	252	256	259	261	260	260	260	262	263	261	258	259	250	250	253	254	255	250	249	252	255	257	257	261	263	264	259	257	258	256	256	256	261	257	254	252	255	254	256	259	259	261	258	256	257	262	263	259	258	261	261	263	263	264	264	266	265	260	261	259	256	256	257	260	261	263	258	256	260	260	256	255	255	257	260	267	269	267	267	267	267	265	262	260	259	259	261	263	263	262	261	260	260	261	258	257	255	254	256	256	262	258	257	256	261	263	266	267	266	265	263	261	260	258	258	259	262	263	266	264	266	267	262	263	258	260	259	259	255	260	262	262	263	265	263	263	265	262	268	266	260	260	261	262	263	262	262	262	263	267	267	267	267	266	266	268	269	269	269	268	267	268	269	269	269	268	265	267	273	269	268	267	262	263	264	264	264	265	266	266	269	272	270	269	264	270	270	265	268	266	266	271	271	265	265	266	266	266	259	266	267	266	269	269	270	270	271	272	270	270	266	266	267	269	271	276	268	268	267	265	267	270	269	268	268	270	270	270	266	267	271	272	270	269	268	267	267	263	262	264	265	264	263	267	268	268	266	266	265	267	271	272	271	271	271	266	268	268	268	267	268	267	270	274	273	270	269	266	267	269	265	266	266	266	267	264	264	265	267	268	269	269	270	270	271	268	267	267	267	263	260	264	271	274	270	268	264	264	263	267	268	272	271	267	266	266	264	262	262	269	266	264	262	265	263	264	264	265	261	259	265	267	267	265	268	269	267	271	270	271	268	266	264	264	266	266	267	267	266	265	265	263	262	265	265	265	266	268	272	273	272	271	269	267	265	264	264	267	265	265	267	265	262	264	263	266	266	261	258	262	265	260	263	262	262	261	261	263	262	0	0	0	260	261	258	256	256	261	263	263	264	263	258	258	259	264	263	262	262	261	261	262	263	263	263	266	269	265	263	263	261	260	258	259	263	264	263	263	262	261	256	257	258	258	258	259	261	261	262	260	260	259	256	256	257	257	260	260	256	259	258	256	255	255	260	261	261	264	264	265	264	265	261	259	256	256	256	256	254	253	254	259	258	257	254	255	255	255	258	259	260	261	260	260	258	257	254	254	254	256	255	257	257	258	253	250	250	251	257	256	256	256	258	258	258	260	255	253	254	253	253	252	252	249	254	255	256	254	254	253	253	254	251	252	252	251	251	251	252	250	251	250	249	249	254	252	251	249	251	251	242	242	242	250	252	251	250	255	255	253	252	248	250	250	250	249	247	246	253	255	255	254	252	251	252	248	254	253	248	249	251	252	252	249	249	249	246	250	250	253	254	254	250	250	249	250	253	255
262	262	262	258	256	256	255	255	260	261	263	269	267	267	258	261	265	267	269	269	268	265	259	253	252	252	255	256	257	261	262	267	267	269	270	262	262	261	261	259	259	256	253	255	257	257	257	257	258	259	256	261	261	259	260	259	258	252	252	252	252	254	251	256	259	259	261	261	261	258	256	256	256	256	255	251	251	254	259	252	250	252	255	255	255	260	262	261	260	258	256	255	256	256	258	260	256	254	252	254	255	259	259	260	258	255	257	259	260	257	257	258	261	261	263	263	265	263	263	259	257	256	256	256	256	259	262	262	260	262	261	260	260	258	257	257	259	262	263	263	266	265	266	265	263	260	259	259	257	257	260	262	262	259	259	259	259	257	257	254	259	259	259	257	259	260	262	263	265	267	267	266	263	261	260	259	259	259	258	259	261	263	264	261	262	255	257	262	264	260	259	256	257	260	260	264	262	265	266	263	263	264	260	262	261	262	263	263	262	261	261	267	269	267	267	266	266	267	267	267	264	264	265	267	264	268	268	269	269	270	274	275	275	273	269	261	258	258	259	263	265	268	270	271	270	267	263	269	270	269	268	266	266	271	271	265	265	265	265	265	262	265	267	266	267	267	264	265	266	268	269	265	260	262	262	266	262	262	262	261	265	265	267	270	270	268	266	267	268	268	267	266	267	267	268	268	268	268	268	264	264	263	263	265	268	267	267	266	265	265	267	268	271	273	271	272	271	270	269	269	267	266	265	265	271	271	269	268	267	265	262	262	262	262	264	266	268	268	267	268	268	270	270	272	274	274	271	267	263	267	267	267	267	267	273	272	270	262	262	262	264	267	267	269	270	265	265	266	262	264	266	265	263	262	263	262	263	264	264	265	261	259	267	266	267	264	263	261	262	270	272	273	270	268	268	264	262	263	265	266	263	262	262	262	261	262	265	265	265	267	271	262	262	263	265	265	261	261	261	259	262	263	266	265	262	264	263	261	263	261	259	258	254	259	260	261	260	263	263	262	0	0	0	0	0	0	0	258	256	255	255	255	254	256	264	264	258	264	263	262	260	260	260	258	261	263	266	266	264	268	268	264	258	258	259	259	261	258	261	258	261	262	262	256	257	258	259	259	259	261	261	256	252	251	251	252	257	257	256	254	255	257	258	255	254	254	256	261	261	261	259	260	261	259	258	256	254	253	254	254	252	251	253	257	259	258	258	256	256	255	258	258	256	258	259	254	253	254	254	254	254	253	256	253	257	257	250	250	250	251	253	255	256	260	260	252	252	252	249	249	249	248	248	249	249	247	251	255	253	250	252	252	252	252	252	251	250	251	251	251	250	251	250	249	249	249	249	247	250	252	251	252	249	249	242	244	249	250	250	250	255	253	251	248	250	250	250	245	245	245	247	245	245	249	248	246	252	248	248	245	247	245	247	248	248	250	249	250	248	248	246	252	254	254	250	250	249	247	249	249
262	261	261	261	255	255	255	262	262	264	262	271	272	263	263	261	265	266	264	259	259	254	253	255	258	258	258	256	256	259	262	267	261	266	261	258	255	257	259	259	261	262	262	260	259	256	256	257	258	260	263	264	259	259	255	254	255	253	250	253	253	254	253	257	260	259	261	264	264	262	263	261	261	261	258	258	258	255	256	256	254	257	256	255	260	256	258	256	259	258	260	256	253	257	257	260	257	254	252	253	257	259	260	260	258	257	258	257	259	260	255	255	258	258	262	263	263	262	260	258	258	255	254	256	256	259	262	260	260	262	260	261	260	261	261	261	261	258	258	257	259	261	263	264	263	259	258	257	257	257	259	261	259	259	259	260	261	259	256	258	257	257	257	255	258	260	262	262	264	266	268	263	262	261	260	259	259	258	259	258	260	261	260	264	262	256	262	260	265	266	260	258	260	261	261	260	263	266	266	262	263	263	262	259	258	260	262	263	262	261	261	263	267	268	268	267	267	266	265	263	262	262	263	262	261	263	264	262	260	264	270	270	269	267	270	265	256	256	256	261	263	266	270	271	269	268	269	269	269	264	265	266	271	271	266	265	265	265	265	265	262	265	267	266	264	264	264	265	266	266	265	265	263	266	267	264	266	263	262	262	263	261	260	267	269	267	266	263	266	266	266	265	262	267	266	267	268	269	269	266	264	264	264	263	266	266	266	264	266	266	267	271	272	272	272	269	268	269	269	268	265	265	265	268	269	267	268	266	264	262	262	261	262	262	264	269	270	271	270	269	268	265	267	272	274	274	272	262	262	268	272	272	271	269	271	268	263	264	262	263	263	267	267	266	263	263	263	258	260	265	266	265	263	262	263	262	262	263	263	265	263	262	258	265	266	265	267	263	263	270	271	271	270	268	268	264	264	263	264	267	262	259	262	259	258	258	262	262	261	262	262	260	261	261	264	265	264	264	265	261	259	263	266	265	265	264	264	264	260	258	261	256	254	255	260	260	259	259	261	0	0	0	0	0	0	0	0	0	260	258	257	254	252	255	256	264	258	260	263	261	259	259	258	260	262	264	264	266	264	259	259	260	253	256	256	256	256	257	257	260	256	262	262	262	256	257	261	264	263	263	262	258	254	253	250	253	253	254	253	254	257	256	257	258	256	254	256	258	258	258	260	259	260	259	258	258	257	254	254	253	252	251	253	254	254	254	258	256	256	256	253	252	252	253	252	254	254	253	253	254	253	252	250	253	258	262	250	250	252	251	255	257	256	257	252	252	246	246	250	254	255	254	254	254	248	247	251	250	250	253	250	250	250	249	247	249	252	251	251	249	251	250	250	249	248	248	247	247	247	248	250	251	251	250	245	248	251	249	248	250	251	252	253	252	249	249	250	248	239	238	243	244	244	249	248	246	247	247	247	246	247	245	248	248	247	246	249	251	251	251	246	252	254	253	251	251	248	248	246	246
254	261	261	258	254	254	256	262	262	262	256	260	270	270	270	263	263	266	259	257	257	252	251	250	253	255	255	251	254	259	261	261	266	266	253	256	254	253	257	257	258	261	263	261	258	257	257	257	257	260	263	265	263	263	256	253	252	251	255	256	257	257	260	259	259	260	262	264	264	264	262	263	261	261	261	261	258	258	260	260	256	256	254	255	256	256	258	255	256	260	260	257	252	256	256	260	259	255	252	255	258	258	259	259	258	257	258	264	263	259	259	260	258	259	259	259	259	257	255	254	259	255	256	256	256	258	262	260	256	260	259	257	258	259	260	260	260	258	257	258	259	261	263	262	260	259	258	257	257	258	259	261	258	259	259	262	261	259	261	261	255	257	257	256	259	259	260	260	260	264	265	264	262	261	261	260	258	259	259	258	261	261	262	266	262	257	260	264	264	265	260	258	260	261	262	262	262	262	263	262	263	264	268	260	260	259	258	256	261	261	266	263	267	268	263	263	263	263	266	267	263	261	258	260	264	263	262	262	261	261	264	263	264	266	265	265	261	260	260	262	263	263	263	265	266	265	266	264	263	264	265	270	269	268	266	266	266	265	262	261	262	265	267	266	264	264	264	266	271	270	268	266	265	268	271	268	265	266	267	266	262	260	258	262	265	266	267	271	270	265	265	263	261	265	266	263	266	267	266	266	264	263	265	263	265	265	264	264	264	265	266	267	270	271	270	267	268	269	271	273	271	271	268	267	266	267	266	265	263	263	264	264	266	266	265	267	269	269	270	269	271	271	269	270	269	269	268	265	262	267	271	270	271	269	268	264	266	267	266	266	264	263	262	261	263	263	263	258	260	265	266	265	262	263	263	262	262	262	261	264	263	261	266	263	265	263	266	262	262	266	268	267	267	267	266	264	264	263	265	264	259	260	260	258	258	259	260	258	263	268	261	266	262	261	262	264	262	264	265	261	259	259	260	259	260	261	267	265	265	266	267	265	258	257	257	257	257	257	0	0	0	0	0	0	0	0	0	0	0	0	0	254	252	255	255	257	259	258	260	259	257	256	257	258	261	263	264	263	260	260	259	256	255	250	250	253	256	257	255	260	256	256	257	257	261	265	265	264	261	255	257	255	254	253	252	252	252	255	253	253	254	255	255	258	256	255	254	254	254	254	259	260	259	257	258	259	259	253	253	251	252	251	251	252	254	254	255	256	256	255	253	253	252	253	252	253	254	254	254	252	250	246	252	256	258	262	262	255	249	249	256	251	250	250	249	249	249	250	254	254	254	254	253	254	248	247	250	253	255	249	255	255	253	248	248	248	253	249	249	247	251	250	250	248	248	248	250	248	249	248	249	250	250	254	254	252	250	249	248	248	246	246	250	250	249	249	249	245	244	242	241	241	244	249	249	246	246	246	246	250	249	246	245	245	245	244	254	254	251	251	251	245	252	250	250	247	249	249	245	245
255	257	258	258	254	249	250	254	254	255	247	247	258	270	270	268	265	263	259	257	258	258	258	253	254	257	259	259	253	250	255	261	256	256	253	256	250	255	258	258	258	260	261	252	251	254	255	255	257	261	264	265	263	263	263	260	259	260	259	256	255	255	256	256	255	259	259	262	264	264	262	262	260	259	262	263	259	259	262	265	258	255	256	254	254	255	255	255	256	257	258	252	249	254	254	260	258	254	252	254	256	259	261	261	261	258	259	264	263	262	261	259	257	256	256	259	255	254	253	253	254	255	256	256	258	258	261	257	256	260	259	257	256	255	255	255	255	254	257	256	259	261	262	262	260	260	259	263	263	263	260	260	258	259	259	262	259	258	252	253	255	261	261	261	261	260	259	259	260	262	264	263	261	261	262	261	263	261	261	261	261	261	262	266	261	257	257	259	259	259	259	260	259	259	259	260	260	260	261	261	262	263	266	267	267	266	263	258	259	259	264	266	261	265	263	263	263	263	263	261	259	256	258	262	265	266	264	261	258	259	262	264	263	265	268	268	263	261	263	263	262	263	264	261	259	262	261	260	257	260	263	265	266	267	267	267	267	265	260	261	261	262	265	265	264	264	266	266	271	270	268	266	265	268	271	269	265	265	268	266	263	264	264	264	265	263	265	267	265	266	265	262	260	261	265	265	262	265	266	266	267	267	269	267	263	264	261	264	260	263	264	265	267	270	271	272	270	271	271	272	271	272	269	268	266	266	266	266	264	265	264	265	266	266	267	269	270	268	267	267	268	268	268	266	263	263	267	266	265	263	264	267	266	265	262	263	268	267	266	266	264	263	262	261	260	260	258	259	259	265	264	263	263	261	263	263	263	263	261	263	264	268	267	267	265	262	261	263	265	262	263	260	256	256	262	262	262	263	263	263	261	258	258	258	258	258	257	259	263	265	268	263	265	266	262	264	264	262	262	265	262	261	261	260	260	262	261	266	267	266	265	262	260	258	258	258	258	255	0	0	0	0	0	0	0	0	0	0	0	0	0	259	257	257	255	255	258	258	258	258	257	255	254	256	257	259	260	261	258	258	257	256	253	253	250	253	256	257	255	257	255	253	253	253	253	257	258	256	255	255	255	255	255	255	255	255	255	255	251	250	251	255	255	256	257	255	256	256	257	254	253	257	255	252	252	257	257	257	252	253	249	253	251	252	251	251	252	252	255	255	254	253	253	253	252	254	254	254	254	253	248	247	252	256	263	257	257	250	248	246	244	250	257	258	258	256	254	253	250	250	248	254	254	253	249	248	247	248	253	254	254	248	248	247	248	249	253	253	249	247	247	250	248	249	251	251	251	251	251	249	252	252	255	257	258	252	250	247	247	247	246	245	245	248	246	246	246	249	248	248	247	241	244	253	256	252	249	249	251	250	249	250	252	252	247	247	254	254	254	250	248	250	244	245	245	241	240	240	242	242
256	257	252	252	250	249	250	248	244	244	242	243	250	252	266	266	267	263	257	258	258	258	256	256	257	259	260	260	255	250	252	255	250	250	251	248	250	255	260	259	259	258	255	254	254	253	252	252	255	263	264	269	263	263	263	256	254	252	252	254	253	252	252	253	257	258	258	259	262	262	263	262	260	257	260	263	260	260	263	265	259	254	254	253	253	252	252	253	255	257	258	249	246	249	248	248	251	252	253	253	256	256	257	259	259	259	263	265	265	262	261	259	258	256	254	254	255	252	251	243	248	251	254	255	256	256	259	256	257	261	259	257	256	254	253	253	254	254	257	256	257	261	261	261	259	260	264	264	262	259	259	258	259	259	258	262	259	251	254	248	253	252	255	255	263	263	259	259	259	260	262	262	260	260	261	262	262	262	265	265	263	261	263	266	261	257	259	259	255	256	255	260	259	256	256	258	258	259	260	259	260	261	265	266	268	267	264	264	264	264	261	261	263	262	264	264	264	264	263	261	259	257	258	263	265	265	263	261	260	260	256	256	260	262	267	267	261	262	264	264	264	264	263	260	258	261	263	261	260	263	266	267	266	266	269	270	270	268	267	267	263	261	264	265	263	266	270	270	268	265	268	266	267	268	271	269	265	265	268	266	263	264	264	264	265	265	267	268	265	265	265	260	261	261	264	264	263	266	268	268	271	268	262	261	259	259	262	261	258	257	256	260	264	268	272	273	273	272	273	273	271	272	271	268	268	266	266	263	260	259	256	260	267	267	268	267	265	266	266	267	268	269	266	265	262	262	260	266	265	263	264	267	266	265	262	263	268	268	267	265	262	260	259	258	255	255	255	258	260	262	261	261	260	260	261	262	265	265	263	264	266	266	265	266	262	260	264	265	265	265	264	258	258	256	258	261	262	260	261	264	262	257	255	255	257	256	260	263	261	262	268	263	265	266	266	266	263	265	265	263	256	259	260	262	259	261	260	266	266	265	262	260	260	257	257	257	258	254	253	0	0	0	0	0	0	0	0	0	0	0	0	258	257	257	255	257	257	259	257	257	256	253	252	251	256	257	256	257	257	257	257	256	256	254	250	253	256	256	255	255	255	254	254	253	252	252	252	254	255	255	254	255	258	259	259	259	259	255	251	250	251	254	254	254	254	257	257	259	256	254	253	252	250	249	249	249	253	253	252	250	249	253	252	252	250	250	250	250	250	252	254	254	253	253	253	253	253	252	250	247	248	247	255	260	259	259	251	241	242	247	248	255	257	256	256	253	249	249	248	250	248	247	247	248	249	250	249	245	248	253	253	253	245	245	246	247	253	253	249	248	248	247	249	250	250	251	252	252	251	248	249	249	253	257	258	255	254	250	250	246	246	243	243	246	246	249	249	249	246	248	248	247	246	247	249	249	249	251	249	249	251	255	255	251	247	247	251	250	250	250	252	247	240	240	240	240	238	238	238	242
254	249	246	245	245	241	245	248	244	244	243	241	244	245	244	244	246	245	244	249	256	256	256	256	258	260	260	260	255	251	250	254	253	251	251	252	252	256	260	259	252	252	253	254	255	252	253	253	251	259	263	258	262	259	256	256	254	250	251	251	251	252	252	251	254	258	256	253	258	260	260	258	256	257	260	258	259	261	261	262	254	254	254	252	250	250	250	253	252	251	252	249	246	249	250	250	249	251	251	254	255	254	255	255	258	258	262	264	263	262	261	259	258	256	250	250	250	248	243	249	251	254	254	256	256	255	255	258	256	254	257	256	254	254	253	253	253	253	254	257	257	256	257	257	259	263	263	263	259	257	257	255	256	256	256	260	259	251	254	248	246	249	252	260	260	258	262	259	260	256	261	258	258	261	263	262	262	265	265	265	262	263	264	262	258	255	259	259	255	255	251	255	258	256	256	259	258	258	260	257	257	260	260	261	261	261	261	262	263	265	265	259	258	262	263	262	259	259	259	259	259	257	258	263	265	264	263	262	261	260	258	257	258	261	261	259	259	264	263	263	263	262	259	259	259	262	261	258	262	266	266	268	266	264	266	267	266	265	266	264	263	261	259	264	266	265	267	267	264	265	265	265	266	268	269	267	266	264	263	264	267	267	266	263	265	265	267	268	265	265	265	260	261	261	264	264	263	262	265	265	265	264	262	264	261	260	261	262	258	258	257	259	261	262	266	267	268	268	274	272	271	270	268	266	265	262	263	261	254	255	256	259	269	269	268	267	265	266	266	267	268	269	266	265	262	262	260	261	265	263	264	263	261	260	261	262	267	269	266	262	261	259	256	260	260	255	256	256	259	262	263	263	265	266	267	262	259	260	263	267	268	264	259	264	266	256	258	265	266	264	260	260	260	261	261	261	259	260	260	260	260	258	257	256	255	256	260	263	261	262	260	264	269	266	271	271	268	262	264	259	254	260	260	261	260	259	266	253	266	266	260	260	258	259	258	258	258	258	253	253	0	0	0	0	0	0	0	0	0	0	259	256	256	253	254	256	257	260	260	257	258	256	253	254	254	258	256	257	257	255	255	256	256	254	256	253	257	258	258	256	254	254	254	254	253	254	252	252	255	255	256	255	256	257	257	257	259	255	251	251	252	253	256	255	254	253	253	256	259	254	253	252	248	249	250	252	252	252	252	250	250	250	252	252	251	251	251	250	246	252	251	249	249	251	251	251	251	251	250	247	243	241	247	249	251	251	243	243	251	254	257	256	251	251	248	248	0	249	248	248	249	249	248	247	248	250	250	249	245	245	250	254	253	247	246	247	249	249	253	250	250	250	250	251	251	251	247	248	247	246	247	249	253	257	255	254	252	252	250	250	242	240	240	239	239	248	248	249	246	247	247	247	246	245	247	248	248	248	248	245	246	243	255	251	249	246	244	242	242	240	246	249	247	247	247	240	239	238	238	238
248	248	245	240	240	240	248	246	244	243	243	246	243	243	240	240	240	243	244	247	253	253	253	254	258	260	259	253	253	250	251	254	258	256	256	256	256	257	258	256	252	252	253	254	257	258	249	249	249	248	250	256	256	254	250	250	249	250	251	248	249	250	250	248	251	256	256	252	251	250	250	248	248	253	257	258	259	254	254	257	252	254	251	252	249	250	248	248	246	244	244	244	251	249	250	252	252	252	252	254	255	255	254	250	253	253	258	262	263	260	259	260	260	256	250	250	248	248	246	247	253	255	257	256	256	255	255	255	254	255	252	254	255	253	253	253	253	254	252	255	254	254	254	254	254	256	259	258	256	252	253	253	252	252	251	258	259	252	248	247	246	249	250	255	255	255	259	258	255	255	255	255	256	260	262	261	263	264	265	263	263	261	264	261	257	254	256	260	259	255	251	255	255	257	257	258	259	259	259	259	257	258	260	261	259	259	259	261	263	263	265	259	259	261	261	260	259	259	258	260	260	259	257	259	263	264	263	262	261	260	257	260	262	265	265	258	259	262	262	262	262	259	258	260	263	262	261	261	263	264	264	264	263	263	263	264	263	263	264	264	263	262	259	257	262	258	259	263	263	264	265	264	266	269	271	269	265	261	261	264	262	267	268	261	262	262	263	266	267	266	265	265	262	263	262	262	265	262	265	265	265	264	262	264	261	260	261	262	258	258	257	259	261	262	266	267	268	268	274	272	271	270	268	266	265	262	263	261	254	255	256	259	259	269	268	267	266	266	266	266	268	268	267	263	262	260	258	260	264	264	263	261	261	260	260	261	265	265	264	262	260	258	257	259	259	259	259	260	260	261	265	265	264	261	265	261	259	261	262	263	269	264	258	260	265	261	261	262	264	262	258	258	260	260	259	260	260	259	262	262	260	256	257	256	255	256	261	259	258	260	259	263	265	260	260	272	268	260	259	260	260	260	257	260	260	256	253	258	257	259	258	258	252	255	255	259	262	260	256	253	0	0	0	0	0	0	0	0	0	259	261	258	258	253	253	253	253	255	258	259	259	258	255	252	255	257	258	258	256	255	255	258	255	252	256	258	258	258	259	253	252	252	254	254	253	253	253	251	252	252	252	256	257	257	257	257	256	256	257	255	254	255	255	256	254	254	254	255	254	253	253	251	249	250	250	251	252	252	252	244	245	248	249	250	250	247	247	246	248	247	249	250	246	248	249	249	251	251	248	245	240	240	239	245	245	247	245	250	254	257	254	247	250	250	248	248	0	0	0	0	0	0	250	249	248	249	248	247	249	249	251	253	253	247	243	244	244	247	252	252	250	251	251	251	252	251	250	247	245	246	246	247	247	251	252	252	250	250	250	248	245	244	243	243	241	248	248	245	244	244	244	247	246	244	243	238	238	241	241	237	246	246	243	243	241	239	241	241	236	240	243	248	250	250	247	240	239	238	238	238
248	247	244	245	245	248	254	253	250	246	246	246	243	244	244	245	245	245	248	252	254	254	254	255	254	260	259	253	252	250	253	255	263	257	254	254	253	256	256	250	251	251	253	254	258	251	248	248	248	245	246	249	254	251	248	248	247	249	249	248	249	248	246	246	248	250	251	249	248	247	247	247	248	252	256	256	253	254	257	251	255	254	253	251	250	247	242	242	243	246	245	247	249	251	252	252	252	252	250	253	256	257	256	250	254	254	254	258	259	259	258	256	254	254	252	248	248	248	248	248	255	255	256	255	250	253	254	254	254	252	254	255	250	249	247	248	252	252	252	255	252	252	253	255	255	253	255	255	255	256	259	259	253	251	248	252	255	253	252	247	246	247	250	255	255	253	256	258	257	257	254	254	256	259	262	264	261	259	258	258	258	258	259	255	256	253	256	259	259	256	251	253	255	257	257	260	260	259	259	261	260	258	258	259	260	258	258	258	261	261	262	260	260	261	261	260	259	258	258	261	261	258	258	259	260	263	263	262	261	260	257	260	262	264	261	259	260	263	262	260	258	258	257	256	256	261	263	261	262	264	264	262	261	260	261	261	261	260	262	263	263	261	258	257	260	257	253	258	258	261	264	264	264	268	268	270	266	263	261	262	265	267	267	264	262	259	261	263	263	265	265	263	264	262	264	263	263	262	261	261	263	263	263	263	265	264	262	262	263	261	259	259	262	263	264	264	265	266	270	267	265	263	267	267	264	261	260	257	259	259	259	258	258	261	264	265	262	261	261	266	267	268	266	262	261	260	257	260	264	265	263	262	262	260	258	257	258	260	262	262	259	251	254	255	255	256	259	259	261	261	261	265	261	260	260	260	261	262	262	260	262	257	261	260	260	260	264	265	267	265	263	263	259	257	255	259	258	261	262	262	260	256	256	257	255	255	257	258	257	257	258	256	261	264	264	266	267	260	260	257	261	257	256	255	256	254	255	258	255	252	252	253	251	253	253	257	260	260	256	253	254	258	259	259	258	256	254	253	255	257	259	259	262	258	255	256	254	253	254	253	254	254	257	255	256	256	257	258	256	255	256	256	253	251	253	258	259	260	258	255	255	250	248	247	246	246	246	246	249	250	251	256	257	257	255	257	256	257	258	256	255	255	255	261	255	255	258	254	253	252	251	249	246	250	250	250	251	253	249	246	244	246	246	247	246	246	247	249	248	246	245	245	244	245	249	249	251	250	247	244	241	240	245	247	247	247	246	244	250	251	246	245	247	250	250	0	0	0	0	0	0	0	0	249	249	249	247	248	248	249	251	253	253	251	245	242	242	241	246	250	250	250	250	250	251	248	250	247	245	245	245	246	246	247	250	251	251	249	247	245	245	245	244	243	241	242	246	244	242	242	242	242	244	240	236	236	240	241	241	237	236	236	237	240	240	239	239	239	236	235	240	247	247	250	247	246	241	237	237	238
247	249	250	252	257	257	258	254	253	254	254	251	248	244	244	245	245	249	254	256	256	255	255	255	253	256	257	252	250	250	249	256	259	256	253	253	251	249	249	250	253	254	254	256	258	251	249	250	245	245	242	246	251	250	248	246	246	248	245	245	247	248	246	246	247	248	248	247	248	247	246	246	246	251	255	254	250	249	251	251	255	254	252	250	247	244	245	246	246	247	251	252	254	256	255	250	250	250	250	253	253	256	257	256	253	257	257	257	255	250	250	250	253	256	251	249	249	248	248	248	255	255	250	250	253	254	255	255	255	255	254	252	249	245	245	247	254	254	254	254	252	252	257	256	254	251	250	251	252	253	252	255	255	252	250	247	251	251	253	250	250	250	248	252	253	256	256	258	250	254	256	257	257	258	261	264	264	259	258	257	258	258	254	253	254	254	258	259	258	256	250	253	254	256	257	260	260	259	259	256	256	259	263	265	257	256	257	258	260	259	254	259	261	261	262	261	260	260	260	261	261	258	259	260	257	260	261	261	261	261	258	259	263	264	261	259	260	263	262	262	260	260	259	263	260	260	262	262	262	263	264	262	260	259	260	260	260	259	261	260	261	260	257	258	258	254	254	255	255	260	261	260	267	268	264	263	265	263	262	264	265	263	265	264	261	255	258	262	261	263	263	264	261	261	261	260	260	260	261	261	264	264	262	268	270	268	262	260	262	262	260	261	266	268	267	261	261	263	264	264	262	264	265	260	262	261	260	263	262	261	261	261	261	261	261	262	262	261	266	262	262	265	264	262	258	258	258	259	263	265	265	263	264	260	257	258	261	264	266	264	261	259	257	257	257	257	259	259	260	260	259	258	259	259	258	259	258	258	261	260	256	261	261	259	256	269	261	266	267	267	267	263	255	254	255	259	258	261	262	262	260	256	255	258	255	256	254	258	255	255	254	253	254	254	255	262	261	260	259	256	261	264	255	256	256	257	258	255	257	253	254	254	255	255	253	257	260	263	255	254	254	255	255	256	253	253	254	253	253	256	256	259	260	259	258	256	253	252	252	248	250	255	253	252	256	256	256	257	259	257	257	254	255	252	253	255	258	260	258	255	255	251	248	246	246	245	249	250	249	250	251	252	252	255	252	256	259	260	258	253	253	254	255	256	256	258	254	251	249	248	246	249	246	249	250	250	251	249	249	247	246	247	245	245	245	245	246	248	247	245	246	244	244	245	245	249	250	249	247	243	244	243	244	244	247	249	246	243	245	250	246	245	245	248	0	0	0	0	0	0	0	0	0	250	250	249	247	246	248	249	249	252	254	250	246	246	244	241	242	246	246	244	244	244	243	248	250	246	245	245	243	245	244	245	246	250	250	247	246	245	244	245	245	244	243	247	247	244	243	243	243	242	243	241	237	237	240	241	240	237	237	237	238	239	239	239	239	237	235	236	240	247	247	248	247	244	240	240	238	237
247	249	252	253	254	254	256	255	253	251	249	249	248	244	243	245	249	251	254	259	259	256	253	253	253	248	250	248	249	249	249	256	253	255	253	251	251	248	250	252	257	258	258	252	250	248	249	250	245	245	245	247	250	252	249	247	247	244	244	244	245	245	246	247	247	248	248	247	248	248	247	247	247	247	250	253	253	248	244	253	253	254	252	249	248	247	248	248	248	250	251	250	255	251	244	244	248	248	247	250	253	256	252	253	250	250	251	251	249	248	249	251	254	256	253	251	250	250	248	249	255	255	250	253	255	256	256	256	256	254	251	250	249	248	249	251	254	253	255	255	255	254	257	256	254	251	250	250	251	249	249	250	250	253	251	250	242	251	248	248	248	247	247	250	247	249	249	250	250	254	254	254	252	252	254	260	261	261	258	253	252	253	253	252	252	258	260	259	258	252	251	253	254	254	255	255	256	259	256	256	256	252	261	260	257	259	256	256	257	257	254	258	262	262	262	260	259	258	258	258	255	258	257	259	261	258	259	258	261	262	259	263	261	260	256	252	253	259	262	262	260	259	259	263	265	265	264	266	265	263	263	264	261	258	258	259	259	258	258	255	255	257	257	256	257	258	256	257	259	259	261	264	265	263	260	260	263	261	261	262	262	264	264	261	260	260	261	264	261	264	263	260	259	256	258	259	256	259	259	261	261	262	266	265	261	260	259	259	262	262	260	260	260	263	264	259	261	259	254	255	259	260	261	256	260	260	264	265	262	257	259	260	260	260	258	255	256	256	259	258	254	258	260	257	256	258	259	262	264	265	265	265	262	262	259	258	262	261	262	264	261	260	257	257	257	258	260	261	262	259	256	255	257	259	258	258	259	260	259	259	261	259	262	260	256	270	261	265	271	267	267	263	255	254	254	254	252	257	259	261	260	259	261	259	254	253	253	253	253	253	253	251	257	257	258	254	261	260	258	255	262	258	254	257	257	254	254	257	254	257	254	254	255	255	254	254	258	257	255	253	252	250	253	253	251	253	253	256	256	256	256	0	0	0	0	0	0	0	251	246	253	255	253	252	251	251	252	254	255	256	256	255	253	251	253	254	257	258	258	258	257	251	249	244	245	249	249	250	249	251	250	251	251	249	249	249	254	255	254	253	252	251	252	255	255	251	250	249	248	248	246	245	245	246	246	248	248	248	248	248	247	245	244	244	244	247	245	247	247	245	246	244	241	241	241	246	247	246	249	248	250	250	245	245	248	248	249	245	245	250	245	243	243	246	0	0	0	0	0	0	0	0	254	252	248	249	247	247	246	249	249	250	250	249	247	247	245	243	243	242	242	241	241	244	243	243	245	241	242	242	241	240	242	244	245	247	247	247	245	245	244	243	243	244	244	247	249	247	247	246	242	238	240	241	241	237	238	241	242	244	244	245	244	242	241	239	239	235	238	236	240	244	244	243	241	240	243	243	240	240
251	251	252	253	254	254	256	253	250	250	248	248	249	249	247	246	251	251	254	259	258	256	256	256	254	249	246	251	248	248	247	252	253	255	255	255	255	254	255	257	258	254	250	250	249	251	251	248	245	245	245	249	249	253	249	244	243	243	242	241	243	246	248	248	248	248	248	249	248	247	246	246	246	247	246	249	252	244	246	247	247	248	250	249	248	248	249	250	254	254	250	249	246	250	251	245	246	247	247	247	248	251	252	253	247	250	251	251	250	250	252	252	256	251	250	249	251	251	251	250	253	251	250	253	255	252	253	254	254	253	254	253	251	246	246	248	249	253	255	256	256	255	250	251	253	251	250	250	248	247	249	250	251	251	251	251	247	241	244	245	248	248	252	248	250	251	252	252	252	254	254	254	252	251	253	254	254	254	254	251	251	254	254	254	254	255	259	260	255	254	254	253	254	251	253	251	249	248	247	247	251	252	261	260	259	255	257	257	254	255	254	257	258	262	262	260	258	258	255	255	254	255	255	256	261	256	254	256	258	261	259	259	260	257	257	257	258	257	262	259	260	262	262	263	265	265	264	266	266	263	263	262	263	261	259	258	255	253	252	253	254	255	253	254	258	259	259	261	260	260	261	265	262	262	259	259	260	260	259	258	264	266	266	264	260	261	266	268	266	264	264	263	260	258	255	255	256	258	260	263	263	267	265	264	262	261	260	260	261	261	262	262	261	258	261	261	264	258	255	255	258	260	261	259	259	260	264	262	256	261	256	255	255	256	256	256	257	260	259	258	250	253	258	258	259	258	261	262	263	264	265	264	262	261	259	259	260	258	260	263	262	259	259	256	257	259	259	260	260	255	251	252	255	256	259	259	260	261	262	258	260	260	260	262	256	270	261	265	271	271	265	255	258	255	255	252	251	254	256	259	261	261	259	253	252	253	253	251	253	255	253	253	253	253	260	264	253	261	254	263	255	261	263	258	256	254	254	257	254	257	256	255	255	254	255	253	256	258	257	252	251	251	252	252	250	251	253	0	0	0	0	0	0	0	0	0	0	0	251	246	253	252	252	251	251	251	249	246	248	251	251	249	247	249	248	250	250	252	252	252	248	245	245	245	245	249	251	250	250	248	248	248	250	250	250	250	245	248	253	251	250	250	250	250	249	247	249	249	248	248	245	244	247	245	245	247	248	248	250	252	251	244	243	245	245	246	244	247	247	246	244	245	241	241	240	241	243	246	247	251	251	252	252	252	250	248	249	245	243	246	244	244	244	244	244	245	244	245	245	245	254	256	257	252	248	249	247	247	248	248	249	252	251	247	247	247	245	241	244	244	243	241	241	243	244	243	241	240	235	235	234	235	238	242	244	244	246	247	245	244	243	242	242	242	243	243	245	247	247	245	242	241	240	241	241	240	240	241	243	244	244	245	243	243	242	237	237	235	238	246	246	246	242	241	241	245	245	245	243	240
249	250	251	251	254	256	251	252	251	250	250	250	250	251	252	250	252	252	253	259	256	256	258	253	253	248	249	247	245	246	246	248	250	253	255	255	244	242	243	244	247	245	246	246	249	251	248	246	244	245	245	249	251	248	245	243	242	242	242	240	243	244	245	247	249	249	250	249	248	245	246	246	246	246	245	245	248	248	242	243	244	244	243	245	250	248	249	241	244	244	249	251	256	255	252	250	247	246	246	244	244	246	246	247	247	250	251	248	248	248	251	253	249	248	250	249	248	247	247	250	250	249	252	255	256	252	253	249	250	250	253	253	247	247	246	246	250	253	253	252	250	250	249	249	252	254	250	250	248	247	247	249	250	250	250	250	249	249	250	250	255	254	251	250	251	252	254	254	253	254	253	254	253	251	253	254	254	254	255	255	255	256	255	255	254	253	255	256	257	255	254	253	253	255	253	250	247	247	247	249	249	250	252	260	259	255	257	257	252	252	256	256	256	260	261	257	257	256	250	252	252	253	255	256	257	254	252	252	255	260	259	257	257	259	261	258	258	260	258	258	257	258	262	262	264	268	268	267	266	263	263	262	263	259	260	260	259	257	254	252	252	252	253	253	259	258	260	261	262	262	262	262	260	260	258	258	258	258	257	258	260	260	258	257	259	264	268	269	264	262	263	263	260	260	260	258	257	260	262	265	265	266	264	263	263	262	260	260	259	261	263	263	262	259	260	261	261	258	255	259	260	259	260	260	261	261	260	260	261	260	259	259	259	258	258	259	256	255	260	258	256	260	259	254	259	260	259	262	263	264	265	260	261	261	260	259	256	258	260	261	256	255	255	255	256	260	259	259	260	259	258	255	254	254	253	258	260	262	262	258	260	260	260	262	260	252	262	263	270	270	263	255	255	255	256	256	255	253	257	259	259	260	253	253	251	252	253	254	255	257	253	255	255	257	261	260	264	258	248	249	254	253	259	257	256	254	254	257	257	257	256	256	256	255	253	257	258	258	256	253	254	253	252	251	252	254	0	0	0	0	0	0	0	0	0	0	0	0	0	250	246	252	251	252	252	255	253	249	250	250	250	249	249	246	246	248	250	253	253	252	247	246	245	245	250	251	251	249	251	251	248	248	248	250	248	246	247	248	248	242	251	251	251	252	249	247	249	248	248	248	246	246	248	248	250	249	249	249	251	250	247	244	243	243	244	246	244	246	246	244	244	245	241	241	239	240	243	245	246	249	249	248	248	249	250	248	248	248	245	244	250	250	245	245	246	248	245	245	249	249	254	253	257	252	247	247	246	246	245	244	248	252	249	242	242	241	241	244	245	244	243	243	240	243	244	241	241	237	237	234	234	237	238	240	239	244	246	246	246	244	244	244	243	242	246	244	244	243	243	241	242	241	241	240	240	242	242	243	242	241	241	240	239	238	236	242	237	237	241	239	243	243	243	244	246	248	248	245	242	242
249	249	248	250	251	251	251	248	251	250	249	250	250	251	255	255	252	256	256	258	256	256	258	252	252	249	245	246	247	246	246	246	242	243	242	244	242	242	239	240	243	246	249	249	250	247	244	242	243	244	244	249	251	248	246	243	243	243	243	243	243	246	244	246	248	248	250	248	245	245	246	247	245	245	243	244	246	246	244	248	244	244	244	244	250	249	245	241	244	248	248	250	254	254	254	249	245	242	246	246	244	243	244	246	247	249	251	248	246	248	249	246	241	245	246	247	250	250	252	252	251	252	257	256	249	251	248	249	250	249	253	253	246	246	246	246	249	252	252	251	250	250	249	255	257	251	246	244	246	245	247	249	249	249	249	250	250	253	253	251	252	254	250	249	250	254	255	254	254	255	255	254	253	252	253	254	254	254	255	254	255	256	255	255	256	255	259	260	258	255	254	253	253	254	253	252	253	254	254	252	252	252	252	253	251	252	256	258	252	252	256	255	256	257	261	256	256	249	248	250	250	252	255	256	257	252	249	250	252	256	257	258	259	261	261	257	257	258	258	256	255	257	258	258	261	262	262	266	268	264	261	258	256	259	260	260	259	257	254	250	247	248	251	257	260	258	259	261	263	262	262	262	260	260	261	259	257	257	257	258	257	257	253	252	255	259	261	264	263	261	259	257	257	258	258	259	258	259	261	265	265	266	265	263	265	261	260	262	261	261	261	262	260	260	261	260	261	259	257	256	256	255	257	257	260	258	258	261	261	260	259	258	258	258	259	261	261	256	253	254	258	258	257	253	255	257	254	256	255	263	262	260	259	260	257	258	256	258	258	258	258	256	256	261	259	257	258	259	259	259	260	264	264	254	253	258	260	262	253	255	255	258	259	259	249	252	261	268	268	262	260	258	255	256	258	259	258	258	260	259	258	259	255	252	251	253	254	253	254	257	255	255	257	260	259	259	259	257	254	248	254	253	259	257	255	253	254	257	254	257	256	256	254	254	261	260	260	258	255	254	253	254	251	252	252	253	0	0	0	0	0	0	0	0	0	0	0	0	0	249	247	250	250	248	248	252	252	252	251	251	252	251	251	249	248	249	251	253	253	252	247	246	244	245	248	249	249	250	249	248	248	248	250	248	247	246	245	246	247	246	248	250	251	252	248	246	246	247	248	247	248	248	250	250	253	252	251	251	248	248	246	244	243	243	244	245	244	243	242	240	242	244	241	241	240	241	241	243	246	246	247	243	248	249	247	248	250	245	243	242	242	250	0	0	0	246	245	245	245	251	254	253	256	250	242	243	243	244	244	243	248	248	240	240	240	244	243	244	245	245	245	245	243	244	244	240	243	238	238	234	233	237	238	240	240	239	241	243	244	244	243	243	242	240	248	247	239	239	235	241	241	241	240	240	242	245	244	243	242	242	241	240	239	238	236	236	237	238	239	241	241	243	244	248	249	248	248	244	242	242
246	246	245	245	245	246	248	248	251	251	249	249	249	252	258	258	253	254	254	254	255	257	258	252	248	250	247	247	245	248	246	246	242	239	240	239	238	238	239	240	243	245	245	246	246	245	244	241	244	245	251	251	249	248	246	243	246	246	246	246	247	244	240	242	242	242	242	242	244	250	246	247	245	250	246	244	243	244	244	246	249	245	245	250	252	247	239	243	245	248	248	249	251	253	248	250	246	250	250	250	250	246	242	243	245	246	245	246	248	248	249	236	238	240	245	248	252	251	250	250	251	252	253	250	249	249	250	249	249	253	253	251	248	244	247	250	253	253	251	251	252	253	253	254	251	250	246	247	247	249	250	249	249	249	249	252	252	250	250	251	250	247	246	250	252	252	252	253	253	254	253	254	253	252	253	254	254	254	255	254	255	256	256	255	255	254	254	255	252	253	254	253	253	250	252	253	255	256	257	256	252	252	252	253	250	250	254	256	252	255	255	255	256	257	261	259	256	254	252	250	249	249	249	255	255	250	248	249	251	252	253	256	259	256	256	256	257	258	258	258	256	255	256	257	257	257	255	257	255	255	259	255	252	256	258	259	258	257	252	250	247	248	251	257	260	258	259	261	262	263	263	261	257	256	262	259	259	257	255	255	257	257	258	257	255	254	253	252	258	259	258	256	256	256	255	257	258	260	262	262	262	264	264	263	260	259	259	263	263	261	259	260	258	259	261	259	259	258	258	256	256	255	256	257	258	259	258	260	257	258	258	257	257	258	258	259	259	258	257	256	255	258	258	258	253	255	256	253	254	255	256	258	256	256	252	254	253	255	258	256	253	253	256	259	255	258	258	259	259	259	260	264	264	264	259	256	251	252	252	252	252	250	250	248	248	255	261	260	260	259	259	255	257	257	258	257	258	257	259	257	256	257	256	251	250	250	247	251	252	254	254	254	257	258	259	259	254	257	254	248	251	252	254	254	254	254	255	255	252	253	253	249	255	258	259	258	257	258	254	253	254	253	252	252	252	253	255	0	0	0	0	0	0	0	0	0	0	0	252	256	254	248	248	248	248	249	248	249	249	248	247	245	247	249	250	250	251	251	253	251	243	242	244	247	244	247	247	246	250	250	250	251	250	246	245	245	244	246	248	250	248	248	250	249	249	247	245	246	249	248	246	247	247	248	252	253	253	252	244	244	244	244	244	243	243	245	244	244	243	240	239	241	241	242	240	240	240	240	240	240	247	247	243	245	248	248	246	241	243	243	243	244	0	0	0	242	243	245	245	251	249	242	248	246	243	243	243	245	244	243	242	237	239	239	241	244	243	242	244	246	246	247	246	243	242	239	239	239	240	239	238	237	238	240	240	239	240	241	242	243	243	241	236	248	240	250	242	239	235	234	237	240	239	239	241	245	244	246	242	242	242	241	239	239	239	239	239	239	240	242	242	242	244	246	245	245	248	244	242	243
246	246	244	254	256	255	255	255	253	251	249	250	255	255	264	264	260	254	248	248	245	244	247	248	250	250	249	248	245	248	248	248	243	238	237	238	239	242	242	243	243	245	243	245	245	245	242	241	248	252	250	250	245	247	248	247	246	246	244	244	239	243	243	241	242	241	241	246	250	249	252	252	250	246	246	243	242	244	242	245	249	249	249	250	249	245	243	243	245	246	249	249	251	254	253	249	250	251	249	249	249	246	245	246	246	242	244	245	245	245	241	236	238	245	251	252	253	251	248	249	249	250	249	250	250	248	246	248	248	250	250	251	248	244	254	256	257	252	247	247	246	246	246	250	252	254	248	245	249	252	254	250	249	249	252	252	252	250	252	253	252	251	247	250	250	251	251	252	252	252	252	253	254	252	252	253	253	255	254	254	257	258	256	255	255	253	250	249	252	253	252	254	253	252	253	252	254	257	258	258	255	255	255	252	251	250	250	256	255	255	256	256	255	254	261	259	256	254	252	250	248	248	248	253	252	251	249	248	251	250	251	257	257	255	255	255	256	257	256	255	255	256	251	251	251	252	255	257	254	250	253	253	251	254	253	255	254	251	247	246	246	248	253	257	259	258	259	261	262	263	261	261	257	257	259	259	259	258	260	260	262	260	260	259	258	256	256	253	256	258	259	257	256	255	255	257	256	260	260	261	261	261	259	260	259	258	260	261	259	259	256	255	254	258	258	259	257	258	258	254	256	255	255	257	259	260	260	260	256	253	254	254	254	257	259	259	258	258	257	255	254	255	257	258	254	254	254	253	254	255	256	256	255	251	251	252	253	253	258	256	253	253	256	259	255	258	258	259	258	258	263	264	264	262	258	256	258	255	254	250	249	249	248	250	254	257	258	258	258	259	259	253	254	256	255	256	256	257	257	255	252	252	256	254	250	250	246	250	252	253	253	253	254	258	259	259	254	254	256	252	252	251	252	254	255	254	253	251	250	245	245	252	251	252	253	255	255	255	252	254	256	252	252	253	253	255	256	255	0	0	0	0	0	250	252	253	252	249	245	248	247	248	248	248	248	249	248	247	247	247	245	245	245	247	250	250	249	249	247	247	243	243	242	244	245	244	245	246	247	247	249	248	246	247	246	245	245	246	248	250	251	251	248	248	248	248	248	249	253	243	243	242	242	244	250	251	252	244	244	244	244	243	243	242	242	243	244	246	245	243	239	241	241	242	246	246	250	239	240	240	240	240	242	241	246	246	243	242	243	243	242	243	0	0	0	0	243	243	245	245	242	245	242	241	244	244	241	239	241	246	239	240	240	239	241	243	242	244	244	246	246	249	245	241	239	236	236	236	240	239	238	237	239	240	240	240	238	240	241	241	241	233	233	238	248	250	250	242	239	233	240	239	239	238	238	242	242	244	244	243	242	241	240	239	239	239	239	241	244	243	243	243	242	241	245	245	245	242	240	241
246	251	251	256	255	254	254	254	253	252	250	250	255	260	262	261	251	245	248	248	246	247	247	250	252	252	249	248	248	250	249	244	244	239	238	238	239	240	240	240	241	242	243	245	244	244	241	242	250	250	248	245	245	242	247	248	246	245	244	244	237	239	240	240	245	246	246	245	245	248	245	246	248	249	249	243	242	242	242	247	246	247	248	248	248	247	244	247	250	250	250	250	253	254	253	246	244	247	245	243	243	246	247	249	249	247	250	248	242	240	240	239	239	245	251	251	251	247	247	247	247	249	247	248	248	246	246	247	247	247	249	249	250	251	254	256	250	252	246	243	244	249	253	253	255	256	240	239	244	249	255	256	253	252	252	252	250	250	252	253	253	251	250	250	250	251	251	252	252	252	250	248	249	253	252	254	253	253	252	256	258	257	252	254	253	253	250	249	252	253	251	251	252	255	258	258	256	252	251	252	254	252	252	250	250	250	256	254	257	258	257	258	257	257	255	255	257	253	252	250	248	248	252	252	250	252	252	254	252	249	251	256	255	255	253	254	254	254	254	251	253	253	253	255	255	255	256	258	258	256	255	253	250	251	253	253	253	252	252	253	250	250	252	256	256	256	257	258	258	257	257	257	256	257	259	259	259	258	260	260	262	260	254	256	257	258	256	255	256	259	259	257	258	257	255	256	254	256	257	259	259	259	258	259	259	259	257	256	256	256	258	254	256	256	256	257	260	260	259	254	252	254	255	256	258	254	255	254	253	252	252	252	252	254	255	258	258	258	257	257	256	257	256	256	255	255	254	255	254	255	256	256	255	251	251	252	253	253	256	255	256	256	255	257	255	256	257	258	257	258	261	263	261	261	257	256	257	254	253	251	252	251	249	251	254	259	259	259	259	259	256	255	251	252	251	256	256	258	253	252	251	255	255	254	252	251	252	251	252	253	253	253	254	253	256	255	251	252	255	252	252	252	251	256	255	253	251	249	247	247	243	245	249	250	249	253	254	254	252	247	251	254	251	254	253	255	256	256	252	251	251	255	251	248	250	251	252	251	250	249	248	250	250	249	249	246	247	246	247	245	246	245	245	247	249	249	249	248	249	249	248	246	246	243	244	245	245	245	246	246	248	247	245	247	246	245	245	247	249	248	248	249	248	248	246	248	251	253	245	241	241	241	242	243	247	248	252	244	244	244	246	246	244	242	242	242	243	244	242	244	245	245	246	245	246	244	250	239	239	240	240	239	240	242	239	244	246	241	244	244	243	241	0	0	0	0	242	242	243	243	243	242	239	240	240	240	239	244	246	243	241	240	240	240	240	245	244	244	245	245	247	249	242	240	236	232	232	236	240	239	238	239	238	238	240	240	238	239	245	242	242	233	232	238	248	245	245	245	244	237	235	241	241	241	236	236	240	241	244	243	242	243	242	239	239	238	239	239	241	241	245	244	242	241	240	240	239	236	236	236
246	246	246	247	248	246	249	248	248	249	252	255	260	262	262	245	240	243	242	246	246	250	249	251	249	246	246	248	248	250	248	244	244	241	238	237	238	238	238	239	241	241	243	243	244	244	241	246	248	248	246	243	243	240	239	243	241	241	240	240	237	239	237	241	245	246	246	246	244	245	244	246	244	246	247	247	241	242	242	244	245	245	245	245	245	248	248	248	247	254	248	244	244	244	245	246	244	247	245	246	246	246	246	252	248	248	248	244	240	242	242	240	242	245	247	251	251	244	242	243	247	247	246	245	245	243	245	245	245	243	246	246	248	249	250	250	250	252	246	248	247	252	254	254	255	252	246	245	242	246	250	252	252	253	252	250	250	252	253	254	253	251	250	249	250	249	252	252	251	248	248	247	248	249	249	252	251	249	247	253	258	249	249	251	249	249	246	248	252	253	251	250	251	253	258	257	255	251	249	249	249	249	249	249	250	251	254	254	253	258	259	256	254	253	253	253	255	254	253	250	250	252	252	252	250	252	254	255	255	252	254	254	254	255	254	253	251	250	249	249	250	252	255	256	256	256	255	256	256	255	255	253	253	250	250	252	251	248	248	248	251	252	252	254	254	254	254	254	254	253	253	253	254	254	256	257	257	257	258	258	256	254	254	256	257	258	256	255	256	259	259	257	258	257	255	256	254	254	253	253	253	255	257	257	259	258	258	257	259	259	262	258	255	256	256	255	256	258	255	255	252	255	257	257	259	258	258	258	257	250	251	251	255	255	255	256	258	258	257	257	256	257	256	256	255	255	254	255	254	254	254	255	253	249	253	255	257	254	252	251	251	253	251	249	255	254	257	258	257	254	257	260	261	257	255	254	253	253	254	253	253	248	249	251	252	254	254	256	259	257	255	255	257	256	254	252	252	252	252	252	254	254	253	252	250	251	252	251	252	252	253	254	255	254	257	254	251	251	256	254	253	251	256	253	259	251	246	247	245	245	242	244	244	249	250	250	254	253	253	251	249	254	251	254	256	257	257	252	251	250	253	256	252	246	245	245	248	250	255	249	249	250	250	247	246	246	245	244	245	245	246	246	246	249	249	249	249	248	248	248	248	245	244	242	246	248	245	246	246	246	246	245	245	247	246	247	247	247	247	245	245	244	247	245	247	248	250	248	240	237	238	238	241	243	247	248	246	244	244	247	246	246	244	242	242	241	243	243	243	244	246	246	245	244	246	244	243	244	240	240	240	241	241	242	241	242	239	243	243	239	237	238	0	0	0	0	0	0	0	243	239	237	241	244	244	242	239	238	241	243	241	240	240	238	241	241	242	242	242	242	248	243	243	241	237	232	232	233	236	240	239	237	237	237	237	239	238	240	245	245	242	233	232	238	243	243	243	246	245	244	241	238	238	235	234	235	240	241	241	242	242	243	240	240	237	235	235	237	237	237	245	244	242	239	239	239	239	237	235	235
249	246	247	245	242	238	241	245	245	249	253	252	248	246	246	245	240	240	242	247	247	248	249	249	242	242	242	246	246	247	248	244	243	240	239	237	237	237	239	239	240	240	241	243	243	241	241	246	247	244	243	241	242	242	243	244	244	245	242	238	238	237	237	241	245	246	245	245	245	246	247	244	244	243	238	238	238	242	242	244	245	244	242	242	246	248	249	243	238	241	248	249	249	246	245	245	244	244	245	246	245	245	246	247	245	241	242	243	244	238	237	237	237	245	245	243	245	244	242	243	247	247	246	244	244	244	242	243	243	244	247	248	248	245	245	246	247	254	253	248	247	249	250	250	250	251	249	246	244	246	249	251	249	248	248	248	250	250	251	251	252	251	251	249	250	249	250	250	249	247	247	250	249	249	250	250	248	244	250	251	256	249	248	247	248	247	247	246	244	247	248	250	251	253	252	251	249	249	248	249	247	248	249	249	250	251	253	254	259	256	256	254	253	253	251	252	252	252	254	252	252	254	251	251	250	251	254	255	255	252	254	254	253	253	253	250	250	249	248	247	249	253	257	256	254	255	255	254	252	251	254	252	251	250	249	250	249	247	247	251	252	252	254	252	252	252	251	252	251	250	250	251	251	252	253	254	257	257	258	257	255	254	253	252	254	257	256	255	258	258	257	257	258	257	257	256	254	254	253	253	255	255	257	257	259	258	258	257	259	259	262	258	255	256	256	255	256	258	255	255	252	255	257	257	259	258	258	258	257	250	251	251	255	255	255	256	256	255	254	255	256	256	257	255	253	253	253	254	252	253	252	250	256	253	252	253	252	252	254	249	249	249	251	248	248	250	252	254	253	251	254	256	258	257	256	252	250	250	252	251	248	248	249	251	250	251	251	252	254	251	252	253	256	256	255	251	252	252	255	253	254	254	253	252	250	252	253	253	254	254	257	259	258	258	258	256	255	250	247	254	254	252	252	256	251	248	246	247	247	250	246	244	244	245	247	250	253	253	253	251	249	249	254	254	252	252	252	249	245	248	250	250	250	252	251	250	246	247	246	247	248	248	249	246	245	246	245	244	245	246	246	246	244	244	246	246	248	247	245	247	247	246	244	243	249	248	246	244	244	244	246	245	245	245	245	245	248	248	247	247	243	243	243	246	247	249	247	243	243	244	244	244	241	243	247	248	243	246	245	246	246	245	243	242	241	240	240	242	240	244	244	246	245	244	245	245	243	245	240	240	243	242	243	246	243	238	239	240	240	240	237	238	244	244	242	0	0	0	0	243	240	237	237	237	237	238	242	238	241	242	240	240	237	236	237	240	242	244	242	242	243	241	242	241	237	233	233	234	235	233	232	236	236	234	236	235	239	240	244	245	242	235	232	238	243	243	244	241	242	242	243	243	240	236	234	235	237	237	240	243	242	241	240	240	235	235	235	236	237	237	240	240	242	240	240	237	233	233	232	232
247	244	245	245	242	234	236	244	250	250	246	245	245	243	243	236	239	240	242	245	245	245	245	244	241	239	239	241	241	246	245	243	240	240	241	238	239	239	238	238	239	240	244	243	243	243	243	244	247	244	242	241	243	243	245	246	246	247	244	240	240	238	238	242	245	246	244	248	248	247	245	244	241	242	243	244	244	244	244	245	245	244	242	246	241	242	242	241	237	241	248	249	248	248	249	249	244	244	247	246	245	246	243	244	245	246	245	242	244	240	238	238	239	241	245	243	240	239	240	242	247	246	246	244	245	245	242	243	242	243	246	249	249	250	249	249	250	251	254	250	249	249	250	250	251	249	248	248	246	246	249	248	245	245	245	244	245	245	246	250	251	248	246	248	249	249	250	250	248	249	249	249	249	251	249	251	247	242	247	249	252	253	251	247	246	246	246	243	242	243	244	246	246	250	252	251	249	247	245	246	247	247	249	250	250	249	252	254	257	256	257	252	252	253	253	250	250	249	250	250	250	253	252	252	252	248	249	254	255	254	255	254	253	253	253	249	247	247	248	250	248	255	256	256	253	253	253	254	252	251	248	249	249	249	249	250	249	248	246	248	253	251	253	251	249	250	248	251	249	250	250	252	252	253	253	254	256	256	257	257	258	259	259	254	254	253	256	260	260	259	253	251	252	253	258	256	256	254	252	252	251	251	254	257	259	258	257	257	261	262	261	258	254	257	253	254	254	255	255	250	254	254	254	257	260	259	254	253	253	254	254	254	252	256	254	253	251	249	247	247	256	257	253	251	249	247	251	251	253	248	249	253	251	251	250	247	249	251	251	250	250	248	248	249	249	252	252	253	253	250	253	255	252	251	252	252	251	252	252	251	248	248	248	246	250	250	250	251	252	251	247	247	249	254	253	253	252	252	255	253	254	253	251	248	249	253	256	254	254	256	257	256	256	257	257	259	259	255	252	254	254	252	251	252	250	247	246	249	249	250	252	249	243	245	247	250	253	253	253	251	247	248	251	250	250	250	249	248	247	249	247	250	250	250	249	247	242	246	246	249	249	244	243	246	245	246	245	246	245	247	245	244	243	245	245	249	252	251	248	249	249	249	246	244	246	248	244	244	244	244	243	243	243	243	240	241	246	248	246	246	242	243	243	246	246	242	241	242	241	244	244	244	241	244	247	245	245	241	245	244	244	242	242	243	242	241	241	240	240	244	244	246	244	245	244	243	244	241	244	244	243	245	250	246	243	242	243	243	240	240	238	238	241	244	244	243	243	243	243	241	240	237	240	240	236	238	242	241	241	240	236	236	236	236	239	240	241	245	245	242	240	241	242	240	239	239	234	234	233	233	233	234	234	234	235	235	241	240	240	244	241	236	235	237	241	241	235	239	240	241	241	241	240	236	233	233	240	240	242	242	239	239	235	235	232	233	235	236	236	237	237	237	235	237	237	234	233	232	230	230
