604	604	601	592	582	579	592	592	606	626	640	648	635	635	608	582	577	573	576	585	585	593	605	617	618	617	611	611	579	571	566	574	574	576	576	572	569	580	611	625	633	633	626	611	592	570	547	529	523	523	530	552	561	568	579	588	573	573	552	537	538	555	571	572	561	550	550	552	564	579	576	566	551	555	569	569	585	591	588	581	568	566	590	588	594	594	613	616	628	628	592	583	570	562	561	557	557	558	561	566	573	574	583	584	579	575	585	585	592	591	587	576	573	579	559	563	566	569	581	589	589	584	582	576	576	580	583	592	592	586	579	573	573	576	571	571	573	578	586	600	616	632	635	642	645	650	640	621	605	604	606	620	620	638	657	674	690	704	703	699	708	711	725	739	757	778	811	863	885	893	905	891	909	909	918	926	916	860	789	757	772	785	792	791	783	779	763	750	752	771	782	783	783	795	796	790	772	762	772	783	796	796	809	824	838	844	848	862	882	894	891	877	856	831	819	802	790	788	785	787	797	816	829	844	853	853	860	864	865	858	847	844	840	838	840	833	820	800	789	806	832	858	864	846	825	805	806	817	837	837	850	852	855	861	864	864	868	874	892	899	894	879	865	859	856	854	868	885	903	913	864	851	824	804	802	810	810	819	817	810	809	832	862	878	886	906	925	926	928	925	906	899	898	900	893	898	899	897	897	899	889	862	826	816	818	834	878	898	904	896	898	892	887	874	859	856	866	873	865	874	887	891	887	877	865	853	856	855	848	842	850	869	880	881	874	863	846	841	829	809	797	797	798	797	790	789	792	801	806	797	792	786	778	773	779	801	822	862	872	865	854	850	853	857	856	854	836	821	824	836	840	845	849	830	793	785	789	778	769	766	760	768	780	780	785	811	824	821	819	825	827	820	819	806	811	817	821	828	835	825	805	799	799	797	788	784	773	766	758	766	779	779	773	770	775	783	786	800	807	800	794	776	769	770	776	779	787	791	794	778	770	770	770	784	802	813	807	791	776	772	783	787	793	811	823	820	824	810	805	802	801	792	783	772	776	782	789	793	793	793	787	782	767	756	742	723	708	702	704	709	707	701	689	664	636	621	616	621	624	618	618	608	593	585	587	590	587	588	573	566	574	587	597	597	580	577	561	561	548	552	559	567	583	591	590	593	590	572	538	517	508	508	528	542	550	553	556	557	547	540	541	545	546	564	564	565	556	551	548	537	526	523	529	540	554	557	557	559	558	557	555	562	565	557	543	528	528	517	495	504	515	525	520	511	516	512	512	502	506	519	546	551	549	535	526	526	521	518	530	547	541	537	531	531	531	534	535	532	532	551	547	533	533	523	520	511	506	486	485	490	490	497	502	516	517	517	513	513	511	512	517	517	511	511	511	495	498	499	482	506	519	519	523	516	507	519	537	524	524	514	520	484	455	429	429	405	0	0	0	477	477	512	519	501	476	470	470	475	470	448
611	611	596	590	580	583	590	590	603	630	645	645	636	627	627	598	587	585	582	587	587	601	604	605	603	598	595	595	579	571	552	560	572	575	575	571	571	582	612	626	621	604	604	590	583	565	539	524	529	529	562	574	573	579	584	582	569	557	557	549	559	592	597	584	554	546	546	545	564	579	578	558	546	553	561	561	565	564	568	572	579	582	584	582	581	581	599	612	588	589	581	571	560	554	546	546	546	546	549	559	568	569	578	578	584	580	580	576	576	585	588	583	569	559	559	563	545	552	574	584	583	583	582	578	578	573	570	572	576	574	564	554	563	583	589	589	583	584	586	594	609	615	616	591	609	634	633	627	618	609	607	619	619	643	644	649	657	670	676	676	684	701	725	745	767	780	793	809	835	862	878	891	909	772	775	775	788	759	761	756	763	762	768	778	782	778	770	762	762	768	774	773	777	789	796	789	771	770	782	790	787	787	779	790	806	819	818	845	867	873	865	852	834	811	799	786	780	777	775	779	784	802	828	845	856	858	861	861	857	846	844	841	848	855	857	842	825	805	801	805	829	852	850	841	812	804	804	820	860	860	880	880	867	864	864	859	858	867	885	904	897	879	872	860	828	813	807	821	843	862	864	851	824	738	748	755	766	772	779	805	800	825	848	870	885	914	930	923	919	897	882	889	893	891	889	899	890	884	884	886	880	860	841	819	797	820	865	893	904	904	908	908	908	894	872	866	872	873	867	879	882	883	878	866	852	849	852	852	841	836	840	855	873	879	873	864	850	844	835	822	819	814	802	785	780	779	779	786	788	787	787	789	790	778	776	778	803	836	869	865	854	850	855	856	849	828	817	809	807	806	814	813	808	793	780	767	769	770	768	765	766	769	769	772	776	779	785	804	820	826	827	827	822	823	822	820	813	807	804	794	784	779	777	776	775	777	759	756	762	776	778	777	778	775	777	781	777	784	785	787	779	769	763	759	759	765	774	782	776	769	756	756	754	769	785	810	803	793	782	782	797	821	839	844	841	831	821	809	795	792	796	788	778	768	772	778	781	782	782	793	787	773	766	757	740	724	708	695	697	701	699	691	674	645	632	626	630	634	630	630	620	606	597	585	583	586	589	583	580	575	582	572	563	603	612	584	584	578	557	558	569	577	591	593	588	585	568	552	536	529	523	523	517	532	543	552	556	557	556	557	559	554	552	552	552	561	549	544	543	525	506	503	509	521	522	522	524	528	533	540	542	545	547	540	523	514	514	511	528	532	528	532	526	515	517	517	517	510	513	521	520	551	549	536	523	523	520	517	514	514	511	506	498	495	495	506	515	520	517	520	518	511	511	505	505	504	503	493	480	486	486	500	511	513	520	532	537	537	529	522	515	517	511	503	503	492	494	496	511	510	518	518	519	511	515	518	532	499	499	483	476	460	441	411	411	396	410	0	0	0	0	0	0	0	475	467	467	475	470	448
606	606	586	579	581	577	586	586	592	623	639	643	636	628	628	620	607	599	591	589	589	601	608	603	598	592	581	581	562	555	552	560	561	554	554	549	552	567	574	575	572	567	567	572	567	572	578	576	575	569	569	560	545	539	549	561	566	556	556	558	582	590	592	583	575	569	569	570	581	587	578	558	590	580	575	573	573	567	571	570	576	582	580	576	574	579	579	580	583	588	576	558	546	547	546	542	542	543	547	556	565	569	573	571	564	561	560	566	566	578	590	590	569	551	541	541	545	552	568	584	583	583	574	579	581	572	568	568	576	572	563	560	565	581	600	600	596	585	577	581	594	597	590	579	576	602	626	627	622	616	613	622	615	615	608	620	645	662	659	662	672	690	707	731	752	768	773	780	782	798	814	781	772	772	714	712	722	750	764	768	769	768	770	774	776	777	779	790	791	787	787	786	786	804	808	806	802	786	792	797	787	787	750	747	754	766	790	795	802	834	834	818	810	796	793	786	773	767	769	770	770	792	821	841	850	851	848	853	851	854	859	854	856	865	865	846	834	815	807	804	801	794	795	797	794	797	803	820	861	878	878	877	864	862	861	853	850	856	868	872	830	812	818	816	806	772	756	721	724	741	760	760	744	738	748	755	766	751	749	757	796	819	838	860	872	892	923	927	894	861	862	877	877	877	871	874	878	872	871	882	883	878	842	823	803	813	832	871	893	901	911	914	919	902	886	876	873	866	864	866	870	867	863	851	842	843	849	849	843	832	831	840	864	880	877	862	856	869	882	862	832	815	800	778	773	769	770	773	772	777	786	793	804	786	773	778	803	836	869	870	870	852	857	849	825	815	812	799	797	800	807	813	809	784	777	769	772	774	768	767	768	772	772	772	749	742	759	795	813	815	819	821	817	807	803	756	754	761	779	782	777	770	767	762	762	755	750	753	765	775	781	775	764	768	770	762	752	745	746	757	758	753	742	740	747	756	766	762	759	747	747	745	748	760	799	813	812	802	794	801	829	845	852	858	851	844	825	806	789	789	827	840	838	816	793	783	772	782	782	782	778	772	771	760	745	724	711	702	693	690	686	678	664	642	631	623	629	636	636	636	625	607	586	578	591	593	586	582	589	594	593	592	591	593	612	579	579	534	538	556	579	594	596	589	580	560	538	528	549	534	528	528	523	530	543	552	554	540	525	527	542	545	542	535	535	530	540	544	549	544	523	525	531	539	550	550	550	541	533	523	517	512	520	531	541	537	537	533	528	529	528	533	534	537	527	523	523	523	518	521	520	522	519	520	513	513	502	495	502	502	502	500	498	497	497	509	514	517	519	518	515	509	509	503	502	500	495	485	480	485	485	499	511	516	522	532	531	531	518	522	515	522	536	540	540	515	491	482	481	468	462	462	472	481	482	499	518	514	514	487	469	446	428	409	409	407	412	432	481	526	526	0	0	507	488	467	467	468	453	436
613	613	603	590	581	575	576	592	592	610	633	634	629	622	622	618	604	598	592	588	588	609	617	613	607	595	578	578	558	548	545	553	561	554	554	566	593	575	576	574	564	560	560	561	571	576	585	589	580	577	577	562	551	545	549	563	576	563	563	567	573	578	579	574	575	574	582	582	581	581	580	575	590	580	579	575	575	571	568	567	565	567	571	572	573	575	575	581	579	576	566	550	537	540	546	546	546	545	549	556	563	563	559	558	552	548	547	555	555	568	584	586	567	543	529	525	530	543	568	575	572	572	567	566	574	571	565	564	567	562	559	557	567	584	594	593	593	578	565	567	577	582	576	567	565	580	592	621	623	621	614	605	587	587	589	610	632	651	652	653	662	678	697	719	733	743	744	748	746	734	739	725	718	714	714	712	732	746	757	769	773	773	772	773	771	768	785	800	800	794	795	794	805	808	809	813	824	830	804	799	787	752	752	745	749	755	763	768	773	788	797	791	790	789	795	794	779	762	755	753	764	784	811	826	824	825	835	842	853	866	901	915	880	868	864	848	844	826	813	795	789	789	791	791	794	797	808	824	841	849	845	845	847	846	838	801	787	779	772	769	765	766	766	768	768	751	724	720	726	747	760	760	751	740	743	750	755	751	749	757	787	787	817	836	850	851	848	846	821	817	832	861	863	859	860	844	833	839	863	883	890	873	840	827	819	822	832	853	879	891	904	912	920	919	899	871	861	860	854	849	848	842	836	833	832	839	844	845	844	838	833	832	848	862	860	850	846	861	881	862	830	787	770	771	772	769	773	771	767	772	785	793	804	786	773	774	806	864	873	875	875	861	850	810	802	799	794	789	785	787	790	782	753	717	712	717	730	740	735	723	715	715	720	718	712	708	724	750	772	793	812	798	798	776	739	741	746	753	760	770	773	769	760	757	759	753	749	746	749	771	777	764	749	747	745	726	730	741	745	751	750	744	736	734	734	762	812	801	795	783	783	761	755	766	797	826	851	858	852	843	842	848	851	854	861	858	850	832	811	804	844	913	957	965	872	842	772	761	761	766	779	791	792	783	738	726	716	702	697	677	646	632	619	602	601	602	603	610	600	600	586	578	554	545	590	579	543	532	546	568	588	605	603	585	573	557	557	545	539	559	600	591	571	576	577	562	539	527	554	548	548	549	523	530	540	536	540	520	498	509	517	528	517	517	512	509	507	518	518	505	507	513	523	528	540	540	541	532	523	520	512	510	519	533	540	535	535	530	519	522	525	528	534	540	527	527	526	523	518	524	526	524	522	518	513	513	508	498	491	489	490	496	498	498	497	507	513	510	511	513	510	508	508	502	499	495	493	490	485	485	490	500	509	514	523	539	522	531	518	512	515	494	499	510	510	476	468	484	468	458	470	470	481	482	497	522	539	539	525	499	463	440	428	421	421	431	425	440	487	551	551	576	0	507	488	469	469	454	449	435
613	588	588	585	587	589	587	594	594	614	630	628	621	606	606	598	578	559	559	578	608	608	612	605	599	586	577	562	562	556	556	563	555	549	566	566	593	603	586	569	565	557	557	565	573	580	580	576	577	575	575	568	554	551	556	568	579	580	580	577	577	573	568	569	576	583	579	579	574	577	593	605	600	592	579	575	567	566	560	554	559	565	568	568	570	574	574	577	582	576	570	565	559	550	540	542	537	537	540	547	555	565	570	564	552	544	538	540	540	554	577	581	566	547	536	558	566	570	572	575	572	552	555	548	552	556	555	556	553	551	543	550	566	575	583	580	580	566	557	556	569	580	565	553	543	540	564	581	600	594	587	582	572	572	568	590	624	644	647	644	650	666	690	709	718	724	723	718	728	727	731	733	724	714	714	720	732	746	749	749	746	751	762	760	758	756	788	798	801	798	797	800	798	813	817	826	832	835	825	809	785	767	767	744	751	758	769	782	780	777	790	790	788	793	801	803	790	770	758	750	759	781	799	806	806	808	811	829	844	870	911	915	885	859	854	845	843	829	818	796	790	786	788	794	799	806	814	828	837	843	839	839	834	824	799	780	771	763	759	767	766	760	762	766	758	750	722	722	727	746	766	769	764	752	741	746	747	742	743	750	787	787	817	836	790	796	799	799	800	804	812	819	825	826	831	813	796	789	820	844	858	832	824	820	823	824	826	836	845	856	848	832	831	835	841	845	845	839	827	811	808	803	814	817	809	814	824	832	841	848	843	833	817	810	807	809	809	825	814	797	779	762	762	767	771	773	774	771	767	772	785	797	813	804	791	795	819	837	870	874	867	846	806	791	786	779	781	781	779	782	777	736	689	678	681	695	707	712	719	719	708	708	713	722	729	727	710	728	745	747	764	764	750	724	719	729	735	744	750	760	766	769	759	762	765	755	745	730	723	720	718	712	714	720	722	719	721	740	767	773	754	745	745	757	755	803	903	901	892	892	884	876	876	886	899	924	945	946	947	960	982	990	977	956	941	974	995	999	991	974	976	1054	1136	1155	872	842	819	819	802	813	843	857	850	848	832	807	786	780	799	804	790	720	663	669	679	674	662	661	661	676	653	631	623	637	641	625	612	597	590	584	582	581	586	574	572	572	559	554	548	566	599	591	559	537	538	536	515	518	549	560	548	549	566	535	504	512	509	509	511	513	520	525	515	515	503	498	500	516	519	513	497	496	507	519	522	522	511	501	500	506	503	507	520	531	536	536	532	522	514	512	516	519	527	527	522	527	526	520	514	517	527	528	523	516	516	510	508	501	490	485	484	487	490	490	503	506	504	504	504	504	501	501	499	498	495	495	492	489	486	486	491	494	503	507	523	539	522	522	505	533	525	502	429	326	326	368	393	413	444	468	489	489	504	512	504	525	540	540	531	496	457	430	429	438	438	442	443	450	505	553	551	576	572	543	510	480	480	454	440	454
590	588	588	585	582	595	596	598	598	606	624	623	606	577	577	568	556	547	545	547	543	543	546	556	575	574	570	567	567	570	575	571	559	567	597	597	605	603	586	568	563	564	564	567	570	576	567	559	554	558	558	559	560	571	574	575	577	586	586	585	576	568	562	583	588	580	575	575	568	562	575	591	593	592	582	567	567	566	556	560	558	560	562	562	564	570	570	581	595	595	591	580	574	569	557	551	553	553	554	554	556	567	571	573	558	545	533	530	536	536	544	551	556	556	554	555	548	532	538	551	552	555	555	547	547	552	553	543	536	527	522	544	558	567	560	551	551	546	541	548	577	575	565	554	547	551	562	584	586	579	577	567	549	556	556	585	618	638	628	612	611	629	662	683	692	693	704	716	736	744	743	740	729	717	717	722	733	744	749	749	731	734	742	742	740	735	755	763	783	789	794	793	794	794	792	798	804	814	820	813	774	759	750	750	757	763	789	800	803	796	790	802	798	801	811	807	794	774	764	757	759	777	793	796	796	795	799	803	798	794	795	823	824	818	827	835	836	836	798	789	783	779	782	798	822	833	835	829	832	832	820	805	805	792	780	776	771	768	771	774	768	765	762	759	757	741	723	722	728	740	768	778	770	752	744	741	738	731	740	759	785	787	782	788	790	796	799	799	800	803	801	798	791	773	771	750	736	723	726	734	769	795	814	815	822	826	824	830	836	824	816	811	815	816	825	830	834	824	811	799	788	772	763	765	768	773	782	804	828	845	847	823	799	795	793	798	800	805	800	789	777	769	759	767	771	773	774	778	772	770	785	797	812	805	798	800	814	831	843	844	839	800	781	758	730	721	730	733	741	747	745	707	675	673	676	686	702	714	717	710	710	702	708	719	727	732	733	728	701	680	682	689	688	688	686	692	706	710	715	710	713	727	726	722	713	713	724	724	721	723	718	713	719	723	723	713	722	816	959	1011	937	935	978	1004	1023	1111	1118	1129	1137	1137	1142	1175	1259	1359	1351	1330	1338	1362	1388	1426	1452	1456	1437	1352	1247	1261	1342	1364	1376	1372	1296	1250	1136	1155	1123	1096	1064	1064	1053	1065	1108	1102	1096	1107	1104	1092	1063	1062	1059	1041	1008	938	890	859	839	827	801	797	797	773	740	697	677	669	670	643	621	605	605	597	591	584	582	568	559	559	577	607	608	572	536	513	535	564	535	507	508	511	549	560	560	564	555	526	512	506	505	508	510	515	518	515	509	509	496	494	500	508	515	513	512	510	517	522	522	524	520	511	501	497	499	497	509	520	520	520	507	500	498	502	502	498	494	527	522	522	515	504	509	507	510	511	510	509	509	507	500	489	482	481	480	476	475	475	478	484	491	496	494	494	492	492	489	488	486	491	486	479	482	482	485	452	503	507	507	524	524	527	577	607	559	542	496	446	446	412	412	435	458	472	472	501	520	523	512	513	528	528	514	477	445	427	427	427	436	454	463	481	505	505	553	572	577	565	538	538	501	470	448	458
569	567	567	570	582	595	594	600	600	606	606	584	564	545	545	540	551	554	550	547	539	539	543	546	561	561	559	570	570	581	587	578	567	575	588	588	595	596	581	568	563	556	549	549	540	548	555	548	544	544	544	548	552	562	569	570	572	571	543	543	531	510	534	556	558	548	541	541	536	536	553	564	569	575	561	558	558	558	556	560	565	557	558	556	560	567	579	579	569	569	576	565	561	565	563	559	552	552	546	546	547	560	566	563	553	540	535	526	525	525	524	545	554	559	562	554	549	533	530	544	548	552	552	547	547	554	552	543	530	515	532	541	551	555	548	533	530	530	529	552	568	566	555	548	547	551	562	571	576	571	562	550	546	551	551	580	614	629	618	605	604	619	653	676	680	684	698	722	736	750	748	739	735	726	720	720	720	716	727	728	731	722	722	722	719	715	720	728	741	760	779	781	778	782	780	769	758	756	758	754	746	728	736	736	757	782	805	810	810	816	816	803	794	800	810	811	804	784	765	760	761	776	780	774	756	761	767	765	756	756	755	771	795	793	784	779	756	766	771	774	771	768	777	794	817	833	836	823	819	802	784	763	763	761	762	767	773	769	770	769	767	765	762	753	741	726	716	714	723	736	746	748	743	741	732	737	738	739	744	769	792	795	795	784	785	793	798	803	804	803	801	798	791	773	771	747	731	718	722	731	763	791	812	815	823	824	833	838	835	821	812	805	801	803	808	811	793	772	770	761	753	736	720	709	711	715	715	720	748	777	781	766	748	751	770	778	770	805	800	789	777	769	759	762	769	776	774	770	755	751	753	750	745	711	685	683	682	699	727	758	773	740	732	707	693	673	675	666	663	658	656	663	672	671	664	677	675	671	678	678	685	686	687	692	699	701	680	666	667	681	699	705	703	693	682	669	684	702	711	714	719	727	731	722	717	707	723	750	758	772	835	882	892	906	915	939	997	1162	1362	1395	1366	1326	1257	1215	1204	1188	1272	1382	1445	1445	1505	1547	1553	1531	1500	1468	1429	1424	1440	1460	1470	1443	1428	1413	1409	1380	1385	1389	1410	1412	1296	1250	1221	1217	1224	1259	1281	1281	1224	1182	1164	1162	1134	1128	1124	1122	1123	1141	1132	1093	1023	951	901	867	838	835	829	826	826	811	768	710	674	674	673	651	634	621	613	608	602	582	543	521	523	523	537	539	515	498	491	502	536	534	512	500	508	511	518	522	522	531	532	522	515	507	506	504	513	518	518	513	513	505	497	497	501	511	516	516	513	498	486	511	511	526	521	513	502	495	491	487	493	491	486	486	484	489	490	490	495	498	494	495	502	502	503	493	481	478	492	499	507	511	511	505	490	467	468	473	476	474	473	473	471	476	484	487	488	487	485	485	480	480	467	452	452	483	524	524	485	452	441	477	526	549	549	539	530	530	536	534	493	493	457	424	425	448	472	482	482	503	508	511	502	496	483	483	436	438	439	428	445	445	454	454	463	481	514	514	549	555	566	560	538	538	491	474	475	488
557	555	555	563	572	582	594	600	585	592	588	566	552	542	541	541	553	563	558	555	554	554	546	546	550	540	548	564	564	582	586	577	575	578	572	572	574	575	571	561	563	556	549	536	540	549	551	541	537	539	537	537	545	550	546	545	537	532	530	530	514	510	538	552	556	542	529	519	519	519	526	541	549	555	553	541	549	549	560	572	565	557	555	552	556	541	534	534	547	554	562	549	554	557	565	563	552	540	540	535	532	537	546	546	537	530	527	526	512	512	511	531	547	557	561	554	546	535	527	532	541	546	546	544	550	554	552	544	530	534	538	548	551	547	536	522	517	517	524	551	557	553	547	539	541	547	559	565	569	566	557	552	551	564	564	588	607	604	597	596	601	615	640	662	671	680	700	721	742	746	747	741	742	732	722	722	714	705	710	718	720	722	722	697	695	697	690	674	688	720	735	749	760	762	757	743	744	747	749	740	723	715	726	746	746	781	796	801	795	788	776	766	748	729	722	722	732	738	729	724	729	727	729	728	734	743	740	740	745	750	753	762	760	761	747	740	718	715	714	739	745	749	756	763	765	764	756	754	746	742	739	727	735	735	749	762	770	763	762	760	767	767	761	747	742	724	710	707	720	732	740	747	747	739	736	741	743	745	757	786	798	795	795	787	788	798	804	804	807	801	785	782	775	763	757	747	731	718	722	731	763	791	812	867	865	881	888	848	844	829	815	800	795	787	764	773	747	735	726	721	717	717	720	720	728	729	728	725	736	777	781	766	748	751	770	778	770	760	758	766	762	757	751	744	744	741	720	706	687	682	683	691	693	694	678	673	672	676	697	736	742	740	733	716	690	698	699	687	680	674	673	673	678	679	681	686	685	676	662	662	659	686	691	695	694	683	669	658	643	653	671	698	695	693	686	672	685	702	712	727	733	742	755	772	795	855	931	993	1021	1056	1181	1249	1312	1412	1421	1421	1421	1424	1414	1394	1358	1324	1268	1211	1204	1234	1325	1376	1376	1439	1513	1551	1550	1530	1498	1465	1430	1427	1437	1456	1459	1409	1394	1390	1405	1410	1409	1411	1410	1412	1390	1321	1261	1253	1255	1287	1287	1324	1328	1296	1249	1194	1147	1144	1146	1170	1177	1177	1160	1114	1035	961	911	867	839	830	826	826	831	817	764	714	672	649	644	636	590	594	618	579	535	521	500	497	504	504	508	505	495	493	489	501	514	518	502	500	500	502	509	509	520	527	525	522	513	514	516	517	506	507	509	507	507	507	509	512	511	513	515	506	493	481	483	491	491	499	501	491	485	485	484	491	498	501	490	490	485	478	486	490	495	494	493	494	499	499	498	492	492	489	487	490	495	498	498	489	480	471	478	490	489	487	473	473	468	466	481	480	486	483	470	470	471	495	484	443	434	444	524	524	567	540	497	475	469	528	528	531	519	515	519	503	476	476	447	434	452	496	495	475	475	452	441	440	447	469	468	468	474	478	474	462	466	445	454	503	516	499	473	473	455	474	502	511	480	480	411	414	438	449
541	550	550	562	563	566	577	585	585	592	588	548	545	541	548	548	558	559	559	560	561	561	565	553	534	530	536	554	554	567	578	574	574	575	567	567	563	566	563	551	537	534	536	536	540	549	540	536	544	550	541	541	531	525	517	513	519	522	522	522	516	511	531	538	540	531	523	517	517	514	520	533	553	558	545	526	522	522	536	555	570	554	555	552	529	525	519	519	530	538	529	536	547	557	561	558	553	542	542	535	528	531	539	540	534	526	517	521	516	517	517	524	533	545	550	548	537	524	524	545	548	542	548	548	551	556	551	544	530	536	542	552	555	554	548	542	537	537	539	545	548	547	540	538	538	546	556	561	563	559	555	561	560	569	586	586	605	598	592	589	614	633	648	654	663	677	705	731	740	746	743	741	745	739	722	712	712	699	709	720	720	709	706	697	695	625	617	627	663	691	722	738	747	742	735	727	726	736	739	730	713	703	709	748	748	766	781	783	776	764	752	736	715	698	689	692	707	706	710	709	697	696	717	728	734	740	742	733	737	747	759	764	758	758	756	745	721	719	713	734	739	741	752	756	761	760	755	750	738	730	719	714	718	718	733	744	757	757	751	752	764	769	764	764	764	758	751	744	749	752	762	769	762	760	767	780	785	783	780	789	797	792	788	787	794	809	808	801	783	768	755	761	765	765	764	763	744	736	735	760	837	879	872	867	865	881	888	848	844	829	815	800	795	787	764	773	747	735	726	721	717	717	720	720	728	729	728	725	736	747	751	741	735	737	748	747	728	713	703	704	713	719	724	731	737	737	719	707	692	689	691	698	696	697	693	690	689	701	705	713	746	756	761	727	707	718	720	716	703	687	683	689	694	692	689	693	690	679	679	662	661	693	695	698	691	684	672	661	641	650	663	691	705	720	735	765	782	766	786	843	889	955	1000	1057	1099	1216	1369	1371	1377	1403	1436	1468	1472	1465	1456	1442	1434	1429	1417	1385	1352	1310	1266	1230	1223	1270	1308	1361	1361	1426	1493	1525	1526	1494	1461	1416	1396	1400	1418	1424	1393	1365	1347	1349	1383	1400	1408	1411	1416	1410	1393	1366	1309	1282	1284	1309	1309	1320	1325	1308	1261	1207	1139	1123	1136	1149	1189	1198	1165	1095	1007	910	829	774	732	699	673	673	664	667	640	611	543	508	520	522	522	538	550	527	502	495	494	495	495	496	494	493	494	502	503	499	494	518	502	494	486	491	500	500	510	519	517	514	510	515	518	518	512	495	488	493	493	510	518	520	509	510	503	495	481	478	481	491	491	497	498	497	487	481	487	493	502	496	496	493	489	478	486	486	492	492	491	496	496	501	501	491	491	490	489	488	488	488	488	482	475	469	471	504	501	488	488	474	463	459	448	453	448	473	472	472	471	498	487	444	434	444	444	465	558	540	493	477	469	460	460	457	463	477	489	496	502	502	492	470	444	446	448	446	446	445	457	471	484	496	496	470	465	466	460	462	466	466	474	507	499	478	458	458	419	458	472	460	460	460	470	465	462	474
535	544	544	558	561	563	559	533	534	534	547	548	545	531	530	530	541	551	559	562	573	570	570	548	533	528	530	540	551	551	563	572	579	561	557	560	560	564	550	531	521	532	552	552	562	558	540	536	536	531	532	532	524	518	511	515	517	516	517	517	507	511	525	531	528	526	522	525	525	523	526	537	549	552	540	525	520	520	518	518	519	532	537	536	529	525	509	509	512	500	511	523	537	548	548	550	548	541	541	535	531	534	538	544	529	517	513	514	516	517	517	520	524	538	538	537	527	508	511	540	546	541	548	548	553	552	542	536	525	536	506	535	545	557	540	528	517	519	519	526	541	543	542	533	531	533	539	545	550	562	569	571	569	569	580	580	587	588	585	602	597	610	621	643	658	676	725	740	746	747	744	748	745	736	730	711	711	700	693	684	667	648	622	610	627	625	617	618	625	669	701	711	719	712	701	683	667	676	686	690	692	693	693	723	723	751	758	726	705	718	726	729	711	691	681	681	691	697	697	696	689	691	708	727	738	746	743	734	746	768	790	793	787	774	777	778	781	780	768	752	742	741	744	751	754	756	757	749	735	713	692	687	698	733	733	755	769	776	772	771	790	804	820	843	864	844	818	792	778	787	824	849	853	839	833	837	861	880	905	916	921	913	909	912	883	879	873	860	841	815	815	909	961	1009	997	955	925	872	847	863	877	876	871	876	876	884	890	850	839	834	799	778	766	768	756	743	723	723	726	725	720	718	719	722	731	735	730	733	737	741	740	734	723	736	744	747	734	714	704	700	705	713	720	725	727	723	711	698	692	695	699	705	705	701	703	704	705	716	719	722	765	809	802	767	722	726	728	721	707	701	704	707	710	717	723	725	719	701	701	695	698	703	703	699	691	683	677	672	669	673	723	754	770	824	883	928	961	993	1085	1142	1258	1385	1452	1482	1469	1424	1392	1385	1388	1409	1447	1474	1486	1482	1466	1449	1437	1425	1403	1366	1330	1311	1289	1275	1270	1282	1306	1306	1349	1410	1456	1483	1473	1447	1406	1382	1355	1357	1367	1352	1289	1278	1258	1251	1281	1400	1408	1419	1402	1384	1375	1346	1285	1268	1285	1298	1298	1309	1308	1298	1268	1183	1120	1104	1072	1042	986	909	834	774	739	702	681	660	652	599	527	527	501	528	543	534	502	504	520	504	497	507	513	502	496	491	490	492	492	494	490	486	486	493	496	499	494	506	499	491	484	478	480	480	482	489	490	494	500	502	507	508	503	496	489	489	489	498	508	514	511	504	494	487	480	480	481	481	487	496	497	497	489	485	486	496	497	497	497	493	489	483	484	483	482	487	489	501	501	504	501	491	494	492	487	486	485	485	486	484	476	471	477	483	507	502	502	481	465	454	442	442	444	469	469	470	475	476	487	444	432	441	441	477	487	482	480	480	484	475	475	463	459	476	490	459	458	458	460	462	458	455	454	456	456	459	464	465	456	441	441	426	465	466	460	453	449	449	454	472	486	492	485	485	452	445	438	449	450	450	456	475	482	478
535	545	555	555	551	535	521	519	525	525	536	538	531	531	530	529	541	546	541	530	526	524	524	541	542	554	576	583	590	590	590	564	552	546	544	541	541	541	534	530	525	538	553	553	555	552	545	549	536	531	525	525	519	516	514	517	516	517	511	505	505	509	518	523	518	519	525	529	529	529	531	537	544	543	534	534	527	516	516	516	519	527	511	505	507	510	509	512	472	480	498	515	527	534	535	536	528	528	528	526	526	525	527	526	524	511	508	507	508	511	511	512	518	522	524	524	526	506	491	504	516	535	550	550	544	532	525	521	519	504	506	535	518	540	526	516	511	499	499	505	529	540	541	535	524	523	527	528	540	560	581	571	570	572	573	573	574	560	563	578	572	571	594	609	626	641	683	696	710	717	724	735	726	682	644	648	648	645	643	645	621	615	600	592	584	585	593	618	625	658	658	663	666	665	654	629	614	615	637	665	672	681	705	711	701	701	689	675	707	712	721	728	727	729	729	732	733	736	735	734	728	723	726	731	752	775	780	788	789	800	830	860	886	894	904	902	903	895	858	838	824	821	830	845	855	859	846	826	798	783	782	794	858	892	892	907	917	916	899	890	895	960	1024	1044	1036	1012	949	931	927	957	995	1054	1070	1086	1138	1192	1224	1246	1266	1298	1309	1312	1317	1265	1110	1024	979	889	868	837	827	900	970	1027	1014	957	920	865	840	868	888	883	874	875	864	845	802	773	779	781	771	760	744	733	729	725	717	720	726	730	723	719	710	713	717	740	738	734	738	735	731	715	714	721	727	729	724	719	713	701	699	699	701	708	720	713	704	695	690	695	706	709	702	706	713	713	713	721	725	723	773	870	862	777	746	730	722	719	712	716	724	723	719	722	725	729	735	735	742	749	745	740	742	738	739	745	787	824	842	913	985	989	986	1075	1255	1285	1329	1355	1362	1377	1400	1427	1460	1483	1463	1414	1385	1377	1381	1409	1454	1484	1493	1478	1457	1437	1420	1399	1352	1327	1313	1318	1319	1316	1311	1309	1300	1300	1300	1304	1330	1365	1402	1406	1362	1308	1288	1271	1270	1176	1052	1024	1014	1251	1281	1301	1301	1294	1243	1199	1171	1171	1177	1183	1158	1158	1111	1078	1061	1053	1029	1017	975	954	905	848	756	706	648	633	625	580	558	548	537	535	535	511	499	505	504	489	497	507	512	508	499	496	497	494	489	480	484	493	493	493	489	486	497	493	496	489	484	483	485	481	477	470	470	470	474	481	487	489	490	474	474	482	491	494	492	492	491	488	487	481	479	477	477	484	487	489	493	493	493	493	487	476	473	472	478	469	473	497	497	495	482	474	475	480	485	488	495	504	504	510	510	481	465	476	477	471	467	467	468	465	455	463	462	466	463	449	449	441	444	448	455	471	469	472	472	465	475	476	478	482	475	465	465	453	462	474	475	470	464	464	467	468	470	477	475	466	463	463	460	453	449	450	445	445	453	458	464	463	453	438	441	426	437	459	455	450	450	450	457	471	486	492	485	485	454	447	442	450	451	451	457	480	485	481
540	547	549	549	543	522	515	518	528	528	532	506	513	518	529	529	541	537	520	510	507	506	506	514	539	562	577	580	580	580	563	551	539	530	532	534	534	526	526	529	537	538	537	532	532	525	540	547	535	528	525	525	526	516	517	514	517	507	516	511	511	510	515	515	511	515	521	532	532	526	528	533	542	539	537	534	527	518	518	512	514	520	501	497	503	506	492	472	472	480	490	504	512	517	519	518	521	517	518	518	512	508	512	512	515	504	501	500	501	502	502	508	513	509	493	493	505	498	490	501	516	524	523	523	517	513	515	515	503	492	487	495	518	540	505	514	521	540	540	552	559	557	551	529	521	515	513	519	527	549	553	553	564	576	589	579	579	515	509	528	538	565	572	581	571	568	589	595	634	645	644	641	623	572	556	564	556	556	551	570	571	564	538	541	567	618	630	628	654	658	657	666	672	667	659	630	614	614	638	667	673	683	702	706	690	690	682	673	705	742	792	806	815	819	819	811	800	793	796	803	813	804	794	789	784	797	879	903	947	963	1017	1038	1048	1057	1105	1150	1168	1163	1082	1004	973	908	890	884	899	912	940	945	964	983	1015	1050	1076	1098	1097	1097	1056	1059	1062	1058	1071	1092	1031	1037	1028	1004	985	974	970	988	1000	1057	1078	1124	1242	1276	1267	1283	1272	1285	1308	1325	1333	1264	1110	1026	990	915	894	882	892	907	914	903	864	792	771	755	739	750	770	769	764	758	751	730	734	735	730	728	731	732	728	729	733	727	718	718	725	730	723	709	699	701	710	723	735	737	733	730	715	710	696	690	683	675	676	684	691	695	696	701	700	704	701	692	694	691	689	700	706	709	708	712	710	706	702	702	713	727	748	801	856	853	764	735	729	715	718	724	731	725	724	712	728	752	786	786	857	872	856	840	854	917	974	997	1113	1202	1260	1307	1338	1401	1430	1443	1440	1416	1387	1373	1369	1382	1397	1412	1439	1436	1416	1389	1362	1337	1347	1374	1410	1442	1446	1431	1367	1350	1331	1326	1298	1294	1289	1304	1314	1327	1319	1296	1296	1255	1235	1192	1163	1168	1189	1225	1228	1223	1193	1166	1121	1025	915	1024	1014	1008	1010	1018	1028	1040	1034	1031	1034	1033	1031	1031	1019	1019	993	972	922	867	807	789	784	746	709	678	636	591	578	579	579	565	531	509	509	505	505	501	498	497	495	494	500	505	509	508	497	489	480	480	480	480	482	482	486	497	495	486	497	497	494	492	486	480	479	477	474	477	477	489	486	481	481	491	495	484	479	478	487	483	477	477	474	473	468	468	461	464	467	477	478	476	473	473	474	473	471	468	455	462	463	469	473	490	490	483	463	463	463	463	451	445	439	462	462	462	458	465	469	468	470	471	464	464	467	464	454	460	458	462	461	449	449	443	447	449	459	476	472	472	472	465	450	463	481	476	470	465	465	454	462	470	473	469	463	463	468	470	471	477	474	465	465	464	460	451	448	445	443	443	438	447	451	449	453	438	438	426	438	454	449	446	446	451	461	472	480	479	479	480	482	468	467	475	475	483	486	502	507	500
542	535	532	532	515	503	501	508	494	494	489	489	499	515	528	544	544	537	520	510	503	508	508	521	538	555	562	562	556	556	544	537	529	515	522	529	529	517	513	520	520	516	502	482	482	469	470	488	513	524	525	526	526	516	516	508	509	506	517	513	513	508	510	511	510	510	513	508	499	499	501	510	534	540	539	533	522	511	511	502	514	527	521	497	498	483	463	460	460	475	490	504	493	493	492	513	506	505	501	501	499	495	493	499	501	501	498	496	494	523	543	543	539	510	483	480	490	497	502	510	523	525	521	513	513	513	516	511	505	501	500	502	505	499	505	514	499	514	532	532	546	547	541	528	503	492	490	503	515	518	528	538	538	538	546	520	520	511	522	537	554	557	553	546	534	519	529	539	591	603	599	578	549	529	529	523	511	511	510	517	528	522	545	534	559	578	631	638	638	644	657	666	679	672	666	659	661	660	668	702	722	733	733	728	727	731	731	770	813	844	836	844	856	854	848	841	812	802	803	809	805	798	790	794	795	855	903	945	975	1029	1045	1061	1066	1095	1132	1158	1167	1145	1096	997	973	892	887	881	893	911	934	939	961	983	1025	1053	1081	1095	1091	1062	1062	1058	1057	1057	1070	1087	1028	1006	989	979	978	975	979	984	1006	1038	1047	1130	1230	1269	1273	1236	1240	1256	1240	1160	1096	992	863	789	778	777	760	759	763	758	756	735	713	703	705	707	696	685	685	697	702	716	719	721	725	730	721	723	718	719	723	728	730	732	723	715	716	719	716	702	693	696	709	717	721	715	707	702	694	691	685	679	672	665	669	678	692	699	701	705	709	705	692	685	686	688	690	691	690	702	707	706	700	696	699	699	706	725	743	811	861	850	774	770	742	741	765	782	755	745	773	797	843	888	888	977	1080	1104	1132	1172	1191	1221	1292	1305	1317	1318	1301	1305	1340	1390	1415	1434	1431	1407	1374	1372	1368	1376	1379	1394	1404	1400	1384	1354	1326	1305	1271	1250	1263	1272	1288	1277	1205	1183	1174	1181	1186	1193	1181	1163	1149	1130	1110	1082	1082	1047	1030	1021	999	970	969	982	1003	1017	1020	993	951	1025	915	893	886	880	878	883	890	913	942	984	1003	998	990	979	979	935	860	803	778	723	667	621	589	598	608	579	542	527	529	530	527	525	503	498	490	488	488	488	496	503	506	483	480	478	481	481	483	480	481	480	480	477	472	472	469	465	495	499	496	492	485	479	478	476	478	477	469	490	490	488	469	460	458	483	482	475	468	471	475	475	472	472	467	465	466	464	461	464	467	479	477	474	470	470	472	471	471	467	455	455	463	468	472	472	490	483	463	463	464	464	450	442	438	438	462	462	460	464	467	465	447	458	484	484	468	463	466	474	474	473	476	476	461	450	450	451	449	476	472	476	476	465	449	463	471	466	464	464	463	458	454	448	449	457	463	463	470	477	471	463	458	454	454	455	454	453	450	445	440	440	433	437	451	449	439	438	438	462	480	484	472	459	459	449	456	467	469	469	469	473	473	460	466	471	471	474	476	479	482	478
528	516	505	505	511	517	514	505	496	496	488	487	495	511	529	541	541	522	497	502	503	508	514	520	529	525	519	514	520	520	514	508	487	495	545	550	543	543	541	532	514	508	502	480	480	460	464	486	508	526	528	527	527	519	516	508	481	498	502	504	504	515	511	500	497	498	501	501	493	493	483	485	496	502	510	526	521	505	505	506	513	523	527	510	487	477	472	494	494	496	494	493	493	493	485	513	515	503	496	496	491	486	490	494	498	500	515	502	498	525	544	544	533	507	503	502	503	506	507	508	508	506	502	497	497	494	494	494	501	506	506	498	487	493	493	494	499	514	526	526	541	543	538	523	505	492	494	502	508	507	513	520	524	529	525	524	524	516	525	538	550	553	543	529	513	527	531	533	544	539	539	531	520	510	506	508	510	515	515	515	528	525	540	546	575	612	634	640	639	644	657	667	679	672	778	798	803	800	797	809	821	843	847	851	860	876	876	876	860	842	837	838	855	850	847	840	819	814	814	814	813	806	798	793	803	869	934	995	1064	1064	1071	1083	1103	1131	1139	1154	1155	1091	968	934	899	880	885	885	888	904	917	920	927	944	951	976	997	1006	987	976	976	987	1021	1030	1022	960	937	944	963	950	932	891	910	940	971	1019	1028	1018	996	977	947	898	867	851	830	798	782	729	706	702	672	666	676	688	694	691	675	662	659	662	669	664	663	666	681	684	693	700	709	714	719	720	718	711	709	706	708	708	718	723	721	702	697	697	706	700	694	701	707	713	712	700	690	685	680	679	673	665	663	660	665	677	686	700	707	705	690	678	661	660	676	687	685	676	674	679	695	696	698	698	700	701	706	692	773	865	878	871	848	786	797	812	875	906	941	985	1016	1125	1198	1226	1226	1222	1231	1216	1229	1244	1237	1224	1274	1278	1299	1294	1275	1282	1314	1374	1406	1415	1404	1385	1366	1343	1328	1322	1311	1286	1246	1194	1167	1155	1129	1117	1112	1078	1038	1014	1002	983	952	928	933	937	941	910	888	876	872	880	895	895	884	863	827	804	797	780	723	714	714	722	729	993	951	884	825	806	788	787	801	812	822	800	800	791	777	754	734	705	705	663	617	591	578	555	533	512	508	523	530	513	489	475	485	485	488	481	475	477	478	478	478	476	472	475	480	498	503	478	478	485	481	483	483	478	477	477	473	473	469	465	462	445	453	458	480	479	478	476	478	476	467	467	489	486	469	459	460	483	483	474	471	471	472	472	468	468	466	462	458	462	476	478	471	463	464	464	464	471	462	463	464	469	455	455	457	451	446	446	447	464	467	475	473	463	458	456	449	449	453	461	465	479	479	477	471	467	467	465	470	475	479	467	462	450	444	444	442	446	447	451	449	451	449	449	446	447	452	455	452	454	452	452	461	462	457	454	456	460	467	467	467	468	465	458	454	453	453	455	453	449	451	448	439	440	433	437	444	445	438	438	441	465	486	487	472	459	459	445	452	461	461	461	461	459	458	457	460	466	466	461	464	473	478	478
486	499	507	507	517	524	518	510	500	493	493	493	499	516	529	534	534	519	498	505	504	514	520	520	512	484	486	503	510	517	517	510	494	522	535	542	544	544	541	543	526	496	489	491	491	493	498	501	509	513	505	498	498	493	488	480	481	498	504	522	522	542	535	508	488	477	494	498	508	508	504	497	483	462	452	498	509	524	537	537	547	520	497	485	492	498	501	496	490	490	485	473	485	485	485	513	522	490	471	471	479	475	475	468	472	489	495	475	481	498	504	504	510	508	508	501	506	506	507	509	507	506	503	497	497	491	481	474	481	492	498	496	491	495	495	493	499	512	526	524	534	538	529	515	512	509	507	501	499	502	507	515	518	521	527	531	535	535	534	534	549	551	544	526	498	507	506	508	501	486	487	492	494	510	505	509	509	514	514	532	556	586	625	658	658	651	673	702	719	751	759	768	779	787	778	798	953	948	932	880	857	858	858	888	895	891	893	893	877	852	837	842	851	850	840	828	823	821	821	815	817	817	832	859	891	1013	1072	1090	1118	1110	1100	1083	1087	1134	1143	1113	1068	979	950	922	902	905	934	982	980	964	947	927	924	921	913	922	945	954	932	908	891	891	889	895	889	885	869	850	829	815	771	779	803	836	866	877	875	824	772	765	748	724	712	696	680	669	663	659	666	673	673	671	669	674	677	673	666	664	664	660	659	662	664	667	674	686	691	689	696	699	687	685	695	696	690	686	691	683	686	688	686	680	678	684	689	697	699	700	701	703	695	688	688	684	681	671	665	660	659	665	665	676	687	694	687	671	634	627	622	632	645	656	670	670	668	672	689	696	702	701	706	715	715	763	874	955	985	986	967	958	983	983	968	951	930	961	986	1115	1207	1207	1231	1215	1219	1206	1215	1231	1228	1190	1156	1130	1102	1029	1009	1025	1042	1056	1063	1037	1020	966	932	897	861	865	865	858	772	744	744	738	754	757	746	726	725	717	703	682	635	624	651	653	647	628	623	632	632	639	628	628	593	582	570	584	584	583	576	541	541	540	729	651	647	641	618	599	583	578	594	617	633	616	597	578	561	554	559	562	562	540	516	506	509	501	485	488	502	524	533	514	490	473	480	484	484	480	475	476	477	477	479	474	470	471	479	498	502	479	481	482	475	465	451	462	470	475	477	473	470	466	461	445	454	458	479	467	461	479	479	474	475	475	480	480	473	480	491	487	475	463	454	463	485	482	482	481	487	480	473	469	470	473	476	477	477	474	474	462	453	457	464	469	471	477	476	470	469	469	472	466	461	462	463	461	449	449	451	451	453	453	458	466	475	472	467	463	463	465	466	470	472	461	455	447	441	441	450	446	447	446	446	445	444	444	443	444	452	452	446	444	443	443	451	462	465	462	460	461	464	464	461	462	459	456	453	452	452	451	450	450	449	448	439	439	436	433	436	435	449	449	450	455	464	465	463	456	456	448	444	446	443	451	451	454	459	473	474	460	460	452	460	473	481	478
489	496	510	528	528	549	552	544	507	512	512	521	531	534	524	529	529	524	517	503	490	507	512	512	512	484	596	610	632	622	622	589	555	544	539	538	528	528	520	533	542	529	531	544	544	550	554	531	518	528	536	545	545	543	532	510	485	490	504	522	497	497	497	487	479	478	492	500	504	504	507	500	485	465	458	508	513	522	536	536	547	519	497	487	492	498	493	489	490	490	485	471	471	478	519	528	522	490	476	479	479	479	482	479	477	485	486	486	492	498	503	504	504	506	501	495	495	500	506	507	507	507	502	494	490	490	481	476	484	495	499	496	495	495	496	490	494	506	524	534	534	527	524	512	508	506	504	501	498	499	504	511	515	517	524	526	527	527	528	525	528	541	521	516	499	483	492	499	500	489	489	490	505	519	528	545	581	623	623	656	686	739	778	804	792	770	806	849	876	907	915	923	928	934	939	944	953	948	996	920	889	890	901	916	919	916	906	906	884	862	849	851	858	857	845	827	826	834	881	919	939	954	974	1008	1052	1072	1088	1103	1109	1101	1079	1064	1031	1017	1005	980	975	966	944	928	932	957	992	1005	1026	1022	981	945	933	926	920	915	924	910	853	802	783	783	768	758	762	758	739	716	700	698	704	710	720	728	733	726	723	720	687	680	682	688	668	660	653	654	653	644	643	655	671	668	664	658	664	663	659	658	655	653	654	661	670	673	679	685	693	700	695	683	678	679	680	677	677	684	677	670	664	663	663	660	659	671	683	695	696	695	688	686	677	679	682	682	679	672	661	657	660	665	667	672	675	679	672	636	627	622	619	626	638	648	660	662	676	680	672	683	711	722	745	742	734	761	870	948	996	998	975	966	983	981	965	936	924	947	964	939	939	845	825	823	815	807	805	805	809	796	772	727	685	683	682	678	675	678	685	655	641	642	642	597	572	592	594	579	556	568	565	564	562	573	575	558	554	555	550	528	519	517	537	533	532	528	527	531	531	537	537	538	535	510	507	507	515	546	549	545	541	540	537	524	523	520	519	520	549	554	537	539	539	522	509	499	498	515	523	523	560	541	516	504	507	501	485	488	495	511	516	511	500	487	483	480	485	484	481	482	487	487	493	493	482	498	502	497	487	479	478	483	484	472	474	476	470	475	475	485	493	480	465	465	472	474	485	479	487	480	481	477	484	484	490	491	476	472	475	474	473	467	467	466	466	475	475	466	462	482	472	468	471	470	471	470	473	472	472	463	453	457	461	468	472	478	474	473	470	470	471	466	460	459	459	456	447	448	451	451	450	452	455	472	446	447	445	447	447	452	454	455	453	453	451	446	444	441	450	445	444	444	441	439	436	436	440	442	449	447	444	440	443	443	451	465	472	472	468	465	465	460	453	454	453	451	444	444	465	463	445	450	449	444	444	437	430	426	424	429	445	445	448	452	458	461	460	460	452	446	440	441	441	441	441	445	453	467	470	460	460	453	460	473	481	481
453	455	493	520	520	533	520	487	452	447	447	469	485	489	482	502	502	512	515	511	520	498	498	498	513	566	596	610	0	587	587	581	560	547	538	525	507	507	501	497	507	535	566	587	595	595	563	533	516	512	514	504	503	503	478	455	438	438	463	484	497	497	496	483	473	476	492	501	503	501	501	497	500	531	529	532	541	547	504	504	485	481	492	519	505	483	462	446	437	437	452	459	479	498	500	498	496	478	476	476	476	476	475	475	482	487	490	488	494	497	497	497	497	493	489	483	486	493	500	506	506	504	499	495	488	488	473	472	484	493	496	496	495	495	494	490	492	502	514	525	525	527	524	510	501	501	500	493	498	500	506	510	514	516	519	518	521	521	516	505	502	522	517	509	486	484	491	499	506	517	534	548	583	636	687	725	798	886	912	912	958	966	965	957	958	994	1046	1076	1107	1129	1141	1139	1117	1105	1110	1117	1126	1064	996	920	959	969	983	987	985	975	984	1000	1000	1001	988	958	946	936	918	903	891	909	992	1043	1082	1096	1082	1072	1070	1077	1088	1092	1090	1083	1026	979	961	935	940	959	965	963	948	943	946	978	1004	1029	1042	1035	1001	952	933	920	883	816	756	738	747	744	715	690	690	682	694	685	671	658	646	653	658	663	667	658	650	637	632	630	626	635	643	647	630	632	642	643	645	641	642	641	649	653	653	655	648	640	638	636	639	646	651	663	675	679	681	687	695	694	684	673	666	656	652	652	675	679	663	660	658	660	659	648	641	636	637	650	658	656	651	644	644	641	649	656	657	652	648	637	635	639	641	643	636	631	624	618	615	614	615	621	628	644	644	639	662	677	669	683	712	723	740	739	731	715	719	724	716	705	688	676	666	665	657	652	647	642	639	638	638	624	612	610	608	606	597	592	598	615	598	576	571	573	576	566	553	547	548	548	541	539	540	537	530	510	509	515	523	535	524	527	551	559	571	555	550	543	535	534	535	534	534	528	527	526	526	531	531	538	538	537	536	512	507	505	515	549	549	545	537	534	536	524	522	523	519	520	553	554	540	540	539	522	507	499	497	513	550	550	551	543	539	536	536	538	537	535	540	542	552	541	535	534	518	508	505	502	511	509	509	503	507	524	512	517	505	494	483	476	476	481	482	484	474	476	476	473	473	472	470	471	476	481	488	489	486	479	471	470	474	478	487	487	495	478	466	466	468	472	474	471	466	464	465	471	471	463	454	454	471	458	457	454	460	461	465	465	472	463	452	451	459	462	470	472	472	472	472	470	460	456	454	454	452	453	451	448	448	453	454	453	458	434	444	456	476	480	480	480	461	454	447	445	446	446	446	444	453	458	461	464	462	453	452	452	451	450	446	445	440	441	448	448	455	465	466	464	461	452	452	446	449	455	458	448	438	438	441	463	445	442	442	438	438	433	429	425	426	431	438	438	448	450	450	440	434	434	433	436	438	438	436	436	438	435	430	422	421	421	460	453	458	474	480	480
505	527	549	559	559	524	500	481	457	442	442	463	492	505	503	498	504	504	506	493	518	0	0	0	0	0	0	0	0	587	546	535	551	539	518	498	488	488	485	480	490	517	535	554	556	556	547	523	504	500	498	490	472	472	450	423	416	425	447	477	493	493	496	483	455	447	450	453	453	458	458	467	495	488	468	466	482	510	517	517	500	494	495	506	509	506	498	484	475	475	468	466	464	482	490	484	475	475	476	476	476	472	471	481	490	495	492	486	489	489	493	491	491	488	482	478	480	485	487	493	499	502	500	494	486	486	473	472	478	492	496	494	494	493	495	490	495	499	507	515	515	517	516	510	501	493	486	482	484	491	501	509	515	537	534	520	526	550	550	534	532	501	510	509	513	515	541	563	587	634	692	752	825	913	992	1027	1042	1066	1100	1100	1109	1090	1042	1023	1026	1042	1065	1102	1124	1151	1152	1143	1132	1114	1114	1115	1114	1062	1006	969	959	969	975	979	970	964	975	999	999	996	981	965	948	933	908	904	921	973	1018	1046	1078	1093	1087	1083	1084	1086	1083	1083	1048	1021	1007	961	941	936	936	948	938	916	890	865	843	815	786	787	787	791	797	761	710	714	688	655	619	640	656	646	637	631	631	635	646	648	642	611	612	625	640	649	645	639	629	605	597	588	584	593	603	616	622	625	625	623	626	633	627	621	624	639	642	641	626	612	609	612	616	614	620	633	643	640	638	638	630	619	612	610	602	602	603	614	634	639	639	620	609	599	585	580	578	581	579	580	586	590	591	584	580	577	572	571	569	569	555	558	564	572	578	581	572	563	537	556	601	609	616	620	623	628	632	620	609	603	606	605	616	623	628	626	616	586	582	582	576	572	567	569	565	562	563	574	585	590	587	587	582	580	573	573	573	574	579	584	582	574	572	574	570	572	575	567	553	549	549	548	539	539	537	536	530	510	509	514	523	535	523	515	541	559	560	553	553	540	535	534	535	530	528	528	525	520	524	524	546	546	556	555	551	548	557	561	515	549	549	545	538	534	537	542	554	563	571	578	582	592	578	559	559	547	539	533	528	537	537	544	546	547	541	539	541	541	539	542	543	546	548	539	535	536	517	509	504	503	508	511	511	506	506	520	512	513	503	497	483	471	470	476	480	484	479	478	478	478	475	472	466	468	468	474	480	479	474	459	464	467	470	473	473	480	496	463	453	454	462	469	468	470	466	461	454	454	454	456	443	446	454	450	453	444	445	449	465	465	462	451	445	446	450	457	462	467	469	464	464	461	456	454	453	456	454	451	453	450	450	455	458	451	432	426	436	447	460	460	472	474	465	451	440	445	446	444	444	444	459	463	464	464	463	457	457	452	452	447	444	439	437	442	442	453	460	463	463	454	447	440	440	443	448	452	448	445	443	438	441	446	445	438	433	430	430	430	427	428	429	437	449	449	454	451	430	428	430	430	436	439	436	436	437	437	437	435	432	421	421	421	431	430	430	439	441	441
505	527	539	530	530	512	502	516	514	532	532	570	579	543	522	497	468	468	0	0	0	0	0	0	0	0	0	0	0	546	546	535	531	522	500	479	457	456	456	467	489	513	526	527	528	528	515	507	491	485	489	481	455	455	420	391	383	420	495	484	472	472	465	471	455	447	467	468	469	468	468	469	475	477	475	481	488	501	504	502	502	490	479	485	489	491	495	497	494	482	482	471	471	481	483	480	473	472	472	473	472	472	471	501	498	487	480	482	482	482	484	486	486	483	480	476	478	480	485	489	495	499	499	496	487	472	472	465	467	478	494	494	490	488	487	487	489	491	494	502	509	509	510	505	497	493	486	465	465	474	478	484	491	512	521	506	518	565	565	559	553	549	580	575	584	603	690	780	850	944	981	1003	1031	1029	1021	1018	1034	1054	1083	1092	1092	1076	1037	1023	1032	1042	1064	1103	1130	1150	1146	1132	1117	1111	1101	1079	1063	1022	976	966	959	965	975	979	805	788	784	799	814	814	813	810	808	806	819	859	908	960	1004	1040	1031	1025	1021	1029	1038	1036	1018	990	974	957	957	945	929	878	858	810	790	776	727	675	670	639	596	586	594	617	646	634	595	573	584	580	580	589	598	600	597	597	609	609	610	605	592	579	577	602	615	618	616	579	558	571	573	569	566	565	580	576	569	576	575	572	570	572	549	546	547	569	570	564	554	541	552	557	550	545	547	557	563	556	566	573	572	556	554	551	542	550	556	562	562	567	571	574	575	572	562	560	573	576	575	578	583	589	589	584	581	579	575	570	569	567	546	557	563	572	578	580	571	563	538	552	593	608	611	617	619	626	618	611	606	603	606	612	615	624	626	623	613	583	580	579	577	574	575	578	573	564	564	572	584	594	589	589	587	581	579	577	574	576	578	579	582	577	574	583	593	597	598	581	567	569	571	566	562	559	548	549	550	546	542	540	539	544	547	549	554	562	567	568	563	550	548	550	550	519	539	537	505	504	511	513	547	547	543	561	560	563	557	561	572	579	578	570	562	560	559	559	570	577	576	578	578	586	578	575	562	554	541	533	532	539	539	543	543	535	529	524	530	538	543	541	516	515	523	532	534	542	535	510	502	491	499	499	505	503	499	502	501	508	485	469	467	469	468	476	480	482	475	473	471	471	470	469	457	442	460	463	462	473	464	460	462	468	467	468	468	471	484	459	447	444	458	464	470	470	467	461	454	454	450	444	445	449	449	448	445	437	445	449	452	452	453	448	447	448	448	443	444	456	462	457	457	455	456	454	452	450	451	450	451	448	448	447	452	452	432	424	426	441	437	437	434	429	442	451	440	437	436	438	438	440	447	455	448	439	431	431	431	431	426	417	416	423	436	450	450	459	459	457	450	442	439	440	440	439	445	448	445	445	443	443	441	444	442	436	428	420	420	418	422	424	434	466	466	469	456	443	431	430	430	430	436	437	438	435	435	435	436	435	432	421	428	428	429	424	425	434	434	434
528	531	539	530	511	491	494	525	556	595	613	613	0	0	0	0	0	0	0	0	0	0	0	0	0	0	430	418	438	482	514	514	531	522	500	458	437	423	423	427	436	447	460	462	457	457	465	469	461	438	426	427	419	419	401	387	372	430	471	472	469	479	479	473	453	459	467	468	470	471	471	472	473	483	485	487	478	466	463	465	465	468	471	475	482	486	488	491	487	475	475	468	468	474	478	475	469	468	470	482	485	485	486	501	498	489	483	485	482	474	473	476	479	479	479	478	479	479	484	491	496	499	495	491	484	472	472	460	461	467	474	473	466	467	479	480	483	487	490	498	500	500	495	509	507	495	476	465	483	485	485	483	473	475	485	550	558	541	541	536	531	542	567	582	606	723	819	824	826	952	988	1007	1029	1036	997	951	907	905	942	978	978	987	1015	1010	995	967	952	969	1008	1038	1035	1007	982	963	957	948	938	934	928	912	900	877	846	824	805	788	688	686	683	683	674	672	670	677	684	718	756	759	767	774	770	761	749	744	742	748	751	705	680	658	654	658	639	631	624	602	607	594	561	549	556	558	544	536	523	539	547	549	543	532	529	531	540	547	563	565	560	550	546	552	552	560	560	556	560	568	570	570	567	557	551	558	565	570	563	563	577	573	569	576	574	567	563	567	556	549	535	523	511	554	544	537	545	551	545	541	545	555	559	552	561	572	573	556	553	548	537	547	552	560	561	565	568	574	575	569	560	558	561	573	572	574	591	598	600	575	570	603	596	591	588	582	578	560	572	572	579	566	563	567	573	596	600	605	620	631	636	625	614	602	604	610	614	615	612	612	607	603	603	599	587	585	582	588	590	589	593	600	600	604	607	607	607	596	593	589	586	581	578	579	578	583	579	580	581	589	590	588	573	583	575	569	563	563	562	563	565	569	572	574	577	577	574	579	577	575	576	580	572	565	558	560	563	563	539	545	516	510	505	506	498	503	536	536	559	561	560	563	574	579	585	590	581	572	564	569	576	583	587	582	579	579	578	571	571	565	564	544	522	514	510	514	514	515	522	518	515	510	505	496	497	500	506	507	505	496	505	516	530	515	498	486	483	483	483	490	489	488	488	488	479	470	465	469	468	458	458	464	466	466	463	463	465	464	462	451	441	452	453	459	465	466	470	470	468	463	463	462	464	469	450	453	462	464	467	469	467	464	459	459	457	455	453	450	451	449	445	437	435	437	443	443	448	446	442	443	445	444	443	454	445	445	444	450	451	448	444	441	445	446	446	444	444	439	438	444	428	422	418	431	431	431	428	427	442	437	424	419	422	428	428	435	446	451	442	431	425	422	422	427	420	427	437	445	452	456	456	457	452	445	435	433	434	434	434	437	438	448	445	444	441	441	442	441	439	435	427	425	425	428	432	438	435	441	441	448	451	443	437	432	421	421	425	429	434	434	432	435	436	433	430	431	431	431	431	430	423	428	428	428
512	516	525	511	491	491	484	521	557	588	0	0	0	0	0	0	0	0	0	492	519	526	525	503	503	472	464	457	462	468	498	498	519	512	487	458	437	432	432	433	441	436	434	481	488	478	478	467	458	455	454	470	473	467	467	463	455	473	478	476	472	478	478	475	476	475	473	472	470	471	470	470	471	474	481	476	469	461	458	457	457	461	464	470	478	481	481	483	477	467	467	463	465	468	471	472	473	478	474	475	467	467	465	472	479	489	483	476	484	481	473	473	479	479	482	481	479	483	490	494	491	482	482	482	477	465	465	456	459	465	476	472	465	461	466	460	478	490	485	459	457	457	485	503	511	502	490	473	483	485	486	478	471	471	480	558	559	540	532	532	528	544	568	584	607	723	815	818	812	794	786	797	804	814	812	795	788	785	794	805	805	823	824	794	764	744	753	789	830	850	835	801	781	776	781	786	783	783	778	759	737	723	698	715	709	702	688	686	583	575	575	575	584	586	583	599	604	610	610	610	612	613	588	565	564	558	558	552	543	535	542	545	546	545	543	543	545	548	550	549	543	550	544	536	527	538	547	547	543	532	529	530	541	547	565	560	557	547	545	548	548	557	557	553	559	565	571	567	567	558	544	551	557	553	554	558	554	550	543	543	541	542	536	532	531	532	540	510	506	535	523	525	529	540	552	565	577	576	551	555	557	569	588	588	585	578	580	585	588	594	593	597	599	601	606	605	601	602	615	612	607	608	616	627	632	630	621	607	597	596	601	614	620	622	623	620	615	614	608	606	607	611	608	612	621	629	630	626	614	601	599	601	605	606	606	604	597	597	596	599	599	595	589	592	593	595	599	601	601	602	603	602	602	596	589	586	583	581	581	579	580	579	578	579	585	588	586	576	570	572	571	568	562	561	558	561	567	571	579	578	580	582	581	578	575	579	585	583	582	564	559	556	562	562	541	546	550	515	501	498	508	532	532	529	559	561	563	561	568	577	579	581	578	571	566	567	578	587	589	586	581	578	575	571	562	568	556	533	507	504	511	511	514	511	510	509	508	508	505	503	497	492	505	502	498	486	481	480	501	512	500	482	478	478	482	486	484	483	485	489	480	470	465	469	468	458	457	461	461	457	457	459	462	463	459	449	446	448	447	451	461	471	474	472	468	468	459	457	456	458	464	467	483	470	464	462	473	471	471	471	465	458	452	450	452	449	445	439	432	433	433	437	443	442	438	432	440	440	444	444	439	439	440	443	445	444	443	440	437	436	438	438	438	429	429	429	429	423	415	427	431	431	428	427	428	430	422	417	416	416	419	430	442	448	440	426	418	417	417	415	417	422	433	446	451	452	452	457	456	436	427	424	425	425	428	437	438	438	437	436	436	436	437	441	435	431	427	427	422	426	432	434	435	434	434	439	438	441	438	430	430	417	416	423	426	434	432	432	430	427	431	428	433	433	434	429	428	424	424	423
472	472	471	466	461	461	484	521	526	565	570	570	0	0	0	603	578	578	521	471	473	492	519	522	522	505	479	483	484	491	491	491	513	514	492	468	441	432	432	485	477	464	454	472	486	488	488	474	471	475	470	474	479	483	483	486	478	473	469	466	462	467	467	476	479	474	469	467	465	469	470	470	473	480	483	474	470	460	459	464	464	466	462	469	474	476	476	470	467	464	464	460	459	463	467	473	480	484	470	464	463	463	464	469	477	477	475	476	484	483	485	492	498	498	495	480	467	467	463	458	455	466	466	473	472	464	458	458	456	467	482	491	492	486	466	453	444	453	463	470	477	484	484	504	508	503	491	474	484	487	486	478	460	470	494	502	504	475	468	468	467	479	497	510	538	583	588	588	587	588	584	585	595	619	627	651	644	629	615	600	589	589	585	579	580	578	600	616	623	627	612	608	595	601	609	611	610	610	615	615	606	601	617	607	605	610	610	592	583	575	545	549	552	558	549	543	543	541	543	544	547	546	530	528	525	516	509	506	515	522	536	544	547	545	544	544	545	549	547	546	545	541	540	536	534	533	542	555	564	551	540	536	538	542	551	563	562	556	556	553	547	547	539	535	539	543	547	551	564	567	563	572	581	580	577	575	567	561	563	564	567	571	573	579	583	588	579	543	538	561	578	577	593	601	606	609	613	612	611	609	612	621	628	635	641	650	650	640	632	613	608	609	610	612	608	615	625	630	631	625	615	609	613	623	627	625	619	606	596	599	597	614	618	622	626	622	617	613	610	609	611	614	616	616	621	626	627	623	608	598	597	596	598	604	601	597	586	574	588	604	600	593	571	564	564	592	602	600	598	593	594	594	590	589	585	580	579	575	575	573	573	574	574	582	587	588	585	570	559	560	573	561	556	553	553	554	566	575	577	577	576	573	571	573	568	575	581	577	568	559	558	555	560	563	544	546	549	551	551	546	538	533	532	529	545	551	558	558	564	571	575	574	569	564	559	564	573	581	584	583	572	565	557	558	565	559	546	512	508	505	502	502	504	505	503	505	505	512	513	510	504	513	511	506	499	483	473	476	476	476	481	477	477	476	477	481	481	482	487	486	480	474	467	467	467	465	461	455	446	441	441	443	451	452	453	448	439	440	447	453	454	454	459	459	458	458	446	445	461	465	464	456	454	450	447	443	443	435	435	432	428	427	432	450	452	452	452	447	441	435	435	433	437	438	435	420	435	436	444	449	430	430	429	441	444	441	439	420	414	420	405	405	416	432	427	424	422	421	431	429	427	431	435	428	429	428	422	416	413	413	417	429	439	447	442	432	419	403	403	398	404	415	424	427	427	427	425	419	418	418	419	421	419	425	428	429	431	431	429	429	429	425	429	434	435	430	425	425	422	423	427	428	429	425	425	420	424	426	423	421	421	417	414	423	426	427	427	422	420	423	425	421	421	418	427	431	424	411	411	416
467	485	499	478	444	444	442	477	526	565	479	479	480	481	495	521	533	507	507	468	457	468	490	483	483	455	460	470	464	459	460	460	471	511	503	476	457	466	485	485	477	495	490	487	485	485	485	479	479	474	473	475	482	494	494	501	499	490	483	473	471	474	474	480	481	476	466	456	455	461	468	468	473	480	486	481	477	479	475	468	466	466	466	470	475	475	474	469	465	463	463	463	467	475	478	473	476	474	470	464	463	463	463	468	473	476	476	470	479	483	472	473	476	471	471	455	455	449	442	441	444	437	444	448	462	473	456	456	454	465	481	491	497	488	464	452	444	454	462	470	477	484	484	485	479	455	430	425	436	463	466	460	460	470	490	474	474	479	485	489	489	495	498	503	505	507	508	524	524	520	517	517	525	532	539	545	540	539	539	541	537	537	521	517	518	525	538	542	541	544	542	539	537	538	554	556	555	551	548	548	550	552	553	547	549	552	555	553	548	545	549	549	549	550	551	546	545	540	541	542	546	542	531	528	524	516	507	505	511	523	540	545	551	563	574	578	579	581	577	577	578	581	578	570	563	577	586	595	593	582	584	596	602	603	601	598	593	580	570	563	561	561	559	545	537	536	536	550	557	562	564	563	565	567	574	581	576	575	575	579	587	594	606	611	607	601	584	579	577	584	580	578	579	598	604	609	611	612	610	607	610	616	625	637	645	653	654	643	637	619	615	615	616	613	608	614	620	626	628	627	623	611	610	616	608	601	605	598	589	593	603	598	604	611	618	620	617	611	607	610	613	614	613	619	621	621	624	620	609	591	585	581	589	590	584	576	566	562	579	587	579	566	555	554	559	574	597	599	589	583	583	578	577	579	576	572	570	565	565	568	568	568	569	581	586	589	581	580	576	575	571	561	556	553	553	554	561	574	576	570	542	541	538	540	550	550	547	561	560	557	560	563	566	556	550	552	551	548	543	543	538	538	533	546	541	542	546	558	563	565	568	571	566	562	558	565	570	576	573	570	554	544	544	549	555	549	541	534	509	505	505	499	501	506	500	503	507	514	517	518	519	516	513	508	500	482	469	465	468	471	474	478	478	472	472	476	478	479	487	486	480	477	465	459	456	458	457	452	447	443	443	444	448	451	453	449	441	432	442	454	449	436	434	439	448	448	456	456	452	451	447	441	443	446	446	442	438	432	432	425	420	427	432	439	445	446	443	425	423	422	422	430	430	427	422	418	420	428	423	413	425	425	431	433	438	434	428	416	412	416	402	402	409	415	426	427	424	425	431	429	429	429	433	436	434	432	430	426	423	423	425	429	434	434	433	433	429	429	415	403	406	411	426	425	415	415	409	413	414	413	410	421	419	419	424	423	423	422	420	414	414	413	417	423	428	430	426	426	419	421	425	426	422	417	417	414	415	420	426	423	423	417	414	415	420	418	418	422	425	422	423	420	420	417	425	430	419	402	402	412
466	489	507	515	488	488	429	410	432	456	479	479	482	495	498	481	458	443	443	427	441	457	499	487	448	448	441	453	450	449	455	464	464	472	500	484	476	480	493	493	496	495	490	474	475	478	478	471	456	460	461	464	469	473	473	479	484	485	486	483	476	469	473	473	477	473	459	453	455	459	468	480	480	481	486	481	457	457	454	455	456	456	462	467	478	479	474	465	457	457	459	459	461	466	469	454	461	463	455	451	453	454	454	462	465	466	467	468	469	468	472	473	465	468	468	458	449	444	436	437	446	446	442	439	443	452	467	467	471	472	472	469	464	457	459	460	465	467	461	462	474	480	480	485	474	468	459	457	457	455	464	472	489	492	490	474	472	478	487	494	494	498	500	504	505	505	504	525	524	519	516	517	524	531	536	543	536	537	538	540	533	520	520	519	520	524	540	543	546	549	544	539	537	539	551	557	556	552	548	549	553	559	555	547	547	551	555	553	547	546	549	549	549	550	546	547	546	549	549	560	547	540	532	530	531	542	542	542	544	548	548	549	552	561	572	575	574	578	573	575	572	580	578	573	573	590	597	599	597	588	588	594	596	598	593	589	583	581	573	567	570	562	562	553	543	541	550	557	558	561	559	559	562	563	566	574	585	585	586	589	595	605	613	613	609	601	595	595	597	583	583	582	582	594	600	605	609	603	595	580	580	585	611	629	630	628	623	618	610	593	588	590	613	612	606	602	603	607	609	614	621	623	622	613	600	604	602	588	585	590	597	598	596	609	609	614	612	605	604	610	608	601	596	594	605	614	612	605	595	588	590	590	590	589	586	579	572	578	577	579	572	559	550	549	559	573	587	598	588	549	549	550	556	560	563	563	553	553	556	561	564	564	565	566	571	581	587	585	586	581	571	562	558	560	557	538	526	527	536	537	538	530	528	529	532	546	546	543	542	546	559	563	564	551	544	551	554	548	543	543	540	540	539	540	540	541	552	556	559	557	561	562	554	550	553	561	569	566	565	546	533	523	532	540	540	529	530	528	522	506	506	501	503	507	508	500	507	508	516	518	517	514	509	504	498	487	477	466	469	471	475	481	481	472	470	472	478	479	476	474	471	475	459	456	457	457	451	448	448	448	444	446	451	457	460	452	445	433	442	452	435	433	433	440	440	451	458	452	450	452	450	443	441	440	429	429	431	431	428	425	420	418	427	436	429	427	425	431	438	438	440	435	431	429	424	421	418	416	409	409	409	422	430	430	432	423	422	410	408	407	407	409	406	409	423	426	424	425	430	432	432	430	426	425	429	430	430	426	425	425	424	427	421	416	418	421	420	420	418	422	421	412	416	419	415	415	410	406	408	413	410	408	408	417	424	421	422	418	412	395	395	396	406	413	417	414	412	412	411	416	420	420	419	419	415	412	413	419	426	423	423	420	421	423	436	440	440	438	435	428	424	420	420	417	410	405	400	397	397	398
452	473	499	519	524	524	511	484	459	453	470	482	482	495	498	483	453	448	448	451	460	462	467	452	434	434	433	438	455	456	458	466	466	479	485	483	480	480	487	487	488	487	482	474	475	468	456	456	453	453	464	463	454	449	447	447	466	466	468	470	470	456	453	453	457	454	448	447	449	458	462	464	464	464	461	457	457	457	453	455	454	454	458	467	478	480	474	464	457	457	459	459	462	468	469	456	457	461	452	451	450	453	453	461	464	465	468	459	459	458	461	462	465	468	464	443	439	437	447	450	450	446	442	441	446	451	465	468	468	470	471	466	462	454	458	459	467	468	462	462	474	480	485	485	472	468	461	459	461	457	463	472	490	495	492	478	472	466	485	495	495	504	511	505	510	530	543	550	551	549	543	546	551	553	550	547	545	543	545	546	547	549	549	546	546	546	545	547	554	560	568	571	570	566	569	568	572	575	581	592	594	590	568	546	546	551	549	550	550	539	538	539	539	540	546	547	544	555	551	563	565	555	545	543	539	540	540	541	545	547	548	549	554	560	566	567	570	566	558	556	559	560	558	570	575	596	603	601	597	591	585	586	592	587	585	576	579	579	575	573	572	568	568	560	555	558	569	568	562	557	552	551	554	556	560	574	587	590	589	594	600	602	629	627	616	599	592	593	599	595	588	585	588	595	599	604	602	597	589	583	583	585	590	593	598	610	610	610	612	597	586	589	604	604	605	605	609	608	606	608	612	621	619	603	594	596	597	586	579	586	590	591	591	601	600	612	613	607	603	593	576	567	561	559	558	573	582	589	592	597	594	591	590	588	585	581	578	579	577	573	562	556	550	546	558	569	585	583	571	571	543	545	543	546	548	555	554	539	535	538	549	554	554	539	534	536	539	540	536	539	540	543	544	549	550	540	534	532	523	523	524	528	525	526	525	535	541	539	534	537	545	556	558	538	540	552	554	548	544	545	545	544	543	542	542	534	531	523	521	520	517	516	515	523	530	530	526	520	521	524	511	503	501	508	507	513	515	521	520	520	506	503	517	523	520	515	496	501	502	501	496	489	488	504	511	516	511	504	497	494	492	492	482	469	470	472	473	474	472	463	459	448	449	444	443	452	455	440	438	438	440	440	443	450	449	456	446	442	450	441	435	439	445	447	447	451	434	444	447	451	454	442	434	431	422	424	429	431	428	420	416	412	422	426	429	425	424	430	435	435	436	433	430	430	425	424	422	418	410	411	411	415	420	411	415	417	409	408	406	403	403	401	403	407	423	426	426	424	424	430	430	429	425	422	416	427	427	423	423	421	423	422	418	421	421	417	415	415	411	417	422	411	408	411	411	411	411	406	408	412	412	411	411	413	417	419	422	422	415	415	411	407	402	402	405	405	405	408	409	411	414	417	414	414	412	409	412	419	426	426	423	421	417	421	436	442	442	440	437	431	416	401	401	395	394	394	400	398	398	390
480	472	470	474	467	464	464	463	460	454	458	476	476	498	499	483	453	451	451	456	462	470	461	448	440	440	439	444	455	455	458	466	466	477	484	483	482	481	486	486	489	485	477	467	470	468	456	457	451	450	464	462	449	447	444	444	456	458	458	469	466	450	451	451	453	453	447	447	451	458	462	462	462	462	459	456	454	457	453	457	455	452	452	448	447	444	440	438	445	442	440	445	445	451	454	456	457	457	456	448	453	453	458	458	454	451	450	453	452	453	455	461	464	464	443	443	439	450	465	471	472	447	441	437	438	455	460	459	459	454	449	450	451	452	457	467	465	459	462	462	472	497	485	485	472	471	475	477	475	470	469	472	478	486	486	470	466	466	485	493	494	494	503	513	519	530	548	550	555	556	560	556	549	551	555	553	550	547	545	546	547	553	558	558	561	552	546	543	547	559	571	565	561	557	557	561	569	574	583	592	593	585	570	558	546	547	543	541	546	537	535	532	532	528	524	528	544	555	564	563	566	564	551	543	536	530	530	533	544	554	564	567	566	565	564	561	560	545	543	549	554	554	556	557	563	575	586	591	590	583	579	579	579	577	572	566	562	573	572	570	571	569	563	563	559	570	574	571	558	543	540	539	544	546	548	560	575	584	580	583	591	580	608	626	634	634	623	601	595	594	593	594	594	593	599	598	595	585	578	582	582	579	580	589	595	601	602	602	602	605	604	599	597	593	603	604	609	608	601	594	603	612	604	591	582	583	586	587	583	580	587	582	580	576	595	603	614	601	578	582	574	566	562	562	560	570	583	591	586	590	594	595	592	588	584	579	580	582	574	566	560	555	551	549	545	541	535	533	537	537	542	547	544	544	540	537	537	536	538	540	553	550	542	537	533	531	531	526	528	535	539	536	538	541	543	540	536	534	526	525	525	524	528	527	528	528	533	542	548	548	549	544	537	535	540	552	555	548	545	542	542	540	538	537	530	528	526	523	520	516	522	520	518	521	513	511	498	486	488	491	495	478	475	480	480	476	491	500	504	504	503	502	523	533	525	519	515	510	509	503	497	492	490	500	508	516	516	505	495	493	492	492	482	469	466	470	471	469	463	450	439	442	443	442	438	446	441	440	440	436	434	437	437	439	440	438	434	431	430	430	421	419	420	425	425	436	433	434	442	451	449	429	429	423	417	418	429	429	431	426	423	420	408	426	431	425	422	425	429	429	429	429	429	428	429	429	426	423	405	405	405	406	405	402	404	406	404	404	404	402	402	404	403	407	418	419	418	419	417	417	421	430	425	423	422	424	415	413	413	415	417	417	419	422	419	411	411	409	407	407	411	408	405	409	409	411	411	408	404	409	416	416	416	414	416	405	405	414	421	421	417	416	415	414	413	415	415	418	419	415	410	407	406	406	412	409	412	416	419	419	412	410	411	411	411	411	419	431	435	421	401	394	394	390	387	391	397	397	402	400
469	462	463	469	470	465	465	459	457	455	456	472	472	478	459	455	451	451	456	452	465	472	476	458	451	451	447	446	445	442	444	455	455	460	463	457	444	436	440	449	449	452	454	451	449	460	457	457	451	464	458	445	437	430	425	425	420	421	423	436	442	445	448	448	444	423	426	434	446	454	453	451	451	452	457	460	457	451	456	457	455	445	445	446	442	439	443	435	431	435	441	446	446	452	458	466	467	461	451	453	463	463	462	462	456	453	456	453	449	443	443	448	454	454	438	438	439	450	461	466	458	453	447	439	446	456	464	462	462	453	449	450	451	454	459	464	458	453	457	464	465	460	456	456	451	463	477	476	473	468	468	472	477	481	485	484	486	490	494	493	494	494	501	514	519	532	545	554	557	562	559	560	554	548	550	553	555	551	549	546	551	562	570	570	578	582	553	543	548	556	564	562	555	554	552	555	560	564	570	579	576	570	563	563	553	541	532	522	518	520	516	518	512	512	512	521	541	559	564	563	567	568	569	573	575	580	581	576	566	571	581	593	589	584	578	560	557	536	543	546	546	549	550	556	562	567	570	573	574	570	556	553	557	563	559	552	552	555	561	565	569	566	563	559	559	562	571	566	550	535	530	528	532	536	538	547	563	571	573	583	586	581	602	625	635	639	632	614	600	593	596	597	588	589	591	590	591	593	588	573	556	560	569	580	586	592	595	590	585	594	600	594	583	582	586	592	590	592	595	583	595	607	588	573	575	575	579	582	581	576	572	572	575	574	572	585	590	573	570	581	579	567	564	561	563	569	579	590	586	593	594	595	592	589	576	572	574	577	573	566	561	556	553	551	548	536	538	539	539	536	542	549	543	533	528	527	534	531	530	531	530	531	532	533	535	532	524	517	528	535	532	534	534	537	536	538	539	536	534	526	525	526	528	527	511	509	519	528	532	536	531	528	537	535	547	555	552	540	528	528	520	523	527	526	530	528	526	523	518	520	520	512	503	498	487	486	487	482	479	477	470	464	466	463	463	457	458	464	468	468	480	487	490	507	503	504	520	512	509	502	497	490	483	484	498	516	518	489	459	463	463	492	482	467	464	473	478	472	465	449	445	451	451	442	439	441	439	432	432	433	431	430	429	430	430	431	433	431	429	418	417	414	418	418	429	436	433	433	440	427	420	408	409	412	417	418	421	421	424	439	434	428	426	439	434	428	427	428	430	430	431	427	427	425	423	423	423	415	411	411	405	409	403	405	408	406	402	403	412	416	402	404	405	411	415	415	412	411	414	414	416	422	423	420	421	417	415	413	413	414	414	418	421	423	419	408	408	405	406	412	414	410	409	409	409	413	406	401	401	408	418	422	422	418	414	407	408	409	416	416	418	420	418	419	419	421	421	423	419	423	424	433	406	406	409	405	406	410	411	411	411	406	402	399	402	402	409	416	427	406	394	394	388	385	388	393	400	400	403	408
463	457	455	457	461	465	465	462	455	450	450	459	459	463	456	456	455	454	452	452	465	474	463	446	432	430	430	425	416	429	446	454	462	462	465	464	453	445	432	430	430	437	446	458	460	464	462	462	463	464	458	429	438	445	449	449	445	433	424	425	435	447	456	458	458	468	465	459	447	441	437	444	447	447	441	434	436	433	436	439	442	445	445	442	433	433	440	436	429	430	434	440	440	447	458	449	425	425	442	441	442	453	461	461	463	464	456	452	449	443	439	438	434	430	429	429	430	434	461	438	437	447	446	443	440	437	437	435	431	431	428	445	449	449	452	463	465	451	450	454	460	459	453	450	450	458	477	473	471	461	457	456	465	476	480	481	485	491	495	495	494	501	501	506	516	531	540	545	552	553	557	550	544	540	547	560	567	560	550	543	558	567	574	574	578	579	581	557	550	558	570	563	555	550	541	545	547	546	549	554	554	554	559	553	548	532	522	515	514	507	506	504	510	510	521	518	528	555	562	566	567	568	567	570	579	587	593	597	595	588	583	587	588	584	579	573	563	554	555	551	547	544	549	557	562	566	572	575	573	566	556	546	542	544	542	536	534	541	555	565	564	559	541	534	534	550	562	555	539	531	528	521	524	530	535	545	557	567	567	575	587	581	584	614	612	595	595	596	580	567	571	576	581	584	586	588	589	593	592	573	552	551	561	565	572	583	586	582	582	589	596	590	580	568	563	561	565	575	584	586	585	583	577	569	567	569	572	574	575	573	571	573	578	579	575	568	566	565	567	571	582	578	568	563	565	573	585	591	591	589	585	590	589	583	570	565	569	576	576	572	563	553	547	547	547	538	545	548	548	544	541	533	528	524	522	522	522	527	526	525	522	518	525	532	536	535	519	519	530	537	543	534	532	534	535	537	540	540	540	534	527	526	529	507	500	506	510	514	519	536	531	528	523	522	524	533	538	530	509	509	501	499	501	514	536	523	522	515	514	513	507	499	499	490	485	481	482	477	476	476	473	467	469	466	464	457	457	460	460	458	472	469	459	465	465	469	491	479	475	468	468	462	455	456	460	471	482	474	452	463	463	465	465	462	460	473	484	471	455	447	446	453	457	452	441	439	436	428	428	426	427	425	424	423	426	430	434	435	433	419	417	413	416	416	427	437	443	443	422	413	413	406	409	412	416	422	422	426	430	437	432	429	432	435	439	434	427	429	429	433	429	422	416	416	417	417	412	409	408	408	402	407	405	410	415	412	413	412	412	412	416	411	408	405	405	418	414	413	414	414	416	417	415	412	407	418	414	411	411	413	418	417	411	399	401	403	403	403	406	415	419	410	409	408	408	409	404	399	396	400	408	408	417	421	418	411	409	410	413	413	415	414	413	410	409	405	405	414	419	419	424	433	433	413	390	399	398	404	405	405	408	406	404	384	394	394	406	413	408	396	388	388	386	386	389	392	398	398	403	408
459	455	453	452	448	438	438	435	455	456	455	447	439	439	437	437	445	448	450	450	469	474	463	429	428	426	426	419	423	435	439	440	444	444	452	455	459	455	435	432	432	431	438	441	444	443	439	432	432	431	428	429	438	441	448	446	446	435	426	425	435	448	453	453	453	452	449	441	434	429	432	439	444	444	439	436	432	428	431	432	440	445	445	442	433	430	433	433	429	427	427	437	446	446	446	426	419	423	431	440	441	444	452	464	464	452	442	435	440	440	445	443	440	438	442	445	445	455	443	438	437	442	444	445	432	427	434	435	432	432	427	428	434	436	449	460	468	454	438	431	437	445	447	449	449	451	460	464	464	462	456	455	461	472	472	467	471	482	493	496	496	491	491	506	516	515	532	537	539	541	553	552	546	543	548	570	589	588	581	578	570	565	569	576	576	578	575	577	580	584	576	562	554	543	540	540	537	527	536	545	551	554	550	547	538	521	511	517	518	511	506	507	512	529	529	529	544	553	556	563	569	571	567	570	577	577	586	594	594	588	582	582	590	587	580	570	565	560	562	565	560	546	544	547	549	553	557	572	573	568	558	547	540	534	533	529	532	539	546	553	557	546	531	530	534	534	549	546	537	533	527	523	523	529	536	535	545	552	564	569	582	599	613	616	600	591	572	562	544	531	528	536	546	555	566	571	581	583	557	549	542	517	526	524	527	537	539	541	542	554	571	587	580	567	559	555	559	565	577	590	594	588	576	568	566	567	569	572	571	572	570	573	575	578	579	566	560	560	560	570	589	609	591	582	581	589	596	600	583	566	574	580	581	570	564	561	568	573	575	573	561	550	541	540	548	553	550	550	550	547	539	522	520	517	518	519	519	518	522	520	517	516	515	532	537	526	524	523	527	525	527	531	534	539	543	546	541	539	543	537	533	531	512	492	496	502	508	514	519	518	509	506	504	507	517	513	506	501	501	501	505	505	503	513	515	533	514	513	510	509	506	503	497	497	483	479	481	476	473	476	478	485	480	475	471	468	462	459	459	452	452	456	457	453	448	461	452	459	456	453	451	454	461	462	463	459	455	474	452	451	451	454	461	443	443	455	449	447	446	443	444	455	459	450	443	437	434	434	431	425	426	422	420	424	420	430	434	436	437	424	420	413	408	408	419	427	444	440	435	409	413	406	408	411	416	426	426	430	432	427	425	424	432	432	436	431	429	429	429	428	422	417	412	410	411	410	408	406	404	404	402	404	415	415	414	413	414	412	411	411	408	407	403	402	404	419	425	418	418	415	414	413	408	408	404	406	406	406	408	409	409	400	391	395	400	403	403	400	403	415	419	414	406	407	407	403	396	392	393	397	405	405	413	415	416	410	406	408	408	410	408	411	407	397	391	391	389	390	419	419	422	428	428	431	405	382	389	391	401	401	406	410	418	417	405	405	400	401	402	408	404	404	387	382	387	389	398	398	400	402
450	450	451	455	453	446	442	442	448	457	457	453	445	445	440	443	445	442	443	443	442	440	434	429	428	426	426	423	425	432	434	437	437	437	439	448	453	452	439	432	432	433	438	443	447	446	442	437	437	438	431	432	433	441	447	450	450	446	447	450	452	452	448	447	447	446	439	435	429	427	428	438	433	433	434	434	426	415	409	428	444	449	443	443	432	430	433	436	433	426	422	434	438	438	435	426	420	419	430	439	442	441	443	454	454	467	444	436	433	434	438	444	451	453	449	439	439	437	437	433	431	442	444	448	435	427	433	432	427	427	424	426	432	438	443	443	434	431	424	419	418	424	428	434	441	441	451	460	460	457	453	455	462	467	467	464	464	466	469	473	475	480	480	489	502	515	504	509	513	520	525	541	547	548	554	568	586	582	579	578	572	567	569	576	576	575	574	574	580	591	583	570	550	539	537	539	537	528	533	543	553	555	554	547	538	521	521	519	517	504	500	513	539	546	546	543	546	552	551	554	563	574	572	575	577	577	586	586	575	572	580	582	588	580	557	555	559	559	559	562	559	548	543	545	548	551	551	560	569	568	559	556	546	539	532	529	532	535	538	542	544	544	536	531	535	535	540	538	537	533	525	520	516	519	526	537	535	536	549	558	564	580	598	602	593	584	571	562	540	537	535	535	541	540	538	542	542	532	528	527	529	530	524	522	519	528	536	535	543	552	571	584	582	572	560	557	561	564	570	578	585	586	579	570	563	563	567	570	570	570	570	566	557	556	563	554	545	552	558	568	584	602	598	593	597	595	595	590	586	570	561	565	576	568	557	554	559	569	577	574	562	549	538	539	544	547	547	541	538	536	535	530	515	516	518	517	516	518	519	517	520	524	531	531	531	529	527	523	504	512	510	509	508	508	522	536	536	533	538	540	537	517	488	487	488	502	508	511	511	509	505	502	502	506	512	517	508	508	503	503	506	506	505	512	514	523	512	506	507	506	505	503	504	501	486	477	471	470	472	474	485	498	485	483	480	456	456	456	460	456	452	461	453	450	443	458	450	455	454	452	450	456	471	470	466	459	455	441	437	437	438	444	455	461	438	433	430	430	430	434	445	450	453	450	431	432	432	432	430	423	426	421	424	420	413	421	435	437	436	428	413	406	406	407	419	421	436	441	435	409	408	414	408	410	419	430	430	436	427	422	416	427	431	431	428	425	428	426	426	422	418	411	406	406	405	408	407	404	402	402	399	399	412	415	415	413	414	414	414	414	402	402	402	403	406	430	426	418	418	411	404	397	401	408	415	414	406	406	404	400	399	385	387	389	389	389	397	400	403	406	403	398	398	398	401	397	392	392	394	395	403	403	408	406	411	404	403	399	399	399	400	397	392	387	386	386	389	390	392	391	403	423	423	430	415	397	383	391	391	394	401	412	417	446	443	443	431	408	409	409	404	404	389	383	387	389	391	391	396	397
446	446	470	473	469	461	451	451	447	449	448	453	448	448	445	446	445	444	441	437	437	431	428	425	428	426	426	427	422	426	435	440	434	434	433	441	450	450	439	434	438	438	433	433	447	449	447	442	442	439	438	434	430	438	447	450	461	461	463	466	463	461	448	437	432	432	434	441	446	427	434	437	438	438	435	435	430	420	412	427	444	452	441	441	433	433	432	436	433	418	411	430	437	437	435	428	430	435	428	423	427	439	442	454	454	468	444	438	437	440	443	440	424	424	427	431	431	435	435	430	427	441	444	448	435	429	424	428	426	421	421	422	427	437	444	436	430	423	425	427	423	426	430	435	443	443	450	456	455	452	451	453	459	464	460	460	460	465	462	462	466	475	483	483	490	502	504	509	492	485	480	481	488	499	510	524	536	535	542	545	554	552	550	548	547	547	547	553	558	561	546	545	535	527	525	532	535	530	528	543	548	553	552	547	537	539	536	542	543	542	538	545	567	569	564	564	557	551	552	551	560	574	577	575	571	569	577	586	575	536	542	545	541	540	542	547	544	548	556	555	541	529	527	530	540	545	546	546	560	556	553	557	558	545	538	532	531	533	533	534	537	537	536	537	535	541	541	538	537	529	519	515	511	513	517	533	533	533	529	532	537	548	561	580	588	581	580	565	547	546	542	551	545	538	540	540	537	530	524	527	528	531	524	519	517	523	529	537	548	565	573	580	579	572	558	556	559	566	564	562	558	558	557	562	561	555	551	550	560	565	559	556	554	559	556	546	531	521	520	521	546	573	591	601	602	599	593	587	577	562	556	564	568	557	550	550	551	555	549	542	545	545	544	539	533	531	531	530	530	530	530	524	519	520	518	515	499	502	513	524	528	532	525	518	513	508	507	508	514	519	516	512	506	505	503	513	524	523	525	524	521	513	504	487	488	498	504	499	506	505	502	502	503	507	508	508	506	506	508	516	516	507	500	495	496	508	511	503	497	497	501	502	497	496	485	466	467	466	468	477	480	489	484	483	478	472	458	458	463	462	461	455	462	460	458	458	455	455	455	460	454	452	469	470	466	461	446	440	436	436	434	433	436	451	452	436	431	429	430	430	434	441	443	421	419	429	430	430	428	420	427	428	430	420	420	414	418	434	428	417	412	414	414	418	416	414	418	441	432	421	415	401	405	407	406	406	406	410	408	405	408	417	421	421	418	414	402	402	411	407	403	397	395	392	399	402	403	409	409	406	396	389	386	415	415	412	407	408	408	409	408	407	406	408	410	413	403	399	399	397	397	393	401	410	408	405	388	388	386	386	387	384	387	391	393	389	397	398	399	399	396	392	393	393	397	398	397	398	402	402	403	403	401	391	391	399	398	396	396	396	395	393	394	393	386	386	387	386	385	389	395	408	408	416	410	406	387	390	390	404	409	409	410	415	415	421	416	406	405	404	404	402	389	383	382	380	380	383	385	390
446	446	468	473	473	462	449	449	437	429	428	435	450	450	447	452	446	444	433	425	425	421	425	429	433	430	427	427	422	425	432	439	428	426	426	427	432	430	434	432	436	436	431	429	431	433	435	443	443	443	439	430	431	450	459	461	461	461	456	462	465	448	441	430	425	425	428	437	445	449	442	439	435	432	432	433	435	425	419	429	442	448	442	442	434	431	433	431	432	418	409	409	419	419	429	434	443	451	433	424	422	425	431	438	438	441	440	442	445	452	447	437	423	421	422	426	431	431	433	430	428	435	443	444	436	429	424	419	418	416	416	418	424	435	442	437	430	426	431	436	430	430	431	443	445	445	450	451	449	448	446	450	455	460	455	457	450	455	454	451	448	451	467	467	488	486	481	487	492	485	493	493	500	510	516	522	518	509	506	514	523	524	519	508	502	502	503	506	517	525	532	533	529	527	522	526	529	525	526	537	544	550	551	547	559	562	553	554	560	569	570	567	566	566	563	563	557	550	553	551	550	558	571	552	549	554	552	556	535	536	542	545	531	534	534	541	540	538	531	538	529	522	518	515	514	532	543	541	550	544	522	521	527	552	543	532	528	524	522	523	523	523	530	535	535	537	537	533	529	524	517	509	509	511	513	520	530	530	532	534	540	546	554	565	564	569	566	561	563	563	563	558	547	541	539	541	535	524	522	522	527	526	526	515	534	548	556	557	557	559	567	575	575	559	551	554	557	566	562	558	556	555	557	560	560	561	557	548	554	557	558	554	552	553	550	548	540	534	542	536	528	517	535	543	565	562	558	556	555	567	569	562	552	545	543	541	539	535	531	533	534	539	538	521	510	510	503	516	518	521	525	518	504	503	502	505	508	509	512	515	516	517	511	506	503	505	507	510	518	521	520	513	502	498	496	497	501	514	515	496	521	513	504	494	485	486	488	495	497	500	502	505	507	502	499	503	503	501	505	514	512	504	495	488	487	487	483	478	480	484	491	493	496	494	477	460	462	461	463	462	467	470	472	472	469	462	462	471	469	469	467	460	458	461	463	469	472	469	469	457	455	452	469	472	474	460	457	450	450	437	430	426	428	432	441	441	433	429	429	427	427	424	419	417	415	417	417	416	412	407	415	426	430	423	419	414	418	415	415	413	410	410	407	410	413	414	418	433	432	430	426	411	406	405	397	397	394	400	407	407	401	397	398	395	394	395	391	391	391	396	391	385	384	384	388	400	401	397	397	393	390	389	386	385	387	385	382	382	382	392	396	397	405	412	412	394	392	389	389	390	391	392	396	400	397	392	385	385	383	382	384	387	388	391	393	393	390	395	396	390	394	393	388	388	393	400	407	405	406	403	403	401	397	387	382	380	390	395	395	392	392	393	394	393	391	391	388	385	384	386	390	390	398	403	398	392	382	376	376	380	384	385	390	397	397	399	385	378	379	381	404	402	394	389	396	387	387	379	378	383
451	451	468	473	462	458	443	443	429	420	415	417	443	444	444	448	450	437	425	420	420	418	427	431	434	433	426	426	421	425	432	412	402	402	402	408	415	422	428	429	434	434	436	436	428	423	412	407	432	432	437	444	455	446	439	448	453	453	456	462	424	428	431	417	413	413	420	427	427	429	433	432	431	432	432	433	433	429	429	429	437	445	446	436	436	432	432	431	431	413	409	409	415	421	421	434	440	436	429	423	419	421	425	436	439	439	439	442	443	449	447	431	403	399	401	411	422	422	429	431	431	435	435	421	420	417	417	419	400	406	406	412	418	426	434	440	439	442	443	441	436	435	437	428	430	431	431	440	450	443	435	437	440	437	436	437	446	441	439	448	451	450	458	472	472	481	481	486	493	495	493	493	504	512	516	512	507	503	505	520	528	531	521	512	504	503	503	504	510	519	525	529	526	524	524	521	526	524	521	525	538	541	545	545	559	561	556	556	561	569	570	564	562	562	551	545	545	540	547	551	545	547	551	552	550	546	542	537	530	525	522	528	531	534	522	529	525	520	516	524	528	528	518	508	504	504	527	529	527	511	497	493	501	516	513	509	506	500	499	494	488	486	501	523	522	520	523	523	526	524	519	514	510	510	513	512	528	530	531	535	537	537	539	543	548	550	553	556	560	562	565	558	548	542	541	540	541	541	535	537	540	540	532	532	555	561	560	555	553	544	532	551	548	541	546	548	553	557	550	543	544	552	558	561	564	560	551	548	548	548	546	549	550	545	542	536	541	540	539	536	524	523	528	537	544	552	544	541	537	535	535	544	543	539	537	536	525	524	521	527	528	525	510	502	492	492	492	492	496	499	515	502	497	488	482	486	491	501	509	514	514	512	507	501	500	503	504	508	513	516	511	505	503	499	493	490	489	495	515	496	488	488	489	493	497	498	497	486	484	484	481	480	481	478	477	480	480	480	484	488	488	488	484	482	478	468	466	469	471	476	482	486	490	492	491	475	460	460	460	454	451	447	446	451	458	471	471	476	476	474	470	462	460	461	464	472	477	471	471	457	455	463	469	470	463	454	449	431	431	419	414	421	415	426	430	435	434	432	429	426	421	419	416	414	411	412	412	411	406	406	407	417	421	412	401	398	401	412	412	412	407	407	412	410	413	413	414	421	423	426	427	426	412	402	398	398	395	401	405	397	390	384	383	388	391	391	396	396	397	397	393	389	388	386	390	392	396	397	397	393	390	389	384	382	386	382	381	381	381	383	381	387	388	393	387	381	377	377	383	387	388	391	394	395	395	389	389	385	384	385	393	387	388	389	393	393	394	390	389	385	377	375	375	375	376	388	386	386	401	399	399	388	379	377	378	376	378	377	377	380	392	393	395	395	395	392	386	383	383	384	386	386	389	394	392	384	378	378	378	382	382	380	380	387	387	391	388	370	379	381	381	399	395	390	395	401	401	396	382	378
437	437	454	459	462	458	435	435	437	434	414	432	437	439	439	438	442	430	420	416	416	415	427	436	437	432	420	420	425	426	423	412	402	415	415	414	419	428	437	442	451	451	440	429	420	416	415	416	425	425	435	441	451	430	422	433	441	441	441	433	424	428	431	431	415	415	418	421	422	417	415	420	425	429	429	435	435	430	429	428	432	438	447	445	445	436	426	424	420	414	409	410	415	421	428	428	425	421	416	416	413	414	420	423	427	427	426	425	422	420	418	403	402	406	411	414	423	423	429	433	435	434	415	415	418	412	405	405	400	406	412	412	419	426	431	435	438	438	437	437	435	433	427	430	435	437	437	438	441	437	427	434	439	437	432	428	428	433	445	450	448	446	449	456	456	471	488	496	495	493	497	497	504	512	508	510	509	509	514	526	528	534	518	510	506	501	501	501	507	516	524	525	525	526	530	527	528	521	520	516	516	520	534	540	539	547	561	563	566	570	570	554	544	540	524	522	522	516	516	519	525	529	530	530	525	525	521	523	526	526	519	518	517	515	522	529	525	494	496	499	499	507	512	497	481	475	492	496	499	499	491	491	498	504	507	497	491	500	498	493	487	485	497	516	519	522	525	525	525	525	523	515	513	512	503	506	506	534	539	538	534	531	519	527	528	528	533	538	549	557	559	556	547	541	540	541	543	545	547	546	546	540	532	536	550	555	559	549	535	526	514	518	514	529	531	539	543	544	539	536	534	540	542	543	544	552	542	535	538	538	540	542	539	539	530	527	532	530	526	519	518	516	517	521	526	537	517	508	508	509	509	526	526	509	511	519	520	513	510	518	512	492	477	473	473	480	485	489	496	497	496	493	479	474	477	481	483	493	505	512	515	512	507	500	496	494	498	504	509	512	511	505	503	505	503	490	489	495	493	480	453	456	463	469	473	473	480	483	484	482	478	471	475	475	473	473	468	476	479	479	478	480	482	481	477	468	469	474	476	477	476	482	488	491	490	485	479	469	458	456	454	449	447	457	468	468	475	474	473	469	466	467	467	466	466	473	477	475	471	457	451	460	467	461	450	452	449	449	445	424	408	409	422	428	427	428	430	432	430	425	419	415	412	412	410	410	404	400	402	402	409	402	397	397	398	396	387	384	386	392	406	407	412	406	407	406	405	412	417	422	423	418	407	398	398	391	389	395	397	398	395	387	384	386	389	391	391	394	394	393	395	390	389	390	390	389	388	396	397	392	391	395	393	394	392	394	390	387	387	384	391	397	383	381	378	377	377	377	379	381	382	384	386	390	391	389	389	385	380	385	393	396	397	399	399	388	388	386	381	376	377	375	375	373	370	380	380	373	379	388	388	386	382	379	373	378	379	379	377	380	390	399	392	386	386	391	382	381	385	383	382	382	385	389	392	389	384	384	384	388	383	379	384	384	384	391	388	370	368	372	372	372	376	378	385	391	391	383	378	378
429	443	443	450	451	438	435	437	436	440	440	441	437	434	434	428	431	427	420	420	424	424	433	434	424	415	408	408	426	425	424	420	416	415	415	410	415	423	433	441	445	445	445	424	415	416	416	424	426	426	423	428	428	428	422	419	420	420	425	408	411	416	431	431	416	418	418	421	420	414	410	407	408	413	418	418	426	425	425	424	423	426	428	428	428	422	421	424	428	428	427	423	424	428	428	428	420	419	417	417	416	416	418	422	422	422	419	417	415	409	403	400	402	406	413	414	413	427	427	432	435	433	413	410	413	407	397	391	392	404	412	412	408	412	422	432	432	426	425	426	432	434	433	436	435	434	434	427	422	421	420	425	434	431	426	432	432	437	443	447	443	443	447	458	458	474	475	473	476	480	483	487	492	503	508	510	506	511	521	526	528	527	516	509	504	499	498	498	502	509	512	514	520	529	535	533	528	520	510	504	499	496	509	520	525	527	527	529	537	541	543	523	512	505	496	488	487	487	493	501	506	513	512	503	498	492	491	497	506	517	513	504	495	484	493	496	496	494	496	496	498	502	507	503	492	474	481	490	495	505	499	492	496	504	505	498	492	498	497	491	489	492	504	516	521	523	524	521	521	519	518	513	505	497	494	495	499	529	527	530	524	519	519	525	525	528	533	534	538	541	545	549	546	543	543	540	546	550	554	552	544	539	539	535	540	547	541	535	530	523	520	515	514	511	511	520	527	531	529	528	534	537	539	537	535	530	522	529	532	536	538	538	539	534	524	520	515	513	511	509	503	498	491	490	499	508	511	514	515	520	515	509	499	500	502	503	497	499	504	501	490	478	472	475	475	477	481	486	490	490	490	485	479	475	474	470	488	501	518	523	519	512	504	495	495	491	491	491	474	478	493	502	503	505	503	490	483	488	486	481	472	465	465	468	472	473	477	482	481	472	464	463	476	481	474	474	470	473	473	472	472	476	480	480	476	472	472	474	478	480	480	478	489	495	495	488	481	474	459	460	454	447	457	462	467	467	470	470	466	462	463	463	462	456	463	466	477	475	469	463	449	442	439	449	453	453	450	450	442	429	424	432	433	433	428	426	426	426	426	423	416	411	408	406	394	394	393	391	394	397	399	401	399	394	390	397	382	379	375	392	392	406	402	391	387	387	388	395	395	406	405	401	395	386	386	382	381	390	399	398	394	392	386	392	392	391	391	390	387	387	395	394	390	394	396	391	388	388	400	397	394	391	388	394	391	386	383	383	383	382	389	398	392	386	382	380	384	384	388	392	393	393	389	385	377	375	375	385	380	389	391	396	396	377	377	378	385	385	380	376	371	384	384	385	383	387	392	393	386	385	385	385	392	394	389	379	379	379	376	382	385	390	388	380	380	386	381	396	394	386	383	383	385	387	389	390	390	390	393	392	389	382	383	384	384	385	379	375	372	372	372	375	379	374	375	375	380	380	379	382
417	430	430	440	445	437	437	436	436	440	441	439	436	432	432	426	425	430	428	425	425	425	436	434	418	418	420	427	427	425	425	421	419	413	410	410	415	418	430	435	437	433	433	428	417	420	427	427	420	420	421	432	430	425	424	428	430	430	430	428	427	416	419	427	416	418	422	425	423	412	409	409	409	414	418	418	423	421	420	419	421	422	422	424	424	418	422	428	431	429	423	418	419	423	423	423	420	419	411	415	415	418	422	427	424	421	421	416	414	410	405	404	410	415	429	426	418	418	418	429	433	427	410	413	416	412	404	398	403	424	419	419	408	412	418	426	424	415	409	413	426	433	434	424	429	430	426	426	420	418	415	427	434	432	421	423	423	430	431	435	440	444	454	464	469	469	457	455	463	471	481	493	499	494	493	504	506	511	510	510	511	522	511	503	493	484	484	484	482	485	488	495	510	512	513	514	500	498	498	505	504	500	501	503	506	498	495	505	507	512	511	506	504	504	495	486	486	486	491	499	503	506	506	497	490	486	491	496	502	504	501	495	499	498	490	485	488	492	497	496	498	502	504	504	502	493	481	484	489	496	505	506	514	519	512	509	504	499	496	497	498	504	513	514	518	521	521	515	508	508	487	494	491	481	485	489	490	494	516	513	513	523	523	524	526	544	547	545	529	523	525	531	532	525	522	534	536	543	548	546	535	528	529	531	532	532	536	532	528	529	522	517	513	513	513	508	507	505	509	525	528	534	533	532	527	518	513	529	532	536	537	537	538	528	514	511	510	504	496	496	492	490	487	484	487	496	501	510	508	497	491	492	494	502	509	515	503	499	498	496	486	475	468	468	469	470	474	480	481	480	481	480	482	484	477	477	487	500	512	518	514	509	503	494	491	490	468	463	461	469	493	502	503	502	496	486	479	478	486	483	478	471	469	472	471	472	476	479	477	470	464	460	467	477	477	476	468	461	463	465	466	471	482	485	478	474	475	474	470	472	480	484	486	492	481	481	481	474	466	454	451	454	451	448	448	450	456	458	457	458	452	449	449	453	463	466	463	458	461	460	452	449	448	452	454	455	452	452	449	443	430	425	424	423	429	427	424	420	413	409	411	409	406	386	388	388	394	398	402	402	402	401	397	400	404	405	406	406	375	396	396	402	401	385	380	382	384	391	394	392	389	389	392	392	388	381	380	389	393	396	394	393	393	397	391	390	390	385	387	385	383	384	394	397	396	391	386	386	389	404	403	398	393	384	376	382	380	380	379	381	390	398	399	393	385	381	381	384	387	393	386	386	382	382	380	377	375	376	379	388	392	391	376	371	371	373	388	383	382	372	383	387	387	391	392	391	393	396	391	391	389	389	389	388	389	379	387	387	394	394	389	388	384	378	378	383	388	390	394	387	387	385	385	386	388	389	393	393	394	394	391	382	383	383	385	386	380	374	373	373	374	381	380	373	372	372	379	378	380	382
413	423	423	437	437	436	432	434	434	437	441	439	426	428	428	428	432	423	426	422	435	435	438	421	416	419	427	425	425	425	426	424	418	411	407	407	410	418	430	425	427	419	419	415	415	421	426	418	411	412	412	426	433	428	426	429	430	431	431	432	428	424	415	411	416	422	422	425	426	416	409	406	408	409	411	411	414	415	419	423	423	421	419	422	421	421	425	428	429	427	420	416	419	422	422	422	419	414	411	415	416	423	427	428	424	413	413	407	411	421	414	414	415	418	430	428	418	422	422	424	406	404	409	412	416	417	415	411	401	407	420	408	408	408	418	426	403	411	408	407	414	427	428	427	418	419	423	423	420	419	414	422	424	430	422	419	419	418	418	426	437	448	455	459	459	459	451	449	462	472	472	475	477	495	472	481	497	505	510	510	482	486	476	470	467	467	468	468	468	474	478	485	488	487	490	498	495	489	488	493	502	495	489	478	493	493	487	492	501	505	506	507	505	504	501	498	496	493	493	492	494	496	496	492	489	485	485	493	495	502	501	496	494	496	492	485	487	495	494	496	495	499	504	504	502	499	486	483	483	489	493	502	515	516	512	509	504	497	498	501	504	509	513	510	511	514	504	492	485	485	491	490	477	474	478	485	487	490	501	507	511	513	513	517	523	538	545	544	529	520	522	526	524	519	513	508	508	519	528	527	523	519	525	535	534	531	526	528	532	524	522	517	512	515	507	500	493	489	494	513	527	527	520	515	515	507	507	524	532	535	537	538	524	508	497	487	476	475	474	469	470	469	469	469	469	474	478	479	472	456	458	464	476	479	489	492	496	499	497	495	489	474	465	465	463	468	472	471	466	468	472	477	480	482	477	478	484	495	495	489	477	469	469	474	477	476	469	463	461	469	475	481	482	477	472	469	470	477	476	479	478	473	469	471	467	467	473	475	473	470	474	475	482	494	494	489	482	473	464	462	460	457	481	489	489	465	458	457	460	463	468	470	476	476	477	477	476	470	457	451	448	450	451	447	447	447	452	457	458	454	448	444	449	453	453	453	442	440	447	458	454	452	450	449	448	446	446	454	454	446	428	418	416	420	430	427	424	417	412	405	410	414	415	394	394	392	397	421	422	416	407	399	392	400	401	403	406	406	406	407	407	408	411	409	403	396	394	397	391	383	376	380	390	390	394	387	388	389	391	393	394	395	398	394	393	393	390	381	380	377	369	368	394	397	396	391	391	388	384	395	401	389	385	379	374	377	380	380	378	381	390	399	402	398	395	386	386	385	385	380	381	380	378	377	380	380	378	376	377	384	383	377	374	370	370	381	388	390	384	380	386	389	389	393	393	388	390	395	386	386	384	385	389	388	393	400	400	399	389	396	393	393	392	392	381	381	382	381	382	385	385	383	380	380	381	385	392	392	393	394	391	386	387	387	388	377	365	364	368	368	369	369	364	362	370	370	377	378	381	381
