0	0	0	0	0	0	0	0	0	0	0	0	0	0	0	0	0	0	0	0	0	0	0	0	0	0	0	0	0	0	0	0	0	0	0	0	0	0	0	0	0	0	0	0	0	0	0	0	0	0	0	0	0	0	0	0	0	0	0	0	0	0	0	0	0	0	0	0	0	0	0	0	0	0	0	0	0	0	0	0	0	0	0	0	0	0	0	0	0	0	0	0	0	0	0	0	0	0	0	0	0	0	0	0	0	0	0	0	0	0	0	0	0	0	0	0	0	0	0	0	0	0	0	0	0	0	0	0	0	0	0	0	0	0	0	0	0	0	0	0	0	0	0	0	0	0	0	0	0	0	0	0	0	0	0	0	0	0	0	0	0	2720	2771	2771	2810	2840	2837	2834	2826	2833	2832	2827	2805	2783	2790	2799	2817	2834	2836	2840	2832	2821	2838	2829	2831	2821	2805	2808	2801	2801	2802	2816	2821	2803	2789	2791	2810	2820	2824	2821	2818	2833	2851	2859	2864	2853	2834	2815	2793	2789	2799	2800	2806	2819	2826	2843	2860	2857	2861	2838	2819	2815	2838	2843	2839	2839	2832	2835	2846	2831	2814	2790	2777	2777	2796	2810	2821	2816	2808	2809	2812	2783	2757	2755	2800	2839	2860	2823	2790	2792	2829	2833	2835	2815	2788	2774	2795	2806	2830	2840	2849	2845	2832	2822	2822	2831	2845	2842	2840	2809	2811	2857	2888	2885	2904	2902	2891	2872	2875	2881	2860	2869	2870	2895	2906	2914	2938	2940	2944	2938	2944	2934	2920	2917	2920	2928	2923	2924	2897	2881	2881	2883	2885	2891	2918	2920	2929	2930	2925	2921	2907	2897	2856	2876	2897	2888	2883	2900	2897	2873	2875	2881	2870	2889	2912	2921	2932	2929	2921	2925	2948	2931	2900	2912	2906	2899	2885	2881	2899	2907	2912	2912	2907	2899	2891	2894	2909	2894	2857	2841	2856	2870	2892	2918	2925	2870	2865	2887	2884	2880	2873	2868	2873	2857	2855	2882	2878	2871	2877	2899	2903	2902	2875	2865	2881	2882	2868	2864	2866	2889	2887	2888	2889	2883	2881	2893	2878	2869	2851	2852	2882	2894	2902	2915	2877	2862	2859	2864	2864	2902	2898	2909	2877	2872	2875	2855	2847	2841	2860	2863	2881	2906	2915	2889	2892	2869	2855	2849	2835	2870	2884	2904	2931	2948	2951	2940	2922	2934	2943	2940	2935	2908	2883	2876	2870	2894	2903	2896	2868	2843	2860	2861	2861	2850	2833	2811	2804	2814	2831	2860	2893	2880	2866	2849	2861	2870	2873	2884	2889	2899	2908	2868	2823	2761	2757	2782	2796	2648	2648	0	0	0	0	0	0	0	0	0	0	0	0	0	0	0	0	0	0	0	0	0	0	0	0	0	0	0	0	0	0	0	0	0	0	0	0	0	0	0	0	0	0	0	0	0	0	0	0	0	0	0	0	0	0	0	0	0	0	0	0	0	0	0	0	0	0	0	0	0	0	0	0	0	0	0	0	0	0	0	0	0	0	0	0	0	0	0	0	0	0	0	0	0	0	0	0	0	0	0	0	0	0	0	0	0	0	0	0	0	0	0	0	0	0	0	0	0	0	0	0	0	0	0	0	0	0	0	0	0	0	0	0	0	0	0	0	0	0	0	0	0	0	0	0	0	0	0	0	0	0	0	0	0	0	0	0	0	0	0	0	0	0	0	0	0	0	0	0	0	0	0
0	0	0	0	0	0	0	0	0	0	0	0	0	0	0	0	0	0	0	0	0	0	0	0	0	0	0	0	0	0	0	0	0	0	0	0	0	0	0	0	0	0	0	0	0	0	0	0	0	0	0	0	0	0	0	0	0	0	0	0	0	0	0	0	0	0	0	0	0	0	0	0	0	0	0	0	0	0	0	0	0	0	0	0	0	0	0	0	0	0	0	0	0	0	0	0	0	0	0	0	0	0	0	0	0	0	0	0	0	0	0	0	0	0	0	0	0	0	0	0	0	0	0	0	0	0	0	0	0	0	0	0	0	0	0	0	0	0	0	0	0	0	0	0	0	0	0	0	0	0	0	0	0	0	0	0	0	0	0	0	0	2741	2798	2798	2832	2845	2846	2829	2820	2825	2838	2826	2806	2776	2774	2805	2830	2832	2825	2830	2862	2880	2868	2843	2837	2827	2828	2828	2838	2838	2840	2857	2854	2831	2801	2794	2794	2806	2811	2810	2813	2833	2851	2864	2858	2842	2827	2818	2810	2807	2817	2819	2818	2833	2824	2829	2843	2846	2839	2803	2811	2819	2835	2830	2817	2798	2802	2807	2819	2813	2797	2804	2795	2795	2793	2812	2821	2809	2798	2792	2783	2763	2744	2749	2797	2822	2847	2824	2820	2808	2822	2815	2797	2784	2763	2771	2800	2820	2848	2850	2852	2845	2848	2844	2821	2841	2846	2837	2801	2805	2820	2852	2912	2904	2912	2897	2894	2871	2873	2900	2884	2870	2873	2884	2901	2905	2916	2929	2952	2950	2936	2929	2914	2900	2901	2905	2911	2909	2901	2895	2884	2883	2882	2893	2912	2931	2933	2934	2908	2909	2899	2900	2873	2883	2893	2878	2880	2898	2887	2867	2876	2892	2883	2902	2898	2913	2923	2903	2911	2914	2909	2931	2915	2943	2937	2919	2902	2878	2880	2888	2899	2896	2893	2886	2880	2891	2891	2882	2854	2853	2854	2882	2900	2891	2909	2877	2885	2882	2880	2881	2886	2892	2903	2883	2897	2883	2874	2873	2881	2914	2909	2901	2856	2838	2847	2856	2844	2859	2864	2880	2873	2875	2879	2870	2871	2872	2879	2880	2882	2884	2897	2889	2888	2876	2850	2838	2832	2835	2862	2862	2876	2893	2885	2877	2865	2856	2840	2829	2844	2852	2864	2862	2869	2869	2862	2853	2850	2834	2834	2852	2872	2897	2918	2930	2932	2921	2913	2916	2940	2940	2935	2884	2873	2857	2871	2891	2908	2892	2872	2862	2856	2855	2855	2834	2813	2800	2811	2834	2855	2877	2876	2874	2860	2869	2869	2886	2877	2895	2910	2912	2897	2879	2829	2779	2798	2819	2797	2639	0	0	0	0	0	0	0	0	0	0	0	0	0	0	0	0	0	0	0	0	0	0	0	0	0	0	0	0	0	0	0	0	0	0	0	0	0	0	0	0	0	0	0	0	0	0	0	0	0	0	0	0	0	0	0	0	0	0	0	0	0	0	0	0	0	0	0	0	0	0	0	0	0	0	0	0	0	0	0	0	0	0	0	0	0	0	0	0	0	0	0	0	0	0	0	0	0	0	0	0	0	0	0	0	0	0	0	0	0	0	0	0	0	0	0	0	0	0	0	0	0	0	0	0	0	0	0	0	0	0	0	0	0	0	0	0	0	0	0	0	0	0	0	0	0	0	0	0	0	0	0	0	0	0	0	0	0	0	0	0	0	0	0	0	0	0	0	0	0	0	0	0
0	0	0	0	0	0	0	0	0	0	0	0	0	0	0	0	0	0	0	0	0	0	0	0	0	0	0	0	0	0	0	0	0	0	0	0	0	0	0	0	0	0	0	0	0	0	0	0	0	0	0	0	0	0	0	0	0	0	0	0	0	0	0	0	0	0	0	0	0	0	0	0	0	0	0	0	0	0	0	0	0	0	0	0	0	0	0	0	0	0	0	0	0	0	0	0	0	0	0	0	0	0	0	0	0	0	0	0	0	0	0	0	0	0	0	0	0	0	0	0	0	0	0	0	0	0	0	0	0	0	0	0	0	0	0	0	0	0	0	0	0	0	0	0	0	0	0	0	0	0	0	0	0	0	0	0	0	0	0	0	0	2725	2791	2791	2825	2833	2826	2815	2813	2822	2842	2838	2807	2780	2782	2805	2830	2827	2821	2832	2858	2868	2874	2863	2833	2823	2826	2838	2838	2838	2845	2866	2867	2849	2832	2813	2812	2810	2819	2810	2813	2824	2845	2853	2837	2810	2805	2816	2818	2813	2814	2809	2817	2821	2812	2821	2834	2838	2811	2802	2800	2799	2796	2816	2805	2801	2803	2802	2807	2796	2766	2767	2793	2793	2805	2816	2815	2821	2811	2798	2782	2765	2746	2730	2760	2806	2831	2824	2823	2836	2825	2811	2812	2807	2784	2786	2810	2834	2846	2855	2851	2844	2844	2842	2836	2846	2861	2849	2795	2797	2812	2857	2930	2922	2912	2909	2900	2883	2888	2905	2885	2889	2878	2889	2897	2902	2906	2895	2929	2946	2928	2905	2896	2891	2894	2894	2899	2902	2899	2895	2894	2894	2895	2888	2894	2913	2925	2927	2889	2885	2874	2859	2859	2857	2895	2876	2894	2897	2883	2906	2933	2901	2902	2903	2895	2910	2909	2902	2894	2907	2912	2925	2936	2935	2931	2911	2890	2880	2882	2885	2888	2887	2878	2877	2877	2885	2880	2868	2864	2876	2890	2905	2913	2908	2888	2890	2890	2888	2885	2897	2900	2914	2914	2920	2905	2887	2862	2868	2875	2902	2903	2882	2839	2815	2815	2842	2856	2853	2867	2876	2863	2861	2860	2866	2857	2860	2870	2871	2885	2891	2905	2903	2878	2851	2839	2824	2792	2806	2849	2849	2878	2889	2899	2894	2881	2845	2828	2828	2833	2848	2863	2856	2852	2848	2840	2837	2828	2820	2822	2850	2869	2862	2878	2871	2892	2894	2907	2919	2924	2921	2907	2884	2836	2830	2849	2876	2893	2890	2892	2882	2867	2860	2845	2845	2831	2812	2819	2835	2855	2885	2863	2872	2871	2882	2883	2892	2877	2887	2906	2901	2899	2895	2856	2810	2836	2830	2792	2630	0	0	0	0	0	0	0	0	0	0	0	0	0	0	0	0	0	0	0	0	0	0	0	0	0	0	0	0	0	0	0	0	0	0	0	0	0	0	0	0	0	0	0	0	0	0	0	0	0	0	0	0	0	0	0	0	0	0	0	0	0	0	0	0	0	0	0	0	0	0	0	0	0	0	0	0	0	0	0	0	0	0	0	0	0	0	0	0	0	0	0	0	0	0	0	0	0	0	0	0	0	0	0	0	0	0	0	0	0	0	0	0	0	0	0	0	0	0	0	0	0	0	0	0	0	0	0	0	0	0	0	0	0	0	0	0	0	0	0	0	0	0	0	0	0	0	0	0	0	0	0	0	0	0	0	0	0	0	0	0	0	0	0	0	0	0	0	0	0	0	0	0
0	0	0	0	0	0	0	0	0	0	0	0	0	0	0	0	0	0	0	0	0	0	0	0	0	0	0	0	0	0	0	0	0	0	0	0	0	0	0	0	0	0	0	0	0	0	0	0	0	0	0	0	0	0	0	0	0	0	0	0	0	0	0	0	0	0	0	0	0	0	0	0	0	0	0	0	0	0	0	0	0	0	0	0	0	0	0	0	0	0	0	0	0	0	0	0	0	0	0	0	0	0	0	0	0	0	0	0	0	0	0	0	0	0	0	0	0	0	0	0	0	0	0	0	0	0	0	0	0	0	0	0	0	0	0	0	0	0	0	0	0	0	0	0	0	0	0	0	0	0	0	0	0	0	0	0	0	0	0	0	0	2718	2758	2758	2805	2809	2811	2801	2799	2822	2850	2844	2808	2787	2779	2801	2824	2827	2830	2841	2858	2881	2881	2854	2814	2807	2823	2835	2834	2834	2851	2854	2856	2851	2849	2841	2841	2810	2819	2827	2828	2832	2832	2831	2805	2796	2797	2807	2816	2814	2810	2811	2816	2808	2807	2826	2839	2835	2823	2800	2809	2805	2808	2815	2821	2812	2816	2813	2809	2795	2769	2776	2776	2805	2825	2827	2824	2832	2830	2822	2791	2772	2755	2754	2759	2788	2809	2835	2853	2850	2839	2829	2823	2827	2812	2802	2823	2840	2859	2866	2857	2839	2838	2845	2847	2858	2863	2827	2785	2792	2810	2852	2920	2912	2911	2907	2910	2897	2897	2899	2897	2910	2896	2883	2883	2902	2899	2895	2894	2913	2906	2900	2899	2891	2892	2888	2886	2880	2883	2899	2902	2898	2895	2887	2888	2893	2904	2902	2894	2889	2864	2856	2858	2861	2891	2920	2906	2903	2887	2923	2954	2909	2910	2894	2894	2914	2921	2900	2891	2908	2926	2939	2938	2935	2911	2903	2895	2887	2883	2882	2888	2880	2869	2872	2867	2876	2867	2855	2870	2892	2893	2899	2915	2909	2906	2894	2888	2888	2879	2883	2904	2901	2912	2905	2908	2881	2862	2862	2860	2862	2875	2854	2822	2799	2798	2813	2832	2835	2843	2860	2861	2855	2854	2841	2832	2849	2857	2862	2876	2903	2907	2888	2885	2845	2843	2814	2796	2811	2855	2855	2873	2899	2900	2890	2849	2828	2820	2826	2845	2864	2866	2864	2854	2849	2826	2816	2805	2811	2832	2864	2871	2866	2857	2855	2865	2881	2893	2897	2903	2916	2884	2867	2836	2830	2827	2851	2876	2886	2892	2883	2876	2876	2861	2861	2840	2820	2831	2842	2873	2883	2871	2853	2881	2886	2891	2876	2889	2903	2898	2894	2892	2883	2872	2845	2866	2827	2728	2625	0	0	0	0	0	0	0	0	0	0	0	0	0	0	0	0	0	0	0	0	0	0	0	0	0	0	0	0	0	0	0	0	0	0	0	0	0	0	0	0	0	0	0	0	0	0	0	0	0	0	0	0	0	0	0	0	0	0	0	0	0	0	0	0	0	0	0	0	0	0	0	0	0	0	0	0	0	0	0	0	0	0	0	0	0	0	0	0	0	0	0	0	0	0	0	0	0	0	0	0	0	0	0	0	0	0	0	0	0	0	0	0	0	0	0	0	0	0	0	0	0	0	0	0	0	0	0	0	0	0	0	0	0	0	0	0	0	0	0	0	0	0	0	0	0	0	0	0	0	0	0	0	0	0	0	0	0	0	0	0	0	0	0	0	0	0	0	0	0	0	0	0
0	0	0	0	0	0	0	0	0	0	0	0	0	0	0	0	0	0	0	0	0	0	0	0	0	0	0	0	0	0	0	0	0	0	0	0	0	0	0	0	0	0	0	0	0	0	0	0	0	0	0	0	0	0	0	0	0	0	0	0	0	0	0	0	0	0	0	0	0	0	0	0	0	0	0	0	0	0	0	0	0	0	0	0	0	0	0	0	0	0	0	0	0	0	0	0	0	0	0	0	0	0	0	0	0	0	0	0	0	0	0	0	0	0	0	0	0	0	0	0	0	0	0	0	0	0	0	0	0	0	0	0	0	0	0	0	0	0	0	0	0	0	0	0	0	0	0	0	0	0	0	0	0	0	0	0	0	0	0	0	0	2701	2701	2731	2783	2786	2785	2783	2794	2832	2847	2839	2810	2789	2784	2802	2819	2828	2844	2860	2870	2874	2871	2816	2793	2793	2805	2826	2826	2831	2831	2813	2827	2833	2824	2841	2841	2845	2836	2848	2847	2837	2818	2790	2767	2761	2793	2806	2807	2810	2815	2819	2817	2818	2822	2833	2862	2846	2827	2807	2805	2799	2798	2809	2821	2825	2821	2821	2816	2811	2801	2799	2799	2827	2837	2811	2822	2828	2834	2835	2812	2786	2773	2777	2786	2801	2818	2845	2853	2854	2853	2835	2829	2824	2823	2818	2817	2830	2849	2857	2869	2863	2849	2841	2839	2846	2840	2815	2781	2781	2810	2840	2900	2888	2899	2898	2907	2894	2890	2890	2905	2909	2909	2890	2893	2902	2900	2888	2879	2906	2910	2902	2899	2893	2887	2888	2875	2873	2882	2899	2905	2902	2885	2873	2862	2871	2877	2888	2890	2889	2873	2873	2868	2868	2882	2946	2926	2921	2923	2923	2929	2931	2920	2925	2905	2914	2910	2904	2917	2927	2946	2950	2953	2945	2922	2911	2891	2871	2877	2891	2887	2900	2879	2878	2860	2864	2851	2849	2857	2890	2885	2903	2928	2931	2900	2890	2890	2878	2869	2868	2871	2878	2885	2856	2824	2823	2822	2839	2851	2849	2835	2835	2812	2801	2812	2820	2834	2830	2834	2847	2852	2847	2831	2826	2821	2830	2846	2848	2870	2887	2876	2861	2856	2874	2830	2815	2809	2801	2837	2863	2863	2878	2877	2860	2825	2832	2833	2841	2846	2877	2877	2870	2855	2840	2836	2815	2802	2819	2849	2883	2889	2868	2854	2840	2845	2872	2884	2881	2892	2880	2874	2843	2820	2814	2827	2851	2856	2868	2872	2874	2853	2848	2842	2842	2827	2812	2820	2846	2850	2866	2862	2869	2877	2881	2884	2868	2873	2886	2880	2886	2862	2863	2858	2871	2822	2753	2693	2618	0	0	0	0	0	0	0	0	0	0	0	0	0	0	0	0	0	0	0	0	0	0	0	0	0	0	0	0	0	0	0	0	0	0	0	0	0	0	0	0	0	0	0	0	0	0	0	0	0	0	0	0	0	0	0	0	0	0	0	0	0	0	0	0	0	0	0	0	0	0	0	0	0	0	0	0	0	0	0	0	0	0	0	0	0	0	0	0	0	0	0	0	0	0	0	0	0	0	0	0	0	0	0	0	0	0	0	0	0	0	0	0	0	0	0	0	0	0	0	0	0	0	0	0	0	0	0	0	0	0	0	0	0	0	0	0	0	0	0	0	0	0	0	0	0	0	0	0	0	0	0	0	0	0	0	0	0	0	0	0	0	0	0	0	0	0	0	0	0	0	0	0
0	0	0	0	0	0	0	0	0	0	0	0	0	0	0	0	0	0	0	0	0	0	0	0	0	0	0	0	0	0	0	0	0	0	0	0	0	0	0	0	0	0	0	0	0	0	0	0	0	0	0	0	0	0	0	0	0	0	0	0	0	0	0	0	0	0	0	0	0	0	0	0	0	0	0	0	0	0	0	0	0	0	0	0	0	0	0	0	0	0	0	0	0	0	0	0	0	0	0	0	0	0	0	0	0	0	0	0	0	0	0	0	0	0	0	0	0	0	0	0	0	0	0	0	0	0	0	0	0	0	0	0	0	0	0	0	0	0	0	0	0	0	0	0	0	0	0	0	0	0	0	0	0	0	0	0	0	0	0	0	0	2701	2701	2718	2769	2783	2778	2779	2800	2821	2838	2828	2811	2801	2801	2801	2798	2814	2839	2860	2883	2880	2846	2798	2787	2793	2803	2811	2811	2810	2798	2785	2781	2833	2824	2823	2841	2878	2874	2869	2844	2815	2784	2773	2747	2745	2775	2803	2810	2813	2830	2837	2819	2836	2835	2841	2852	2835	2820	2808	2796	2796	2792	2790	2806	2811	2819	2824	2826	2829	2814	2821	2821	2827	2821	2825	2821	2827	2834	2824	2814	2803	2808	2822	2823	2822	2834	2855	2852	2857	2848	2848	2835	2828	2805	2806	2812	2818	2843	2862	2874	2855	2836	2828	2827	2841	2825	2797	2769	2759	2790	2809	2886	2886	2873	2881	2891	2894	2890	2877	2878	2892	2894	2907	2905	2906	2889	2877	2891	2896	2901	2901	2904	2905	2900	2891	2882	2881	2876	2895	2907	2896	2876	2854	2855	2864	2871	2894	2884	2877	2876	2905	2918	2907	2907	2947	2942	2943	2919	2933	2930	2933	2936	2927	2928	2921	2900	2899	2919	2937	2953	2970	2963	2940	2934	2914	2906	2886	2866	2873	2881	2905	2895	2890	2870	2846	2833	2848	2855	2859	2875	2908	2897	2912	2896	2877	2858	2861	2849	2850	2857	2860	2854	2854	2836	2830	2825	2834	2858	2842	2837	2814	2804	2803	2809	2791	2806	2827	2844	2854	2848	2833	2834	2814	2815	2818	2834	2849	2861	2859	2834	2844	2851	2887	2853	2817	2806	2795	2814	2841	2841	2855	2850	2838	2829	2833	2846	2855	2866	2877	2873	2867	2866	2863	2852	2826	2815	2835	2864	2882	2873	2841	2826	2823	2841	2864	2887	2899	2875	2861	2854	2856	2831	2813	2807	2818	2856	2868	2862	2867	2864	2849	2840	2840	2827	2823	2831	2849	2847	2837	2839	2857	2872	2895	2888	2873	2872	2874	2868	2868	2856	2807	2834	2829	2744	2708	2685	2622	0	0	0	0	0	0	0	0	0	0	0	0	0	0	0	0	0	0	0	0	0	0	0	0	0	0	0	0	0	0	0	0	0	0	0	0	0	0	0	0	0	0	0	0	0	0	0	0	0	0	0	0	0	0	0	0	0	0	0	0	0	0	0	0	0	0	0	0	0	0	0	0	0	0	0	0	0	0	0	0	0	0	0	0	0	0	0	0	0	0	0	0	0	0	0	0	0	0	0	0	0	0	0	0	0	0	0	0	0	0	0	0	0	0	0	0	0	0	0	0	0	0	0	0	0	0	0	0	0	0	0	0	0	0	0	0	0	0	0	0	0	0	0	0	0	0	0	0	0	0	0	0	0	0	0	0	0	0	0	0	0	0	0	0	0	0	0	0	0	0	0	0
0	0	0	0	0	0	0	0	0	0	0	0	0	0	0	0	0	0	0	0	0	0	0	0	0	0	0	0	0	0	0	0	0	0	0	0	0	0	0	0	0	0	0	0	0	0	0	0	0	0	0	0	0	0	0	0	0	0	0	0	0	0	0	0	0	0	0	0	0	0	0	0	0	0	0	0	0	0	0	0	0	0	0	0	0	0	0	0	0	0	0	0	0	0	0	0	0	0	0	0	0	0	0	0	0	0	0	0	0	0	0	0	0	0	0	0	0	0	0	0	0	0	0	0	0	0	0	0	0	0	0	0	0	0	0	0	0	0	0	0	0	0	0	0	0	0	0	0	0	0	0	0	0	0	0	0	0	0	0	0	0	2706	2706	2760	2791	2788	2794	2797	2818	2832	2834	2838	2822	2817	2808	2800	2789	2809	2836	2862	2872	2873	2832	2801	2797	2807	2806	2810	2810	2795	2780	2785	2781	2792	2794	2808	2840	2886	2888	2874	2825	2803	2784	2758	2748	2739	2768	2801	2827	2832	2826	2833	2834	2830	2842	2843	2822	2810	2817	2799	2799	2791	2790	2785	2784	2786	2786	2795	2809	2821	2835	2835	2834	2839	2846	2830	2822	2809	2839	2842	2833	2833	2849	2863	2848	2835	2840	2843	2849	2853	2861	2849	2839	2824	2814	2797	2812	2824	2834	2849	2864	2852	2827	2829	2826	2834	2809	2781	2754	2749	2781	2803	2877	2859	2849	2864	2869	2863	2866	2865	2889	2886	2905	2917	2916	2907	2894	2884	2888	2894	2894	2897	2891	2892	2882	2885	2869	2865	2869	2868	2886	2885	2860	2852	2864	2876	2883	2909	2907	2914	2915	2926	2918	2917	2930	2943	2941	2942	2917	2927	2925	2935	2947	2943	2951	2947	2921	2914	2917	2926	2935	2955	2951	2926	2938	2933	2909	2878	2861	2875	2869	2882	2885	2894	2878	2845	2832	2833	2832	2842	2866	2883	2888	2877	2869	2831	2847	2849	2873	2866	2851	2849	2852	2845	2825	2834	2839	2842	2851	2834	2833	2811	2812	2798	2777	2771	2800	2812	2847	2850	2847	2841	2839	2839	2826	2815	2831	2820	2813	2799	2812	2823	2829	2861	2842	2801	2808	2817	2835	2834	2834	2816	2817	2815	2826	2841	2835	2838	2863	2860	2839	2832	2848	2873	2847	2833	2818	2823	2845	2862	2848	2828	2808	2817	2845	2892	2903	2888	2871	2860	2858	2860	2854	2818	2811	2810	2836	2857	2862	2867	2879	2880	2857	2863	2863	2852	2843	2854	2846	2829	2808	2828	2860	2881	2895	2888	2878	2871	2857	2850	2844	2808	2793	2771	2731	2716	2697	0	0	0	0	0	0	0	0	0	0	0	0	0	0	0	0	0	0	0	0	0	0	0	0	0	0	0	0	0	0	0	0	0	0	0	0	0	0	0	0	0	0	0	0	0	0	0	0	0	0	0	0	0	0	0	0	0	0	0	0	0	0	0	0	0	0	0	0	0	0	0	0	0	0	0	0	0	0	0	0	0	0	0	0	0	0	0	0	0	0	0	0	0	0	0	0	0	0	0	0	0	0	0	0	0	0	0	0	0	0	0	0	0	0	0	0	0	0	0	0	0	0	0	0	0	0	0	0	0	0	0	0	0	0	0	0	0	0	0	0	0	0	0	0	0	0	0	0	0	0	0	0	0	0	0	0	0	0	0	0	0	0	0	0	0	0	0	0	0	0	0	0	0
0	0	0	0	0	0	0	0	0	0	0	0	0	0	0	0	0	0	0	0	0	0	0	0	0	0	0	0	0	0	0	0	0	0	0	0	0	0	0	0	0	0	0	0	0	0	0	0	0	0	0	0	0	0	0	0	0	0	0	0	0	0	0	0	0	0	0	0	0	0	0	0	0	0	0	0	0	0	0	0	0	0	0	0	0	0	0	0	0	0	0	0	0	0	0	0	0	0	0	0	0	0	0	0	0	0	0	0	0	0	0	0	0	0	0	0	0	0	0	0	0	0	0	0	0	0	0	0	0	0	0	0	0	0	0	0	0	0	0	0	0	0	0	0	0	0	0	0	0	0	0	0	0	0	0	0	0	0	0	0	0	2706	2706	2787	2829	2816	2815	2824	2839	2844	2864	2830	2827	2824	2804	2794	2789	2801	2818	2831	2849	2848	2822	2817	2816	2816	2803	2798	2798	2795	2780	2775	2783	2773	2784	2794	2826	2861	2883	2841	2798	2787	2788	2775	2751	2752	2759	2791	2804	2820	2807	2782	2783	2819	2834	2828	2821	2802	2806	2799	2801	2802	2791	2789	2773	2767	2765	2766	2781	2797	2809	2809	2827	2852	2852	2851	2840	2837	2814	2808	2815	2835	2858	2854	2843	2817	2800	2792	2802	2818	2825	2828	2814	2812	2812	2835	2824	2826	2824	2829	2846	2854	2836	2825	2822	2811	2802	2768	2740	2763	2770	2788	2871	2859	2849	2848	2852	2849	2855	2880	2889	2875	2873	2899	2882	2865	2862	2854	2860	2873	2895	2888	2885	2882	2868	2868	2859	2850	2853	2863	2860	2876	2852	2861	2875	2877	2899	2890	2911	2895	2892	2904	2896	2901	2911	2886	2931	2934	2928	2926	2918	2905	2919	2922	2932	2936	2925	2913	2908	2905	2900	2914	2919	2923	2932	2915	2909	2891	2870	2876	2876	2882	2886	2888	2885	2868	2829	2821	2822	2836	2856	2872	2874	2851	2816	2821	2839	2856	2870	2860	2856	2855	2865	2854	2828	2834	2839	2845	2834	2833	2823	2811	2797	2780	2762	2765	2792	2806	2834	2857	2837	2837	2834	2854	2838	2833	2838	2805	2788	2758	2751	2793	2809	2817	2813	2784	2796	2809	2843	2840	2821	2821	2808	2816	2834	2850	2851	2833	2847	2843	2845	2833	2845	2874	2853	2827	2803	2797	2815	2832	2832	2825	2820	2822	2882	2900	2902	2881	2865	2840	2852	2873	2872	2857	2828	2825	2826	2858	2863	2872	2879	2880	2905	2900	2900	2893	2875	2865	2862	2840	2815	2824	2855	2891	2887	2907	2890	2872	2835	2833	2836	2828	2781	2758	2772	2768	2753	0	0	0	0	0	0	0	0	0	0	0	0	0	0	0	0	0	0	0	0	0	0	0	0	0	0	0	0	0	0	0	0	0	0	0	0	0	0	0	0	0	0	0	0	0	0	0	0	0	0	0	0	0	0	0	0	0	0	0	0	0	0	0	0	0	0	0	0	0	0	0	0	0	0	0	0	0	0	0	0	0	0	0	0	0	0	0	0	0	0	0	0	0	0	0	0	0	0	0	0	0	0	0	0	0	0	0	0	0	0	0	0	0	0	0	0	0	0	0	0	0	0	0	0	0	0	0	0	0	0	0	0	0	0	0	0	0	0	0	0	0	0	0	0	0	0	0	0	0	0	0	0	0	0	0	0	0	0	0	0	0	0	0	0	0	0	0	0	0	0	0	0	0
0	0	0	0	0	0	0	0	0	0	0	0	0	0	0	0	0	0	0	0	0	0	0	0	0	0	0	0	0	0	0	0	0	0	0	0	0	0	0	0	0	0	0	0	0	0	0	0	0	0	0	0	0	0	0	0	0	0	0	0	0	0	0	0	0	0	0	0	0	0	0	0	0	0	0	0	0	0	0	0	0	0	0	0	0	0	0	0	0	0	0	0	0	0	0	0	0	0	0	0	0	0	0	0	0	0	0	0	0	0	0	0	0	0	0	0	0	0	0	0	0	0	0	0	0	0	0	0	0	0	0	0	0	0	0	0	0	0	0	0	0	0	0	0	0	0	0	0	0	0	0	0	0	0	0	0	0	0	0	0	0	2706	2706	2790	2797	2820	2821	2833	2839	2843	2835	2831	2807	2793	2782	2781	2783	2788	2783	2794	2797	2800	2809	2809	2808	2794	2767	2798	2798	2795	2782	2774	2782	2778	2788	2781	2793	2767	2754	2772	2779	2788	2781	2762	2766	2752	2755	2770	2783	2782	2765	2755	2771	2790	2809	2817	2794	2786	2792	2806	2812	2805	2793	2783	2774	2776	2773	2763	2767	2787	2808	2808	2824	2826	2834	2835	2825	2806	2792	2798	2806	2813	2827	2842	2838	2808	2783	2787	2820	2829	2833	2828	2820	2805	2804	2812	2830	2847	2824	2831	2838	2843	2835	2827	2804	2793	2787	2771	2765	2773	2766	2780	2869	2852	2831	2837	2841	2847	2859	2884	2840	2840	2871	2880	2866	2837	2827	2822	2825	2837	2889	2887	2887	2888	2895	2889	2876	2847	2841	2836	2845	2854	2884	2892	2883	2889	2893	2894	2899	2885	2861	2862	2874	2862	2876	2880	2898	2920	2929	2933	2935	2905	2910	2911	2917	2931	2928	2915	2919	2905	2878	2887	2907	2909	2903	2882	2861	2868	2870	2881	2884	2894	2905	2907	2895	2883	2859	2819	2819	2830	2846	2865	2865	2841	2806	2812	2825	2845	2862	2863	2832	2851	2868	2860	2835	2837	2833	2836	2832	2808	2805	2792	2791	2781	2774	2770	2793	2792	2815	2830	2833	2834	2838	2849	2851	2851	2846	2825	2788	2740	2738	2791	2797	2801	2765	2769	2789	2814	2844	2849	2834	2834	2820	2826	2849	2865	2856	2848	2843	2824	2829	2839	2839	2867	2847	2827	2792	2781	2802	2824	2833	2832	2834	2844	2868	2874	2858	2832	2817	2823	2859	2875	2884	2873	2861	2850	2858	2874	2895	2892	2897	2897	2905	2900	2932	2928	2909	2891	2895	2862	2859	2865	2880	2893	2902	2887	2879	2843	2831	2828	2840	2828	2808	2793	2801	2788	2767	2721	0	0	0	0	0	0	0	0	0	0	0	0	0	0	0	0	0	0	0	0	0	0	0	0	0	0	0	0	0	0	0	0	0	0	0	0	0	0	0	0	0	0	0	0	0	0	0	0	0	0	0	0	0	0	0	0	0	0	0	0	0	0	0	0	0	0	0	0	0	0	0	0	0	0	0	0	0	0	0	0	0	0	0	0	0	0	0	0	0	0	0	0	0	0	0	0	0	0	0	0	0	0	0	0	0	0	0	0	0	0	0	0	0	0	0	0	0	0	0	0	0	0	0	0	0	0	0	0	0	0	0	0	0	0	0	0	0	0	0	0	0	0	0	0	0	0	0	0	0	0	0	0	0	0	0	0	0	0	0	0	0	0	0	0	0	0	0	0	0	0	0	0
0	0	0	0	0	0	0	0	0	0	0	0	0	0	0	0	0	0	0	0	0	0	0	0	0	0	0	0	0	0	0	0	0	0	0	0	0	0	0	0	0	0	0	0	0	0	0	0	0	0	0	0	0	0	0	0	0	0	0	0	0	0	0	0	0	0	0	0	0	0	0	0	0	0	0	0	0	0	0	0	0	0	0	0	0	0	0	0	0	0	0	0	0	0	0	0	0	0	0	0	0	0	0	0	0	0	0	0	0	0	0	0	0	0	0	0	0	0	0	0	0	0	0	0	0	0	0	0	0	0	0	0	0	0	0	0	0	0	0	0	0	0	0	0	0	0	0	0	0	0	0	0	0	0	0	0	0	0	0	0	0	2686	2686	2789	2784	2802	2808	2815	2824	2829	2823	2806	2789	2768	2759	2761	2766	2774	2780	2773	2785	2800	2803	2797	2776	2794	2767	2767	2759	2783	2795	2771	2772	2788	2784	2805	2790	2761	2755	2768	2840	2841	2796	2771	2762	2771	2775	2775	2777	2770	2755	2743	2748	2774	2784	2790	2788	2773	2785	2794	2812	2812	2801	2799	2806	2805	2809	2802	2796	2801	2801	2804	2803	2806	2818	2809	2807	2801	2798	2801	2797	2803	2806	2811	2817	2802	2796	2810	2815	2828	2846	2829	2816	2804	2796	2810	2837	2861	2856	2850	2825	2821	2822	2808	2794	2790	2790	2786	2786	2783	2784	2784	2895	2882	2862	2871	2856	2865	2866	2829	2820	2832	2856	2863	2856	2833	2809	2785	2791	2828	2870	2887	2890	2905	2912	2910	2901	2882	2861	2843	2834	2840	2899	2921	2911	2906	2889	2884	2885	2886	2877	2847	2831	2833	2879	2891	2890	2914	2935	2939	2944	2942	2934	2920	2927	2918	2906	2917	2925	2907	2901	2911	2916	2917	2899	2888	2853	2852	2871	2882	2892	2891	2896	2907	2911	2895	2872	2845	2842	2847	2863	2883	2889	2864	2799	2810	2826	2836	2853	2851	2835	2827	2860	2853	2861	2857	2838	2830	2823	2807	2807	2788	2785	2770	2778	2783	2777	2784	2804	2828	2842	2827	2842	2844	2844	2849	2833	2814	2799	2786	2785	2809	2814	2793	2785	2797	2806	2842	2857	2858	2850	2850	2844	2847	2854	2860	2850	2851	2836	2823	2816	2832	2846	2866	2848	2824	2803	2801	2807	2828	2830	2812	2832	2825	2811	2800	2791	2779	2791	2812	2851	2867	2886	2878	2863	2869	2871	2884	2894	2885	2862	2884	2905	2932	2932	2928	2934	2928	2915	2887	2879	2874	2880	2896	2905	2875	2854	2849	2840	2835	2832	2821	2806	2812	2778	2752	2731	2677	0	0	0	0	0	0	0	0	0	0	0	0	0	0	0	0	0	0	0	0	0	0	0	0	0	0	0	0	0	0	0	0	0	0	0	0	0	0	0	0	0	0	0	0	0	0	0	0	0	0	0	0	0	0	0	0	0	0	0	0	0	0	0	0	0	0	0	0	0	0	0	0	0	0	0	0	0	0	0	0	0	0	0	0	0	0	0	0	0	0	0	0	0	0	0	0	0	0	0	0	0	0	0	0	0	0	0	0	0	0	0	0	0	0	0	0	0	0	0	0	0	0	0	0	0	0	0	0	0	0	0	0	0	0	0	0	0	0	0	0	0	0	0	0	0	0	0	0	0	0	0	0	0	0	0	0	0	0	0	0	0	0	0	0	0	0	0	0	0	0	0	0
0	0	0	0	0	0	0	0	0	0	0	0	0	0	0	0	0	0	0	0	0	0	0	0	0	0	0	0	0	0	0	0	0	0	0	0	0	0	0	0	0	0	0	0	0	0	0	0	0	0	0	0	0	0	0	0	0	0	0	0	0	0	0	0	0	0	0	0	0	0	0	0	0	0	0	0	0	0	0	0	0	0	0	0	0	0	0	0	0	0	0	0	0	0	0	0	0	0	0	0	0	0	0	0	0	0	0	0	0	0	0	0	0	0	0	0	0	0	0	0	0	0	0	0	0	0	0	0	0	0	0	0	0	0	0	0	0	0	0	0	0	0	0	0	0	0	0	0	0	0	0	0	0	0	0	0	0	0	0	0	0	0	2689	2807	2826	2808	2804	2806	2804	2806	2801	2782	2764	2755	2748	2727	2744	2747	2769	2777	2781	2791	2787	2797	2776	2738	2723	2723	2724	2744	2781	2774	2768	2765	2783	2798	2799	2779	2771	2830	2839	2856	2816	2771	2781	2796	2807	2803	2798	2778	2762	2755	2749	2756	2752	2766	2769	2775	2762	2771	2795	2816	2817	2828	2827	2812	2802	2802	2798	2792	2792	2794	2803	2801	2791	2794	2803	2816	2810	2798	2778	2778	2791	2816	2823	2809	2814	2816	2822	2828	2846	2831	2820	2813	2798	2796	2834	2851	2865	2859	2826	2794	2796	2772	2784	2802	2803	2799	2805	2791	2798	2841	2905	2912	2900	2891	2885	2883	2867	2835	2828	2830	2851	2844	2832	2830	2791	2783	2800	2864	2869	2877	2880	2900	2910	2909	2909	2903	2886	2869	2832	2862	2906	2931	2928	2914	2899	2869	2866	2877	2871	2860	2843	2842	2885	2892	2904	2922	2936	2927	2932	2937	2932	2925	2924	2925	2904	2904	2923	2923	2920	2922	2915	2913	2908	2898	2889	2878	2876	2880	2889	2895	2892	2900	2909	2901	2890	2876	2868	2863	2875	2893	2908	2903	2855	2829	2838	2848	2845	2843	2851	2845	2864	2872	2880	2873	2843	2828	2826	2825	2832	2814	2794	2785	2787	2786	2794	2798	2806	2820	2831	2832	2841	2842	2831	2827	2821	2807	2807	2822	2828	2837	2834	2815	2826	2841	2854	2875	2875	2868	2857	2863	2863	2864	2860	2845	2857	2848	2851	2833	2827	2837	2849	2868	2845	2821	2813	2817	2826	2821	2801	2802	2812	2821	2812	2804	2802	2797	2801	2804	2834	2857	2865	2863	2864	2866	2873	2871	2868	2846	2819	2828	2873	2915	2915	2936	2934	2928	2922	2909	2889	2883	2893	2891	2891	2883	2866	2858	2852	2823	2823	2815	2794	2799	2717	2691	2665	2642	0	0	0	0	0	0	0	0	0	0	0	0	0	0	0	0	0	0	0	0	0	0	0	0	0	0	0	0	0	0	0	0	0	0	0	0	0	0	0	0	0	0	0	0	0	0	0	0	0	0	0	0	0	0	0	0	0	0	0	0	0	0	0	0	0	0	0	0	0	0	0	0	0	0	0	0	0	0	0	0	0	0	0	0	0	0	0	0	0	0	0	0	0	0	0	0	0	0	0	0	0	0	0	0	0	0	0	0	0	0	0	0	0	0	0	0	0	0	0	0	0	0	0	0	0	0	0	0	0	0	0	0	0	0	0	0	0	0	0	0	0	0	0	0	0	0	0	0	0	0	0	0	0	0	0	0	0	0	0	0	0	0	0	0	0	0	0	0	0	0	0	0
0	0	0	0	0	0	0	0	0	0	0	0	0	0	0	0	0	0	0	0	0	0	0	0	0	0	0	0	0	0	0	0	0	0	0	0	0	0	0	0	0	0	0	0	0	0	0	0	0	0	0	0	0	0	0	0	0	0	0	0	0	0	0	0	0	0	0	0	0	0	0	0	0	0	0	0	0	0	0	0	0	0	0	0	0	0	0	0	0	0	0	0	0	0	0	0	0	0	0	0	0	0	0	0	0	0	0	0	0	0	0	0	0	0	0	0	0	0	0	0	0	0	0	0	0	0	0	0	0	0	0	0	0	0	0	0	0	0	0	0	0	0	0	0	0	0	0	0	0	0	0	0	0	0	0	0	0	0	0	0	0	0	2690	2822	2825	2816	2794	2784	2782	2778	2773	2759	2758	2737	2728	2724	2729	2733	2771	2782	2781	2791	2787	2791	2772	2739	2706	2706	2691	2718	2749	2757	2750	2751	2762	2787	2804	2801	2794	2824	2845	2844	2822	2809	2809	2819	2836	2836	2809	2783	2766	2768	2765	2753	2754	2749	2762	2791	2782	2781	2786	2815	2829	2836	2815	2793	2765	2778	2782	2783	2783	2776	2773	2765	2780	2800	2808	2821	2804	2791	2773	2757	2784	2791	2803	2813	2825	2828	2838	2827	2810	2809	2818	2818	2800	2809	2839	2851	2864	2855	2821	2800	2784	2784	2824	2824	2816	2788	2774	2781	2786	2873	2921	2923	2900	2900	2885	2887	2869	2843	2838	2830	2825	2819	2819	2824	2814	2831	2866	2877	2871	2867	2874	2881	2883	2903	2913	2918	2909	2885	2885	2877	2895	2927	2932	2909	2889	2855	2846	2848	2884	2880	2872	2876	2907	2909	2911	2915	2915	2921	2931	2930	2923	2925	2916	2915	2931	2935	2937	2947	2944	2927	2910	2905	2901	2904	2909	2905	2886	2872	2881	2891	2876	2882	2879	2893	2910	2896	2883	2879	2883	2899	2922	2919	2888	2897	2855	2835	2839	2842	2862	2872	2865	2872	2877	2865	2849	2833	2827	2834	2829	2801	2795	2796	2800	2805	2803	2791	2803	2824	2847	2844	2848	2860	2853	2836	2815	2809	2815	2836	2847	2852	2854	2853	2868	2883	2888	2873	2863	2855	2860	2854	2854	2861	2852	2818	2821	2832	2839	2850	2847	2858	2853	2849	2829	2815	2809	2823	2827	2815	2782	2775	2808	2815	2836	2819	2824	2829	2826	2819	2817	2836	2835	2837	2849	2855	2856	2838	2821	2803	2775	2779	2833	2870	2898	2898	2926	2932	2922	2909	2888	2911	2908	2898	2892	2885	2882	2889	2864	2838	2837	2806	2788	2776	2679	2652	2637	2613	0	0	0	0	0	0	0	0	0	0	0	0	0	0	0	0	0	0	0	0	0	0	0	0	0	0	0	0	0	0	0	0	0	0	0	0	0	0	0	0	0	0	0	0	0	0	0	0	0	0	0	0	0	0	0	0	0	0	0	0	0	0	0	0	0	0	0	0	0	0	0	0	0	0	0	0	0	0	0	0	0	0	0	0	0	0	0	0	0	0	0	0	0	0	0	0	0	0	0	0	0	0	0	0	0	0	0	0	0	0	0	0	0	0	0	0	0	0	0	0	0	0	0	0	0	0	0	0	0	0	0	0	0	0	0	0	0	0	0	0	0	0	0	0	0	0	0	0	0	0	0	0	0	0	0	0	0	0	0	0	0	0	0	0	0	0	0	0	0	0	0	0
0	0	0	0	0	0	0	0	0	0	0	0	0	0	0	0	0	0	0	0	0	0	0	0	0	0	0	0	0	0	0	0	0	0	0	0	0	0	0	0	0	0	0	0	0	0	0	0	0	0	0	0	0	0	0	0	0	0	0	0	0	0	0	0	0	0	0	0	0	0	0	0	0	0	0	0	0	0	0	0	0	0	0	0	0	0	0	0	0	0	0	0	0	0	0	0	0	0	0	0	0	0	0	0	0	0	0	0	0	0	0	0	0	0	0	0	0	0	0	0	0	0	0	0	0	0	0	0	0	0	0	0	0	0	0	0	0	0	0	0	0	0	0	0	0	0	0	0	0	0	0	0	0	0	0	0	0	0	0	0	0	0	2661	2816	2810	2785	2761	2751	2757	2751	2731	2730	2754	2758	2752	2745	2746	2757	2775	2782	2781	2794	2792	2807	2789	2769	2748	2748	2723	2724	2738	2749	2746	2746	2759	2774	2794	2792	2792	2813	2831	2843	2838	2828	2827	2835	2852	2844	2820	2797	2783	2784	2771	2759	2757	2746	2771	2802	2801	2789	2784	2800	2814	2802	2796	2767	2745	2748	2762	2762	2767	2765	2763	2770	2793	2798	2817	2804	2799	2801	2772	2758	2765	2813	2812	2811	2831	2850	2845	2818	2800	2793	2801	2789	2798	2820	2845	2849	2844	2822	2830	2845	2826	2827	2828	2839	2811	2772	2751	2745	2769	2888	2898	2894	2901	2897	2886	2885	2873	2841	2832	2830	2813	2812	2819	2825	2846	2858	2877	2891	2885	2869	2868	2884	2888	2903	2913	2938	2921	2889	2880	2883	2877	2891	2911	2906	2883	2850	2834	2844	2877	2888	2894	2898	2908	2923	2907	2897	2883	2882	2912	2920	2913	2915	2916	2923	2930	2936	2928	2936	2939	2932	2904	2879	2890	2909	2918	2921	2880	2867	2870	2888	2879	2860	2865	2880	2908	2912	2891	2877	2886	2911	2921	2918	2898	2895	2837	2828	2820	2832	2836	2849	2847	2856	2870	2869	2848	2828	2826	2832	2819	2786	2781	2790	2819	2827	2816	2801	2807	2824	2838	2857	2874	2881	2870	2836	2821	2826	2824	2836	2853	2859	2852	2841	2860	2872	2874	2855	2846	2832	2831	2840	2840	2843	2830	2822	2817	2822	2836	2860	2855	2849	2856	2849	2830	2787	2787	2816	2810	2805	2776	2768	2781	2831	2856	2870	2845	2844	2819	2803	2787	2784	2776	2814	2817	2836	2831	2802	2793	2787	2777	2766	2807	2825	2864	2864	2888	2906	2909	2893	2888	2911	2914	2890	2875	2886	2896	2902	2881	2870	2846	2829	2802	2775	2671	2650	2630	2622	0	0	0	0	0	0	0	0	0	0	0	0	0	0	0	0	0	0	0	0	0	0	0	0	0	0	0	0	0	0	0	0	0	0	0	0	0	0	0	0	0	0	0	0	0	0	0	0	0	0	0	0	0	0	0	0	0	0	0	0	0	0	0	0	0	0	0	0	0	0	0	0	0	0	0	0	0	0	0	0	0	0	0	0	0	0	0	0	0	0	0	0	0	0	0	0	0	0	0	0	0	0	0	0	0	0	0	0	0	0	0	0	0	0	0	0	0	0	0	0	0	0	0	0	0	0	0	0	0	0	0	0	0	0	0	0	0	0	0	0	0	0	0	0	0	0	0	0	0	0	0	0	0	0	0	0	0	0	0	0	0	0	0	0	0	0	0	0	0	0	0	0
0	0	0	0	0	0	0	0	0	0	0	0	0	0	0	0	0	0	0	0	0	0	0	0	0	0	0	0	0	0	0	0	0	0	0	0	0	0	0	0	0	0	0	0	0	0	0	0	0	0	0	0	0	0	0	0	0	0	0	0	0	0	0	0	0	0	0	0	0	0	0	0	0	0	0	0	0	0	0	0	0	0	0	0	0	0	0	0	0	0	0	0	0	0	0	0	0	0	0	0	0	0	0	0	0	0	0	0	0	0	0	0	0	0	0	0	0	0	0	0	0	0	0	0	0	0	0	0	0	0	0	0	0	0	0	0	0	0	0	0	0	0	0	0	0	0	0	0	0	0	0	0	0	0	0	0	0	0	0	0	0	0	2611	2792	2799	2758	2724	2742	2740	2737	2716	2726	2761	2767	2755	2744	2736	2757	2775	2791	2798	2800	2789	2793	2814	2798	2784	2784	2765	2737	2746	2758	2769	2778	2782	2787	2768	2770	2765	2789	2794	2802	2818	2821	2828	2826	2838	2845	2823	2809	2780	2787	2799	2774	2746	2743	2783	2806	2812	2788	2774	2770	2778	2777	2754	2749	2744	2745	2766	2766	2779	2771	2763	2775	2789	2801	2807	2798	2798	2812	2792	2778	2793	2809	2819	2825	2842	2852	2853	2830	2800	2773	2770	2760	2780	2824	2841	2837	2831	2824	2859	2878	2875	2858	2852	2844	2801	2770	2748	2741	2742	2881	2898	2893	2881	2899	2881	2871	2860	2818	2822	2807	2818	2827	2832	2830	2835	2849	2881	2898	2892	2870	2870	2920	2897	2907	2926	2937	2920	2902	2890	2877	2872	2894	2900	2894	2867	2854	2871	2880	2880	2880	2901	2901	2865	2912	2908	2901	2896	2883	2900	2937	2932	2923	2914	2930	2937	2914	2906	2923	2922	2926	2909	2881	2880	2885	2897	2910	2877	2863	2879	2892	2886	2875	2867	2876	2901	2917	2912	2881	2904	2907	2918	2906	2896	2866	2830	2812	2807	2809	2811	2819	2843	2860	2873	2872	2848	2829	2818	2818	2797	2779	2779	2791	2837	2854	2834	2826	2836	2831	2845	2865	2889	2894	2881	2851	2819	2811	2819	2826	2841	2854	2845	2832	2837	2854	2854	2833	2813	2803	2814	2822	2822	2832	2822	2827	2829	2838	2861	2850	2837	2830	2854	2867	2811	2784	2794	2811	2798	2789	2773	2784	2785	2803	2832	2850	2861	2850	2828	2834	2820	2786	2781	2788	2798	2803	2801	2790	2784	2802	2813	2809	2815	2828	2831	2831	2871	2881	2892	2894	2908	2919	2914	2890	2875	2847	2883	2911	2904	2896	2869	2847	2838	2794	2681	2658	2646	2640	0	0	0	0	0	0	0	0	0	0	0	0	0	0	0	0	0	0	0	0	0	0	0	0	0	0	0	0	0	0	0	0	0	0	0	0	0	0	0	0	0	0	0	0	0	0	0	0	0	0	0	0	0	0	0	0	0	0	0	0	0	0	0	0	0	0	0	0	0	0	0	0	0	0	0	0	0	0	0	0	0	0	0	0	0	0	0	0	0	0	0	0	0	0	0	0	0	0	0	0	0	0	0	0	0	0	0	0	0	0	0	0	0	0	0	0	0	0	0	0	0	0	0	0	0	0	0	0	0	0	0	0	0	0	0	0	0	0	0	0	0	0	0	0	0	0	0	0	0	0	0	0	0	0	0	0	0	0	0	0	0	0	0	0	0	0	0	0	0	0	0	0
0	0	0	0	0	0	0	0	0	0	0	0	0	0	0	0	0	0	0	0	0	0	0	0	0	0	0	0	0	0	0	0	0	0	0	0	0	0	0	0	0	0	0	0	0	0	0	0	0	0	0	0	0	0	0	0	0	0	0	0	0	0	0	0	0	0	0	0	0	0	0	0	0	0	0	0	0	0	0	0	0	0	0	0	0	0	0	0	0	0	0	0	0	0	0	0	0	0	0	0	0	0	0	0	0	0	0	0	0	0	0	0	0	0	0	0	0	0	0	0	0	0	0	0	0	0	0	0	0	0	0	0	0	0	0	0	0	0	0	0	0	0	0	0	0	0	0	0	0	0	0	0	0	0	0	0	0	0	0	0	0	0	2567	2763	2777	2738	2724	2738	2744	2740	2734	2754	2773	2782	2755	2744	2736	2753	2758	2782	2797	2794	2800	2806	2815	2817	2817	2806	2779	2762	2762	2775	2794	2810	2803	2786	2754	2742	2735	2757	2765	2776	2774	2780	2795	2806	2819	2817	2813	2795	2792	2791	2787	2775	2750	2749	2784	2820	2836	2825	2800	2775	2765	2772	2771	2766	2766	2767	2765	2765	2783	2787	2770	2771	2759	2804	2802	2793	2810	2821	2810	2801	2818	2834	2856	2859	2855	2862	2850	2829	2789	2756	2746	2757	2782	2807	2829	2828	2829	2844	2864	2879	2876	2868	2880	2837	2812	2786	2750	2749	2770	2876	2886	2869	2868	2881	2875	2872	2837	2821	2795	2796	2820	2834	2852	2859	2846	2852	2867	2883	2902	2882	2888	2929	2913	2918	2923	2923	2893	2890	2877	2886	2881	2873	2883	2856	2850	2860	2884	2897	2887	2879	2864	2864	2891	2902	2908	2903	2896	2918	2949	2945	2933	2908	2914	2921	2938	2917	2904	2919	2913	2906	2890	2873	2863	2880	2888	2905	2888	2898	2898	2901	2889	2881	2868	2876	2897	2915	2932	2911	2935	2928	2923	2910	2891	2844	2810	2798	2796	2786	2787	2814	2849	2866	2873	2868	2854	2833	2819	2826	2801	2783	2773	2791	2816	2835	2842	2843	2843	2837	2826	2843	2879	2904	2889	2854	2823	2812	2811	2829	2845	2848	2834	2817	2823	2820	2849	2834	2827	2826	2824	2821	2823	2823	2824	2832	2831	2844	2852	2856	2847	2844	2870	2869	2823	2798	2801	2799	2796	2780	2784	2787	2796	2828	2829	2845	2841	2845	2849	2832	2828	2810	2782	2779	2771	2777	2791	2796	2810	2834	2854	2850	2841	2836	2835	2835	2841	2849	2838	2867	2896	2915	2889	2866	2860	2847	2883	2920	2913	2911	2883	2856	2846	2821	2671	2669	2665	2641	0	0	0	0	0	0	0	0	0	0	0	0	0	0	0	0	0	0	0	0	0	0	0	0	0	0	0	0	0	0	0	0	0	0	0	0	0	0	0	0	0	0	0	0	0	0	0	0	0	0	0	0	0	0	0	0	0	0	0	0	0	0	0	0	0	0	0	0	0	0	0	0	0	0	0	0	0	0	0	0	0	0	0	0	0	0	0	0	0	0	0	0	0	0	0	0	0	0	0	0	0	0	0	0	0	0	0	0	0	0	0	0	0	0	0	0	0	0	0	0	0	0	0	0	0	0	0	0	0	0	0	0	0	0	0	0	0	0	0	0	0	0	0	0	0	0	0	0	0	0	0	0	0	0	0	0	0	0	0	0	0	0	0	0	0	0	0	0	0	0	0	0
0	0	0	0	0	0	0	0	0	0	0	0	0	0	0	0	0	0	0	0	0	0	0	0	0	0	0	0	0	0	0	0	0	0	0	0	0	0	0	0	0	0	0	0	0	0	0	0	0	0	0	0	0	0	0	0	0	0	0	0	0	0	0	0	0	0	0	0	0	0	0	0	0	0	0	0	0	0	0	0	0	0	0	0	0	0	0	0	0	0	0	0	0	0	0	0	0	0	0	0	0	0	0	0	0	0	0	0	0	0	0	0	0	0	0	0	0	0	0	0	0	0	0	0	0	0	0	0	0	0	0	0	0	0	0	0	0	0	0	0	0	0	0	0	0	0	0	0	0	0	0	0	0	0	0	0	0	0	0	0	0	0	2574	2760	2764	2744	2743	2742	2743	2743	2740	2763	2773	2782	2761	2746	2740	2738	2746	2765	2786	2806	2815	2808	2820	2814	2814	2807	2792	2780	2794	2813	2834	2838	2804	2778	2743	2721	2739	2746	2753	2767	2749	2742	2736	2772	2782	2793	2780	2774	2767	2783	2747	2768	2764	2765	2779	2808	2835	2814	2794	2775	2781	2790	2794	2804	2806	2804	2799	2799	2802	2800	2781	2764	2748	2758	2759	2776	2800	2827	2830	2824	2824	2853	2868	2868	2861	2846	2831	2809	2793	2776	2762	2758	2794	2812	2835	2830	2829	2852	2846	2843	2844	2864	2860	2844	2826	2794	2764	2761	2767	2856	2872	2847	2850	2856	2862	2856	2822	2805	2789	2797	2805	2832	2868	2865	2862	2874	2871	2879	2903	2861	2880	2920	2907	2893	2898	2895	2889	2879	2894	2898	2892	2893	2873	2854	2864	2882	2894	2911	2928	2874	2872	2866	2879	2909	2909	2899	2897	2942	2945	2945	2940	2907	2910	2916	2924	2917	2917	2907	2908	2907	2874	2867	2861	2873	2882	2881	2911	2906	2900	2891	2890	2879	2879	2886	2895	2901	2933	2926	2907	2917	2915	2927	2896	2850	2806	2801	2804	2808	2808	2819	2849	2875	2875	2862	2843	2828	2823	2826	2805	2789	2786	2789	2816	2846	2836	2827	2823	2841	2821	2833	2871	2896	2888	2857	2820	2803	2800	2827	2839	2847	2831	2821	2821	2818	2845	2841	2845	2845	2828	2828	2832	2832	2833	2832	2821	2828	2845	2856	2860	2860	2868	2869	2857	2841	2819	2808	2789	2782	2783	2811	2828	2850	2837	2815	2813	2824	2825	2823	2812	2795	2792	2792	2785	2792	2795	2801	2832	2873	2892	2890	2834	2814	2818	2818	2822	2817	2822	2838	2844	2845	2831	2831	2839	2836	2882	2920	2913	2897	2857	2830	2835	2810	2655	2656	2654	2637	0	0	0	0	0	0	0	0	0	0	0	0	0	0	0	0	0	0	0	0	0	0	0	0	0	0	0	0	0	0	0	0	0	0	0	0	0	0	0	0	0	0	0	0	0	0	0	0	0	0	0	0	0	0	0	0	0	0	0	0	0	0	0	0	0	0	0	0	0	0	0	0	0	0	0	0	0	0	0	0	0	0	0	0	0	0	0	0	0	0	0	0	0	0	0	0	0	0	0	0	0	0	0	0	0	0	0	0	0	0	0	0	0	0	0	0	0	0	0	0	0	0	0	0	0	0	0	0	0	0	0	0	0	0	0	0	0	0	0	0	0	0	0	0	0	0	0	0	0	0	0	0	0	0	0	0	0	0	0	0	0	0	0	0	0	0	0	0	0	0	0	0
0	0	0	0	0	0	0	0	0	0	0	0	0	0	0	0	0	0	0	0	0	0	0	0	0	0	0	0	0	0	0	0	0	0	0	0	0	0	0	0	0	0	0	0	0	0	0	0	0	0	0	0	0	0	0	0	0	0	0	0	0	0	0	0	0	0	0	0	0	0	0	0	0	0	0	0	0	0	0	0	0	0	0	0	0	0	0	0	0	0	0	0	0	0	0	0	0	0	0	0	0	0	0	0	0	0	0	0	0	0	0	0	0	0	0	0	0	0	0	0	0	0	0	0	0	0	0	0	0	0	0	0	0	0	0	0	0	0	0	0	0	0	0	0	0	0	0	0	0	0	0	0	0	0	0	0	0	0	0	0	0	0	2577	2746	2763	2761	2743	2729	2741	2743	2740	2763	2802	2801	2776	2750	2738	2738	2740	2746	2775	2812	2824	2831	2822	2804	2804	2790	2788	2782	2810	2843	2835	2793	2770	2755	2741	2731	2721	2741	2742	2733	2743	2728	2713	2731	2753	2748	2762	2777	2784	2764	2759	2772	2774	2767	2765	2785	2797	2813	2784	2772	2777	2792	2817	2832	2827	2826	2826	2817	2813	2793	2777	2768	2755	2728	2721	2751	2785	2816	2825	2825	2827	2848	2866	2876	2852	2827	2806	2809	2810	2794	2760	2763	2796	2827	2848	2853	2849	2859	2840	2832	2840	2847	2864	2847	2823	2795	2776	2769	2779	2832	2842	2850	2842	2852	2859	2829	2811	2772	2772	2804	2817	2842	2856	2864	2873	2870	2884	2844	2848	2864	2884	2896	2897	2876	2891	2894	2892	2883	2885	2895	2903	2895	2878	2876	2954	2901	2895	2907	2931	2924	2888	2867	2864	2914	2910	2906	2919	2934	2945	2944	2919	2916	2909	2912	2922	2929	2944	2941	2934	2917	2871	2863	2861	2877	2886	2893	2885	2905	2904	2884	2877	2874	2877	2889	2904	2913	2911	2908	2904	2917	2912	2926	2909	2850	2824	2839	2837	2834	2825	2827	2863	2876	2867	2847	2813	2815	2821	2821	2799	2776	2783	2800	2826	2835	2838	2816	2807	2814	2804	2836	2869	2889	2876	2840	2808	2786	2804	2815	2821	2826	2831	2837	2843	2854	2857	2849	2849	2850	2842	2834	2829	2829	2841	2837	2835	2838	2845	2857	2858	2857	2857	2854	2851	2849	2830	2821	2797	2792	2797	2810	2811	2829	2820	2808	2795	2784	2780	2772	2771	2775	2792	2804	2813	2806	2787	2803	2832	2865	2890	2875	2828	2814	2816	2789	2789	2778	2793	2805	2821	2815	2806	2801	2823	2836	2860	2894	2902	2897	2857	2830	2734	2734	2625	2612	2610	2607	0	0	0	0	0	0	0	0	0	0	0	0	0	0	0	0	0	0	0	0	0	0	0	0	0	0	0	0	0	0	0	0	0	0	0	0	0	0	0	0	0	0	0	0	0	0	0	0	0	0	0	0	0	0	0	0	0	0	0	0	0	0	0	0	0	0	0	0	0	0	0	0	0	0	0	0	0	0	0	0	0	0	0	0	0	0	0	0	0	0	0	0	0	0	0	0	0	0	0	0	0	0	0	0	0	0	0	0	0	0	0	0	0	0	0	0	0	0	0	0	0	0	0	0	0	0	0	0	0	0	0	0	0	0	0	0	0	0	0	0	0	0	0	0	0	0	0	0	0	0	0	0	0	0	0	0	0	0	0	0	0	0	0	0	0	0	0	0	0	0	0	0
0	0	0	0	0	0	0	0	0	0	0	0	0	0	0	0	0	0	0	0	0	0	0	0	0	0	0	0	0	0	0	0	0	0	0	0	0	0	0	0	0	0	0	0	0	0	0	0	0	0	0	0	0	0	0	0	0	0	0	0	0	0	0	0	0	0	0	0	0	0	0	0	0	0	0	0	0	0	0	0	0	0	0	0	0	0	0	0	0	0	0	0	0	0	0	0	0	0	0	0	0	0	0	0	0	0	0	0	0	0	0	0	0	0	0	0	0	0	0	0	0	0	0	0	0	0	0	0	0	0	0	0	0	0	0	0	0	0	0	0	0	0	0	0	0	0	0	0	0	0	0	0	0	0	0	0	0	0	0	0	0	0	2597	2719	2765	2760	2747	2729	2741	2745	2767	2787	2824	2825	2801	2779	2762	2740	2723	2729	2773	2803	2821	2829	2811	2785	2785	2776	2761	2761	2821	2839	2806	2779	2750	2758	2765	2764	2761	2735	2751	2752	2749	2733	2728	2726	2728	2738	2775	2800	2791	2782	2763	2760	2764	2755	2751	2748	2776	2789	2788	2766	2773	2797	2817	2824	2818	2815	2815	2801	2805	2803	2800	2780	2756	2721	2700	2712	2778	2805	2813	2817	2818	2829	2836	2848	2833	2791	2774	2780	2783	2777	2753	2750	2788	2827	2858	2872	2872	2858	2841	2837	2814	2851	2845	2836	2819	2798	2794	2789	2787	2825	2849	2844	2839	2843	2859	2836	2812	2819	2831	2842	2838	2851	2846	2833	2848	2860	2881	2874	2884	2877	2883	2888	2869	2863	2889	2888	2906	2908	2901	2891	2892	2907	2898	2919	2934	2945	2918	2922	2926	2936	2905	2897	2861	2900	2917	2916	2914	2909	2928	2932	2920	2917	2910	2913	2926	2938	2943	2942	2933	2920	2892	2862	2864	2882	2894	2896	2908	2934	2918	2893	2896	2882	2881	2891	2908	2919	2908	2902	2902	2921	2917	2915	2901	2861	2844	2866	2854	2850	2844	2846	2866	2870	2851	2821	2809	2803	2809	2815	2817	2810	2798	2807	2821	2833	2831	2837	2808	2792	2787	2826	2853	2886	2868	2812	2782	2788	2797	2798	2804	2802	2817	2830	2856	2868	2866	2851	2848	2830	2837	2839	2834	2834	2830	2824	2840	2838	2841	2837	2841	2842	2816	2817	2830	2837	2821	2809	2795	2770	2759	2764	2766	2780	2795	2773	2744	2723	2734	2743	2749	2747	2756	2776	2786	2785	2772	2763	2780	2803	2828	2828	2797	2786	2776	2763	2763	2743	2746	2763	2777	2780	2755	2765	2785	2772	2795	2820	2830	2805	2772	2760	2734	2734	2465	2580	2569	2565	2549	0	0	0	0	0	0	0	0	0	0	0	0	0	0	0	0	0	0	0	0	0	0	0	0	0	0	0	0	0	0	0	0	0	0	0	0	0	0	0	0	0	0	0	0	0	0	0	0	0	0	0	0	0	0	0	0	0	0	0	0	0	0	0	0	0	0	0	0	0	0	0	0	0	0	0	0	0	0	0	0	0	0	0	0	0	0	0	0	0	0	0	0	0	0	0	0	0	0	0	0	0	0	0	0	0	0	0	0	0	0	0	0	0	0	0	0	0	0	0	0	0	0	0	0	0	0	0	0	0	0	0	0	0	0	0	0	0	0	0	0	0	0	0	0	0	0	0	0	0	0	0	0	0	0	0	0	0	0	0	0	0	0	0	0	0	0	0	0	0	0	0
0	0	0	0	0	0	0	0	0	0	0	0	0	0	0	0	0	0	0	0	0	0	0	0	0	0	0	0	0	0	0	0	0	0	0	0	0	0	0	0	0	0	0	0	0	0	0	0	0	0	0	0	0	0	0	0	0	0	0	0	0	0	0	0	0	0	0	0	0	0	0	0	0	0	0	0	0	0	0	0	0	0	0	0	0	0	0	0	0	0	0	0	0	0	0	0	0	0	0	0	0	0	0	0	0	0	0	0	0	0	0	0	0	0	0	0	0	0	0	0	0	0	0	0	0	0	0	0	0	0	0	0	0	0	0	0	0	0	0	0	0	0	0	0	0	0	0	0	0	0	0	0	0	0	0	0	0	0	0	0	0	0	2585	2671	2765	2760	2747	2736	2726	2747	2765	2798	2828	2839	2824	2802	2782	2762	2738	2731	2757	2779	2820	2817	2793	2787	2787	2761	2760	2777	2804	2816	2798	2781	2766	2791	2793	2792	2782	2774	2767	2759	2755	2749	2745	2732	2746	2757	2791	2814	2794	2781	2769	2754	2743	2725	2735	2730	2752	2791	2788	2764	2772	2801	2811	2786	2784	2772	2772	2779	2796	2798	2802	2791	2767	2731	2713	2713	2741	2777	2798	2788	2784	2792	2802	2796	2779	2768	2757	2756	2753	2764	2757	2760	2782	2810	2845	2873	2874	2860	2832	2824	2815	2812	2816	2822	2820	2811	2800	2794	2794	2828	2850	2847	2844	2850	2860	2851	2837	2832	2866	2880	2882	2858	2850	2851	2853	2883	2876	2877	2896	2910	2888	2882	2879	2853	2864	2882	2884	2901	2907	2884	2882	2863	2873	2900	2903	2919	2921	2926	2956	2965	2942	2908	2888	2908	2929	2921	2903	2894	2908	2907	2903	2884	2880	2886	2901	2919	2910	2909	2894	2916	2916	2886	2879	2889	2901	2911	2929	2943	2918	2888	2917	2915	2902	2874	2891	2920	2921	2902	2923	2925	2923	2904	2906	2858	2855	2874	2876	2878	2870	2849	2844	2852	2838	2816	2796	2789	2800	2809	2821	2807	2788	2784	2791	2800	2804	2813	2790	2766	2769	2791	2820	2846	2827	2789	2769	2774	2805	2791	2783	2760	2769	2791	2814	2835	2830	2807	2795	2794	2809	2800	2796	2787	2787	2764	2797	2789	2777	2813	2798	2764	2752	2766	2773	2774	2774	2741	2739	2725	2694	2679	2683	2712	2736	2724	2693	2675	2684	2714	2729	2702	2672	2686	2723	2714	2710	2660	2703	2720	2720	2667	2662	2674	2679	2674	2674	2659	2649	2651	2689	2675	2668	2692	2696	2697	2700	2702	2714	2703	2681	2645	2616	2575	2465	2580	2569	2061	2033	2022	2040	2040	2055	2040	2004	1950	1906	1898	1903	1917	1927	1940	1955	1961	1962	1960	1953	1981	2030	2041	2057	2057	2033	2037	2056	2077	2096	2083	2044	2032	2082	2120	2246	0	0	0	0	0	0	0	0	0	0	0	0	0	0	0	0	0	0	0	0	0	0	0	0	0	0	0	0	0	0	0	0	0	0	0	0	0	0	0	0	0	0	0	0	0	0	0	0	0	0	0	0	0	0	0	0	0	0	0	0	0	0	0	0	0	0	0	0	0	0	0	0	0	0	0	0	0	0	0	0	0	0	0	0	0	0	0	0	0	0	0	0	0	0	0	0	0	0	0	0	0	0	0	0	0	0	0	0	0	0	0	0	0	0	0	0	0	0	0	0	0	0	0	0	0	0	0	0	0	0	0	0	0	0	0	0	0
0	0	0	0	0	0	0	0	0	0	0	0	0	0	0	0	0	0	0	0	0	0	0	0	0	0	0	0	0	0	0	0	0	0	0	0	0	0	0	0	0	0	0	0	0	0	0	0	0	0	0	0	0	0	0	0	0	0	0	0	0	0	0	0	0	0	0	0	0	0	0	0	0	0	0	0	0	0	0	0	0	0	0	0	0	0	0	0	0	0	0	0	0	0	0	0	0	0	0	0	0	0	0	0	0	0	0	0	0	0	0	0	0	0	0	0	0	0	0	0	0	0	0	0	0	0	0	0	0	0	0	0	0	0	0	0	0	0	0	0	0	0	0	0	0	0	0	0	0	0	0	0	0	0	0	0	0	0	0	0	0	0	2585	2671	2761	2761	2751	2736	2728	2760	2786	2811	2825	2830	2828	2809	2787	2766	2746	2736	2742	2775	2806	2817	2803	2803	2786	2762	2763	2761	2781	2802	2796	2795	2788	2798	2814	2827	2827	2804	2775	2759	2757	2754	2760	2759	2782	2785	2783	2798	2790	2784	2758	2741	2721	2711	2720	2718	2748	2778	2790	2774	2774	2801	2812	2794	2759	2753	2753	2749	2769	2787	2804	2802	2791	2776	2743	2750	2747	2778	2782	2761	2757	2740	2755	2760	2745	2734	2726	2744	2750	2754	2781	2788	2774	2800	2825	2840	2861	2848	2816	2790	2778	2773	2775	2793	2809	2802	2794	2789	2791	2834	2861	2859	2859	2867	2855	2835	2834	2846	2873	2893	2894	2871	2858	2862	2856	2864	2881	2886	2900	2917	2886	2867	2864	2866	2869	2856	2866	2888	2884	2891	2875	2869	2866	2880	2883	2906	2915	2931	2961	2952	2961	2904	2902	2941	2927	2904	2887	2881	2890	2897	2886	2875	2862	2879	2889	2905	2908	2897	2888	2894	2897	2886	2886	2890	2903	2926	2947	2940	2897	2896	2894	2896	2896	2883	2900	2882	2888	2919	2916	2922	2934	2928	2883	2827	2827	2838	2849	2863	2837	2801	2781	2772	2756	2743	2731	2744	2756	2768	2774	2746	2727	2704	2711	2726	2739	2745	2731	2698	2697	2696	2719	2734	2745	2690	2686	2691	2731	2730	2722	2700	2702	2704	2714	2719	2719	2695	2661	2692	2709	2705	2701	2671	2671	2647	2628	2669	2683	2696	2681	2683	2664	2653	2688	2692	2685	2655	2616	2596	2577	2535	2546	2572	2640	2566	2607	2591	2596	2648	2620	2578	2554	2538	2550	2565	2527	2513	2508	2552	2514	2496	2493	2502	2530	2488	2488	2496	2522	2520	2492	2471	2542	2535	2491	2525	2562	2534	2559	2600	2593	2562	2513	2447	2296	2185	2105	2061	2033	2022	1919	1942	1942	1956	1954	1944	1940	1953	1959	1952	1934	1917	1910	1910	1921	1920	1916	1916	1923	1920	1918	1918	1927	1941	1964	1980	1991	1971	1941	1926	1909	1891	1953	2271	0	0	0	0	0	0	0	0	0	0	0	0	0	0	0	0	0	0	0	0	0	0	0	0	0	0	0	0	0	0	0	0	0	0	0	0	0	0	0	0	0	0	0	0	0	0	0	0	0	0	0	0	0	0	0	0	0	0	0	0	0	0	0	0	0	0	0	0	0	0	0	0	0	0	0	0	0	0	0	0	0	0	0	0	0	0	0	0	0	0	0	0	0	0	0	0	0	0	0	0	0	0	0	0	0	0	0	0	0	0	0	0	0	0	0	0	0	0	0	0	0	0	0	0	0	0	0	0	0	0	0	0	0	0	0	0
0	0	0	0	0	0	0	0	0	0	0	0	0	0	0	0	0	0	0	0	0	0	0	0	0	0	0	0	0	0	0	0	0	0	0	0	0	0	0	0	0	0	0	0	0	0	0	0	0	0	0	0	0	0	0	0	0	0	0	0	0	0	0	0	0	0	0	0	0	0	0	0	0	0	0	0	0	0	0	0	0	0	0	0	0	0	0	0	0	0	0	0	0	0	0	0	0	0	0	0	0	0	0	0	0	0	0	0	0	0	0	0	0	0	0	0	0	0	0	0	0	0	0	0	0	0	0	0	0	0	0	0	0	0	0	0	0	0	0	0	0	0	0	0	0	0	0	0	0	0	0	0	0	0	0	0	0	0	0	0	0	0	2539	2660	2757	2766	2756	2758	2755	2784	2797	2817	2829	2814	2801	2787	2769	2746	2729	2715	2720	2750	2794	2817	2789	2789	2792	2792	2783	2779	2777	2786	2782	2783	2772	2787	2815	2836	2833	2808	2778	2757	2747	2749	2762	2783	2795	2793	2770	2772	2768	2761	2743	2738	2724	2712	2693	2685	2703	2728	2765	2782	2787	2800	2816	2810	2785	2785	2750	2743	2761	2786	2794	2797	2797	2782	2767	2766	2782	2783	2783	2768	2715	2695	2711	2743	2754	2744	2755	2769	2778	2776	2771	2783	2776	2788	2812	2815	2821	2823	2792	2760	2756	2750	2727	2747	2786	2796	2785	2791	2788	2815	2855	2862	2866	2877	2843	2833	2829	2842	2862	2876	2882	2873	2863	2859	2851	2852	2859	2867	2863	2870	2881	2874	2871	2859	2843	2839	2848	2862	2879	2900	2892	2886	2874	2872	2887	2893	2911	2932	2966	2945	2926	2900	2912	2937	2920	2902	2874	2861	2871	2889	2901	2885	2860	2876	2883	2888	2882	2882	2880	2876	2872	2885	2890	2894	2903	2925	2942	2928	2884	2824	2839	2856	2831	2834	2839	2830	2850	2874	2842	2774	2771	2779	2512	2744	2754	2747	2659	2714	2738	2707	2673	2651	2652	2640	2632	2673	2695	2666	2674	2644	2575	2570	2566	2576	2566	2603	2554	2581	2616	2598	2565	2606	2610	2665	2658	2658	2644	2588	2600	2589	2560	2541	2535	2517	2517	2521	2533	2523	2588	2614	2607	2527	2527	2451	2432	2445	2459	2379	2376	2414	2348	2286	2245	2175	2201	2352	2354	2352	2354	2358	2363	2385	2371	2260	2262	2418	2464	2411	2350	2348	2343	2336	2323	2236	2197	2206	2185	2180	2263	2273	2295	2301	2262	2199	2199	2182	2163	2154	2173	2158	2189	2129	2052	2047	2066	2107	2118	2082	2028	2013	1992	1972	1953	1946	1942	1942	1933	1920	1919	1942	1942	1943	1946	1960	1960	1961	1958	1953	1943	1942	1943	1985	1991	1966	1951	1943	1931	1926	1926	1926	1934	1947	1961	1955	1925	1907	1910	1918	1904	1872	1853	1922	2309	0	0	0	0	0	0	0	0	0	0	0	0	0	0	0	0	0	0	0	0	0	0	0	0	0	0	0	0	0	0	0	0	0	0	0	0	0	0	0	0	0	0	0	0	0	0	0	0	0	0	0	0	0	0	0	0	0	0	0	0	0	0	0	0	0	0	0	0	0	0	0	0	0	0	0	0	0	0	0	0	0	0	0	0	0	0	0	0	0	0	0	0	0	0	0	0	0	0	0	0	0	0	0	0	0	0	0	0	0	0	0	0	0	0	0	0	0	0	0	0	0	0	0	0	0	0	0	0	0	0	0	0	0	0	0
0	0	0	0	0	0	0	0	0	0	0	0	0	0	0	0	0	0	0	0	0	0	0	0	0	0	0	0	0	0	0	0	0	0	0	0	0	0	0	0	0	0	0	0	0	0	0	0	0	0	0	0	0	0	0	0	0	0	0	0	0	0	0	0	0	0	0	0	0	0	0	0	0	0	0	0	0	0	0	0	0	0	0	0	0	0	0	0	0	0	0	0	0	0	0	0	0	0	0	0	0	0	0	0	0	0	0	0	0	0	0	0	0	0	0	0	0	0	0	0	0	0	0	0	0	0	0	0	0	0	0	0	0	0	0	0	0	0	0	0	0	0	0	0	0	0	0	0	0	0	0	0	0	0	0	0	0	0	0	0	0	0	2500	2673	2778	2771	2766	2759	2754	2785	2801	2810	2806	2785	2768	2755	2743	2730	2718	2712	2728	2747	2795	2823	2803	2803	2803	2802	2793	2793	2779	2760	2746	2734	2736	2758	2793	2822	2833	2812	2783	2757	2734	2737	2758	2780	2777	2767	2740	2740	2750	2755	2741	2727	2708	2702	2696	2684	2682	2705	2731	2732	2751	2774	2802	2798	2773	2773	2763	2750	2749	2757	2763	2766	2773	2754	2749	2749	2759	2762	2761	2748	2718	2705	2702	2724	2766	2784	2782	2806	2810	2806	2767	2718	2697	2737	2759	2793	2812	2791	2755	2719	2717	2718	2701	2727	2751	2775	2778	2774	2764	2718	2829	2845	2842	2851	2824	2806	2803	2792	2794	2818	2847	2858	2840	2821	2827	2821	2811	2808	2856	2872	2876	2866	2841	2812	2781	2779	2815	2835	2857	2874	2882	2833	2821	2850	2885	2895	2902	2917	2923	2917	2815	2804	2852	2845	2919	2902	2869	2841	2879	2888	2900	2886	2868	2839	2831	2839	2888	2880	2873	2869	2835	2782	2667	2618	2574	2684	2720	2771	2775	2767	2774	2685	2433	2458	2510	2703	2722	2523	2416	2382	2375	2368	2319	2276	2568	2429	2431	2391	2457	2558	2531	2520	2545	2496	2399	2343	2314	2334	2360	2382	2373	2378	2338	2328	2312	2309	2333	2267	2266	2296	2285	2309	2294	2248	2205	2199	2224	2205	2219	2211	2201	2162	2122	2110	2117	2106	2034	2017	1995	1980	1965	1996	1996	2004	1970	1970	1971	1984	1996	1973	1951	1940	1950	1989	2018	2004	1968	1936	1979	2023	2035	2004	1973	1957	1944	1933	1924	1954	1993	2017	2008	1991	1975	1980	2001	2023	2024	2005	1981	1948	1929	1912	1910	1924	1924	1935	1936	1931	1937	1952	1960	1974	1975	1984	1983	1987	1984	1999	1987	1966	1946	1924	1915	1921	1933	1937	1930	1927	1926	1934	1934	1943	1946	1960	1960	1957	1954	1949	1955	1963	1967	1981	1996	1982	1959	1949	1941	1933	1925	1925	1915	1945	1944	1931	1911	1908	1916	1923	1903	1887	1877	1953	2271	0	0	0	0	0	0	0	0	0	0	0	0	0	0	0	0	0	0	0	0	0	0	0	0	0	0	0	0	0	0	0	0	0	0	0	0	0	0	0	0	0	0	0	0	0	0	0	0	0	0	0	0	0	0	0	0	0	0	0	0	0	0	0	0	0	0	0	0	0	0	0	0	0	0	0	0	0	0	0	0	0	0	0	0	0	0	0	0	0	0	0	0	0	0	0	0	0	0	0	0	0	0	0	0	0	0	0	0	0	0	0	0	0	0	0	0	0	0	0	0	0	0	0	0	0	0	0	0	0	0	0	0	0	0	0
0	0	0	0	0	0	0	0	0	0	0	0	0	0	0	0	0	0	0	0	0	0	0	0	0	0	0	0	0	0	0	0	0	0	0	0	0	0	0	0	0	0	0	0	0	0	0	0	0	0	0	0	0	0	0	0	0	0	0	0	0	0	0	0	0	0	0	0	0	0	0	0	0	0	0	0	0	0	0	0	0	0	0	0	0	0	0	0	0	0	0	0	0	0	0	0	0	0	0	0	0	0	0	0	0	0	0	0	0	0	0	0	0	0	0	0	0	0	0	0	0	0	0	0	0	0	0	0	0	0	0	0	0	0	0	0	0	0	0	0	0	0	0	0	0	0	0	0	0	0	0	0	0	0	0	0	0	0	0	0	0	0	2511	2696	2782	2777	2763	2761	2749	2778	2782	2780	2761	2729	2718	2728	2726	2733	2730	2737	2751	2753	2793	2807	2796	2796	2771	2764	2774	2784	2779	2745	2704	2683	2698	2739	2775	2782	2810	2806	2794	2761	2726	2720	2724	2736	2736	2738	2725	2725	2726	2738	2746	2728	2726	2719	2688	2685	2684	2681	2672	2680	2690	2720	2764	2758	2745	2745	2729	2724	2714	2704	2705	2700	2684	2702	2678	2676	2679	2681	2697	2704	2697	2688	2692	2710	2739	2749	2761	2790	2806	2785	2723	2668	2660	2675	2723	2770	2773	2727	2681	2685	2691	2687	2660	2665	2693	2710	2737	2728	2726	2683	2538	2793	2802	2820	2748	2708	2674	2655	2621	2630	2668	2659	2620	2620	2604	2759	2707	2679	2677	2717	2728	2677	2577	2563	2616	2573	2541	2565	2505	2544	2612	2672	2731	2692	2662	2627	2639	2624	2421	2403	2590	2585	2511	2680	2655	2641	2625	2608	2595	2602	2616	2608	2404	2355	2429	2428	2472	2441	2436	2417	2369	2284	2274	2400	2317	2184	2080	2042	2015	2025	2098	2244	2355	2376	2357	2268	2236	2189	2226	2238	2243	2232	2192	2141	2115	2153	2190	2102	2055	2008	1983	1982	1995	1965	1964	1953	1980	1982	1961	1956	1954	1939	1942	1977	1990	1993	1978	1958	1922	1925	1938	1928	1925	1942	1949	1958	1960	1967	1980	1991	2001	1990	1982	1978	1974	1983	2000	1974	1963	1956	1949	1952	1963	1963	1955	1951	1949	1938	1939	1936	1928	1936	1957	1980	1989	1974	1941	1931	1964	1996	2026	2000	1956	1927	1919	1896	1910	1940	1973	1996	2010	1998	1975	1969	1978	1995	1997	1975	1958	1944	1931	1925	1931	1942	1940	1940	1946	1941	1954	1968	1983	1994	1986	1992	1995	1986	1986	1984	1984	1959	1950	1933	1917	1917	1931	1940	1941	1942	1934	1945	1945	1947	1951	1962	1960	1957	1954	1935	1947	1956	1973	1985	1990	1984	1974	1956	1953	1944	1929	1929	1911	1910	1915	1910	1906	1907	1918	1918	1908	1896	1918	2015	2284	0	0	0	0	0	0	0	0	0	0	0	0	0	0	0	0	0	0	0	0	0	0	0	0	0	0	0	0	0	0	0	0	0	0	0	0	0	0	0	0	0	0	0	0	0	0	0	0	0	0	0	0	0	0	0	0	0	0	0	0	0	0	0	0	0	0	0	0	0	0	0	0	0	0	0	0	0	0	0	0	0	0	0	0	0	0	0	0	0	0	0	0	0	0	0	0	0	0	0	0	0	0	0	0	0	0	0	0	0	0	0	0	0	0	0	0	0	0	0	0	0	0	0	0	0	0	0	0	0	0	0	0	0	0	0
0	0	0	0	0	0	0	0	0	0	0	0	0	0	0	0	0	0	0	0	0	0	0	0	0	0	0	0	0	0	0	0	0	0	0	0	0	0	0	0	0	0	0	0	0	0	0	0	0	0	0	0	0	0	0	0	0	0	0	0	0	0	0	0	0	0	0	0	0	0	0	0	0	0	0	0	0	0	0	0	0	0	0	0	0	0	0	0	0	0	0	0	0	0	0	0	0	0	0	0	0	0	0	0	0	0	0	0	0	0	0	0	0	0	0	0	0	0	0	0	0	0	0	0	0	0	0	0	0	0	0	0	0	0	0	0	0	0	0	0	0	0	0	0	0	0	0	0	0	0	0	0	0	0	0	0	0	0	0	0	0	0	2542	2688	2758	2763	2755	2752	2753	2745	2740	2724	2700	2665	2680	2711	2726	2738	2735	2742	2749	2749	2752	2755	2729	2729	2712	2711	2716	2724	2722	2710	2677	2646	2656	2695	2711	2700	2726	2759	2760	2718	2684	2675	2677	2688	2683	2692	2680	2670	2671	2686	2713	2738	2737	2663	2649	2646	2648	2637	2618	2618	2612	2645	2673	2690	2675	2675	2668	2656	2646	2631	2637	2630	2605	2598	2598	2589	2579	2590	2618	2636	2647	2654	2651	2661	2671	2673	2681	2713	2735	2672	2624	2572	2534	2539	2579	2665	2627	2449	2496	2506	2590	2591	2549	2551	2604	2648	2678	2663	2637	2321	2373	2356	2315	2311	2320	2382	2422	2440	2407	2415	2420	2401	2418	2403	2361	2326	2260	2436	2468	2536	2570	2492	2403	2352	2366	2377	2417	2435	2286	2340	2427	2579	2638	2492	2462	2577	2621	2569	2156	2066	2514	2485	2399	2022	2023	1980	1984	1989	1989	2015	2060	2151	2175	2216	2337	2369	2427	2406	2357	2377	2325	2221	2183	2124	2092	2027	1986	2009	2000	2004	2045	2069	2065	2020	2023	2041	2100	2061	2018	1995	1984	1991	2006	1986	1954	1957	1984	1992	1969	1974	1973	1968	1955	1943	1948	1963	1979	1990	1980	1962	1962	1957	1967	1972	1984	1994	1985	1969	1946	1916	1899	1889	1892	1920	1934	1936	1942	1952	1958	1974	1989	1996	1986	1973	1972	1987	1971	1960	1949	1946	1945	1952	1965	1965	1961	1957	1944	1940	1931	1933	1926	1935	1954	1974	1978	1965	1937	1931	1942	1976	2003	1984	1952	1922	1898	1897	1907	1930	1962	1986	2009	1992	1971	1958	1952	1957	1957	1951	1934	1934	1938	1934	1943	1960	1964	1964	1956	1964	1975	1983	1987	1997	1989	2003	1996	1986	1977	1977	1968	1957	1942	1942	1935	1916	1923	1940	1951	1944	1944	1942	1942	1945	1953	1966	1969	1953	1935	1935	1947	1956	1967	1980	1986	1982	1978	1975	1973	1964	1944	1944	1909	1892	1890	1901	1920	1916	1914	1906	1890	1879	1942	2053	2314	0	0	0	0	0	0	0	0	0	0	0	0	0	0	0	0	0	0	0	0	0	0	0	0	0	0	0	0	0	0	0	0	0	0	0	0	0	0	0	0	0	0	0	0	0	0	0	0	0	0	0	0	0	0	0	0	0	0	0	0	0	0	0	0	0	0	0	0	0	0	0	0	0	0	0	0	0	0	0	0	0	0	0	0	0	0	0	0	0	0	0	0	0	0	0	0	0	0	0	0	0	0	0	0	0	0	0	0	0	0	0	0	0	0	0	0	0	0	0	0	0	0	0	0	0	0	0	0	0	0	0	0	0	0	0
0	0	0	0	0	0	0	0	0	0	0	0	0	0	0	0	0	0	0	0	0	0	0	0	0	0	0	0	0	0	0	0	0	0	0	0	0	0	0	0	0	0	0	0	0	0	0	0	0	0	0	0	0	0	0	0	0	0	0	0	0	0	0	0	0	0	0	0	0	0	0	0	0	0	0	0	0	0	0	0	0	0	0	0	0	0	0	0	0	0	0	0	0	0	0	0	0	0	0	0	0	0	0	0	0	0	0	0	0	0	0	0	0	0	0	0	0	0	0	0	0	0	0	0	0	0	0	0	0	0	0	0	0	0	0	0	0	0	0	0	0	0	0	0	0	0	0	0	0	0	0	0	0	0	0	0	0	0	0	0	0	0	2545	2634	2663	2699	2710	2723	2718	2703	2682	2654	2632	2616	2643	2670	2694	2689	2687	2687	2683	2685	2675	2658	2644	2644	2637	2635	2626	2613	2627	2632	2615	2602	2606	2618	2629	2589	2611	2642	2657	2633	2605	2598	2589	2591	2587	2582	2593	2571	2561	2576	2605	2653	2623	2518	2529	2552	2560	2567	2532	2525	2472	2517	2542	2575	2549	2549	2564	2549	2536	2537	2564	2571	2549	2545	2506	2493	2483	2493	2508	2539	2564	2584	2581	2576	2569	2561	2579	2596	2467	2471	2435	2430	2372	2358	2359	2342	2310	2321	2248	2171	2162	2209	2214	2174	2052	2046	2063	2132	2138	2168	2259	2238	2229	2219	2208	2226	2234	2260	2248	2264	2260	2263	2285	2280	2255	2239	2100	2185	2207	2063	2058	2223	2217	2207	2215	2151	2060	2043	2082	2135	2060	1997	1983	2000	1997	1971	1964	1978	1996	1996	1975	1979	1994	2009	1992	1974	1982	1989	1989	1988	2028	2064	2059	2063	2065	1975	1975	1986	2057	2042	2012	2001	1981	1970	1963	1967	1972	1959	1972	1986	1997	2000	1968	1958	1953	1964	1980	2002	1978	1955	1956	1963	1967	1947	1931	1921	1921	1934	1944	1962	1958	1964	1962	1950	1952	1960	1974	1983	1987	1974	1969	1977	1981	1987	1993	1993	1992	1984	1957	1923	1941	1930	1917	1933	1944	1939	1925	1922	1942	1946	1965	1982	1980	1965	1966	1971	1962	1953	1943	1940	1941	1943	1949	1949	1945	1937	1935	1931	1931	1932	1934	1941	1949	1963	1963	1951	1940	1920	1938	1979	1981	1969	1940	1928	1916	1916	1923	1929	1959	1984	1994	1979	1965	1952	1939	1936	1941	1939	1934	1929	1931	1938	1943	1954	1962	1962	1958	1975	1984	1987	1975	1989	1995	1999	2001	1993	1970	1959	1957	1956	1931	1927	1919	1931	1940	1956	1969	1960	1942	1947	1947	1947	1955	1964	1964	1947	1931	1928	1944	1952	1967	1980	1986	1982	1984	1982	1992	1984	1962	1925	1925	1897	1894	1901	1908	1920	1912	1892	1874	1882	1962	2074	2330	0	0	0	0	0	0	0	0	0	0	0	0	0	0	0	0	0	0	0	0	0	0	0	0	0	0	0	0	0	0	0	0	0	0	0	0	0	0	0	0	0	0	0	0	0	0	0	0	0	0	0	0	0	0	0	0	0	0	0	0	0	0	0	0	0	0	0	0	0	0	0	0	0	0	0	0	0	0	0	0	0	0	0	0	0	0	0	0	0	0	0	0	0	0	0	0	0	0	0	0	0	0	0	0	0	0	0	0	0	0	0	0	0	0	0	0	0	0	0	0	0	0	0	0	0	0	0	0	0	0	0	0	0	0	0
0	0	0	0	0	0	0	0	0	0	0	0	0	0	0	0	0	0	0	0	0	0	0	0	0	0	0	0	0	0	0	0	0	0	0	0	0	0	0	0	0	0	0	0	0	0	0	0	0	0	0	0	0	0	0	0	0	0	0	0	0	0	0	0	0	0	0	0	0	0	0	0	0	0	0	0	0	0	0	0	0	0	0	0	0	0	0	0	0	0	0	0	0	0	0	0	0	0	0	0	0	0	0	0	0	0	0	0	0	0	0	0	0	0	0	0	0	0	0	0	0	0	0	0	0	0	0	0	0	0	0	0	0	0	0	0	0	0	0	0	0	0	0	0	0	0	0	0	0	0	0	0	0	0	0	0	0	0	0	0	0	2462	2117	2550	2556	2589	2631	2662	2672	2638	2592	2575	2551	2520	2537	2554	2578	2599	2551	2487	2530	2528	2551	2552	2544	2544	2516	2505	2439	2386	2420	2379	2391	2472	2518	2502	2476	2453	2469	2486	2482	2480	2501	2483	2473	2464	2469	2439	2435	2437	2414	2419	2449	2432	2347	2351	2374	2372	2366	2199	2150	2176	2285	2291	2136	2123	2123	2076	2090	2066	2054	2067	2081	2098	2108	2097	2043	1993	1973	1971	1952	1954	1968	1979	2016	2029	2030	2005	2003	1991	1956	1918	1914	1916	1905	1878	1885	1907	1934	1957	1962	1940	1935	1954	1958	1932	1902	1892	1897	1917	1957	1974	1963	1958	1968	1986	1995	1983	2002	2003	1997	1988	1993	1993	2012	2013	2000	1958	1919	1915	1932	1962	1966	1965	1968	1931	1921	1919	1951	1966	1949	1938	1925	1918	1917	1931	1934	1939	1936	1926	1926	1951	1946	1960	1986	2008	2002	1975	1954	1986	1996	1956	1964	1977	1996	1980	1963	1965	1963	1961	1957	1951	1960	1970	1956	1949	1937	1940	1948	1962	1980	1981	1988	1979	1955	1953	1940	1958	1980	1992	1985	1972	1965	1963	1968	1955	1940	1919	1909	1914	1926	1933	1939	1953	1974	1971	1963	1958	1964	1972	1981	1987	1987	1990	1985	1976	1992	2008	2010	1999	1973	1973	1944	1934	1939	1960	1966	1951	1922	1912	1916	1925	1939	1967	1974	1973	1967	1973	1976	1963	1950	1927	1922	1929	1931	1931	1933	1926	1924	1931	1932	1932	1932	1938	1946	1951	1958	1956	1946	1942	1950	1975	1983	1973	1954	1945	1946	1948	1939	1931	1942	1958	1975	1975	1971	1956	1947	1931	1943	1947	1945	1936	1922	1903	1903	1929	1945	1945	1960	1970	1979	1972	1961	1975	1988	2003	2003	1995	1980	1961	1944	1936	1934	1923	1928	1936	1950	1957	1975	1960	1947	1944	1944	1942	1950	1958	1957	1947	1931	1927	1929	1944	1962	1980	1982	1983	1984	1982	1992	1979	1965	1937	1937	1915	1911	1913	1913	1904	1904	1898	1894	1903	1969	2064	2282	0	0	0	0	0	0	0	0	0	0	0	0	0	0	0	0	0	0	0	0	0	0	0	0	0	0	0	0	0	0	0	0	0	0	0	0	0	0	0	0	0	0	0	0	0	0	0	0	0	0	0	0	0	0	0	0	0	0	0	0	0	0	0	0	0	0	0	0	0	0	0	0	0	0	0	0	0	0	0	0	0	0	0	0	0	0	0	0	0	0	0	0	0	0	0	0	0	0	0	0	0	0	0	0	0	0	0	0	0	0	0	0	0	0	0	0	0	0	0	0	0	0	0	0	0	0	0	0	0	0	0	0	0	0	0
0	0	0	0	0	0	0	0	0	0	0	0	0	0	0	0	0	0	0	0	0	0	0	0	0	0	0	0	0	0	0	0	0	0	0	0	0	0	0	0	0	0	0	0	0	0	0	0	0	0	0	0	0	0	0	0	0	0	0	0	0	0	0	0	0	0	0	0	0	0	0	0	0	0	0	0	0	0	0	0	0	0	0	0	0	0	0	0	0	0	0	0	0	0	0	0	0	0	0	0	0	0	0	0	0	0	0	0	0	0	0	0	0	0	0	0	0	0	0	0	0	0	0	0	0	0	0	0	0	1915	1916	1879	1851	1815	1796	1788	1788	1802	0	0	0	0	0	0	1836	1874	1890	1910	1910	1901	1942	1963	1963	1964	1950	1935	1912	1893	1903	1903	1956	2000	2368	2403	2432	2476	2482	2425	2287	2276	2400	2368	2180	2104	2088	2058	2035	2055	2129	2207	2224	2043	2009	1968	1958	1958	1945	1964	1988	2023	2050	1985	1966	1955	1924	1923	1945	1957	1951	1966	1984	1996	2020	2025	1980	1965	1955	1917	1896	1861	1869	1898	1926	1940	1945	1953	1960	1957	1945	1923	1921	1942	1959	1960	1942	1929	1929	1923	1937	1942	1933	1920	1923	1927	1931	1922	1904	1886	1882	1896	1902	1921	1928	1931	1949	1962	1979	1965	1966	1956	1927	1901	1873	1858	1864	1861	1861	1866	1896	1924	1938	1933	1933	1942	1949	1944	1902	1895	1877	1902	1933	1956	1977	1973	1955	1945	1939	1943	1955	1973	1985	1983	1979	1969	1984	1984	1979	1980	1962	1959	1949	1959	1977	1959	1953	1964	1937	1927	1928	1963	1959	1955	1941	1929	1914	1938	1973	1987	1970	1955	1974	1967	1936	1954	1964	1948	1931	1913	1911	1931	1956	1957	1985	1994	1981	1987	1977	1967	1961	1957	1951	1942	1939	1942	1940	1936	1928	1934	1945	1963	1983	1991	1993	1980	1959	1952	1937	1963	1983	1993	1999	1978	1965	1960	1953	1948	1935	1916	1898	1900	1913	1928	1932	1982	1973	1969	1959	1958	1942	1948	1972	1983	1983	1982	1967	1962	1969	2015	2020	2004	1985	1979	1952	1945	1947	1964	1971	1958	1939	1921	1912	1916	1937	1965	1974	1976	1967	1973	1976	1971	1933	1913	1900	1906	1917	1917	1922	1923	1930	1938	1947	1954	1947	1945	1948	1951	1956	1962	1962	1953	1956	1973	1995	1986	1967	1964	1970	1972	1957	1939	1936	1947	1962	1979	1982	1973	1954	1946	1950	1958	1961	1939	1912	1903	1912	1938	1952	1952	1960	1964	1966	1954	1940	1964	1988	2010	1996	1976	1956	1942	1931	1922	1933	1929	1931	1938	1948	1971	1969	1969	1955	1948	1948	1946	1946	1947	1947	1941	1940	1927	1940	1953	1976	1988	1998	1994	1994	1986	1985	1979	1965	1937	1937	1926	1930	1930	1923	1917	1919	1926	1926	1932	1972	2047	2229	0	0	0	0	0	0	0	0	0	0	0	0	0	0	0	0	0	0	0	0	0	0	0	0	0	0	0	0	0	0	0	0	0	0	0	0	0	0	0	0	0	0	0	0	0	0	0	0	0	0	0	0	0	0	0	0	0	0	0	0	0	0	0	0	0	0	0	0	0	0	0	0	0	0	0	0	0	0	0	0	0	0	0	0	0	0	0	0	0	0	0	0	0	0	0	0	0	0	0	0	0	0	0	0	0	0	0	0	0	0	0	0	0	0	0	0	0	0	0	0	0	0	0	0	0	0	0	0	0	0	0	0	0	0	0
0	0	0	0	0	0	0	0	0	0	0	0	0	0	0	0	0	0	0	0	0	0	0	0	0	0	0	0	0	0	0	0	0	0	0	0	0	0	0	0	0	0	0	0	0	0	0	0	0	0	0	0	0	0	0	0	0	0	0	0	0	0	0	0	0	0	0	0	0	0	0	0	0	0	0	0	0	0	0	0	0	0	0	0	0	0	0	0	0	0	0	0	0	0	0	0	0	0	0	0	0	0	0	0	0	0	0	0	0	0	0	0	0	0	0	0	0	0	0	0	0	0	0	0	0	0	0	0	1886	1908	1884	1895	1888	1866	1796	1788	1788	1802	1840	1889	1889	1910	1943	1975	1987	1955	1934	1916	1905	1916	1947	1955	1931	1903	1880	1884	1892	1909	1922	1922	1951	1972	1987	1984	1980	1973	1964	1951	1942	1932	1928	1919	1928	1968	1981	1960	1937	1937	1923	1898	1898	1907	1907	1907	1907	1896	1916	1920	1921	1918	1915	1911	1887	1880	1892	1922	1941	1950	1952	1958	1976	1986	1970	1951	1945	1938	1926	1934	1916	1897	1902	1907	1924	1931	1935	1941	1943	1940	1942	1926	1926	1938	1955	1958	1947	1936	1936	1937	1947	1934	1925	1921	1925	1923	1925	1928	1915	1907	1905	1917	1927	1929	1930	1930	1931	1944	1950	1951	1950	1943	1922	1892	1863	1855	1861	1861	1861	1874	1890	1921	1929	1939	1945	1943	1942	1929	1902	1893	1899	1909	1931	1955	1969	1975	1958	1955	1954	1946	1953	1931	1936	1952	1955	1943	1935	1961	1968	1979	1976	1974	1976	1982	1974	1972	1955	1943	1970	1975	1966	1962	1944	1942	1931	1921	1919	1932	1967	1989	1957	1971	1972	1976	1973	1974	1969	1923	1907	1902	1922	1986	2008	2000	1985	1996	1989	1975	1980	1968	1963	1960	1954	1938	1927	1937	1931	1929	1924	1931	1941	1965	1985	1996	1992	1972	1963	1959	1949	1947	1987	1989	1995	1967	1961	1961	1943	1937	1927	1914	1905	1899	1914	1915	1932	1996	2005	1983	1960	1952	1946	1950	1965	1973	1973	1962	1953	1941	1946	2011	2015	2000	1978	1968	1960	1951	1959	1958	1969	1961	1949	1935	1927	1934	1959	1960	1965	1965	1953	1955	1968	1952	1925	1902	1888	1894	1902	1917	1917	1932	1938	1955	1962	1967	1962	1955	1957	1960	1962	1967	1958	1958	1964	1976	1997	1985	1977	1977	1987	1974	1964	1945	1934	1937	1951	1969	1973	1968	1960	1962	1962	1964	1962	1955	1925	1925	1939	1953	1945	1945	1949	1960	1956	1941	1933	1948	1992	2009	1998	1978	1952	1933	1933	1927	1938	1939	1939	1932	1947	1968	1973	1974	1972	1962	1951	1951	1940	1933	1938	1934	1921	1937	1939	1974	1991	1995	2006	2006	1991	1977	1968	1952	1948	1931	1931	1926	1930	1930	1923	1941	1950	1962	1963	1953	1965	2020	2219	0	0	0	0	0	0	0	0	0	0	0	0	0	0	0	0	0	0	0	0	0	0	0	0	0	0	0	0	0	0	0	0	0	0	0	0	0	0	0	0	0	0	0	0	0	0	0	0	0	0	0	0	0	0	0	0	0	0	0	0	0	0	0	0	0	0	0	0	0	0	0	0	0	0	0	0	0	0	0	0	0	0	0	0	0	0	0	0	0	0	0	0	0	0	0	0	0	0	0	0	0	0	0	0	0	0	0	0	0	0	0	0	0	0	0	0	0	0	0	0	0	0	0	0	0	0	0	0	0	0	0	0	0	0	0
0	0	0	0	0	0	0	0	0	0	0	0	0	0	0	0	0	0	0	0	0	0	0	0	0	0	0	0	0	0	0	0	0	0	0	0	0	0	0	0	0	0	0	0	0	0	0	0	0	0	0	0	0	0	0	0	0	0	0	0	0	0	0	0	0	0	0	0	0	0	0	0	0	0	0	0	0	0	0	0	0	0	0	0	0	0	0	0	0	0	0	0	0	0	0	0	0	0	0	0	0	0	0	0	0	0	0	0	0	0	0	0	0	0	0	0	0	0	0	0	0	0	0	0	0	0	0	1843	1865	1846	1884	1895	1888	1866	1855	1875	1895	1898	1898	1900	1900	1913	1931	1937	1931	1933	1938	1948	1967	1974	1972	1944	1893	1863	1870	1885	1906	1926	1934	1934	1937	1942	1938	1941	1937	1940	1933	1923	1923	1919	1907	1902	1906	1927	1949	1945	1936	1929	1907	1885	1880	1888	1891	1896	1896	1909	1927	1930	1936	1919	1907	1893	1885	1882	1890	1914	1934	1942	1949	1952	1970	1976	1960	1940	1924	1917	1912	1929	1938	1932	1926	1920	1930	1935	1928	1927	1940	1938	1949	1936	1934	1947	1954	1947	1942	1929	1929	1929	1932	1922	1916	1923	1930	1930	1927	1937	1937	1916	1907	1924	1929	1932	1927	1930	1930	1935	1939	1934	1928	1923	1910	1887	1871	1854	1869	1882	1906	1921	1936	1934	1924	1924	1934	1951	1944	1928	1917	1915	1927	1917	1920	1950	1966	1982	1987	1975	1971	1941	1913	1921	1947	1943	1935	1926	1953	1960	1978	1979	1982	1981	1992	1987	1989	1980	1957	1939	1930	1961	1960	1958	1952	1944	1918	1906	1917	1931	1957	1968	1976	1977	1972	1969	1974	1961	1937	1919	1912	1920	1970	1965	1974	1980	1967	2000	1978	1966	1969	1961	1971	1962	1955	1952	1944	1941	1931	1928	1928	1928	1947	1966	1992	1992	1986	1970	1959	1959	1965	1967	1974	1983	1983	1967	1961	1946	1928	1922	1929	1920	1932	1920	1919	1904	1924	1990	1996	1978	1960	1950	1945	1941	1948	1947	1946	1932	1941	1934	1952	1988	1989	1980	1966	1962	1967	1967	1972	1969	1965	1962	1954	1947	1942	1951	1962	1956	1944	1940	1935	1934	1949	1946	1928	1912	1895	1897	1903	1926	1926	1943	1944	1947	1951	1969	1974	1972	1962	1959	1953	1945	1940	1957	1966	1971	1973	1969	1966	1975	1981	1979	1964	1948	1933	1932	1945	1953	1954	1958	1961	1975	1977	1981	1961	1945	1931	1932	1958	1948	1942	1942	1934	1945	1935	1943	1950	1962	1981	1996	2001	1981	1954	1929	1920	1923	1930	1934	1936	1932	1934	1959	1983	1970	1983	1975	1957	1957	1943	1928	1923	1919	1912	1931	1951	1975	1991	2000	2004	1994	1986	1973	1953	1938	1913	1916	1916	1936	1949	1953	1942	1941	1950	1962	1963	1962	1956	2000	2255	0	0	0	0	0	0	0	0	0	0	0	0	0	0	0	0	0	0	0	0	0	0	0	0	0	0	0	0	0	0	0	0	0	0	0	0	0	0	0	0	0	0	0	0	0	0	0	0	0	0	0	0	0	0	0	0	0	0	0	0	0	0	0	0	0	0	0	0	0	0	0	0	0	0	0	0	0	0	0	0	0	0	0	0	0	0	0	0	0	0	0	0	0	0	0	0	0	0	0	0	0	0	0	0	0	0	0	0	0	0	0	0	0	0	0	0	0	0	0	0	0	0	0	0	0	0	0	0	0	0	0	0	0	0	0
0	0	0	0	0	0	0	0	0	0	0	0	0	0	0	0	0	0	0	0	0	0	0	0	0	0	0	0	0	0	0	0	0	0	0	0	0	0	0	0	0	0	0	0	0	0	0	0	0	0	0	0	0	0	0	0	0	0	0	0	0	0	0	0	0	0	0	0	0	0	0	0	0	0	0	0	0	0	0	0	0	0	0	0	0	0	0	0	0	0	0	0	0	0	0	0	0	0	0	0	0	0	0	0	0	0	0	0	0	0	0	0	0	0	0	0	0	0	0	0	0	0	0	0	0	0	0	1843	1865	1846	1859	1869	1881	1882	1880	1889	1894	1889	1888	1894	1894	1898	1909	1921	1920	1925	1933	1944	1949	1961	1959	1940	1913	1879	1896	1900	1911	1915	1918	1918	1922	1925	1928	1921	1914	1919	1920	1917	1911	1903	1898	1890	1896	1922	1941	1954	1946	1933	1907	1882	1875	1880	1883	1901	1901	1923	1936	1931	1939	1918	1902	1890	1889	1883	1886	1903	1919	1925	1944	1949	1960	1967	1951	1924	1908	1909	1902	1925	1935	1930	1920	1917	1933	1944	1935	1931	1931	1945	1947	1947	1937	1938	1950	1940	1936	1926	1926	1919	1920	1922	1914	1928	1937	1964	1961	1949	1939	1925	1910	1919	1930	1932	1931	1922	1921	1933	1936	1922	1906	1899	1895	1895	1879	1874	1879	1892	1908	1936	1949	1954	1939	1921	1928	1941	1944	1942	1934	1941	1924	1920	1915	1934	1958	1975	1993	1990	1986	1944	1936	1915	1927	1941	1941	1933	1955	1972	1981	1986	1989	1989	1984	1982	1978	1978	1969	1948	1922	1943	1960	1973	1966	1963	1934	1901	1916	1935	1948	1951	1968	1984	1974	1961	1970	1972	1970	1931	1926	1964	1982	1986	1968	1963	1968	1972	1966	1958	1941	1960	1972	1963	1947	1947	1950	1951	1957	1932	1930	1940	1947	1970	1974	1967	1968	1971	1956	1960	1954	1974	1982	1978	1974	1971	1951	1936	1933	1934	1933	1952	1955	1934	1932	1916	1916	1938	1971	1963	1959	1947	1938	1920	1928	1936	1924	1932	1931	1937	1948	1980	1961	1953	1954	1963	1967	1972	1979	1981	1976	1972	1959	1953	1952	1959	1969	1965	1943	1934	1925	1935	1944	1945	1931	1918	1906	1902	1899	1913	1913	1932	1926	1920	1934	1960	1973	1978	1964	1955	1943	1936	1929	1948	1962	1962	1953	1945	1952	1959	1967	1964	1953	1942	1934	1939	1942	1945	1942	1953	1975	1982	1985	1979	1954	1930	1924	1944	1955	1936	1928	1928	1929	1926	1934	1952	1960	1978	1998	2006	2002	1985	1960	1935	1917	1911	1918	1922	1922	1921	1923	1949	1969	1973	1983	1985	1975	1975	1964	1936	1922	1914	1922	1935	1944	1964	1985	1993	1983	1969	1968	1962	1940	1913	1908	1915	1915	1929	1954	1956	1949	1948	1970	1981	1977	1962	1956	2000	2255	0	0	0	0	0	0	0	0	0	0	0	0	0	0	0	0	0	0	0	0	0	0	0	0	0	0	0	0	0	0	0	0	0	0	0	0	0	0	0	0	0	0	0	0	0	0	0	0	0	0	0	0	0	0	0	0	0	0	0	0	0	0	0	0	0	0	0	0	0	0	0	0	0	0	0	0	0	0	0	0	0	0	0	0	0	0	0	0	0	0	0	0	0	0	0	0	0	0	0	0	0	0	0	0	0	0	0	0	0	0	0	0	0	0	0	0	0	0	0	0	0	0	0	0	0	0	0	0	0	0	0	0	0	0	0
0	0	0	0	0	0	0	0	0	0	0	0	0	0	0	0	0	0	0	0	0	0	0	0	0	0	0	0	0	0	0	0	0	0	0	0	0	0	0	0	0	0	0	0	0	0	0	0	0	0	0	0	0	0	0	0	0	0	0	0	0	0	0	0	0	0	0	0	0	0	0	0	0	0	0	0	0	0	0	0	0	0	0	0	0	0	0	0	0	0	0	0	0	0	0	0	0	0	0	0	0	0	0	0	0	0	0	0	0	0	0	0	0	0	0	0	0	0	0	0	0	0	0	0	0	0	0	1819	1845	1840	1857	1875	1883	1892	1901	1901	1900	1894	1880	1880	1879	1877	1888	1899	1905	1916	1923	1924	1932	1946	1955	1947	1930	1906	1914	1916	1917	1910	1903	1903	1909	1921	1918	1909	1897	1905	1905	1905	1897	1893	1892	1891	1902	1925	1941	1958	1948	1936	1916	1897	1884	1889	1906	1930	1930	1959	1958	1946	1938	1919	1897	1891	1892	1889	1886	1891	1908	1932	1949	1950	1953	1940	1925	1908	1894	1890	1903	1921	1925	1918	1905	1911	1925	1958	1938	1934	1936	1933	1952	1942	1928	1929	1938	1947	1947	1933	1933	1926	1914	1912	1922	1922	1933	1958	1968	1961	1947	1923	1906	1902	1914	1923	1918	1898	1901	1909	1932	1914	1913	1897	1893	1888	1887	1885	1885	1896	1915	1935	1963	1960	1947	1929	1933	1951	1963	1947	1952	1963	1934	1920	1915	1928	1954	1973	1981	1985	1981	1981	1952	1946	1943	1935	1938	1934	1937	1973	1986	1990	1994	1975	1968	1981	1964	1969	1955	1946	1942	1944	1965	1975	1985	1979	1972	1938	1939	1941	1948	2002	1981	1977	1970	1963	1983	1993	1990	1987	1978	1990	2001	1996	2003	1974	1959	1973	1960	1950	1962	1979	1971	1950	1926	1942	1959	1972	1964	1933	1931	1935	1950	1969	1973	1972	1969	1979	1966	2000	1959	1977	1988	1985	1981	1976	1967	1948	1961	1969	1974	1977	1969	1959	1950	1927	1926	1925	1938	1947	1943	1938	1928	1917	1917	1926	1937	1923	1929	1941	1982	1972	1948	1936	1932	1958	1975	1983	1985	1978	1970	1964	1959	1948	1949	1960	1971	1967	1954	1940	1927	1930	1946	1935	1926	1917	1910	1895	1895	1909	1909	1916	1923	1907	1918	1947	1980	1988	1975	1955	1929	1930	1920	1935	1950	1949	1941	1936	1944	1954	1955	1937	1930	1932	1931	1942	1949	1940	1943	1949	1977	1975	1978	1973	1956	1914	1919	1941	1958	1944	1926	1918	1918	1918	1928	1944	1968	1974	1987	2003	2003	1996	1974	1939	1894	1895	1908	1923	1921	1915	1913	1926	1941	1962	1986	1994	1987	1987	1973	1947	1932	1932	1933	1940	1940	1955	1976	1979	1968	1955	1952	1948	1938	1930	1921	1925	1925	1937	1951	1949	1944	1949	1972	1983	1976	1944	1982	1987	2314	0	0	0	0	0	0	0	0	0	0	0	0	0	0	0	0	0	0	0	0	0	0	0	0	0	0	0	0	0	0	0	0	0	0	0	0	0	0	0	0	0	0	0	0	0	0	0	0	0	0	0	0	0	0	0	0	0	0	0	0	0	0	0	0	0	0	0	0	0	0	0	0	0	0	0	0	0	0	0	0	0	0	0	0	0	0	0	0	0	0	0	0	0	0	0	0	0	0	0	0	0	0	0	0	0	0	0	0	0	0	0	0	0	0	0	0	0	0	0	0	0	0	0	0	0	0	0	0	0	0	0	0	0	0	0
0	0	0	0	0	0	0	0	0	0	0	0	0	0	0	0	0	0	0	0	0	0	0	0	0	0	0	0	0	0	0	0	0	0	0	0	0	0	0	0	0	0	0	0	0	0	0	0	0	0	0	0	0	0	0	0	0	0	0	0	0	0	0	0	0	0	0	0	0	0	0	0	0	0	0	0	0	0	0	0	0	0	0	0	0	0	0	0	0	0	0	0	0	0	0	0	0	0	0	0	0	0	0	0	0	0	0	0	0	0	0	0	0	0	0	0	0	0	0	0	0	0	0	0	0	0	0	1822	1863	1859	1858	1868	1882	1893	1908	1904	1898	1896	1884	1884	1872	1870	1877	1890	1901	1902	1919	1919	1921	1932	1947	1945	1931	1917	1922	1932	1934	1909	1894	1894	1900	1916	1915	1899	1894	1898	1896	1893	1889	1891	1899	1909	1913	1929	1945	1951	1942	1924	1911	1900	1893	1904	1924	1959	1959	1966	1961	1934	1917	1902	1889	1888	1894	1893	1886	1891	1902	1921	1929	1948	1931	1917	1902	1889	1883	1878	1881	1889	1905	1905	1899	1902	1928	1960	1945	1934	1933	1937	1949	1927	1922	1921	1939	1954	1953	1953	1938	1926	1919	1914	1910	1918	1919	1933	1948	1950	1930	1911	1904	1902	1904	1905	1902	1893	1888	1891	1904	1913	1916	1922	1919	1917	1901	1892	1893	1908	1923	1950	1960	1958	1947	1934	1934	1945	1952	1952	1957	1977	1929	1916	1914	1929	1942	1958	1962	1978	1980	1986	1969	1954	1948	1937	1946	1949	1940	1948	1983	1992	1992	1991	1981	1962	1962	1966	1972	1965	1934	1927	1933	1949	1960	1987	1983	1961	1965	1971	1971	2019	1986	1971	1963	1973	1968	1973	1997	1987	1986	1997	1989	1988	1981	1978	1969	1980	1951	1948	1956	1947	1980	1940	1917	1931	1959	1979	1973	1947	1934	1933	1948	1957	1967	1969	1979	1983	1979	2003	1960	1966	1976	1983	1979	1981	1973	1957	1973	1993	1993	1972	1972	1977	1964	1946	1932	1918	1918	1917	1926	1928	1926	1928	1935	1931	1933	1925	1938	1975	1985	1967	1939	1928	1926	1937	1974	1985	1992	1976	1959	1954	1949	1941	1946	1962	1971	1967	1961	1948	1934	1935	1939	1930	1913	1909	1907	1893	1887	1889	1889	1905	1912	1908	1919	1950	1985	2001	1986	1955	1941	1934	1908	1916	1934	1939	1922	1928	1945	1943	1916	1909	1911	1934	1955	1962	1951	1939	1934	1950	1947	1958	1965	1969	1985	1985	1984	1956	1964	1962	1937	1915	1915	1925	1953	1957	1959	1964	1974	1984	1993	1993	1977	1938	1898	1898	1916	1940	1935	1917	1902	1902	1910	1956	1988	2007	1999	1999	1970	1950	1940	1941	1944	1946	1952	1968	1985	1987	1974	1962	1948	1944	1958	1989	2001	1993	1993	1931	1873	1842	1850	1876	1946	1964	1966	1969	1966	2316	0	0	0	0	0	0	0	0	0	0	0	0	0	0	0	0	0	0	0	0	0	0	0	0	0	0	0	0	0	0	0	0	0	0	0	0	0	0	0	0	0	0	0	0	0	0	0	0	0	0	0	0	0	0	0	0	0	0	0	0	0	0	0	0	0	0	0	0	0	0	0	0	0	0	0	0	0	0	0	0	0	0	0	0	0	0	0	0	0	0	0	0	0	0	0	0	0	0	0	0	0	0	0	0	0	0	0	0	0	0	0	0	0	0	0	0	0	0	0	0	0	0	0	0	0	0	0	0	0	0	0	0	0	0	0	0
0	0	0	0	0	0	0	0	0	0	0	0	0	0	0	0	0	0	0	0	0	0	0	0	0	0	0	0	0	0	0	0	0	0	0	0	0	0	0	0	0	0	0	0	0	0	0	0	0	0	0	0	0	0	0	0	0	0	0	0	0	0	0	0	0	0	0	0	0	0	0	0	0	0	0	0	0	0	0	0	0	0	0	0	0	0	0	0	0	0	0	0	0	0	0	0	0	0	0	0	0	0	0	0	0	0	0	0	0	0	0	0	0	0	0	0	0	0	0	0	0	0	0	0	0	0	0	1825	1889	1867	1864	1869	1879	1893	1899	1906	1894	1893	1889	1889	1880	1876	1879	1893	1905	1904	1906	1914	1918	1924	1940	1936	1917	1908	1919	1934	1926	1905	1893	1893	1885	1896	1911	1898	1897	1888	1901	1887	1872	1882	1896	1917	1925	1923	1928	1927	1923	1911	1900	1898	1905	1919	1941	1960	1960	1959	1940	1917	1891	1889	1887	1889	1894	1900	1890	1892	1890	1906	1907	1925	1914	1906	1891	1883	1884	1878	1873	1880	1879	1892	1903	1903	1936	1954	1943	1931	1931	1929	1930	1928	1922	1926	1931	1932	1945	1945	1942	1941	1930	1911	1912	1903	1915	1926	1930	1939	1910	1883	1878	1900	1904	1919	1917	1906	1896	1887	1905	1912	1918	1929	1932	1936	1925	1908	1939	1958	1962	1955	1950	1939	1938	1927	1930	1937	1941	1946	1966	1975	1960	1925	1926	1924	1921	1949	1945	1960	1976	1981	1967	1950	1936	1926	1919	1947	1962	1957	1946	1955	1988	1979	1969	1952	1948	1951	1942	1970	1993	1970	1948	1956	1950	1950	1978	1976	1982	1976	1973	2020	1977	1959	1955	1964	1960	1939	1941	1972	1972	1975	1977	1974	1957	1973	1951	1967	1940	1913	1923	1975	1949	1932	1917	1920	1951	1984	1971	1969	1971	1949	1954	1956	1970	1982	1986	1991	1974	1958	1945	1953	1965	1969	1976	1988	1978	1969	1989	2001	2002	1987	1995	1989	1976	1957	1931	1920	1917	1918	1926	1928	1931	1938	1947	1958	1946	1940	1961	1971	1958	1932	1917	1917	1924	1934	1945	1948	1937	1944	1953	1965	1973	1984	1978	1939	1882	1887	1924	1943	1940	1913	1894	1894	1930	1967	1985	1965	1946	1943	1943	1961	1984	1973	1943	1945	1967	1979	1994	1992	1981	1953	1919	1955	1999	2005	2014	2024	2040	2059	2050	2030	2017	1996	1987	2010	2025	2035	2054	2111	2159	2172	2139	2071	1982	2001	2007	2003	1980	1966	1940	1932	1932	1943	1972	1974	1971	1966	1966	1970	1980	1975	1962	1932	1917	1917	1932	1958	1950	1920	1883	1877	1897	1936	1991	2008	1993	1993	1972	1945	1945	1947	1944	1940	1950	1965	1980	1986	1978	1970	1957	1942	1951	1971	1976	1954	1954	1907	1843	0	0	0	0	0	0	0	0	0	0	0	0	0	0	0	0	0	0	0	0	0	0	0	0	0	0	0	0	0	0	0	0	0	0	0	0	0	0	0	0	0	0	0	0	0	0	0	0	0	0	0	0	0	0	0	0	0	0	0	0	0	0	0	0	0	0	0	0	0	0	0	0	0	0	0	0	0	0	0	0	0	0	0	0	0	0	0	0	0	0	0	0	0	0	0	0	0	0	0	0	0	0	0	0	0	0	0	0	0	0	0	0	0	0	0	0	0	0	0	0	0	0	0	0	0	0	0	0	0	0	0	0	0	0	0	0	0	0	0	0	0	0	0	0	0
0	0	0	0	0	0	0	0	0	0	0	0	0	0	0	0	0	0	0	0	0	0	0	0	0	0	0	0	0	0	0	0	0	0	0	0	0	0	0	0	0	0	0	0	0	0	0	0	0	0	0	0	0	0	0	0	0	0	0	0	0	0	0	0	0	0	0	0	0	0	0	0	0	0	0	0	0	0	0	0	0	0	0	0	0	0	0	0	0	0	0	0	0	0	0	0	0	0	0	0	0	0	0	0	0	0	0	0	0	0	0	0	0	0	0	0	0	0	0	0	0	0	0	0	0	0	0	1836	1891	1862	1863	1866	1879	1884	1889	1877	1869	1880	1889	1889	1893	1894	1897	1907	1916	1902	1901	1912	1919	1925	1935	1922	1909	1894	1901	1915	1914	1907	1891	1891	1877	1887	1894	1909	1908	1901	1916	1913	1886	1880	1898	1915	1923	1917	1914	1908	1894	1883	1880	1894	1900	1923	1930	1920	1920	1924	1911	1892	1888	1880	1874	1880	1895	1903	1901	1895	1893	1895	1895	1897	1898	1895	1899	1909	1901	1894	1880	1881	1880	1897	1916	1916	1932	1938	1941	1924	1918	1924	1932	1932	1926	1928	1926	1916	1919	1919	1933	1942	1953	1947	1933	1923	1921	1930	1930	1934	1906	1876	1884	1904	1921	1932	1932	1918	1916	1896	1903	1925	1927	1938	1941	1943	1955	1951	1949	1940	1942	1944	1939	1920	1903	1911	1916	1926	1931	1943	1956	1970	1970	1950	1938	1933	1924	1932	1939	1961	1978	1978	1973	1957	1943	1928	1928	1951	1952	1946	1961	1980	1974	1936	1944	1947	1944	1939	1953	1992	2005	2001	1971	1955	1947	1942	1964	1977	1977	1998	1985	1976	1997	1955	1949	1947	1948	1936	1932	1971	1969	1973	1973	1966	1952	1953	1954	1930	1933	1948	1964	1977	1979	1930	1920	1915	1946	1972	1970	1969	1976	1967	1963	1958	1955	1962	1959	1950	1943	1949	1959	1970	1980	1996	1990	1992	1985	1952	1932	1936	1943	1960	1975	2005	2005	1980	1946	1939	1952	1972	1974	1963	1933	1919	1922	1938	1957	1960	1952	1947	1952	1965	1988	2011	2038	2037	2025	1998	1992	2003	2036	2073	2115	2127	2133	2124	2060	1995	2014	2084	2090	2088	2108	2114	2132	2135	2140	2123	2099	2111	2111	2120	2136	2162	2170	2146	2145	2165	2148	2207	2236	2222	2181	2152	2154	2142	2083	2076	2091	2132	2105	2090	2078	2031	2016	2051	2078	2112	2133	2209	2294	2342	2316	2151	2043	1970	1992	1994	1971	1962	1962	1955	1955	1949	1979	1993	1988	1983	1963	1961	1962	1953	1952	1930	1922	1934	1951	1962	1956	1927	1900	1897	1908	1927	1945	1970	1967	1967	1954	1942	1945	1953	1940	1936	1940	1950	1964	1970	1977	1970	1964	1943	1944	1969	1966	1940	1940	1874	0	0	0	0	0	0	0	0	0	0	0	0	0	0	0	0	0	0	0	0	0	0	0	0	0	0	0	0	0	0	0	0	0	0	0	0	0	0	0	0	0	0	0	0	0	0	0	0	0	0	0	0	0	0	0	0	0	0	0	0	0	0	0	0	0	0	0	0	0	0	0	0	0	0	0	0	0	0	0	0	0	0	0	0	0	0	0	0	0	0	0	0	0	0	0	0	0	0	0	0	0	0	0	0	0	0	0	0	0	0	0	0	0	0	0	0	0	0	0	0	0	0	0	0	0	0	0	0	0	0	0	0	0	0	0	0	0	0	0	0	0	0	0	0	0	0
0	0	0	0	0	0	0	0	0	0	0	0	0	0	0	0	0	0	0	0	0	0	0	0	0	0	0	0	0	0	0	0	0	0	0	0	0	0	0	0	0	0	0	0	0	0	0	0	0	0	0	0	0	0	0	0	0	0	0	0	0	0	0	0	0	0	0	0	0	0	0	0	0	0	0	0	0	0	0	0	0	0	0	0	0	0	0	0	0	0	0	0	0	0	0	0	0	0	0	0	0	0	0	0	0	0	0	0	0	0	0	0	0	0	0	0	0	0	0	0	0	0	0	0	0	0	0	1823	1869	1849	1863	1869	1876	1878	1877	1865	1849	1865	1877	1877	1904	1901	1899	1911	1920	1915	1889	1888	1901	1927	1927	1918	1893	1891	1884	1901	1914	1911	1911	1894	1873	1872	1892	1912	1916	1926	1935	1930	1889	1875	1891	1905	1911	1904	1898	1885	1872	1863	1873	1887	1908	1925	1916	1908	1908	1901	1896	1882	1884	1878	1870	1866	1888	1903	1914	1905	1902	1892	1891	1885	1890	1901	1913	1929	1928	1914	1903	1897	1897	1911	1921	1923	1933	1929	1923	1916	1904	1905	1911	1929	1933	1926	1898	1896	1907	1907	1930	1938	1949	1943	1930	1929	1929	1930	1927	1929	1913	1894	1889	1897	1922	1940	1933	1931	1925	1921	1921	1931	1945	1951	1965	1976	1977	1962	1951	1945	1936	1939	1930	1902	1886	1896	1902	1917	1923	1939	1951	1964	1968	1974	1966	1947	1952	1952	1956	1957	1984	1980	1982	1970	1953	1942	1948	1961	1976	1949	1942	1949	1961	1948	1936	1940	1924	1934	1954	1978	1996	1998	1977	1962	1953	1947	1970	1986	1986	1981	1960	1946	1940	1942	1942	1954	1968	1982	1980	1976	1968	1943	1919	1911	1968	1960	1947	1936	1936	1951	1962	1973	1981	1959	1957	1909	1975	1979	1974	1981	1975	1953	1940	1934	1947	1929	1934	1942	1971	2002	2038	2065	2080	2037	2030	2035	2067	2106	2112	2084	2068	2091	2159	2195	2139	2102	2073	2052	2036	2040	2040	2056	2054	2062	2066	2115	2157	2153	2141	2147	2178	2211	2233	2262	2288	2307	2307	2313	2305	2305	2300	2319	2339	2324	2276	2256	2217	2075	2070	2144	2134	2104	2123	2144	2169	2198	2228	2255	2274	2284	2268	2268	2273	2280	2256	2224	2235	2266	2225	2279	2299	2260	2232	2197	2174	2186	2170	2261	2292	2298	2309	2298	2247	2221	2232	2261	2280	2264	2237	2321	2392	2408	2348	2219	2064	1968	1971	1961	1962	1972	1970	1988	1988	1963	1977	1994	1988	1981	1977	1962	1951	1940	1940	1939	1939	1941	1956	1967	1945	1935	1927	1935	1938	1944	1931	1929	1932	1932	1936	1941	1951	1954	1954	1946	1938	1933	1947	1957	1967	1968	1964	1956	1955	1964	1970	1968	1968	1907	0	0	0	0	0	0	0	0	0	0	0	0	0	0	0	0	0	0	0	0	0	0	0	0	0	0	0	0	0	0	0	0	0	0	0	0	0	0	0	0	0	0	0	0	0	0	0	0	0	0	0	0	0	0	0	0	0	0	0	0	0	0	0	0	0	0	0	0	0	0	0	0	0	0	0	0	0	0	0	0	0	0	0	0	0	0	0	0	0	0	0	0	0	0	0	0	0	0	0	0	0	0	0	0	0	0	0	0	0	0	0	0	0	0	0	0	0	0	0	0	0	0	0	0	0	0	0	0	0	0	0	0	0	0	0	0	0	0	0	0	0	0	0	0	0	0
0	0	0	0	0	0	0	0	0	0	0	0	0	0	0	0	0	0	0	0	0	0	0	0	0	0	0	0	0	0	0	0	0	0	0	0	0	0	0	0	0	0	0	0	0	0	0	0	0	0	0	0	0	0	0	0	0	0	0	0	0	0	0	0	0	0	0	0	0	0	0	0	0	0	0	0	0	0	0	0	0	0	0	0	0	0	0	0	0	0	0	0	0	0	0	0	0	0	0	0	0	0	0	0	0	0	0	0	0	0	0	0	0	0	0	0	0	0	0	0	0	0	0	0	0	0	0	1826	1864	1871	1875	1879	1872	1877	1868	1854	1845	1846	1867	1867	1891	1909	1908	1922	1918	1904	1876	1871	1880	1901	1914	1918	1905	1888	1883	1899	1909	1915	1915	1897	1887	1884	1900	1914	1928	1929	1928	1920	1908	1884	1889	1897	1897	1893	1894	1878	1859	1863	1871	1893	1909	1920	1925	1918	1918	1908	1904	1904	1891	1876	1866	1869	1885	1908	1929	1928	1928	1915	1896	1886	1895	1909	1928	1944	1941	1925	1907	1893	1895	1911	1934	1931	1918	1932	1922	1897	1897	1901	1905	1919	1928	1929	1913	1892	1888	1888	1897	1906	1924	1940	1933	1940	1929	1917	1918	1920	1915	1898	1896	1901	1917	1919	1921	1934	1927	1926	1924	1934	1945	1955	1966	1975	1978	1982	1964	1945	1953	1951	1937	1892	1887	1905	1928	1964	1988	2011	1994	1987	1988	1987	1983	1974	1967	1952	1970	1991	2023	2028	2023	2017	2009	1995	1976	2006	2013	1956	1874	1910	1927	1952	1972	1983	1993	1942	1930	1929	1933	1920	1955	1958	1963	1976	1984	1993	1988	1992	1980	1939	1951	1960	1965	1977	1979	1981	1967	1966	1972	1995	1994	2000	1990	1977	1958	1950	1946	1947	1958	1970	1991	1985	1994	1961	1989	1965	1956	2002	1998	2044	2102	2137	2166	2192	2252	2314	2350	2397	2392	2370	2345	2381	2434	2487	2601	2367	2310	2247	2338	2334	2366	2350	2247	2195	2143	2113	2093	2116	2092	2096	2077	2098	2100	2156	2186	2188	2178	2176	2207	2240	2271	2301	2320	2334	2347	2355	2351	2359	2346	2378	2399	2426	2409	2433	2459	2580	2631	2657	2699	2722	2718	2716	2705	2622	2360	2394	2434	2451	2427	2427	2415	2440	2500	2592	2611	2536	2554	2575	2576	2382	2315	2267	2213	2208	2258	2284	2294	2297	2293	2296	2305	2315	2332	2339	2341	2335	2321	2329	2442	2436	2374	2235	2115	1987	1965	1951	1944	1971	1966	1982	1982	1971	1986	1992	1983	1971	1962	1944	1946	1942	1948	1953	1953	1965	1976	1975	1955	1949	1954	1980	1973	1961	1944	1930	1931	1931	1935	1940	1949	1968	1968	1954	1940	1926	1925	1938	1953	1958	1968	1964	1968	1969	1968	1960	1960	1926	0	0	0	0	0	0	0	0	0	0	0	0	0	0	0	0	0	0	0	0	0	0	0	0	0	0	0	0	0	0	0	0	0	0	0	0	0	0	0	0	0	0	0	0	0	0	0	0	0	0	0	0	0	0	0	0	0	0	0	0	0	0	0	0	0	0	0	0	0	0	0	0	0	0	0	0	0	0	0	0	0	0	0	0	0	0	0	0	0	0	0	0	0	0	0	0	0	0	0	0	0	0	0	0	0	0	0	0	0	0	0	0	0	0	0	0	0	0	0	0	0	0	0	0	0	0	0	0	0	0	0	0	0	0	0	0	0	0	0	0	0	0	0	0	0	0
0	0	0	0	0	0	0	0	0	0	0	0	0	0	0	0	0	0	0	0	0	0	0	0	0	0	0	0	0	0	0	0	0	0	0	0	0	0	0	0	0	0	0	0	0	0	0	0	0	0	0	0	0	0	0	0	0	0	0	0	0	0	0	0	0	0	0	0	0	0	0	0	0	0	0	0	0	0	0	0	0	0	0	0	0	0	0	0	0	0	0	0	0	0	0	0	0	0	0	0	0	0	0	0	0	0	0	0	0	0	0	0	0	0	0	0	0	0	0	0	0	0	0	0	0	0	0	1830	1872	1889	1895	1890	1871	1860	1847	1819	1821	1835	1862	1862	1886	1905	1912	1916	1917	1893	1870	1870	1871	1883	1903	1918	1912	1886	1865	1887	1909	1917	1917	1910	1904	1908	1906	1920	1932	1928	1911	1900	1893	1879	1886	1888	1890	1889	1886	1886	1876	1872	1882	1901	1920	1930	1933	1928	1928	1923	1910	1910	1907	1889	1873	1869	1892	1914	1937	1947	1941	1935	1913	1908	1903	1907	1925	1942	1935	1935	1913	1890	1867	1879	1910	1909	1909	1902	1900	1904	1918	1927	1930	1925	1917	1903	1907	1915	1912	1912	1900	1886	1894	1912	1933	1946	1950	1951	1945	1924	1902	1895	1893	1915	1914	1922	1917	1920	1919	1908	1928	1960	1978	1989	1992	1999	2004	2004	1987	1955	1967	2003	2001	1988	1985	2003	2017	2034	2071	2073	2063	2038	2022	2017	1990	1962	1934	1954	1999	2105	2122	2106	2086	2109	2112	2093	2079	2109	2116	2128	2103	2057	2059	2084	2122	2135	2121	2099	1978	1881	1893	1931	1899	1946	1969	1988	2002	2019	2012	1999	1981	2005	1990	1979	1972	1981	1985	1980	1971	1967	1968	1993	1988	1978	1989	1979	1973	1960	1949	1938	1933	1947	1996	1986	1992	1989	1997	1961	1954	1998	1982	2042	2119	2153	2202	2233	2301	2344	2385	2418	2405	2382	2367	2414	2459	2536	2648	2549	2489	2428	2493	2493	2487	2513	2531	2541	2582	2609	2613	2602	2632	2681	2694	2699	2669	2660	2634	2644	2649	2662	2689	2722	2766	2789	2791	2777	2766	2763	2766	2755	2740	2757	2796	2815	2813	2785	2799	2803	2821	2837	2877	2897	2879	2856	2789	2709	2662	2596	2608	2615	2624	2624	2639	2638	2658	2652	2649	2618	2623	2628	2608	2553	2366	2296	2247	2219	2276	2284	2295	2290	2288	2295	2309	2324	2337	2340	2348	2347	2346	2355	2471	2471	2386	2275	2161	1994	1968	1944	1932	1951	1962	1977	1977	1978	1989	1987	1972	1955	1942	1939	1937	1948	1957	1963	1970	1975	1982	1984	1961	1958	1981	2001	2001	1985	1966	1958	1949	1949	1929	1933	1943	1962	1965	1956	1934	1923	1917	1930	1943	1951	1966	1960	1970	1972	1955	1934	1934	1965	0	0	0	0	0	0	0	0	0	0	0	0	0	0	0	0	0	0	0	0	0	0	0	0	0	0	0	0	0	0	0	0	0	0	0	0	0	0	0	0	0	0	0	0	0	0	0	0	0	0	0	0	0	0	0	0	0	0	0	0	0	0	0	0	0	0	0	0	0	0	0	0	0	0	0	0	0	0	0	0	0	0	0	0	0	0	0	0	0	0	0	0	0	0	0	0	0	0	0	0	0	0	0	0	0	0	0	0	0	0	0	0	0	0	0	0	0	0	0	0	0	0	0	0	0	0	0	0	0	0	0	0	0	0	0	0	0	0	0	0	0	0	0	0	0	0
0	0	0	0	0	0	0	0	0	0	0	0	0	0	0	0	0	0	0	0	0	0	0	0	0	0	0	0	0	0	0	0	0	0	0	0	0	0	0	0	0	0	0	0	0	0	0	0	0	0	0	0	0	0	0	0	0	0	0	0	0	0	0	0	0	0	0	0	0	0	0	0	0	0	0	0	0	0	0	0	0	0	0	0	0	0	0	0	0	0	0	0	0	0	0	0	0	0	0	0	0	0	0	0	0	0	0	0	0	0	0	0	0	0	0	0	0	0	0	0	0	0	0	0	0	0	0	1844	1876	1900	1892	1887	1863	1850	1826	1809	1811	1823	1866	1866	1892	1897	1907	1907	1907	1897	1883	1868	1873	1877	1912	1924	1916	1891	1869	1875	1896	1916	1916	1916	1916	1917	1917	1935	1944	1945	1905	1883	1875	1880	1875	1891	1897	1906	1894	1887	1883	1884	1895	1913	1918	1927	1934	1934	1932	1928	1919	1924	1921	1910	1919	1953	1975	1975	1962	1945	1926	1928	1961	1972	1948	1926	1932	1931	1961	1998	2010	1997	1974	1976	1948	1932	1934	1929	1953	1972	1989	2002	1967	1908	1871	1860	1890	1916	1920	1920	1908	1924	1967	2010	2038	2090	2122	2126	2126	2113	2103	2003	1938	1957	1986	2024	2051	2048	2085	2127	2140	2155	2155	2179	2213	2247	2240	2249	2282	2288	2293	2325	2403	2507	2533	2495	2483	2447	2409	2473	2480	2454	2438	2456	2461	2488	2374	2319	2315	2331	2304	2215	2146	2143	2118	2099	2077	2124	2130	2159	2146	2095	2100	2123	2152	2160	2143	2128	2116	1992	1913	1938	1932	1931	1971	1997	2025	2030	2017	1999	1968	1975	1985	1966	1954	1977	1988	1971	1959	1968	1978	2005	1994	1994	1981	1979	1980	1969	1956	1951	1970	1995	2005	1991	1988	1990	1986	1958	1964	2043	2009	2180	2676	2812	2835	2847	2846	2801	2794	2797	2885	2888	2861	2876	2889	2915	2921	2892	2868	2889	2841	2815	2824	2828	2824	2817	2817	2818	2833	2829	2821	2818	2844	2854	2851	2853	2821	2833	2822	2806	2808	2841	2863	2871	2859	2859	2869	2877	2879	2877	2879	2885	2881	2861	2847	2815	2787	2774	2787	2861	2892	2910	2905	2861	2854	2785	2698	2644	2654	2641	2637	2637	2635	2629	2650	2648	2626	2618	2635	2645	2636	2580	2381	2322	2279	2235	2278	2301	2320	2291	2288	2291	2302	2311	2321	2325	2335	2349	2351	2356	2447	2460	2403	2285	2185	2006	1967	1957	1939	1941	1962	1960	1960	1958	1965	1969	1959	1946	1931	1928	1938	1950	1961	1965	1971	1969	1972	1967	1953	1960	1983	2001	2006	1997	1991	1979	1963	1963	1928	1928	1926	1943	1956	1950	1936	1926	1927	1932	1937	1952	1962	1950	1951	1946	1928	1913	1913	1975	0	0	0	0	0	0	0	0	0	0	0	0	0	0	0	0	0	0	0	0	0	0	0	0	0	0	0	0	0	0	0	0	0	0	0	0	0	0	0	0	0	0	0	0	0	0	0	0	0	0	0	0	0	0	0	0	0	0	0	0	0	0	0	0	0	0	0	0	0	0	0	0	0	0	0	0	0	0	0	0	0	0	0	0	0	0	0	0	0	0	0	0	0	0	0	0	0	0	0	0	0	0	0	0	0	0	0	0	0	0	0	0	0	0	0	0	0	0	0	0	0	0	0	0	0	0	0	0	0	0	0	0	0	0	0	0	0	0	0	0	0	0	0	0	0	0
0	0	0	0	0	0	0	0	0	0	0	0	0	0	0	0	0	0	0	0	0	0	0	0	0	0	0	0	0	0	0	0	0	0	0	0	0	0	0	0	0	0	0	0	0	0	0	0	0	0	0	0	0	0	0	0	0	0	0	0	0	0	0	0	0	0	0	0	0	0	0	0	0	0	0	0	0	0	0	0	0	0	0	0	0	0	0	0	0	0	0	0	0	0	0	0	0	0	0	0	0	0	0	0	0	0	0	0	0	0	0	0	0	0	0	0	0	0	0	0	0	0	0	0	0	0	0	1857	1905	1873	1893	1881	1855	1836	1815	1810	1820	1841	1874	1874	1882	1869	1863	1867	1883	1905	1900	1897	1904	1908	1925	1941	1933	1911	1890	1885	1894	1909	1909	1911	1913	1923	1942	1957	1960	1940	1903	1884	1864	1867	1865	1880	1891	1896	1897	1891	1873	1877	1891	1904	1904	1916	1923	1923	1930	1939	1930	1932	1936	1935	1967	2101	2250	2318	2357	2291	2202	2179	2177	2190	2183	2177	2149	2109	2080	2045	2051	2061	2071	2164	2187	2214	2280	2319	2344	2266	2228	2200	2222	2252	2302	2375	2369	2284	2228	2228	2205	2170	2211	2140	2160	2220	2223	2192	2184	2204	2226	2098	1961	1983	2007	2050	2078	2079	2113	2159	2185	2208	2206	2225	2250	2276	2264	2275	2325	2324	2329	2366	2450	2549	2556	2528	2517	2483	2448	2482	2485	2475	2454	2477	2489	2512	2486	2474	2460	2483	2503	2629	2667	2653	2658	2681	2706	2745	2759	2740	2736	2730	2716	2696	2684	2656	2413	2222	2173	2034	1959	1966	1959	1947	1940	1992	2023	2036	1994	1996	1990	1966	1955	1946	1965	1966	1973	1968	1965	1967	1970	1994	1995	1996	2002	1989	1986	1983	1973	1976	1980	2002	2006	1991	1994	1986	1980	1951	1976	2027	2075	2603	2734	2819	2888	2919	2919	2922	2919	2928	2955	2948	2943	2920	2927	2963	2956	2957	2932	2911	2927	2828	2815	2798	2802	2797	2798	2794	2792	2813	2819	2853	2869	2873	2866	2856	2856	2845	2841	2819	2831	2854	2862	2850	2846	2844	2855	2874	2881	2883	2891	2892	2880	2871	2840	2797	2789	2789	2779	2868	2891	2904	2920	2873	2864	2801	2720	2638	2635	2617	2604	2604	2611	2620	2629	2624	2633	2617	2647	2670	2669	2631	2420	2334	2305	2265	2293	2326	2335	2303	2276	2276	2293	2301	2311	2312	2323	2343	2352	2359	2445	2468	2412	2296	2205	2050	1968	1949	1934	1942	1951	1960	1960	1952	1953	1961	1953	1942	1935	1930	1935	1952	1961	1961	1955	1961	1964	1959	1970	1974	1985	1997	1999	1999	2001	1984	1958	1958	1936	1913	1913	1935	1945	1945	1927	1918	1942	1956	1957	1962	1960	1936	1919	1914	1894	1893	1956	1956	0	0	0	0	0	0	0	0	0	0	0	0	0	0	0	0	0	0	0	0	0	0	0	0	0	0	0	0	0	0	0	0	0	0	0	0	0	0	0	0	0	0	0	0	0	0	0	0	0	0	0	0	0	0	0	0	0	0	0	0	0	0	0	0	0	0	0	0	0	0	0	0	0	0	0	0	0	0	0	0	0	0	0	0	0	0	0	0	0	0	0	0	0	0	0	0	0	0	0	0	0	0	0	0	0	0	0	0	0	0	0	0	0	0	0	0	0	0	0	0	0	0	0	0	0	0	0	0	0	0	0	0	0	0	0	0	0	0	0	0	0	0	0	0	0	0
0	0	0	0	0	0	0	0	0	0	0	0	0	0	0	0	0	0	0	0	0	0	0	0	0	0	0	0	0	0	0	0	0	0	0	0	0	0	0	0	0	0	0	0	0	0	0	0	0	0	0	0	0	0	0	0	0	0	0	0	0	0	0	0	0	0	0	0	0	0	0	0	0	0	0	0	0	0	0	0	0	0	0	0	0	0	0	0	0	0	0	0	0	0	0	0	0	0	0	0	0	0	0	0	0	0	0	0	0	0	0	0	0	0	0	0	0	0	0	0	0	0	0	0	0	0	0	0	1911	1947	1932	1871	1835	1817	1832	1850	1855	1850	1832	1832	1825	1849	1855	1869	1891	1909	1916	1902	1901	1906	1922	1942	1938	1926	1906	1896	1901	1903	1903	1914	1921	1936	1956	1971	1964	1946	1921	1902	1889	1885	1881	1875	1879	1895	1895	1879	1870	1881	1901	1911	1907	1914	1918	1918	1963	1956	1959	1940	1942	1964	2060	2174	2270	2344	2379	2321	2255	2222	2219	2237	2239	2223	2173	2146	2115	2109	2112	2148	2186	2209	2230	2274	2329	2365	2375	2321	2309	2270	2286	2320	2373	2447	2426	2345	2308	2308	2280	2251	2388	2456	2468	2478	2614	2661	2660	2639	2619	2641	2665	2656	2666	2671	2648	2644	2658	2666	2641	2659	2718	2767	2745	2668	2618	2598	2623	2684	2721	2777	2787	2770	2756	2748	2790	2810	2806	2779	2766	2756	2745	2753	2758	2778	2778	2800	2831	2889	2885	2876	2859	2851	2858	2855	2852	2860	2896	2894	2887	2876	2844	2814	2805	2786	2652	2299	2162	2062	1996	1998	1969	1965	1945	1967	1985	1984	1979	1994	2009	1993	1967	1940	1961	1984	1986	1968	1958	1963	1968	1981	1996	2000	2002	1995	1985	1982	1993	1992	1994	2003	1987	1986	1985	1981	1972	1959	1973	2008	2030	2588	2818	2860	2872	2919	2946	2966	2963	2950	2947	2955	2957	2933	2915	2917	2919	2925	2926	2927	2964	2917	2865	2818	2809	2800	2790	2769	2774	2794	2829	2831	2835	2839	2851	2847	2859	2864	2855	2843	2842	2856	2877	2842	2833	2841	2846	2852	2870	2887	2892	2891	2876	2854	2820	2791	2784	2790	2789	2862	2884	2897	2912	2870	2872	2849	2724	2603	2602	2593	2594	2594	2598	2618	2625	2639	2646	2644	2651	2704	2699	2664	2417	2345	2312	2288	2308	2328	2340	2320	2289	2277	2292	2303	2313	2316	2328	2342	2347	2384	2441	2464	2434	2283	2207	2065	1952	1949	1944	1955	1966	1969	1969	1959	1955	1959	1956	1948	1942	1931	1935	1952	1958	1953	1954	1949	1954	1965	1979	1982	1987	1983	1986	1990	1994	1992	1965	1965	1940	1916	1926	1928	1938	1942	1937	1929	1946	1966	1981	1980	1964	1922	1903	1895	1887	1875	1904	1904	0	0	0	0	0	0	0	0	0	0	0	0	0	0	0	0	0	0	0	0	0	0	0	0	0	0	0	0	0	0	0	0	0	0	0	0	0	0	0	0	0	0	0	0	0	0	0	0	0	0	0	0	0	0	0	0	0	0	0	0	0	0	0	0	0	0	0	0	0	0	0	0	0	0	0	0	0	0	0	0	0	0	0	0	0	0	0	0	0	0	0	0	0	0	0	0	0	0	0	0	0	0	0	0	0	0	0	0	0	0	0	0	0	0	0	0	0	0	0	0	0	0	0	0	0	0	0	0	0	0	0	0	0	0	0	0	0	0	0	0	0	0	0	0	0	0
0	0	0	0	0	0	0	0	0	0	0	0	0	0	0	0	0	0	0	0	0	0	0	0	0	0	0	0	0	0	0	0	0	0	0	0	0	0	0	0	0	0	0	0	0	0	0	0	0	0	0	0	0	0	0	0	0	0	0	0	0	0	0	0	0	0	0	0	0	0	0	0	0	0	0	0	0	0	0	0	0	0	0	0	0	0	0	0	0	0	0	0	0	0	0	0	0	0	0	0	0	0	0	0	0	0	0	0	0	0	0	0	0	0	0	0	0	0	0	0	0	0	0	0	0	0	0	0	0	0	0	0	0	0	0	0	1801	1867	1851	1851	1830	1837	1853	1877	1897	1904	1911	1902	1892	1902	1915	1935	1938	1928	1912	1898	1902	1907	1907	1908	1925	1944	1959	1977	1965	1945	1921	1913	1905	1897	1889	1874	1873	1884	1887	1887	1896	1910	1927	1938	1932	1943	1928	1928	1945	1948	1969	1955	1941	1956	2059	2181	2274	2350	2385	2365	2314	2261	2262	2274	2266	2261	2244	2216	2197	2181	2191	2209	2231	2267	2266	2311	2366	2433	2472	2462	2453	2452	2467	2469	2511	2526	2556	2546	2546	2490	2465	2507	2605	2672	2746	2770	2788	2782	2764	2770	2797	2813	2810	2823	2821	2806	2784	2767	2765	2785	2784	2807	2825	2836	2826	2814	2803	2801	2813	2828	2842	2845	2846	2844	2839	2832	2846	2889	2871	2838	2807	2802	2799	2805	2820	2821	2821	2823	2838	2863	2897	2902	2918	2913	2872	2869	2865	2890	2907	2911	2910	2893	2891	2856	2827	2831	2791	2382	2181	2069	2017	2016	1972	1973	1963	1952	1956	1971	1985	1995	2001	1996	1979	1943	1965	1979	1973	1966	1963	1967	1978	1971	1983	2004	2003	1990	1980	1981	1991	2004	2013	1998	2000	1982	1959	1963	1978	1962	1962	2009	2034	2587	2824	2866	2906	2969	2979	2961	2979	2965	2950	2933	2919	2888	2871	2877	2897	2925	2921	2920	2957	2906	2880	2842	2828	2807	2799	2770	2769	2792	2829	2835	2838	2827	2830	2828	2833	2862	2858	2860	2858	2852	2854	2854	2847	2844	2835	2833	2852	2858	2869	2858	2847	2829	2804	2795	2804	2817	2828	2865	2879	2885	2901	2882	2874	2870	2716	2574	2581	2581	2579	2579	2600	2608	2649	2655	2677	2677	2675	2712	2712	2677	2457	2343	2310	2274	2307	2353	2359	2340	2295	2280	2285	2303	2314	2325	2343	2354	2363	2383	2437	2456	2405	2302	2199	2055	1923	1905	1953	1976	1980	1975	1975	1959	1959	1968	1969	1963	1955	1945	1949	1932	1945	1944	1940	1940	1949	1960	1986	1982	1976	1971	1968	1975	1984	1985	1970	1970	1949	1938	1938	1946	1944	1953	1955	1961	1964	1973	1993	1995	1970	1940	1913	1884	1883	1876	1876	1876	0	0	0	0	0	0	0	0	0	0	0	0	0	0	0	0	0	0	0	0	0	0	0	0	0	0	0	0	0	0	0	0	0	0	0	0	0	0	0	0	0	0	0	0	0	0	0	0	0	0	0	0	0	0	0	0	0	0	0	0	0	0	0	0	0	0	0	0	0	0	0	0	0	0	0	0	0	0	0	0	0	0	0	0	0	0	0	0	0	0	0	0	0	0	0	0	0	0	0	0	0	0	0	0	0	0	0	0	0	0	0	0	0	0	0	0	0	0	0	0	0	0	0	0	0	0	0	0	0	0	0	0	0	0	0	0	0	0	0	0	0	0	0	0	0	0
