0	0	0	0	0	0	0	0	0	0	0	0	0	0	0	0	0	0	0	0	0	0	0	0	0	0	0	0	0	0	0	0	0	0	0	0	0	0	0	0	0	0	0	0	0	0	0	0	0	0	0	0	0	0	0	0	0	0	0	0	0	0	0	0	0	0	0	0	0	0	0	0	0	0	0	0	0	0	0	0	0	0	1083	1105	1106	0	0	0	0	0	0	0	0	0	0	0	0	0	0	0	0	1074	1068	1052	0	0	0	0	0	0	0	979	995	1027	1058	1092	1104	1088	1060	0	0	0	1076	1076	1054	0	0	0	0	0	0	1061	1044	1024	1001	991	1003	1031	1031	1060	1088	1103	1114	1109	1099	1066	1047	1048	1079	1105	1101	1084	1077	1080	1072	1072	1045	1028	1013	1019	1027	1048	1086	1105	1125	1130	1144	1149	1167	1164	1147	1128	1117	1109	1118	1126	1126	1129	1124	1133	1117	1097	1083	1068	1051	1067	1099	1142	1139	1097	1094	1111	1126	1141	1138	1139	1144	1137	1133	1126	1100	1081	1075	1097	1128	1128	1149	1146	1132	1135	1150	1206	1240	1254	1254	1252	1234	1207	1159	1133	0	0	0	0	0	0	0	0	0	0	0	0	0	0	0	0	0	0	0	0	0	0	0	0	0	0	0	0	0	0	0	0	0	0	0	0	0	0	0	0	0	0	0	0	0	0	0	0	0	0	0	0	0	0	0	0	0	0	0	0	0	0	0	0	0	0	0	0	0	0	0	0	0	0	0	0	0	0	0	0	0	0	0	0	1292	1241	1228	1204	1190	1178	1165	1149	1141	1157	1184	1200	1193	1187	1173	1164	1160	1159	1145	1134	1131	1140	1151	1150	1162	1173	1182	1185	1169	1131	1115	1119	1126	1131	1140	1149	1161	1161	1153	1163	1173	1175	1168	1165	1158	1142	1125	1126	1136	1163	1193	1195	1187	1169	1162	1158	1167	0	0	0	1138	1121	1113	1112	1107	1086	1073	1076	1083	1095	1113	1135	1180	1180	1237	1259	1228	1173	1133	1100	1105	1118	1139	0	0	0	0	0	0	0	0	0	0	0	0	0	0	0	0	0	0	0	0	0	0	0	0	0	0	0	0	0	0	0	0	0	0	0	0	0	0	0	0	0	0	0	0	0	0	0	0	0	0	0	0	0	0	0	0	0	0	0	0	0	0	0	0	0	0	0	0	0	0	0	0	0	0	0	0	0	0	0	0	0	0	0	0	0	0	1047	1067	1031	1031	1008	1019	1026	1013	982	941	927	921	928	920	915	906	910	926	940	961	986	986	990	976	953	947	961	971	970	966	969	968	962	962	969	969	980	996	1000	989	960	943	953	972	988	992	988	999	999	1009	1007	995	972	962	966	973	983	999	1005	984	984	956	952	963	973	965	951	948	957	976	952	952	962	962	955	948	959	978	994	993	969	969	943	941	957	976	978	964	954	949	949	954	963	962	955	948	934	913	890	890	896	907	917	924	936	943	956	956	955	953	944	972	976	949	910	910	888	883	904	928	946	973	973	989	999	994	989	965	956	971	971	1004	1023	1022	1015	982	982	954	925	910	897	900	911	914	939	946	959	964	955	955	958	960	979	991	982	960	960	957	955	962	965	968	968	982	975	951	920
0	0	0	0	0	0	0	0	0	0	0	0	0	0	0	0	0	0	0	0	0	0	0	0	0	0	0	0	0	0	0	0	0	0	0	0	0	0	0	0	0	0	0	0	0	0	0	0	0	0	0	0	0	0	0	0	0	0	0	0	0	0	0	0	0	0	0	0	0	0	0	0	0	0	0	0	0	0	0	0	0	1063	1087	1104	1099	0	0	0	0	0	0	0	0	0	0	0	0	0	0	0	0	0	1060	1035	1017	1007	998	1007	1013	1010	1010	999	1010	1032	1055	1074	1080	1068	1056	1059	1074	1079	1074	1074	1052	1031	0	0	0	0	1047	1050	1044	1024	1009	1021	1029	1042	1042	1047	1056	1060	1052	1060	1052	1039	1018	1012	1031	1091	1079	1051	1038	1040	1041	1043	1043	1036	1027	1024	1009	1009	1037	1074	1103	1109	1110	1126	1144	1158	1141	1110	1111	1120	1106	1079	1045	1045	1013	1011	1055	1057	1052	1053	1058	1065	1089	1116	1124	1097	1089	1110	1121	1132	1132	1133	1129	1120	1114	1092	1072	1064	1053	1068	1100	1100	1129	1146	1170	0	0	0	0	0	0	0	0	0	0	0	0	0	0	0	0	0	0	0	0	0	0	0	0	0	0	0	0	0	0	0	0	0	0	0	0	0	0	0	0	0	0	0	0	0	0	0	0	0	0	0	0	0	0	0	0	0	0	0	0	0	0	0	0	0	0	0	0	0	0	0	0	0	0	0	0	0	0	0	0	0	0	0	0	1201	1172	1162	1200	1213	1232	1253	1244	1232	1229	1223	1212	1195	1192	1183	1176	1177	1159	1133	1122	1137	1175	1204	1195	1177	1156	1143	1146	1150	1142	1138	1138	1149	1153	1159	1163	1174	1182	1181	1156	1120	1099	1098	1117	1129	1143	1154	1156	1149	1145	1149	1157	1162	1150	1140	1124	1113	1110	1109	1117	1140	1162	1165	1163	1150	1157	1163	1169	1158	0	0	1126	1133	1123	1114	1114	1083	1056	1050	1075	1098	1119	1144	1221	1221	1292	0	0	0	0	0	0	0	0	0	0	0	0	0	0	0	0	0	0	0	0	0	0	0	0	0	0	0	0	0	0	0	0	0	0	0	0	0	0	0	0	0	0	0	0	0	0	0	0	0	0	0	0	0	0	0	0	0	0	0	0	0	0	0	0	0	0	0	0	0	0	0	0	0	0	0	0	0	0	0	0	0	0	0	0	0	0	1172	1184	1140	1061	1031	995	965	966	1036	1032	1004	1004	990	991	1001	998	975	935	915	921	922	922	917	908	905	914	933	951	951	969	975	955	953	947	949	965	968	958	956	956	951	955	964	964	981	992	986	986	973	972	976	978	970	937	934	951	951	967	981	989	983	978	964	948	933	933	942	953	953	961	959	952	939	931	929	929	957	976	964	964	948	934	932	935	945	951	953	951	945	945	940	965	978	979	967	958	948	944	944	958	967	965	959	948	936	902	880	880	889	903	916	926	933	947	956	956	955	951	959	977	966	941	914	914	904	906	914	930	947	970	970	985	1002	996	991	968	962	962	984	1019	1028	1021	996	979	979	949	925	901	900	900	911	911	934	939	924	921	928	928	926	927	953	967	954	954	925	890	859	890	935	935	967	982	974	954	920
0	0	0	0	0	0	0	0	0	0	0	0	0	0	0	0	0	0	0	0	0	0	0	0	0	0	0	0	0	0	0	0	0	0	0	0	0	0	0	0	0	0	0	0	0	0	0	0	0	0	0	0	0	0	0	0	0	0	0	0	0	0	0	0	0	0	0	0	0	0	0	0	0	0	0	0	0	0	0	0	0	1046	1068	1088	1092	0	0	0	0	0	0	0	0	0	0	0	0	0	0	0	0	0	0	1019	1010	984	975	1001	1014	1007	1007	1007	1009	1020	1013	1024	1031	1050	1046	1049	1048	1041	1037	1035	1035	1056	1049	1027	1024	1032	1037	1043	1033	1024	1009	1021	1023	1044	1050	1050	1054	1059	1065	1062	1054	1042	1020	1013	1006	1015	1043	1023	1010	1002	1019	1040	1040	1053	1056	1028	1021	1019	1028	1066	1045	1048	1055	1067	1089	1089	1066	1055	1027	1067	1070	1050	1023	1023	1013	1007	1011	1025	1049	1052	1051	1070	1087	1097	1100	1091	1089	1110	1122	1132	1139	1152	1141	1114	1095	1076	1086	0	0	0	0	0	0	0	0	0	0	0	0	0	0	0	0	0	0	0	0	0	0	0	0	0	0	0	0	0	0	0	0	0	0	0	0	0	0	0	0	0	0	0	0	0	0	0	0	0	0	0	0	0	0	0	0	0	0	0	0	0	0	0	0	0	0	0	0	0	0	0	0	0	0	0	0	0	0	0	0	0	0	0	0	0	1159	1121	1105	1104	1110	1119	1145	1148	1145	1125	1118	1125	1125	1127	1142	1178	1206	1217	1205	1185	1172	1178	1181	1181	1151	1119	1112	1131	1168	1191	1187	1167	1139	1125	1137	1144	1153	1155	1162	1156	1155	1143	1146	1163	1159	1167	1151	1113	1094	1090	1108	1125	1140	1143	1138	1132	1134	1139	1147	1137	1117	1101	1081	1078	1087	1094	1110	1117	1133	1138	1137	1143	1158	1173	1181	1164	0	0	0	1140	1141	1126	1115	1082	1065	1099	0	0	0	0	0	0	0	0	0	0	0	0	0	0	0	0	0	0	0	0	0	0	0	0	0	0	0	0	0	0	0	0	0	0	0	0	0	0	0	0	0	0	0	0	0	0	0	0	0	0	0	0	0	0	0	0	0	0	0	0	0	0	0	0	0	0	0	0	0	0	0	0	0	0	0	0	0	0	0	0	0	0	0	0	0	0	0	0	1129	1089	1061	994	974	976	1007	1007	989	981	971	968	973	985	981	973	973	959	951	953	961	961	949	934	927	931	949	948	950	947	943	944	954	954	973	969	955	939	924	932	936	928	916	936	951	959	978	985	985	969	952	958	974	1000	1009	999	972	956	938	937	945	945	950	961	970	980	979	967	950	933	931	935	945	945	958	952	945	916	902	902	929	947	973	973	964	952	937	937	940	947	943	946	930	930	933	938	972	975	969	952	934	928	938	938	947	958	964	960	946	928	902	902	897	903	909	908	913	933	947	952	952	957	950	959	975	965	940	940	922	919	931	939	920	917	933	933	952	965	981	977	956	938	938	953	978	995	984	972	946	946	925	914	901	900	891	864	864	871	888	905	919	923	923	913	922	939	937	926	926	897	857	832	866	903	903	946	967	965	0	0
0	0	0	0	0	0	0	0	0	0	0	0	0	0	0	0	0	0	0	0	0	0	0	0	0	0	0	0	0	0	0	0	0	0	0	0	0	0	0	0	0	0	0	0	0	0	0	0	0	0	0	0	0	0	0	0	0	0	0	0	0	0	0	0	0	0	0	0	0	0	0	0	0	0	0	0	0	0	0	0	0	0	1044	1059	0	0	0	0	0	0	0	0	0	0	0	0	0	0	0	0	0	0	1008	996	993	979	979	1001	1016	1008	998	998	980	964	972	992	998	1001	1001	992	993	992	989	1020	1020	1046	1050	1024	995	982	1002	1006	998	996	984	1000	1023	1044	1048	1048	1049	1064	1063	1056	1056	1042	1028	1007	1003	1007	1018	1018	1004	1001	1016	1022	1022	1028	1034	1018	1016	1018	1029	1037	1034	1036	1027	1019	1025	1042	1029	989	994	1017	1024	1028	1026	1013	1013	1008	1011	1022	1048	1052	1053	1074	1089	1089	1083	1082	1091	1102	1122	1132	0	0	0	0	0	0	0	0	0	0	0	0	0	0	0	0	0	0	0	0	0	0	0	0	0	0	0	0	0	0	0	0	0	0	0	0	0	0	0	0	0	0	0	0	0	0	0	0	0	0	0	0	0	0	0	0	0	0	0	0	0	0	0	0	0	0	0	0	0	0	0	0	0	0	0	0	0	0	0	0	0	0	0	0	0	0	1231	1207	1147	1085	1046	1034	1040	1051	1070	1093	1104	1120	1124	1124	1117	1105	1091	1090	1087	1085	1111	1147	1186	1203	1186	1167	1161	1166	1168	1162	1135	1099	1097	1124	1154	1157	1152	1134	1120	1113	1119	1133	1141	1152	1155	1151	1140	1126	1125	1137	1144	1151	1145	1115	1096	1089	1108	1124	1137	1130	1122	1121	1130	1148	1143	1130	1103	1077	1053	1050	1068	1091	1107	1109	1111	1111	1117	1124	1153	1175	1179	0	0	0	0	0	0	0	0	0	0	0	0	0	0	0	0	0	0	0	0	0	0	0	0	0	0	0	0	0	0	0	0	0	0	0	0	0	0	0	0	0	0	0	0	0	0	0	0	0	0	0	0	0	0	0	0	0	0	0	0	0	0	0	0	0	0	0	0	0	0	0	0	0	0	1106	1093	0	0	0	0	0	0	0	0	0	0	0	0	0	0	0	0	0	0	979	1013	1040	1041	1028	1003	977	945	913	901	906	954	957	938	938	947	949	954	958	961	961	959	956	962	961	954	953	957	949	940	950	953	958	955	950	941	943	955	955	973	969	949	924	920	929	937	927	916	930	938	956	970	970	983	967	946	956	977	999	1009	997	978	957	939	937	934	934	938	949	960	984	982	937	916	924	932	943	943	928	903	887	865	858	902	902	908	913	928	928	948	960	968	976	971	925	919	929	937	937	956	976	980	983	964	945	911	889	889	858	855	895	934	935	925	920	913	913	905	900	903	908	913	937	950	950	965	963	960	959	962	954	931	931	926	933	944	942	919	899	904	904	917	924	944	952	944	938	938	953	967	970	963	942	921	946	925	914	920	928	928	928	898	890	909	925	925	939	939	930	940	939	932	914	914	879	843	831	0	0	0	0	0	0	0	0
0	0	0	0	0	0	0	0	0	0	0	0	0	0	0	0	0	0	0	0	0	0	0	0	0	0	0	0	0	0	0	0	0	0	0	0	0	0	0	0	0	0	0	0	0	0	0	0	0	0	0	0	0	0	0	0	0	0	0	0	0	0	0	0	0	0	0	0	0	0	0	0	0	0	0	0	0	0	0	0	0	0	0	0	0	0	0	0	0	0	0	0	0	0	0	0	0	0	0	0	967	918	920	927	948	978	999	1019	1013	1002	979	979	966	960	976	994	1003	998	990	987	987	983	987	1014	1014	1028	1024	992	979	972	973	985	992	995	996	1000	1023	1042	1048	1038	1043	1041	1031	1026	1026	1020	1011	997	997	1006	1017	1026	1018	1018	1020	1012	995	995	1001	1013	1027	1022	1041	1034	1032	1034	1028	971	965	976	976	987	988	1014	1023	1025	1029	1019	1019	1019	1034	1070	1094	1078	1052	1058	1080	1101	1106	1123	1139	0	0	0	0	0	0	0	0	0	0	0	0	0	0	0	0	0	0	0	0	0	0	0	0	0	0	0	0	0	0	0	0	0	0	0	0	0	0	0	0	0	0	0	0	0	0	0	0	0	0	0	0	0	0	0	0	0	0	0	0	0	0	0	0	0	0	0	0	0	0	0	0	0	0	0	0	0	0	0	0	0	0	0	1190	1212	1221	1188	1155	1125	1111	1093	1074	1062	1047	1039	1028	1034	1055	1069	1085	1095	1107	1110	1095	1078	1066	1063	1063	1063	1088	1129	1157	1159	1156	1151	1136	1132	1126	1119	1082	1071	1081	1091	1099	1107	1101	1097	1095	1093	1088	1105	1113	1126	1131	1129	1115	1102	1103	1114	1137	1148	1144	1121	1103	1100	1107	1123	1126	1113	1100	1103	1109	1123	1126	1122	1099	1068	1044	1044	1056	1083	1094	1099	1082	1068	1045	1069	1102	1167	0	0	0	0	0	0	0	0	0	0	0	0	0	0	0	0	0	0	0	0	0	0	0	0	0	0	0	0	0	0	0	0	0	0	0	0	0	0	0	0	0	0	0	0	0	1151	1160	1142	1113	1075	1031	1007	994	988	982	997	1014	1027	1048	1049	1036	1003	969	1007	1051	1051	1079	1096	1063	1040	1026	1007	1003	1012	1029	1019	1093	1038	1015	1002	1032	1053	1068	1068	1084	1106	1101	1068	1043	1030	1029	1024	1011	1001	1001	988	982	980	978	990	995	973	937	928	929	911	953	963	932	934	937	942	951	956	958	958	956	958	960	957	953	946	954	960	957	959	981	999	1002	990	974	962	943	955	970	970	949	923	918	931	939	937	922	920	930	943	957	957	949	950	946	949	953	939	919	920	923	933	945	937	937	932	929	939	937	934	912	905	906	936	953	941	941	922	891	870	865	858	863	878	891	892	874	874	898	937	943	935	924	922	930	944	945	945	947	957	963	965	950	937	909	885	885	868	861	889	913	921	912	914	910	910	897	900	903	911	917	943	966	966	980	972	961	964	957	944	927	927	930	939	954	945	922	896	887	887	886	897	913	925	930	933	933	939	951	950	944	942	921	921	917	910	933	948	959	959	961	945	952	945	946	945	945	943	943	935	926	906	906	879	853	839	0	0	0	0	0	0	0	0
0	0	0	0	0	0	0	0	0	0	0	0	0	0	0	0	0	0	0	0	0	0	0	0	0	0	0	0	0	0	0	0	0	0	0	0	0	0	0	0	0	0	0	0	0	0	0	0	0	0	0	0	0	0	0	0	0	0	0	0	0	0	0	0	0	0	0	0	0	0	0	0	0	0	0	0	0	0	0	0	0	0	0	0	0	0	0	0	0	0	0	0	0	0	0	0	0	0	953	929	929	920	933	936	951	980	999	1010	1013	997	989	974	974	970	984	1006	1012	1006	993	989	989	989	995	1003	1011	1011	1008	987	968	965	961	970	993	1006	1012	1012	1020	1031	1038	1043	1043	1024	1018	1011	1003	1002	995	997	997	1008	1018	1029	1032	1031	1028	1007	988	988	996	1023	1037	1038	1037	1031	1029	999	970	960	967	981	982	985	999	998	1002	1028	1051	1035	1035	1054	1097	1138	1157	1153	1125	0	0	0	0	0	0	0	0	0	0	0	0	0	0	0	0	0	0	0	0	0	0	0	0	0	0	0	0	0	0	0	0	0	0	0	0	0	0	0	0	0	0	0	0	0	0	0	0	0	0	0	0	0	0	0	0	0	0	0	0	0	0	0	0	0	0	0	0	0	0	0	0	0	0	0	0	0	0	1131	1159	1153	1123	1098	1088	1089	1110	1118	1105	1097	1102	1112	1113	1079	1065	1066	1065	1066	1064	1055	1041	1034	1038	1039	1038	1045	1049	1065	1073	1075	1078	1067	1059	1047	1056	1064	1090	1119	1133	1137	1126	1105	1108	1110	1088	1068	1054	1050	1049	1051	1051	1050	1051	1063	1062	1053	1070	1081	1087	1099	1105	1105	1096	1084	1089	1103	1123	1144	1143	1127	1109	1091	1099	1110	1109	1096	1072	1058	1072	1082	1087	1094	1088	1069	1057	1044	1041	1033	1038	1064	1066	1057	1053	1069	1110	1137	0	0	0	0	0	0	0	0	0	0	0	0	0	0	0	0	0	0	0	0	0	0	0	0	0	0	0	1156	1132	1116	1104	1089	1068	1029	1027	1031	1008	990	970	973	989	1007	1015	1012	1000	1001	998	983	955	930	921	932	952	954	956	958	970	984	1009	1006	991	965	944	934	934	931	936	943	949	954	958	981	992	996	1029	1019	1006	990	977	976	978	971	973	991	1010	1024	1021	1008	985	972	972	991	983	983	982	982	977	977	977	992	1004	987	952	942	947	969	998	1001	984	968	951	955	959	959	969	969	967	972	976	975	959	943	943	955	967	977	969	975	985	986	974	962	962	950	939	924	909	929	956	978	990	973	960	939	926	901	890	890	907	950	983	981	943	913	911	915	916	927	909	905	905	912	926	936	938	926	914	903	905	918	934	934	934	914	891	870	858	864	874	896	905	906	891	891	916	943	945	932	924	918	942	958	937	937	922	927	936	941	927	924	914	912	912	914	911	905	909	907	905	908	907	910	897	889	886	890	909	929	949	949	957	955	953	951	941	929	923	923	931	938	946	932	913	893	893	886	883	884	898	909	913	913	930	931	934	950	944	926	926	919	907	914	931	948	959	959	950	941	941	933	926	926	921	919	920	925	928	922	922	899	875	855	0	0	0	0	0	0	0	0
0	0	0	0	0	0	0	0	0	0	0	0	0	0	0	0	0	0	0	0	0	0	0	0	0	0	0	0	0	0	0	0	0	0	0	0	0	0	0	0	0	0	0	0	0	0	0	0	0	0	0	0	0	0	0	0	0	0	0	0	0	0	0	0	0	0	0	0	0	0	0	0	0	0	0	0	0	0	0	0	0	0	0	0	0	0	0	0	1022	1022	1005	979	974	972	975	982	975	963	953	946	946	941	939	941	959	980	988	992	998	988	989	982	982	985	996	1008	1009	1011	1001	1004	996	997	991	983	995	995	993	983	971	962	959	965	985	1008	1015	1016	1012	1017	1028	1032	1032	1024	1018	999	1005	1006	1002	995	998	1009	1018	1031	1036	1040	1037	1016	999	999	1009	1045	1060	1053	1027	1021	1028	997	966	960	991	1032	1049	1061	1091	1053	1031	1094	0	0	0	0	0	0	0	0	0	0	0	0	0	0	0	0	0	0	0	0	0	0	0	0	0	0	0	0	0	0	0	0	0	0	0	0	0	0	0	0	0	0	0	0	0	0	0	0	0	0	0	0	0	0	0	0	0	0	0	0	0	0	0	0	0	0	0	0	0	0	0	0	0	0	0	0	0	0	1175	1143	1115	1117	1117	1117	1095	1067	1061	1070	1077	1084	1085	1096	1114	1109	1118	1112	1093	1067	1042	1035	1024	1037	1038	1048	1053	1063	1058	1043	1045	1053	1060	1065	1057	1034	1034	1040	1047	1049	1065	1072	1064	1051	1054	1067	1082	1112	1126	1114	1087	1071	1073	1068	1059	1041	1034	1033	1030	1029	1015	1013	1026	1035	1030	1014	1026	1044	1070	1084	1086	1087	1080	1069	1083	1094	1113	1120	1120	1101	1068	1037	1031	1040	1038	1029	1014	1023	1030	1041	1059	1067	1070	1056	1056	1044	1030	1025	1037	1064	1071	1056	1054	1068	1088	1104	1107	1103	1089	1080	1063	1059	1062	1077	1070	1052	1057	1063	1062	1030	1030	996	972	977	994	1008	1016	993	959	951	968	975	973	959	948	941	949	950	945	943	943	942	941	943	951	963	968	954	934	936	960	975	985	975	945	913	903	922	937	952	959	959	960	979	1003	1009	992	972	954	937	937	933	940	945	952	956	961	980	992	996	997	1002	991	988	982	982	981	973	975	984	1009	1010	1008	999	981	973	972	975	964	964	945	941	952	981	1003	1026	1035	1028	1006	960	932	933	947	969	968	966	966	968	968	958	958	948	936	939	959	975	960	929	921	933	950	965	971	971	985	986	994	989	989	960	935	918	913	932	961	994	995	970	957	940	934	904	897	897	916	959	984	972	937	909	890	900	906	895	878	882	882	888	913	937	933	923	914	898	898	909	917	917	934	914	888	866	856	870	891	908	918	922	922	933	951	953	939	926	910	919	936	944	944	928	903	890	908	911	905	907	911	917	917	920	927	923	905	897	893	908	908	907	894	882	870	878	882	904	917	917	937	937	939	929	920	917	925	925	927	929	924	916	896	899	899	905	911	901	888	892	914	914	942	931	934	929	915	910	910	902	903	918	927	936	925	925	929	913	909	901	886	886	882	897	911	926	940	940	938	922	893	884	886	886	0	0	0	0	936	936
0	0	0	0	0	0	0	0	0	0	0	0	0	0	0	0	0	0	0	0	0	0	0	0	0	0	0	0	0	0	0	0	0	0	0	0	0	0	0	0	0	0	0	0	0	0	0	0	0	0	0	0	0	0	0	0	0	0	0	0	0	0	0	0	0	0	0	0	0	0	0	1020	1007	960	0	0	938	975	974	974	926	872	863	906	941	942	939	929	927	927	929	940	960	965	974	968	972	974	962	946	946	951	953	948	952	962	966	963	970	965	973	980	980	995	998	999	1000	994	999	1003	997	988	974	965	975	975	984	987	980	966	962	962	981	1001	1004	1002	998	1004	1014	1014	1014	1004	1000	999	1005	1016	1008	987	977	977	990	1015	1037	1040	1037	1010	1008	1008	1008	1006	1003	1021	1015	990	993	991	979	985	1023	1068	0	0	0	0	0	0	0	0	0	0	0	0	0	0	0	0	0	0	0	0	0	0	0	0	0	0	0	0	0	0	0	0	0	0	0	0	0	0	0	0	0	0	0	0	0	0	0	0	0	0	0	0	0	0	0	0	0	0	0	0	0	0	0	0	0	0	0	0	0	0	0	0	0	0	0	0	0	0	0	1021	985	990	1003	1013	1020	1021	1052	1096	1096	1126	1126	1097	1077	1077	1086	1083	1083	1090	1098	1110	1085	1063	1031	1008	1005	1019	1044	1047	1041	1040	1052	1065	1082	1073	1065	1058	1066	1074	1072	1067	1032	1018	1007	1019	1042	1055	1054	1026	997	990	1001	1035	1046	1032	1032	1040	1050	1055	1041	1016	1013	1017	1018	1010	996	978	968	982	1007	1037	1061	1065	1075	1076	1074	1057	1030	1013	1029	1051	1059	1062	1058	1051	1040	1020	994	978	969	970	987	988	998	1016	1044	1062	1053	1041	1033	1009	1012	1010	1008	983	979	974	972	984	1010	1042	1047	1049	1044	1051	1049	1038	1022	1005	1005	1007	999	989	991	991	988	973	943	940	950	979	1004	1009	991	971	966	979	982	972	963	960	963	970	955	940	943	946	951	947	957	969	973	950	922	913	930	960	966	965	952	907	884	888	921	943	959	961	959	967	985	1001	993	973	970	970	967	968	968	981	998	1009	961	980	986	989	991	983	998	1008	1012	1021	1021	1017	1002	990	972	959	967	964	971	976	976	964	964	948	930	926	945	977	998	1006	1015	1013	983	945	917	917	938	956	955	946	949	953	955	953	953	946	933	932	943	959	947	921	914	917	939	964	971	971	973	974	978	978	974	945	920	905	898	919	957	983	989	970	951	936	929	918	918	903	916	948	956	951	935	913	899	889	891	890	879	879	880	896	922	937	931	922	910	897	889	903	917	917	916	903	888	873	868	870	891	905	917	931	931	945	958	950	927	905	890	895	916	927	927	912	885	876	889	897	894	898	906	906	913	923	930	929	911	897	893	898	898	903	893	875	861	859	868	890	890	904	908	917	916	913	906	911	911	919	921	906	897	884	883	891	891	902	912	890	879	877	901	914	942	941	923	910	897	894	894	892	894	905	921	915	913	913	910	907	893	873	864	864	869	886	904	927	936	936	931	910	902	913	886	886	897	903	912	923	927	927
0	0	0	0	0	0	0	0	0	0	0	0	0	0	0	0	0	0	0	0	0	0	0	0	0	0	0	0	0	0	0	0	0	0	0	0	0	0	0	0	0	0	0	0	0	0	0	0	0	0	0	0	0	0	0	0	0	0	0	0	0	0	0	0	0	0	969	968	967	971	971	977	970	955	923	918	939	973	986	968	968	931	911	926	944	955	950	939	925	924	924	934	961	978	988	989	991	991	973	961	951	951	953	953	931	917	931	932	932	935	950	972	972	991	996	993	989	986	989	991	989	970	955	960	970	981	981	981	979	965	963	966	981	989	996	989	985	980	984	987	988	988	997	1002	1011	1016	1008	958	933	949	977	977	955	0	0	0	0	0	0	0	0	0	0	0	0	0	0	0	0	0	0	0	0	0	0	0	0	0	0	0	0	0	0	0	0	0	0	0	0	0	0	0	0	0	0	0	0	0	0	0	0	0	0	0	0	0	0	0	0	0	0	0	0	0	0	0	0	0	0	0	0	0	0	0	0	0	0	0	0	0	0	0	0	0	0	0	0	0	0	1118	1100	1063	1023	985	1013	1053	1070	1054	1025	994	963	944	934	940	959	984	1020	1076	1091	1091	1086	1067	1057	1051	1058	1059	1056	1043	1033	1026	1007	987	995	1008	1024	1042	1051	1050	1034	1016	1005	1009	1006	1000	995	993	1007	1025	1034	1020	1004	977	973	964	965	974	984	990	992	984	981	983	992	991	995	1007	1031	1055	1056	1014	1006	1009	996	988	978	973	974	994	1024	1058	1067	1063	1066	1069	1066	1052	1029	1017	1030	1046	1058	1057	1042	1048	1035	1022	997	981	978	980	981	976	983	1011	1040	1053	1043	1029	1003	992	997	998	999	996	986	984	981	987	999	1028	1038	1038	1044	1053	1054	1039	1023	1005	1003	1002	991	980	978	978	978	968	941	931	938	975	1013	1025	1013	994	977	986	1005	1022	1021	996	992	992	986	977	967	968	979	994	1003	1000	987	968	938	936	954	974	994	1007	1018	986	956	948	950	958	951	958	961	967	969	958	974	971	963	963	961	964	971	985	998	1009	1009	994	989	986	986	1004	1009	1016	1012	1012	1012	1003	1001	993	980	958	949	951	957	957	965	952	952	932	910	902	914	936	972	987	994	973	937	912	895	891	913	938	935	927	925	926	933	933	940	939	934	950	950	941	928	920	922	929	951	964	971	964	957	948	942	942	929	920	909	889	889	902	928	961	964	946	917	912	917	912	912	899	901	906	916	924	921	909	900	897	895	895	890	890	898	909	934	951	939	928	903	884	889	903	910	910	912	900	892	889	880	880	886	900	911	930	930	946	948	941	915	882	870	878	899	910	910	900	891	881	878	880	880	889	895	895	910	921	923	929	911	899	884	884	884	888	878	871	858	857	870	894	894	916	918	918	910	901	904	905	905	913	911	904	890	881	875	885	885	893	891	874	864	877	901	901	922	932	923	910	900	885	885	873	875	889	905	904	904	901	901	902	887	880	859	859	867	889	919	925	918	918	898	910	902	913	919	919	913	892	887	893	902	902
0	0	0	0	0	0	0	0	0	0	0	0	0	0	0	0	0	0	0	0	0	0	0	0	0	0	0	0	0	0	0	0	0	0	0	0	0	0	0	0	0	0	0	0	0	0	0	0	0	0	0	0	0	0	0	0	0	0	0	0	0	0	0	987	980	980	969	968	945	961	961	960	965	956	939	934	946	960	977	979	979	959	951	954	965	975	969	957	946	937	937	944	960	981	992	1001	1002	996	981	969	965	965	967	953	931	915	896	898	908	908	922	955	975	975	990	991	984	973	966	976	966	958	942	949	959	972	972	971	975	965	947	954	960	983	998	993	978	966	966	965	972	972	992	1011	1021	1018	997	958	0	0	0	0	0	0	0	0	0	0	0	0	0	0	0	0	0	0	0	0	0	0	0	0	0	0	0	0	0	0	0	0	0	0	0	0	0	0	0	0	0	0	0	0	0	0	0	0	0	0	0	0	0	0	0	0	0	0	999	1043	1079	1079	0	0	0	0	0	0	0	0	0	0	0	0	0	0	0	0	0	1090	1021	993	1012	1031	1033	1034	1040	1032	1024	1003	991	993	992	985	980	973	975	979	976	973	980	997	994	985	969	968	965	986	998	1035	1065	1068	1068	1061	1044	1025	1004	996	987	999	1009	1003	999	985	986	998	1018	1036	1040	1022	1002	988	986	991	993	990	995	994	1005	1006	1015	1010	1001	989	974	962	964	971	984	999	1009	1007	994	998	999	1000	1002	1011	1028	1054	1056	1022	1014	1002	987	978	962	959	972	998	1039	1071	1075	1065	1052	1054	1062	1054	1038	1027	1027	1037	1048	1051	1043	1024	1029	1042	1069	1071	1045	1026	1005	1007	997	1001	1021	1036	1039	1022	999	985	1007	1009	1003	1002	1011	1007	998	992	975	981	1005	1019	1034	1044	1050	1033	1009	994	994	983	970	959	959	967	976	968	953	942	945	980	1007	1034	1023	1002	992	996	1016	1037	1028	1006	999	993	985	980	983	980	981	972	958	947	941	932	929	942	961	964	981	1006	1017	995	973	966	974	972	957	940	937	971	971	962	967	967	955	955	959	968	971	985	994	1001	987	983	968	974	980	993	1007	1006	1006	1005	1005	1002	1000	989	981	967	959	947	939	941	940	930	930	912	901	896	914	953	989	995	977	948	929	904	893	887	894	917	923	924	919	914	919	919	925	927	935	945	952	943	934	922	920	929	951	960	959	953	929	908	891	891	889	891	884	888	883	897	918	944	950	932	905	895	905	910	910	896	881	864	872	896	909	910	901	903	901	894	899	899	903	923	937	956	945	928	895	884	880	896	908	908	917	902	892	889	894	897	906	924	924	924	919	929	924	911	883	856	849	860	883	896	896	894	883	872	868	866	863	884	899	899	909	919	923	921	910	890	880	877	877	880	871	863	863	861	879	897	897	925	925	917	905	893	895	908	908	915	911	908	896	892	892	892	885	882	868	874	864	865	880	880	901	902	908	905	894	876	876	854	849	873	887	884	884	888	892	897	888	876	860	860	879	894	914	904	879	918	898	887	899	916	928	928	932	907	876	875	890	890
0	0	0	0	0	0	0	0	0	0	0	0	0	0	0	0	0	0	0	0	0	0	0	0	0	0	0	0	0	0	0	0	0	0	0	0	0	0	0	0	0	0	0	0	0	0	0	0	0	0	0	0	0	993	993	983	953	928	904	919	945	974	974	992	983	964	951	949	945	961	940	940	951	951	944	939	938	939	963	975	975	972	957	964	980	985	981	974	962	944	944	946	960	973	976	993	1001	998	979	971	969	969	983	972	947	915	896	893	897	898	906	934	963	963	974	987	976	970	964	953	942	938	933	946	952	958	958	963	966	953	945	938	955	982	1001	992	970	937	928	940	973	973	998	998	977	0	0	0	0	0	0	0	0	0	0	0	0	0	0	0	0	0	0	0	0	0	0	0	0	0	0	0	0	0	0	0	0	0	0	0	0	0	0	0	0	0	0	0	0	0	0	0	0	0	0	0	0	0	0	0	0	0	1049	1017	996	989	999	1043	966	982	982	992	1003	1003	999	1002	997	998	975	949	939	970	1015	1037	1019	994	980	968	950	949	952	963	972	988	988	979	982	983	988	992	980	973	972	968	978	981	977	972	979	999	994	985	976	977	979	992	999	1030	1053	1059	1059	1053	1043	1026	1004	989	985	990	1004	1009	1006	992	987	994	1009	1025	1028	1011	982	973	965	980	999	997	986	977	996	995	1002	1003	1005	1006	1000	1002	1004	1016	1033	1056	1061	1060	1050	1043	1060	1071	1074	1069	1054	1042	1031	1041	1052	1061	1083	1095	1095	1075	1025	998	1014	1055	1086	1106	1106	1094	1083	1087	1094	1094	1063	1034	1028	1044	1061	1058	1037	1029	1023	1028	1025	1023	1033	1034	1014	1006	1020	1027	1012	1004	977	985	1009	1016	1012	1012	1026	1025	1017	995	966	952	971	990	1008	1014	1023	1011	995	981	977	966	945	944	944	962	979	977	971	969	977	990	1014	1024	1021	1009	995	997	1010	1019	1004	987	977	974	972	982	989	986	971	952	931	909	918	929	938	949	951	956	970	995	1005	994	978	978	989	974	953	935	923	929	961	967	963	951	951	948	959	968	976	987	982	995	987	973	957	954	964	975	989	991	993	1005	1009	1006	1007	1000	999	987	966	950	935	935	933	933	926	915	904	909	932	966	981	979	955	939	921	903	887	878	873	896	916	918	914	908	914	914	918	922	929	940	943	942	934	922	920	927	933	948	944	936	912	893	893	882	875	877	871	882	895	907	923	941	950	925	897	888	900	900	910	901	882	849	857	881	886	886	867	859	863	872	872	885	893	908	928	936	943	928	895	871	863	878	878	906	919	901	892	891	900	910	922	930	927	927	902	889	892	865	849	837	838	850	867	867	883	886	874	860	855	850	855	894	902	902	909	919	923	912	900	893	889	889	886	884	868	863	870	875	883	898	898	913	912	907	897	884	879	891	891	903	902	906	905	897	892	892	888	882	868	853	855	860	860	866	867	870	877	886	884	884	859	843	841	855	858	863	863	870	873	882	870	864	864	850	879	887	886	904	879	879	857	862	877	896	921	921	923	909	887	886	886	892
0	0	0	0	0	0	0	0	0	0	0	0	0	0	0	0	0	0	0	0	0	0	0	0	0	0	0	0	0	0	0	0	0	0	0	0	0	0	0	928	930	947	970	973	967	957	957	940	929	920	919	941	973	991	991	988	966	962	961	959	961	962	962	968	970	954	945	925	930	939	940	940	927	931	943	925	918	920	938	959	959	971	969	978	984	985	972	964	963	957	957	951	940	942	956	973	985	985	964	959	965	965	975	979	958	925	901	893	897	895	901	917	935	935	954	972	974	969	957	936	917	917	918	933	935	938	946	946	956	952	942	941	961	988	1008	990	960	949	939	949	958	969	969	970	956	0	0	0	0	0	0	0	919	909	908	926	944	944	932	932	921	922	927	928	921	919	910	897	889	883	897	925	955	996	1006	1004	1008	1027	1041	1056	1057	1057	1064	1063	1060	1051	1040	1019	1011	1011	1003	997	982	980	984	986	995	1003	1008	1025	1028	1018	1003	991	988	990	975	957	966	982	964	978	991	979	982	989	1006	1019	1010	993	977	973	980	981	971	956	959	959	954	951	942	964	977	986	988	980	982	989	988	988	976	956	939	935	953	984	1004	1019	1025	1030	1013	1000	985	984	996	1007	1023	1018	1000	988	996	996	1002	990	982	967	968	975	990	1004	1011	1018	1033	1020	1010	1000	997	995	991	986	982	985	991	989	981	1000	1011	1006	1000	1005	1014	997	998	1006	1016	1018	1018	1031	1035	1032	1031	1028	1025	1036	1045	1048	1043	1035	1031	1036	1041	1050	1068	1087	1085	1058	1027	1002	1006	1042	1066	1085	1093	1086	1078	1076	1077	1077	1048	1018	1007	1029	1041	1045	1040	1040	1029	1026	1019	1018	1030	1038	1030	1021	1023	1026	1017	998	985	996	1008	1008	1009	1014	1028	1039	1036	1011	969	945	946	956	965	982	989	983	973	962	955	939	925	925	932	954	978	987	982	988	994	1002	1001	1007	999	999	993	993	986	979	972	967	956	952	959	976	989	986	958	936	915	900	919	932	950	951	941	943	954	979	985	985	973	976	985	972	953	938	935	942	950	957	954	948	951	948	950	966	983	988	987	993	995	974	951	939	933	948	961	971	980	1003	1011	1006	1000	991	988	986	973	957	952	954	947	947	945	934	931	941	945	959	969	967	952	937	909	898	887	879	874	881	901	917	916	915	915	912	921	926	933	937	947	943	934	923	916	915	916	903	879	858	855	867	867	881	883	883	895	908	929	930	934	939	936	914	886	864	881	881	891	898	883	874	874	881	873	861	842	836	847	865	865	873	872	875	888	936	943	933	906	882	862	866	866	873	888	887	884	884	898	905	917	927	910	910	875	868	862	853	857	869	877	878	880	880	888	889	878	856	841	846	892	906	894	902	911	911	918	906	893	892	907	907	903	888	873	870	876	886	894	897	897	893	895	890	884	869	863	863	870	884	889	896	902	908	892	892	888	866	846	837	850	867	867	858	852	848	850	856	855	855	852	843	848	855	858	858	858	857	859	856	862	870	870	877	877	887	886	873	873	859	843	838	855	880	880	890	905	906	907	908	908	912
0	0	0	0	0	0	0	0	0	0	0	0	0	0	0	0	0	0	0	0	0	0	0	0	0	0	0	0	0	0	0	0	0	0	0	0	962	942	928	928	930	939	946	935	928	923	923	909	897	904	929	947	970	987	987	976	954	958	966	968	958	949	949	954	958	955	942	919	912	910	918	918	927	931	900	899	882	896	915	942	960	960	966	972	979	971	955	946	953	949	930	930	912	912	924	931	944	947	955	951	953	972	972	977	964	935	911	898	895	895	900	904	923	931	931	929	930	930	941	942	925	923	918	922	921	924	927	927	949	952	953	947	964	987	1005	986	958	952	943	944	945	939	939	934	927	920	916	931	959	991	966	945	919	909	905	908	912	915	908	916	916	934	939	936	937	928	920	895	878	877	898	915	927	944	958	971	982	1004	1009	995	975	975	960	967	977	997	979	959	946	940	939	949	968	989	1004	993	981	972	982	1010	1021	1011	1007	1004	1007	996	977	960	952	964	978	978	990	979	980	990	1007	1013	1008	982	969	962	962	965	958	954	954	965	965	957	947	949	972	984	974	967	969	987	989	993	991	982	979	969	956	961	975	999	1035	1044	1047	1042	1021	1000	993	986	966	959	964	967	962	962	971	979	981	983	980	988	988	990	996	1012	1024	1016	1009	993	978	972	973	986	988	1004	1004	996	980	976	976	972	974	974	984	990	1000	1004	1017	1011	1009	1005	1009	1014	1016	1009	1016	1019	1031	1042	1046	1035	1024	1016	1018	1022	1036	1060	1059	1047	1024	1007	1009	1033	1044	1056	1070	1071	1067	1058	1052	1012	979	968	967	969	982	1008	1031	1032	1031	1016	1001	1000	1014	1037	1037	1026	1024	1034	1021	1008	981	991	994	1000	1004	1010	1024	1052	1059	1032	989	957	941	937	953	964	974	970	954	944	939	925	925	914	925	952	971	984	987	993	1000	1007	990	980	984	992	992	993	977	977	960	953	954	954	967	977	983	973	952	930	913	910	923	950	954	934	918	916	933	966	965	958	964	969	975	969	956	956	944	949	954	956	954	954	948	946	941	957	970	978	986	986	991	989	965	941	926	923	929	951	974	1001	1005	1000	986	976	983	986	986	984	967	967	967	972	961	955	947	954	956	958	961	957	945	924	902	894	889	890	894	894	897	894	906	915	915	919	919	932	931	930	947	943	930	917	907	913	910	896	868	852	850	863	863	886	898	900	912	935	942	934	925	921	913	890	868	853	854	854	864	878	888	894	895	887	874	857	846	843	863	880	880	885	870	875	888	909	922	934	924	900	869	850	850	856	858	860	866	875	888	892	898	904	892	892	875	858	849	856	866	882	889	881	882	882	890	899	879	860	843	853	892	906	906	910	904	907	903	891	876	878	896	896	904	897	867	854	845	854	854	854	868	874	880	883	874	849	832	832	841	858	881	889	897	908	892	892	879	857	836	837	865	877	877	865	840	832	829	833	833	833	842	848	857	862	862	858	858	855	842	827	851	875	875	877	877	874	868	853	853	849	840	841	849	860	860	875	890	904	921	932	932	912
0	0	0	0	0	0	0	0	0	0	0	0	0	0	0	0	0	0	0	0	0	0	0	0	907	907	924	948	959	936	922	919	919	941	970	979	974	959	939	939	929	939	946	924	917	909	909	905	914	924	939	953	964	965	965	955	949	953	954	947	948	937	933	933	946	954	950	943	926	910	898	894	894	890	900	899	900	879	869	878	889	889	905	919	932	940	949	955	954	948	938	938	936	943	947	943	937	933	938	932	937	944	944	951	939	905	896	901	910	902	900	904	904	914	914	913	929	938	937	953	960	956	962	954	950	948	938	938	939	957	977	978	969	961	956	943	940	934	930	932	934	940	940	934	930	917	910	898	908	930	947	933	920	906	905	908	925	923	923	934	934	943	947	942	942	941	924	910	895	894	908	921	938	957	968	978	990	1012	1016	999	972	958	958	960	969	990	983	964	951	949	951	951	965	1002	1021	1018	989	974	986	1011	1022	1021	1012	1002	1006	1005	989	970	963	977	983	983	990	979	978	985	983	955	958	964	956	956	961	954	957	960	972	977	968	957	943	955	978	989	977	959	959	970	979	992	994	1004	998	978	964	963	977	997	1021	1029	1040	1025	1000	987	969	965	957	954	954	967	974	975	975	983	989	994	996	993	992	993	991	1002	1017	1022	1009	985	969	950	954	969	996	1009	1007	991	990	994	987	978	973	972	980	987	1001	1012	1018	1018	1000	989	987	986	987	990	991	1002	1011	1031	1028	1015	996	984	980	974	980	1015	1036	1034	1023	1013	1017	1023	1026	1037	1047	1055	1054	1042	1019	979	969	968	965	968	968	1000	1016	1024	1023	1003	982	975	988	1016	1033	1028	1025	1032	1013	982	959	961	973	992	1007	1010	1021	1036	1045	1037	996	967	945	937	942	963	974	969	949	935	927	916	916	903	913	932	952	974	987	993	1003	1009	989	976	985	999	1006	998	989	978	965	953	959	976	993	985	974	961	946	929	920	919	929	948	944	921	898	890	909	933	937	930	938	954	966	967	962	963	955	947	954	956	955	955	944	940	939	942	960	966	967	965	971	973	973	937	918	911	922	942	960	978	982	969	962	962	970	984	990	997	991	981	981	972	964	950	948	941	950	952	955	949	940	914	902	890	882	900	907	905	900	891	905	911	911	913	926	930	931	930	930	933	924	926	918	923	935	932	902	865	862	862	871	889	899	909	919	928	934	924	904	892	889	874	861	844	844	835	850	870	892	901	905	893	874	854	842	851	879	879	901	885	870	860	867	875	887	901	892	877	865	865	858	852	852	848	856	871	886	900	902	899	899	894	882	867	860	855	862	878	887	894	894	892	896	895	883	867	843	853	878	906	906	903	893	888	883	872	852	849	875	875	890	879	853	837	830	834	843	843	856	860	857	871	864	851	829	829	819	825	852	889	897	902	902	895	875	847	833	837	860	871	871	853	840	830	813	810	817	817	822	840	857	868	875	875	871	852	822	816	843	875	875	894	890	874	855	849	849	849	858	858	853	850	850	856	876	897	908	907	907	890
0	0	0	0	0	0	0	0	0	0	0	0	0	0	0	910	914	922	922	924	922	915	916	921	937	937	925	918	907	898	899	909	909	937	950	947	944	940	942	942	947	947	937	924	917	914	924	924	933	943	955	957	960	960	959	959	958	943	933	935	937	932	932	932	932	931	931	929	917	898	895	896	896	906	913	914	900	882	866	870	877	877	890	916	928	941	948	955	949	940	932	932	935	941	948	951	941	940	936	934	927	937	937	944	928	897	895	901	912	908	900	895	904	914	881	883	911	931	947	948	958	961	969	957	942	943	939	946	946	953	969	964	955	947	936	926	934	929	934	937	939	941	941	941	927	916	907	898	901	919	937	933	922	905	909	918	925	951	948	943	943	942	945	937	946	964	977	978	983	988	993	991	987	984	985	995	1006	1012	1016	1015	996	979	979	962	963	981	1000	1008	1006	986	962	947	963	989	1028	1018	1008	992	986	985	983	986	993	1002	1005	1012	1003	995	988	987	996	993	993	982	978	985	964	942	938	939	954	963	969	976	977	975	979	974	966	947	942	960	982	989	971	952	955	959	965	994	1016	1022	999	983	971	968	981	995	1011	1015	1014	1004	989	964	957	956	953	959	962	973	987	996	996	1001	997	999	1000	1007	1004	1000	1002	1007	1011	1016	1008	994	968	949	949	964	988	996	995	993	1003	1012	1024	1006	985	971	981	999	1015	1028	1036	1024	991	971	966	973	976	987	993	991	1000	1016	1027	1009	997	992	992	984	982	991	1022	1021	1018	1011	1011	1014	1007	1023	1033	1045	1042	1034	999	984	969	970	969	965	975	988	1009	1023	1013	987	954	950	955	978	993	1003	1008	1010	992	958	936	941	966	990	1006	1006	1008	1017	1019	1016	992	964	950	939	941	956	972	973	954	931	917	917	910	904	897	908	922	943	967	988	1003	1004	1009	1007	1004	1012	1012	1010	1002	986	969	960	976	1009	1020	1006	992	975	957	939	927	924	927	932	922	903	885	877	885	893	895	894	911	937	965	969	966	962	955	947	951	959	959	953	947	938	935	931	942	948	946	953	945	943	945	932	925	910	900	907	918	918	926	937	937	948	955	981	987	995	987	987	976	972	963	948	941	932	933	935	938	930	915	897	881	881	884	901	916	913	900	888	894	894	901	912	926	930	925	912	914	919	933	931	922	922	930	938	940	909	890	890	889	890	897	905	904	914	910	906	891	879	872	869	870	865	865	859	871	885	895	900	891	879	867	844	839	853	873	879	901	903	898	870	848	845	858	875	873	864	857	857	855	849	850	843	854	876	887	895	899	905	905	904	893	881	861	850	843	860	877	885	885	894	893	885	883	867	861	865	878	893	893	888	877	861	857	831	790	803	803	835	864	867	848	828	822	828	840	840	845	846	848	861	860	851	831	831	818	825	852	867	875	881	881	882	880	855	845	851	860	860	856	848	835	821	811	800	800	819	826	836	844	862	873	873	870	843	816	816	843	843	880	905	894	877	865	857	857	859	866	864	852	841	841	848	856	868	879	879	879	879
0	0	0	918	916	929	929	937	923	889	869	867	867	891	905	910	914	916	916	926	926	921	924	938	945	945	929	918	902	898	901	910	910	929	931	933	932	928	929	929	942	940	933	921	914	914	924	934	957	975	977	964	958	961	969	969	969	950	930	924	931	926	927	927	924	927	931	926	907	890	890	898	898	918	927	919	899	882	866	893	892	894	894	896	899	904	915	911	898	880	877	876	876	882	887	891	908	922	937	933	924	912	905	905	883	877	885	898	911	903	893	888	881	881	883	883	865	875	892	908	930	943	934	879	861	890	925	940	940	937	938	934	926	919	918	924	934	940	939	941	939	936	940	940	926	922	913	903	896	911	927	936	937	924	918	934	944	951	948	919	906	906	900	908	940	965	986	986	990	996	999	990	987	984	984	985	996	1000	995	991	984	974	980	980	980	985	1001	1006	1000	987	964	943	946	963	997	1007	1000	981	977	975	975	974	982	994	1005	1011	1009	998	993	996	999	983	983	967	975	979	964	942	919	927	956	976	992	1004	999	989	991	984	968	951	954	962	979	987	964	946	944	955	962	988	1016	1021	994	974	963	970	984	995	995	992	994	991	977	964	955	954	959	962	968	972	979	993	1002	1002	996	1000	1007	1013	1003	1000	997	995	1003	1004	996	992	979	963	967	976	989	993	1004	1012	1018	1027	1021	990	965	972	996	1012	1027	1029	1030	1019	977	954	949	960	974	981	991	989	989	995	1007	1004	992	999	1004	987	986	995	1014	1022	1013	1016	1014	1011	1009	1012	1016	1031	1025	1017	1005	992	976	974	974	969	978	987	1018	1022	1004	966	937	923	928	942	969	997	1000	997	986	968	950	954	966	984	1001	1005	1010	1009	1005	1003	976	960	951	945	945	954	960	952	932	916	918	918	916	919	913	911	918	930	962	980	985	986	984	988	992	1003	1006	1008	1002	986	958	949	974	994	1002	988	966	950	935	924	912	909	916	913	906	897	889	886	885	884	885	882	896	921	955	971	966	962	944	941	952	958	958	959	950	947	927	919	927	931	942	931	929	916	904	911	913	909	892	860	854	866	885	897	907	910	917	931	956	965	959	959	961	962	959	948	935	925	927	927	925	907	891	889	882	886	892	911	914	913	903	893	893	893	901	912	918	925	911	899	896	910	915	912	910	908	912	920	924	913	913	893	883	884	888	888	891	884	893	890	887	873	860	858	862	876	876	870	862	862	871	881	881	856	849	828	825	840	873	873	890	901	901	882	842	839	841	842	863	863	858	858	853	849	842	841	851	859	862	860	846	842	842	844	865	870	863	845	835	837	854	867	867	885	893	885	881	873	869	870	877	877	879	867	853	839	805	785	786	791	791	818	851	859	853	839	820	825	825	837	848	851	856	858	854	847	847	831	818	812	827	842	849	854	854	863	877	862	852	846	846	846	845	839	823	813	811	823	823	839	845	845	845	852	856	856	870	843	816	816	838	838	865	883	890	876	862	862	856	854	851	855	837	834	834	839	845	853	875	875	882	883
0	0	0	905	903	914	914	922	909	881	857	855	855	877	890	894	899	916	926	921	933	933	938	945	947	947	933	922	915	915	923	921	921	910	894	882	887	873	880	895	895	923	931	929	923	925	934	934	957	933	914	893	889	904	934	934	954	965	943	908	887	880	879	879	883	876	879	880	894	922	927	931	931	931	933	920	896	879	884	893	892	910	910	904	897	879	859	863	876	897	925	933	933	920	891	862	868	887	903	912	906	901	913	913	910	907	920	934	954	944	925	906	886	874	863	863	865	875	881	896	902	913	891	868	862	884	913	926	926	917	914	911	900	900	913	935	934	933	931	919	919	915	912	912	907	914	913	918	908	915	936	940	931	919	911	913	930	942	935	919	906	901	896	903	934	961	971	982	985	993	983	987	983	984	986	993	997	990	978	971	974	982	990	990	995	1001	996	1000	996	989	972	949	941	952	972	978	969	956	950	957	961	970	984	994	1010	1004	1001	988	962	951	943	949	945	945	957	963	953	932	919	927	971	1019	1036	1035	1016	993	995	1000	990	975	966	965	960	963	953	949	948	956	968	982	1004	998	980	968	962	970	977	980	970	969	966	975	973	963	949	949	960	971	975	972	976	980	983	982	982	995	1004	998	987	982	979	980	981	982	982	982	988	982	975	974	977	989	1006	1015	1021	1019	1012	985	969	995	1015	1019	1013	1007	1010	992	963	949	942	949	964	979	994	991	974	972	957	966	966	977	977	969	956	984	1007	1022	1023	1023	1011	1007	997	1003	999	1000	1002	999	991	984	975	976	974	976	983	992	1007	1009	993	967	944	928	937	942	975	997	999	993	984	981	973	972	981	987	997	1014	1016	1018	1006	988	964	948	947	947	947	950	951	940	931	918	918	922	932	943	929	920	911	926	956	965	967	962	954	958	969	978	983	988	982	954	933	921	941	963	970	956	940	919	899	891	890	883	892	895	892	893	893	898	908	907	902	895	892	907	955	971	974	958	944	940	957	957	972	984	969	939	926	911	913	919	929	925	912	894	885	889	893	870	869	866	866	874	880	886	894	889	889	889	891	879	873	873	869	865	875	881	896	908	909	915	917	907	896	890	889	899	909	922	919	915	904	892	892	893	897	897	899	916	902	884	881	886	894	887	882	880	883	892	895	889	889	881	871	872	874	877	874	868	873	880	882	881	867	854	863	863	866	868	857	857	860	864	854	834	814	789	825	840	851	851	862	889	898	887	852	838	832	834	852	863	860	860	854	843	840	842	837	834	815	813	822	822	806	800	824	860	864	841	829	831	840	847	867	885	887	877	868	860	867	871	879	879	868	857	841	823	795	790	796	806	806	828	850	865	862	849	832	826	826	835	854	871	870	868	856	847	847	835	812	801	809	823	821	832	832	847	863	856	845	846	852	852	849	832	820	816	820	838	838	860	862	857	840	844	856	856	852	830	807	808	823	823	832	847	856	847	852	852	840	822	821	825	823	823	828	836	843	850	864	864	877	876
0	0	0	0	0	0	0	927	914	880	862	860	860	868	889	900	906	911	921	921	933	0	0	0	0	889	889	882	0	0	0	933	906	906	873	850	834	840	851	867	867	886	886	892	890	912	935	935	947	933	914	897	887	891	916	916	942	947	926	893	875	865	872	863	863	858	862	892	927	937	926	923	913	913	904	882	874	875	898	910	914	910	910	903	900	894	877	875	886	893	907	918	918	913	885	862	859	863	869	887	898	892	897	897	908	909	914	939	939	936	933	925	906	890	874	874	873	869	881	905	928	926	906	893	887	903	926	924	913	913	899	889	893	884	913	922	929	921	909	906	913	915	899	895	895	900	906	913	915	927	934	943	937	912	894	897	913	938	933	911	901	896	896	916	939	948	950	952	965	963	957	964	983	994	1009	1015	1005	981	971	969	980	986	1001	1001	1003	1001	994	990	989	988	974	961	951	952	953	957	947	937	937	950	958	973	980	1002	990	978	955	942	935	926	924	929	930	930	932	939	935	919	920	933	971	1019	1046	1026	996	978	979	994	993	984	971	960	952	950	944	941	946	949	967	975	978	971	969	971	968	973	970	968	952	942	949	960	956	954	954	951	967	984	991	990	979	973	974	972	972	980	989	983	957	943	954	955	967	970	980	986	980	974	962	964	979	984	1001	1015	996	983	966	961	975	992	1007	1003	984	978	978	972	951	944	945	953	963	976	986	977	970	963	946	947	945	945	942	933	932	945	980	1008	1015	1013	1004	1001	992	992	991	988	986	976	965	964	968	967	962	970	974	976	983	975	974	962	965	968	970	976	988	998	998	1007	1028	1036	1023	1001	1000	984	992	1007	1022	1022	1008	985	955	948	947	951	947	946	947	937	927	926	926	927	945	954	938	921	910	912	927	948	944	928	918	925	942	943	952	954	946	928	901	901	919	940	950	939	924	893	874	866	872	877	874	883	888	883	882	896	913	913	906	895	892	907	927	945	948	947	944	937	935	935	933	932	936	928	921	906	907	915	918	908	886	880	890	888	875	862	861	869	883	887	883	878	879	882	877	869	864	862	862	870	868	873	867	861	844	814	823	846	858	875	884	880	889	893	894	898	902	905	903	892	892	870	879	888	879	880	876	872	870	872	874	864	854	850	859	875	874	863	863	850	854	860	869	868	862	856	855	867	881	887	869	854	851	851	856	859	857	856	859	852	843	827	814	789	771	772	772	787	813	847	860	855	853	848	834	832	837	854	854	858	847	832	831	843	829	817	796	800	814	814	804	796	826	855	846	839	828	822	840	840	847	856	855	862	853	853	859	869	869	869	865	850	835	820	806	804	815	825	825	843	866	884	871	860	848	831	831	831	845	876	895	868	856	849	849	837	807	802	807	813	805	805	809	838	851	851	839	838	851	851	844	827	817	811	812	827	827	838	852	843	840	844	844	838	834	805	790	788	798	798	802	799	812	813	817	817	823	810	802	801	810	810	829	835	843	849	863	863	877	876
0	0	0	0	0	0	0	0	0	895	0	0	0	0	0	0	0	0	0	0	0	0	0	0	0	0	0	0	0	0	0	937	913	913	885	850	828	829	845	850	850	864	868	869	871	880	904	918	918	913	902	897	887	914	928	928	928	933	912	894	878	871	878	859	859	844	855	872	898	905	915	914	908	908	900	882	874	877	892	900	902	902	902	903	900	904	904	905	893	889	880	884	888	888	867	841	838	840	858	892	908	904	892	867	867	867	883	895	903	900	901	904	904	891	881	881	881	885	893	905	928	931	920	912	911	921	926	922	904	904	888	877	866	861	887	898	904	897	882	866	863	872	866	873	873	872	892	913	926	932	930	936	926	904	880	880	908	932	930	918	908	897	897	916	939	918	922	924	935	935	940	952	979	1003	1021	1018	1004	986	976	970	981	990	1001	1011	1011	1010	1001	996	990	987	986	968	964	954	947	948	949	941	944	947	961	972	980	983	976	955	942	933	932	933	937	937	926	918	918	925	929	928	925	943	984	1031	1046	1026	983	960	960	970	973	980	966	961	952	936	930	926	931	935	949	957	957	963	961	972	976	971	962	952	942	937	942	944	949	954	949	963	977	1000	1004	1002	990	971	967	964	967	967	972	964	951	931	929	936	949	952	962	972	966	956	942	952	977	1011	1023	1005	985	971	953	953	954	967	969	961	938	929	929	935	930	931	934	945	951	952	952	954	947	940	940	944	947	937	925	924	912	920	948	977	989	990	986	988	986	985	976	970	967	959	952	958	958	956	949	955	950	954	956	954	955	963	978	989	1004	993	979	972	997	1015	1038	1035	1027	1017	1002	978	959	965	1004	1008	1000	967	945	946	962	965	958	958	952	943	934	934	931	934	935	938	926	912	906	908	918	925	916	898	890	902	918	926	927	929	928	909	893	886	896	918	926	906	892	873	855	857	870	867	870	881	878	868	874	881	894	913	906	898	893	892	899	912	923	924	921	915	915	904	899	907	916	920	924	926	907	907	907	894	883	880	891	894	877	870	869	876	886	888	883	874	876	874	868	859	855	866	866	862	867	869	862	860	854	827	806	806	823	843	847	861	867	879	875	872	876	905	903	885	885	864	856	854	845	826	830	841	857	866	864	855	839	837	848	861	860	860	846	835	843	857	867	869	852	843	839	850	863	876	866	847	836	836	836	838	842	845	853	852	843	827	814	797	793	789	789	804	820	834	841	846	847	846	834	826	821	836	836	826	823	819	824	827	829	812	800	802	823	823	839	849	828	826	839	840	829	822	829	829	836	840	846	848	853	855	856	864	864	864	860	853	835	831	827	843	856	856	877	883	888	887	871	864	857	833	833	816	820	876	895	886	870	857	857	830	812	808	810	809	797	797	802	812	837	836	825	832	832	838	833	820	806	799	803	803	806	812	852	843	832	827	827	832	831	816	795	779	779	779	777	769	772	782	798	798	813	821	815	800	800	800	816	826	839	847	863	863	865	858
0	0	0	0	0	0	0	0	0	0	0	0	0	0	0	0	0	0	0	0	0	0	0	0	0	0	0	0	0	0	0	0	912	912	0	0	0	0	831	831	831	845	858	865	877	879	0	898	898	907	904	898	903	914	952	939	939	916	903	892	886	887	873	852	852	833	830	852	860	876	898	911	908	908	901	893	880	888	890	886	884	884	894	894	897	904	904	918	913	877	847	851	863	863	846	823	818	837	870	907	925	925	905	878	878	874	880	893	899	895	881	886	886	881	877	881	881	892	913	926	931	931	920	928	925	928	918	897	883	883	875	866	856	850	866	878	881	875	866	861	860	862	860	856	865	865	888	919	939	933	926	920	905	884	875	874	901	913	918	916	909	916	916	924	923	918	897	895	900	905	912	937	970	993	1012	1012	998	982	974	970	975	978	1003	1026	1026	1026	1009	997	986	988	980	972	955	935	937	944	947	959	959	961	957	951	958	957	956	952	937	936	929	930	934	929	917	908	908	919	932	936	935	947	981	1024	1038	1020	983	960	960	945	948	956	970	958	945	929	906	901	913	928	937	945	950	949	955	968	976	967	959	948	941	937	948	947	948	956	958	972	982	996	1000	992	978	967	965	951	958	958	963	965	957	938	935	930	935	945	949	954	951	937	927	935	952	969	986	987	979	979	969	954	942	947	948	944	936	919	906	907	908	915	918	920	919	922	924	927	918	919	932	937	948	940	934	918	901	903	918	946	958	952	955	964	968	963	958	948	941	941	947	958	960	956	949	940	936	941	941	947	953	968	988	1004	1010	993	985	987	1012	1024	1016	1008	1014	1011	1000	973	955	943	959	961	958	936	936	945	977	982	969	964	956	937	937	925	921	923	925	922	912	901	899	908	918	917	905	882	881	896	907	910	914	914	914	895	895	898	907	906	896	888	888	878	860	866	871	875	873	868	864	870	870	881	894	903	903	893	879	878	884	895	905	915	905	905	897	892	887	898	917	931	931	929	905	885	887	884	880	874	873	884	880	879	875	880	888	891	885	869	866	871	863	850	845	845	849	851	857	854	855	858	850	837	822	822	829	842	842	847	866	865	854	872	876	888	890	890	883	870	868	855	819	802	810	827	851	865	871	861	848	843	846	854	856	856	851	827	837	852	864	867	854	839	828	829	848	865	862	840	840	822	814	817	825	835	853	852	847	844	831	815	809	813	813	826	832	830	839	842	846	832	818	805	793	794	794	799	799	808	811	821	824	820	813	816	840	840	855	859	827	822	831	840	829	821	815	815	818	836	841	849	855	852	858	859	859	870	875	857	831	819	819	828	846	846	857	875	873	871	869	859	847	847	819	816	820	837	874	892	887	887	870	842	820	821	822	814	802	802	796	793	814	821	818	816	816	819	816	803	785	777	781	781	806	812	818	817	808	814	814	822	834	842	822	792	792	779	778	774	775	793	821	821	838	831	818	799	794	794	802	813	839	847	853	853	860	837
0	0	0	0	0	0	0	0	0	0	0	0	0	0	0	0	0	0	0	0	0	0	0	0	0	0	0	0	0	0	0	0	0	0	0	0	0	0	813	808	825	825	842	879	891	0	0	0	0	0	894	903	922	951	952	939	941	906	886	879	874	874	861	845	828	828	826	826	830	844	878	904	914	914	903	889	890	886	880	876	868	875	882	882	896	905	913	918	913	867	838	838	850	850	847	820	824	857	887	919	918	927	910	878	878	871	878	895	899	897	883	885	878	873	874	886	886	892	912	922	932	926	917	928	925	911	892	885	877	862	862	858	851	847	861	866	875	871	866	860	846	847	851	859	876	876	897	919	939	937	925	904	882	872	868	877	893	894	889	891	911	917	926	926	914	904	897	895	871	870	888	902	913	912	931	937	937	948	963	951	948	935	957	978	997	997	996	981	967	958	955	959	955	941	933	947	954	970	976	969	948	928	924	927	926	925	923	922	917	933	941	941	930	922	924	924	937	938	946	955	979	1003	1021	1022	989	955	939	945	948	937	948	948	937	924	901	901	927	934	939	945	941	940	938	944	963	960	957	947	942	946	970	974	974	972	975	979	978	978	973	973	961	946	944	941	944	960	960	964	962	957	947	940	931	931	944	950	952	932	923	936	943	950	961	970	971	981	991	975	943	942	934	938	930	927	917	910	906	907	911	914	913	908	909	908	905	909	925	940	944	936	914	903	894	885	897	913	921	912	912	925	938	939	927	925	923	926	940	954	958	952	943	937	939	947	951	953	951	956	978	988	994	997	992	997	1006	1007	993	991	1001	1001	992	968	937	915	918	920	917	910	922	948	962	957	938	934	932	930	930	931	923	915	908	899	894	892	906	918	922	907	901	889	877	886	892	896	893	893	887	890	898	900	903	899	892	888	886	889	878	876	882	879	879	893	892	870	870	865	873	876	886	886	878	869	872	883	896	903	897	897	888	885	890	904	925	935	937	923	898	877	872	871	878	867	866	867	866	870	872	882	889	896	876	861	854	862	856	849	844	844	846	853	854	846	842	843	843	841	834	834	838	844	844	879	892	865	854	847	855	866	880	880	880	875	875	871	832	814	808	825	845	860	873	873	858	841	846	851	859	859	861	832	831	833	851	855	855	843	826	821	834	850	849	839	839	819	815	809	822	835	848	850	841	828	818	805	800	800	813	828	824	813	812	824	826	798	772	760	763	763	795	817	809	801	790	790	808	823	827	843	843	861	868	866	849	822	831	837	830	828	828	810	802	806	829	840	848	846	846	860	860	862	856	828	820	812	813	818	827	827	841	854	861	858	853	841	824	847	819	791	798	814	839	871	882	882	869	844	828	822	823	816	805	805	791	787	801	817	816	811	811	809	799	779	765	758	781	781	789	797	802	802	804	806	806	823	838	846	833	810	810	794	796	803	817	831	831	836	830	812	796	782	782	781	802	813	829	842	842	847	847	829
0	0	0	0	0	0	0	0	0	0	0	0	0	0	0	0	0	0	0	0	0	0	0	0	0	0	0	0	0	0	0	0	0	0	0	0	0	828	806	805	830	830	873	912	931	899	0	0	0	868	862	882	915	948	960	941	941	906	873	869	867	861	854	860	861	861	854	851	837	838	871	894	904	895	895	870	870	864	854	853	853	862	880	880	890	898	907	910	906	867	847	844	857	857	866	872	852	862	877	895	904	894	879	857	857	851	871	891	904	901	893	883	878	866	866	876	893	893	902	917	915	917	917	916	924	911	892	881	869	855	855	844	850	862	869	876	882	889	878	854	840	843	852	871	882	882	891	899	921	921	905	876	860	851	872	885	892	886	878	875	886	897	906	906	901	893	883	872	871	870	885	892	887	867	866	889	912	925	929	925	915	910	925	944	956	956	964	958	948	940	941	947	955	961	958	956	961	969	966	958	932	908	902	899	903	902	916	922	929	933	947	952	950	938	939	939	936	934	937	944	968	983	1000	1005	995	966	932	926	923	937	948	948	924	925	921	925	945	958	941	944	936	929	918	918	931	947	952	943	941	950	970	984	998	997	988	971	961	950	955	954	947	939	935	930	930	942	942	951	964	970	962	950	939	934	937	948	941	933	919	926	943	940	934	948	951	975	986	977	956	928	928	934	942	936	933	923	916	909	911	910	912	907	909	903	903	920	942	946	938	921	902	887	885	894	909	916	918	918	907	909	916	909	903	896	894	914	924	933	939	935	931	937	945	952	951	950	943	939	966	971	974	965	961	974	950	920	914	941	965	968	960	941	916	893	889	884	888	902	919	934	938	910	896	895	905	905	918	930	922	915	904	888	880	888	903	911	911	916	913	913	907	894	888	892	892	887	889	893	901	895	886	884	878	884	891	902	899	890	887	885	879	893	892	882	875	862	864	869	888	889	878	865	865	872	891	893	893	889	891	887	892	905	921	932	927	915	887	865	861	864	870	867	865	870	866	868	871	885	892	892	879	856	850	845	847	853	853	849	850	851	845	831	826	835	839	845	842	842	847	860	887	879	892	869	838	823	825	846	846	860	862	860	862	861	847	818	812	824	844	860	871	867	851	844	841	852	852	857	857	837	821	816	828	841	851	844	824	815	819	833	830	830	822	816	820	809	822	830	833	832	827	815	802	791	779	779	796	801	803	798	795	795	788	773	761	761	777	777	816	821	813	806	793	784	794	808	824	839	839	850	847	866	849	827	809	808	813	811	811	811	817	820	826	823	824	813	823	839	839	839	828	819	813	811	813	814	822	822	824	828	831	837	831	841	824	824	813	795	787	799	820	849	857	857	856	841	827	813	812	822	822	813	804	806	815	820	818	816	816	804	789	771	765	758	768	768	785	793	799	805	814	814	820	824	830	828	814	797	797	787	789	795	804	817	817	822	807	782	770	764	782	781	793	805	818	830	830	834	834	822
0	0	0	0	0	0	0	0	0	0	0	0	0	0	0	0	919	0	0	0	0	0	0	0	0	0	0	0	885	0	0	808	794	813	813	835	839	832	825	828	880	880	904	925	920	904	864	840	840	840	842	857	893	930	939	921	893	893	873	869	855	861	868	869	868	868	871	871	865	872	870	884	884	877	877	852	835	834	833	836	848	873	890	889	889	893	890	895	901	878	847	844	868	886	886	900	887	873	867	864	864	857	840	828	827	827	849	881	900	902	894	887	868	859	862	865	872	872	889	901	897	888	884	885	886	877	875	881	860	843	843	830	843	865	888	896	894	893	879	860	841	843	864	886	889	877	877	873	880	882	853	837	836	846	871	887	900	891	877	869	872	861	861	878	878	882	882	882	880	877	885	892	924	893	887	905	923	935	929	924	917	909	905	922	933	940	940	942	933	927	934	939	951	961	962	960	956	955	934	921	903	890	891	892	892	895	903	909	921	926	939	945	949	945	941	934	934	925	929	929	951	971	977	973	975	957	938	923	916	911	909	924	924	925	910	925	934	940	934	925	915	913	912	911	912	921	930	928	924	925	926	939	962	966	952	928	906	906	922	943	951	942	930	929	918	924	941	941	956	971	965	946	931	927	937	942	928	923	912	910	923	923	923	929	936	953	971	968	952	932	930	939	943	952	950	944	934	922	912	916	911	909	914	930	931	936	942	947	924	893	870	868	882	905	922	930	931	921	907	900	900	903	891	886	893	904	913	922	919	913	922	930	935	944	944	939	924	919	937	950	950	937	918	901	893	891	899	903	908	926	932	915	894	882	875	874	888	896	913	925	909	879	859	866	897	897	918	919	912	903	871	853	857	860	875	889	898	903	910	910	909	904	899	893	899	905	904	912	910	900	880	861	871	881	892	902	894	876	887	885	906	927	920	907	897	882	882	890	891	894	891	884	879	879	873	882	882	888	893	893	894	899	910	917	911	895	875	859	851	846	856	868	876	882	880	875	876	886	895	886	873	864	853	863	857	857	857	849	845	843	831	818	819	833	839	839	837	836	848	878	887	897	898	876	837	811	812	830	830	843	846	850	848	848	848	834	818	827	844	861	861	855	841	834	835	842	842	852	857	845	816	805	810	815	821	820	819	809	809	814	812	812	810	816	820	821	826	829	830	833	835	828	803	787	791	791	800	809	809	805	790	784	781	783	777	781	804	804	815	817	815	810	801	792	787	774	776	796	796	850	847	848	839	818	809	804	801	793	793	791	780	775	773	777	788	799	806	806	817	813	817	817	815	817	813	816	816	817	817	811	806	837	831	813	796	796	786	791	790	785	793	810	825	825	838	837	830	820	816	819	819	824	824	822	829	828	827	816	816	810	789	771	744	742	742	756	778	789	799	812	820	820	823	814	806	802	798	791	791	782	782	789	801	801	801	791	775	764	770	764	764	770	786	797	798	806	806	811	815	803
0	0	0	0	0	0	870	870	868	0	0	0	0	0	0	878	913	921	0	0	0	0	0	0	0	881	884	884	875	861	846	808	794	843	843	845	850	850	851	855	882	882	899	909	914	896	855	828	823	823	835	852	880	905	890	865	856	856	856	863	855	861	869	873	869	869	879	885	889	890	874	859	849	842	842	836	815	815	816	835	860	889	911	901	901	890	877	882	885	881	862	851	868	886	872	886	884	877	864	850	840	826	804	803	814	814	837	861	874	889	894	887	867	860	862	861	867	867	870	881	871	860	857	857	866	864	870	869	860	843	824	824	843	875	900	907	899	894	875	853	844	860	883	899	897	893	893	891	882	870	868	863	859	860	865	872	872	879	884	882	872	852	850	860	860	879	884	897	899	909	918	935	924	893	902	911	922	927	922	912	913	909	896	901	906	907	907	910	910	914	916	921	932	944	954	954	951	927	903	883	874	876	885	898	891	883	890	902	908	912	926	932	933	933	923	916	916	906	908	917	922	930	930	935	927	926	925	923	902	894	896	900	902	903	910	925	934	913	912	910	903	902	903	899	901	896	901	903	900	901	905	915	942	949	944	925	905	899	913	932	948	947	941	931	917	912	918	918	935	955	959	938	925	925	931	931	922	911	900	894	896	898	905	920	927	934	949	949	942	931	928	936	951	958	977	970	952	927	912	906	905	903	912	929	926	923	907	905	887	878	872	872	880	898	921	934	928	915	900	898	904	906	899	893	892	897	901	899	904	915	919	916	913	920	921	911	900	893	904	920	930	918	898	876	871	889	892	888	889	901	908	904	887	878	879	884	888	902	908	907	883	861	844	861	861	892	910	909	886	862	849	847	853	852	863	868	879	890	901	901	905	898	896	897	905	916	921	921	924	911	887	871	881	904	903	902	894	876	873	884	901	909	912	897	883	876	882	884	885	878	883	879	883	873	869	869	870	881	897	900	891	890	896	898	894	881	867	853	836	840	841	858	879	891	896	885	874	863	873	878	876	869	879	876	865	865	862	854	842	823	811	821	837	845	839	835	829	832	848	878	882	895	888	859	819	800	807	807	822	836	842	843	836	843	852	835	824	818	842	854	862	852	835	823	824	824	832	842	853	863	863	838	822	827	841	838	831	822	800	795	801	812	810	808	822	827	830	832	829	828	829	826	810	799	799	795	804	813	811	801	792	790	783	793	794	801	801	814	811	810	808	814	803	792	775	766	767	776	796	820	828	829	813	800	794	790	781	781	781	777	783	777	768	770	780	791	795	795	796	793	795	803	822	828	819	806	806	797	793	811	806	806	805	789	789	782	770	776	786	793	791	781	781	787	798	805	809	814	829	848	848	856	847	838	835	828	825	825	816	810	795	780	761	750	750	748	764	774	786	799	804	804	802	798	793	784	780	780	775	771	770	782	805	810	810	791	775	764	760	761	761	769	783	789	782	777	777	784	783	781
0	0	0	0	879	869	870	868	854	860	863	0	0	0	0	868	895	909	898	889	0	0	0	883	883	863	858	858	861	850	842	833	829	843	843	858	866	869	865	867	879	882	882	895	899	887	855	832	822	822	838	851	868	874	879	876	877	877	886	880	878	870	869	873	867	876	876	884	894	890	871	839	818	813	814	814	814	809	811	823	867	905	910	899	899	873	862	861	876	871	860	852	859	872	872	886	874	873	857	838	825	813	798	801	811	811	833	850	863	882	886	883	867	858	861	855	847	850	850	853	854	844	846	849	854	862	870	867	848	822	824	824	848	877	903	905	901	887	869	854	851	870	888	893	895	898	898	886	878	869	860	855	858	866	861	854	851	862	879	880	872	851	843	853	853	875	888	897	910	925	929	918	907	900	902	911	912	913	899	897	903	904	899	881	876	884	884	884	889	887	886	894	903	916	927	926	919	899	879	861	862	880	902	911	905	888	893	907	920	910	905	900	894	888	892	899	904	904	913	918	922	922	915	909	900	902	904	899	891	880	887	895	899	891	887	893	905	913	912	899	903	899	898	890	889	886	891	894	886	878	888	906	923	934	940	928	912	908	914	933	946	942	937	928	910	894	895	905	905	922	930	923	918	912	912	917	919	913	905	886	876	883	892	916	934	939	936	932	924	924	926	935	949	970	990	980	953	930	911	897	891	892	909	923	913	901	890	876	874	882	877	871	878	898	908	925	922	905	897	899	912	913	910	896	882	886	887	902	912	921	923	908	893	892	892	888	876	869	878	892	901	903	886	865	875	896	902	898	891	896	881	881	887	890	896	907	900	899	897	886	860	834	835	862	862	886	901	895	873	851	842	845	847	847	844	850	868	883	898	895	889	891	883	898	913	920	925	925	922	904	891	896	881	904	903	891	873	858	856	860	871	873	883	880	868	863	861	871	876	866	867	883	886	878	864	864	868	878	893	892	889	874	880	884	881	876	865	847	828	829	834	846	866	886	889	886	865	854	856	866	873	873	875	873	864	864	857	855	844	825	829	848	857	858	851	834	829	832	841	851	858	857	848	828	800	799	805	805	819	814	811	805	819	843	858	849	833	817	822	840	858	849	830	814	815	815	823	833	843	857	864	852	846	839	833	824	803	784	764	795	795	801	807	819	822	824	821	821	820	821	824	817	802	792	792	786	793	812	811	798	787	795	800	805	809	814	814	817	810	804	804	801	799	791	783	772	767	767	784	799	809	814	804	791	777	772	773	773	775	779	786	786	774	770	775	780	780	780	783	782	780	786	787	797	796	783	783	797	793	795	791	792	787	776	776	768	756	768	779	786	790	784	784	781	781	790	795	803	808	814	814	823	833	824	808	801	825	825	812	807	794	783	770	768	768	770	771	774	778	786	791	791	789	782	784	782	772	772	763	760	760	771	799	805	810	796	784	770	762	769	769	776	791	780	763	763	753	747	757	763
0	943	943	926	899	860	855	854	854	860	832	826	0	821	821	843	867	888	881	880	879	879	893	882	872	860	860	857	857	854	848	850	851	855	858	858	866	874	875	867	867	867	867	864	871	877	866	842	834	834	838	847	851	854	866	868	867	857	857	851	856	865	868	869	867	876	866	872	869	860	854	842	810	803	811	811	819	820	812	820	865	892	899	882	882	861	847	857	857	857	844	841	841	855	865	865	874	873	838	821	814	808	807	806	814	828	828	841	854	871	875	870	851	845	846	838	834	841	841	839	834	835	843	852	860	871	873	861	845	820	822	822	848	877	887	897	900	892	876	858	858	862	872	875	876	888	872	872	855	850	844	838	838	843	847	842	834	843	855	867	859	844	839	851	859	859	859	868	880	893	888	883	868	870	874	903	912	913	879	867	885	893	890	871	862	857	861	861	875	878	876	881	892	903	910	899	897	896	888	878	883	888	897	903	903	891	891	899	901	896	887	882	871	878	884	896	902	902	909	916	915	911	914	902	892	882	879	880	875	879	885	889	889	880	871	865	874	886	897	899	903	899	899	897	899	893	884	880	869	852	856	857	862	874	885	899	899	899	911	919	925	927	925	916	907	893	883	894	908	908	921	918	904	896	896	899	909	912	906	892	880	882	906	935	945	946	927	922	916	923	924	933	934	950	969	960	944	919	902	892	887	887	892	894	891	880	873	867	873	883	882	882	888	900	905	897	883	876	897	912	927	923	910	890	876	872	886	906	928	936	926	910	892	882	881	876	867	860	849	848	842	850	863	858	858	873	888	911	916	905	886	865	864	872	890	898	905	901	891	875	844	818	822	822	842	867	878	873	862	845	832	834	839	839	851	854	872	892	895	892	879	878	880	884	902	913	920	909	882	868	891	896	906	913	903	880	863	844	837	844	851	859	866	861	855	847	851	863	864	864	868	879	888	877	877	865	865	871	881	876	875	860	861	865	869	871	869	854	843	839	834	838	846	863	866	868	857	843	843	838	848	858	864	859	859	848	843	841	842	848	855	858	866	859	851	834	825	824	824	831	833	825	827	814	795	788	801	801	808	813	806	807	814	833	853	852	827	804	795	803	828	827	820	804	802	802	813	828	839	844	843	840	842	831	819	804	780	765	764	773	773	801	838	839	825	811	804	800	794	798	800	805	804	804	790	794	793	798	794	785	779	791	803	816	821	825	825	825	811	796	794	795	797	791	783	772	773	773	783	802	814	815	810	782	760	761	761	761	769	782	790	789	784	777	774	772	772	770	772	776	782	781	779	774	779	796	783	773	767	769	782	785	789	778	778	768	766	765	776	778	784	783	783	784	793	794	793	801	806	806	804	808	814	814	808	801	800	800	802	800	790	778	776	782	782	808	803	781	780	780	780	778	777	779	779	778	770	770	761	751	755	771	799	799	818	813	791	774	768	768	773	790	788	775	754	754	739	738	740	756
0	907	907	898	868	828	814	822	822	820	832	826	795	791	791	797	827	851	860	865	862	862	877	871	860	855	861	854	854	844	842	833	835	843	864	864	875	874	875	863	847	840	840	844	862	875	872	861	837	835	835	833	838	850	863	863	854	837	837	837	844	852	856	863	863	866	866	872	840	834	839	836	814	810	812	812	826	823	816	822	844	872	871	867	852	852	843	847	841	832	832	829	836	845	853	853	861	854	838	821	814	821	822	817	823	833	833	844	851	842	846	841	829	820	824	819	817	815	815	828	824	837	846	850	855	859	852	851	837	820	825	852	852	867	887	897	910	916	892	861	851	851	846	846	847	849	842	842	837	835	832	819	818	831	833	835	825	823	832	849	843	831	831	836	843	843	851	873	885	889	890	877	865	849	849	877	895	893	879	867	849	871	878	863	855	859	876	885	885	886	888	892	896	902	897	877	875	881	893	897	894	888	885	898	914	917	905	900	893	885	886	883	873	869	882	890	901	907	907	906	907	907	909	903	889	871	861	865	866	884	885	880	873	867	865	859	860	870	883	896	897	896	899	897	899	910	883	862	845	840	835	842	841	848	857	872	875	890	902	909	911	908	902	898	895	896	898	898	904	904	909	903	892	885	881	890	896	904	905	904	899	902	915	934	945	942	923	910	906	917	925	924	919	914	928	935	920	905	895	900	897	892	880	877	871	869	862	868	880	893	892	887	891	901	900	890	877	878	895	920	936	925	899	880	858	855	875	903	925	929	926	913	900	887	881	872	860	853	839	829	831	837	842	842	844	859	876	889	887	888	885	868	861	866	871	883	893	898	893	869	845	812	805	805	819	842	850	843	837	834	827	832	831	845	859	865	877	890	892	869	858	866	876	878	880	894	896	909	882	868	862	881	890	904	898	878	853	837	836	840	842	844	849	849	845	841	846	862	868	863	865	874	890	881	881	870	864	855	859	867	872	861	845	841	851	861	867	863	855	847	837	833	834	845	850	852	844	842	837	822	824	839	845	840	840	833	831	830	842	852	860	863	866	859	844	831	825	824	821	821	821	831	827	815	796	780	780	790	803	797	787	792	806	824	842	830	809	785	786	798	812	811	805	799	799	798	809	823	829	829	825	814	803	793	789	783	780	765	765	787	787	815	836	833	824	810	801	793	783	785	785	788	788	788	796	816	812	800	786	773	774	788	805	807	813	813	816	811	792	770	774	786	797	791	777	773	773	775	785	806	818	824	804	771	752	747	757	757	767	786	796	794	789	782	774	769	769	766	772	770	782	782	773	771	779	779	771	757	745	744	749	778	783	783	783	775	769	774	768	767	774	774	774	784	792	790	795	798	797	797	791	788	814	814	802	788	788	787	790	797	791	778	778	778	815	827	812	798	784	779	779	775	769	770	774	773	764	764	755	751	755	765	789	789	807	807	795	783	776	776	775	787	781	767	752	752	735	738	741	754
0	0	0	0	0	796	780	780	780	783	790	793	795	791	0	0	0	823	844	848	847	847	856	847	845	839	849	839	839	834	815	803	804	823	851	851	870	878	877	863	847	813	813	828	845	872	870	853	826	811	811	803	823	842	847	836	830	820	820	823	837	843	846	849	858	859	854	854	840	834	827	831	830	820	817	826	826	823	816	818	832	849	849	843	838	838	833	832	829	827	819	824	834	842	847	847	848	845	830	818	814	825	827	828	831	840	840	846	850	836	824	811	789	784	792	801	805	818	823	823	819	825	836	838	836	839	842	839	833	824	826	837	837	847	867	892	910	927	899	861	851	851	846	828	827	840	850	845	845	831	811	805	805	820	830	830	826	820	821	832	831	825	827	835	849	867	867	881	888	886	883	875	865	846	834	855	878	872	858	847	849	871	859	862	860	869	877	888	888	891	898	905	903	894	864	854	848	862	880	891	894	885	879	896	917	928	925	914	905	894	897	897	885	877	882	885	885	886	886	887	894	902	902	896	881	869	855	854	867	882	886	879	867	856	853	846	842	847	869	887	890	893	904	915	917	910	883	862	839	844	840	839	832	823	831	853	867	884	896	890	879	874	869	865	877	892	903	900	897	892	892	887	878	876	877	885	884	891	905	910	908	907	910	919	935	935	919	915	901	907	913	914	911	897	886	903	899	903	906	907	896	874	861	866	863	860	865	866	883	904	898	879	880	881	881	883	878	882	894	909	921	921	893	861	851	852	870	889	902	904	896	891	894	889	878	869	859	854	849	841	835	831	824	830	842	849	858	863	862	868	869	868	869	869	859	855	871	880	878	863	838	815	815	803	805	816	816	814	814	818	828	821	829	852	870	876	874	851	834	829	839	852	867	873	880	894	896	878	853	822	803	815	828	839	836	836	837	847	844	840	838	830	831	843	845	846	850	857	858	855	854	859	878	878	885	876	864	848	854	860	863	851	842	827	830	837	851	853	851	844	830	828	825	843	856	864	855	843	827	815	809	816	814	814	814	811	813	824	841	851	860	863	857	838	821	822	829	838	839	831	826	828	834	819	789	779	779	789	799	798	784	785	796	819	819	798	783	777	787	813	813	807	802	811	811	811	811	814	813	809	792	783	775	777	789	783	776	773	781	781	795	812	815	811	808	807	799	788	781	778	776	777	782	782	788	802	804	801	785	778	784	800	804	804	795	795	785	785	760	755	774	786	789	776	765	760	760	756	757	768	794	802	792	776	750	744	744	755	774	792	802	789	778	772	768	765	765	755	750	745	751	766	773	771	771	771	761	738	723	727	733	764	778	778	784	775	771	773	775	764	769	769	778	778	782	781	792	792	783	783	778	788	793	798	800	794	794	796	794	793	796	790	788	788	826	818	809	802	785	777	777	772	768	770	764	752	752	764	755	749	758	760	773	773	789	799	799	780	762	762	744	750	758	762	751	751	745	747	745	752
0	0	0	0	0	786	787	776	767	767	755	746	745	749	0	0	0	0	837	845	843	841	841	848	844	835	835	831	831	820	798	774	773	797	827	827	861	875	866	849	824	813	828	818	838	856	857	832	811	798	798	797	799	809	826	815	805	801	801	813	831	835	837	825	834	849	841	841	832	826	827	826	828	823	814	810	810	817	818	808	815	825	833	828	825	825	827	831	827	830	826	833	846	848	848	841	841	837	824	817	818	825	827	833	837	848	856	856	851	832	799	788	788	802	812	819	818	819	819	819	818	825	823	831	827	829	837	835	832	823	820	829	831	831	850	881	910	927	899	856	851	853	832	817	818	844	866	853	853	822	799	790	800	822	831	834	822	820	830	837	838	833	845	849	857	875	875	884	881	876	873	874	867	838	829	837	861	859	846	832	844	853	859	862	867	866	873	881	893	893	903	900	882	861	850	843	840	844	854	869	874	860	853	866	893	927	937	928	917	908	900	899	886	884	889	885	878	870	867	867	873	876	881	875	863	855	846	849	866	881	885	876	865	855	841	836	822	829	850	871	880	886	907	929	939	926	890	858	839	844	840	844	826	822	831	846	857	871	879	872	862	848	837	840	846	866	880	876	871	869	869	866	858	855	860	868	872	879	895	912	913	901	893	905	919	930	934	922	908	900	896	906	900	891	867	879	890	898	905	904	883	860	841	851	851	858	858	865	887	900	885	865	852	852	854	866	872	882	886	899	905	904	877	858	852	857	862	871	871	868	861	861	866	873	866	857	861	862	852	840	831	835	850	849	853	856	854	853	852	858	862	865	865	868	862	832	850	859	856	847	834	822	822	814	810	811	811	807	805	815	812	815	831	869	899	900	879	848	833	836	843	852	867	873	873	867	863	861	851	842	836	835	832	829	821	824	833	838	838	835	830	822	823	839	857	858	860	863	860	854	854	855	873	873	882	868	852	845	839	834	837	844	842	828	822	826	833	839	838	827	815	809	814	833	845	848	844	836	825	807	799	793	796	796	788	791	803	821	841	851	853	854	836	821	809	810	826	840	844	834	820	823	821	821	794	794	782	797	809	807	797	795	811	813	805	780	770	779	797	804	806	801	803	803	812	821	806	801	799	788	781	776	775	777	783	788	793	790	788	788	789	798	798	793	795	796	791	784	774	770	774	786	786	785	785	785	780	785	787	788	796	801	802	788	781	781	769	755	760	755	760	775	775	764	752	746	746	739	747	764	787	797	795	781	765	768	768	777	783	787	782	773	761	757	753	750	750	745	733	733	751	766	773	771	768	768	753	740	721	710	709	730	763	763	779	778	772	778	772	767	767	767	772	778	776	774	778	777	771	783	778	774	768	769	789	810	810	816	814	814	808	781	778	778	779	790	799	793	783	778	778	775	769	765	764	752	752	750	748	751	751	755	759	759	769	779	781	763	741	741	717	703	708	735	735	753	756	760	756	757
0	0	758	758	790	807	800	779	763	763	742	732	720	736	0	0	0	0	828	834	837	835	835	850	846	841	839	835	823	823	788	766	761	771	812	845	845	865	862	836	810	799	818	818	838	831	826	817	802	800	800	800	801	812	813	797	788	792	812	812	833	837	823	808	814	823	826	826	819	807	815	826	828	812	808	808	808	802	800	799	799	815	830	828	826	826	826	825	825	826	829	833	840	840	835	825	825	819	817	816	823	826	830	833	837	846	847	847	854	838	816	807	813	816	823	827	818	810	804	804	806	817	820	819	818	812	819	831	843	833	828	830	831	831	832	852	877	876	870	856	851	819	803	799	805	832	844	837	837	814	798	787	801	827	837	836	821	821	840	857	873	866	860	860	865	878	883	883	874	857	859	861	860	854	837	826	830	844	836	829	845	861	863	866	867	854	854	860	883	883	894	891	874	864	848	845	840	832	839	844	841	825	818	832	856	886	914	919	920	900	895	881	879	882	898	891	871	848	840	840	841	849	851	844	838	833	837	850	866	871	873	867	862	852	845	836	823	821	845	860	871	876	901	933	940	921	882	850	842	846	849	844	826	822	828	839	847	860	857	858	855	844	831	816	820	833	847	852	854	851	846	846	839	839	846	850	859	874	893	902	899	878	880	887	900	914	925	925	908	886	883	889	881	862	850	880	893	898	899	894	877	857	842	840	856	864	863	862	868	875	865	846	831	827	840	859	867	872	875	883	880	880	873	859	860	862	858	855	851	840	831	824	845	858	856	852	864	872	857	828	827	835	848	847	852	854	856	859	856	858	859	860	866	863	849	829	834	845	845	834	833	833	830	824	821	821	821	826	822	821	813	813	831	856	875	884	868	854	833	836	843	845	850	853	843	835	830	830	844	844	834	833	831	831	817	824	834	842	833	830	825	819	825	848	867	867	866	865	846	847	871	877	877	858	840	828	824	824	816	812	824	836	849	837	824	823	823	832	826	814	798	792	805	820	820	824	830	829	825	811	803	800	799	799	795	789	803	821	832	842	843	839	832	817	805	804	822	837	835	830	826	818	821	812	795	795	791	805	821	822	803	792	792	804	790	780	773	773	782	791	793	793	801	801	814	812	800	788	782	782	781	776	772	772	779	784	790	791	791	784	783	784	788	787	788	786	779	773	769	766	772	778	778	783	777	770	767	771	778	778	781	783	785	775	775	767	769	755	745	740	752	761	764	755	747	747	741	741	737	751	776	789	787	782	777	777	777	780	777	778	775	766	758	758	750	750	744	743	733	733	742	757	766	769	769	763	752	742	728	717	707	711	743	743	769	783	771	763	757	753	760	760	771	780	785	777	778	777	777	771	768	765	761	763	780	796	796	796	805	792	769	756	759	759	765	772	779	778	781	781	776	775	767	765	764	761	761	758	752	745	742	740	740	745	748	759	762	752	752	733	711	704	719	740	740	757	767	755	756	757
0	0	757	757	798	804	795	786	770	770	762	752	748	759	0	0	0	799	828	834	838	836	836	835	841	837	834	834	817	817	791	776	767	774	786	822	822	842	844	816	797	797	810	810	828	831	810	802	804	819	817	817	814	810	792	783	778	793	819	819	837	832	810	799	793	799	800	800	799	792	795	808	815	812	808	798	798	793	781	777	781	809	813	817	807	797	797	788	786	794	801	809	815	818	818	804	804	797	804	805	814	823	833	833	829	846	847	838	838	835	829	820	822	821	821	819	797	787	781	792	792	801	810	809	797	790	787	801	825	838	841	840	840	840	820	778	765	762	781	817	833	819	803	778	788	804	820	820	814	814	806	807	825	842	845	826	815	820	834	858	866	866	869	870	871	876	872	872	862	843	840	852	860	862	863	849	825	817	827	839	857	864	871	866	857	854	854	858	871	885	885	883	875	862	855	848	840	830	830	837	833	814	800	802	820	844	852	849	844	848	866	863	870	884	889	868	848	832	832	848	848	854	830	821	821	825	839	843	846	849	850	846	835	854	864	845	829	825	834	847	857	866	873	876	870	851	835	830	835	846	860	847	840	827	828	839	847	837	843	845	850	846	829	810	806	815	832	842	845	848	842	842	833	828	828	840	845	863	879	882	875	860	854	865	872	884	893	906	898	887	870	856	849	839	855	871	891	901	899	899	887	866	854	849	860	861	865	860	864	860	847	830	823	825	845	869	878	875	874	871	866	866	871	857	861	863	859	853	837	823	809	811	822	841	844	845	863	866	864	829	821	815	818	832	847	852	855	860	862	857	851	852	856	855	831	821	821	827	831	828	829	829	837	839	836	833	842	847	850	836	822	819	826	836	875	884	868	854	843	840	842	829	824	821	823	823	827	830	831	837	827	824	825	828	827	833	837	837	835	822	818	819	832	853	855	855	853	846	826	818	838	863	863	858	837	813	803	798	790	795	819	845	855	849	833	822	822	822	817	806	798	799	800	801	800	801	810	821	818	813	806	807	807	809	795	789	800	817	824	824	822	826	821	812	804	803	812	822	822	820	817	826	822	808	808	799	802	802	794	780	770	766	776	790	798	791	788	780	769	769	777	782	793	793	795	794	785	778	769	782	778	770	765	764	769	775	776	776	776	773	771	778	781	784	781	772	759	754	756	759	766	775	775	777	774	772	770	773	771	762	759	761	763	762	762	767	751	739	736	733	743	750	756	751	753	753	751	748	749	748	760	775	775	770	773	773	776	776	773	770	766	761	756	757	751	751	744	743	727	728	737	750	760	759	759	752	749	750	742	734	723	722	722	751	785	795	777	755	736	742	742	756	774	785	789	777	778	777	777	771	764	757	754	756	759	759	762	776	789	778	752	741	741	741	752	764	771	776	780	780	777	775	767	764	767	769	769	768	755	743	735	736	736	736	742	746	741	741	741	731	715	716	728	751	751	763	767	755	751	742
0	733	771	771	785	794	791	791	795	795	801	801	800	804	802	807	807	808	826	839	838	836	816	812	817	814	816	812	801	801	791	784	791	786	784	789	789	803	804	792	790	791	803	803	814	812	810	802	807	817	826	826	816	807	792	768	767	792	816	816	828	817	804	798	789	788	784	777	777	770	764	776	784	789	793	798	793	787	777	770	769	783	791	794	792	794	794	787	781	779	789	792	801	799	797	790	782	782	784	789	801	813	826	828	838	841	847	838	838	818	821	820	822	816	807	787	774	759	761	785	785	806	803	788	771	763	786	811	826	832	830	828	818	810	810	786	761	762	770	794	816	813	791	778	788	772	788	801	811	811	813	824	843	852	848	832	821	823	831	844	852	857	865	867	867	868	862	843	843	829	818	838	864	883	880	863	849	831	831	840	857	870	877	866	850	846	846	858	871	869	869	876	871	854	842	832	828	839	846	848	839	819	801	802	816	829	830	817	809	812	817	848	861	872	855	849	840	835	846	864	864	864	846	820	808	812	821	828	818	810	798	800	812	836	850	845	834	825	824	837	837	844	855	854	833	825	819	819	831	852	861	858	845	832	834	832	831	837	843	845	850	838	824	813	807	815	826	844	847	849	846	845	845	843	831	819	820	836	853	860	851	829	831	836	842	856	866	889	908	920	901	866	847	840	852	869	883	890	899	901	895	876	870	865	864	861	858	858	851	847	835	827	824	833	860	876	889	884	863	868	862	858	857	853	856	854	861	862	850	831	817	821	835	844	853	854	855	860	843	830	806	785	776	790	802	805	798	801	805	815	826	833	840	840	839	822	817	821	824	827	827	831	840	840	833	830	844	856	853	837	822	819	826	836	841	831	823	824	818	801	800	794	805	815	823	829	834	843	842	837	831	825	830	826	827	830	832	829	821	804	801	811	830	844	844	844	836	830	817	815	827	827	850	871	858	838	823	818	810	804	817	832	843	843	833	826	818	813	810	808	805	806	809	801	795	797	798	810	807	802	797	798	807	809	799	792	791	805	809	806	801	804	804	802	801	804	804	798	801	801	796	802	814	806	806	807	806	802	790	772	764	763	779	793	796	794	792	797	780	765	762	766	766	771	772	770	761	778	769	766	765	759	752	751	754	761	766	768	768	760	762	767	772	779	781	770	757	753	751	749	756	756	767	770	767	770	771	773	770	759	744	743	749	762	762	759	745	740	728	732	736	744	747	754	762	762	767	761	752	749	752	759	762	762	764	764	765	773	774	768	764	759	759	754	751	751	745	732	720	725	733	749	755	751	751	745	747	755	755	751	742	747	747	763	753	753	753	759	768	746	746	753	765	785	789	777	776	776	776	771	759	750	746	746	754	754	755	761	768	759	741	726	726	729	737	749	755	762	771	780	777	767	758	759	766	766	776	767	738	713	715	730	730	737	738	734	726	707	707	710	720	729	726	745	751	763	773	763	753	748
745	759	789	791	791	790	789	798	803	813	813	829	828	817	814	813	813	824	834	837	827	816	812	812	780	785	791	795	778	778	784	793	796	788	776	774	774	785	778	781	783	783	797	791	791	791	790	792	807	817	818	818	811	802	790	767	769	780	817	823	823	818	799	792	784	787	786	771	771	752	742	749	760	777	779	788	787	787	777	778	770	768	762	770	777	786	793	793	783	784	791	800	808	803	793	778	775	775	769	769	776	795	814	826	847	839	823	819	819	818	803	799	803	801	792	772	757	759	775	806	806	814	812	807	797	794	799	815	825	831	830	824	815	806	806	790	761	758	772	798	819	814	794	768	766	772	788	776	785	797	797	812	834	839	839	835	828	831	823	828	834	843	850	857	858	859	837	820	820	814	820	838	865	878	873	866	850	838	842	849	858	870	865	855	842	838	840	851	859	869	876	876	849	831	816	804	814	841	852	856	842	825	812	806	813	820	824	817	815	816	824	839	849	850	843	828	829	834	851	862	865	865	844	816	799	800	804	807	799	790	782	781	791	805	823	833	826	821	814	824	822	833	831	837	826	813	817	818	841	862	876	872	859	848	825	820	816	823	829	837	838	838	824	813	807	812	822	839	848	846	836	835	835	833	826	808	803	819	839	845	838	827	814	814	828	837	852	878	907	915	893	860	846	843	850	862	872	876	878	890	882	882	881	878	877	865	859	861	857	852	841	835	839	844	861	880	883	870	855	843	845	848	850	844	838	850	867	871	852	832	820	823	825	836	846	854	849	838	834	833	819	794	787	795	804	806	794	783	782	784	794	801	817	835	846	851	845	836	829	833	833	829	818	809	803	805	813	856	853	837	822	817	819	824	818	812	802	803	794	776	767	778	795	809	827	837	847	860	863	858	840	832	832	828	817	813	796	799	803	798	790	788	799	819	835	835	829	820	812	812	824	824	845	846	833	824	813	809	805	806	804	816	825	831	823	813	807	804	805	804	807	818	825	814	805	801	789	797	791	788	797	797	798	797	801	797	795	794	792	787	785	787	787	783	787	794	792	786	772	773	775	780	786	798	798	800	799	803	787	769	765	761	773	782	789	791	795	800	780	767	752	752	752	753	760	770	761	757	748	743	732	720	720	726	745	757	759	759	759	755	746	751	758	776	780	773	764	754	751	753	751	751	756	756	761	764	771	776	772	760	741	743	749	749	750	749	750	742	730	733	734	730	733	745	745	765	778	772	760	745	744	747	741	745	751	751	760	769	772	768	765	758	759	754	754	746	728	720	721	728	744	757	758	758	755	747	746	749	762	762	760	754	754	764	753	748	747	758	763	748	748	753	765	768	761	762	769	773	773	773	756	742	736	736	740	740	744	748	752	742	727	719	719	720	726	736	739	762	771	771	765	755	745	746	756	756	761	758	734	713	715	731	731	736	738	719	711	706	706	721	725	731	726	745	745	771	775	774	771	771
745	781	793	796	796	790	791	788	792	815	815	837	837	821	817	825	825	837	844	832	810	794	784	784	780	785	768	768	767	768	768	784	794	791	773	791	791	791	792	794	786	789	791	771	771	763	764	785	796	810	818	811	789	788	786	776	779	790	807	815	815	812	800	788	785	781	784	777	777	755	744	742	758	765	772	786	790	790	792	778	770	754	741	751	767	788	804	804	797	793	802	817	819	814	803	785	778	778	770	765	770	781	811	839	844	831	821	817	811	811	803	799	762	763	766	773	776	780	797	815	814	814	810	802	803	800	798	812	825	831	830	827	810	798	788	788	775	761	771	798	817	810	797	765	748	747	757	776	770	783	783	796	810	820	828	825	833	840	840	832	823	833	845	847	849	838	829	823	823	821	826	840	861	872	865	854	840	840	848	855	862	859	846	834	833	839	830	839	842	844	856	856	849	831	794	788	797	830	843	845	837	829	817	811	808	807	820	824	825	824	829	841	845	839	820	810	814	823	839	853	851	830	830	821	812	806	801	796	786	776	768	771	782	791	809	824	823	824	819	825	832	834	828	825	822	816	802	798	803	821	830	827	823	810	810	812	812	824	831	839	835	825	814	804	802	812	822	839	848	844	827	829	829	829	825	804	807	813	831	840	841	830	827	821	816	819	830	862	885	903	893	856	841	842	844	852	861	863	857	860	859	849	857	862	866	856	847	841	848	848	843	845	842	847	861	876	875	859	839	824	829	829	831	831	834	850	866	860	844	821	806	811	819	827	833	827	815	822	828	831	822	810	799	801	806	807	797	781	777	783	792	799	812	837	848	850	839	818	787	787	796	799	807	809	803	805	813	846	836	827	813	813	808	808	813	805	800	797	785	771	758	770	789	806	821	839	864	871	863	830	818	827	836	831	819	804	789	798	810	807	793	783	786	794	819	832	822	815	806	804	804	822	833	829	821	810	799	795	794	791	788	787	798	801	800	791	785	788	797	798	810	818	824	822	808	790	782	784	791	788	781	781	778	785	793	795	797	791	785	780	781	779	777	767	765	777	778	778	770	762	765	772	773	773	775	785	794	795	786	769	759	756	762	770	775	775	775	770	772	753	740	740	743	753	760	762	761	754	739	719	707	714	724	734	741	748	748	748	748	746	744	754	762	772	778	779	774	767	762	759	752	752	746	746	753	762	766	774	767	760	741	739	739	739	738	737	742	740	735	733	729	732	732	746	746	765	781	780	759	741	736	737	733	729	729	731	740	747	757	757	761	758	759	758	758	743	727	713	712	730	744	757	757	757	759	744	733	738	761	769	768	761	761	765	780	771	748	730	730	748	748	750	747	743	734	734	747	747	758	763	757	748	731	727	730	730	741	747	743	737	729	717	717	719	724	736	739	748	748	758	763	756	734	729	734	734	743	746	741	741	740	740	731	718	709	711	723	723	725	725	725	731	732	732	715	727	747	743	720	720
757	781	793	797	797	797	792	785	787	806	806	822	830	821	812	826	839	839	839	813	793	781	770	770	766	762	768	768	757	761	761	772	785	785	799	805	810	810	805	811	819	818	789	760	760	746	754	767	782	791	797	789	789	788	785	790	796	811	812	804	804	789	784	785	798	813	796	787	769	769	765	757	765	769	771	780	787	783	783	778	766	754	733	742	767	795	804	804	803	796	806	815	816	811	796	786	782	777	777	774	772	791	822	845	827	817	817	816	807	807	787	767	762	763	761	768	782	788	807	816	811	811	803	802	801	800	798	816	826	831	826	814	809	797	786	786	777	774	780	790	803	804	795	780	754	743	745	763	770	783	784	784	801	811	819	817	827	838	851	849	838	834	838	836	832	825	826	830	830	830	834	839	841	845	845	834	825	832	842	855	853	840	827	818	824	826	811	812	825	829	830	825	825	810	794	788	797	806	821	826	827	823	817	813	806	804	813	820	825	828	825	827	822	822	812	797	795	807	820	828	826	822	822	828	831	832	837	819	801	789	775	781	788	794	803	812	823	825	831	831	837	834	826	810	800	792	787	785	793	807	819	819	810	809	800	802	807	824	843	840	839	829	821	805	798	799	806	828	848	844	827	829	829	826	830	829	834	825	825	832	835	832	823	811	803	801	813	837	856	838	830	828	830	831	827	834	838	840	833	824	816	831	840	848	849	844	835	826	825	834	841	839	835	833	837	838	831	831	823	796	784	778	792	810	828	837	844	839	819	800	795	798	805	809	805	802	791	788	810	822	818	816	811	811	818	810	793	782	770	772	782	792	815	820	831	832	818	787	778	787	796	799	807	811	817	822	813	813	811	810	802	796	796	803	810	802	798	790	786	788	791	817	838	831	811	796	790	796	814	823	820	827	835	832	819	792	781	795	821	819	805	784	782	790	806	819	816	810	796	796	792	798	808	813	811	801	792	784	775	777	771	770	773	769	770	767	761	764	771	787	795	801	814	816	802	784	782	784	782	774	774	765	764	773	790	805	809	805	796	788	783	783	776	761	757	762	769	778	771	764	760	762	763	763	768	771	783	793	780	766	751	751	755	762	765	765	762	764	766	760	741	740	743	755	766	773	770	754	735	717	712	722	735	742	746	744	735	735	729	730	746	763	773	777	777	775	772	771	771	764	764	757	748	749	753	758	764	774	767	759	751	748	744	744	735	731	734	742	741	735	736	736	748	755	755	757	745	745	755	740	735	731	733	730	730	731	740	756	758	757	761	761	761	762	762	756	745	736	729	726	738	751	755	755	748	732	723	737	763	781	782	782	768	755	737	722	711	730	730	730	734	733	731	723	721	720	724	724	731	745	750	746	722	716	716	726	741	747	745	741	735	735	730	725	724	728	727	730	730	744	760	760	740	724	723	723	733	738	741	746	742	742	722	707	708	731	740	740	725	725	723	723	725	725	720	720	728	717	695	695
769	783	791	797	797	797	794	789	790	802	802	814	815	813	816	823	824	824	819	797	802	794	782	782	761	755	757	760	757	761	758	767	781	791	804	809	812	812	807	819	811	803	783	761	743	743	743	752	769	770	771	771	771	781	785	790	785	796	801	797	797	778	773	791	821	821	801	783	774	774	774	775	771	771	766	774	779	768	768	763	754	741	733	742	774	789	785	784	784	774	773	783	795	785	779	783	791	783	783	780	783	807	838	842	824	819	813	806	798	798	779	762	752	754	761	768	782	791	805	811	805	802	802	804	809	785	749	743	751	782	800	800	803	795	784	784	779	773	774	783	801	805	805	796	790	785	771	767	768	780	784	784	802	809	811	810	813	828	834	843	844	844	842	828	823	820	823	828	839	839	839	829	816	804	805	807	805	815	828	840	836	824	811	811	812	811	798	795	802	812	815	813	813	807	795	792	797	806	794	802	808	808	811	808	795	791	797	809	818	811	806	797	801	802	801	790	786	791	803	812	813	814	826	826	847	851	842	837	823	809	800	792	798	796	796	803	815	835	845	847	841	830	821	798	781	774	779	778	789	806	807	806	812	803	791	789	803	822	838	838	842	843	833	820	804	804	811	829	841	838	827	830	826	830	830	829	834	825	809	820	828	829	812	803	792	795	803	806	801	786	789	792	806	810	796	793	805	813	801	796	800	811	822	826	832	832	826	815	805	809	818	819	816	813	811	817	819	800	793	784	775	778	788	796	802	808	801	813	815	797	785	792	793	790	791	785	785	784	782	790	797	806	817	826	825	816	795	782	769	768	778	795	803	807	831	832	818	787	787	778	788	788	793	800	814	823	815	811	809	809	801	791	789	796	797	793	793	794	793	807	817	824	828	826	820	813	812	817	823	829	824	821	808	796	781	771	781	797	803	802	796	791	793	795	798	809	807	796	785	785	776	770	778	785	793	794	786	772	770	764	760	760	769	769	763	757	758	763	769	782	788	789	799	799	802	784	777	779	777	767	767	761	762	780	799	811	817	815	801	789	787	782	777	771	760	756	757	765	773	762	758	760	760	759	759	766	778	786	777	766	751	744	744	747	752	752	749	755	754	760	741	741	749	763	771	770	764	749	731	719	719	730	743	751	757	746	746	736	738	751	764	770	774	773	765	763	763	762	763	758	758	756	756	755	751	753	764	768	764	756	751	753	753	749	743	738	737	743	741	741	743	745	736	736	731	733	738	743	743	733	728	726	725	729	729	733	739	756	758	773	786	771	773	773	780	789	783	782	776	759	733	739	739	731	723	713	720	738	763	779	781	781	770	760	730	722	711	713	713	713	718	725	726	732	727	720	721	721	723	726	729	724	707	713	713	724	736	748	748	741	736	736	730	725	723	725	724	727	727	742	757	761	743	725	725	715	726	728	734	738	739	739	719	707	723	733	740	740	734	726	723	716	721	721	721	725	716	706	685	685
763	766	789	795	797	797	794	815	805	792	788	788	799	811	816	820	817	817	804	800	804	809	805	785	785	765	755	750	757	758	758	776	787	793	798	795	794	794	803	797	795	783	773	752	735	735	734	742	755	760	765	767	771	771	776	783	785	796	783	777	769	769	785	801	820	823	809	789	776	776	779	783	789	787	782	788	778	773	773	752	739	733	735	752	774	789	768	758	758	747	740	743	752	755	769	779	782	783	783	778	783	803	824	834	823	814	810	806	799	779	779	761	753	747	759	768	782	791	801	810	806	800	800	791	784	771	753	752	754	759	775	797	800	796	782	774	774	767	774	783	799	806	807	806	814	817	807	793	780	786	794	794	802	809	797	796	800	804	806	810	830	835	828	815	809	804	806	813	824	831	831	820	790	789	796	800	799	803	809	816	811	807	802	803	801	788	782	783	790	802	810	819	815	815	807	800	795	796	794	802	790	793	801	795	783	776	779	789	797	796	792	791	791	792	790	785	780	779	793	801	800	807	826	826	836	841	845	844	836	828	822	810	809	805	797	793	805	826	840	836	831	823	813	799	778	768	780	779	790	797	804	809	808	796	783	782	796	816	822	827	839	842	831	817	806	808	816	818	824	829	822	820	819	825	825	832	830	808	809	820	828	829	812	803	778	780	791	791	787	781	780	776	785	773	772	790	798	801	788	785	795	798	805	804	808	818	824	813	806	805	814	817	810	806	805	809	807	790	788	795	787	788	783	778	778	779	779	794	804	810	809	811	810	801	795	800	799	813	801	779	789	810	823	824	827	814	798	776	769	768	778	795	803	807	801	794	806	792	792	773	769	775	781	789	807	816	812	806	810	809	801	788	788	791	792	789	783	790	812	811	807	807	815	821	815	819	816	821	824	823	821	818	803	790	779	768	780	787	792	794	789	784	781	789	796	797	799	790	790	778	765	758	760	761	769	772	774	769	770	766	755	754	768	777	762	753	754	761	771	784	787	796	799	799	783	765	762	765	765	765	766	759	763	776	789	799	813	802	799	788	777	776	778	777	769	758	752	758	757	758	758	768	768	772	768	769	776	783	779	764	749	740	733	737	737	730	731	755	754	756	756	756	756	762	766	760	762	748	737	727	729	741	752	758	758	749	749	742	741	744	755	763	759	747	744	751	756	754	755	755	750	748	750	746	751	753	761	764	761	752	745	749	749	751	748	747	745	739	740	736	736	734	717	717	718	729	736	739	744	733	724	725	725	725	724	733	739	741	751	774	763	747	742	742	761	772	777	770	770	778	750	728	728	714	708	707	705	727	753	776	780	780	768	752	730	715	707	717	723	723	730	736	738	739	741	739	739	734	731	725	724	712	708	718	718	725	734	742	748	745	736	736	736	733	726	721	716	715	715	730	736	730	718	710	710	712	714	717	723	728	728	727	721	713	723	733	739	739	737	726	722	718	715	715	728	729	717	700	700	679
758	753	764	798	808	808	823	815	805	796	794	794	800	813	818	822	807	807	803	797	799	802	801	788	788	763	758	757	767	777	776	776	787	784	781	767	767	778	778	784	782	776	765	740	723	723	717	731	752	774	778	776	763	763	766	757	762	770	783	777	767	767	771	786	808	817	812	795	779	776	776	782	794	808	810	805	799	779	750	750	727	729	742	765	779	774	768	758	734	722	717	723	738	747	757	764	758	762	758	758	765	777	808	818	816	809	808	811	810	807	807	782	767	767	769	774	782	791	801	796	789	783	783	780	778	770	767	765	765	762	760	768	781	781	782	773	773	777	774	771	779	801	806	807	810	814	808	801	791	796	804	810	810	804	797	796	789	780	772	776	807	818	810	800	792	782	789	805	821	818	818	809	786	780	804	812	802	799	796	801	797	800	793	786	780	780	774	770	780	800	817	829	825	825	816	804	797	787	785	786	790	793	785	780	764	758	774	794	796	794	790	787	789	783	783	784	785	781	796	806	807	807	818	824	824	826	829	838	844	839	832	833	831	824	810	795	798	817	820	819	817	813	810	804	807	813	815	806	802	803	809	818	820	808	789	793	795	809	810	818	825	834	822	804	806	806	802	798	799	806	806	805	809	813	811	811	797	783	792	803	816	821	804	787	778	780	791	791	787	781	780	768	772	768	763	782	787	790	786	784	790	795	791	789	793	804	811	812	806	803	810	816	814	800	803	806	800	783	785	789	794	791	785	769	750	746	757	772	788	807	822	834	838	824	817	811	810	812	808	803	802	810	823	824	827	814	798	776	771	768	780	792	800	799	793	792	791	791	803	789	780	769	772	785	796	807	799	798	803	800	791	778	783	793	788	778	769	770	794	805	793	787	789	811	811	809	806	793	792	784	792	784	770	762	757	748	756	769	771	778	777	777	783	787	789	790	792	786	786	772	761	758	753	749	744	746	756	755	765	762	753	752	758	761	750	744	742	755	768	784	787	796	797	787	777	762	757	754	754	754	760	757	761	764	771	782	792	795	789	781	778	774	770	773	768	756	746	741	745	750	758	758	769	771	767	765	765	766	756	752	745	742	745	745	746	744	731	736	746	756	756	761	759	759	762	757	746	731	724	724	713	709	710	716	732	732	732	729	730	732	734	741	735	729	734	737	738	738	739	739	738	738	750	746	739	743	749	755	756	742	738	738	736	738	745	745	745	740	732	731	732	728	719	719	716	727	735	742	748	748	744	737	730	725	724	722	722	718	732	756	752	732	729	729	747	760	763	768	766	760	750	726	726	710	710	723	726	737	732	742	742	755	768	752	731	709	705	716	716	736	742	744	743	739	742	743	743	748	744	740	723	713	712	712	718	720	726	733	748	745	738	738	737	732	722	714	707	707	705	714	715	718	704	696	696	704	711	715	711	714	714	715	721	713	714	733	733	728	717	715	718	721	721	720	729	729	715	704	704	692
