162	161	161	162	163	162	162	164	164	164	161	161	163	162	163	163	164	166	166	167	166	166	167	168	167	167	165	165	164	164	164	164	166	166	166	166	166	166	165	168	169	166	165	165	165	164	167	167	165	165	165	166	168	167	168	169	168	167	167	167	167	166	165	167	167	167	168	168	169	168	167	170	169	168	167	168	169	169	168	168	167	164	165	166	168	168	168	168	169	168	168	170	171	171	171	170	169	169	168	169	170	169	169	170	168	168	168	168	168	169	169	169	171	171	171	172	171	171	169	170	171	172	171	173	173	171	171	173	174	172	173	171	170	170	170	170	170	170	171	171	171	170	172	171	172	174	172	171	170	168	169	171	170	170	171	173	173	173	174	175	175	174	173	173	173	173	174	174	173	173	173	173	173	173	174	174	177	172	175	175	172	172	174	174	174	174	173	173	176	176	174	173	174	174	173	173	176	176	175	176	175	174	174	174	176	176	176	175	175	175	174	175	175	174	175	173	174	175	175	174	174	175	175	175	175	174	173	172	174	176	175	174	175	175	175	175	174	174	174	177	177	177	177	179	177	176	177	176	177	176	176	174	175	176	176	174	174	174	175	175	174	174	174	174	174	174	173	173	175	175	174	173	172	173	174	174	177	176	174	174	175	175	176	176	177	176	178	175	174	175	175	175	175	176	176	176	175	175	175	174	175	173	176	178	177	178	176	175	175	175	176	177	176	176	176	177	176	176	175	175	177	176	176	175	174	175	176	175	175	176	176	177	177	176	175	176	177	176	175	175	173	177	176	175	176	177	178	176	175	174	174	174	174	176	176	176	175	175	175	176	176	176	175	177	176	177	177	176	175	175	175	175	174	174	174	173	174	176	174	175	176	175	175	175	174	174	175	175	175	175	175	176	174	173	173	174	172	175	176	174	175	179	178	179	176	173	175	174	174	173	173	174	175	176	176	174	173	173	173	173	171	173	173	174	174	174	172	172	172	172	172	173	174	174	172	171	171	174	173	172	172	172	174	174	173	173	172	172	172	173	173	175	175	173	173	173	172	172	172	174	173	173	171	171	171	172	171	171	170	171	173	171	170	171	171	171	171	172	173	174	174	173	170	172	171	171	172	171	170	170	168	168	169	168	167	172	173	171	169	172	172	172	171	168	168	171	171	172	171	170	170	168	170	168	169	170	170	169	166	166	165	168	168	167	168	168	166	167	166	165	162	164	166	169	169	171	169	170	170	171	170	169	167	167	167	165	164	167	166	166	165	165	166	165	167	165	166	166	166	166	165	165	165	164	163	162	163	162	163	166	167	167	166	164	164	164	164	165	166	165	164	164	163	164	164	165	166	163	163	165	163	162	161	161	161	161	162	162	163	164	164	163	162	162	164	161	161	160	160	163	161	161	162	162	161	161	161	162	162	162	162	159	160	162	161	160	160	159	159	160	160	159	160	161	158	157	157	159	0	0
162	163	163	161	161	161	161	160	162	162	161	162	163	161	161	162	162	163	165	166	166	165	169	165	161	161	161	163	163	164	164	166	164	165	166	164	164	164	163	167	167	167	165	165	164	164	166	165	165	165	164	164	166	168	168	169	167	166	167	167	167	167	167	165	165	167	166	168	168	168	168	168	169	167	168	168	169	168	168	168	164	167	169	168	168	168	168	168	168	167	169	169	170	168	170	169	169	168	169	169	169	169	169	170	168	168	168	168	169	169	169	170	172	171	171	169	171	171	170	169	170	170	171	171	171	171	170	171	170	172	171	171	169	170	170	170	171	171	170	170	170	171	171	171	172	172	172	170	168	169	169	171	169	169	170	171	173	173	174	174	174	173	173	174	173	173	173	173	171	171	171	172	173	174	173	171	172	171	174	173	171	171	174	172	172	171	172	173	173	173	170	174	175	173	173	172	174	174	175	175	175	174	174	173	176	176	174	173	171	172	173	174	174	174	174	173	173	174	174	173	173	174	174	174	175	174	174	174	176	174	173	173	173	174	174	174	173	173	176	174	175	175	176	179	177	177	176	177	177	176	176	176	176	176	176	174	172	174	173	173	171	171	173	174	174	176	174	176	175	175	175	174	174	172	173	175	178	177	174	175	174	175	175	176	176	175	174	175	175	175	175	175	175	176	176	175	174	175	175	175	175	174	175	177	176	175	175	175	175	175	175	176	176	174	175	176	176	176	175	175	176	176	176	175	175	175	175	175	174	174	176	177	177	176	176	176	176	176	175	175	175	176	175	175	176	176	176	175	173	173	174	173	174	175	175	174	175	175	175	175	176	175	175	175	176	176	178	176	175	174	175	174	175	175	174	173	172	175	173	175	175	175	174	175	174	174	174	174	175	175	175	175	176	175	173	172	173	175	176	176	175	177	176	177	178	176	175	176	174	174	175	174	173	174	177	175	171	171	172	173	173	173	173	175	174	174	174	174	173	172	173	174	174	174	170	172	171	173	172	172	172	172	174	174	172	172	168	173	174	172	174	175	172	172	172	172	174	171	172	173	173	173	173	172	171	171	170	171	171	171	172	171	169	170	171	171	172	172	173	173	174	170	170	171	171	171	172	171	172	171	171	167	169	168	167	172	170	169	170	171	170	168	168	168	168	167	169	172	169	170	170	169	168	168	168	168	167	167	166	165	168	168	168	167	168	167	166	166	167	164	163	164	165	167	167	170	169	169	168	168	166	168	166	167	166	165	164	166	166	165	165	165	165	165	167	165	166	167	167	166	165	165	165	164	163	163	161	162	162	161	166	165	164	164	164	163	162	165	165	164	163	162	162	163	163	164	165	165	163	165	163	162	161	160	160	161	163	163	164	164	165	164	163	164	164	161	160	160	160	160	160	159	161	160	160	161	161	161	161	160	162	161	160	160	160	160	159	159	159	160	159	159	159	160	159	159	159	160	0	0
162	163	161	161	165	162	160	160	162	161	162	160	161	160	160	160	160	162	163	165	165	165	165	163	162	161	161	163	164	165	165	164	164	163	163	162	163	163	163	163	166	165	164	164	164	164	165	165	162	163	164	165	165	165	166	167	167	166	166	166	167	166	165	165	164	164	166	165	165	166	167	167	166	168	167	168	168	168	167	167	168	168	167	168	169	168	168	168	167	166	166	166	167	168	170	170	167	167	168	167	170	169	170	168	167	167	166	166	168	169	169	170	171	172	172	171	170	170	170	170	170	169	170	172	171	171	167	167	168	169	171	169	168	167	169	170	170	171	170	170	171	170	170	172	172	172	171	171	170	169	169	169	169	169	168	172	171	172	174	173	173	173	174	171	169	171	171	172	170	170	170	172	172	173	173	172	170	172	173	173	174	174	173	172	171	172	171	172	172	172	170	173	172	172	172	171	173	172	173	173	173	174	173	173	173	174	174	173	172	171	173	173	173	174	173	173	173	172	174	175	173	171	173	173	173	174	175	177	173	173	173	174	173	173	173	172	171	173	174	173	174	174	174	175	176	174	174	176	176	175	175	173	176	176	176	175	173	173	172	172	173	173	173	173	173	174	175	175	175	177	175	174	173	172	173	175	176	176	173	174	174	175	175	174	176	176	178	175	175	176	175	176	176	178	176	175	174	175	175	176	175	175	173	175	175	175	175	175	175	175	175	175	173	173	172	173	177	174	175	174	177	177	176	175	175	175	175	175	174	173	175	176	177	176	176	176	175	174	175	175	175	177	175	175	176	176	175	175	171	172	172	173	175	174	176	175	175	175	173	173	175	174	174	175	175	175	176	176	175	175	174	173	175	173	174	173	173	174	174	175	175	175	176	175	174	174	174	174	174	175	173	178	177	175	174	174	175	174	175	175	175	173	174	175	174	178	178	174	174	174	174	172	173	173	174	173	170	171	172	173	174	175	175	174	175	174	174	173	174	173	173	175	175	174	172	171	171	171	171	172	171	172	174	172	172	173	169	172	175	173	172	171	172	172	172	172	170	170	168	170	170	171	171	169	169	168	168	170	171	171	170	168	169	169	170	172	171	171	173	173	170	169	169	172	171	171	171	170	172	174	174	170	168	168	169	171	169	169	169	169	169	168	168	170	170	169	168	168	170	168	167	168	168	169	167	165	165	167	165	164	164	164	165	166	167	168	165	165	164	164	164	164	167	167	166	166	167	167	167	168	166	166	165	166	166	166	165	165	167	165	164	163	163	161	162	166	166	164	166	165	165	164	164	164	161	161	161	160	161	162	166	164	164	164	164	163	162	162	164	164	162	162	161	162	162	162	163	164	163	163	162	162	162	162	162	163	163	162	164	164	163	162	161	161	162	162	162	162	160	159	160	161	160	162	161	161	161	161	161	159	161	161	160	161	160	159	160	160	161	160	159	159	159	160	161	161	159	160	0	0
161	163	163	163	164	162	160	160	161	162	160	161	158	160	159	159	160	160	163	165	165	165	165	164	164	164	163	163	164	165	164	164	163	162	162	162	163	162	163	163	166	165	165	164	164	164	165	165	164	162	163	164	164	165	166	166	166	165	166	167	167	166	165	165	164	167	165	165	165	165	167	166	165	166	167	167	167	167	166	166	168	168	169	169	168	168	168	167	167	166	166	168	168	169	170	167	166	166	167	167	167	168	167	165	166	166	167	166	168	168	171	171	173	171	168	168	169	170	171	171	171	170	170	170	169	165	168	167	170	168	169	169	169	169	171	170	170	171	170	171	172	170	170	170	171	171	170	169	168	171	171	171	169	169	170	170	171	170	172	171	172	171	170	167	167	168	171	172	170	169	169	169	169	173	173	173	172	173	174	174	174	173	171	172	171	171	171	170	172	172	171	170	170	171	171	173	172	173	173	173	172	173	173	173	173	173	173	171	172	172	173	173	171	173	174	172	172	173	174	175	172	171	171	171	173	175	173	173	173	173	173	173	173	171	171	171	172	173	174	172	172	173	173	172	172	173	174	175	175	173	173	173	174	175	174	173	172	172	173	173	173	172	173	174	174	175	180	177	175	176	174	174	174	173	171	174	175	175	174	173	175	175	174	174	174	171	174	174	174	176	174	175	178	175	174	174	174	174	175	175	175	173	174	174	174	174	175	174	173	173	174	174	173	173	175	174	175	173	174	174	174	175	175	175	175	176	176	175	175	175	174	176	176	174	175	176	175	174	175	174	173	174	171	174	175	175	175	175	171	171	172	171	174	176	176	178	174	175	173	173	174	173	173	174	174	174	174	173	174	174	172	172	173	173	174	174	172	173	175	174	176	176	177	176	175	174	173	173	173	171	178	171	174	173	173	172	173	173	175	174	173	172	173	174	174	177	174	174	175	172	173	172	173	173	172	171	171	170	172	173	173	174	174	175	174	174	173	172	174	172	172	173	174	174	174	172	171	171	171	171	171	173	172	171	168	169	172	175	172	173	171	172	172	171	170	170	171	171	171	171	169	171	171	170	167	166	166	167	169	170	170	171	170	171	170	171	173	171	172	171	169	167	167	168	170	170	171	169	169	169	169	170	169	168	169	167	167	166	168	168	167	167	168	170	171	169	168	168	167	167	167	166	169	167	165	165	165	165	164	165	165	164	164	163	165	165	165	162	162	164	164	164	165	164	164	163	163	163	163	167	164	165	165	166	166	165	165	165	166	163	164	164	163	161	162	165	167	164	166	165	165	164	162	162	161	161	160	158	160	160	160	163	164	164	164	165	164	163	162	163	163	162	162	162	162	164	164	164	164	163	163	162	162	162	162	163	162	162	162	161	161	162	161	160	160	161	161	161	159	160	161	161	161	162	161	160	160	160	160	162	161	162	160	161	160	159	159	160	161	160	159	159	160	157	157	157	158	159	0	0
159	163	163	162	162	161	163	163	163	163	159	158	158	158	158	159	161	161	163	164	164	165	165	163	162	160	159	159	163	166	165	163	162	162	162	162	163	163	164	164	164	164	164	163	164	164	164	165	165	162	163	164	164	164	165	165	165	166	166	165	166	166	165	164	167	167	165	165	165	166	166	165	165	165	167	166	166	166	166	165	165	165	167	166	166	167	167	167	167	166	166	167	169	169	169	166	166	166	166	165	165	167	165	166	166	166	168	166	170	171	171	171	169	169	167	168	168	168	169	171	171	169	169	168	169	167	167	166	170	168	169	166	167	167	170	170	169	169	170	170	170	169	168	171	171	171	170	170	169	171	171	172	171	170	170	171	171	171	172	171	170	170	167	168	169	170	170	171	170	170	170	170	171	170	173	173	173	173	173	173	172	171	170	171	171	171	170	169	170	170	170	171	171	171	171	171	171	170	173	172	175	174	176	174	174	174	173	173	171	173	172	171	171	170	169	170	172	171	172	172	171	171	171	170	171	170	171	170	170	172	172	171	171	169	169	171	171	173	171	171	171	173	173	173	173	173	173	173	172	174	172	173	174	173	172	173	172	172	172	173	173	173	170	170	177	178	177	174	173	173	173	174	174	174	174	174	174	174	172	173	174	174	175	172	172	173	170	172	172	173	174	175	176	175	174	173	174	174	174	175	174	174	175	175	174	173	173	174	174	172	172	173	173	173	173	173	173	172	173	174	173	173	172	174	174	175	175	175	176	174	175	175	175	175	174	175	175	176	173	175	172	173	172	174	174	175	175	172	169	170	171	171	171	171	173	174	177	174	175	174	173	173	174	173	173	171	173	173	172	173	173	172	173	173	174	173	175	174	175	173	173	176	175	175	172	171	174	174	175	171	172	174	173	173	171	171	171	174	174	173	173	173	175	176	174	173	173	174	172	171	171	173	173	172	170	170	171	170	170	170	170	172	172	174	173	173	172	172	172	172	172	171	172	173	172	170	172	172	172	172	171	172	171	172	171	172	171	170	172	171	172	172	170	171	169	170	170	170	170	169	169	170	171	171	169	167	169	169	169	169	167	170	170	170	169	169	169	170	170	169	169	168	168	169	170	170	170	169	169	169	171	169	169	168	167	167	167	167	166	167	166	165	167	168	168	167	168	168	168	168	166	165	165	164	164	164	163	165	169	166	165	165	165	164	165	165	163	162	164	163	164	164	164	163	163	163	163	164	162	162	164	165	165	165	165	165	166	165	164	164	163	162	161	161	161	162	163	164	166	165	164	162	161	161	161	160	159	160	159	159	160	162	163	163	163	164	162	161	161	162	163	163	162	163	162	163	163	162	162	162	161	161	162	162	161	162	161	161	160	160	159	160	160	160	160	160	160	161	158	159	159	160	159	162	158	157	157	157	157	162	162	160	160	159	159	158	158	157	159	159	159	158	160	158	158	156	156	155	0	0
154	159	159	162	160	160	161	161	161	162	162	161	158	160	159	160	163	162	162	163	163	164	163	163	159	159	162	163	163	162	163	163	162	162	161	161	160	163	164	164	164	164	162	162	163	164	161	164	164	162	162	163	163	163	165	166	166	166	164	165	165	165	166	167	164	165	165	165	164	165	165	165	165	164	163	165	166	166	165	166	167	167	167	167	167	166	167	167	164	162	165	165	167	167	167	167	166	165	165	165	165	163	165	166	166	165	166	164	167	168	169	169	169	166	166	165	165	167	168	168	167	168	169	169	167	166	167	169	170	170	169	168	165	166	167	168	169	169	169	171	170	169	168	169	171	171	170	169	170	171	171	171	172	172	170	172	171	171	171	170	168	168	167	168	170	169	168	168	171	170	170	170	170	170	171	173	173	173	172	172	172	171	170	171	169	168	170	168	172	170	171	170	171	171	171	171	170	170	171	175	175	175	174	176	173	173	173	173	173	173	171	171	170	169	170	170	170	170	171	172	172	171	165	170	171	170	170	170	170	172	172	172	171	168	169	169	170	172	171	172	172	173	173	173	173	173	172	171	171	171	173	173	173	174	174	173	170	172	172	174	173	172	169	170	173	173	172	171	172	173	174	173	173	173	173	173	173	173	172	173	174	174	175	170	169	168	168	171	171	172	173	173	173	173	173	173	173	173	172	172	172	174	174	174	174	173	174	174	174	173	173	173	174	171	171	173	173	173	173	173	173	173	170	173	174	173	175	175	174	175	175	175	174	173	175	175	176	175	175	174	174	173	173	174	174	174	170	169	169	170	170	170	170	171	168	172	173	176	172	173	174	174	171	171	170	171	171	173	172	171	0	0	0	173	175	176	175	175	175	174	175	173	173	174	175	172	172	175	174	171	173	174	173	171	171	171	172	171	172	173	172	173	172	173	174	173	174	174	174	170	171	171	169	170	171	171	172	171	171	170	171	172	170	170	171	172	172	172	170	172	172	167	170	171	171	170	171	172	172	172	171	170	171	170	169	170	171	169	169	168	171	167	171	168	169	169	171	171	170	168	169	170	171	167	170	170	169	169	169	168	169	170	169	170	169	168	169	170	170	169	169	170	169	169	169	170	170	168	168	169	169	169	170	168	167	168	167	168	167	164	165	166	166	168	167	167	167	168	168	166	166	163	164	164	165	162	163	165	168	166	165	164	165	165	165	164	165	164	164	164	163	165	164	163	161	161	161	163	162	162	163	164	164	163	163	164	166	166	164	162	162	162	161	161	161	162	162	162	163	164	164	163	161	161	161	161	159	159	160	160	161	161	165	163	163	162	162	161	161	162	163	163	162	162	161	161	160	161	162	161	161	160	160	161	160	160	160	160	160	160	160	160	159	159	160	160	159	159	157	158	159	160	160	161	158	160	160	158	158	159	160	158	159	159	159	159	156	156	158	158	159	159	158	158	157	155	156	157	0	0
155	155	158	160	160	160	160	161	161	161	162	161	160	160	160	160	162	162	162	160	161	161	160	160	159	160	161	161	161	162	161	161	160	161	161	159	162	163	164	162	162	160	161	160	160	161	164	164	163	162	162	162	163	165	165	166	165	164	165	163	165	165	165	164	161	164	164	164	163	163	165	165	165	164	162	163	164	164	165	166	167	167	167	167	166	167	167	166	163	164	164	165	165	166	166	166	164	165	164	165	166	164	164	165	165	165	163	164	167	168	168	168	167	167	168	168	167	167	168	168	168	169	169	167	167	166	166	167	168	168	168	169	168	165	166	167	168	169	170	169	169	169	168	169	169	168	169	169	170	169	168	172	172	172	171	171	168	166	167	169	169	168	167	170	169	170	168	167	168	169	170	170	169	167	169	169	170	170	170	170	169	168	169	170	170	170	168	169	169	171	170	169	170	171	170	170	169	170	169	170	170	170	174	173	173	173	172	173	172	171	169	169	169	169	170	170	171	171	174	170	172	170	169	171	171	171	172	172	172	171	173	171	171	171	170	171	169	169	170	172	172	172	173	172	172	172	172	171	171	173	173	173	172	172	173	172	170	172	171	172	173	173	172	171	170	170	170	171	173	174	173	173	173	172	173	173	173	172	171	172	173	174	174	171	170	168	170	171	171	172	172	173	173	172	172	173	173	172	172	172	174	175	173	173	173	172	171	174	173	173	172	173	172	172	172	174	174	174	173	174	173	171	170	172	173	174	174	172	173	174	175	174	174	175	175	175	175	174	174	174	172	171	173	172	173	172	170	169	170	171	169	169	169	168	169	170	172	171	173	170	170	169	170	170	172	172	172	171	171	0	0	0	0	173	173	173	175	174	175	174	173	173	172	173	174	173	173	174	174	172	172	174	172	170	170	173	172	171	171	172	176	174	175	171	172	175	176	177	174	172	171	170	172	169	169	171	172	172	171	170	172	172	170	170	170	170	170	170	167	167	171	169	166	167	169	170	170	172	172	171	170	173	170	170	167	169	170	169	169	168	167	166	171	169	168	170	170	171	172	170	170	166	166	170	169	170	169	169	168	169	169	170	170	170	169	168	168	169	169	168	167	169	169	168	167	168	168	168	167	168	165	165	169	170	168	168	167	169	167	168	166	167	167	167	167	167	168	168	167	166	166	165	166	166	164	162	162	164	167	165	165	165	165	164	164	166	165	165	164	164	163	164	164	164	161	161	160	162	163	163	163	163	163	162	162	163	165	166	166	163	163	163	162	163	162	162	162	161	162	163	163	164	163	162	161	161	160	160	160	160	160	164	165	162	159	162	161	161	161	162	162	162	161	161	160	160	159	161	160	160	161	161	161	160	160	161	160	160	160	160	160	160	159	159	159	159	158	157	157	157	158	159	159	158	158	158	156	158	158	157	158	159	157	159	159	159	157	158	158	157	159	159	159	159	157	156	157	154	0	0
157	157	160	159	160	160	160	159	160	160	161	161	160	160	160	159	161	159	160	160	158	158	158	159	159	159	161	160	160	160	161	160	160	161	159	162	162	163	162	162	160	160	160	160	162	162	164	163	161	161	161	161	163	163	158	158	160	159	165	161	163	164	160	160	161	161	161	161	159	163	164	165	162	162	161	160	162	163	163	164	165	165	165	166	166	166	167	165	163	164	164	167	166	166	165	165	165	164	162	164	165	163	165	165	165	166	164	163	165	166	166	167	166	168	167	167	167	167	168	167	167	169	167	164	168	165	167	167	167	167	167	166	167	168	166	166	167	169	167	168	168	169	170	169	169	169	168	169	170	170	171	171	171	171	170	170	167	168	167	168	168	168	168	168	168	168	168	169	166	167	168	170	170	170	167	166	167	169	170	170	169	170	171	170	171	170	167	169	169	169	170	169	172	169	170	170	169	169	168	169	169	169	166	174	171	171	170	170	169	169	170	169	168	169	171	170	170	171	170	171	170	168	169	170	171	172	172	172	170	173	174	173	171	171	169	171	171	170	169	169	170	172	171	171	172	171	170	171	171	171	172	171	171	171	170	173	173	172	170	172	173	173	172	172	170	169	171	171	172	173	172	172	170	170	171	172	172	171	171	172	172	173	172	171	171	170	171	171	171	172	171	171	172	172	173	172	173	172	172	171	174	173	172	170	171	170	170	172	174	172	172	172	172	171	172	171	171	172	174	173	174	172	171	171	172	173	172	171	168	172	172	172	172	174	174	172	174	174	173	173	172	171	171	170	172	171	172	172	172	172	170	170	169	171	171	169	171	171	172	171	170	169	170	170	172	174	171	172	171	171	0	0	0	171	171	172	172	173	172	172	173	172	172	171	171	173	171	171	170	170	170	171	171	171	169	172	172	172	170	171	172	174	175	174	175	174	173	174	174	174	173	171	169	170	169	170	171	170	169	169	172	169	171	171	170	168	168	167	167	168	165	166	165	169	167	168	170	169	170	170	170	173	172	168	169	169	169	169	169	167	166	165	166	170	171	167	169	170	171	168	168	168	167	170	170	170	169	168	168	169	167	166	167	168	168	168	168	168	168	166	170	166	167	167	167	165	166	166	166	165	164	165	167	168	169	168	168	170	168	167	164	166	167	166	167	166	166	166	166	166	166	166	164	165	164	163	163	163	166	165	166	164	163	163	163	165	165	165	166	163	164	164	164	162	162	160	161	162	162	163	163	163	163	162	163	163	162	166	165	163	163	162	163	163	162	162	161	160	160	162	161	161	161	160	160	159	159	159	160	160	160	160	160	160	161	159	159	161	159	161	161	160	160	159	159	158	157	160	160	160	160	160	160	161	160	161	160	159	158	160	159	159	159	159	159	158	157	157	156	157	158	158	158	157	157	157	157	157	158	157	159	159	160	155	155	159	157	154	155	155	156	159	159	159	157	156	155	154	0	0
157	157	159	160	160	160	159	159	159	160	160	161	162	158	158	156	159	159	158	158	158	158	158	159	159	160	161	161	160	160	159	158	159	162	162	162	162	161	161	161	161	161	160	160	161	161	163	162	162	162	162	163	162	162	161	161	157	161	161	162	162	163	161	161	160	160	161	161	159	162	163	162	162	161	160	160	160	160	164	163	163	164	163	163	164	166	166	165	164	165	165	166	167	166	165	162	163	163	163	164	165	165	162	165	165	166	165	164	164	165	163	164	164	164	166	166	166	167	167	167	167	165	165	167	166	165	165	166	165	167	166	166	166	166	167	168	167	166	166	167	169	170	168	168	168	168	169	170	170	169	168	170	170	170	168	168	167	167	167	167	168	169	168	168	167	168	168	169	168	167	167	170	168	167	167	168	167	168	168	170	170	171	171	170	169	168	167	167	167	167	168	168	168	169	168	169	169	170	169	169	166	166	173	167	173	171	170	168	170	169	168	169	169	167	169	171	170	170	170	171	170	168	168	169	172	172	171	170	171	173	175	174	171	169	171	170	170	169	169	168	168	168	169	171	170	170	171	171	171	171	167	170	171	168	169	171	173	172	170	171	172	171	172	171	170	171	172	171	171	171	174	171	169	168	169	171	173	173	171	172	172	172	171	171	171	171	171	172	171	172	171	170	169	171	170	170	172	173	171	170	170	172	170	167	168	168	169	170	172	172	172	172	172	170	170	171	171	174	174	174	172	171	171	170	170	169	170	171	174	173	172	172	172	169	169	170	171	173	173	173	172	171	171	170	172	172	170	172	172	172	171	170	171	172	171	171	172	171	170	171	171	171	171	172	171	170	170	169	169	170	171	172	169	169	169	172	174	173	174	169	172	172	171	171	171	171	169	169	169	169	170	171	174	173	173	171	170	170	169	170	172	174	175	175	175	174	174	172	173	173	171	170	170	170	169	170	171	170	169	170	172	171	170	171	170	169	168	167	170	169	166	166	166	167	167	169	167	169	169	170	170	173	171	171	168	169	169	170	168	169	166	167	169	167	169	169	171	169	170	169	168	168	168	167	169	167	168	167	167	167	167	167	167	165	165	167	168	166	168	168	166	166	167	167	167	166	164	165	165	164	165	165	166	167	165	165	169	168	164	165	165	163	165	165	164	162	163	164	165	165	166	165	164	164	164	164	164	163	163	161	160	164	164	164	163	164	165	166	164	164	163	164	164	162	161	162	160	162	162	163	162	161	164	163	162	164	161	164	163	161	160	164	162	163	163	161	161	160	160	159	160	161	161	161	160	159	159	160	160	160	160	160	160	160	160	160	160	160	159	160	159	159	159	158	158	160	158	157	155	157	158	159	160	158	158	159	159	158	158	159	160	159	159	159	157	156	156	156	156	155	158	157	157	157	158	157	157	157	158	157	158	159	155	155	153	157	157	154	154	155	156	156	156	156	156	155	155	154	0	0
156	159	159	158	159	159	159	159	159	159	159	162	160	156	156	156	159	159	158	158	158	158	159	160	160	160	159	160	161	159	159	158	158	158	162	162	162	160	160	161	160	159	159	160	159	160	161	162	160	160	165	162	161	162	162	162	162	160	160	162	161	163	162	159	159	160	161	161	158	162	162	161	161	159	160	160	160	162	162	163	163	163	163	163	163	162	164	165	163	163	164	164	165	164	164	164	162	163	163	163	162	162	163	164	163	165	164	166	167	165	165	163	164	163	162	165	166	166	166	166	164	165	167	166	167	165	163	166	166	167	165	164	166	167	167	167	166	165	165	164	168	167	167	167	166	167	168	170	170	168	167	168	169	170	168	167	167	167	167	168	167	168	166	165	167	167	167	167	170	169	170	168	168	167	167	167	168	168	167	169	170	170	170	169	171	170	169	168	167	167	166	167	167	168	169	169	169	169	169	168	165	163	165	167	168	169	170	168	171	168	169	167	167	170	170	171	170	170	170	170	170	172	171	172	172	172	173	170	171	171	171	168	173	170	170	171	171	169	168	168	169	168	169	169	170	170	171	172	172	171	167	167	169	169	170	172	171	170	170	170	171	172	172	172	171	171	172	171	171	171	172	168	169	169	169	171	170	171	171	171	172	171	170	169	170	169	170	171	170	170	171	171	168	169	170	171	171	171	169	170	170	169	170	168	168	169	168	171	171	171	170	171	170	171	172	171	171	172	174	172	171	171	170	171	170	169	170	170	170	173	170	172	170	170	169	169	169	169	171	167	171	170	169	171	172	171	170	171	171	172	171	170	171	171	170	171	171	170	171	168	168	171	171	171	170	169	169	169	169	168	168	171	172	169	169	171	171	172	172	171	170	170	172	170	170	169	168	166	170	170	170	173	173	171	171	171	171	170	170	170	171	172	171	175	175	175	173	174	172	173	172	170	170	169	169	170	170	170	169	169	171	170	170	170	170	170	168	168	170	169	168	167	166	168	166	170	170	170	170	170	166	170	171	168	169	168	169	170	171	170	169	166	168	170	171	170	171	170	170	165	168	167	167	168	169	167	168	167	167	167	169	168	166	165	166	165	167	167	166	166	167	167	165	165	165	164	165	166	165	165	165	163	165	165	164	165	166	165	167	165	164	164	165	165	164	163	163	163	163	163	163	164	163	164	164	164	165	164	162	161	160	162	165	164	164	165	164	164	164	163	162	163	164	162	161	160	161	162	163	162	162	161	162	163	160	164	163	163	161	160	160	161	161	161	159	159	159	161	161	158	158	160	160	159	159	158	159	159	160	160	159	160	160	160	160	160	160	158	158	158	158	159	159	158	158	159	159	158	157	156	157	159	158	157	156	156	157	158	158	159	159	159	159	159	157	156	156	155	155	155	156	157	157	157	157	155	155	157	158	158	156	155	155	152	156	154	153	155	155	154	155	155	155	155	155	156	154	151	151	0
155	158	158	159	159	159	159	156	158	160	161	161	159	156	156	156	159	156	156	157	157	158	158	158	158	158	159	158	158	158	159	159	157	157	160	160	160	159	159	160	160	159	159	158	161	161	161	161	160	160	159	162	162	161	162	160	160	160	160	161	162	160	159	159	159	159	161	160	160	161	162	160	159	160	160	160	162	162	163	165	164	164	164	163	163	163	162	163	163	163	163	163	163	161	163	164	164	163	163	163	161	161	161	163	163	163	164	166	167	165	165	165	164	164	163	162	163	166	166	167	165	165	164	162	166	165	164	165	166	165	163	163	165	166	166	166	165	164	164	163	166	166	167	167	167	170	170	169	168	165	167	168	168	168	165	165	166	167	167	165	166	167	165	168	168	168	168	167	168	165	166	166	166	166	167	167	168	168	168	169	169	170	170	168	168	168	167	166	165	167	166	166	167	167	168	167	168	169	170	168	168	169	167	167	167	168	169	169	169	172	169	167	167	167	167	170	170	169	167	167	170	171	170	170	171	171	171	170	171	169	170	167	168	170	172	172	172	171	170	170	169	168	168	168	169	170	171	171	172	172	170	168	167	168	170	170	173	168	170	169	170	172	172	170	171	172	172	172	172	170	169	169	169	168	169	170	169	168	169	170	170	170	170	170	169	170	168	167	169	169	169	168	167	168	168	170	169	168	168	168	168	168	167	168	168	168	168	169	171	172	173	170	173	172	172	170	168	168	171	170	171	170	170	171	170	170	169	170	169	169	170	171	168	168	169	168	167	168	167	170	169	168	167	170	170	169	168	168	168	170	172	170	168	170	169	170	169	168	168	168	168	168	171	170	170	168	168	168	167	167	167	170	167	168	168	169	174	171	171	171	169	169	168	170	169	169	167	167	169	170	170	170	172	170	171	171	170	171	170	169	170	169	168	169	171	171	171	173	173	172	172	171	170	170	169	170	171	170	169	165	168	169	169	169	170	170	170	169	169	168	169	168	168	167	167	168	170	170	167	165	167	164	168	168	168	168	167	167	168	169	169	169	169	168	168	168	168	167	167	167	168	168	168	167	168	166	167	167	168	167	167	167	165	165	164	165	165	165	165	165	165	164	167	166	165	165	165	164	165	163	166	166	165	164	164	162	163	164	165	165	164	164	164	164	165	163	163	162	163	163	163	164	164	165	164	166	165	164	162	163	162	161	165	164	164	164	163	164	163	160	161	162	163	161	160	160	161	162	162	161	161	159	160	161	162	162	162	163	161	160	159	160	161	160	158	159	160	160	161	161	160	160	159	159	158	157	157	159	159	158	159	159	160	159	159	159	159	158	157	158	157	158	160	160	161	161	159	158	157	156	158	158	158	157	157	156	157	157	158	159	159	159	159	159	157	156	156	156	154	156	157	158	158	157	157	157	155	156	156	157	156	156	156	156	155	155	154	153	154	154	154	155	154	154	156	155	154	154	154	0
156	157	158	158	159	158	156	156	155	156	159	159	159	157	159	159	159	157	156	157	156	156	155	157	158	157	157	156	158	158	159	159	159	158	159	159	159	159	158	159	161	160	159	159	159	160	161	162	160	161	161	162	162	161	161	159	161	161	162	162	162	160	160	158	159	159	160	159	160	162	160	159	160	160	161	161	162	163	164	164	164	164	162	162	163	162	162	163	163	163	163	164	163	160	162	164	163	163	162	161	161	161	161	162	163	162	162	163	163	164	164	166	166	165	164	165	166	166	167	166	164	161	161	161	165	162	164	168	164	164	163	163	163	165	165	166	165	163	164	164	165	166	167	168	168	169	169	170	170	167	167	166	165	164	162	164	164	165	167	164	165	167	169	166	165	167	168	167	167	165	164	164	165	166	165	167	167	167	167	167	167	169	168	167	168	167	166	166	165	166	167	165	166	167	168	169	169	170	168	166	168	168	168	167	166	166	167	167	165	167	168	167	166	167	167	167	169	169	169	169	169	169	169	169	170	170	169	169	169	168	167	167	167	168	171	173	172	171	171	171	170	170	168	169	169	170	171	172	171	172	171	169	168	168	170	169	167	167	169	169	169	169	170	171	171	172	170	170	170	168	168	169	167	167	168	170	168	168	168	170	170	170	170	171	169	168	166	169	170	170	170	168	168	167	168	168	168	168	168	168	167	167	167	170	170	168	168	170	171	172	173	169	172	173	172	170	169	169	173	169	171	170	170	169	169	169	169	170	170	170	170	170	170	169	168	167	166	166	167	167	170	168	169	167	167	169	167	168	168	169	171	169	166	165	167	169	169	167	167	166	165	169	171	171	171	170	170	168	167	167	167	168	170	167	166	166	170	171	171	171	169	169	168	169	167	169	166	170	172	170	170	169	169	170	170	169	170	170	169	169	167	167	168	167	168	168	170	171	171	169	169	171	171	171	169	169	171	170	170	167	166	169	169	170	170	169	168	166	169	168	168	169	168	166	166	168	168	170	169	166	167	167	167	165	166	167	167	165	168	167	168	166	167	168	167	166	167	166	167	167	168	167	169	167	167	166	169	170	169	167	165	166	165	165	164	168	166	165	165	165	165	163	164	167	166	165	164	165	164	162	163	163	163	163	160	161	163	164	165	165	165	164	164	164	165	164	165	163	162	162	164	164	165	166	165	164	162	161	162	162	162	162	162	164	164	163	161	161	160	161	160	160	160	161	160	160	160	160	161	160	160	159	160	158	160	160	161	161	160	160	158	159	160	160	160	160	160	161	160	159	159	159	159	159	159	159	156	158	157	156	156	158	158	159	159	159	159	158	158	157	159	159	160	161	161	161	161	160	158	157	158	158	158	156	157	157	157	157	156	158	158	159	157	155	155	155	156	156	155	154	157	157	157	158	156	155	155	155	155	154	153	153	154	155	155	155	155	153	155	154	155	154	155	154	155	154	155	155	153	0
154	154	154	154	155	153	156	156	155	155	155	159	159	159	159	157	157	157	156	155	156	156	155	155	156	155	155	156	157	158	158	158	158	158	159	159	159	159	158	160	161	159	159	158	158	159	160	158	158	159	159	157	161	160	159	159	160	161	161	163	161	160	160	160	160	159	159	160	159	161	159	159	160	160	162	162	161	162	163	163	162	163	163	162	162	162	162	162	163	162	159	161	161	160	162	162	162	162	162	161	160	160	160	161	162	162	162	162	165	165	165	163	164	163	164	164	163	163	164	166	163	163	161	161	161	161	162	163	164	163	163	163	163	164	164	163	163	163	162	164	165	166	166	168	168	168	169	169	168	167	167	167	166	164	162	162	163	162	163	164	165	165	166	164	165	166	167	167	166	167	164	164	164	165	165	167	167	166	167	167	168	168	164	165	166	165	164	163	164	164	166	166	165	167	167	168	168	168	168	168	167	168	168	167	168	165	165	165	164	169	166	166	166	166	166	167	169	167	169	169	169	169	169	168	170	171	168	168	167	167	166	168	168	167	169	171	173	171	171	171	170	169	170	168	168	168	167	168	170	170	167	168	169	169	169	170	168	168	168	168	168	169	169	172	173	172	169	169	169	169	169	170	169	170	169	167	167	168	169	170	170	170	170	170	169	168	170	170	169	169	170	168	168	167	167	167	168	170	169	169	168	170	170	171	170	170	171	171	170	172	170	169	168	171	172	168	170	172	171	169	170	171	171	169	170	170	170	169	169	170	170	170	168	167	167	167	166	167	170	171	171	166	168	166	166	166	170	169	168	170	170	167	166	166	167	168	168	167	167	166	167	170	170	170	170	170	169	167	166	168	168	169	168	165	165	166	170	171	171	171	169	168	166	167	167	172	170	171	170	171	171	169	167	167	167	167	170	170	170	169	168	168	166	167	168	168	169	168	169	168	169	169	169	169	170	170	171	169	170	168	168	168	169	169	168	165	167	168	168	166	166	165	167	167	167	167	168	168	168	168	168	167	166	165	166	167	167	167	168	168	169	168	166	169	168	167	167	167	165	167	166	165	164	166	164	166	168	170	167	164	164	164	163	163	163	165	169	167	166	166	164	164	167	167	167	164	164	164	163	161	164	164	163	162	162	162	163	164	164	165	164	164	164	164	163	163	164	163	162	163	165	164	164	165	165	165	164	161	162	162	161	160	161	163	163	162	161	160	160	160	160	161	160	159	160	160	160	160	160	159	161	160	160	158	159	160	159	158	158	158	158	159	159	160	159	160	160	160	159	158	157	157	156	158	158	158	160	157	156	155	156	157	158	158	159	159	159	158	157	157	160	158	157	157	156	157	161	160	158	156	156	156	157	157	157	156	155	156	157	157	157	158	157	154	155	155	155	157	156	156	156	156	154	154	155	154	154	153	154	152	152	151	152	154	155	154	155	153	155	155	155	155	155	154	155	155	155	155	154	0
154	154	154	155	155	156	153	154	154	154	153	153	153	157	159	157	157	157	156	155	155	155	155	155	157	159	157	157	157	158	159	157	157	158	157	158	158	158	158	160	161	160	158	158	158	159	158	158	158	159	160	160	158	159	159	159	160	160	160	161	161	160	160	161	160	160	160	160	161	162	159	160	159	162	162	160	160	161	162	162	162	160	162	162	162	162	162	162	163	160	161	161	160	160	161	162	162	161	161	161	159	159	159	162	160	160	162	162	165	165	164	164	165	163	160	162	161	162	164	163	163	160	161	162	161	162	162	163	164	164	164	163	162	162	162	164	165	163	162	164	165	165	166	166	166	167	166	165	165	167	167	166	166	165	164	165	163	163	162	164	163	164	164	165	167	167	166	166	166	167	165	164	166	165	164	164	164	165	166	164	165	164	167	163	165	167	167	166	166	166	165	165	167	167	167	167	166	167	167	167	165	165	166	166	168	166	165	166	167	166	165	167	167	168	166	168	169	168	167	168	170	170	171	171	169	167	167	168	167	168	168	167	167	168	168	170	168	169	170	171	170	171	170	169	169	169	170	169	167	166	167	169	170	169	169	170	168	168	168	167	167	167	169	171	172	172	172	168	168	169	169	170	170	170	169	169	169	169	169	170	170	170	170	169	169	169	169	169	170	169	169	169	169	165	166	167	167	168	170	169	169	170	171	171	171	170	169	169	169	169	167	169	167	167	171	169	173	170	171	172	169	169	170	169	170	170	168	167	168	169	169	167	167	167	167	167	167	170	172	169	171	168	167	167	166	166	168	170	169	169	168	167	168	168	168	169	167	169	167	167	168	168	169	169	170	170	169	167	167	167	167	167	167	167	164	169	170	170	172	168	167	166	167	167	167	171	171	170	168	169	170	169	167	166	167	166	170	170	169	169	167	167	166	167	165	165	169	169	168	169	168	168	168	168	169	169	170	168	167	166	166	166	167	168	166	165	166	166	167	167	167	166	166	168	167	168	168	168	167	168	167	166	166	167	166	166	166	167	166	167	167	167	167	168	169	166	166	166	163	165	164	164	166	164	163	163	164	166	164	162	162	164	164	164	165	165	165	164	165	163	162	162	165	166	166	165	164	163	162	162	162	163	163	164	163	166	166	165	163	163	162	162	163	163	161	162	162	162	162	161	163	165	165	165	164	164	162	159	159	161	162	161	159	162	163	163	162	161	160	161	160	159	159	158	158	159	159	159	159	160	159	162	160	159	158	159	159	159	157	157	158	158	157	157	158	159	158	158	159	158	155	156	156	158	159	158	160	157	156	156	155	156	158	158	158	157	156	156	157	158	158	159	159	156	156	156	158	158	153	154	155	155	157	157	156	155	157	157	157	157	156	158	154	155	155	154	153	158	155	154	154	153	153	154	154	154	154	153	154	154	153	151	151	152	153	154	154	152	153	152	152	152	154	155	155	156	156	155	154	0
154	153	153	155	155	155	153	154	154	154	154	153	156	156	157	158	157	157	155	154	155	155	155	155	157	158	157	157	156	158	156	156	157	157	157	158	158	159	160	160	158	158	158	159	160	160	158	158	157	159	160	158	158	158	157	159	161	160	160	160	160	160	159	160	161	160	161	161	161	160	161	160	159	160	159	160	159	159	161	162	160	161	163	162	162	162	161	162	162	160	161	159	161	159	158	159	161	161	161	161	161	161	162	162	161	160	160	160	164	164	164	164	163	160	160	161	161	161	161	160	161	161	162	161	162	163	163	163	164	164	165	164	161	161	162	162	163	162	165	163	163	164	166	166	166	165	165	165	165	165	166	166	167	166	164	164	163	163	164	163	165	163	164	165	165	166	168	169	168	166	165	164	166	165	164	166	164	163	163	164	165	165	164	165	167	167	166	165	165	163	166	165	165	166	166	166	165	168	167	165	164	165	165	168	168	169	168	166	166	164	165	165	166	167	168	169	169	164	166	168	168	167	167	168	169	169	169	166	166	166	167	167	169	166	167	169	170	170	170	171	169	170	169	167	168	168	168	169	171	169	166	168	168	168	169	170	167	167	167	166	166	166	167	169	171	171	171	170	169	169	169	167	168	169	169	168	168	168	169	171	170	169	168	168	169	170	169	168	169	169	170	169	165	165	166	167	168	166	166	168	168	168	170	168	168	168	168	168	168	167	167	167	166	168	168	170	170	170	170	172	169	169	168	168	168	170	168	168	165	165	169	166	167	167	167	168	169	171	171	170	170	168	168	167	167	168	169	166	166	169	169	167	167	169	169	170	170	167	169	170	168	166	165	166	166	166	167	167	166	165	167	167	168	167	167	169	168	170	168	168	168	167	167	168	170	170	167	169	169	167	168	167	167	168	166	166	169	169	169	169	169	168	169	166	165	166	167	168	168	166	168	168	166	168	168	169	167	167	166	167	165	165	165	166	167	167	168	168	167	168	168	170	165	165	167	167	168	168	167	166	166	166	168	166	166	165	166	166	167	167	166	166	167	168	168	166	165	166	165	165	165	165	166	164	163	163	166	167	166	164	164	164	162	162	163	163	163	161	161	162	163	166	166	164	164	165	164	165	164	163	163	163	164	162	163	164	165	165	165	164	162	162	163	163	163	163	164	163	162	161	162	161	161	161	163	163	162	160	160	159	159	160	160	160	162	161	162	162	161	161	162	160	159	158	157	158	158	159	159	160	159	159	161	160	160	159	158	158	158	159	159	159	157	157	155	157	157	158	156	156	157	154	156	156	157	157	157	156	156	156	155	155	156	156	157	156	156	157	158	158	158	158	156	155	156	156	156	156	153	153	156	155	156	156	156	155	155	155	156	156	156	156	154	155	155	155	154	153	152	152	153	153	153	153	153	153	153	155	155	155	152	151	152	152	151	152	153	154	152	151	152	152	152	153	154	154	154	153	152	0
153	153	153	154	154	153	154	154	154	154	154	154	154	154	156	157	157	154	154	154	156	155	155	155	157	155	156	156	156	158	158	155	153	153	156	156	157	158	158	158	157	158	158	158	158	158	159	157	157	156	158	157	157	158	157	157	159	160	160	160	160	159	159	159	158	158	160	160	160	161	161	161	160	161	161	160	158	160	160	159	159	162	162	162	160	161	160	160	160	160	159	159	159	159	158	159	162	162	163	162	161	160	160	160	160	159	158	157	159	162	161	162	161	162	160	161	161	161	161	161	161	161	161	162	164	164	164	164	164	164	164	163	162	162	163	163	163	163	165	164	164	164	165	166	163	164	164	164	163	165	165	162	165	165	162	162	163	165	166	167	166	166	165	165	165	165	165	166	165	164	163	162	162	165	165	164	163	163	164	164	165	165	166	167	167	164	163	163	162	165	164	164	164	165	163	166	166	167	167	165	163	164	165	166	168	168	165	162	164	163	162	164	165	166	166	165	164	164	165	167	167	166	167	169	169	169	168	166	165	165	165	165	165	166	167	168	170	171	168	167	168	168	168	167	166	166	167	166	167	168	168	168	167	167	167	168	165	166	166	165	166	167	169	168	170	169	168	166	166	166	167	167	167	167	167	169	169	168	169	168	168	168	167	168	169	169	169	168	167	167	169	168	168	166	166	168	166	166	165	168	167	169	169	168	168	167	167	166	167	166	166	167	168	168	168	167	168	170	170	169	166	168	168	168	168	168	167	165	164	166	168	168	166	166	167	168	168	171	167	168	169	167	167	169	168	167	167	168	168	168	168	170	167	167	167	170	170	170	169	169	167	166	166	166	166	166	166	165	166	166	166	167	167	167	167	167	168	167	168	167	168	167	168	168	167	169	169	169	167	166	166	165	166	167	169	169	169	171	169	169	169	169	167	167	166	167	167	168	167	166	166	166	164	166	167	167	165	166	165	165	165	165	165	166	165	167	167	167	167	167	168	166	166	165	165	165	167	167	167	167	168	166	167	163	163	165	166	166	167	167	167	166	167	167	166	167	166	166	167	167	168	166	165	166	165	164	166	167	166	163	165	164	162	164	163	163	161	160	161	163	164	162	165	161	163	164	163	163	166	164	164	162	162	162	162	164	164	164	163	163	162	162	161	162	162	164	164	162	161	161	161	161	161	161	160	161	163	160	159	158	159	160	160	160	161	160	162	162	164	160	161	159	159	158	157	157	158	158	159	159	159	159	159	161	159	159	159	160	160	158	158	158	158	157	156	154	157	158	156	156	157	154	155	155	155	158	157	156	156	156	155	154	156	156	156	156	158	157	158	157	157	156	155	155	155	156	156	155	154	154	156	155	156	155	155	154	154	153	154	153	156	155	155	154	155	154	154	151	151	151	151	154	153	153	153	154	156	155	155	153	151	150	152	151	151	150	153	153	153	154	152	152	152	152	152	153	154	153	152	0
153	153	153	154	155	155	153	153	154	154	153	154	153	153	153	156	156	157	157	155	156	156	154	154	154	155	156	156	156	157	158	155	154	152	152	153	156	157	158	157	157	155	157	156	156	157	157	157	156	156	156	157	159	159	158	157	157	159	159	157	157	158	158	159	158	158	158	158	159	159	160	161	160	161	161	160	158	157	157	159	161	161	160	162	160	160	160	160	159	159	157	157	157	158	159	160	162	162	163	162	162	160	159	158	159	159	157	157	160	163	161	161	163	161	160	163	161	161	161	161	162	161	162	163	163	163	163	163	163	163	164	164	163	162	163	163	161	161	162	162	164	163	164	162	163	161	165	164	163	163	163	163	164	161	163	164	164	165	164	165	166	166	166	166	165	164	162	163	162	162	163	161	164	162	164	163	163	163	162	163	164	165	164	164	163	163	163	163	163	163	164	164	165	165	165	163	165	166	165	165	164	164	164	165	165	165	162	162	162	162	162	163	164	165	164	164	164	165	165	166	165	167	166	167	166	166	165	165	165	165	165	165	165	165	165	167	168	167	168	168	168	168	168	167	168	166	167	167	167	166	164	167	165	166	164	166	165	165	164	164	164	166	168	168	168	167	166	167	166	167	167	167	167	167	167	166	169	165	166	167	168	167	167	167	167	169	169	168	168	167	167	165	165	166	166	166	167	166	166	166	166	169	169	169	168	168	167	169	168	167	167	167	168	168	167	167	167	168	168	168	166	168	167	167	166	167	167	166	167	165	169	168	167	168	167	168	168	169	168	168	167	167	167	166	166	168	168	168	168	168	167	168	167	167	170	170	170	167	169	169	167	166	166	165	166	166	164	166	166	166	166	166	167	167	166	167	168	167	168	168	166	166	166	167	167	168	169	166	165	166	166	166	165	165	167	168	170	172	167	168	167	167	167	166	166	168	168	167	166	166	167	167	167	166	166	166	166	165	164	164	164	164	165	164	165	165	166	167	170	170	168	168	165	163	164	166	167	167	166	166	167	166	163	164	165	165	166	166	166	167	167	167	167	166	166	163	164	166	165	165	165	166	166	166	166	165	165	163	162	163	162	162	161	161	163	163	163	162	164	162	162	161	161	160	162	163	164	162	164	165	164	162	161	161	163	163	163	164	163	163	163	162	161	161	162	162	162	161	161	162	161	160	161	161	160	160	163	163	159	159	159	160	161	161	161	159	159	160	162	159	158	159	159	156	157	156	156	156	158	159	159	159	158	159	159	159	159	160	159	158	161	158	157	156	156	156	156	155	156	156	154	155	155	155	155	156	154	156	156	156	155	154	153	156	157	157	157	156	156	156	158	155	156	153	154	156	156	156	154	158	156	155	156	153	154	154	153	154	151	151	155	153	155	153	154	154	153	153	152	152	152	153	154	153	152	152	152	152	153	153	153	152	152	152	151	150	150	153	153	154	152	152	154	154	154	154	153	153	153	0
152	152	153	154	154	154	154	154	155	155	155	154	154	153	153	153	155	154	155	155	155	156	155	154	154	155	155	156	157	157	157	156	155	155	155	157	157	156	155	155	155	156	155	155	157	158	157	157	157	157	158	158	159	159	158	158	156	157	157	157	158	158	159	159	157	158	157	157	158	158	155	155	158	158	159	158	158	157	159	159	161	159	159	159	160	159	159	159	160	157	157	158	158	159	160	161	162	162	162	161	160	159	159	158	157	157	157	157	159	160	161	161	160	161	162	162	163	163	160	161	161	160	162	162	162	162	162	162	163	163	164	163	163	163	163	162	161	161	162	163	164	163	162	163	162	161	165	163	164	163	164	162	162	160	163	163	163	165	162	162	163	166	167	165	165	164	164	166	165	163	163	162	161	161	164	163	163	162	162	164	163	164	164	162	162	164	165	165	164	164	163	164	164	165	164	164	164	164	164	165	165	164	164	165	165	165	163	163	162	163	163	163	163	163	162	162	165	165	165	165	165	165	167	168	167	165	165	165	165	164	165	165	165	165	164	165	165	166	168	166	166	168	168	166	167	168	168	168	168	165	167	166	165	165	164	164	164	165	164	164	164	164	167	168	167	166	165	166	168	169	169	170	168	168	167	166	167	165	164	166	166	167	167	167	167	168	169	169	167	169	166	164	165	168	167	168	166	166	166	168	169	169	169	169	169	170	169	169	169	168	167	167	168	167	166	164	167	168	167	168	167	168	168	167	165	166	168	166	167	165	170	167	169	169	167	167	167	167	168	167	168	166	166	166	166	166	167	164	163	163	164	167	167	169	171	169	169	167	168	166	167	167	164	166	166	164	164	165	166	165	165	166	167	167	166	165	168	166	167	168	167	167	166	166	166	168	167	166	165	167	167	166	164	164	164	166	166	167	166	165	165	166	166	165	164	167	167	166	166	166	167	166	165	165	165	165	165	167	168	167	164	163	163	162	163	165	165	166	167	167	167	168	165	163	165	164	165	165	166	166	166	165	164	165	164	163	164	164	166	166	166	164	163	163	163	164	166	166	165	165	164	166	168	169	168	168	167	163	165	165	165	164	161	162	163	161	161	161	164	163	163	163	162	161	163	163	164	163	163	165	164	163	161	160	162	162	160	160	160	162	162	159	161	161	161	161	159	160	161	161	161	163	160	160	159	159	159	160	160	160	159	159	161	161	159	159	159	160	157	157	157	157	159	156	157	156	156	156	158	158	159	158	157	157	159	158	159	159	158	157	159	157	157	155	154	154	154	156	156	155	154	153	153	154	155	156	154	155	153	155	155	153	154	154	155	156	157	157	157	156	155	155	154	153	154	155	155	156	156	157	158	156	154	154	154	154	154	153	153	151	154	155	155	153	153	153	153	153	153	153	152	152	152	153	151	152	152	152	152	151	152	152	153	153	151	151	150	150	154	153	152	152	153	153	154	153	151	153	153	0
151	153	153	155	153	153	153	153	155	156	156	154	154	153	154	154	154	155	154	154	155	155	154	154	154	154	154	156	158	158	157	156	158	157	157	157	158	158	157	155	156	156	155	155	155	158	158	158	157	157	158	159	159	159	159	158	154	154	156	158	156	157	157	158	157	157	156	157	157	156	156	155	155	156	159	157	157	158	158	158	158	159	159	159	158	158	158	159	159	158	158	158	158	159	158	158	160	162	162	161	159	159	158	158	157	157	157	158	158	159	160	160	160	161	162	162	163	163	162	160	160	161	161	162	162	162	160	160	162	163	163	162	162	162	162	162	161	160	161	162	163	164	162	162	161	161	160	163	163	164	160	160	162	161	163	163	163	164	163	163	162	162	165	165	165	165	164	160	165	161	162	162	161	161	163	163	164	161	162	162	163	164	164	163	164	165	164	165	163	164	163	163	164	165	164	164	162	162	162	162	162	163	164	165	165	162	162	162	163	164	162	162	162	163	162	161	165	163	163	164	164	164	165	164	165	165	165	166	166	166	166	166	165	166	164	165	166	163	164	164	165	167	168	169	168	168	168	168	170	168	168	168	168	165	164	164	165	164	164	164	164	165	164	165	165	165	165	165	166	167	167	167	170	170	168	165	164	164	162	162	162	166	165	167	167	166	167	168	169	168	167	166	167	168	168	168	167	166	166	167	168	169	169	169	167	168	167	169	168	167	166	167	167	166	164	166	167	166	167	167	167	166	168	167	166	165	166	167	167	169	167	169	170	169	167	167	167	167	166	167	166	165	165	167	167	167	167	166	164	164	165	165	165	168	169	169	167	167	166	167	166	166	165	164	165	164	165	168	166	165	166	163	168	169	165	163	162	168	168	166	166	164	166	165	167	167	167	169	169	168	171	165	164	164	164	165	165	165	165	164	166	166	167	165	163	165	166	165	168	169	168	167	166	165	164	164	165	166	166	165	165	164	161	162	163	164	164	165	165	165	165	165	165	164	164	164	164	164	167	166	165	165	165	165	165	163	164	164	165	166	165	164	162	161	163	164	164	165	165	164	164	164	163	164	165	165	165	162	162	165	164	163	163	162	161	160	159	161	162	163	165	164	163	162	162	163	161	163	164	163	163	163	163	160	160	160	159	160	160	160	159	159	162	161	161	161	160	160	161	161	161	161	160	160	159	160	160	160	159	158	159	159	161	161	160	159	158	159	159	157	157	159	157	156	156	156	156	156	158	158	158	159	156	157	158	156	157	158	157	155	158	158	155	154	154	154	153	155	154	154	154	152	153	154	155	155	153	153	153	153	153	154	154	154	155	157	157	157	157	156	154	155	154	153	153	154	155	155	155	155	154	154	153	153	153	152	154	154	154	151	153	155	152	152	153	153	153	152	152	153	152	152	153	153	152	151	151	151	151	151	150	150	153	153	151	151	150	150	151	152	152	152	152	152	151	150	150	151	151	151
151	152	152	152	153	152	152	153	154	155	153	153	154	153	153	153	154	154	154	153	153	153	154	152	153	153	154	155	156	158	158	159	158	157	157	157	157	157	157	156	156	156	155	154	155	157	157	157	157	157	158	158	159	159	156	156	156	154	155	155	155	155	155	157	157	157	157	157	157	156	155	155	156	156	159	157	157	158	157	158	158	158	157	157	157	157	157	158	158	158	158	158	158	159	157	157	159	161	162	162	159	158	158	158	158	158	158	158	158	159	160	159	160	160	160	161	161	162	160	160	160	161	161	161	162	162	161	160	160	162	162	162	162	162	161	161	160	160	160	162	162	163	162	159	158	159	159	160	161	162	158	163	159	160	161	164	163	161	161	160	161	163	159	162	163	164	164	162	160	160	161	162	161	161	163	164	163	163	162	161	162	164	163	163	163	164	167	165	163	162	161	163	163	162	162	164	162	162	161	162	163	164	165	163	163	161	162	161	162	163	163	162	162	164	163	161	165	162	163	164	164	164	163	162	163	165	164	164	166	167	167	166	165	166	166	167	164	163	163	164	165	165	167	167	167	168	166	166	165	165	165	165	166	165	165	164	165	165	165	164	164	165	165	165	165	165	166	166	165	165	165	166	165	166	166	164	162	164	163	163	162	163	165	166	166	165	165	164	164	165	165	166	167	167	167	166	166	167	165	166	167	169	169	169	167	167	166	166	165	166	166	167	166	166	165	166	166	165	164	165	166	167	167	167	167	166	165	167	169	167	166	167	171	168	169	166	166	167	166	167	165	165	166	167	166	166	166	165	165	165	167	164	164	165	165	165	166	166	165	164	164	165	164	164	164	165	165	165	166	164	163	162	162	163	163	160	162	165	167	165	165	165	166	165	167	166	167	168	168	168	170	165	165	164	164	164	165	164	164	164	164	166	165	165	164	164	165	167	168	166	165	165	164	164	164	163	164	163	165	165	164	164	161	162	162	164	164	163	162	164	163	165	165	162	162	164	164	164	164	166	164	164	164	164	164	163	165	164	166	165	163	163	161	161	162	164	165	165	165	165	165	162	162	161	162	163	163	163	163	165	164	164	163	162	161	160	159	160	161	162	164	162	163	160	160	159	158	159	161	161	162	161	161	162	161	160	160	160	159	159	159	159	161	161	161	162	159	159	160	159	162	160	158	159	159	160	158	159	158	158	160	160	160	160	160	159	159	159	159	158	157	157	156	156	155	156	155	155	157	159	159	156	157	157	155	156	158	158	157	156	156	155	154	153	155	154	155	155	153	154	154	153	153	154	155	155	153	154	154	155	154	154	153	153	153	153	155	155	156	156	156	154	153	154	153	154	155	154	153	153	153	153	153	152	152	151	151	153	152	152	154	152	148	151	151	151	152	151	151	153	150	153	153	153	153	153	151	150	149	148	149	152	153	153	153	151	151	150	152	150	151	151	151	151	150	150	150	150	148	148
153	152	151	151	152	152	152	152	153	153	153	153	154	153	153	153	153	155	154	152	152	152	153	152	151	151	153	155	155	157	158	158	157	157	157	158	158	159	156	156	156	155	155	155	155	156	155	156	156	155	155	157	158	158	156	156	156	156	155	154	154	155	156	156	157	157	156	156	156	157	158	158	158	159	156	157	158	157	157	155	159	159	158	157	156	157	156	158	158	158	158	158	157	157	158	157	157	159	158	160	160	157	158	158	158	158	158	158	158	158	159	160	158	160	160	160	160	159	158	158	160	161	161	160	160	161	160	159	161	162	161	161	161	162	161	160	160	160	161	161	161	161	159	158	159	158	160	160	160	161	163	158	158	160	163	163	163	159	160	160	160	161	160	160	161	161	161	160	159	159	160	162	164	163	164	162	161	159	162	163	164	161	162	163	162	163	163	162	163	162	161	163	162	162	160	160	164	165	163	163	163	163	165	162	162	161	159	161	165	165	164	163	163	163	162	161	162	162	164	163	163	163	163	164	164	165	163	163	164	165	166	166	165	164	165	166	164	163	163	164	166	164	164	165	166	164	164	164	163	165	164	164	164	164	164	164	168	166	163	165	165	165	166	165	165	167	165	165	165	165	164	164	168	163	163	163	162	162	163	164	163	164	165	166	165	161	163	164	165	164	165	165	166	167	167	166	165	165	167	167	167	168	168	167	165	162	160	164	165	166	166	165	164	165	165	166	163	163	164	164	164	164	164	163	163	163	162	166	165	165	164	165	168	165	164	164	166	164	164	165	166	166	167	164	165	165	164	165	166	166	164	164	164	165	161	163	162	163	164	168	165	165	166	165	164	166	165	165	166	164	164	165	163	162	163	164	163	164	166	166	165	164	163	166	166	166	165	167	167	166	166	164	164	164	164	164	164	163	164	164	164	165	166	166	164	163	164	166	165	165	164	165	164	164	163	163	162	164	164	162	162	161	162	163	163	164	164	164	161	160	165	165	165	163	163	163	164	164	163	164	166	164	164	164	163	165	163	165	163	163	162	161	163	162	162	162	164	165	164	165	165	164	163	163	162	162	163	162	163	163	164	164	162	162	161	160	160	160	160	162	162	164	162	159	158	158	159	160	163	162	161	162	157	159	162	159	160	160	160	159	159	159	161	162	162	162	162	160	159	157	159	159	159	159	158	160	160	160	161	159	160	160	159	160	159	159	159	158	159	157	158	158	157	156	156	155	155	155	156	156	156	156	156	158	157	158	157	156	156	156	155	156	156	154	154	155	155	155	156	154	153	156	154	153	153	154	153	154	155	155	154	154	153	153	153	153	152	154	152	152	155	155	153	154	153	154	154	154	153	152	153	153	150	150	152	152	150	151	152	153	152	152	151	149	149	151	152	151	151	152	152	153	153	152	152	153	152	153	148	147	147	148	149	149	153	152	150	150	149	148	150	150	150	150	149	150	149	149	149	147
155	154	151	151	150	153	152	152	151	151	151	152	152	153	153	152	152	153	151	150	150	150	151	150	151	152	152	154	155	157	157	157	157	157	157	157	158	158	157	154	155	155	155	155	156	155	155	155	155	155	154	157	155	155	156	156	156	156	155	154	154	155	156	157	157	157	155	156	158	158	159	155	155	157	157	159	157	156	157	156	155	157	157	155	154	155	156	156	158	157	158	158	156	156	156	158	157	157	158	159	157	157	157	159	159	156	158	158	158	159	159	159	159	158	160	160	161	160	157	160	160	160	160	157	157	155	158	158	159	158	160	159	160	160	158	159	161	161	161	160	159	159	159	158	158	158	159	159	162	162	164	159	160	162	163	163	159	158	160	160	160	159	160	161	160	161	161	160	159	160	161	162	162	162	161	162	161	160	163	163	164	160	160	161	162	163	163	162	160	161	160	161	161	161	159	161	163	164	162	163	163	163	163	163	162	159	160	162	164	164	163	162	163	162	162	161	161	163	164	163	162	162	162	163	163	163	163	163	163	164	165	166	164	164	166	165	166	164	165	164	164	163	163	164	163	162	162	162	163	163	163	164	164	163	164	164	164	163	161	163	164	166	165	165	164	163	167	168	165	166	164	163	160	162	163	162	161	162	162	164	163	162	164	165	164	165	162	164	163	163	164	164	165	165	166	166	166	166	166	167	166	167	167	169	164	164	164	164	165	164	164	165	166	166	166	166	164	164	164	162	163	163	163	162	163	163	162	165	165	165	162	164	164	164	164	165	164	165	165	165	165	165	166	164	165	165	164	166	165	165	163	163	163	161	161	161	161	161	163	165	166	166	166	166	165	165	165	165	166	166	165	164	165	164	163	164	165	165	165	166	165	163	164	165	165	166	165	165	165	165	165	165	163	161	161	162	167	163	165	165	165	166	166	167	164	163	163	164	165	164	164	163	163	163	162	163	164	164	165	164	165	164	162	162	163	163	164	164	163	161	161	161	161	161	163	162	164	166	165	164	165	164	164	164	165	162	163	163	163	163	162	162	161	162	162	162	163	164	163	162	165	164	163	163	161	162	163	163	162	161	162	162	162	161	160	162	162	159	160	161	161	161	160	158	158	159	159	160	161	163	160	158	159	162	160	159	159	160	160	159	159	159	159	159	161	161	159	158	158	157	158	158	157	158	160	160	161	161	161	160	159	160	160	160	159	159	159	158	157	158	158	158	157	156	156	155	155	155	156	156	155	155	157	156	156	154	155	155	155	156	156	156	154	154	154	155	156	156	156	157	157	153	153	154	154	154	158	156	155	154	154	154	152	152	152	152	154	153	152	152	154	154	151	153	153	153	152	151	152	151	151	152	151	152	152	152	151	151	152	152	152	151	151	151	149	151	151	150	151	152	152	153	154	154	154	153	152	151	150	150	150	151	151	149	149	151	149	147	149	149	149	150	150	150	150	151	147	147	147	147
153	153	152	150	150	150	152	151	151	150	151	151	151	152	152	152	151	151	151	151	151	151	151	153	151	152	152	152	154	157	157	157	157	157	157	157	157	157	157	154	154	155	155	155	156	155	155	154	154	155	155	155	155	154	155	155	155	155	154	153	154	154	154	155	155	155	155	156	156	154	154	156	155	155	156	156	154	154	156	156	155	155	155	155	156	155	154	156	157	156	158	157	156	157	156	156	157	157	159	158	156	156	158	159	157	155	156	156	158	158	157	157	157	159	159	159	159	160	158	159	160	160	160	158	157	155	157	157	156	158	158	158	160	160	158	158	160	161	161	161	159	158	158	156	158	157	161	163	163	164	160	160	160	161	161	159	161	158	160	161	160	159	160	161	161	161	161	159	158	158	160	161	161	161	160	162	162	160	162	163	163	160	160	160	161	162	162	163	159	160	162	163	162	160	160	161	162	163	163	161	160	159	159	160	164	164	163	164	164	164	163	162	162	162	162	161	162	163	163	163	163	162	161	162	162	162	162	163	162	163	165	165	165	165	165	164	164	163	163	163	163	163	162	162	162	162	163	163	162	163	163	164	163	161	162	163	161	161	162	163	164	164	163	162	163	163	166	167	167	168	167	165	162	163	162	162	162	161	163	164	163	163	163	164	164	165	164	165	164	163	163	164	162	164	164	165	165	165	165	164	164	165	166	166	166	164	163	163	162	162	163	165	165	166	166	164	164	164	164	164	164	165	164	164	165	163	162	163	164	164	164	162	163	164	165	163	163	163	165	165	165	163	165	164	164	162	162	165	165	165	163	163	161	161	162	162	163	163	164	165	168	168	168	167	165	164	165	165	165	164	163	163	164	163	164	164	165	165	165	164	166	166	165	165	165	164	164	164	165	165	165	163	161	161	162	162	163	162	162	165	165	165	164	164	164	163	163	163	164	164	163	164	163	162	163	160	162	163	164	164	164	162	161	162	163	163	163	163	161	163	161	160	160	159	160	160	163	165	167	167	163	164	166	164	163	163	163	163	162	162	162	162	162	162	162	163	163	163	163	162	163	164	162	161	162	162	162	164	162	161	161	162	161	161	161	162	161	161	159	160	160	161	159	159	158	159	160	161	161	162	162	158	160	159	159	158	157	159	159	158	158	158	159	159	159	160	159	158	158	159	159	158	158	159	159	159	158	161	161	161	159	159	159	159	158	158	158	156	156	158	159	158	158	158	156	155	154	156	155	155	154	154	154	155	154	154	154	155	156	157	156	155	153	153	154	153	153	156	155	154	153	152	153	154	153	153	158	154	155	154	152	152	152	152	152	153	153	153	153	155	155	155	151	153	152	152	150	151	151	151	153	154	152	151	153	152	152	151	152	151	150	150	150	148	148	148	150	150	151	150	150	153	154	154	154	154	152	151	150	150	150	149	149	151	152	151	150	148	146	148	148	147	150	147	150	148	148	148	146	146
153	152	152	148	148	148	150	151	152	152	152	151	150	150	151	150	151	150	153	151	153	153	153	152	152	152	153	153	155	154	154	153	153	153	156	155	157	157	157	156	154	154	157	155	155	155	153	152	150	153	153	156	155	154	157	155	155	155	154	153	154	154	154	154	155	155	155	156	156	156	154	155	157	156	156	155	153	155	154	156	155	155	154	154	154	155	155	155	155	156	156	157	157	156	157	157	157	157	157	156	156	155	156	156	157	155	154	157	158	155	155	155	155	155	156	156	159	156	156	158	158	159	159	158	158	158	157	155	158	158	158	158	159	158	156	159	159	159	159	161	161	160	160	160	158	159	160	160	160	160	157	159	160	159	159	158	159	158	159	158	159	160	161	159	161	162	161	161	159	158	163	161	161	160	160	159	163	163	162	161	160	160	160	161	162	164	163	163	158	159	161	164	160	160	160	161	162	163	161	160	160	160	159	159	160	161	163	162	162	162	160	159	160	161	162	161	161	162	163	162	161	161	162	161	162	161	161	161	161	160	159	164	163	163	164	164	163	161	162	164	162	162	162	163	162	161	161	162	163	163	163	163	161	161	161	161	161	161	163	164	164	165	165	163	162	165	166	166	166	167	167	162	164	164	163	162	162	162	162	163	162	163	163	164	163	164	164	164	165	165	164	163	163	160	162	162	162	162	164	166	168	168	165	166	165	164	164	163	162	163	164	164	164	163	163	163	164	164	164	165	165	164	164	164	164	164	163	162	165	164	163	164	164	164	163	163	163	163	165	165	164	162	163	162	161	162	164	165	165	164	163	161	162	161	164	165	162	162	162	161	165	167	165	164	164	163	164	165	163	162	161	161	163	163	164	164	163	165	163	164	163	164	165	163	164	163	164	163	163	164	165	164	161	163	165	164	163	162	161	162	165	165	163	164	162	164	162	163	163	163	164	164	163	161	160	161	161	162	163	163	165	164	161	162	161	161	161	162	161	161	161	161	162	162	162	163	161	164	164	162	163	164	162	167	163	162	162	163	162	162	163	162	163	162	163	163	163	162	163	163	162	161	161	162	162	161	163	162	163	161	161	161	161	160	161	161	161	160	159	160	161	161	159	158	158	159	159	160	161	161	160	160	160	159	158	158	157	158	159	158	157	157	158	159	158	159	158	158	158	158	157	157	158	158	157	156	160	159	160	160	157	157	158	159	159	158	156	156	157	157	159	156	156	156	155	153	153	155	155	154	154	154	154	154	155	156	157	155	157	156	156	156	155	155	156	155	154	150	154	152	152	152	152	153	153	154	155	152	151	152	152	152	152	153	152	152	154	154	152	153	154	154	152	151	152	152	151	151	154	154	153	152	151	150	150	150	151	149	149	149	150	150	150	149	147	148	148	149	147	150	150	151	151	152	152	153	152	149	149	149	151	151	149	149	150	151	151	149	146	146	149	146	149	147	148	147	147	144	144	145
152	152	152	149	149	149	151	152	152	152	152	151	152	152	150	149	150	153	153	153	153	153	153	153	151	152	154	154	155	154	153	152	151	151	150	155	153	155	155	156	154	154	154	155	155	155	151	148	153	154	156	156	154	153	152	154	155	153	153	154	155	154	153	154	154	155	155	156	154	154	154	154	155	154	153	153	154	155	155	156	156	155	155	155	154	154	156	155	155	157	157	157	156	156	155	155	157	157	159	156	156	155	156	156	155	155	155	157	158	153	155	157	156	155	155	155	156	156	156	158	158	158	159	158	157	157	157	157	157	157	159	160	160	160	160	159	158	158	159	159	160	160	160	160	158	159	159	158	159	159	157	156	157	159	158	156	160	157	157	157	156	157	160	160	160	161	160	159	159	159	159	161	160	160	160	159	160	159	159	162	161	160	160	159	160	160	158	159	157	159	160	162	160	161	161	160	159	159	160	160	160	160	159	159	159	160	162	162	160	161	160	159	158	162	161	161	159	160	160	161	160	162	161	162	162	161	160	161	160	159	158	162	161	162	162	162	162	162	163	163	164	162	162	161	161	160	159	161	162	163	163	162	161	160	159	158	161	162	164	163	163	163	164	162	164	164	164	166	165	165	165	162	161	162	163	163	162	162	163	162	162	161	162	164	163	164	164	166	162	161	162	162	163	160	160	162	164	162	164	164	166	168	163	165	166	167	166	164	165	164	164	163	164	164	163	162	163	162	164	165	164	164	162	164	164	164	163	163	163	164	163	163	163	164	163	163	163	162	163	162	162	160	161	161	161	161	162	163	164	163	164	161	161	161	162	162	162	163	163	161	160	166	163	163	163	163	163	164	159	161	161	161	161	162	163	163	162	161	163	163	163	163	164	163	163	163	162	163	163	162	164	165	164	163	165	164	163	162	162	162	161	164	164	163	164	162	161	159	160	163	163	162	161	160	160	161	161	161	161	161	163	163	163	161	163	162	163	163	161	161	160	160	162	160	162	163	163	164	163	163	160	162	162	163	163	162	162	162	162	162	162	162	162	162	162	162	161	161	161	161	161	161	161	161	160	161	161	162	162	162	161	160	161	161	161	162	162	159	159	160	159	158	160	160	160	159	159	159	161	159	159	161	158	159	159	159	160	158	158	158	157	157	157	157	156	158	157	159	156	158	156	159	157	157	156	156	157	159	159	158	157	157	158	159	159	158	156	156	156	158	157	156	155	155	152	153	153	153	155	154	154	153	152	154	155	158	156	156	155	157	157	156	154	154	155	152	153	154	153	153	151	151	152	153	154	154	153	152	152	152	153	154	153	153	154	154	155	154	153	153	153	153	154	151	151	151	151	151	150	150	152	151	150	150	150	151	151	150	151	150	150	150	150	148	147	148	148	148	147	147	150	150	151	151	152	151	152	150	148	148	148	148	149	149	149	151	151	146	146	147	147	147	146	146	146	147	147	145	143	144
152	149	151	149	148	148	150	152	152	152	152	151	152	150	150	149	150	153	151	153	153	153	152	152	152	151	154	155	155	155	153	150	150	150	149	151	153	154	155	155	153	153	153	154	154	154	151	153	154	155	156	155	155	153	151	152	152	153	154	154	155	154	154	154	154	155	155	154	154	153	154	154	154	153	152	152	153	155	156	157	156	156	157	156	156	155	155	155	155	154	155	157	157	155	155	155	156	156	156	155	155	155	153	155	154	154	154	157	157	152	154	156	156	154	155	155	155	155	156	156	157	157	157	157	156	156	157	158	156	155	155	157	157	155	155	155	157	158	159	159	160	160	160	159	157	156	157	158	158	157	156	157	156	156	156	156	160	157	157	157	157	157	158	160	160	161	160	159	159	157	158	159	158	159	159	159	159	160	160	162	160	161	159	158	156	158	159	158	158	158	157	160	163	162	160	160	159	161	160	160	160	160	160	159	161	162	159	160	160	161	161	158	159	161	161	162	161	159	157	158	159	158	162	161	162	161	162	162	162	159	162	162	161	161	161	161	161	162	162	163	161	159	157	158	158	159	158	160	161	161	160	161	160	159	157	158	161	159	163	164	162	163	162	162	163	163	163	164	163	164	163	162	160	161	161	162	161	163	162	162	161	160	162	163	161	161	163	164	162	162	161	162	161	161	162	162	164	163	163	163	165	163	163	163	163	161	164	166	164	162	163	162	163	163	163	162	162	164	164	165	165	164	162	162	163	164	164	164	163	164	163	161	161	161	163	164	161	162	162	162	161	160	161	161	161	161	161	162	161	162	163	163	160	161	165	163	163	162	161	161	161	164	162	162	163	162	162	161	162	162	160	160	161	162	163	162	160	161	162	163	162	164	164	163	163	161	163	162	162	162	162	163	165	163	163	163	166	162	161	161	160	161	162	163	162	161	159	159	160	162	162	162	161	162	161	161	163	162	161	161	161	163	164	164	163	162	162	163	161	162	161	160	161	161	161	162	162	163	162	162	162	163	162	161	160	161	161	161	162	162	162	161	162	162	162	162	161	160	160	159	160	160	161	159	160	160	160	160	160	162	160	159	159	160	160	162	161	161	160	159	160	162	159	160	159	159	159	160	160	158	160	159	158	159	159	159	157	157	154	156	157	157	156	157	157	157	156	154	157	158	159	157	158	157	157	157	157	156	158	157	156	156	157	157	156	156	156	156	157	157	157	156	157	155	155	154	155	154	154	153	154	153	153	154	157	155	155	154	153	155	154	154	153	151	153	152	153	153	153	152	150	151	151	154	154	153	154	154	154	152	152	154	154	151	153	154	155	154	152	150	151	153	150	148	150	150	150	150	150	150	150	150	149	150	151	151	151	150	150	151	151	150	150	149	148	148	148	149	148	147	147	148	149	149	150	152	150	148	148	147	147	148	149	148	148	150	149	149	149	148	146	146	146	145	146	146	146	147	143	144
149	151	146	149	149	148	148	149	151	152	151	152	151	151	151	150	150	151	153	152	153	154	154	152	152	152	155	155	155	155	153	150	148	149	149	150	151	153	154	153	153	152	153	153	153	152	152	153	154	156	155	154	154	152	151	151	152	153	153	153	155	153	154	154	153	153	151	151	152	154	154	153	153	152	152	152	152	153	156	157	156	154	155	154	155	155	155	155	152	154	154	156	157	156	155	155	153	154	154	154	153	154	154	154	154	155	154	156	153	152	153	154	154	157	155	155	155	155	155	156	156	157	157	157	154	156	155	156	156	156	157	152	152	155	155	156	157	158	157	158	158	158	156	158	156	155	157	157	157	157	156	155	157	157	156	157	156	157	157	157	157	157	158	157	157	158	160	159	157	159	158	158	158	158	159	160	159	159	159	158	160	159	159	156	156	157	159	158	156	160	160	160	160	160	160	158	159	159	159	161	160	160	160	160	159	157	159	160	160	161	160	160	158	159	159	158	158	159	158	157	158	159	162	161	162	161	161	162	162	161	161	161	161	161	160	161	161	161	162	162	161	161	160	159	159	159	159	160	160	160	160	161	160	159	159	159	161	162	161	164	163	162	162	161	160	162	162	162	162	160	162	160	160	161	162	162	161	162	162	161	161	162	161	161	161	163	161	161	162	161	160	162	162	160	162	162	162	162	162	164	163	165	164	162	160	163	163	164	164	162	162	162	162	163	162	162	163	163	165	164	165	163	162	163	162	162	163	164	163	161	161	161	162	162	162	163	162	162	162	160	162	160	160	160	161	161	161	164	163	163	163	162	162	162	162	164	163	163	161	161	161	162	163	163	163	162	161	160	162	161	161	161	161	162	162	163	163	164	162	162	162	164	162	161	163	161	163	161	161	160	162	162	163	162	161	162	161	161	161	160	160	161	163	161	161	161	160	159	160	161	162	163	162	163	161	161	160	162	161	162	162	163	162	162	162	161	162	162	162	162	162	163	162	161	161	161	162	163	162	161	163	162	161	161	159	160	160	159	159	160	161	161	161	162	161	161	162	160	160	162	161	160	160	160	161	160	160	160	160	161	161	161	160	159	160	161	160	160	160	160	160	158	161	162	161	159	159	160	161	160	159	159	158	159	159	158	157	155	157	157	156	156	156	156	157	157	156	154	156	154	158	159	157	158	159	157	157	157	158	157	156	156	156	157	157	157	158	155	156	156	155	155	155	155	155	156	155	155	154	152	153	153	153	153	153	154	154	153	155	153	154	154	153	153	152	153	153	153	152	151	151	151	151	152	153	155	155	153	151	151	153	153	153	154	150	152	155	153	151	149	147	148	147	148	150	150	150	151	150	149	150	150	149	150	151	151	151	151	151	151	151	150	149	150	148	148	149	148	148	147	147	147	148	147	148	151	149	146	146	146	147	146	147	148	149	150	149	149	147	147	146	147	146	145	145	144	144	144	142	142
146	146	146	148	148	148	148	148	148	151	151	153	151	150	148	148	149	153	152	152	150	150	153	150	150	152	155	155	155	150	151	151	150	150	150	151	152	153	151	153	153	152	152	151	152	152	152	153	153	153	153	153	151	151	152	152	152	152	153	153	153	153	151	152	154	154	154	154	154	154	153	152	152	152	152	152	152	152	152	151	152	154	153	154	155	155	154	154	153	154	154	155	157	157	155	154	153	153	154	154	154	153	154	154	154	154	154	155	155	154	153	154	155	157	156	156	155	155	155	155	155	156	156	154	154	155	155	156	156	156	156	152	155	155	155	156	156	156	155	156	158	156	154	156	155	154	154	156	156	156	157	157	157	157	156	157	157	157	155	156	156	157	157	156	156	157	156	157	157	158	157	157	158	158	158	158	158	158	159	157	157	157	156	156	156	156	156	157	158	158	160	161	160	159	157	157	158	159	159	160	161	160	160	159	156	156	160	161	160	160	160	160	159	159	160	160	160	159	159	160	161	161	161	162	161	162	161	159	162	163	163	162	161	160	159	161	161	161	161	160	161	162	162	162	161	160	159	161	161	160	162	163	160	159	159	159	161	161	160	161	161	160	161	160	160	162	159	162	159	162	161	161	160	161	161	162	161	162	162	162	161	161	162	161	161	163	161	164	162	160	161	162	161	161	162	160	161	160	160	162	164	165	163	162	163	160	163	162	162	162	164	164	163	163	162	162	162	163	163	165	164	162	163	163	163	161	161	162	161	161	161	161	162	162	162	162	162	161	162	161	161	160	159	160	160	160	163	162	162	163	162	161	162	163	162	160	163	164	163	162	161	163	164	163	163	160	160	160	161	161	162	162	161	162	163	163	163	163	163	160	162	164	162	160	160	160	163	162	161	160	161	162	163	162	161	160	160	159	159	160	160	162	163	163	162	160	160	160	159	162	161	163	161	161	159	158	159	160	163	161	162	159	158	159	160	161	163	162	162	163	163	161	161	161	161	160	161	161	161	161	160	159	160	160	159	160	158	159	159	161	160	161	159	160	161	160	161	162	161	160	157	158	158	159	160	159	159	158	159	160	160	160	159	158	158	158	159	159	159	159	160	158	161	160	159	159	159	159	159	161	160	157	159	159	158	157	156	157	157	156	157	154	155	157	157	157	156	155	155	156	154	153	154	154	159	157	157	157	156	155	154	155	156	157	157	157	157	154	154	153	155	154	154	154	155	155	156	155	154	153	154	153	151	153	152	152	153	153	152	155	154	153	152	151	151	150	151	152	152	150	149	151	151	153	152	154	154	151	150	151	151	151	153	152	150	150	152	153	150	146	147	147	147	149	149	149	150	151	152	148	149	148	148	151	151	151	150	151	151	150	151	149	149	149	149	148	148	148	148	148	148	147	147	147	148	149	147	146	146	147	148	146	146	146	147	149	149	150	148	148	147	147	146	146	146	144	143	142	142	141
143	147	148	148	148	147	146	146	147	150	153	153	151	148	147	147	149	152	152	150	150	150	151	150	151	151	152	153	150	152	152	153	154	155	152	152	152	152	151	151	151	151	152	151	151	152	154	154	153	152	151	150	152	152	153	151	152	152	153	152	151	151	150	152	152	154	154	154	153	153	153	153	153	152	152	151	151	154	154	152	151	151	153	152	154	154	154	153	153	152	152	155	155	156	155	154	153	153	154	154	152	152	153	154	156	154	154	155	157	154	153	153	155	156	156	153	153	153	154	154	155	156	156	153	152	154	155	156	156	155	154	155	155	154	153	154	154	155	155	157	155	156	156	154	154	155	155	155	157	156	158	158	157	157	157	157	157	157	154	154	155	156	157	156	156	156	155	157	157	156	156	157	157	159	158	157	155	156	155	157	158	157	156	155	155	155	157	157	159	160	159	160	159	159	157	156	157	158	160	160	160	159	158	156	155	156	160	160	160	159	159	160	159	159	160	160	160	159	160	160	161	162	161	161	161	161	162	162	162	162	163	162	160	159	159	159	160	161	161	161	159	160	161	162	162	161	158	159	160	161	162	163	162	160	160	160	160	161	160	160	160	160	159	158	160	161	162	162	158	160	161	161	162	162	160	161	161	162	162	162	161	159	160	161	161	162	162	161	161	161	160	161	162	162	162	162	162	159	160	162	162	166	164	162	162	164	163	160	162	162	162	164	164	162	162	162	162	162	162	162	164	161	163	161	162	161	161	160	160	160	161	162	163	162	163	162	162	162	162	161	160	158	158	159	159	160	162	164	165	163	163	162	163	163	162	160	162	162	163	163	162	162	161	158	161	159	160	161	162	162	162	161	161	162	160	160	161	162	163	161	161	162	160	159	158	158	161	160	160	160	160	161	163	163	159	160	159	160	159	159	160	160	163	163	163	163	161	160	161	161	162	161	160	160	159	157	159	159	162	163	163	159	158	160	160	160	161	161	161	161	161	161	162	160	159	160	161	161	161	160	159	159	159	158	159	160	160	160	160	161	160	161	160	158	159	159	160	158	160	159	160	157	158	159	159	160	158	158	159	160	159	159	159	159	159	158	158	158	157	157	158	159	159	161	159	159	158	158	159	159	159	157	157	157	156	157	157	157	158	156	156	155	154	155	156	156	155	155	155	154	155	155	155	156	156	156	155	155	154	153	154	154	154	155	155	153	154	154	153	153	153	154	153	154	154	154	155	155	153	153	153	153	153	152	152	152	152	152	152	154	152	152	151	151	152	151	151	151	150	148	149	151	152	151	153	152	151	151	149	150	150	151	150	151	150	150	150	150	149	146	146	149	149	149	149	150	150	150	149	150	148	146	147	150	151	150	150	150	151	150	149	150	149	148	149	148	148	148	148	148	148	147	149	148	148	147	147	147	147	147	146	146	148	147	147	149	149	147	145	146	147	147	146	146	145	144	144	142	141	142
143	146	148	148	148	146	146	146	147	150	150	150	151	148	148	150	150	149	150	150	150	149	150	148	148	148	149	152	150	152	152	152	152	151	151	150	150	150	151	151	151	151	150	150	151	152	151	152	152	151	150	152	153	153	153	152	152	153	153	152	149	149	149	152	152	151	153	152	152	152	153	153	154	153	153	150	151	154	154	152	151	151	153	152	152	154	153	153	152	152	154	152	153	155	154	154	153	153	153	154	153	154	154	154	155	154	154	154	154	153	153	153	153	153	153	152	152	153	153	153	153	151	154	153	154	153	155	155	159	156	156	154	155	153	153	152	153	155	155	155	156	156	156	155	155	155	155	155	157	157	156	155	159	157	158	157	157	157	153	156	155	156	156	156	155	155	155	155	156	156	154	154	155	155	154	154	154	155	155	156	158	157	156	154	155	156	157	157	158	159	159	161	161	160	159	156	158	159	159	159	156	156	155	155	154	157	159	160	160	159	159	159	158	160	161	160	160	160	160	160	161	161	161	161	160	159	160	161	162	162	160	159	160	159	158	159	159	160	161	160	159	160	159	161	161	161	160	159	159	159	160	160	161	159	160	159	160	160	159	159	159	159	159	160	160	160	161	162	159	160	161	163	163	162	161	162	161	160	160	160	159	158	160	160	161	161	160	160	160	160	163	163	162	163	161	161	162	158	160	161	162	164	163	163	163	160	158	159	160	161	162	163	163	162	161	162	161	162	162	161	160	161	160	161	161	161	161	161	160	160	161	162	163	163	163	163	162	162	160	159	159	158	157	159	158	159	164	162	162	162	161	159	161	161	161	161	161	160	160	159	159	158	158	160	157	159	158	162	162	162	162	162	161	160	159	159	160	160	162	161	160	160	160	157	160	158	160	160	159	160	161	161	161	161	158	159	160	160	160	161	161	161	162	163	163	161	160	161	162	162	162	161	160	160	162	161	160	160	163	163	163	160	160	160	160	161	161	159	160	160	160	162	161	158	158	160	161	161	159	158	158	158	159	159	159	158	160	159	160	160	160	160	158	157	158	159	159	160	160	160	157	158	158	158	158	158	158	158	158	158	156	157	157	158	158	159	159	159	159	159	159	159	159	159	159	158	157	157	155	154	154	156	157	157	156	156	156	157	157	156	157	155	154	156	157	156	156	156	155	154	154	153	154	154	154	155	155	153	153	153	153	154	155	155	154	151	152	152	152	154	152	152	151	152	152	153	154	154	153	154	154	153	152	152	152	151	152	151	152	154	150	151	151	151	152	151	151	151	150	149	149	149	150	152	151	151	150	149	148	149	149	150	150	150	149	150	150	149	149	146	146	149	149	150	149	149	149	147	146	149	148	146	147	151	150	151	151	151	149	148	147	147	148	148	148	148	147	148	148	148	147	147	147	148	148	147	148	148	147	147	148	148	148	147	148	148	147	145	145	145	145	145	145	146	145	144	145	143	142	142
145	146	147	147	147	146	146	146	146	148	149	148	148	148	147	145	145	147	147	147	149	149	150	151	151	151	151	150	151	152	152	150	150	150	150	152	152	150	149	151	149	149	149	150	150	150	150	150	150	151	150	151	152	153	152	152	152	152	153	150	148	149	149	148	149	151	153	152	152	153	153	153	153	151	151	154	153	153	153	153	153	153	152	152	152	154	152	152	152	154	154	152	153	153	153	153	153	152	153	154	155	155	154	154	153	154	154	154	153	154	155	153	153	153	152	154	156	153	153	154	153	153	153	153	155	154	155	156	159	155	154	154	153	152	151	152	155	154	155	154	154	155	155	155	155	155	155	155	156	155	153	154	154	157	158	156	156	157	155	155	154	156	156	156	154	154	154	155	155	154	154	154	155	155	154	154	154	154	155	156	157	156	154	155	155	154	157	156	157	159	158	159	160	158	160	157	158	159	159	159	155	156	155	156	155	158	159	160	160	158	158	156	156	158	159	160	161	161	160	161	158	160	161	160	159	158	160	161	161	161	162	161	161	159	158	158	158	159	161	161	159	160	160	160	160	160	161	160	159	158	160	160	160	159	159	159	159	160	162	158	158	159	159	159	160	161	162	161	161	161	160	161	161	162	161	161	160	162	161	161	161	159	161	160	159	159	157	158	159	163	162	163	162	162	160	158	160	161	162	162	162	163	161	160	161	161	160	160	159	160	161	160	162	163	160	161	160	161	160	160	160	161	161	160	160	160	158	161	162	161	160	162	162	164	164	163	164	163	161	160	160	159	157	157	157	159	161	162	162	162	161	160	161	161	161	161	161	160	160	159	158	160	158	158	158	159	159	161	161	161	161	160	159	159	159	158	160	161	162	162	161	160	161	161	157	158	157	159	158	159	159	160	160	159	158	158	159	160	160	160	161	161	163	158	158	161	160	159	157	157	160	161	161	161	161	161	160	159	161	162	160	160	160	159	159	160	160	157	158	158	158	157	157	157	159	159	158	158	158	159	159	159	160	160	159	159	157	159	159	159	159	159	157	157	157	160	160	159	158	158	158	159	158	159	158	158	158	158	156	156	156	157	156	157	156	157	158	159	159	159	159	159	159	158	159	158	157	156	154	154	154	155	156	156	156	156	156	155	155	157	158	156	156	156	156	157	156	156	155	155	154	155	154	155	154	154	155	155	156	154	154	154	155	155	154	152	152	153	152	152	153	153	151	151	151	150	151	153	153	152	151	151	150	152	151	150	151	152	153	151	151	149	151	151	151	149	150	150	149	149	150	149	151	151	151	150	148	148	149	149	149	149	149	150	149	149	149	148	147	148	147	147	147	149	149	149	149	147	146	146	146	146	148	151	151	151	150	150	149	146	147	147	149	149	148	148	148	147	146	146	146	147	147	148	148	147	147	147	147	147	148	148	146	147	147	146	147	146	145	145	145	145	145	146	146	147	145	144	144	142
144	146	146	145	145	146	147	145	145	148	147	147	147	148	146	146	146	146	147	146	148	148	150	150	151	149	149	148	150	150	150	150	147	149	147	151	151	151	149	147	149	148	149	149	150	149	149	149	150	150	150	150	151	151	152	152	152	152	150	148	148	148	149	149	150	152	151	151	151	153	154	154	151	151	153	152	153	154	152	152	152	152	151	151	152	149	152	152	152	153	153	153	152	152	153	151	150	152	153	154	154	154	151	151	151	151	152	153	154	155	155	153	152	153	154	153	156	156	155	154	152	152	151	151	154	155	156	156	158	154	154	154	153	152	151	154	155	154	154	153	153	154	154	153	157	157	155	155	154	154	151	154	156	157	157	158	156	156	155	155	156	156	156	154	153	156	156	155	155	154	154	155	155	156	155	154	156	155	155	155	153	154	155	153	154	154	155	155	156	156	158	159	158	159	158	158	158	159	158	158	158	158	155	156	155	159	160	159	159	158	154	154	156	157	158	160	161	159	159	159	158	158	160	159	158	158	159	159	161	161	162	161	159	159	158	159	158	158	159	160	159	160	160	159	160	160	160	159	160	160	160	161	160	159	159	160	162	162	159	163	160	160	160	160	160	161	162	162	161	159	160	160	160	160	160	161	160	159	160	160	161	160	159	159	159	158	158	158	159	163	162	163	163	161	158	158	159	161	162	164	165	163	161	161	160	160	161	160	158	160	161	161	160	161	160	159	159	159	158	158	158	159	160	160	160	161	163	161	160	160	161	161	164	162	162	161	161	159	159	162	161	160	157	157	158	160	158	158	160	160	162	160	161	163	164	161	160	159	158	158	159	160	159	157	158	160	159	160	161	160	160	161	160	159	158	159	159	159	161	162	162	163	161	162	162	158	159	160	159	158	158	159	159	158	157	159	159	160	160	160	159	160	157	157	158	159	159	158	158	160	161	162	161	161	161	160	159	159	160	160	159	159	159	156	158	158	158	159	161	160	160	159	159	157	158	158	158	158	157	158	158	161	160	160	158	157	157	158	159	159	158	157	157	157	157	158	160	159	157	157	157	158	159	159	156	158	158	158	158	155	155	155	156	157	157	156	157	157	158	159	157	157	156	157	158	158	157	156	155	154	155	156	157	155	156	156	153	153	152	153	153	155	155	156	156	156	154	153	155	155	154	155	154	155	154	154	153	155	155	153	153	154	154	155	154	154	155	154	152	152	153	154	153	151	152	150	152	152	152	153	152	152	150	152	151	150	151	152	151	150	150	149	149	150	149	149	149	149	149	149	150	150	151	152	148	147	148	148	150	150	150	149	149	149	150	149	149	147	150	148	148	147	147	146	148	147	146	147	149	149	146	147	148	150	150	150	150	149	149	148	145	145	149	149	148	147	148	147	145	145	144	146	145	145	146	146	146	147	148	148	146	145	145	145	146	146	146	145	145	144	144	144	145	146	146	146	146	145	145	144
146	146	146	145	146	146	147	144	146	146	146	146	146	146	146	146	146	146	146	145	147	149	149	146	144	145	147	147	150	149	148	147	145	146	146	150	147	147	147	147	148	148	148	148	149	150	149	149	149	149	150	147	148	149	150	150	150	150	149	148	148	148	150	150	150	149	151	151	151	152	151	151	151	151	154	154	152	152	151	150	151	151	149	152	152	151	153	152	153	153	152	152	152	152	152	151	151	152	153	153	153	151	150	149	150	150	150	151	151	154	156	152	152	153	152	155	155	156	155	154	152	152	152	153	153	153	150	154	154	154	155	153	153	154	154	153	154	153	153	152	154	152	153	155	156	156	155	154	153	152	153	153	154	153	155	156	156	155	155	155	155	155	156	154	156	156	156	155	154	154	153	155	156	156	155	154	156	155	155	154	156	156	156	154	153	154	153	154	153	155	155	156	156	157	156	157	158	158	158	155	157	156	156	156	156	157	157	157	158	158	156	154	154	155	158	158	160	159	159	160	159	159	158	159	158	157	159	160	159	159	160	161	158	157	156	156	157	158	159	160	159	158	159	158	158	158	158	156	158	159	159	159	159	160	159	159	160	159	161	159	159	158	160	161	160	159	160	161	159	159	158	158	158	158	158	159	158	159	159	162	159	159	158	159	159	158	157	158	158	160	160	162	158	158	158	158	158	161	161	164	161	162	160	159	159	160	160	160	160	159	160	160	160	160	159	159	158	157	158	158	158	157	159	161	161	162	162	162	160	160	161	162	162	162	162	161	161	158	158	157	162	160	162	159	159	160	161	162	161	162	161	158	158	161	160	161	160	159	159	161	159	161	160	157	157	158	159	160	158	158	160	157	158	158	159	158	159	157	160	163	161	162	161	162	162	159	158	155	158	158	157	158	158	158	157	159	160	160	160	160	157	157	156	159	157	157	158	159	157	159	158	159	159	160	160	160	160	159	158	157	156	156	156	158	158	158	159	161	161	159	159	158	158	157	157	158	158	157	157	158	158	158	160	157	157	158	157	157	157	157	157	157	157	157	158	159	159	159	157	157	156	156	158	158	157	159	158	158	157	155	155	155	155	156	156	156	155	156	157	157	157	156	156	156	157	158	156	155	153	155	156	155	156	156	157	157	157	153	152	152	152	153	155	153	153	153	153	155	154	154	153	155	156	155	154	155	154	152	151	151	154	154	154	154	154	154	154	154	153	152	154	153	152	150	152	151	152	153	153	152	152	152	152	151	150	149	150	150	151	150	150	149	148	148	148	150	150	149	148	149	149	149	149	151	150	148	148	149	149	151	151	150	149	147	148	150	149	149	150	150	147	149	146	146	147	146	145	145	148	149	148	148	148	148	149	148	147	147	148	146	146	145	145	147	147	148	147	146	146	145	145	145	145	145	145	145	145	147	148	146	146	147	146	146	145	145	144	145	145	144	144	144	147	145	145	145	146	146	145	145
146	146	146	146	147	147	147	144	146	146	145	146	147	146	146	146	146	146	146	147	147	148	146	146	144	145	146	146	147	148	146	145	146	144	144	146	148	145	145	145	149	149	149	148	148	149	150	150	151	148	148	147	150	148	150	150	151	151	149	148	147	148	146	149	149	150	151	151	151	150	150	150	150	151	150	150	151	151	150	150	148	148	148	148	150	151	151	152	152	153	152	151	153	153	152	151	150	151	150	151	150	150	149	149	150	150	150	151	153	155	155	154	155	154	153	154	155	154	154	154	151	151	152	152	152	150	150	154	154	154	152	152	153	153	150	152	152	153	155	155	153	153	154	155	155	154	154	153	152	152	155	154	149	149	149	154	155	155	155	153	152	155	153	153	154	156	157	155	154	154	155	156	157	155	156	156	157	154	153	157	156	157	156	155	155	153	153	154	153	155	154	156	156	157	157	155	154	155	156	155	154	154	155	156	156	157	155	159	159	159	158	156	153	154	157	159	160	159	160	157	160	159	159	158	158	158	159	157	158	158	159	158	160	157	155	155	153	155	159	159	159	159	160	159	157	155	156	156	155	158	158	159	159	158	159	158	159	159	158	158	158	159	161	160	159	159	161	160	158	158	159	159	158	159	160	160	159	159	159	158	159	159	158	158	157	157	158	158	158	159	159	158	158	158	158	159	159	161	160	160	160	160	158	158	159	158	159	160	159	160	159	160	158	158	160	160	159	158	157	158	158	159	158	160	161	161	163	161	160	162	161	161	162	160	161	160	161	159	158	158	158	158	160	159	160	161	161	161	161	159	159	160	160	160	160	159	158	158	159	161	161	159	160	160	158	158	159	159	157	158	159	158	158	157	159	158	157	157	157	162	161	161	160	161	161	160	155	157	156	156	155	154	156	156	159	160	161	162	160	158	160	159	159	157	156	156	156	156	156	159	161	160	159	159	158	160	160	158	158	157	158	158	157	157	158	158	161	159	159	158	157	157	158	157	157	156	158	158	158	156	158	156	156	155	157	159	157	156	155	155	155	156	157	158	157	156	157	156	157	157	158	156	156	156	158	158	158	157	156	156	156	155	155	155	155	155	156	156	155	155	156	156	157	159	158	157	156	154	153	154	155	156	157	156	156	156	154	153	152	152	152	153	153	153	152	153	153	155	153	153	153	153	155	155	154	153	152	152	151	151	151	154	153	153	151	151	152	152	152	151	152	153	152	150	151	151	151	152	153	152	151	152	152	150	149	149	150	150	150	148	149	147	148	148	148	148	150	150	149	149	149	149	149	150	148	148	147	148	151	150	149	150	147	147	147	147	148	145	149	146	150	147	144	145	145	145	144	145	148	149	148	146	148	149	148	147	147	147	146	145	146	145	145	147	147	147	147	146	146	145	145	145	144	144	144	144	145	145	145	145	144	145	145	146	145	145	144	145	143	144	144	144	144	146	145	145	145	146	144	145
146	146	146	146	146	145	145	147	146	145	145	146	146	146	146	147	146	145	145	146	146	145	144	144	144	145	148	147	147	145	144	144	144	144	146	146	148	149	148	148	149	149	149	149	149	150	150	150	150	151	150	150	150	150	149	150	149	148	148	150	151	151	146	147	150	150	150	150	150	150	151	149	148	148	150	149	149	150	151	150	148	150	150	149	149	151	149	152	152	152	150	151	153	153	150	149	150	150	150	150	150	150	151	151	151	150	150	150	153	155	155	155	156	154	153	152	152	153	151	151	151	150	150	151	151	152	153	154	154	154	151	151	152	152	150	150	151	153	155	152	151	153	154	152	152	151	154	154	153	153	155	148	148	148	148	152	155	154	154	153	152	153	152	153	155	157	154	154	155	154	155	156	157	156	156	156	155	155	154	155	154	154	154	155	155	158	155	155	155	153	153	156	155	157	154	156	156	155	155	153	153	153	155	158	158	158	155	153	154	157	159	157	155	154	158	159	158	157	155	160	159	159	160	158	157	157	157	158	157	157	157	158	159	155	155	155	153	156	158	158	159	159	159	159	156	156	155	155	156	158	158	158	158	158	158	159	158	157	156	158	158	160	159	159	159	159	159	159	158	158	160	159	158	158	158	160	159	159	159	158	158	158	158	157	159	159	158	158	159	159	159	158	158	158	160	159	160	160	159	159	160	160	158	160	160	157	159	160	159	159	158	158	158	158	160	160	161	159	159	157	158	159	160	160	160	161	160	161	158	159	162	161	159	160	160	159	160	159	158	159	157	159	159	160	159	159	161	161	160	160	160	160	160	160	160	159	157	158	161	163	162	160	159	157	157	157	156	158	159	159	157	159	158	158	160	159	158	159	159	158	159	158	159	158	159	158	156	156	154	154	156	155	160	159	161	160	161	159	157	156	157	158	158	158	155	155	155	156	159	160	158	160	159	158	157	158	158	159	159	159	159	158	158	158	156	159	158	159	158	158	157	155	157	157	157	157	157	156	157	157	155	155	154	157	156	157	157	157	156	156	156	157	155	154	154	153	157	155	154	154	156	158	157	157	155	156	157	157	157	156	156	156	156	156	154	154	156	155	156	154	153	154	158	158	157	156	156	154	154	154	156	157	156	157	156	154	153	154	153	152	151	152	151	152	152	153	152	153	151	153	153	154	155	155	152	153	152	152	151	151	151	154	153	152	151	151	151	153	152	151	152	152	151	151	151	151	151	150	151	151	151	150	151	149	148	148	149	150	149	149	149	147	147	148	148	148	150	149	149	149	149	149	148	148	148	148	148	149	148	148	150	150	148	147	147	147	149	148	145	146	146	146	145	145	145	145	143	145	146	147	146	146	146	146	146	147	147	147	146	147	147	146	147	147	147	147	144	146	146	146	146	145	144	144	143	144	145	145	144	145	144	144	145	145	144	143	144	143	142	142	143	144	144	144	144	144	145	144	144	143
144	146	146	146	146	148	148	147	145	145	145	144	146	144	144	144	144	144	144	144	144	144	144	146	146	145	148	147	145	145	143	143	143	146	146	146	149	149	148	148	149	150	149	149	149	149	150	149	149	149	149	149	150	150	149	151	152	152	152	150	150	151	148	147	147	149	149	150	149	148	148	148	150	150	150	150	150	150	148	148	149	148	149	149	149	149	149	150	150	150	150	153	151	150	150	149	150	150	150	150	151	151	151	151	151	150	153	150	150	155	156	154	154	153	151	151	151	152	150	151	151	151	151	151	151	152	153	152	152	152	151	150	150	150	149	151	150	155	153	154	152	153	154	152	151	151	151	152	152	152	149	151	151	151	151	151	153	155	153	152	151	153	152	152	153	154	154	153	154	155	156	156	156	157	156	156	154	154	155	155	153	153	155	156	157	158	155	155	154	154	155	157	157	157	155	155	156	155	157	153	152	153	156	157	157	159	155	153	154	156	155	155	154	156	156	159	156	157	154	155	156	160	159	159	157	157	156	156	155	157	156	156	159	155	154	153	155	156	157	158	158	159	159	158	155	155	155	157	158	160	159	159	158	158	158	157	155	158	157	157	156	156	158	159	157	158	157	159	159	159	159	159	158	158	159	158	157	159	158	157	157	157	158	157	158	159	158	158	158	158	156	159	159	158	160	158	159	159	161	161	159	159	159	160	158	156	156	158	160	160	158	157	157	160	160	160	159	159	160	160	160	160	158	160	160	158	157	156	157	158	158	157	159	159	159	159	158	160	160	160	159	157	154	155	156	158	160	158	159	158	159	159	160	157	156	156	156	158	158	160	159	159	159	157	158	159	159	160	159	156	158	159	159	160	157	159	159	158	158	158	159	158	157	156	155	157	157	157	155	156	157	157	160	160	159	159	158	158	156	156	156	157	158	157	157	156	156	156	160	160	161	159	158	159	158	157	156	158	159	158	158	159	158	156	155	157	157	158	158	158	157	155	156	157	157	156	155	157	156	155	154	154	155	154	155	156	156	156	156	156	156	157	157	155	153	154	157	154	153	154	154	156	155	156	154	155	154	154	153	156	156	155	156	156	155	155	155	155	155	154	153	154	154	157	157	156	154	155	153	155	156	157	157	157	152	153	154	154	154	153	151	149	152	152	153	152	153	152	152	152	153	152	155	154	153	152	152	152	152	152	151	152	151	151	151	151	151	150	151	150	151	151	151	150	149	148	149	150	151	151	151	150	151	149	148	148	150	148	147	147	147	148	149	149	152	151	150	148	147	147	147	148	147	147	147	147	148	148	148	148	148	146	150	149	147	147	147	149	148	144	144	144	143	145	143	145	147	146	145	144	145	146	146	145	146	147	147	147	147	148	146	146	146	147	147	145	145	145	146	145	146	145	145	144	144	144	144	144	144	144	144	144	143	143	142	141	143	143	143	142	143	143	144	143	144	144	144	144	142	142
142	146	146	145	146	147	145	145	146	145	143	143	146	145	143	143	144	144	144	146	146	146	147	148	148	148	148	146	145	145	144	145	143	143	143	146	147	149	150	150	150	146	147	148	149	148	148	147	147	147	148	149	149	148	151	151	151	151	149	149	149	149	146	147	147	147	147	148	148	147	147	148	150	150	150	150	152	150	149	149	148	148	149	148	148	148	148	150	149	151	151	153	151	150	149	149	151	150	149	149	151	151	152	152	151	150	151	150	150	150	150	150	151	151	151	151	150	150	150	149	148	149	151	151	151	151	151	151	149	149	150	149	149	149	152	153	151	155	153	152	152	154	153	153	152	151	151	151	151	151	150	151	153	152	152	155	155	154	152	151	150	149	151	152	154	154	153	152	154	156	155	156	156	156	157	156	154	156	156	155	154	153	153	154	157	158	153	154	154	154	154	156	157	156	155	155	156	155	158	153	153	153	155	157	157	158	158	158	156	155	156	155	154	156	157	157	156	157	158	159	157	158	158	158	158	157	158	156	156	155	155	159	155	156	157	158	159	159	159	159	158	157	157	157	157	160	161	160	160	161	159	159	158	157	155	155	156	156	157	157	156	156	157	158	158	158	157	159	159	157	159	156	158	157	156	155	156	158	158	156	157	157	156	156	156	158	158	158	156	156	157	158	159	157	157	160	159	158	159	159	159	159	157	159	160	160	159	158	157	157	156	155	155	156	158	159	159	158	160	159	160	159	158	158	160	157	157	157	157	158	157	156	156	157	159	159	159	160	159	160	159	157	155	154	158	157	158	157	158	158	158	160	158	157	157	155	156	157	156	158	159	158	158	157	158	158	159	159	159	158	159	157	159	159	159	159	158	158	157	158	158	158	159	157	156	156	156	157	157	157	156	156	156	159	159	158	158	158	156	156	155	156	156	158	159	158	157	155	158	158	159	157	154	155	155	155	156	157	158	158	158	158	156	156	157	157	156	157	157	158	156	155	157	159	157	157	156	156	157	155	155	156	155	155	153	154	155	155	157	157	157	157	156	154	154	155	156	156	153	153	154	155	154	154	155	153	155	154	155	154	155	156	155	155	155	153	154	155	154	152	154	154	154	154	153	156	155	153	154	155	157	153	151	154	153	153	154	152	153	152	151	152	152	151	152	153	152	151	152	152	152	152	154	154	153	152	151	152	152	152	152	151	151	150	151	150	151	150	150	150	150	150	150	151	148	147	147	150	149	148	148	149	149	149	148	148	148	148	148	147	147	147	149	149	148	148	149	149	147	147	147	147	148	148	148	148	148	148	148	148	148	147	148	148	148	147	147	148	148	144	143	143	144	145	143	145	147	146	145	145	144	145	145	146	146	146	146	147	148	146	144	144	143	145	145	145	144	144	146	146	146	146	144	144	144	143	144	144	142	141	141	142	143	142	141	141	143	143	142	143	142	142	143	144	144	144	144	143	143	143
