307	309	305	304	304	304	306	306	302	303	303	306	305	307	307	307	307	308	306	304	300	300	303	308	312	311	311	306	306	304	305	306	308	310	309	309	308	309	307	304	304	304	306	307	305	304	303	305	307	309	310	311	310	310	306	302	304	301	303	308	308	309	307	307	307	307	307	311	311	318	315	312	311	312	314	313	309	306	308	310	311	312	313	312	310	308	308	310	310	310	308	303	304	307	306	307	309	309	305	305	308	309	310	311	311	308	308	307	309	312	312	310	308	312	312	310	308	306	308	310	306	305	305	307	307	304	305	303	307	309	315	317	317	313	315	317	320	321	320	319	317	316	315	311	309	306	310	307	305	305	310	312	313	311	306	304	304	307	309	311	312	312	312	312	312	310	306	306	310	311	311	311	307	307	308	309	306	300	309	312	311	314	303	302	303	303	305	305	305	307	307	308	309	308	309	309	308	306	302	301	302	305	306	307	306	308	308	306	306	309	312	312	312	306	305	307	308	307	302	301	304	308	308	313	314	314	308	307	305	305	306	299	301	304	306	311	309	310	310	311	309	305	302	304	311	313	312	308	308	309	308	307	308	314	314	311	313	313	310	303	299	307	311	311	311	308	308	308	309	307	304	302	303	306	307	307	307	306	307	309	307	303	303	299	302	298	297	296	301	304	305	307	309	308	312	306	304	305	307	310	311	310	312	310	305	306	304	312	309	303	302	303	304	306	307	309	308	308	308	309	311	310	305	307	309	307	308	309	312	308	304	304	300	298	297	299	302	309	307	309	310	307	307	303	302	306	307	309	305	302	300	301	302	301	304	307	306	307	308	306	305	303	305	304	300	307	306	307	310	307	305	304	305	304	305	307	309	308	306	306	305	304	306	307	307	309	307	306	306	305	305	307	304	303	305	308	311	313	311	306	304	301	304	305	303	303	304	306	303	302	307	309	306	305	304	302	303	305	306	307	310	305	303	303	304	303	305	306	305	302	303	305	303	305	308	308	309	309	309	309	309	311	308	310	304	303	300	298	297	297	300	305	306	306	306	305	306	305	304	303	299	301	303	307	308	307	304	307	307	305	305	304	305	304	304	301	299	299	301	303	304	307	305	303	302	304	305	308	310	310	306	302	302	301	304	299	301	301	301	298	297	296	296	298	302	301	299	299	298	299	299	304	304	302	300	301	302	302	304	306	307	302	295	289	296	298	304	304	303	301	301	303	300	301	305	308	308	306	304	300	297	294	297	300	302	302	301	301	304	304	302	300	300	301	302	303	304	302	301	301	300	299	298	297	299	301	306	304	304	303	300	304	303	301	300	299	293	298	298	298	296	297	299	299	302	303	297	296	301	302	302	296	300	301	302	299	300	300	300	299	298	296	303	304	305	305	303	306	305	305	307	309	309	309	308	308	307	307	303	299	299	298	306	308	308	304	303	301	303	303	301	300	0	0	0	0	0	0	0	0
305	303	302	304	303	303	304	300	295	301	301	302	301	302	305	305	303	305	305	303	298	298	298	303	310	309	304	304	304	302	302	302	307	308	308	308	309	309	307	304	302	302	303	304	304	304	302	304	305	306	307	308	306	303	303	303	298	299	302	304	307	307	304	302	302	304	304	306	307	308	308	308	306	307	308	305	303	304	307	309	310	312	312	309	304	301	304	304	303	301	300	298	297	298	299	303	303	300	298	299	304	307	307	306	305	306	304	305	309	309	308	303	303	304	312	311	302	304	308	307	306	307	306	306	305	306	305	305	306	307	308	308	311	315	315	311	311	314	315	315	312	312	310	311	308	308	307	306	305	306	309	310	310	306	305	303	302	305	307	310	311	310	311	312	310	305	302	303	310	309	311	311	306	304	304	300	298	300	304	301	299	300	303	304	304	303	302	304	303	305	306	305	306	307	308	306	303	302	301	300	306	305	305	305	305	305	303	301	300	303	304	304	304	303	303	306	305	303	299	298	303	306	306	307	308	308	305	303	301	297	299	303	304	304	304	305	304	306	309	310	309	299	298	300	304	313	310	308	307	307	307	307	305	304	311	309	306	301	301	298	299	303	308	307	308	305	305	302	301	304	302	300	302	303	304	301	303	304	304	302	300	300	304	303	301	297	296	297	302	309	310	308	308	305	302	299	298	299	307	309	310	309	306	306	307	306	308	306	307	302	302	302	301	302	304	305	307	307	306	308	308	308	305	306	307	304	300	300	301	303	301	301	299	297	297	298	301	310	310	307	306	307	301	302	302	302	303	303	304	302	298	298	297	295	301	299	298	306	308	308	305	304	304	303	297	302	303	302	302	302	304	302	302	304	305	306	307	307	306	306	304	303	299	302	301	302	303	303	304	299	303	306	303	298	297	296	291	302	310	308	298	297	296	300	300	301	302	304	304	305	304	306	303	303	302	302	301	302	303	305	301	301	301	301	301	302	303	303	302	301	301	302	301	301	302	305	303	303	304	303	303	302	301	299	300	300	297	295	295	296	297	298	301	303	304	305	304	302	302	298	296	296	297	300	299	293	293	295	298	300	302	301	302	301	300	297	296	296	297	299	300	304	303	301	300	300	304	305	304	304	303	302	299	294	292	292	294	296	299	297	296	294	293	295	296	295	297	298	298	296	296	299	299	297	296	297	297	297	299	297	296	296	295	292	286	293	300	300	300	299	298	296	292	293	301	305	300	303	299	299	298	296	299	301	303	301	299	299	300	296	298	298	297	298	300	300	297	296	299	299	299	298	297	296	296	299	301	301	299	297	302	303	303	303	300	292	293	293	294	297	295	295	294	295	297	297	297	296	295	295	293	297	297	294	292	290	290	290	291	293	297	298	298	297	296	297	305	307	306	301	302	304	307	308	308	308	305	304	301	298	298	298	301	305	306	305	303	301	302	305	298	296	0	0	0	0	0	0	0	0
299	301	301	301	297	297	296	297	299	296	296	295	298	300	302	303	303	303	303	297	294	295	295	294	295	303	301	300	300	300	299	298	304	302	305	307	307	308	306	303	303	302	302	303	303	299	300	299	300	301	301	302	301	302	302	297	297	297	297	301	303	304	302	301	301	301	301	301	297	299	301	303	303	301	298	299	296	298	299	299	300	295	299	299	298	301	298	298	299	301	303	303	303	302	300	300	300	299	298	297	297	304	304	303	303	303	302	301	300	302	303	303	301	302	302	306	306	304	305	303	305	305	305	305	305	305	305	305	306	306	306	306	310	311	307	309	308	308	309	310	306	306	305	304	308	307	305	305	303	306	307	306	307	306	306	302	302	303	302	306	307	310	309	302	297	300	303	304	304	305	305	302	298	298	298	296	299	301	300	297	298	301	304	305	301	299	299	298	300	303	304	303	304	306	306	302	300	299	300	307	307	306	306	305	302	299	302	300	298	301	303	304	304	303	304	304	301	300	299	300	302	305	306	304	305	305	303	300	298	296	296	298	299	302	301	300	298	296	304	308	302	299	297	296	300	307	308	305	300	299	305	304	304	300	297	293	295	294	298	298	299	305	298	300	304	302	300	299	301	297	295	294	296	298	299	297	295	297	295	295	295	295	296	298	301	300	297	295	296	300	299	299	298	299	300	300	297	298	298	305	304	300	302	302	300	305	307	305	304	305	301	298	298	300	298	299	301	304	305	305	305	305	304	304	302	301	299	298	301	299	299	294	292	295	295	299	302	304	304	303	303	304	301	300	299	299	301	304	303	298	296	296	294	293	295	294	293	293	296	297	296	296	295	297	295	298	296	293	307	300	302	299	302	304	305	307	307	307	304	307	305	301	300	296	299	301	302	304	300	297	297	299	299	304	296	294	290	302	306	297	296	294	293	294	295	296	300	303	306	301	301	303	299	298	299	303	302	301	300	296	296	296	298	298	299	301	302	302	301	299	298	298	298	298	299	299	300	302	303	303	300	299	299	301	301	298	292	295	294	294	297	298	299	301	305	305	303	301	299	294	293	292	293	293	294	293	291	292	295	299	300	299	299	298	297	294	292	293	293	294	294	301	300	300	299	299	301	299	300	296	292	292	295	296	292	291	291	294	292	294	294	293	293	295	300	295	295	296	297	297	297	297	292	289	294	294	294	291	291	294	296	294	292	290	285	285	293	298	299	296	290	289	289	295	298	295	293	296	294	296	298	297	295	299	300	298	293	291	294	296	296	297	295	298	299	296	295	292	292	292	296	296	295	295	295	295	302	296	295	295	302	299	300	303	297	292	294	293	296	295	292	294	294	293	295	295	293	293	294	293	289	291	293	293	292	291	291	293	294	294	294	294	297	298	296	294	302	302	296	298	300	298	298	305	308	305	302	298	299	299	291	294	296	302	306	304	302	302	303	300	297	296	296	0	0	0	0	0	0	0
292	297	294	294	293	293	296	299	296	290	290	291	293	296	300	303	297	296	293	293	292	292	292	294	294	296	297	299	298	298	294	297	302	301	301	304	304	306	304	303	303	302	303	295	295	297	296	295	293	294	294	294	294	294	294	294	293	291	294	297	297	298	297	299	300	300	296	296	296	296	297	299	298	298	298	296	300	297	296	297	294	293	296	297	297	297	297	297	297	299	302	304	303	301	299	299	299	300	298	297	297	298	302	301	301	302	300	299	299	299	300	301	301	301	302	301	304	304	305	303	303	304	305	299	299	297	297	300	306	306	306	305	301	303	302	303	306	305	304	303	302	300	300	300	301	301	298	300	300	303	304	303	303	303	303	303	303	301	299	301	305	307	305	299	293	293	294	294	294	295	304	299	298	295	294	294	294	295	297	297	299	299	299	300	300	297	298	298	299	301	302	302	303	303	300	299	299	299	302	304	306	304	305	303	300	297	291	291	292	294	297	297	297	298	298	299	300	300	300	300	303	306	304	303	300	300	297	298	297	295	296	295	295	295	291	291	293	296	299	297	295	293	296	295	300	301	302	301	295	293	294	296	295	294	292	294	296	297	295	295	292	294	298	303	298	301	298	297	299	298	293	294	295	295	296	295	294	290	288	289	290	294	295	298	299	297	296	295	294	295	298	296	296	297	298	298	296	296	295	295	300	298	298	292	291	292	307	306	305	304	301	297	297	294	294	297	297	298	297	298	303	303	302	302	297	296	296	296	298	299	296	293	291	291	294	298	299	297	298	300	299	296	300	292	296	296	296	296	296	295	295	293	292	296	295	290	289	289	293	296	294	296	292	296	299	299	297	296	294	293	297	297	300	301	298	294	293	297	303	305	304	300	299	294	297	299	301	301	299	298	299	300	297	295	293	293	292	299	299	296	289	289	289	290	291	289	289	295	297	300	304	303	299	297	297	297	296	298	299	303	297	292	295	295	296	298	297	300	299	298	293	292	293	295	296	297	296	292	292	298	292	294	294	296	292	291	292	292	294	296	297	298	298	300	299	303	302	298	294	288	289	289	290	289	289	289	289	288	291	296	297	296	295	296	294	293	292	290	290	291	291	292	292	294	295	298	292	292	290	292	294	295	296	295	295	290	287	289	293	291	291	294	294	295	296	297	295	295	295	295	295	290	291	291	288	287	285	285	288	292	293	294	291	288	288	287	286	286	289	288	284	284	291	294	294	294	293	292	295	296	295	297	296	295	295	293	301	294	294	293	294	294	291	296	289	286	288	290	288	289	289	293	292	292	295	294	300	294	292	293	296	301	299	296	294	293	294	293	291	290	292	289	290	291	291	293	294	294	299	298	287	286	287	290	292	292	291	288	294	290	292	290	291	289	292	280	285	286	282	282	282	285	288	284	291	297	298	294	296	296	289	290	294	298	300	302	300	301	299	297	297	295	295	0	0	0	0	0	0	0
286	289	289	289	290	290	295	297	292	289	288	288	289	293	296	297	289	287	288	288	287	289	289	291	293	293	293	292	291	291	291	297	296	292	294	294	294	293	299	298	294	291	291	294	295	295	293	291	285	288	289	292	292	290	289	289	289	289	289	292	293	292	293	295	297	300	294	294	295	293	293	294	296	295	296	298	295	294	295	292	292	293	295	295	296	294	294	295	297	297	300	302	299	299	297	296	297	297	297	291	291	297	299	300	298	299	297	297	297	297	295	297	299	300	300	301	300	302	302	303	304	303	299	300	297	295	294	296	297	305	301	296	297	298	299	299	300	301	300	300	298	296	295	297	297	296	297	298	299	296	295	298	297	297	296	297	300	298	297	297	296	296	292	292	290	289	287	292	291	293	292	294	295	292	291	292	292	295	294	294	298	297	294	292	294	295	296	298	291	290	291	291	294	298	298	298	297	297	298	299	302	299	300	299	297	293	291	298	297	297	297	296	295	297	295	293	295	297	297	299	303	297	298	298	296	292	294	296	296	294	294	294	292	292	289	290	291	291	292	292	292	292	293	292	296	298	299	297	295	291	289	284	289	291	292	290	291	290	288	288	291	296	301	303	304	299	297	298	295	296	292	293	294	295	295	294	292	289	287	287	290	293	290	288	290	296	293	293	294	294	295	294	294	293	295	294	295	287	286	291	297	296	295	291	289	290	289	292	291	290	291	296	292	291	293	294	293	291	288	288	294	295	294	293	290	289	291	295	296	298	297	293	292	292	292	296	294	295	296	297	296	292	289	290	290	293	293	295	294	292	292	292	292	296	296	289	288	287	289	292	293	293	291	295	294	297	294	297	298	289	289	288	290	287	287	291	295	297	297	296	295	293	293	293	298	299	300	299	295	298	299	297	295	291	291	295	296	297	296	289	288	288	288	288	289	290	290	295	293	293	297	299	298	295	294	291	293	296	294	295	295	291	288	288	291	293	296	295	297	295	291	290	292	293	293	293	290	290	289	287	290	291	290	292	291	286	287	291	293	297	296	295	294	292	291	298	299	295	286	283	284	288	288	287	286	288	289	287	288	288	294	293	296	297	295	293	291	289	289	291	290	292	293	292	292	292	291	290	288	289	293	294	295	292	291	289	287	285	286	292	294	294	293	291	292	292	291	292	293	293	292	287	290	290	289	285	284	284	286	288	287	290	289	288	287	287	285	284	286	287	282	281	290	293	293	294	293	288	292	293	295	295	290	290	291	291	301	295	295	293	293	289	285	282	282	284	286	288	286	286	290	289	287	287	288	294	295	293	291	291	293	298	297	295	295	293	294	292	290	290	290	292	292	291	291	290	291	293	293	284	284	285	285	286	286	288	284	288	289	291	289	290	290	294	291	284	280	280	281	282	280	279	279	280	282	284	285	285	285	285	289	288	291	293	295	296	298	298	296	293	292	292	292	0	0	0	0	0	0	0
283	286	287	286	288	288	294	293	288	288	286	286	288	291	292	289	285	284	285	285	284	285	289	289	292	292	294	294	292	292	291	292	287	286	288	290	289	289	295	295	290	290	290	294	294	294	292	292	284	285	288	291	290	289	287	287	285	287	287	290	291	290	290	292	296	298	295	290	290	290	291	291	292	293	293	296	295	293	292	290	291	292	294	294	294	292	291	291	294	294	296	298	297	295	293	294	295	297	293	292	292	296	297	293	292	289	292	292	293	292	291	294	295	295	295	299	300	298	296	297	297	299	300	299	300	293	291	290	292	302	296	293	291	290	291	292	294	292	288	286	294	292	293	293	295	295	296	297	298	293	294	293	293	292	291	293	295	294	295	291	293	287	289	288	289	286	282	281	282	285	287	290	290	289	290	288	288	287	286	285	287	289	289	291	290	290	296	291	285	284	288	289	290	289	288	295	295	295	295	294	294	292	294	294	293	290	296	296	295	295	294	294	296	295	295	292	290	292	294	292	292	287	286	281	288	287	290	292	293	292	293	292	291	290	288	287	288	290	292	292	292	292	293	291	288	286	290	290	290	287	285	286	287	289	288	287	288	288	287	287	290	290	293	300	291	295	294	287	287	289	291	287	289	292	292	292	290	289	288	287	289	291	288	288	287	285	290	292	292	287	291	291	290	289	288	293	283	285	290	292	291	290	289	288	288	290	287	291	291	288	289	291	291	288	286	284	285	285	285	288	293	294	290	288	287	285	291	294	293	293	295	295	293	293	294	293	293	293	292	291	285	291	290	289	290	291	292	292	291	290	290	290	291	294	297	290	290	288	289	289	289	291	290	289	290	292	293	287	287	287	286	285	285	284	279	280	286	288	293	297	297	295	294	291	292	294	291	291	294	295	294	294	293	292	289	293	291	293	293	288	288	288	285	286	287	288	294	293	292	291	294	298	296	294	292	289	290	296	291	289	289	292	294	293	290	292	292	292	295	294	290	289	289	292	293	287	289	287	289	286	285	283	281	280	281	282	283	286	289	295	294	293	291	291	288	286	285	289	290	290	290	288	285	283	283	284	284	286	285	285	287	293	296	297	297	294	292	291	291	292	293	292	290	289	291	291	289	286	284	285	286	292	288	290	287	287	288	285	286	290	289	289	289	288	289	289	290	288	287	289	281	281	284	289	288	286	284	282	288	286	285	284	285	285	286	285	284	283	283	283	280	278	278	289	289	287	285	282	288	288	289	292	289	289	290	290	291	291	291	291	287	286	284	281	281	281	282	285	285	287	285	284	287	287	287	289	292	289	290	289	289	287	294	293	293	293	294	292	290	289	289	290	288	290	289	288	287	287	283	284	283	283	284	284	284	285	283	284	287	288	281	288	295	293	289	285	282	280	280	281	280	281	283	283	284	284	279	278	278	279	287	286	285	283	290	294	296	297	295	292	286	286	285	0	0	0	0	0	0	0
286	286	286	286	286	292	292	288	284	284	284	284	284	287	287	285	281	281	282	281	281	284	288	288	288	290	293	293	293	293	290	287	286	286	286	287	286	286	286	285	287	289	290	292	293	293	291	290	289	290	289	289	289	288	284	284	284	286	287	288	288	290	287	291	295	296	293	290	290	287	288	291	291	291	293	291	290	290	289	288	287	291	292	292	291	287	288	289	290	291	291	292	292	291	287	286	287	291	292	291	291	292	293	291	287	286	290	290	287	286	288	286	284	286	286	293	294	297	297	296	296	292	291	296	292	290	289	285	287	293	292	291	290	289	288	287	287	285	285	285	285	287	287	291	293	294	294	295	290	292	289	289	286	286	290	291	291	292	291	289	287	288	289	289	289	286	281	282	282	283	280	282	286	288	288	287	286	285	284	285	284	285	286	288	289	288	288	286	283	283	284	287	285	285	284	285	283	281	289	284	284	285	289	289	289	293	293	291	292	292	292	289	292	295	289	289	285	285	289	289	288	282	281	278	277	285	289	290	289	287	289	289	290	288	287	285	286	287	290	291	290	292	292	291	287	285	287	286	287	290	288	288	287	285	285	285	287	287	285	286	288	287	285	285	289	286	285	286	286	285	287	286	285	287	289	290	289	287	286	286	289	289	286	285	284	285	290	288	286	284	285	286	286	286	286	283	281	290	291	291	293	286	283	283	289	289	288	287	287	288	288	292	291	289	287	284	279	278	279	282	286	284	283	282	282	282	284	293	291	291	293	292	292	294	289	292	288	287	290	292	287	287	289	285	291	291	287	288	287	283	288	289	291	293	294	298	284	277	283	285	286	287	289	293	293	292	285	285	285	286	282	283	284	283	281	281	285	287	288	292	292	288	286	284	283	283	284	285	285	290	290	290	288	289	285	285	286	288	286	285	284	285	285	282	284	286	286	289	290	284	286	293	285	285	290	288	289	295	289	287	286	289	293	291	289	287	290	292	294	294	290	288	287	284	286	288	283	287	286	285	283	283	281	278	279	280	281	285	287	290	291	290	288	287	286	285	282	284	284	286	286	284	283	284	283	284	286	287	289	288	286	291	294	294	294	292	292	292	295	286	291	293	289	286	282	288	288	283	278	282	285	289	289	285	285	286	285	285	286	290	288	287	284	281	285	288	287	285	283	279	278	282	284	286	285	284	282	282	285	284	284	282	282	281	280	281	284	283	284	282	279	277	277	279	277	280	281	279	282	281	280	281	281	281	280	282	283	285	285	284	285	284	282	281	280	281	285	284	286	285	285	283	282	287	286	285	284	283	288	288	286	283	281	281	288	290	291	288	288	289	288	287	284	284	288	286	283	282	282	284	283	281	281	280	283	285	284	281	283	283	283	280	283	282	279	285	281	280	281	281	283	285	284	284	282	280	281	280	280	278	281	282	282	280	278	280	286	286	285	288	283	283	281	0	0	0	0	0	0	0
283	283	282	283	283	286	286	282	281	282	282	282	282	281	283	283	278	278	278	279	279	283	283	283	283	284	284	291	288	287	287	287	286	286	285	284	283	283	282	284	286	288	287	289	292	289	289	290	289	288	287	285	284	285	285	285	285	285	286	288	288	287	285	283	284	291	291	284	284	284	284	287	291	291	289	285	284	285	282	284	287	286	285	284	283	285	293	289	287	286	286	287	286	282	283	286	290	291	290	290	292	292	290	285	282	285	284	283	282	285	287	286	288	283	283	285	287	286	291	293	291	289	287	285	286	285	285	282	282	288	284	290	289	287	287	285	283	282	283	284	286	283	284	288	292	288	284	285	285	285	285	285	285	284	285	287	287	289	286	285	285	287	290	287	288	285	283	282	283	281	279	279	282	285	286	287	287	285	283	283	284	283	284	285	285	284	285	281	281	281	283	280	283	283	283	280	278	278	278	279	281	283	284	285	285	285	289	286	288	290	290	289	295	284	289	285	282	281	285	287	285	281	280	280	280	281	282	282	284	286	287	288	288	287	285	284	284	286	288	289	288	287	289	286	283	284	286	287	284	283	282	286	285	285	286	286	287	287	284	284	286	284	283	282	281	284	285	285	284	284	284	282	281	283	286	282	283	285	284	283	283	288	287	287	287	288	287	287	282	283	281	281	283	283	283	281	284	286	288	287	283	282	281	281	281	281	275	277	278	282	283	290	291	289	287	284	278	277	279	279	278	277	282	282	283	283	283	284	283	284	284	286	287	289	285	280	279	280	281	280	280	284	286	285	285	282	282	284	285	283	282	287	290	290	288	283	277	278	279	283	285	286	287	289	285	282	282	283	284	285	285	283	282	281	281	280	285	284	285	290	285	282	285	283	282	282	282	284	284	286	285	286	281	282	285	283	280	281	281	280	280	281	282	280	281	281	275	282	282	280	282	283	283	282	278	280	281	289	288	283	282	284	287	289	282	284	286	289	281	280	281	284	285	279	278	285	281	281	282	283	281	282	282	280	277	280	282	284	285	287	287	286	285	285	285	283	283	283	283	285	285	285	282	282	282	285	286	287	286	284	282	282	281	280	280	283	280	278	281	281	284	287	282	281	279	279	284	275	273	277	278	284	286	284	283	283	283	284	287	287	288	284	280	279	282	285	288	286	281	281	282	282	284	281	281	281	283	280	279	285	282	282	279	279	279	283	285	285	282	279	275	276	277	278	279	276	277	275	274	276	275	280	283	283	282	281	280	281	284	284	283	283	281	280	279	284	284	284	284	283	283	281	281	281	283	280	277	277	283	282	284	281	279	277	284	285	274	279	279	282	285	285	281	282	284	284	280	278	280	282	282	280	280	278	281	281	282	278	276	280	277	278	279	279	279	277	281	280	280	281	285	285	283	282	281	281	280	280	280	279	279	280	283	282	278	278	281	280	277	276	281	281	282	0	0	0	0	0	0	0
278	278	278	277	279	279	279	280	279	280	278	277	277	275	278	278	278	273	274	274	276	280	279	279	278	279	279	285	286	285	285	286	283	282	281	278	278	278	275	278	282	279	285	284	287	286	286	286	279	281	281	282	283	284	284	283	283	284	286	287	287	287	288	288	285	281	279	282	283	283	281	284	287	287	284	282	281	277	278	282	285	283	281	285	286	289	290	286	281	280	280	280	278	278	281	284	288	289	289	289	286	285	283	282	281	284	285	283	282	282	287	287	288	288	285	287	286	285	286	289	286	284	285	284	283	285	284	281	282	282	287	283	284	287	287	283	281	280	282	282	283	278	278	278	278	279	281	278	279	280	281	281	282	282	281	285	284	284	282	284	285	286	286	284	285	280	279	278	278	276	277	278	279	281	286	288	286	284	281	283	282	282	281	282	281	280	283	278	279	280	281	276	271	278	281	280	278	280	279	279	280	281	284	284	285	283	286	285	284	286	284	283	278	287	287	287	280	279	281	285	281	280	279	280	280	280	281	281	277	276	283	284	284	283	283	283	284	284	287	288	287	285	284	282	281	278	277	277	278	278	277	276	280	282	285	287	287	288	284	282	283	281	278	277	278	282	283	286	286	284	281	280	278	280	281	279	278	279	279	279	280	280	277	279	278	280	282	285	284	280	281	279	281	279	277	273	273	275	278	280	276	281	282	281	281	281	280	276	276	278	280	280	276	275	275	274	276	277	277	276	274	275	275	276	276	278	275	279	281	282	281	280	281	284	284	278	277	278	278	278	277	277	282	284	281	275	275	280	282	282	283	281	282	284	284	283	277	278	282	283	283	278	283	283	282	281	281	278	276	279	281	279	274	273	274	275	278	280	280	283	284	281	277	277	277	279	279	281	278	276	273	280	277	280	281	277	279	273	275	280	279	280	276	277	280	279	277	273	277	277	278	279	276	276	276	278	279	278	277	278	279	278	280	281	283	283	279	283	282	281	278	277	276	279	276	274	276	277	279	278	281	281	281	282	280	280	280	281	280	280	280	280	280	278	277	284	281	279	280	281	282	281	279	278	280	278	278	283	278	280	280	278	277	276	275	277	277	276	274	274	277	279	280	279	276	276	279	274	274	276	276	278	281	279	277	277	279	283	285	284	283	282	279	279	281	282	289	284	283	282	281	280	272	273	277	279	278	276	276	279	281	284	282	277	279	282	285	284	275	276	276	276	276	276	276	275	276	275	273	272	272	278	283	283	282	281	280	279	277	282	283	280	280	279	279	278	279	279	281	280	279	280	280	278	278	277	276	275	275	278	278	278	282	284	281	270	274	277	278	280	289	280	281	280	281	280	278	277	278	280	279	279	277	276	277	279	277	275	274	278	277	278	276	278	277	276	277	279	279	280	282	278	277	278	279	280	279	279	280	280	278	277	279	280	279	279	279	279	276	276	276	278	280	0	0	0	0	0	0	0
272	272	274	275	274	273	273	274	275	275	272	270	270	271	272	273	273	273	274	276	278	279	278	276	276	275	275	277	281	283	283	280	278	278	275	274	275	274	274	274	273	273	275	280	280	277	277	275	279	277	276	276	279	281	282	280	280	279	282	282	285	285	286	286	285	283	282	283	280	280	279	280	283	283	283	277	274	270	275	278	282	283	283	283	282	282	282	281	280	277	276	276	276	274	277	279	283	284	283	280	277	276	279	280	282	283	284	283	280	281	283	282	284	285	287	284	283	282	282	285	284	284	282	282	283	284	285	282	281	283	281	279	283	284	284	282	280	279	277	277	277	277	275	275	276	281	284	283	284	283	282	282	281	281	278	281	284	283	281	281	279	278	281	280	279	277	275	275	274	273	276	276	278	280	286	287	279	278	280	276	275	280	281	278	275	278	281	278	276	275	275	274	275	274	280	281	278	279	277	278	277	277	277	277	270	270	286	279	276	277	277	276	275	277	281	280	277	276	277	276	274	273	275	276	281	281	280	278	276	274	277	279	279	279	276	273	283	283	289	290	288	278	275	273	270	271	270	273	273	276	276	276	276	269	271	276	285	284	281	279	281	281	279	278	280	282	281	279	279	281	281	277	275	276	278	279	279	277	277	275	280	279	278	278	275	275	272	277	274	276	277	278	274	276	274	273	275	276	275	276	277	280	281	277	278	279	279	279	276	277	278	276	275	274	270	269	273	274	276	274	273	275	276	274	273	273	275	276	277	280	280	278	277	281	276	275	275	277	278	278	276	276	277	278	276	276	274	273	280	280	274	272	275	275	275	281	277	278	281	281	281	274	276	276	278	281	279	276	273	277	279	277	274	272	272	273	275	277	277	279	274	267	271	270	275	277	278	274	277	275	275	276	276	275	277	278	273	272	272	274	277	274	274	275	278	279	277	273	274	275	275	274	275	276	276	277	275	275	275	271	271	274	277	276	274	275	281	282	283	280	279	279	279	280	279	276	270	275	274	276	273	273	278	278	278	278	276	277	277	276	276	276	274	272	268	275	280	278	277	277	278	278	281	281	283	277	277	276	281	280	277	276	276	272	273	272	271	270	270	272	274	275	275	274	274	275	276	279	279	276	274	271	274	276	275	275	277	279	282	283	283	279	275	279	279	279	280	279	283	281	280	274	272	274	275	277	277	276	278	278	280	281	274	272	276	283	281	274	274	274	275	274	272	273	275	274	273	272	273	273	272	270	271	273	274	281	280	280	277	273	269	273	273	278	278	277	271	272	277	276	275	277	278	276	274	273	273	276	277	272	274	274	280	280	271	270	272	276	276	274	279	278	278	278	278	274	276	277	276	275	275	275	274	274	273	273	272	271	271	276	276	276	275	276	275	275	276	276	275	278	272	272	271	271	272	277	277	277	276	279	279	278	279	278	277	277	276	274	273	271	271	270	276	0	0	0	0	0	0	0
270	271	271	271	270	271	272	272	272	271	268	269	269	275	272	273	273	273	273	276	277	278	276	275	275	275	275	277	277	280	279	279	276	274	272	273	273	273	273	273	273	276	277	277	276	275	272	272	273	275	276	276	275	275	275	277	280	280	280	279	281	282	284	284	280	276	275	278	278	278	278	279	272	275	275	269	269	270	273	274	276	278	278	278	274	273	275	276	278	276	275	274	274	274	277	278	278	278	280	277	276	273	274	276	278	281	281	279	278	279	280	275	277	282	284	284	283	280	278	279	282	281	278	277	278	278	279	276	277	278	281	287	286	285	281	282	283	282	279	279	277	276	274	275	277	279	276	282	283	282	281	280	279	278	276	279	282	281	278	278	273	273	276	278	276	275	274	273	272	272	274	274	273	274	278	278	278	277	278	278	272	269	271	277	273	274	274	274	273	273	274	275	271	271	271	271	270	270	278	278	278	276	274	272	272	271	272	271	270	272	272	271	271	271	271	271	271	271	277	278	275	274	276	274	275	276	276	276	275	275	272	276	277	277	273	273	272	275	276	280	281	275	273	272	273	273	274	275	277	277	275	276	276	269	269	271	276	283	281	279	278	278	280	279	281	278	278	277	277	280	276	272	272	275	275	277	275	273	272	274	276	280	278	276	272	270	271	275	275	274	276	276	273	272	273	275	273	277	276	275	272	274	275	277	277	279	278	277	278	274	275	275	274	274	272	270	273	274	272	273	273	275	275	275	273	272	274	277	277	278	275	273	271	273	274	276	273	273	274	274	275	272	273	272	274	274	275	272	276	270	269	269	274	273	273	273	276	276	277	272	268	267	266	268	276	273	271	275	273	277	278	275	273	271	267	268	267	267	268	268	268	266	264	268	271	273	270	271	274	275	276	276	274	276	276	276	271	272	273	274	276	275	276	274	275	277	275	276	273	272	275	275	275	275	275	275	274	274	274	270	273	270	271	273	275	276	273	281	281	280	274	279	281	278	276	273	272	272	273	273	271	274	274	275	276	274	273	275	276	276	275	275	273	271	272	269	268	270	281	275	273	272	274	275	275	277	277	275	271	270	270	272	271	273	271	271	271	270	270	269	272	272	272	272	271	272	273	274	274	272	271	272	269	271	272	272	273	276	277	276	274	272	273	274	276	275	276	276	275	281	281	277	275	274	273	272	272	273	276	275	275	272	272	270	272	277	274	272	274	274	274	272	271	269	271	272	272	272	274	274	270	269	267	270	271	273	273	273	271	269	267	268	271	270	269	268	270	270	270	273	274	274	275	273	273	271	272	273	272	269	272	273	271	269	269	271	274	277	277	277	276	270	277	276	274	268	272	274	274	275	269	271	266	264	265	269	269	269	274	276	275	275	274	273	271	272	273	273	270	271	272	270	270	270	269	274	274	271	271	269	279	278	276	274	274	272	274	272	270	269	269	269	269	0	0	0	0	0	0	0
267	269	269	268	269	269	269	269	271	269	268	274	274	274	272	272	273	270	270	272	274	273	271	275	275	276	276	275	277	278	277	277	272	269	269	271	270	271	271	275	276	275	276	276	274	271	269	269	268	272	274	274	273	271	271	276	277	277	279	277	276	276	278	277	274	272	272	268	271	271	271	272	271	270	268	267	268	269	271	271	272	273	274	273	276	273	273	275	276	276	275	273	275	275	276	275	275	276	274	273	273	273	273	274	273	273	278	277	274	273	272	275	278	277	276	269	269	272	275	278	279	270	270	271	271	270	274	273	273	273	279	281	282	281	279	275	272	267	280	278	277	276	275	277	278	278	275	280	279	278	276	277	276	277	275	277	276	273	271	270	270	271	274	276	276	275	273	274	274	273	272	271	271	270	278	278	275	275	277	277	274	270	269	271	272	275	274	272	272	271	273	274	271	271	268	267	268	266	271	275	276	272	271	271	271	271	271	271	270	268	268	270	271	271	272	273	271	271	276	272	275	275	273	273	274	275	275	275	274	275	272	274	277	276	275	269	267	268	276	277	276	273	273	272	273	273	273	276	276	275	274	276	275	272	270	272	272	273	276	275	276	277	278	274	274	277	277	277	275	274	274	271	271	273	274	272	273	271	272	274	276	273	278	270	270	270	271	272	272	273	273	272	272	272	272	274	274	277	276	271	272	271	272	275	270	270	270	276	273	272	272	271	271	270	269	269	273	274	270	271	270	270	270	275	272	271	271	276	275	269	270	270	271	269	269	272	271	271	272	271	272	266	265	268	272	272	273	268	270	269	272	269	273	274	271	279	272	272	273	269	265	264	264	266	274	271	270	274	270	271	272	271	273	271	269	271	273	276	273	269	267	268	266	266	265	270	270	268	267	266	266	266	266	266	271	276	276	273	270	269	271	272	273	273	272	273	275	276	275	275	274	271	270	269	270	271	273	272	275	274	270	268	270	270	271	269	271	271	270	273	277	280	277	276	274	271	267	267	269	272	270	270	272	274	272	272	272	274	273	272	273	274	272	274	273	271	270	273	275	274	273	273	275	274	273	274	268	271	269	269	268	266	268	270	270	272	270	269	264	265	267	268	269	268	269	270	269	271	270	270	270	271	270	269	266	269	270	271	269	273	270	271	271	271	272	271	271	272	272	274	274	279	279	277	275	270	270	271	270	271	272	272	269	269	270	271	272	272	274	274	273	274	272	276	276	273	272	272	271	269	271	269	268	272	272	269	269	269	269	268	267	270	270	270	267	266	267	262	263	265	264	267	268	269	270	270	268	268	269	270	270	272	272	270	270	274	274	275	270	270	269	270	275	273	268	268	269	269	272	271	267	266	266	266	269	270	270	272	272	274	275	276	274	271	270	267	267	268	269	270	272	271	272	270	268	268	266	268	266	267	273	275	273	273	273	273	271	271	269	269	268	265	266	0	0	0	0	0	0	0
265	266	266	266	266	267	268	268	268	267	267	270	271	271	268	269	269	266	266	268	270	267	271	275	275	275	275	274	273	273	275	275	270	267	268	268	270	271	271	271	273	269	274	275	272	269	266	266	265	271	272	273	271	268	269	271	273	273	273	273	273	274	274	274	270	267	265	266	270	270	271	270	270	269	268	266	266	268	270	272	271	272	270	270	275	272	273	273	275	273	274	274	274	273	273	270	269	270	272	270	271	269	269	269	269	269	268	268	274	274	274	273	273	273	272	269	266	268	269	270	270	270	269	269	267	267	271	273	272	272	275	276	277	270	272	270	268	264	263	268	273	272	271	273	274	275	275	276	276	275	272	271	274	273	274	274	275	271	269	266	267	270	272	275	274	272	275	276	273	273	274	274	269	269	270	271	272	275	276	274	267	265	263	265	270	271	271	270	270	270	271	268	269	269	268	268	268	266	273	274	276	270	270	270	270	270	270	268	267	265	267	268	270	273	274	274	270	269	270	272	274	275	274	272	272	274	274	274	273	271	265	263	270	275	273	272	268	272	271	271	267	266	269	269	270	270	271	272	273	270	264	273	273	270	269	271	270	271	272	276	273	276	269	269	270	272	274	275	274	272	273	273	271	271	272	271	272	271	273	273	275	272	273	270	269	272	271	269	271	270	270	267	267	268	270	272	269	270	272	274	274	272	271	273	268	268	268	267	270	271	270	273	275	269	266	265	266	266	267	268	270	268	269	271	270	271	270	268	266	270	271	270	269	266	266	266	265	266	270	264	269	267	264	271	266	265	269	269	267	266	268	269	274	275	278	272	269	269	270	266	264	264	267	262	258	262	265	269	271	271	271	271	270	273	268	270	274	278	275	271	269	269	269	267	267	266	267	265	264	265	264	266	265	264	267	268	269	270	269	270	271	271	271	273	271	270	274	275	272	271	269	266	263	265	266	273	263	266	268	275	272	267	270	269	268	268	271	269	270	270	274	276	277	274	273	270	267	267	269	271	267	266	270	271	271	272	272	272	272	270	271	273	274	274	273	273	272	271	272	273	272	272	270	269	268	269	267	268	269	268	268	267	267	267	268	268	267	266	265	267	268	266	263	265	267	268	267	268	268	268	267	269	268	267	267	263	264	267	268	269	271	269	270	271	271	269	267	269	271	270	270	270	270	269	270	270	268	267	266	270	270	270	268	268	267	264	264	268	269	268	267	272	271	270	267	266	266	268	267	267	267	270	267	266	266	266	265	264	265	265	265	262	263	263	263	263	263	263	263	264	263	264	267	267	269	267	268	268	268	267	267	269	271	271	271	271	273	268	268	269	270	272	272	267	267	268	268	268	269	267	266	265	264	265	267	269	269	271	271	270	270	270	269	267	264	263	266	266	268	269	270	270	270	270	268	268	266	264	262	265	266	264	272	271	270	271	271	270	268	268	265	264	263	0	0	0	0	0	0	0
263	262	262	264	265	267	266	266	265	261	265	266	265	265	265	263	265	263	264	264	265	267	272	275	276	276	274	271	269	268	269	269	268	264	263	265	268	271	271	271	269	267	269	269	267	266	264	265	265	272	272	271	269	268	266	266	267	268	268	269	270	272	273	272	266	264	264	265	266	268	268	268	268	270	270	269	269	268	269	270	270	270	269	268	269	269	270	270	271	272	272	273	273	272	269	269	266	269	269	268	270	269	267	267	267	269	269	268	268	270	271	273	274	274	273	268	266	265	266	268	268	269	267	266	265	266	267	269	270	268	267	266	265	267	269	267	265	263	261	261	260	269	270	270	270	272	274	273	273	274	272	269	271	270	269	269	268	268	267	265	260	264	270	273	272	270	270	268	267	267	267	268	268	270	270	270	265	266	266	270	267	267	269	269	269	268	270	269	267	268	269	267	268	267	266	269	268	266	270	269	265	262	260	265	265	267	267	267	266	265	267	268	268	265	268	268	267	268	270	272	272	273	273	272	269	271	272	273	273	271	260	259	262	262	263	262	263	267	267	264	262	261	265	268	268	269	270	269	269	267	262	261	269	268	267	267	266	266	268	269	267	269	267	268	266	264	267	272	272	274	273	272	270	269	270	271	273	274	269	269	268	268	268	271	269	270	269	268	265	265	266	267	267	264	264	269	268	269	272	274	274	273	273	271	269	266	267	267	268	271	269	273	274	270	265	264	265	266	266	264	264	264	266	268	268	268	264	267	271	273	274	268	265	264	266	264	259	260	262	267	269	268	266	266	265	266	267	267	267	266	266	265	260	270	264	272	266	266	266	268	264	268	267	268	262	261	266	271	272	271	270	270	270	266	266	266	266	269	272	271	269	271	267	269	263	264	263	266	265	264	265	265	266	265	266	266	268	271	270	272	269	269	271	271	270	272	274	274	272	270	269	265	265	265	268	266	263	266	267	275	265	262	260	264	267	264	264	266	269	268	272	267	270	269	269	269	266	263	263	264	264	264	269	269	268	271	270	270	267	267	268	274	271	272	272	270	271	269	269	268	269	269	269	268	268	267	267	265	265	267	266	265	265	266	268	267	266	263	264	267	264	267	258	262	268	267	265	267	267	266	264	264	264	265	265	266	264	264	265	267	271	270	267	267	267	267	264	265	267	267	266	265	269	269	270	267	268	265	263	269	265	268	267	263	262	262	262	263	261	261	263	264	266	266	267	267	265	265	262	262	262	267	271	265	263	265	264	264	265	265	263	261	261	260	259	257	261	264	265	262	262	263	263	265	269	266	266	266	265	264	265	264	266	267	267	269	267	265	267	268	272	272	271	267	267	267	268	268	267	265	264	263	262	263	264	267	268	269	269	268	266	266	267	266	264	262	264	266	266	265	266	268	268	268	268	268	262	262	261	262	262	261	266	266	266	267	269	268	268	267	264	262	264	0	0	0	0	0	0	0
261	261	259	259	263	261	259	258	258	259	264	263	258	258	258	261	262	257	259	259	262	264	269	272	272	272	269	265	264	264	262	262	262	260	264	266	266	265	264	264	261	261	261	261	262	265	268	270	270	272	272	268	266	263	264	268	269	271	271	271	269	268	265	265	263	263	262	264	266	261	262	267	267	269	271	271	269	265	266	268	268	269	266	262	262	264	267	269	270	271	271	270	268	269	266	266	266	268	269	266	267	267	267	265	267	269	268	268	268	269	270	272	272	272	270	269	265	265	266	268	269	268	267	264	265	267	265	266	266	266	265	262	263	264	266	265	264	264	260	259	259	259	267	268	269	270	270	267	268	269	269	264	265	267	267	267	266	268	260	260	263	265	265	263	260	261	267	269	270	267	267	266	266	267	270	268	268	269	268	267	266	267	268	268	267	269	270	268	268	267	269	265	265	264	264	268	265	267	267	266	265	265	264	262	265	265	265	266	265	265	264	265	268	264	266	266	265	265	266	268	271	270	270	269	268	269	271	265	263	262	262	261	261	262	262	262	263	263	267	263	262	262	265	267	267	267	267	266	265	261	261	261	265	265	265	263	264	264	262	262	264	267	266	267	266	264	265	268	266	266	266	264	261	261	261	262	263	266	264	262	263	262	264	264	266	266	268	263	263	265	265	266	265	264	262	262	263	265	268	271	272	272	270	269	265	265	266	266	267	269	268	268	267	268	263	262	263	264	266	263	263	263	262	265	264	263	263	261	262	265	260	263	264	263	263	262	260	260	260	263	267	267	262	262	266	267	266	266	261	266	266	265	265	267	267	265	265	264	265	262	266	264	264	265	266	264	265	268	268	269	268	266	266	265	265	264	262	261	263	269	270	271	269	261	262	259	258	261	264	264	263	263	262	262	265	268	272	271	271	270	264	266	268	266	261	263	264	265	265	268	268	265	262	265	264	265	264	265	266	264	264	260	259	258	258	263	263	264	261	260	258	257	256	269	262	262	259	260	261	262	263	262	261	263	266	268	268	268	268	266	267	266	268	268	268	270	267	267	267	266	266	266	267	266	266	264	264	262	263	264	263	264	265	265	265	265	263	261	260	266	261	267	263	262	261	269	267	262	262	262	262	262	261	261	263	265	266	264	264	266	274	272	268	265	264	262	261	261	263	263	261	261	263	265	269	258	259	259	258	259	259	260	260	261	261	262	262	263	262	261	261	261	261	261	267	267	264	259	260	261	261	261	261	260	260	261	261	265	265	263	265	263	261	260	258	257	257	263	263	262	262	262	260	261	262	264	265	264	263	262	264	264	263	265	265	264	263	263	265	266	272	268	268	269	267	267	266	266	265	264	262	262	262	262	263	264	264	269	269	268	266	266	265	263	260	261	263	264	263	263	263	263	259	259	259	259	258	260	262	261	260	257	257	264	262	261	262	262	262	264	262	262	262	0	0	0	0	0	0	0
258	259	255	255	255	254	255	257	257	263	263	257	252	252	253	256	257	257	257	257	258	260	262	265	265	265	264	261	259	256	259	260	260	259	262	264	264	262	262	261	261	262	261	262	263	266	268	270	270	270	265	262	258	260	263	264	268	272	269	269	268	264	262	261	261	265	265	262	261	257	260	260	260	260	260	261	262	262	263	265	264	264	262	262	261	263	265	264	264	265	269	268	267	263	259	259	259	261	264	264	265	263	263	264	262	263	266	267	267	267	268	268	268	268	264	267	265	263	265	267	268	268	264	265	264	261	260	258	262	262	260	259	258	261	262	261	260	265	261	256	256	256	255	257	261	263	263	263	258	262	262	263	262	264	265	264	267	263	264	263	265	266	262	260	259	259	267	268	269	266	265	267	267	267	266	262	264	266	265	261	265	266	266	265	262	265	263	269	261	261	262	262	260	258	261	262	261	267	266	266	266	263	264	263	263	263	265	265	263	261	260	260	263	265	266	264	263	263	260	258	259	260	267	266	268	269	265	260	261	262	262	262	261	261	262	261	262	262	262	263	262	262	268	267	262	264	264	262	262	261	261	259	260	263	264	264	262	261	260	260	261	263	262	264	264	261	263	264	264	263	263	260	259	259	256	261	264	261	263	259	257	261	264	264	265	266	266	266	264	264	264	266	264	263	263	260	261	264	267	267	266	268	266	263	262	261	263	265	263	266	266	266	267	267	266	261	260	263	264	265	263	264	264	264	263	262	261	259	259	260	260	261	262	261	261	260	260	258	258	264	260	258	262	261	262	263	263	259	261	262	261	264	260	263	263	264	261	262	263	261	260	259	263	260	263	266	267	267	268	267	266	260	260	259	261	259	260	261	262	262	266	266	263	261	259	257	257	259	262	260	263	263	263	262	265	269	271	271	269	269	260	262	260	259	261	263	265	265	265	267	265	261	260	260	261	261	264	265	264	264	260	258	259	260	260	257	257	258	257	256	258	255	254	260	260	260	258	258	261	262	261	259	259	261	263	267	268	267	263	260	259	261	264	266	264	263	265	265	265	265	265	265	265	263	263	263	261	260	260	261	262	262	268	267	264	263	256	257	259	259	263	263	263	263	265	265	258	257	257	258	258	259	257	257	258	258	263	264	264	263	265	264	262	262	262	263	261	261	263	261	261	259	259	260	259	258	257	258	257	257	259	259	260	261	260	261	264	262	259	258	259	258	258	260	258	258	259	258	256	254	258	259	260	257	258	260	260	261	261	260	260	260	260	259	259	259	259	263	262	261	259	260	260	260	261	262	264	263	263	263	264	263	262	263	264	262	264	263	263	259	260	266	266	265	264	266	266	261	258	262	262	262	261	259	262	263	263	264	266	266	266	263	262	259	258	255	259	261	261	263	261	259	258	257	257	258	257	257	259	259	259	256	257	259	259	260	261	259	259	259	261	261	259	0	0	0	0	0	0	0
256	254	255	255	251	252	254	259	259	258	256	254	252	251	251	253	254	255	255	255	257	260	262	263	261	256	256	254	253	254	256	260	260	258	257	258	263	262	262	261	262	260	258	259	262	266	268	269	264	264	262	258	259	259	260	264	267	270	263	263	261	262	262	262	262	261	261	262	257	258	258	258	258	258	257	257	257	260	262	260	260	259	260	260	261	260	260	258	256	259	265	270	267	261	259	258	259	259	262	263	260	260	260	262	260	261	261	263	265	265	266	267	265	260	259	259	260	262	259	259	258	259	259	258	259	259	258	256	255	254	254	254	254	255	254	258	256	255	255	258	259	257	257	257	259	259	260	258	258	259	260	257	257	258	261	262	262	257	256	258	264	263	262	258	259	259	265	266	266	265	265	265	262	261	259	257	255	257	258	259	263	264	265	263	259	258	261	261	260	259	260	260	258	259	261	261	259	260	258	262	260	258	260	260	260	261	262	262	262	261	260	260	263	264	265	264	262	261	258	258	258	258	261	261	263	263	259	260	258	262	261	260	261	261	261	261	261	261	255	261	259	261	262	257	261	262	262	259	262	261	261	261	259	261	262	261	258	258	259	258	257	257	260	262	261	260	261	262	255	256	260	261	257	255	256	258	261	259	260	257	257	259	264	264	263	266	266	266	265	264	265	264	263	262	261	260	261	262	264	266	266	261	260	260	260	258	260	261	263	265	263	265	265	266	262	262	260	260	260	261	256	262	265	263	261	259	258	259	260	258	258	259	261	261	260	260	260	258	257	259	259	265	257	261	261	263	260	260	261	262	262	260	264	262	261	262	260	261	260	260	260	257	257	257	265	267	264	265	261	263	265	258	258	257	257	258	259	261	261	257	261	263	259	261	259	258	257	256	257	262	260	262	261	262	261	260	259	261	261	258	254	258	261	259	264	265	265	265	262	264	260	256	256	255	257	257	258	264	262	261	261	260	261	262	262	258	257	256	256	256	256	256	257	256	257	257	255	256	256	256	256	259	258	256	256	258	263	261	256	255	257	261	262	263	260	261	263	264	264	264	264	262	262	261	260	257	253	256	258	258	257	259	261	264	263	257	256	256	257	258	260	262	263	263	259	258	259	254	258	256	259	257	256	256	258	260	262	263	263	262	259	257	258	260	261	262	259	253	255	259	262	261	259	259	258	259	258	255	254	255	256	259	259	258	258	258	262	262	258	256	254	255	255	256	256	256	258	258	253	254	257	257	257	257	258	257	257	256	257	257	257	257	257	257	256	256	258	259	259	259	258	258	255	257	262	262	262	261	261	262	260	259	259	256	262	264	264	263	258	252	256	257	256	259	263	259	259	260	258	258	262	262	261	258	260	263	263	263	267	266	263	261	260	253	252	256	258	259	259	259	259	256	255	255	256	257	257	255	256	257	258	256	258	255	256	257	256	256	258	258	260	259	251	0	0	0	0	0	0	0
252	253	253	253	252	251	252	253	255	255	252	251	251	252	252	255	255	255	255	257	257	259	261	259	255	252	252	253	255	254	256	256	256	256	256	256	258	261	262	262	255	255	256	258	260	264	263	264	261	261	260	256	262	262	262	265	263	259	261	261	261	260	260	258	259	259	259	257	256	257	258	257	257	257	257	255	257	257	259	260	258	258	259	258	258	259	258	255	257	255	258	263	265	258	259	259	262	262	262	261	261	257	259	260	260	261	260	260	261	262	263	260	258	259	256	254	256	259	258	256	254	257	258	258	258	254	253	256	255	255	254	253	253	253	253	254	253	254	255	258	258	258	258	258	257	256	257	257	256	257	256	256	255	257	259	262	258	257	256	255	259	258	257	254	253	254	264	264	265	264	263	263	261	259	257	255	257	257	261	262	263	262	258	255	253	255	252	258	259	259	257	256	255	257	259	260	260	259	260	261	261	258	257	259	259	260	259	260	259	261	260	260	263	263	263	261	260	259	259	256	254	252	252	257	259	256	255	253	254	256	258	262	261	259	256	258	262	256	257	256	256	258	259	259	253	253	255	259	259	258	260	261	258	257	258	254	254	256	259	257	256	256	258	260	259	259	259	256	255	257	259	258	257	253	255	254	256	256	255	254	256	259	262	262	263	265	266	264	261	262	262	262	261	262	262	261	261	261	262	262	263	262	258	257	260	259	260	260	260	258	260	262	257	257	259	257	258	259	258	254	260	260	262	260	260	256	259	259	259	257	257	257	260	260	261	257	256	256	255	257	255	255	261	261	262	258	258	257	256	259	262	263	263	263	262	260	254	254	254	257	253	254	252	251	266	267	258	257	253	259	259	256	256	256	256	256	256	253	255	255	254	259	260	258	258	257	256	256	255	255	256	260	262	261	260	259	259	260	260	258	255	254	256	263	264	265	265	263	261	259	259	255	253	255	250	250	257	257	258	261	260	260	259	262	260	259	257	258	255	255	256	256	257	256	256	256	255	255	256	256	256	255	258	259	259	259	260	261	259	256	256	260	260	259	259	260	261	263	264	262	262	261	261	258	258	255	253	252	253	256	255	256	258	258	259	257	256	256	255	257	258	261	259	255	257	256	256	254	254	257	258	255	255	255	256	257	261	261	261	260	259	258	259	256	254	253	254	253	253	255	258	259	259	258	259	259	258	253	252	253	255	258	259	259	257	256	256	255	252	251	254	254	255	257	256	255	247	255	253	255	256	256	256	256	257	257	258	258	255	256	255	256	256	254	254	254	255	257	257	257	256	253	253	255	260	260	260	260	257	259	257	256	256	258	257	256	254	251	251	253	254	256	254	252	253	255	257	257	256	259	258	258	257	254	252	252	253	255	257	257	259	259	254	253	252	254	255	255	255	255	252	252	254	254	257	256	256	255	256	255	255	256	255	255	254	254	254	254	253	255	258	259	257	0	0	0	0	0	0	0
254	254	253	250	250	249	249	250	250	250	251	252	256	255	255	255	256	255	254	254	254	257	256	250	249	251	251	253	252	248	253	254	255	255	255	254	254	254	254	255	258	258	259	261	259	256	255	255	255	255	254	253	254	255	255	254	253	255	257	260	260	260	257	256	255	255	254	252	253	254	256	256	257	257	257	257	255	254	254	256	258	258	257	256	256	255	254	254	255	254	254	254	253	257	256	256	256	256	256	256	254	254	256	258	257	260	259	259	259	260	258	258	256	254	253	253	257	254	255	254	253	254	257	254	254	254	253	252	253	253	253	252	252	253	253	249	250	253	255	257	257	257	258	258	257	256	255	255	254	249	254	255	253	253	254	260	255	256	254	254	254	256	256	256	255	256	257	257	258	259	259	259	258	257	255	254	255	256	261	255	253	255	257	258	254	256	254	257	257	258	258	257	257	255	258	259	259	259	260	261	260	258	259	259	256	256	257	257	255	258	256	260	261	262	261	260	258	258	255	254	252	252	251	257	258	257	256	255	251	253	253	260	261	259	257	257	261	252	254	257	258	257	258	258	256	252	254	256	258	260	253	258	257	257	252	249	252	252	253	255	256	256	259	258	257	257	257	255	254	257	259	257	257	253	253	253	253	254	255	256	255	258	262	262	259	259	261	260	258	258	258	259	259	259	259	259	258	255	259	259	260	261	262	258	259	261	259	259	251	253	254	255	256	254	255	257	256	252	252	258	259	258	258	259	259	259	259	259	261	256	252	255	256	260	260	257	255	255	255	257	256	253	253	254	264	256	257	255	253	257	258	261	262	263	260	254	253	255	253	250	253	256	257	266	261	256	257	255	252	253	255	256	255	255	254	253	257	254	254	254	255	255	256	258	257	257	256	256	256	262	255	258	256	254	254	254	256	256	261	256	258	248	252	259	259	258	254	253	259	257	256	257	255	255	254	252	255	258	259	259	259	255	254	259	256	257	256	254	257	257	257	257	257	257	256	254	255	255	254	256	256	255	258	258	260	260	258	257	257	257	262	261	259	259	258	257	256	252	258	259	257	260	256	255	256	256	254	252	250	252	254	255	257	256	258	258	257	256	256	254	252	253	254	252	252	254	254	254	256	257	256	254	254	254	255	255	257	260	256	257	252	256	255	253	252	251	251	252	255	256	258	257	255	256	257	257	256	247	249	252	253	256	257	258	257	255	255	254	253	253	258	252	251	250	249	250	245	251	254	255	255	255	255	256	258	261	259	256	257	250	253	252	253	251	252	255	256	256	257	254	253	253	252	253	256	248	245	253	255	254	256	256	256	262	258	255	250	247	250	252	253	254	254	251	251	250	251	256	256	256	257	256	254	252	252	249	252	246	248	251	251	257	256	254	254	254	254	254	254	252	249	249	249	254	252	251	254	254	254	251	252	251	247	246	247	254	254	254	252	251	252	253	254	0	0	0	0	0	0	0
251	253	250	248	248	245	245	245	250	250	253	255	255	253	253	253	254	255	253	248	248	248	249	247	249	251	251	252	249	249	250	253	253	253	254	253	253	254	254	256	257	257	257	256	251	251	251	252	249	250	250	252	253	253	253	252	252	253	256	260	260	252	252	252	252	251	251	250	251	252	254	255	254	255	255	255	251	252	247	248	254	254	253	252	251	252	252	252	253	251	252	253	252	255	254	255	254	252	252	253	253	252	254	255	255	255	256	257	257	256	253	252	253	253	253	252	254	253	251	252	251	253	252	251	254	254	253	251	252	253	254	252	251	252	251	250	249	250	254	254	250	250	249	250	256	255	253	253	248	249	250	254	252	250	250	251	252	253	252	252	251	252	253	255	253	253	254	255	255	256	255	254	254	255	254	254	254	261	252	251	253	254	256	258	253	251	250	250	256	257	257	256	255	258	260	255	256	256	259	261	261	258	255	255	255	256	256	256	255	256	256	256	257	259	259	256	257	256	254	253	250	252	251	254	257	258	257	256	251	249	253	254	254	254	254	254	252	252	251	251	255	256	257	256	250	249	250	253	252	253	255	258	256	254	252	251	252	253	252	250	251	251	251	253	254	258	254	252	251	255	257	259	255	256	253	250	250	250	253	258	259	256	255	251	251	251	259	258	257	254	253	251	257	258	258	258	256	254	254	256	256	259	258	258	254	256	255	251	251	253	254	258	254	253	253	255	253	253	255	255	255	256	256	258	259	258	257	255	253	251	250	254	255	260	261	258	255	255	255	257	255	253	253	254	254	257	256	254	251	252	257	257	261	263	259	255	253	254	253	251	251	251	254	252	257	253	252	242	247	253	257	256	255	254	255	254	253	255	254	254	255	255	255	254	255	254	254	253	256	260	256	247	255	253	243	246	249	252	255	255	257	252	249	248	251	250	244	246	251	254	252	249	257	254	252	253	253	253	256	256	256	249	249	253	254	253	253	254	253	254	253	253	256	257	256	254	254	254	254	255	256	258	258	258	258	257	251	249	251	256	261	260	261	257	256	255	251	251	251	253	248	251	251	251	254	254	253	251	250	251	251	253	253	255	256	255	254	253	251	248	250	251	253	252	252	253	254	254	255	256	256	253	253	254	253	253	256	247	249	250	252	252	253	250	248	249	250	250	251	251	252	254	254	253	251	249	252	248	247	249	252	254	255	254	255	255	254	253	252	256	249	249	248	248	249	253	250	253	253	255	255	255	254	254	255	255	257	257	257	252	247	245	246	247	249	254	255	253	256	256	252	253	250	248	246	245	243	246	251	251	252	251	256	255	254	252	248	247	246	246	245	244	244	246	248	248	250	251	256	256	255	252	251	251	253	253	247	245	247	248	259	254	254	254	253	252	253	254	253	251	247	246	246	249	249	249	249	250	246	248	251	252	252	252	249	248	248	250	249	250	251	254	254	0	0	0	0	0	0	0
242	244	246	243	243	241	240	244	251	251	252	254	250	250	251	251	251	253	253	248	247	247	247	247	249	250	251	251	250	250	250	251	252	252	252	252	252	252	253	255	250	250	251	249	248	250	251	251	249	249	249	251	253	253	251	249	249	248	250	250	249	249	249	248	247	248	247	249	250	251	252	252	252	250	250	250	247	247	247	249	252	251	250	249	249	249	250	251	249	249	249	252	251	250	250	251	253	250	250	252	253	253	254	253	254	253	255	249	249	245	251	251	250	247	247	249	250	251	250	251	252	251	250	252	254	252	251	251	252	253	252	253	250	249	247	249	249	251	253	256	252	249	248	247	244	242	241	248	252	250	250	253	252	250	250	250	249	250	248	248	250	251	247	247	249	252	253	252	253	251	249	247	245	251	252	250	250	250	250	252	251	253	256	256	252	254	250	251	255	255	256	254	255	258	255	254	254	254	253	254	253	254	255	254	251	249	249	252	255	255	254	254	255	256	255	256	256	257	257	253	250	251	251	251	251	251	253	255	250	248	250	254	252	252	249	250	251	250	251	251	251	252	252	252	250	248	249	250	251	254	251	251	253	253	253	255	256	257	252	251	250	252	251	251	251	250	257	257	252	255	254	254	255	254	250	249	249	247	252	257	256	253	251	250	250	250	251	249	251	251	252	253	253	257	256	256	256	254	253	255	256	255	251	253	250	250	251	252	253	253	253	254	255	254	253	254	248	248	248	252	252	253	253	252	250	250	249	250	251	250	250	251	254	250	256	255	253	256	257	257	252	250	250	252	255	254	256	248	252	246	254	251	251	254	258	253	253	252	252	252	251	253	255	254	254	252	252	252	254	256	256	254	253	254	254	254	255	257	254	256	250	253	253	254	252	252	253	253	254	258	251	248	245	247	252	250	252	253	252	252	252	248	247	246	249	252	255	255	246	249	249	250	251	254	253	256	257	257	252	252	251	250	250	250	250	250	253	255	255	253	253	253	254	253	256	255	252	251	249	247	251	253	252	252	255	254	253	252	249	253	254	257	256	255	253	251	251	251	249	247	244	244	245	246	249	252	253	252	251	247	249	248	251	254	254	254	252	252	252	251	249	250	250	250	250	254	254	255	255	254	253	253	254	254	251	251	248	243	247	250	250	250	250	249	248	246	248	249	250	250	251	252	251	250	249	249	245	251	251	246	248	250	250	245	248	252	251	251	251	251	248	248	248	249	250	253	251	253	252	251	250	250	250	252	252	252	254	254	252	250	243	242	242	246	252	254	254	254	253	255	254	251	248	246	247	250	252	254	256	256	255	250	247	249	252	250	248	247	245	245	242	241	242	245	247	249	250	251	250	249	252	249	248	247	251	250	250	248	248	248	248	249	250	252	252	251	252	252	253	251	246	246	244	247	247	246	246	243	245	249	251	252	251	249	251	250	251	251	248	247	246	245	243	0	0	0	0	0	0	0
241	243	243	240	239	239	239	244	250	253	253	253	251	249	243	243	242	250	252	247	246	246	245	243	246	248	248	248	248	248	248	247	247	248	248	247	245	241	245	248	247	248	248	248	250	251	251	252	253	252	252	251	253	251	250	248	247	247	244	243	246	246	245	245	246	246	246	247	248	250	251	250	250	247	246	246	246	247	248	249	247	247	250	249	249	248	248	248	248	248	249	251	251	250	250	249	249	248	247	250	252	253	254	254	253	252	253	247	245	247	249	250	248	247	247	249	248	248	249	250	250	250	246	248	250	247	245	245	246	252	252	249	248	248	246	246	246	247	248	251	251	249	247	244	244	243	244	242	249	252	252	252	252	250	250	251	249	249	248	247	244	248	246	246	247	247	250	249	251	249	247	246	249	249	245	247	248	250	250	251	252	253	252	253	251	250	251	257	253	253	250	254	256	255	249	252	255	252	250	248	249	252	252	251	249	246	248	250	252	255	255	254	254	253	252	253	250	251	251	251	250	249	250	250	248	248	250	248	248	245	244	248	252	250	249	247	246	249	250	248	248	248	250	253	253	254	255	255	255	255	254	253	249	247	249	254	255	252	250	250	251	254	253	251	250	255	255	259	258	252	255	254	251	250	249	250	248	247	249	256	251	250	250	249	250	249	250	248	252	251	251	250	250	252	255	254	254	253	252	253	254	252	251	250	249	248	251	251	252	251	249	248	251	252	250	250	250	250	246	248	249	246	244	248	250	250	248	249	251	251	251	252	248	255	250	256	253	253	248	251	251	251	253	254	254	254	253	253	246	249	244	248	251	253	255	248	246	248	250	250	251	250	254	255	255	253	253	254	253	254	254	251	250	252	253	255	255	257	253	251	252	252	251	251	250	249	248	248	250	250	248	249	247	251	251	246	252	248	252	250	250	249	247	246	246	251	255	256	251	247	249	250	251	251	252	251	251	251	248	248	250	249	249	249	249	250	249	253	254	255	252	253	253	253	252	250	249	249	248	248	248	246	247	253	254	255	254	251	248	246	250	251	250	249	248	247	248	249	247	244	244	244	245	245	247	247	250	247	246	247	246	246	246	248	250	252	252	251	250	245	247	246	248	248	251	251	255	255	254	253	250	249	252	254	250	248	244	244	246	250	250	250	250	247	246	246	247	247	247	246	246	246	246	247	248	249	249	244	245	244	244	244	245	245	248	250	250	249	248	248	247	247	246	249	249	249	250	250	249	252	249	249	249	249	248	249	246	245	244	245	244	243	242	246	249	247	247	248	252	256	255	250	248	246	249	250	249	252	248	248	248	247	246	244	249	246	243	243	244	242	241	241	241	243	245	248	247	246	244	243	240	243	246	245	246	247	247	249	246	244	245	248	248	249	251	252	252	250	250	248	246	246	244	244	244	244	241	243	244	247	247	250	246	247	248	248	250	249	248	245	244	243	241	0	0	0	0	0	0	0
241	239	243	241	239	239	240	242	245	245	245	247	245	243	242	242	239	243	249	246	244	244	241	241	238	238	241	241	242	241	240	241	241	244	244	243	243	241	242	245	245	246	246	245	249	250	250	247	249	253	253	253	252	250	245	243	243	243	242	242	242	242	243	244	244	243	244	245	240	242	243	247	247	245	246	246	246	246	246	246	245	245	246	249	247	246	246	246	244	245	246	249	250	249	248	247	248	246	244	247	250	251	253	255	248	246	246	247	249	250	251	248	249	248	247	247	246	247	245	246	246	245	241	242	242	241	241	243	248	250	251	250	248	248	245	244	245	245	245	246	248	248	244	243	244	245	244	246	246	247	248	249	247	248	248	245	249	250	250	249	245	242	243	245	244	245	247	251	250	250	246	246	246	245	243	245	246	249	249	248	250	250	249	246	246	246	248	256	250	248	246	247	249	247	248	251	250	248	249	247	249	249	248	247	246	244	245	246	248	249	252	248	250	252	249	248	247	248	249	249	248	248	248	249	249	250	250	248	246	245	245	242	246	249	248	246	246	245	245	246	248	247	248	251	252	254	254	252	251	254	253	250	247	245	246	249	249	249	251	250	252	253	252	249	249	253	255	252	247	253	254	253	250	250	251	248	248	245	248	249	246	248	247	247	247	250	249	251	247	248	247	248	250	248	245	247	248	250	252	252	251	250	245	245	244	244	248	251	250	248	248	247	247	248	247	249	250	250	245	246	246	246	245	245	249	247	249	249	250	251	252	251	248	250	250	253	252	252	246	246	244	253	253	249	251	250	252	250	250	245	249	251	251	250	248	246	243	244	247	249	249	250	250	249	252	253	253	253	251	248	248	248	250	250	252	254	254	255	249	248	248	248	248	248	248	247	247	247	249	245	249	247	251	251	252	243	248	248	245	248	247	246	246	246	247	248	249	249	248	244	247	251	251	249	250	248	247	247	248	245	245	251	253	251	249	246	245	251	250	250	252	252	248	248	248	246	248	248	250	249	246	244	246	248	246	247	249	250	247	246	246	246	247	248	249	248	247	245	244	244	245	245	246	246	247	245	245	245	247	242	243	245	247	249	250	251	252	249	247	246	246	244	246	247	248	254	255	248	249	246	241	246	247	246	245	240	239	240	240	246	249	249	247	248	247	246	247	247	246	245	246	246	247	246	247	247	249	247	245	243	242	242	245	245	245	247	249	246	245	248	247	246	245	245	246	245	250	248	248	247	247	249	247	246	245	242	243	243	244	240	242	241	241	242	243	239	239	246	247	251	252	249	249	246	245	249	247	245	243	246	246	245	244	244	244	243	243	242	241	241	241	239	239	240	242	241	241	241	241	241	240	241	243	242	242	243	244	244	243	242	241	244	245	245	245	245	246	246	249	249	249	245	244	244	243	242	240	241	243	244	246	245	245	245	245	245	246	247	243	243	243	241	243	0	0	0	0	0	0	0
238	238	242	240	239	239	239	240	240	239	239	240	243	243	242	239	239	241	245	240	242	242	241	237	238	239	239	239	239	239	235	235	238	241	244	244	244	240	242	244	243	243	243	241	242	246	245	245	246	248	250	250	249	246	244	242	241	242	242	241	242	242	242	242	242	237	238	238	239	240	241	242	243	245	247	246	246	245	245	243	243	243	244	247	242	244	244	244	245	245	245	248	244	247	246	246	246	244	244	243	247	250	241	243	244	244	245	245	245	245	242	242	247	247	246	244	243	245	245	245	246	248	241	241	243	242	242	243	246	252	248	249	247	247	246	244	245	244	244	245	245	246	244	245	244	243	246	246	244	242	242	242	244	246	246	245	245	248	251	249	244	242	241	242	245	243	245	247	249	249	244	244	242	243	243	244	245	245	246	246	247	248	247	245	244	245	244	243	244	245	245	245	244	245	247	247	247	247	245	245	246	247	245	244	244	243	245	246	247	247	246	245	246	247	246	245	245	246	244	245	246	247	248	247	245	244	245	246	246	245	244	242	248	248	246	246	245	245	246	243	243	247	246	250	250	250	251	251	251	253	248	246	245	245	245	249	249	249	246	247	249	251	252	249	249	251	249	248	242	243	249	248	248	249	246	248	245	247	246	247	247	247	244	242	245	246	246	248	246	247	246	246	246	246	243	246	246	247	250	247	244	241	242	239	242	241	243	248	245	247	245	244	246	248	245	249	249	246	242	245	245	246	247	246	246	249	248	248	247	247	249	248	248	249	250	252	252	251	248	244	245	246	247	246	246	246	248	249	249	247	250	251	245	244	243	244	244	244	245	246	244	243	245	247	249	249	249	248	249	247	248	248	250	250	252	253	253	244	245	243	243	243	243	244	246	247	247	245	247	246	245	243	247	246	242	250	247	247	246	248	248	245	240	241	243	243	244	244	243	246	246	244	244	244	245	246	248	245	247	249	252	252	252	253	245	245	245	248	249	249	251	248	248	245	247	247	247	248	248	248	245	244	242	243	244	245	246	247	247	245	245	246	247	247	248	248	246	244	241	243	243	245	246	246	245	242	239	238	240	241	245	246	246	247	249	250	247	245	246	246	245	243	243	246	243	244	245	246	246	245	242	240	239	239	240	239	237	237	239	242	243	246	248	248	248	247	245	244	243	247	245	245	245	245	244	245	245	243	242	242	244	245	250	246	245	244	245	245	242	240	238	244	244	245	245	245	243	250	248	244	244	242	245	244	240	241	241	243	244	244	240	240	240	243	240	243	241	244	244	245	242	247	247	244	245	242	244	244	243	244	243	245	245	245	245	243	243	241	242	242	242	239	239	241	241	241	244	241	241	239	243	244	242	238	237	239	242	240	241	241	241	241	241	243	243	243	243	243	243	243	246	242	241	237	238	240	240	240	241	243	242	244	244	242	242	245	246	245	243	243	242	243	244	0	0	0	0	0	0	0
238	235	241	240	238	238	237	236	237	237	237	237	241	242	238	239	239	242	243	238	238	239	239	239	240	239	238	238	238	237	237	236	238	240	244	244	244	242	240	241	240	239	239	239	239	240	243	245	245	247	248	248	248	246	242	240	236	237	241	242	243	242	242	240	238	235	237	239	239	240	237	239	238	237	240	244	244	244	243	241	241	240	241	238	240	240	241	242	243	244	246	247	244	242	242	243	244	243	244	242	238	238	240	242	245	245	243	243	240	239	240	240	241	242	241	241	240	239	237	237	242	245	240	240	239	240	241	242	249	243	246	247	244	243	245	246	246	244	243	243	242	243	242	241	243	245	247	247	247	245	242	241	243	243	243	244	243	249	249	247	245	242	240	242	239	238	241	243	244	244	242	242	241	241	241	243	244	246	244	244	246	247	246	244	244	243	241	239	240	240	241	242	242	246	246	246	241	242	244	245	245	245	244	243	242	243	244	244	243	245	244	243	243	244	245	244	243	243	244	244	244	246	247	245	244	244	244	245	244	245	245	245	247	246	244	246	245	247	247	242	242	243	246	243	243	247	249	250	250	249	247	246	244	244	247	246	247	244	245	245	247	248	245	244	251	249	243	239	238	238	240	242	243	242	240	245	246	248	244	244	241	241	242	244	246	245	244	245	245	245	245	245	244	244	244	246	247	246	245	244	241	241	241	241	241	243	243	241	244	243	244	244	244	243	248	248	247	243	243	245	245	245	245	246	246	247	246	246	246	245	246	247	247	248	250	249	247	245	245	245	245	246	247	244	242	245	246	246	248	246	249	252	245	243	243	245	245	243	244	243	241	243	241	246	246	246	246	246	245	245	248	242	241	242	243	244	242	242	243	243	243	243	243	244	246	247	244	244	242	244	243	241	242	242	242	241	241	248	245	242	240	239	240	239	242	243	243	247	246	244	243	242	241	242	243	245	245	245	246	245	249	250	251	244	245	246	244	247	247	248	248	248	248	244	243	244	244	245	246	246	245	242	241	241	242	243	246	246	246	246	242	242	248	247	248	246	246	245	244	241	242	242	244	244	244	243	243	241	242	242	243	245	247	247	247	247	247	246	246	246	244	238	238	241	241	242	244	245	242	241	240	240	241	241	241	243	241	238	237	237	238	244	244	245	247	248	245	243	242	239	240	241	240	239	238	243	242	241	240	240	243	246	249	247	248	245	242	241	239	235	238	239	243	246	246	242	242	248	244	242	241	240	244	239	241	242	243	244	245	244	239	239	239	239	240	241	242	241	241	240	239	241	244	244	241	244	243	243	242	241	241	242	243	245	240	243	242	243	242	242	242	239	238	239	241	242	243	242	241	239	241	243	239	238	241	241	241	240	239	237	240	240	243	242	240	241	239	239	244	244	245	244	239	237	236	234	237	237	239	239	240	240	238	238	238	240	241	244	244	242	242	241	244	0	0	0	0	0	0	0
235	235	239	238	235	235	235	234	235	236	235	235	235	237	238	240	240	239	239	238	235	236	236	238	239	238	237	237	237	238	237	236	238	240	236	236	237	242	240	239	240	239	238	238	237	239	241	241	246	246	246	244	244	243	241	240	239	240	242	242	240	237	238	238	238	239	238	238	239	235	235	235	237	236	238	240	241	241	241	241	240	236	237	238	238	239	240	238	239	239	240	244	245	241	240	240	243	244	242	235	236	237	238	242	242	242	242	241	239	239	239	240	241	242	241	240	240	237	235	234	238	239	238	237	237	236	238	240	243	242	242	239	239	241	241	244	245	245	243	238	242	242	239	236	238	240	245	246	246	239	238	237	239	241	243	243	244	242	240	241	240	240	241	240	239	238	239	240	242	240	242	242	242	241	242	243	243	243	244	243	244	245	246	245	242	240	238	236	237	237	239	239	240	241	243	241	242	245	244	244	245	244	243	241	241	241	243	242	242	242	241	243	242	242	242	240	239	238	239	240	241	242	246	243	243	243	242	243	244	243	246	244	244	245	245	245	244	241	240	242	243	244	244	242	240	241	242	244	247	249	247	246	244	244	244	239	244	242	243	243	240	238	241	250	251	243	237	239	235	239	241	245	242	242	240	240	243	245	241	241	240	241	244	245	244	243	243	242	243	243	243	242	240	243	242	241	239	240	241	243	240	241	239	238	239	241	240	240	239	241	244	245	243	249	250	250	249	244	241	243	245	245	245	245	246	247	247	243	243	245	243	243	243	242	248	247	245	245	244	242	244	245	245	245	241	242	245	241	240	239	243	241	242	242	242	244	245	244	243	242	239	239	239	241	243	244	246	243	241	242	241	241	244	245	245	245	243	241	240	241	240	241	242	245	243	242	242	243	242	241	240	241	241	242	247	247	245	241	241	241	237	237	237	241	243	243	240	240	240	240	241	242	242	240	240	241	242	245	243	243	245	245	244	241	242	242	243	242	241	240	240	241	240	240	241	241	242	242	243	244	243	242	240	240	240	242	241	242	241	242	239	239	238	244	245	244	246	243	240	240	241	241	240	240	239	241	239	240	240	241	242	244	245	245	246	246	245	245	238	239	237	240	239	240	240	244	243	241	239	240	241	241	241	240	240	240	241	239	238	242	243	239	239	240	243	245	246	242	237	237	238	239	238	237	236	236	242	241	241	239	239	243	245	243	244	243	240	239	236	237	235	240	238	238	239	239	241	246	246	240	239	238	238	241	241	242	243	239	246	241	238	238	238	239	238	238	241	242	242	240	238	238	241	245	246	247	242	241	240	239	243	238	237	243	242	242	242	243	241	242	242	241	239	238	237	239	241	240	238	237	238	237	238	239	241	242	242	238	237	236	239	239	241	238	238	238	239	237	237	242	241	239	238	236	234	234	234	238	237	237	237	236	233	233	233	230	237	242	242	239	240	241	242	0	0	0	0	0	0	0
233	233	235	234	231	228	228	229	229	231	233	233	237	238	238	238	238	238	236	236	234	234	234	237	237	234	235	236	235	235	235	236	237	238	234	235	235	239	239	241	242	239	234	234	233	234	234	240	244	242	241	242	242	241	240	239	239	240	237	237	236	236	237	237	240	240	238	238	235	235	235	236	236	237	239	240	241	241	241	241	241	241	239	238	238	236	235	236	238	239	239	239	241	240	240	239	239	239	237	238	238	239	239	241	240	239	237	236	238	238	239	239	240	240	240	240	238	237	235	236	237	238	238	235	233	234	235	237	239	240	239	236	237	239	241	241	243	244	242	238	238	238	238	234	235	238	240	242	240	238	237	236	234	237	239	240	242	240	235	235	236	239	239	239	238	238	237	238	238	237	235	235	237	239	243	241	241	241	242	240	240	242	241	241	240	238	236	236	236	236	236	238	239	240	240	238	237	242	241	238	242	243	241	240	238	240	239	238	238	239	239	241	242	244	239	236	237	237	237	234	240	243	244	240	240	238	238	240	241	244	244	242	242	242	245	246	243	240	244	239	243	243	243	240	240	238	240	239	245	237	243	243	243	243	239	239	241	241	238	239	242	244	245	243	247	241	239	237	236	235	239	239	245	243	241	241	243	240	243	240	239	241	243	241	242	243	243	242	244	244	242	241	238	240	237	241	241	240	240	241	242	243	243	237	240	240	240	239	238	241	241	244	242	248	245	239	242	238	238	240	242	242	246	243	242	243	242	243	243	245	245	243	242	243	245	243	243	242	241	242	243	245	243	244	243	242	238	239	239	241	240	240	240	240	242	243	243	243	242	238	239	239	241	242	243	243	239	238	238	241	242	244	244	245	243	243	241	241	240	240	243	244	244	237	238	239	240	241	241	240	240	240	241	242	247	246	245	240	240	242	240	238	240	240	243	243	241	240	240	240	241	241	239	240	240	240	242	242	242	241	241	243	242	240	241	242	242	241	240	239	239	239	238	238	240	240	242	233	234	241	241	241	241	239	239	238	238	238	238	238	241	240	240	241	239	239	237	238	239	239	239	240	241	241	240	240	238	238	238	240	241	240	241	242	242	238	237	235	236	237	237	240	239	237	239	237	237	238	238	239	241	241	241	241	240	238	238	237	239	241	242	240	239	239	239	240	239	237	237	236	236	235	236	237	237	237	240	241	240	237	239	236	234	234	234	233	232	232	234	234	236	237	236	234	234	235	240	240	236	240	237	237	236	239	241	238	237	241	241	240	237	238	238	237	237	238	237	240	238	239	238	239	240	241	243	238	238	238	238	238	240	237	237	241	241	240	240	239	239	241	240	237	238	235	230	232	235	235	234	233	231	233	237	239	241	241	237	237	236	236	237	236	237	237	237	240	236	239	239	242	242	238	238	236	233	232	231	233	235	236	237	236	233	233	233	230	234	236	238	237	237	233	233	0	0	0	0	0	0	0
230	230	235	230	230	231	231	230	230	233	236	236	236	235	234	234	234	234	236	234	233	235	235	235	232	232	234	235	234	234	232	231	236	234	233	234	234	236	238	241	238	234	233	231	231	232	233	233	235	237	239	239	238	238	237	236	235	234	232	233	234	236	238	242	242	240	238	234	235	234	235	236	237	239	239	239	238	237	237	237	239	241	240	239	236	235	235	236	236	238	238	232	233	235	236	237	235	236	237	235	238	238	237	235	236	235	234	235	237	236	237	237	238	240	240	240	243	240	235	235	234	235	235	233	232	232	233	234	236	235	235	234	234	237	241	240	240	241	239	238	236	235	236	234	235	237	239	239	239	239	237	236	234	234	236	241	240	237	238	238	237	238	238	236	236	235	235	237	237	235	234	234	236	238	237	238	238	238	239	237	236	236	235	235	235	236	236	236	236	235	234	236	237	235	236	236	236	236	239	238	238	238	238	238	238	237	238	236	235	237	238	239	241	238	241	239	240	235	236	236	237	238	241	240	241	241	243	238	239	241	241	241	240	240	239	240	242	241	240	242	241	242	240	238	236	238	238	238	237	238	240	241	241	239	239	240	239	240	237	238	242	244	244	236	247	241	240	237	234	234	236	238	242	237	234	234	239	243	242	239	237	239	240	241	240	240	241	243	244	244	240	239	239	238	237	241	241	239	238	240	241	244	237	237	239	240	240	240	237	238	238	240	240	240	239	242	241	234	235	240	244	244	244	239	240	240	242	240	238	238	247	241	238	239	238	238	238	239	242	243	242	239	238	241	239	238	237	237	237	236	236	235	235	240	241	241	242	240	238	239	239	239	239	241	241	241	238	237	237	240	242	241	245	244	241	240	241	241	240	241	240	240	237	236	238	236	238	240	240	240	239	241	243	241	239	242	241	241	240	240	241	239	240	240	238	243	243	239	238	239	241	240	239	239	238	240	240	242	241	240	240	241	240	240	237	239	237	237	237	236	238	238	238	237	236	237	234	232	236	233	238	240	239	239	237	236	236	238	238	238	239	240	241	241	239	237	237	239	238	238	237	238	239	240	239	238	236	236	237	238	240	240	234	237	237	237	236	235	235	236	236	236	238	236	237	235	236	236	236	238	240	240	238	234	233	232	233	236	237	239	240	238	239	239	237	236	234	236	236	236	236	236	236	237	236	235	237	240	237	236	237	238	236	234	234	235	232	231	233	233	236	234	236	238	238	234	234	240	237	234	237	235	236	237	238	237	237	235	233	234	235	236	238	236	236	236	236	238	237	239	239	238	239	241	239	240	239	236	236	236	234	235	235	235	236	238	238	238	238	238	237	238	238	236	232	230	229	229	228	230	230	230	233	239	240	239	236	235	234	234	236	235	237	237	234	236	239	239	239	236	236	237	238	236	234	232	232	232	232	237	236	235	235	233	232	232	233	233	235	231	233	233	232	0	0	0	0	0	0	0
230	231	231	233	234	235	231	231	230	232	234	233	233	231	234	235	234	234	235	234	233	234	232	232	232	231	229	234	232	232	230	230	230	233	231	231	231	232	239	240	237	233	233	230	230	229	230	231	231	232	233	233	233	233	234	234	235	234	233	232	233	236	243	237	237	239	237	233	230	234	234	235	237	238	239	238	236	236	236	236	237	238	240	235	233	232	236	236	235	235	234	235	235	236	235	230	230	234	233	233	232	234	235	236	233	234	234	235	235	236	236	236	237	238	238	239	242	239	234	234	234	234	235	233	233	233	233	234	234	233	231	231	231	233	236	238	242	243	239	234	233	233	232	233	234	235	235	237	240	238	237	235	234	234	237	234	237	234	235	237	238	238	239	237	235	233	234	236	235	234	234	236	237	236	238	237	235	235	235	235	234	233	232	231	232	234	235	236	235	236	235	235	233	234	235	237	236	235	234	236	237	237	238	237	236	234	235	235	234	234	236	236	235	239	240	237	237	237	235	232	233	236	237	240	240	240	239	238	236	237	238	241	237	239	239	237	238	240	240	238	241	238	238	237	236	239	237	237	236	236	238	240	239	239	239	240	242	240	238	241	242	239	235	235	235	234	234	236	237	238	238	238	236	234	232	233	234	235	236	237	237	237	239	239	240	238	239	240	239	241	241	238	234	234	235	238	239	238	238	239	240	240	239	236	237	239	239	239	239	241	239	239	238	239	236	239	238	234	234	235	235	238	239	239	235	233	234	234	235	237	237	236	235	235	233	236	239	240	243	243	241	240	238	242	237	238	236	234	234	234	234	235	241	243	243	240	239	238	238	238	238	238	240	240	240	242	241	238	237	236	240	240	240	239	241	240	241	241	242	241	241	239	238	236	237	237	240	242	240	240	239	241	239	238	236	238	241	240	239	236	237	239	239	236	235	237	239	240	238	238	239	238	239	238	239	238	240	240	239	240	240	240	237	239	239	235	235	236	235	237	238	238	236	236	237	237	237	236	235	237	238	237	238	238	236	236	239	239	237	237	237	238	235	236	237	236	236	236	234	238	235	234	235	238	241	237	236	235	236	236	231	231	231	231	235	237	236	236	236	235	236	235	235	235	235	234	236	237	236	237	237	234	233	233	233	232	235	236	236	236	235	237	238	235	235	234	233	233	234	236	237	236	235	236	236	234	235	235	235	235	236	235	236	234	234	234	232	230	232	232	233	232	233	233	235	233	233	234	239	236	238	239	234	233	235	236	233	231	233	236	236	237	236	235	236	235	235	236	238	238	235	235	238	235	238	240	238	236	235	235	237	233	231	234	234	238	238	239	240	238	237	237	237	235	233	231	231	228	228	228	228	229	229	234	238	237	234	233	230	232	232	230	232	236	234	234	232	232	234	234	236	237	237	234	232	231	232	231	232	233	235	235	235	232	232	232	231	228	229	230	231	233	232	232	0	0	0	0	0	0
228	229	229	232	231	229	228	228	229	231	232	231	231	228	233	234	233	233	233	233	233	232	232	232	232	232	229	234	233	231	231	230	229	232	231	230	235	235	236	237	234	232	232	231	227	227	230	230	230	230	231	232	232	234	234	234	235	234	233	232	232	235	236	234	236	236	232	230	232	233	233	232	237	236	238	236	235	233	235	235	236	237	231	232	235	235	238	240	238	237	236	236	236	236	232	231	230	231	233	231	231	231	231	232	233	233	235	235	232	233	234	235	236	237	236	236	235	232	234	232	234	234	235	233	234	235	235	234	233	231	229	229	231	231	235	238	238	237	233	232	233	233	233	233	233	234	237	238	237	237	237	235	235	232	234	235	233	232	233	235	236	238	239	238	233	232	233	233	234	234	234	234	236	235	235	237	235	235	235	234	233	233	230	229	230	233	233	234	236	236	236	234	229	233	234	234	234	234	234	231	235	237	237	236	235	232	233	232	233	233	234	233	235	238	238	236	236	234	234	232	232	233	236	238	238	238	238	238	238	238	238	237	236	237	236	236	238	237	237	237	241	237	237	236	235	235	237	237	235	235	238	238	239	239	238	238	238	238	236	237	241	242	237	234	232	232	230	232	232	233	233	238	235	232	231	232	233	234	236	236	235	235	238	239	237	235	236	236	238	237	236	235	235	235	240	242	240	237	237	232	236	237	237	238	238	239	239	239	240	241	239	238	236	234	240	241	239	235	233	233	234	234	236	231	232	233	230	229	231	232	235	234	234	235	234	233	239	239	238	239	239	240	239	238	236	235	238	233	234	230	234	231	230	229	233	236	235	235	241	239	238	238	234	239	240	240	240	240	239	237	238	238	239	239	239	240	237	235	235	240	243	240	237	234	233	234	237	241	240	239	239	240	240	238	237	239	235	234	235	237	236	236	235	235	234	236	237	238	239	239	238	237	238	233	234	238	240	239	238	235	236	235	235	235	234	234	233	232	231	233	237	236	234	235	237	239	240	238	237	235	235	237	239	236	236	235	237	236	236	237	237	237	237	235	235	234	236	235	234	233	235	233	234	235	240	236	234	233	234	234	233	233	233	233	234	234	236	236	236	235	236	234	234	230	230	234	236	236	236	236	235	231	231	231	232	236	235	235	231	235	233	232	232	232	232	232	230	231	234	234	235	234	234	236	233	233	234	233	233	232	234	235	235	234	232	233	232	231	231	231	228	227	232	233	233	233	233	233	236	241	236	234	229	230	234	232	232	232	234	235	234	234	234	234	233	233	232	232	233	234	233	232	232	234	237	238	233	231	235	235	236	236	235	234	234	237	239	240	238	239	236	235	234	234	232	231	231	230	229	230	232	232	233	233	232	232	232	229	228	228	229	229	229	228	232	231	231	231	232	233	234	233	234	232	231	231	230	230	232	233	234	234	235	234	233	229	232	231	229	229	231	231	230	230	0	0	0	0	0	0
224	223	223	232	227	225	226	226	229	230	231	230	230	229	230	232	233	232	232	232	233	229	231	232	232	231	231	235	232	231	231	230	228	229	230	231	234	234	236	235	231	231	231	232	230	230	231	231	229	230	231	231	231	231	231	234	235	235	230	230	229	230	234	233	231	231	230	230	230	231	231	230	231	236	236	233	233	236	236	237	237	232	228	231	235	236	236	231	232	234	234	233	234	232	230	230	230	231	230	229	230	229	230	229	232	232	232	233	234	232	232	235	235	235	235	233	232	231	230	232	232	230	229	233	232	233	236	235	233	229	229	229	229	230	234	238	235	232	231	231	231	231	230	233	235	236	236	236	234	235	235	235	231	232	232	232	231	231	231	235	236	237	237	236	234	231	230	232	232	233	233	234	236	236	234	235	235	234	234	232	232	232	230	230	232	232	230	231	230	236	231	231	231	233	234	231	232	231	232	232	229	229	235	236	232	231	228	226	229	229	234	233	235	236	237	236	234	233	232	229	230	231	232	230	231	235	236	238	238	238	237	237	236	237	235	235	234	235	236	237	235	234	235	235	234	233	233	234	239	240	237	238	238	238	238	239	238	235	234	235	235	234	234	236	235	233	234	233	232	233	235	235	232	230	230	232	232	233	234	236	234	235	234	234	234	235	236	234	234	234	236	234	231	233	240	241	239	235	236	237	241	240	239	235	235	235	238	238	239	239	235	234	235	232	239	240	238	232	232	232	233	236	233	231	231	233	232	229	227	228	233	234	234	233	234	234	237	237	237	238	239	239	238	237	235	239	231	232	232	233	232	230	229	231	230	236	232	234	234	237	236	236	238	235	238	238	239	240	239	238	236	236	234	239	239	239	236	237	238	237	237	234	235	233	230	233	235	241	235	234	236	235	234	233	233	234	236	236	234	234	234	233	233	233	235	238	239	238	238	238	238	236	235	234	235	236	235	236	235	235	235	234	232	233	234	232	231	231	232	232	231	232	231	236	237	241	239	237	236	236	233	235	235	237	234	235	236	235	236	236	237	237	238	235	236	235	233	236	233	233	234	233	234	235	234	230	230	231	232	233	233	232	233	233	234	234	231	234	230	232	232	233	231	227	227	232	233	236	236	236	236	233	231	231	235	236	236	231	230	231	233	231	231	232	229	229	228	230	232	234	233	233	232	233	232	232	233	233	233	233	233	233	233	232	231	229	230	230	228	224	225	226	230	232	232	232	231	230	231	237	235	234	228	229	231	231	232	233	234	235	234	233	231	232	231	234	234	233	233	232	233	231	231	231	234	233	231	230	229	232	235	235	231	231	233	234	237	238	239	235	235	231	229	228	231	231	230	230	230	232	232	232	233	231	232	232	232	231	229	228	227	228	228	228	231	231	233	234	230	229	233	232	232	230	229	230	230	230	232	230	229	229	229	229	229	229	230	229	228	229	230	231	231	230	0	0	0	0	0	0
221	220	221	221	218	220	222	222	223	227	228	228	228	228	228	229	230	230	230	231	229	224	230	229	229	228	234	229	230	230	230	230	229	226	226	227	228	229	229	230	228	229	230	230	230	230	230	230	231	233	231	229	228	230	230	230	232	229	227	226	229	230	229	230	232	232	231	230	230	231	232	232	230	232	236	237	234	233	234	233	233	230	229	228	229	230	230	231	230	229	230	230	228	230	229	229	230	229	228	228	228	228	228	228	229	231	230	227	224	226	230	234	235	229	227	225	230	229	229	229	229	229	228	228	228	229	234	234	233	231	230	230	231	232	232	231	231	230	229	230	231	230	230	231	233	234	235	235	232	233	230	231	232	233	232	231	229	229	230	232	234	235	235	235	233	231	229	229	232	233	235	234	235	231	233	233	233	234	234	232	231	229	229	229	232	228	229	232	234	229	233	229	230	232	233	232	232	229	227	228	228	227	226	231	230	229	230	231	232	227	230	230	231	233	234	235	232	233	232	232	232	231	231	231	230	232	232	233	237	238	232	234	234	235	232	234	233	233	234	235	234	233	235	233	234	234	234	234	238	240	236	235	234	234	235	236	237	234	234	234	232	230	232	232	231	232	233	232	233	236	236	235	231	231	231	231	230	232	234	234	235	234	235	233	233	234	233	233	232	234	235	236	234	234	236	238	237	233	234	237	240	237	235	235	235	235	235	235	234	234	233	231	228	227	230	232	234	229	231	233	233	236	232	231	230	230	223	224	230	232	234	234	234	233	232	233	230	230	230	235	235	237	237	234	235	235	234	230	233	234	230	231	232	228	230	232	231	234	234	236	234	234	234	233	234	236	238	236	234	233	233	234	234	237	238	238	238	237	236	238	235	234	231	229	230	231	235	235	234	232	233	234	234	233	233	233	233	236	235	234	230	232	232	233	234	237	241	238	237	236	235	234	235	236	236	235	235	235	234	235	232	233	229	230	233	228	228	230	232	234	230	234	229	230	235	234	234	236	235	227	231	235	234	235	235	232	233	231	230	236	236	236	238	238	236	235	232	230	234	232	233	229	231	234	233	231	230	232	233	232	234	233	234	233	234	233	232	227	227	229	231	232	228	227	228	228	229	229	231	233	229	229	234	234	233	234	230	229	229	231	231	230	230	228	228	227	228	230	231	233	232	231	231	230	230	230	231	233	231	230	230	232	232	230	230	226	227	227	227	226	225	227	229	230	230	231	229	227	228	229	228	227	226	225	228	230	232	233	235	234	233	231	231	232	233	234	233	232	231	233	232	231	231	231	230	230	231	229	232	231	232	231	228	228	229	230	227	227	226	230	232	231	230	230	230	230	231	232	234	233	232	232	230	231	232	232	232	228	228	229	230	226	228	228	232	232	229	231	232	229	229	232	230	230	229	228	229	229	227	227	227	229	228	226	224	226	226	226	226	229	228	228	228	227	0	0	0	0	0	0
219	220	220	220	218	217	219	222	222	223	226	226	227	227	226	227	227	227	227	227	225	220	219	225	225	226	228	229	227	226	227	227	227	222	224	226	225	228	228	228	229	231	232	232	231	230	230	230	230	230	228	228	228	229	229	229	229	226	225	224	226	229	228	230	228	228	228	226	225	225	226	227	229	228	232	231	229	225	228	226	226	226	226	227	228	228	228	230	229	229	228	228	226	227	229	226	224	224	226	227	228	228	227	228	228	229	229	229	223	222	224	226	227	226	223	223	225	226	228	227	226	228	227	228	229	229	227	226	227	226	229	229	231	232	230	230	230	229	230	230	230	230	229	231	233	232	231	230	229	230	229	230	232	229	230	231	228	228	229	230	231	232	233	233	232	228	228	229	230	230	233	234	229	225	227	230	231	231	231	228	229	230	230	228	227	227	229	229	229	228	229	228	229	231	233	233	231	229	227	229	228	228	227	226	226	226	225	231	231	230	229	227	228	231	232	231	230	231	232	231	232	230	230	230	229	231	232	234	234	232	231	232	233	233	231	229	231	232	231	233	232	234	233	233	234	234	234	232	226	227	228	231	232	233	231	231	230	234	234	232	231	229	229	230	231	232	231	231	230	233	235	234	231	231	231	231	230	232	233	233	232	231	230	229	231	231	230	230	229	232	236	234	234	234	234	234	235	232	230	234	239	235	235	235	235	233	232	231	233	233	234	233	232	233	233	233	233	228	229	232	235	230	230	230	227	231	231	231	228	229	230	234	234	234	234	230	226	230	229	234	235	238	234	235	233	234	231	229	232	235	230	229	233	232	228	229	230	231	231	234	233	231	230	233	234	234	235	235	229	229	230	231	233	235	235	236	237	236	235	234	234	234	231	230	230	234	235	233	231	234	232	231	232	233	232	234	236	235	235	233	229	229	231	233	233	237	237	237	235	229	231	231	235	236	236	236	235	233	233	231	229	228	230	234	233	232	232	232	232	232	230	229	228	227	229	231	230	233	232	232	234	233	230	234	235	231	232	229	230	230	234	236	232	235	235	236	234	231	228	224	223	227	229	228	227	227	229	232	232	233	232	232	234	233	231	229	228	226	225	229	229	231	231	227	226	228	229	230	230	232	229	225	228	232	232	231	227	227	228	228	228	229	227	226	226	225	228	230	231	230	228	228	228	229	229	230	227	226	228	229	229	231	230	228	226	226	227	228	227	226	223	225	227	228	229	229	226	226	227	228	229	225	224	226	225	227	230	230	231	228	228	227	230	231	232	232	231	226	223	229	229	230	229	225	225	230	228	229	231	231	230	227	226	225	225	225	226	225	225	225	226	229	230	230	225	227	227	226	226	229	229	227	226	226	227	229	230	231	224	223	226	226	229	224	224	225	228	231	229	229	229	230	229	227	226	225	227	226	225	225	225	227	227	226	225	225	225	226	227	226	226	226	225	225	0	0	0	0	0	0
220	220	220	220	217	216	219	220	220	224	224	218	218	218	220	224	226	227	227	227	220	220	222	224	225	225	222	225	224	223	222	222	224	224	225	226	225	225	225	227	226	228	230	228	224	224	224	225	226	228	228	225	227	228	229	229	228	226	225	225	225	228	225	228	224	225	225	225	225	224	224	225	227	226	227	226	226	230	228	227	227	227	226	226	227	227	227	230	229	227	227	224	224	226	223	223	223	221	225	225	226	227	228	226	225	224	228	225	223	222	222	224	226	224	222	221	223	224	225	226	225	226	226	226	228	227	226	224	224	228	227	227	228	230	230	230	230	227	227	225	227	227	231	230	231	231	228	228	227	229	230	230	230	230	229	230	227	226	227	227	228	228	230	230	228	228	228	228	229	229	232	228	226	227	227	228	229	229	227	226	226	227	227	227	226	226	226	228	229	228	227	228	228	231	232	231	230	229	225	227	229	227	226	226	225	225	225	229	231	229	226	225	225	226	226	227	227	228	227	226	228	230	231	230	232	232	233	234	233	230	228	227	227	227	229	229	231	232	232	229	230	229	227	226	232	234	233	228	225	225	226	229	230	230	228	227	227	227	230	226	227	227	228	228	227	226	224	225	225	224	227	229	230	230	231	231	227	229	228	227	225	231	231	229	227	229	229	230	229	232	231	232	233	233	233	233	233	232	232	232	231	235	234	235	234	233	232	230	230	230	229	233	231	233	226	230	231	228	227	227	228	227	228	224	228	229	231	231	227	224	223	231	232	232	234	232	231	228	230	234	234	231	235	233	234	230	229	229	231	234	228	226	228	229	229	229	230	229	226	229	229	235	234	235	234	235	235	229	230	229	229	227	227	232	234	234	234	234	233	234	234	235	235	231	231	234	234	231	233	234	232	232	232	232	232	234	234	232	231	231	230	229	228	230	232	232	231	231	230	228	228	230	232	234	232	232	233	231	228	228	229	228	229	228	231	231	231	230	229	232	229	230	227	229	232	232	231	228	231	234	233	232	231	231	232	232	228	228	228	228	231	231	231	234	232	227	227	226	226	226	224	226	226	226	226	232	230	230	229	225	225	226	229	229	232	226	225	225	227	226	229	230	229	228	224	224	227	229	230	230	227	225	227	227	228	226	226	228	228	228	229	229	228	224	224	223	225	229	231	228	227	227	226	229	229	230	227	225	226	229	229	226	223	223	220	223	225	227	224	225	224	223	223	224	226	228	224	223	225	226	226	225	225	226	228	228	226	225	225	226	225	224	228	228	226	231	225	225	223	224	226	229	225	225	226	228	229	229	230	232	228	225	225	225	225	223	223	223	223	224	225	224	224	224	224	227	226	225	223	223	222	224	225	225	223	225	225	225	222	222	221	224	221	226	225	224	225	226	231	231	230	228	226	225	226	225	222	223	224	224	227	227	226	226	225	225	225	225	224	226	223	223	222	223	0	0	0	0	0	0
219	219	218	218	217	219	220	217	217	218	222	223	222	222	222	224	224	225	224	224	223	222	219	222	224	224	222	223	221	219	221	223	223	225	226	225	219	219	222	222	224	226	227	222	221	220	221	221	225	227	227	224	223	225	227	226	226	225	225	226	226	226	223	222	224	223	223	223	223	223	223	223	225	225	225	225	228	229	228	226	225	224	224	223	226	227	227	228	229	228	220	219	222	224	223	223	224	220	223	224	225	225	224	224	223	222	222	223	222	222	222	222	222	221	221	221	222	224	225	226	226	226	226	226	223	223	223	225	226	226	226	224	224	224	224	223	224	223	223	224	225	225	229	228	226	230	226	227	225	227	229	229	230	230	229	227	227	226	224	225	226	227	227	226	226	227	227	227	227	226	224	227	227	227	227	229	229	225	226	226	225	225	226	226	227	226	226	227	227	228	227	227	229	229	227	227	227	228	227	227	227	228	227	226	225	224	225	226	224	224	222	223	223	223	225	225	225	226	225	224	225	228	230	228	226	225	226	228	227	227	227	227	228	228	228	227	226	226	227	226	226	226	225	229	226	231	229	228	226	225	227	228	229	229	230	229	230	230	228	227	226	226	225	224	225	225	223	224	225	228	227	229	231	226	228	225	224	225	226	225	225	224	231	230	226	226	228	230	231	229	230	233	233	233	232	231	226	227	228	229	230	230	230	233	233	232	232	230	229	227	227	233	233	228	229	230	229	228	228	223	224	224	224	224	224	229	227	230	225	223	224	230	231	232	227	227	230	225	230	232	232	234	235	233	233	232	228	226	225	223	224	226	228	229	228	230	230	228	225	224	224	236	232	234	235	233	234	234	229	228	227	226	227	229	233	231	229	231	230	231	231	233	231	228	233	234	230	230	230	227	232	232	232	231	230	229	231	228	225	225	226	228	227	228	229	233	232	231	230	227	225	225	229	231	230	226	225	228	227	229	231	230	229	228	228	229	229	229	229	228	229	229	227	225	227	232	229	228	226	230	231	225	229	228	227	226	227	228	228	228	228	229	229	224	225	226	228	225	224	226	224	225	227	229	227	228	230	226	225	222	223	224	223	224	227	226	224	227	225	226	227	228	225	225	225	223	224	226	227	227	224	223	224	225	224	226	225	226	227	227	228	228	225	225	221	221	225	225	227	226	226	224	226	228	224	224	224	224	226	224	225	225	222	221	220	223	223	225	224	225	225	225	223	224	226	228	223	223	224	225	225	224	225	225	229	229	227	227	223	224	223	222	223	227	226	224	223	224	224	225	224	227	225	225	227	228	228	227	228	226	224	224	224	225	223	223	223	224	223	224	224	223	223	222	224	224	224	224	222	221	220	223	222	221	223	225	225	222	221	223	226	224	221	221	224	225	225	225	225	225	223	221	223	220	222	222	222	223	224	224	227	226	226	225	225	225	226	225	222	224	223	223	224	226	0	0	0	0	0	0
218	219	217	218	218	219	215	219	222	222	223	222	220	221	221	222	225	224	225	225	224	222	216	216	221	221	220	220	220	223	223	223	223	222	225	220	219	222	223	223	223	222	221	219	218	218	222	222	224	227	225	222	220	219	221	224	224	224	225	225	226	226	222	221	221	221	222	222	222	221	219	223	225	225	225	222	224	225	226	224	222	218	217	217	220	227	228	228	228	224	224	218	219	219	223	224	221	221	222	223	224	224	222	222	222	222	220	220	221	221	221	220	221	223	225	224	222	222	223	223	225	226	225	223	222	221	223	222	223	224	223	222	221	221	222	223	222	220	219	222	228	227	224	225	222	223	222	223	220	220	223	225	226	226	225	226	226	225	222	223	225	225	225	223	223	223	224	224	227	225	225	221	225	227	227	228	224	223	224	225	225	223	224	225	225	228	228	225	227	227	230	229	229	225	225	226	225	226	225	223	224	225	227	226	225	225	225	224	224	222	221	221	221	222	223	224	225	224	224	223	223	225	226	228	230	229	226	227	227	227	227	227	229	229	227	227	226	225	226	228	225	224	224	225	228	229	230	228	226	225	227	231	229	229	229	230	230	231	227	225	222	223	225	225	225	223	224	220	224	225	227	224	222	225	224	225	222	225	225	224	226	227	228	225	225	224	225	227	229	229	229	231	229	228	227	225	226	226	227	228	229	228	228	231	230	230	226	225	227	227	228	229	227	228	230	229	229	228	226	223	223	227	227	222	225	226	225	225	223	225	225	227	226	231	227	228	228	227	225	230	228	230	230	230	228	227	225	225	225	223	224	225	230	231	231	229	230	229	229	225	224	225	228	234	234	235	230	233	230	227	229	228	228	227	226	230	228	226	227	228	228	231	229	228	229	229	227	228	228	227	230	232	231	230	229	229	229	229	228	227	226	227	229	229	232	232	232	231	230	224	227	230	229	231	227	225	224	224	227	231	233	233	231	230	230	229	228	228	228	228	228	228	227	226	226	225	228	223	224	225	228	224	228	226	225	226	226	227	229	229	228	227	226	226	221	224	224	226	224	227	227	227	227	230	230	227	228	225	223	222	222	222	225	224	222	224	226	227	225	225	226	228	226	225	225	225	224	224	225	223	223	223	222	223	224	225	226	226	224	223	224	227	225	223	220	221	224	223	226	226	225	223	223	223	223	223	223	223	223	224	225	225	223	220	219	220	221	221	224	225	225	223	222	222	225	227	224	221	221	223	222	223	223	225	226	224	221	220	222	222	222	222	221	225	225	225	223	223	224	225	224	225	224	225	225	227	227	226	225	223	223	223	223	224	223	223	223	223	221	220	224	223	224	224	221	221	224	221	221	220	226	224	223	220	219	224	224	222	224	222	226	224	224	221	221	224	225	225	224	225	223	222	221	220	220	222	223	225	225	223	226	226	224	222	222	223	224	222	222	223	223	223	223	221	0	0	0	0	0	0
216	217	218	217	217	218	214	217	220	220	223	221	219	217	217	218	222	223	223	222	222	219	215	216	217	214	214	217	215	218	221	221	221	221	221	219	218	222	222	222	220	220	219	217	216	217	218	218	218	217	219	220	221	220	220	223	224	224	222	224	225	225	223	219	220	221	220	219	219	220	219	223	224	225	223	223	222	224	225	225	222	218	218	218	220	225	226	226	225	221	221	218	218	218	219	219	219	219	219	221	219	219	221	221	221	219	219	220	221	219	220	220	221	224	226	225	222	221	222	222	221	220	219	221	221	221	220	220	222	222	222	221	221	220	220	219	219	220	220	221	222	224	225	224	223	221	222	221	220	220	220	220	221	221	223	224	224	224	223	224	225	224	223	223	222	223	222	223	226	224	223	223	224	225	228	223	221	221	222	224	223	223	224	224	225	223	221	225	227	229	225	222	221	225	223	226	225	224	224	222	223	225	226	226	227	226	224	224	222	221	220	220	221	222	225	226	223	223	222	223	223	225	227	229	230	227	227	223	222	221	227	228	229	228	227	226	225	225	225	228	225	225	224	224	226	225	225	227	226	224	226	229	228	228	227	229	231	224	227	223	222	220	221	221	223	224	223	221	224	225	225	222	224	225	224	225	225	226	224	224	222	226	224	224	223	224	225	228	229	230	225	226	223	221	222	223	227	226	226	223	224	227	226	226	223	224	224	225	226	226	226	226	227	227	227	226	227	228	224	220	228	223	227	224	224	223	223	224	224	224	223	228	224	224	226	228	229	231	228	227	223	224	225	225	226	226	226	226	223	226	224	226	229	229	226	227	227	229	227	223	223	225	225	228	229	229	231	229	229	229	229	229	228	229	227	225	226	226	226	226	227	227	229	229	229	229	230	227	227	227	229	231	231	228	225	227	229	229	229	227	227	226	229	231	232	232	230	231	225	224	227	227	231	228	227	224	223	224	224	225	232	227	227	230	230	230	230	229	226	224	228	228	225	224	224	224	228	223	223	225	226	226	226	225	225	224	225	222	227	226	226	225	228	227	225	224	223	219	220	225	226	226	229	229	229	229	225	225	224	225	223	219	219	221	221	222	224	220	225	225	223	228	228	225	224	224	224	224	222	223	222	221	222	222	223	223	224	220	223	222	221	222	221	221	221	220	223	224	224	225	223	220	222	223	225	225	223	223	221	222	221	223	221	220	219	220	220	218	221	223	223	221	221	221	221	223	220	220	221	223	223	223	224	225	224	225	222	221	222	224	222	221	220	221	221	220	220	219	222	221	222	223	224	224	223	223	226	225	226	223	222	222	222	224	225	224	223	223	219	217	216	224	224	224	221	221	221	221	221	223	222	223	224	224	220	219	223	221	223	221	219	219	220	219	223	225	222	223	222	225	223	223	223	224	219	218	220	222	222	224	220	218	219	220	220	219	220	220	220	220	221	222	221	220	0	0	0	0	0	0
