493	491	489	486	486	482	479	476	477	478	478	481	479	475	476	476	481	490	488	487	486	488	488	491	494	494	487	477	475	475	477	482	484	484	481	480	479	479	481	486	492	495	495	493	488	483	483	482	485	485	479	479	479	482	480	482	484	488	488	491	497	494	485	479	476	475	477	473	477	480	487	483	478	471	469	469	474	479	480	482	482	481	483	485	478	472	466	462	463	467	471	472	471	468	466	467	473	478	483	486	488	488	487	484	480	477	478	474	471	461	457	455	458	468	470	471	471	475	482	483	481	474	469	465	467	472	474	474	480	484	485	476	472	474	477	481	482	477	472	473	474	475	476	475	474	472	489	488	485	481	478	477	472	476	478	480	478	477	483	483	478	475	474	476	480	478	470	469	469	475	478	477	474	471	473	481	486	485	484	485	483	480	474	470	471	480	480	481	479	475	471	470	471	472	475	478	478	476	475	474	475	480	485	486	480	479	481	482	482	480	479	476	471	469	476	479	482	475	472	469	469	476	477	477	488	487	486	483	476	471	474	478	479	479	481	483	485	484	483	475	472	473	474	475	479	474	473	480	482	480	475	473	476	477	473	472	469	470	471	470	472	473	475	476	478	482	479	472	468	470	471	472	474	470	467	464	464	467	468	466	463	462	461	460	467	464	466	471	476	474	473	471	467	464	461	468	471	470	469	469	468	468	472	470	471	473	475	476	477	472	473	470	466	469	469	468	470	465	462	465	473	478	479	479	478	475	475	472	472	473	472	471	469	465	466	470	472	472	474	476	479	477	474	467	458	453	450	453	458	463	465	465	467	467	465	466	471	471	463	462	462	464	463	465	469	471	470	464	466	471	474	474	474	474	474	474	473	472	463	463	463	464	464	463	461	457	458	460	464	465	460	458	465	460	452	448	452	455	455	459	459	458	461	463	465	469	472	474	467	465	470	467	465	461	458	455	461	463	467	472	476	475	470	467	467	465	459	462	465	468	468	468	464	461	460	462	465	470	471	469	468	466	465	468	473	470	465	457	459	463	466	469	470	464	457	452	460	464	463	462	460	458	457	456	457	455	458	456	459	462	463	463	461	458	455	453	453	461	456	453	452	454	461	464	466	462	458	454	453	457	459	460	460	460	458	458	454	458	465	469	469	469	468	470	468	464	461	457	456	461	466	462	455	455	461	462	460	461	460	458	456	456	457	459	457	458	453	453	451	450	451	452	453	455	456	456	453	454	448	449	451	450	451	448	450	450	449	451	453	455	458	459	457	453	450	449	450	454	456	456	455	456	457	459	458	465	466	466	463	460	455	454	455	456	465	464	460	461	465	467	466	467	468	468	466	466	463	461	459	458	455	458	460	458	456	458	461	453	453	456	459	468	470	470	466	463	461	460	462	464	464	464	467	467	474	472	465	465	468	470	467	465	464	461	461	464	462	463	463	463	467	468	0	0	0	0	0	0	0	0
485	482	480	479	479	476	473	472	473	474	474	474	472	467	465	467	467	479	468	469	470	472	472	476	483	485	482	473	470	470	471	478	480	479	479	479	478	478	479	482	484	485	483	483	482	476	476	473	474	475	472	469	473	472	472	472	472	480	480	485	484	473	474	472	472	470	468	472	479	483	479	477	472	468	466	466	463	467	471	473	470	469	470	471	467	460	457	458	459	463	465	467	463	461	458	459	465	471	478	481	482	481	480	476	476	471	468	465	466	461	456	453	456	467	472	470	468	471	472	470	465	460	459	464	468	474	474	471	474	474	472	466	465	465	466	467	466	467	466	467	468	468	469	464	463	462	461	464	469	463	462	459	464	470	477	478	476	470	468	467	468	469	473	479	482	480	468	463	459	464	474	471	468	466	466	465	469	473	471	471	468	470	463	460	457	470	471	468	464	463	465	466	468	469	470	470	467	469	467	464	467	477	480	473	472	475	478	477	474	472	474	471	465	463	462	470	469	461	458	452	451	454	459	464	465	463	473	468	467	466	462	469	476	475	474	473	473	473	467	464	459	463	468	472	471	470	468	466	466	464	467	465	462	473	467	458	462	466	467	464	465	466	467	471	475	476	472	466	461	458	463	467	467	463	458	457	457	459	462	463	462	453	447	448	450	450	452	455	459	464	454	458	456	465	465	460	460	463	461	462	463	463	460	458	456	466	465	458	461	464	467	466	463	455	455	460	460	464	466	468	472	475	476	475	473	471	472	469	463	462	466	467	465	461	450	449	463	471	474	474	474	471	467	456	451	448	447	451	457	461	461	463	462	463	461	458	454	454	456	463	461	459	459	463	466	468	464	462	466	468	471	469	468	468	466	454	450	449	453	455	457	458	457	453	448	445	449	452	453	452	451	450	452	453	454	451	446	443	447	449	453	455	449	445	446	450	451	451	450	449	456	452	456	453	451	451	452	455	454	458	464	463	458	455	454	454	457	454	450	453	454	453	454	455	454	457	461	461	459	459	458	456	453	452	455	456	451	449	454	459	462	467	466	461	454	454	452	456	460	458	455	453	451	449	449	447	450	446	448	446	448	454	455	454	452	451	448	449	450	447	447	448	450	453	456	454	455	453	454	456	455	452	449	448	447	447	447	450	459	465	464	463	463	462	461	460	457	453	450	449	453	447	445	446	449	455	455	452	450	449	449	439	441	441	449	453	450	446	441	437	444	448	451	452	447	445	445	444	440	442	442	440	441	444	447	448	448	447	450	450	454	453	450	448	450	448	445	450	454	456	456	454	453	452	452	455	457	452	446	448	449	448	450	451	454	451	448	455	456	457	457	460	460	461	459	458	458	457	453	449	446	451	456	458	454	451	446	443	442	446	454	458	457	455	453	454	455	454	454	457	457	461	462	459	459	457	456	463	464	465	462	459	458	454	455	454	452	451	455	455	459	462	0	0	0	0	0	0	0	0
459	459	459	461	461	464	469	470	471	470	470	468	467	463	459	462	462	470	464	466	467	468	468	470	473	473	473	468	465	465	466	462	466	470	475	476	475	475	477	477	477	475	474	473	473	472	472	468	466	463	461	464	465	465	465	462	463	464	464	466	469	467	466	468	471	470	471	479	482	480	474	475	473	470	460	460	455	448	453	458	459	458	460	461	460	457	457	457	462	463	463	461	455	451	449	452	458	465	470	473	472	473	468	466	461	458	458	463	466	465	461	460	464	468	470	469	468	468	463	458	456	454	456	463	469	473	470	464	465	463	460	455	454	454	456	458	458	455	454	455	459	459	458	452	448	455	460	471	472	462	458	454	451	450	452	453	469	465	461	460	461	460	460	469	478	475	461	456	455	457	461	462	462	459	459	462	466	467	466	464	461	458	456	453	449	451	456	458	456	454	453	453	453	455	450	456	463	461	461	459	462	471	471	464	464	468	473	473	471	468	466	463	462	459	459	460	456	452	447	444	443	446	452	459	459	459	454	449	452	453	456	463	471	473	470	468	465	463	462	456	459	464	468	470	468	465	461	460	458	457	457	454	459	461	458	452	458	462	462	458	457	457	456	464	461	461	467	461	456	452	458	462	465	462	456	452	447	447	449	461	450	445	441	437	435	439	442	441	441	446	454	455	451	452	457	455	450	448	444	445	449	451	448	448	448	448	443	443	456	460	464	465	462	457	451	450	454	459	458	461	462	464	462	456	461	464	462	460	459	459	459	463	460	452	446	448	453	458	463	463	463	463	456	456	457	454	448	448	454	458	458	458	458	455	452	451	449	449	451	455	452	451	454	459	461	464	460	458	464	464	465	463	441	446	443	440	439	442	445	449	456	459	456	449	443	443	445	447	447	444	442	441	442	449	452	453	448	444	444	448	448	448	447	446	446	446	445	443	444	443	443	448	450	450	448	448	449	450	448	449	450	450	453	454	453	446	448	446	445	448	450	453	452	451	454	458	458	457	451	451	454	450	451	449	450	446	443	442	450	453	452	449	443	448	455	450	445	445	449	449	447	444	443	442	441	442	440	441	441	441	442	442	447	449	445	446	444	442	442	444	443	441	443	443	442	439	446	451	452	453	450	447	441	438	434	436	438	442	452	457	458	456	452	452	453	454	452	450	447	445	441	443	445	446	445	445	447	449	445	440	435	434	435	436	440	446	442	439	435	433	435	437	439	439	438	438	437	435	435	435	436	436	436	441	444	446	445	445	445	445	443	440	440	438	438	437	443	447	447	453	455	452	445	443	443	446	445	441	434	435	440	444	446	448	452	451	447	443	441	441	444	447	449	446	444	445	450	450	447	444	438	439	447	452	451	450	448	439	438	437	442	449	450	449	448	448	447	446	448	451	451	455	456	451	446	445	447	448	446	445	457	452	450	449	451	451	449	448	448	445	446	449	0	0	0	0	0	0	0	0
451	447	447	453	460	460	464	468	469	466	466	461	461	458	454	458	458	464	463	467	468	467	467	467	469	470	468	465	461	461	455	454	453	455	460	471	471	471	472	470	466	463	463	464	461	458	454	454	454	455	456	457	457	459	461	461	460	464	464	464	463	460	460	462	465	468	472	475	473	470	465	460	456	455	451	448	448	447	449	452	450	449	452	455	457	458	456	456	456	455	456	454	453	452	452	454	458	461	462	462	465	465	461	457	453	453	455	460	461	461	459	461	465	467	462	460	457	457	455	453	450	447	448	454	462	464	463	459	460	458	454	452	453	452	450	451	452	447	444	446	449	449	447	444	445	448	457	463	464	456	453	450	450	449	448	448	448	450	453	459	463	457	457	455	454	457	454	452	452	455	457	458	459	460	461	461	463	462	461	458	454	452	453	449	445	442	441	450	452	450	443	445	445	444	445	449	454	458	456	455	457	458	456	453	452	456	460	462	469	465	463	461	456	455	452	451	451	449	443	438	436	441	448	454	457	454	451	448	445	444	449	454	465	463	461	462	462	463	455	452	452	457	469	470	467	459	454	452	449	452	450	454	459	461	455	449	457	462	460	453	448	446	441	432	439	439	448	455	453	446	448	448	454	456	454	451	452	450	451	452	454	454	445	441	440	442	444	442	443	446	450	450	448	444	446	446	444	442	439	440	443	444	443	446	444	441	436	437	439	441	446	447	453	451	450	449	451	448	451	453	457	458	458	450	445	446	446	448	451	452	455	456	454	444	445	447	450	453	453	450	448	448	448	452	453	453	450	446	445	444	447	451	450	449	447	446	446	449	450	447	446	445	448	451	453	455	444	446	447	432	435	433	434	436	434	434	437	438	442	446	452	455	452	446	441	442	441	442	440	438	439	438	438	441	444	446	438	436	434	437	442	443	445	446	444	441	437	438	439	439	437	438	442	446	443	445	445	444	444	444	447	446	445	447	450	445	442	437	436	442	448	450	446	443	441	446	448	449	448	446	446	445	443	440	440	441	441	449	450	442	439	440	444	445	443	442	441	442	441	442	440	436	436	439	439	438	436	439	441	437	437	437	438	428	430	432	432	436	439	441	438	437	436	431	431	431	433	440	448	450	447	442	432	423	424	432	437	442	442	438	439	443	446	443	442	444	448	447	444	440	433	436	441	445	441	441	441	439	438	434	429	427	429	434	435	437	434	431	430	430	433	435	438	435	433	433	433	431	431	432	430	432	430	430	433	439	441	441	442	443	441	430	427	429	432	432	432	432	431	433	434	434	432	431	433	437	436	433	430	429	433	437	444	445	447	447	442	440	439	440	442	443	440	438	435	437	442	444	441	438	433	432	436	442	446	446	445	443	441	439	438	441	442	444	442	441	439	436	435	438	438	446	448	445	443	443	442	440	441	441	439	437	445	444	442	439	435	433	433	435	444	445	0	0	0	0	0	0	0	0
446	440	439	447	453	453	455	461	463	458	458	457	452	450	449	454	454	456	458	463	464	465	465	463	466	467	466	458	454	454	450	452	451	451	454	454	455	455	457	455	453	446	442	444	445	446	446	446	449	454	456	454	451	449	446	447	449	452	452	456	456	451	448	457	462	464	462	462	464	462	457	453	456	455	454	453	453	451	451	447	445	444	447	452	455	457	457	455	452	453	453	454	454	455	455	457	459	457	455	451	458	459	459	456	453	451	453	455	455	452	450	454	458	459	455	450	448	448	449	450	445	440	439	439	443	453	457	455	455	454	453	447	451	454	452	449	448	442	439	440	439	442	439	440	443	446	451	455	455	452	450	449	448	447	445	444	444	444	450	454	455	454	450	446	446	451	450	448	448	451	453	454	457	457	457	458	458	455	455	452	449	444	443	441	438	438	438	439	441	440	440	440	441	440	439	441	445	451	453	453	453	452	447	443	443	446	446	445	454	459	460	449	446	442	445	448	447	446	444	441	437	440	443	449	449	435	431	430	435	440	441	440	447	458	458	458	460	451	449	449	448	451	459	465	463	455	451	447	446	441	439	443	444	452	452	446	447	448	446	450	445	434	426	439	433	438	436	441	441	439	435	435	438	444	440	441	443	446	447	444	440	444	440	442	440	441	443	440	439	439	435	437	433	436	437	438	438	437	436	437	439	441	442	443	442	436	433	430	432	435	439	438	437	437	438	440	443	443	443	442	449	453	452	448	444	441	439	438	438	437	436	436	433	435	443	444	445	447	449	446	443	443	443	444	446	448	450	447	443	440	441	442	442	442	444	443	444	443	445	443	441	440	440	439	442	431	435	430	430	429	432	433	434	433	432	430	431	435	435	439	437	435	428	432	432	435	438	432	432	434	436	436	436	433	428	431	432	431	428	430	436	437	440	442	439	436	434	432	435	437	435	435	434	437	439	440	441	440	440	438	432	434	435	435	447	445	444	440	438	438	446	446	445	441	439	437	436	438	441	441	442	441	437	436	435	443	445	442	435	435	437	439	438	439	436	437	435	437	438	438	433	429	428	435	437	437	435	438	440	436	433	429	422	420	425	430	432	434	436	436	434	427	428	426	428	428	428	428	434	441	444	436	430	424	422	435	437	435	432	431	431	430	429	429	430	432	432	442	440	433	423	425	428	433	437	438	433	433	429	427	423	421	423	425	426	427	423	423	425	427	428	431	432	422	426	424	427	430	429	427	428	430	428	425	423	425	430	439	442	436	427	425	424	423	424	425	426	424	424	425	423	421	421	419	424	434	430	424	423	425	427	428	432	434	435	434	435	437	439	441	441	439	434	433	430	432	436	439	436	430	428	429	430	433	436	436	436	438	436	429	429	433	431	432	429	427	426	426	430	430	434	435	434	432	432	432	433	434	437	435	434	433	427	426	434	435	433	435	435	434	436	440	0	0	0	0	0	0	0	0
442	436	437	439	439	439	436	439	440	440	440	437	443	444	443	449	449	442	445	446	448	454	458	458	456	456	455	451	448	452	452	451	448	448	447	449	449	449	449	448	444	439	437	437	439	441	443	443	447	448	445	441	440	439	441	444	444	446	452	452	453	451	449	453	457	456	456	456	456	450	449	449	450	451	453	456	456	455	450	444	441	441	445	449	453	452	454	451	451	451	451	451	450	450	456	456	452	448	446	444	446	448	448	446	448	448	447	444	445	444	447	448	449	446	445	445	444	443	445	448	442	435	431	431	443	450	453	450	450	448	445	441	444	452	454	452	447	440	436	436	435	433	434	438	442	443	445	447	452	450	447	446	447	443	438	437	436	440	445	444	443	445	444	443	443	443	443	441	445	446	449	450	451	453	452	447	445	444	444	443	441	439	439	434	432	432	433	435	433	437	439	440	436	432	431	434	439	441	449	450	448	443	443	442	443	441	439	437	437	438	442	441	440	438	436	441	444	441	442	441	436	437	437	439	437	435	434	433	437	441	441	437	437	445	449	447	447	445	444	444	443	445	445	445	448	454	450	448	447	443	442	432	432	438	439	437	435	436	436	439	436	432	429	432	432	431	432	439	439	436	432	429	427	430	432	435	438	439	440	436	438	440	434	435	440	440	439	436	435	433	428	425	426	430	429	432	432	432	432	434	433	434	439	440	439	433	425	423	425	427	428	430	431	432	432	433	432	429	427	428	437	445	447	442	440	439	436	434	431	431	432	429	428	428	429	433	438	439	435	437	439	438	437	436	438	444	446	444	438	435	433	433	436	437	438	431	430	440	440	438	436	429	429	432	428	426	429	430	430	427	423	425	425	426	428	429	428	430	431	431	430	425	426	425	422	419	428	424	420	422	427	431	430	427	423	417	417	426	424	423	429	432	437	437	434	429	426	428	431	435	435	434	434	433	431	428	427	426	428	430	428	427	430	432	435	437	436	438	436	432	432	438	435	435	434	436	435	434	436	437	438	437	436	433	437	434	424	428	424	425	424	423	421	427	431	430	433	433	434	432	431	430	427	425	430	435	433	435	437	435	429	419	418	417	423	429	433	434	431	426	420	419	418	417	422	425	421	423	423	428	431	431	427	424	419	416	420	422	425	425	427	429	427	427	427	428	427	425	424	421	420	421	424	428	429	425	424	424	423	422	419	418	419	420	422	423	419	416	417	420	422	424	416	416	418	419	424	427	424	422	424	425	426	422	420	420	421	423	427	424	423	422	421	422	421	420	418	417	417	418	418	417	413	412	416	426	421	419	421	424	425	423	424	424	426	430	431	425	427	430	429	427	427	426	427	429	434	435	430	423	414	411	425	427	424	429	432	429	426	426	426	427	426	424	419	421	421	422	426	426	429	430	429	429	427	422	419	429	429	430	430	429	425	425	422	420	428	429	429	431	431	436	0	0	0	0	0	0	0	0
429	430	431	434	433	433	431	432	433	429	429	428	430	434	435	437	437	429	432	435	439	446	450	450	444	443	439	440	442	444	444	443	441	438	441	443	443	444	444	442	440	438	437	435	436	438	437	437	441	445	440	437	436	437	440	442	441	439	443	443	446	445	446	450	452	451	451	448	447	441	443	444	443	445	446	444	444	441	438	438	437	437	442	445	446	442	444	445	447	448	446	443	442	443	445	446	445	443	443	442	443	444	442	439	437	437	438	437	438	439	439	441	441	441	439	438	438	438	437	440	445	436	429	434	441	445	445	444	442	438	434	435	437	444	448	447	442	436	434	432	433	430	433	437	440	441	441	445	448	442	440	438	437	435	434	435	440	441	442	441	439	440	438	440	441	440	439	436	437	442	448	447	447	445	443	442	443	442	438	439	438	431	432	429	428	430	430	431	430	432	435	432	428	427	428	431	433	433	433	444	437	436	438	437	439	438	436	431	431	433	434	434	434	433	431	430	430	430	433	433	432	434	432	435	436	434	433	433	435	437	437	431	426	434	437	438	440	440	438	436	433	430	430	432	439	439	439	445	446	443	434	422	423	428	432	431	429	429	431	432	434	432	430	429	428	427	429	432	432	431	428	424	424	423	426	428	431	431	430	430	432	431	428	428	429	436	434	433	431	429	425	428	428	428	423	425	425	427	427	426	430	433	437	438	437	431	423	422	423	423	423	424	425	425	427	426	424	423	422	419	422	425	425	424	424	430	429	430	428	428	426	427	424	426	424	423	425	434	433	432	434	433	431	431	432	437	440	439	435	431	430	431	433	431	430	422	426	429	429	426	422	418	415	424	423	423	428	428	427	423	423	421	419	418	421	422	423	424	424	426	423	422	423	421	419	416	413	414	416	419	424	429	431	424	418	415	413	414	416	421	422	425	428	429	423	421	419	424	425	423	427	427	427	422	421	424	425	423	423	423	424	424	428	427	425	426	429	430	421	416	420	421	425	426	431	435	432	430	429	431	432	433	433	430	428	423	416	415	419	421	421	417	416	418	422	423	425	428	430	429	428	426	424	424	425	427	427	425	426	427	427	423	417	419	426	430	430	429	424	420	418	420	420	418	415	418	417	416	421	426	427	427	425	422	417	414	417	423	431	437	436	430	426	424	418	418	422	425	423	420	417	418	421	420	421	422	423	424	424	421	416	413	411	416	417	418	419	410	409	410	412	407	409	413	416	416	424	424	420	417	416	417	419	416	414	414	415	415	417	418	419	417	416	418	416	415	414	413	414	416	416	412	410	409	410	417	419	418	417	415	414	411	412	413	414	418	417	416	415	422	424	424	424	424	424	425	428	426	422	415	408	407	409	410	412	416	419	422	422	424	424	423	421	416	415	416	417	417	421	421	423	422	425	424	415	414	417	416	416	423	423	423	422	422	420	418	417	417	417	418	422	424	0	0	0	0	0	0	0	0
426	425	425	424	423	423	423	426	427	427	425	425	426	429	429	429	429	426	426	427	429	433	437	437	437	435	434	433	435	435	435	433	431	430	431	435	438	437	437	437	438	440	439	436	433	432	434	434	439	440	439	435	434	438	441	442	440	438	438	438	438	439	439	441	450	441	440	437	434	432	435	438	437	436	435	435	433	433	429	427	427	426	424	422	424	433	439	441	444	444	443	440	438	437	436	436	439	440	439	439	440	438	437	435	433	433	433	432	431	431	432	434	436	436	434	431	431	432	432	436	439	436	432	432	435	439	441	440	434	431	428	429	434	439	443	441	436	432	432	430	431	430	431	432	432	435	439	442	441	432	434	432	433	432	432	432	437	438	435	432	432	432	434	437	437	433	430	425	426	428	436	436	425	422	420	429	438	434	433	431	427	425	425	425	424	428	427	427	426	425	425	425	425	425	426	427	429	430	429	428	430	432	434	433	436	440	438	433	430	429	429	429	428	427	427	426	427	426	428	428	428	427	427	427	428	428	429	432	434	432	432	428	425	423	420	430	433	431	434	432	427	424	424	426	430	434	439	440	442	436	420	421	423	424	428	429	426	425	426	428	430	432	431	425	421	421	424	424	426	426	425	417	418	418	418	421	422	421	421	423	424	422	421	420	418	420	426	426	426	425	424	426	423	416	415	417	417	422	421	418	417	416	418	421	429	429	425	418	412	412	411	411	412	412	409	419	421	422	418	414	416	418	420	421	421	423	420	417	416	419	419	417	420	417	417	415	419	420	425	425	423	420	422	423	426	414	411	410	413	417	421	423	423	414	414	413	417	427	427	418	412	408	410	409	411	416	423	424	423	419	417	418	417	416	417	419	419	418	421	420	423	420	419	418	414	410	408	408	409	415	424	428	429	423	417	414	413	412	415	416	418	417	417	423	422	418	416	421	421	419	420	417	415	416	418	423	425	424	422	420	419	420	420	416	421	418	417	417	411	412	409	411	415	421	427	431	430	426	422	424	421	424	422	427	428	423	415	416	419	418	415	415	414	415	421	423	422	425	425	425	423	420	416	414	411	414	415	416	417	422	423	422	419	420	421	413	416	417	419	419	413	417	416	417	417	416	417	418	420	422	422	422	420	415	410	412	418	421	424	424	422	416	419	420	419	418	415	417	416	419	422	421	418	417	417	419	421	422	422	422	417	413	413	415	417	421	419	410	406	405	406	408	412	416	416	418	418	417	414	411	410	410	411	409	407	407	408	409	411	414	415	415	411	408	407	411	411	410	413	415	412	408	405	403	405	409	411	410	411	410	404	405	406	406	406	409	406	403	406	412	418	419	420	420	421	416	415	414	413	409	404	402	404	406	407	411	412	412	413	418	420	417	414	414	412	410	411	413	413	417	417	419	416	406	406	410	414	414	411	406	404	408	412	418	416	413	413	413	411	411	413	417	0	0	0	0	0	0	0	0
424	423	421	417	413	413	413	418	423	423	422	422	424	426	428	428	425	425	423	422	423	427	433	433	437	435	433	431	431	431	431	428	423	422	425	429	433	435	435	436	437	441	439	434	428	429	433	433	434	438	437	434	435	439	440	440	438	437	440	440	437	434	432	427	427	428	429	429	427	426	427	427	432	433	431	432	431	431	429	427	428	427	423	419	419	423	429	434	441	442	441	437	435	431	428	429	431	436	435	435	436	435	433	432	430	428	426	427	426	427	428	431	433	431	429	426	425	426	428	427	431	429	430	429	428	430	434	435	433	429	425	424	431	439	438	433	429	430	429	428	426	424	429	429	429	428	432	436	428	423	421	421	427	428	429	428	428	426	423	424	423	425	426	431	430	421	420	414	413	419	425	424	423	421	420	420	419	417	426	424	422	420	419	424	427	425	424	422	422	420	421	421	422	423	423	424	424	425	425	425	427	428	425	426	418	424	425	427	430	428	425	424	423	423	422	425	420	418	416	418	421	426	426	425	423	422	421	420	423	423	427	425	414	411	411	413	414	422	423	419	422	419	418	417	420	423	428	433	422	416	415	418	419	422	421	418	411	414	419	418	421	414	415	415	417	413	421	419	417	411	410	411	414	413	411	409	410	411	414	416	416	415	413	414	415	413	413	409	411	413	415	414	416	412	412	413	414	412	415	414	415	415	412	409	412	415	412	410	410	410	409	408	405	406	409	416	420	420	418	409	411	411	414	414	419	417	414	412	411	407	406	408	411	409	407	408	409	411	412	413	414	414	412	412	412	410	407	405	405	405	406	408	410	411	411	412	412	409	408	406	404	401	400	401	407	411	416	418	416	416	415	412	410	410	415	418	415	413	416	419	417	413	412	413	407	403	403	405	407	410	414	413	416	419	417	414	411	412	415	417	414	411	413	412	412	415	418	419	419	418	417	418	417	414	416	419	422	418	417	414	412	408	402	408	409	409	406	406	407	408	407	408	412	417	420	421	418	416	410	405	403	405	418	421	421	421	415	414	414	412	410	408	408	411	418	418	419	417	418	420	417	413	404	402	407	404	405	407	409	408	408	410	408	406	401	404	407	410	412	413	409	408	401	403	414	416	416	416	416	414	411	411	408	405	406	413	416	418	410	406	403	402	410	412	411	405	402	400	401	408	415	421	417	416	415	413	412	411	413	412	411	412	412	414	416	416	416	413	412	407	407	409	412	416	417	417	412	409	407	406	405	407	412	412	400	394	389	388	390	395	400	399	397	396	399	402	404	403	404	408	410	409	408	406	405	402	403	405	403	400	400	401	400	403	402	403	401	397	398	400	408	405	395	393	396	399	401	405	407	404	401	399	401	403	406	408	403	397	395	401	407	414	406	401	397	395	394	395	395	409	411	409	402	400	402	404	407	410	411	407	406	403	402	409	410	410	406	406	404	402	398	408	0	0	0	0	0	0	0	0
426	426	420	413	407	407	407	415	419	420	419	419	417	422	427	428	421	421	420	419	420	424	430	430	430	427	424	424	426	425	425	424	419	417	420	425	432	435	435	434	437	438	435	425	424	425	427	430	430	431	432	431	432	435	436	434	432	432	436	436	437	432	429	426	426	427	426	424	422	421	423	427	432	433	431	429	426	426	425	428	428	429	425	423	419	420	423	425	426	429	434	434	428	423	422	422	421	420	420	421	427	432	432	428	424	421	419	415	417	423	427	429	430	427	423	419	418	420	422	425	420	418	423	424	425	426	429	431	433	430	425	424	425	426	430	427	424	421	418	412	415	414	416	417	417	420	423	422	421	416	414	415	416	421	425	425	422	419	418	419	418	419	421	420	415	410	411	406	407	411	418	421	422	420	419	419	418	415	414	414	411	416	414	422	424	424	422	420	417	416	417	420	417	417	415	414	417	419	418	418	421	419	411	412	416	414	412	411	406	408	407	409	411	411	410	410	414	414	416	418	418	423	425	425	422	416	413	412	413	417	420	423	413	410	403	401	403	406	407	422	417	411	403	406	410	411	416	418	414	410	408	416	418	418	416	415	406	403	410	413	412	416	417	414	409	407	405	403	401	403	404	409	409	406	403	406	407	408	410	412	410	414	409	412	408	407	405	395	388	389	389	400	412	409	409	409	409	408	409	407	407	411	408	405	404	408	407	407	409	408	404	403	403	407	410	413	419	421	407	406	406	408	411	412	411	411	410	410	410	410	410	409	408	405	405	405	406	407	408	409	409	412	412	408	406	404	402	401	400	400	402	412	412	411	411	410	408	405	403	402	398	398	397	399	402	406	408	414	407	399	398	403	405	409	415	416	408	405	406	407	404	406	404	400	399	399	400	402	400	402	405	408	410	410	411	414	412	413	413	414	410	407	406	406	401	401	398	396	399	402	407	415	415	410	412	416	418	416	414	411	407	397	401	403	406	406	406	405	406	406	406	408	408	409	407	406	408	408	407	406	405	405	406	405	406	407	405	406	407	406	404	402	402	404	412	415	415	414	411	408	404	400	398	396	388	386	390	393	396	398	402	402	400	400	400	403	407	410	410	408	404	400	397	396	405	410	411	406	404	404	405	405	404	405	405	406	407	405	403	400	400	397	395	395	395	395	396	395	394	400	401	408	414	413	409	401	398	395	401	404	405	404	401	401	402	409	406	404	402	400	403	405	408	411	412	411	406	402	404	405	406	404	405	404	402	398	392	389	390	392	395	399	397	394	395	396	394	392	392	394	407	407	403	400	399	397	396	397	396	394	397	394	391	386	391	391	387	392	394	396	396	392	389	386	385	386	392	397	403	402	400	399	401	402	404	403	399	391	386	388	398	399	397	393	393	393	393	393	393	397	400	400	398	398	398	401	402	403	403	398	399	404	403	403	407	407	404	404	401	399	398	400	0	0	0	0	0	0	0	0
422	421	419	414	409	409	409	411	411	412	408	408	411	417	423	423	417	417	416	415	415	418	419	419	420	418	417	418	421	422	422	420	414	412	416	423	428	425	419	419	421	425	422	418	420	420	421	423	423	423	425	426	428	430	430	427	426	427	430	432	430	431	428	426	426	425	424	424	421	418	418	424	428	429	428	426	422	421	421	424	428	428	425	421	421	420	420	421	420	421	424	424	421	419	419	420	417	413	412	414	418	419	418	417	414	411	411	411	413	418	426	427	426	423	418	412	409	412	415	416	412	411	416	419	420	420	420	427	428	425	425	422	420	417	414	412	412	414	412	407	401	399	403	404	407	412	414	415	416	415	412	412	413	415	417	415	414	408	409	412	415	414	414	410	403	406	408	411	405	409	415	418	419	417	416	416	413	410	410	411	405	402	402	406	420	422	421	417	415	414	414	412	410	405	403	399	398	400	402	412	403	401	406	409	410	410	411	405	400	400	399	396	392	394	402	408	408	408	414	416	414	414	413	413	412	409	404	404	407	411	414	413	409	406	401	399	401	401	403	418	415	412	409	407	404	408	409	413	412	409	406	404	407	409	412	413	403	395	399	404	406	410	414	409	406	405	398	397	395	398	404	405	406	409	407	404	404	406	407	408	407	404	401	405	402	398	395	389	379	378	389	387	392	402	405	403	404	405	406	403	402	404	403	399	399	401	403	405	405	406	405	405	407	407	402	402	403	405	404	402	403	404	406	406	404	406	407	407	410	405	405	402	400	400	401	403	404	403	403	404	404	406	408	404	402	402	402	402	401	397	397	401	408	413	411	406	404	400	398	395	394	394	395	395	399	402	403	403	400	399	398	400	406	410	412	406	400	400	400	398	397	397	400	398	394	396	397	396	396	398	403	405	407	406	405	402	403	407	410	410	405	402	400	399	399	396	391	391	394	396	404	402	405	408	411	414	413	410	401	406	410	406	400	401	404	406	406	406	406	398	400	401	401	399	398	399	396	398	402	404	398	398	397	398	393	399	401	403	403	401	399	398	399	400	405	410	411	410	404	400	396	395	399	398	396	390	389	390	388	389	394	399	400	400	400	400	398	401	406	406	401	394	392	394	399	403	406	404	403	401	402	400	402	398	393	398	400	397	395	396	396	395	393	393	393	393	393	391	390	395	399	399	400	402	399	395	393	387	388	391	394	394	396	393	394	395	398	394	392	393	397	399	403	405	405	400	397	395	395	400	400	400	400	402	404	400	394	390	390	391	394	396	395	393	392	392	393	392	393	394	395	393	389	386	391	389	388	391	391	392	392	390	387	383	387	388	387	386	387	386	388	387	386	384	383	387	389	387	395	399	398	397	396	394	395	396	393	388	385	386	389	393	392	392	391	390	390	390	392	398	400	400	395	393	393	397	398	396	391	392	395	396	398	399	400	402	403	403	399	397	395	392	0	0	0	0	0	0	0	0
415	415	413	410	408	408	408	403	402	403	403	403	407	414	419	415	408	408	410	411	411	411	412	411	411	410	410	413	417	419	416	416	412	415	418	419	421	417	415	415	414	413	413	412	414	415	415	416	416	416	418	420	421	421	423	422	422	424	427	429	429	427	427	425	424	423	423	421	412	413	414	417	419	420	415	412	415	419	419	422	425	425	423	422	420	419	416	411	409	409	412	413	414	417	418	414	412	411	408	407	410	412	413	411	411	408	409	410	410	412	418	422	415	413	406	401	402	404	408	413	410	410	412	416	414	413	414	421	422	422	420	420	420	418	415	407	405	405	402	396	387	382	385	395	403	407	410	410	411	413	414	414	415	415	415	412	410	411	413	415	415	412	404	398	399	403	404	407	405	407	412	415	415	416	414	413	402	405	407	408	403	399	396	399	405	407	409	416	413	410	402	402	404	400	398	395	395	395	397	397	400	401	403	404	405	400	401	396	394	395	396	395	389	393	397	405	406	403	402	409	409	411	410	412	410	407	400	398	401	407	411	408	405	403	399	394	395	397	397	399	411	407	403	404	402	399	404	407	408	406	403	401	399	403	408	407	400	391	391	395	397	402	405	405	405	401	397	394	392	390	389	393	398	400	400	399	397	395	396	396	395	393	396	398	396	389	394	380	381	382	380	386	391	388	394	393	394	400	399	397	397	398	397	391	391	392	394	395	398	400	396	402	402	402	399	399	399	399	398	399	399	400	402	401	399	400	400	401	401	396	392	390	391	392	394	400	400	399	399	400	401	402	400	399	398	398	400	403	400	396	395	397	403	410	411	404	400	398	394	392	392	394	393	394	391	391	391	391	391	392	393	396	399	401	399	398	396	394	394	397	397	394	397	397	393	393	394	393	394	396	399	400	397	397	398	393	394	396	405	403	400	395	397	399	398	395	394	393	393	394	395	401	403	406	407	407	406	397	394	395	397	403	399	398	400	404	405	404	398	396	396	396	395	393	392	394	394	395	396	396	394	393	393	389	386	392	396	397	399	395	392	395	395	396	400	402	403	404	400	398	394	395	398	397	396	394	391	389	386	386	390	396	397	399	399	399	395	398	399	402	397	389	389	391	393	398	399	398	400	398	397	397	398	394	385	385	388	388	389	390	393	394	393	390	389	389	389	389	387	394	396	389	384	386	384	385	384	386	387	389	390	388	388	389	383	385	390	386	385	387	390	393	396	397	396	390	383	386	389	391	394	394	395	398	397	397	393	389	389	384	385	389	390	391	390	387	389	390	392	392	395	392	390	389	389	383	381	382	385	389	391	388	384	379	382	383	386	389	388	385	381	380	382	381	381	383	385	382	381	390	389	390	388	388	390	391	391	389	385	384	385	387	388	388	388	387	386	386	390	395	398	393	391	390	388	389	391	390	387	388	390	392	388	390	394	391	391	390	387	386	386	386	0	0	0	0	0	0	0	0
408	408	406	406	403	400	400	400	398	398	399	399	405	411	413	409	403	403	403	406	405	406	405	405	405	405	408	411	412	416	413	413	413	415	417	418	417	412	410	410	411	409	408	406	407	408	408	408	408	408	410	416	418	417	418	417	415	403	407	415	415	420	420	415	415	414	412	411	410	410	408	407	407	407	403	400	403	409	409	417	419	420	421	420	417	415	411	407	407	407	408	412	415	413	410	411	411	407	405	403	408	408	409	409	411	411	411	409	405	405	407	408	409	404	403	402	400	406	410	411	409	408	409	407	403	400	402	408	409	413	414	417	417	414	409	403	399	398	401	401	398	396	395	396	398	399	401	403	406	408	401	403	405	409	410	403	397	399	405	407	409	403	398	397	398	399	402	404	404	406	409	413	413	413	410	396	398	400	403	406	403	397	394	396	402	403	405	402	400	397	398	397	398	395	394	391	394	393	392	391	399	401	399	399	399	392	389	389	388	392	396	397	389	388	394	399	403	400	399	395	397	398	399	400	402	401	397	394	395	397	405	403	401	399	398	393	391	393	395	398	398	397	398	396	395	394	393	395	403	402	398	395	396	398	400	403	403	393	391	391	397	399	402	402	402	397	398	398	397	388	392	392	393	398	397	398	395	394	394	389	389	391	392	394	388	382	374	384	382	382	391	376	389	381	388	390	390	388	391	392	392	390	389	389	388	390	392	394	395	390	391	391	392	397	394	396	397	397	395	391	393	396	399	395	394	395	396	396	396	392	387	386	388	391	393	393	392	391	394	396	400	398	397	391	386	382	380	386	394	391	392	393	401	404	396	391	390	390	391	389	390	392	393	391	389	389	389	387	385	387	389	394	394	396	396	396	395	392	391	390	391	385	386	395	387	383	383	386	389	393	394	391	386	385	387	386	387	388	393	396	393	389	395	392	386	382	385	386	391	391	391	395	397	400	401	399	389	392	391	390	389	387	388	389	394	395	399	396	393	394	393	391	386	387	389	390	388	389	388	385	390	389	390	392	384	384	388	392	390	389	389	387	386	389	389	391	392	390	391	394	394	394	397	395	396	397	393	389	385	385	389	392	394	396	395	392	388	391	391	391	388	388	387	389	392	392	393	386	385	384	388	393	395	392	383	378	378	382	382	383	387	390	390	387	387	385	386	387	388	387	387	383	381	382	379	379	381	383	384	385	385	382	379	376	380	382	386	385	380	381	384	387	386	384	382	380	381	382	383	385	388	386	390	390	390	387	384	384	383	383	385	388	388	384	381	383	384	385	385	388	382	386	385	387	386	383	381	380	383	386	389	387	383	379	378	379	381	385	386	383	377	374	373	376	380	383	384	382	381	381	384	385	382	381	382	387	390	390	383	382	382	383	384	385	383	382	380	380	382	383	387	386	387	385	384	381	382	384	386	388	386	386	386	387	386	386	386	384	382	383	381	382	0	0	0	0	0	0	0	0
402	402	401	401	398	396	396	395	395	396	398	403	403	405	404	401	395	395	395	399	400	400	401	403	403	405	406	408	411	408	408	408	402	409	416	414	411	408	407	407	404	404	406	407	406	406	404	400	405	405	414	418	418	417	413	407	395	396	401	407	407	411	410	411	412	411	409	407	407	405	404	403	404	402	400	398	397	396	397	397	397	404	409	413	411	408	406	403	403	403	404	407	404	400	399	402	406	405	401	398	403	403	403	403	400	402	400	398	397	399	403	404	403	402	402	404	408	410	411	407	404	403	402	402	400	400	399	395	395	399	403	407	408	403	397	392	391	393	394	394	393	391	390	391	392	394	395	395	395	395	395	396	397	400	399	396	397	399	399	403	405	407	400	398	397	398	398	400	401	403	402	397	392	393	393	394	399	403	405	406	403	399	395	394	398	399	397	396	397	397	396	394	391	388	388	387	390	390	389	393	399	397	395	393	387	387	385	384	384	385	388	391	393	389	391	395	394	396	390	386	383	381	384	391	397	400	392	393	396	398	397	393	396	394	391	391	389	390	393	392	392	391	388	389	391	392	392	394	394	393	393	390	390	393	389	391	391	389	388	390	389	387	385	384	384	384	389	390	383	382	386	387	388	388	391	395	394	390	387	386	386	387	389	387	384	379	375	376	375	374	376	383	378	381	388	390	390	389	387	391	387	386	385	388	387	384	379	378	381	385	387	388	388	389	389	389	390	389	389	389	391	393	394	395	391	391	394	395	392	388	383	383	384	388	387	388	388	384	386	390	393	398	396	392	386	381	377	384	387	390	390	387	388	387	386	382	383	382	384	388	389	391	392	392	390	389	388	385	382	384	384	386	388	389	394	396	393	390	388	386	382	381	380	389	390	385	380	382	387	392	392	389	385	384	383	386	385	384	386	386	384	384	384	381	378	374	375	381	385	386	387	388	389	385	383	382	384	382	385	385	383	381	381	386	388	391	391	392	391	389	383	381	380	384	385	383	382	383	379	379	378	384	388	386	381	377	383	381	383	384	383	381	377	379	382	383	386	385	386	388	390	391	390	389	395	398	397	392	387	386	387	391	392	393	389	386	382	380	383	381	376	379	380	382	382	377	379	378	379	377	377	376	378	382	378	375	372	370	372	376	378	380	386	384	383	383	377	378	385	384	383	381	381	379	378	377	379	381	382	381	380	376	374	375	378	380	382	382	381	380	381	382	384	384	381	379	379	379	380	382	383	381	379	381	383	380	373	372	377	381	383	383	381	379	378	378	379	381	380	380	378	379	379	380	381	377	378	379	382	385	388	387	383	379	374	372	374	372	374	380	378	372	372	374	377	384	384	382	381	381	382	380	375	374	377	381	386	385	382	380	379	380	381	382	380	375	375	371	373	375	381	379	377	374	375	375	378	382	383	381	380	381	383	378	378	380	380	381	380	378	379	377	0	0	0	0	0	0	0	0
389	389	390	391	393	391	391	390	388	391	396	398	398	397	395	394	392	392	392	395	390	392	397	402	402	406	407	407	404	401	396	396	393	392	400	401	402	401	401	401	401	401	405	405	404	403	404	403	408	408	414	416	417	415	401	390	391	395	397	400	401	401	401	402	403	403	404	403	401	399	397	396	398	395	394	394	393	391	390	390	392	396	399	403	402	399	396	397	397	399	400	400	398	395	397	398	400	398	389	387	391	394	392	392	389	389	390	393	395	397	403	405	404	403	404	405	403	400	397	396	395	394	396	396	394	392	397	393	392	396	399	401	398	392	384	386	387	390	392	391	389	386	386	387	389	391	393	391	389	388	389	390	392	395	396	395	395	396	394	397	399	401	402	398	396	395	398	400	399	398	396	391	387	384	385	387	393	396	398	399	395	391	393	394	393	387	380	380	383	394	396	396	391	387	380	382	386	387	390	394	395	390	384	383	383	384	383	381	379	381	386	387	385	386	386	387	386	385	386	383	379	378	380	387	388	387	388	389	388	388	388	390	387	386	386	386	386	386	385	383	386	388	386	388	389	391	392	388	386	379	380	380	384	385	384	383	383	382	382	385	382	381	382	381	381	384	386	387	379	379	382	383	385	381	384	384	383	383	385	383	383	383	381	383	379	378	375	372	371	371	374	376	378	377	385	387	389	388	382	381	379	378	376	375	379	377	379	380	373	374	378	381	382	381	383	382	382	375	380	387	389	389	390	392	391	386	385	382	378	377	378	380	383	383	382	383	382	380	382	380	386	387	383	380	378	376	376	378	382	381	380	381	378	376	379	379	379	380	379	377	381	383	382	380	380	383	384	383	380	377	377	379	382	386	392	392	388	385	382	378	377	377	375	378	383	380	376	375	375	377	382	380	383	382	382	384	383	383	382	380	382	382	380	379	377	371	371	373	377	380	384	383	381	380	380	380	382	381	382	382	379	377	377	377	386	387	388	388	380	384	381	375	376	364	360	368	372	374	372	374	373	374	379	376	374	374	376	380	378	378	374	368	371	374	375	376	380	379	377	376	376	377	381	378	383	384	386	389	388	387	385	385	390	388	384	378	378	374	369	369	368	370	363	364	366	370	370	369	367	374	375	375	374	376	376	376	374	369	366	369	374	375	377	374	377	370	371	370	377	379	378	377	376	376	372	373	374	375	374	375	374	371	370	375	376	376	378	375	375	379	380	382	382	382	380	379	378	376	375	374	371	372	375	374	376	373	369	368	369	378	379	378	375	372	373	373	373	375	376	378	375	374	375	376	376	373	375	375	376	376	378	382	380	375	371	368	368	371	372	371	374	372	372	372	374	373	377	378	380	380	379	372	369	369	371	379	383	381	376	372	374	378	379	375	374	371	371	368	366	369	373	371	370	364	364	364	373	375	374	375	376	375	377	371	373	375	375	377	377	378	377	375	0	0	0	0	0	0	0	0
383	383	388	391	390	386	386	382	381	385	392	392	392	391	390	388	382	384	384	384	386	391	398	405	405	404	403	401	398	393	388	388	384	384	386	390	391	397	396	396	396	398	401	401	399	396	396	398	400	400	402	404	405	402	390	385	386	387	389	393	395	395	396	397	396	396	397	394	393	395	393	393	393	390	389	390	388	387	387	387	388	392	394	399	395	390	391	393	393	394	396	397	396	393	392	395	398	398	393	387	383	385	386	385	387	390	392	392	390	394	397	402	405	405	405	401	396	395	393	393	391	392	391	391	390	388	389	392	390	390	391	391	390	384	376	380	384	385	382	384	384	383	382	381	382	388	388	386	384	381	382	382	385	388	389	388	391	389	387	388	388	387	392	387	384	386	394	400	398	384	383	386	386	383	382	381	381	383	385	389	389	387	389	390	389	375	376	377	377	378	379	377	378	377	377	377	378	378	381	385	389	390	383	380	383	382	381	380	378	382	384	385	385	381	376	375	373	375	380	378	375	374	374	376	379	378	380	381	375	373	376	384	384	384	383	380	382	386	384	384	384	381	379	379	380	380	376	373	374	375	373	374	376	379	383	383	380	379	376	375	377	379	380	381	379	379	381	382	378	378	379	379	378	376	371	374	378	382	379	378	379	378	376	375	377	377	374	371	371	372	373	374	375	375	375	376	377	376	369	374	376	375	372	372	373	374	375	377	373	370	369	373	375	376	375	372	371	370	372	378	391	392	393	393	390	384	381	373	372	371	373	378	379	374	376	377	376	375	374	374	376	374	375	377	377	374	373	373	377	374	373	373	373	371	372	376	376	376	375	372	369	369	370	370	372	376	377	375	373	362	361	363	367	372	378	380	372	381	377	377	376	374	368	369	366	369	369	372	374	373	373	374	378	379	380	381	378	375	374	377	377	377	377	375	373	371	369	369	375	378	378	373	371	376	379	379	380	379	380	382	375	374	374	375	375	385	369	368	365	366	368	366	362	358	359	362	367	367	371	370	369	367	367	370	371	370	370	366	365	361	361	364	366	367	371	372	376	377	374	370	368	370	375	375	372	370	370	372	373	370	370	370	378	375	370	368	368	368	367	367	369	368	370	370	369	369	364	362	361	365	365	367	368	364	361	363	364	367	367	371	373	374	371	369	369	368	368	364	368	371	373	373	371	365	366	367	367	365	365	367	369	368	367	374	377	377	373	371	370	373	373	375	381	380	378	374	372	367	369	369	365	366	367	369	368	367	365	364	362	368	372	371	370	368	367	369	371	370	374	374	371	371	372	373	371	367	368	369	366	369	372	376	375	368	367	367	367	368	368	367	367	371	370	369	365	360	365	366	371	369	368	368	366	360	363	364	367	364	363	363	365	366	368	371	367	367	365	363	365	369	369	367	363	360	359	359	363	363	362	363	366	369	368	369	367	367	366	368	372	376	378	376	0	0	0	0	0	0	0	0
379	379	384	388	388	386	382	382	381	382	385	387	387	387	384	384	383	384	384	384	384	386	390	397	401	401	402	394	391	389	387	384	384	384	387	390	391	391	393	394	394	395	397	396	394	395	394	393	396	396	397	399	397	387	384	381	380	379	381	382	383	383	385	385	385	385	390	389	385	384	389	390	388	388	387	385	383	382	381	383	383	388	392	393	386	386	387	389	390	391	395	395	395	392	390	393	398	402	402	394	383	382	383	383	387	393	395	393	390	390	394	398	400	397	393	393	391	390	390	390	389	388	386	388	388	388	390	389	382	384	384	383	381	379	375	373	381	382	380	382	383	381	381	382	382	381	380	379	379	378	378	378	380	382	384	387	391	388	381	379	380	382	381	381	379	380	389	388	382	376	378	379	380	379	379	378	379	383	385	386	384	382	380	376	375	375	377	378	377	377	376	375	371	373	375	374	372	375	376	380	388	387	383	380	380	383	387	388	385	383	383	384	383	378	374	370	370	373	377	374	371	371	371	372	373	376	374	372	371	370	370	375	375	374	376	376	376	381	382	380	377	375	372	371	374	375	374	370	370	371	372	372	373	373	376	372	380	377	373	372	372	378	377	377	376	375	376	380	379	375	375	375	374	370	367	368	371	373	372	370	366	370	371	371	371	373	372	367	366	371	372	372	373	372	371	373	370	369	364	368	378	375	372	368	370	370	373	375	372	369	367	364	364	366	369	369	368	369	365	366	374	375	376	376	377	376	375	377	377	376	372	373	372	368	368	371	371	370	370	366	365	363	363	371	372	368	368	370	370	371	369	367	369	368	367	369	372	373	371	369	366	367	369	370	372	372	374	372	369	367	365	361	359	361	365	364	364	369	373	376	374	366	363	361	362	363	366	368	367	370	369	367	370	376	375	370	366	368	369	372	374	373	372	373	372	370	365	369	373	372	371	370	370	369	371	370	368	369	377	374	369	371	371	370	366	362	359	358	359	359	361	360	358	357	360	361	365	366	365	365	364	362	364	366	366	362	363	363	359	358	358	361	362	364	366	369	369	370	369	370	367	363	363	366	367	368	367	367	364	365	365	365	364	363	358	357	357	361	360	363	367	370	370	368	366	363	363	362	359	359	358	364	364	360	360	361	361	362	364	366	369	370	369	366	364	366	363	359	359	358	358	359	361	357	358	362	362	361	361	361	362	361	361	364	370	371	369	366	365	363	368	368	366	367	366	363	361	360	361	363	363	360	361	360	362	361	360	359	360	362	364	367	365	365	365	363	363	365	368	370	369	368	370	369	369	361	357	354	359	362	364	361	359	360	361	362	363	360	358	363	362	363	367	366	355	354	356	358	365	359	360	363	364	360	359	362	359	358	357	356	360	361	366	366	366	366	361	360	362	365	366	366	364	361	359	357	357	358	357	360	359	361	359	364	363	363	363	365	369	370	367	364	0	0	0	0	0	0	0	0
374	378	378	382	383	381	381	381	381	381	384	387	387	385	384	381	382	383	383	383	381	381	385	390	392	392	392	385	383	382	382	379	379	380	384	388	391	389	389	391	391	394	392	392	393	392	391	391	392	392	395	395	385	384	379	377	377	381	381	381	381	381	382	383	383	381	376	378	380	378	379	382	381	379	381	379	376	375	377	381	381	384	388	382	379	376	374	373	375	383	391	389	384	384	385	384	385	387	390	388	378	375	375	378	384	390	391	390	388	386	386	387	386	387	389	389	385	382	385	384	383	382	383	386	389	392	394	389	379	374	376	377	375	374	372	375	375	379	379	380	377	378	378	379	379	377	373	373	372	372	371	374	376	378	380	383	381	378	374	373	375	376	377	374	376	378	380	379	376	373	375	378	378	379	375	375	374	377	378	377	377	379	376	373	372	375	375	377	378	376	373	370	367	366	370	371	370	370	370	375	375	374	372	377	375	373	377	377	379	377	375	372	371	366	365	365	366	368	369	369	368	368	369	369	366	368	370	370	370	369	367	368	364	364	364	364	364	360	359	370	372	372	370	368	369	369	370	365	367	365	366	367	368	370	371	371	365	365	369	369	367	365	371	375	368	366	369	373	373	370	369	372	366	364	363	367	368	370	371	368	364	365	367	366	367	359	357	358	359	364	370	371	370	368	367	366	366	358	362	365	371	370	368	365	365	364	370	371	368	367	365	365	360	361	363	366	365	366	366	366	364	364	364	364	364	370	369	371	371	371	368	363	364	363	362	362	364	363	364	360	362	361	360	361	364	366	367	368	367	365	364	362	364	365	364	366	368	368	367	365	365	365	367	366	358	358	365	366	366	366	365	362	359	359	362	362	360	361	362	364	363	362	361	358	358	360	362	363	362	364	364	366	363	365	362	362	363	364	367	372	372	371	371	374	375	364	361	361	363	362	363	369	365	366	367	365	360	362	370	369	367	363	366	366	362	357	353	351	351	359	359	359	356	356	356	358	360	361	361	358	357	358	364	364	365	362	365	364	363	359	357	360	359	361	362	365	364	364	363	365	361	358	359	365	365	365	364	358	356	357	361	360	358	359	359	356	357	357	357	358	358	356	362	361	362	357	358	359	360	357	358	358	359	357	354	357	360	361	357	355	359	366	367	366	362	357	358	358	359	358	356	354	354	354	357	355	355	354	353	352	352	351	351	350	354	357	362	361	361	359	357	364	363	360	355	352	352	354	354	359	359	355	355	357	357	357	356	359	358	359	360	362	367	367	365	360	358	357	363	363	363	364	363	359	355	350	351	351	353	354	354	354	357	358	357	358	355	356	356	356	354	350	351	357	354	353	351	353	355	357	359	360	362	357	354	354	357	354	353	354	356	359	368	369	361	361	359	356	358	362	361	362	362	361	360	357	356	357	357	358	358	357	354	354	360	360	357	356	364	364	364	362	0	0	0	0	0	0	0	0
371	373	373	376	377	378	378	378	379	381	381	384	384	385	381	373	376	380	380	381	380	379	381	381	377	377	377	378	378	377	375	373	373	372	375	382	385	383	377	377	377	378	379	375	375	375	377	382	392	393	393	376	377	378	381	380	382	381	382	381	380	381	381	382	380	377	374	369	372	374	374	377	379	379	374	368	365	367	373	381	381	385	383	382	382	383	384	383	378	382	385	379	375	373	373	375	379	382	383	381	377	375	375	377	381	385	387	390	388	385	382	382	383	384	385	384	383	382	384	383	381	380	380	384	391	394	382	379	374	374	376	375	372	370	369	373	372	371	372	371	371	373	373	375	375	373	370	370	371	372	371	372	373	373	374	373	372	370	370	370	369	371	371	371	372	373	374	373	370	371	374	377	372	372	371	369	370	372	373	371	374	373	374	370	369	367	370	373	375	375	370	366	362	360	363	368	368	368	369	367	369	369	366	365	366	368	365	363	361	362	364	366	366	366	366	364	366	367	368	368	368	368	363	360	360	363	367	367	368	364	363	363	363	361	361	361	359	359	358	358	361	363	360	358	359	359	361	362	360	361	364	364	363	366	366	365	360	358	359	358	354	364	364	369	354	356	362	368	368	367	367	367	363	363	364	362	363	366	366	363	362	361	363	360	356	353	354	354	353	355	356	355	355	357	360	360	355	355	357	362	365	366	364	362	358	358	361	366	365	366	365	361	362	362	361	362	362	364	365	366	364	359	355	355	354	361	364	362	367	366	360	355	354	354	356	359	359	360	360	360	361	362	361	362	364	365	366	366	365	356	359	357	358	359	362	364	367	369	368	365	363	363	364	358	357	355	354	353	359	364	364	362	358	358	358	359	358	359	362	364	363	363	364	356	355	355	356	355	355	359	361	360	360	356	357	357	358	357	357	357	358	359	360	360	363	358	357	357	359	360	360	362	360	360	359	358	353	353	367	354	362	359	355	355	356	354	351	349	354	356	359	358	358	354	355	355	356	355	355	353	352	352	351	355	355	358	360	359	357	356	354	353	353	353	354	357	359	359	359	362	361	357	355	355	358	359	353	354	356	355	351	350	352	352	356	356	357	357	355	354	352	351	348	353	354	353	354	355	354	353	354	355	355	348	347	353	353	355	355	353	354	356	358	363	359	355	352	353	356	356	354	354	354	355	357	356	356	353	353	354	351	348	349	352	350	352	353	356	358	355	355	354	357	353	350	349	350	351	353	353	349	349	350	351	352	354	353	355	356	356	357	357	357	348	347	349	351	350	348	347	347	348	349	349	347	350	352	352	349	345	350	351	353	356	353	351	352	355	355	353	353	346	347	351	353	353	352	353	354	356	356	353	352	350	351	349	354	354	351	352	355	356	356	358	358	350	352	355	360	359	359	355	354	354	353	354	356	354	351	353	354	355	353	352	352	352	352	353	352	350	351	351	0	0	0	0	0	0	0	0
370	370	370	370	370	372	374	374	376	378	379	381	380	380	374	370	372	376	378	378	376	372	372	373	375	375	373	373	372	372	372	371	371	369	369	373	375	375	374	374	374	375	374	372	366	363	364	371	375	376	371	371	372	375	376	377	377	378	379	379	377	377	377	379	376	371	370	366	369	369	371	372	374	376	370	365	362	363	368	375	379	379	373	375	379	383	383	382	378	381	382	377	372	367	366	369	374	378	382	382	382	375	375	378	380	383	385	390	388	384	382	381	380	380	381	380	380	380	379	378	377	376	381	384	386	380	375	370	364	364	364	372	373	371	373	372	369	369	369	367	368	367	368	370	371	370	370	370	370	372	370	364	365	368	367	365	363	364	367	369	368	365	365	366	369	369	370	368	365	368	370	369	366	366	365	365	365	363	363	369	367	369	365	362	361	360	357	357	361	362	360	360	359	357	361	363	362	364	366	364	354	358	362	363	364	364	358	356	357	357	362	364	366	365	366	367	366	367	368	365	368	368	367	360	358	363	366	365	359	360	361	362	360	360	359	361	360	358	356	357	358	358	358	356	358	360	363	360	358	354	357	356	355	355	359	356	353	350	350	349	350	351	353	352	349	353	355	360	364	364	363	360	361	364	366	362	361	363	362	361	359	358	357	356	355	353	354	353	353	354	353	350	349	351	352	352	350	351	353	353	355	358	360	358	357	356	359	360	362	363	359	360	359	357	356	355	357	361	364	366	361	356	352	351	350	354	358	359	358	355	353	352	351	350	350	355	355	358	358	359	360	361	361	359	359	364	363	358	354	355	356	356	354	351	351	353	359	361	360	360	361	357	355	353	354	353	351	351	352	355	361	361	355	356	357	358	358	359	360	362	360	361	362	354	354	353	354	353	354	357	358	357	355	352	353	354	352	355	351	352	357	357	357	358	357	356	353	353	354	355	359	360	359	356	353	352	352	348	347	349	348	348	348	350	353	354	351	347	350	355	356	358	360	362	363	360	356	352	350	349	349	350	351	350	348	348	351	353	352	352	353	353	353	351	350	353	354	354	355	356	357	354	354	351	351	349	350	354	354	353	350	347	348	349	348	354	356	355	354	353	347	347	344	346	347	347	348	349	348	349	348	349	351	345	341	344	348	353	353	353	350	350	349	346	344	345	349	352	351	350	352	352	353	351	354	351	353	353	358	355	354	350	349	350	350	348	347	346	347	343	346	345	345	349	350	350	351	351	352	344	342	342	340	341	340	339	339	338	336	338	339	340	342	343	344	344	347	346	342	344	344	345	345	345	345	349	349	345	347	349	349	347	344	342	344	346	343	341	343	348	347	347	347	350	350	348	351	352	353	349	347	348	346	347	348	347	348	351	352	351	351	350	351	347	347	347	349	351	353	350	348	345	347	347	350	351	352	351	347	344	343	349	351	349	349	351	354	354	351	343	343	343	0	0	0	0	0	0	0	0
367	368	368	367	367	371	372	372	373	373	375	376	375	375	371	368	370	373	376	376	372	370	369	371	371	371	372	367	365	368	368	369	366	366	366	368	368	368	368	375	378	378	376	370	365	361	361	368	371	371	367	370	370	373	373	372	368	371	374	374	373	373	373	370	371	368	364	365	368	369	369	370	372	371	369	369	368	366	365	364	365	365	367	371	373	372	375	376	376	371	366	367	367	366	365	369	373	377	381	381	375	374	375	377	378	379	379	383	381	380	375	375	376	376	375	374	374	376	377	375	373	372	375	375	375	372	369	362	361	361	361	363	366	373	374	372	369	368	366	367	366	365	365	366	365	365	368	368	369	362	361	360	362	362	362	362	362	364	367	369	368	365	363	364	367	367	363	362	361	364	369	364	360	361	361	358	356	354	353	352	351	355	357	357	357	360	354	349	351	355	362	359	356	350	349	351	356	359	353	353	353	351	360	362	363	356	357	355	354	358	365	363	362	366	367	367	363	355	351	360	361	361	362	365	363	364	362	358	358	358	359	359	358	356	355	356	358	356	356	352	351	355	356	356	357	360	362	356	352	349	348	352	349	352	351	349	347	345	344	345	345	345	346	346	346	344	352	352	349	351	356	357	357	359	363	364	362	359	354	353	356	355	352	353	352	350	352	351	353	353	352	350	349	348	347	350	353	350	350	349	350	351	354	355	355	354	355	356	357	357	356	354	354	352	351	350	351	356	361	359	356	353	351	351	349	349	351	355	355	355	349	349	347	346	347	350	353	354	353	353	356	357	355	352	351	356	357	353	350	349	355	360	359	352	353	351	345	345	346	347	346	348	348	352	350	348	350	350	348	347	350	351	352	355	355	358	355	355	355	358	354	351	349	350	351	350	350	352	352	356	358	357	355	353	351	346	347	350	352	353	354	356	355	354	353	351	350	350	352	353	357	360	359	357	351	346	345	345	346	348	345	344	343	347	349	351	343	344	345	352	353	353	352	347	347	350	352	350	345	345	347	348	349	347	345	341	342	348	349	350	350	350	352	350	347	345	351	350	354	353	355	352	349	348	345	345	345	346	341	339	338	336	339	344	345	345	351	351	347	342	339	338	340	341	342	342	343	344	344	343	343	342	344	343	337	337	346	350	349	349	346	343	343	343	341	342	345	345	347	345	347	350	350	346	346	349	349	348	345	356	351	350	347	348	347	344	342	335	337	337	339	340	340	338	341	345	338	338	338	339	338	340	340	338	338	338	337	336	335	333	332	332	337	340	341	341	344	344	342	343	343	344	342	342	342	343	337	338	342	347	347	347	348	345	345	346	343	338	338	344	345	346	348	348	345	345	344	342	341	342	337	340	342	343	345	347	346	343	343	345	347	344	346	346	343	344	346	347	346	345	341	343	344	342	343	344	346	345	343	343	342	342	343	345	345	347	346	346	344	345	341	340	0	0	0	0	0	0	0	0
363	364	364	363	364	368	369	370	370	370	372	373	372	372	369	366	366	366	368	368	367	366	365	365	366	364	364	365	365	364	363	363	364	364	365	364	364	365	367	372	375	375	373	368	362	360	362	367	367	364	365	365	368	369	368	362	362	363	367	369	369	366	363	363	359	361	363	364	367	369	368	369	369	368	362	360	362	364	364	362	362	365	365	368	370	369	373	374	373	369	366	362	364	363	365	368	370	375	377	374	370	370	372	373	374	370	369	367	368	370	370	373	373	373	372	370	371	372	372	372	370	369	368	369	368	363	362	358	359	361	360	362	364	368	366	372	369	368	366	367	364	362	357	355	357	360	362	364	360	359	358	359	360	362	360	359	360	362	364	365	366	364	363	361	364	362	355	354	354	358	365	360	356	353	347	349	356	356	354	353	351	355	355	354	353	352	345	343	344	348	354	352	350	348	352	353	351	351	351	353	349	350	353	354	355	355	355	354	354	346	346	347	361	359	358	354	355	353	349	347	351	353	356	360	364	361	361	358	355	355	355	352	351	351	352	354	355	352	350	350	348	348	351	354	358	359	362	352	348	343	344	347	350	350	350	348	346	345	342	341	342	339	338	343	350	350	348	353	345	345	343	345	347	352	353	361	359	357	348	349	354	355	351	347	348	348	348	349	352	354	350	348	347	347	347	351	354	358	350	349	348	346	350	354	355	354	354	353	351	348	347	348	349	348	347	345	348	348	349	354	351	349	352	351	345	346	348	350	349	346	348	346	345	345	344	345	349	348	346	342	345	345	348	346	346	351	352	349	348	347	348	351	352	353	352	349	346	342	339	341	343	345	345	345	347	347	348	347	344	343	342	343	348	351	352	351	351	351	354	355	352	349	344	342	343	347	347	349	351	354	355	345	348	349	349	350	351	351	351	351	352	353	353	346	346	343	346	347	349	351	356	359	356	353	349	347	346	344	344	344	344	341	338	339	343	343	343	341	343	347	346	345	345	341	339	339	338	337	337	336	341	344	345	344	342	338	336	344	345	347	346	342	343	346	346	344	341	339	346	349	337	334	332	341	339	334	337	339	339	337	333	335	333	334	334	333	338	338	339	337	335	334	332	339	337	338	337	340	338	336	339	337	335	334	335	336	342	346	345	343	342	341	341	340	339	338	340	341	342	344	345	347	346	340	340	343	343	342	344	338	345	348	343	341	338	337	334	335	335	336	332	333	333	333	334	333	332	335	338	339	340	342	339	337	339	337	334	334	332	329	330	332	333	337	338	342	342	342	338	338	335	334	334	335	336	334	334	335	338	344	346	346	343	344	344	342	337	333	333	338	343	345	345	344	343	340	340	340	338	338	341	342	343	343	345	352	348	343	340	339	342	341	341	341	338	337	342	344	343	340	340	343	340	336	334	337	340	342	341	338	339	339	342	342	348	343	340	341	340	338	339	338	0	0	0	0	0	0	0	0
358	362	361	361	360	363	364	367	367	369	367	366	368	368	368	365	365	359	358	358	359	358	359	360	360	358	358	361	364	362	361	364	366	366	365	364	362	363	364	367	368	368	367	363	360	360	362	364	358	358	359	359	363	365	364	357	357	357	359	359	360	362	360	360	352	350	353	357	359	361	366	364	366	362	360	358	360	361	360	361	361	364	364	368	368	371	370	371	369	368	364	361	362	363	366	366	368	369	366	364	364	365	367	367	367	367	366	366	367	369	370	370	359	356	349	350	352	357	360	362	361	357	354	354	355	351	346	345	351	362	361	358	354	352	353	352	353	354	360	359	353	352	352	353	355	356	357	355	357	358	356	355	357	360	358	356	354	359	362	363	363	363	360	360	359	357	352	349	350	355	352	348	347	346	346	347	352	351	351	350	350	353	353	351	347	346	345	344	344	350	351	351	349	351	352	352	347	340	340	342	344	346	347	348	351	352	351	347	345	336	339	341	342	345	342	341	347	342	353	349	341	351	354	354	348	348	350	354	352	349	348	345	345	344	346	348	349	346	345	344	343	345	343	345	338	339	348	348	341	339	341	345	349	346	344	344	344	343	342	339	336	342	344	342	343	343	342	344	341	340	340	344	341	343	342	343	344	347	349	350	350	350	348	345	344	345	346	345	345	346	347	344	341	340	340	342	345	357	359	351	346	341	341	341	347	348	344	336	336	338	341	343	341	341	344	342	341	344	334	336	342	346	349	344	340	341	343	347	346	344	341	342	346	343	343	344	344	341	339	339	341	343	344	344	344	342	342	341	339	338	340	342	343	344	343	342	339	338	338	337	339	339	341	341	342	346	344	344	341	339	339	340	343	343	343	345	346	348	350	338	337	345	343	342	341	343	345	345	343	341	338	341	340	345	345	349	351	350	350	349	350	349	346	346	345	342	343	344	345	346	338	336	336	337	339	337	342	337	342	342	342	340	337	336	341	343	339	341	342	343	343	344	342	339	335	333	334	335	336	334	338	338	340	341	341	336	334	335	339	342	340	340	342	338	338	340	338	338	336	338	336	330	329	329	330	330	332	331	333	331	329	329	330	331	331	335	335	335	336	338	335	332	331	332	335	334	334	331	330	332	334	333	333	334	334	336	337	340	343	340	338	339	339	339	338	336	339	338	337	338	340	342	340	338	338	337	338	337	337	336	334	334	333	332	333	332	332	332	332	331	331	330	332	331	331	328	331	336	337	338	339	339	340	341	341	337	335	333	330	328	331	332	332	334	336	338	341	336	336	334	333	335	334	334	334	332	331	333	335	341	338	337	339	341	338	336	334	331	333	334	336	336	334	329	330	332	334	332	328	331	335	337	339	343	336	338	337	340	338	338	339	339	339	340	337	336	336	339	341	340	342	341	334	333	330	330	337	340	336	335	336	336	339	339	343	338	336	333	336	335	334	333	0	0	0	0	0	0	0	0
358	360	356	356	355	356	359	363	363	360	359	359	362	362	364	361	359	355	351	351	350	350	354	354	354	353	353	353	355	355	357	361	366	366	364	362	361	361	360	363	362	362	361	358	356	361	362	361	358	356	358	358	361	362	355	351	349	352	355	358	359	358	358	358	355	351	350	354	356	359	362	362	361	360	358	358	356	357	357	358	360	366	366	367	368	369	368	367	366	363	363	361	361	362	362	362	362	363	362	363	360	363	363	364	363	363	363	356	349	348	347	349	349	350	347	343	345	352	357	357	358	356	353	351	349	346	344	344	350	352	352	349	347	348	349	347	347	346	346	347	346	345	348	351	355	354	352	352	354	354	353	351	351	352	355	353	351	350	352	355	358	359	358	357	356	355	350	350	350	350	343	344	343	342	344	346	350	347	346	345	347	350	352	345	343	344	343	344	345	347	347	347	346	345	347	348	346	340	338	340	343	345	346	343	347	345	343	336	335	337	339	339	339	338	336	344	345	341	340	340	343	343	342	344	345	345	345	344	344	342	342	340	340	339	340	344	346	344	342	339	339	340	341	336	335	336	339	339	340	340	340	342	345	337	331	330	332	333	333	333	335	338	340	338	332	332	337	339	338	338	336	336	343	339	335	334	337	339	341	338	338	341	341	340	341	344	344	342	341	341	339	333	339	340	337	336	336	341	344	342	340	336	333	334	343	346	344	333	334	338	342	342	337	336	333	336	335	332	333	335	338	344	346	343	336	337	340	337	338	340	340	343	343	346	346	341	336	333	333	335	338	335	337	341	340	342	341	338	337	337	339	339	340	341	337	340	338	330	332	332	334	333	336	338	337	336	335	335	338	336	337	337	337	336	337	341	341	332	333	330	329	337	340	342	342	343	343	334	333	333	332	335	336	341	341	338	340	336	339	345	344	346	344	338	338	337	336	337	333	334	334	334	333	328	331	333	335	332	333	336	339	341	342	341	339	339	340	341	341	340	340	340	341	340	339	337	333	331	334	333	335	336	338	337	337	336	334	330	336	342	342	341	334	328	332	330	330	331	328	328	331	328	330	330	330	330	329	328	326	326	325	327	328	327	330	333	333	332	334	336	335	332	330	329	330	331	329	329	329	329	328	331	331	329	327	324	323	333	334	336	334	338	338	339	336	332	328	332	332	333	337	337	336	335	332	331	333	335	335	334	335	326	329	330	329	332	332	330	329	327	327	327	327	327	326	326	324	327	329	333	334	336	339	339	341	339	335	332	329	327	326	328	329	330	333	334	333	329	328	326	326	332	334	334	331	329	329	333	334	333	331	331	330	331	332	331	330	330	332	331	331	331	328	329	329	329	328	328	327	329	331	336	336	336	335	338	333	336	337	337	337	338	338	334	336	332	331	335	336	340	339	334	333	331	329	329	332	332	332	333	332	333	335	335	333	333	333	332	330	327	325	326	0	0	0	0	0	0	0	0
358	353	351	351	348	351	354	356	356	355	354	354	357	360	360	357	356	350	349	346	346	346	349	351	351	350	350	350	351	351	352	355	357	357	360	359	360	358	358	358	358	356	356	354	353	358	358	355	355	353	358	358	357	357	353	348	349	351	352	355	358	357	357	353	353	350	351	352	354	357	359	361	358	356	358	356	356	355	353	354	356	357	359	359	361	364	363	362	357	356	354	356	358	359	360	359	359	359	360	359	358	356	352	352	352	351	351	345	344	347	348	350	349	346	343	341	338	342	350	352	351	350	351	350	346	344	343	343	348	346	344	343	343	343	340	338	338	338	340	341	339	339	341	341	342	341	343	346	347	344	339	336	338	344	343	345	345	344	343	341	343	346	352	351	350	349	350	349	350	343	342	341	340	339	340	340	342	343	343	344	343	346	347	342	341	342	339	343	344	341	341	343	342	342	343	342	338	335	338	341	342	344	340	336	337	336	336	336	334	332	331	329	333	334	337	340	341	344	340	339	340	340	342	343	342	342	342	342	342	340	340	337	335	333	337	342	343	339	338	337	337	337	335	333	334	338	338	341	344	344	341	330	332	331	331	330	330	330	333	333	334	335	336	335	333	331	333	333	333	335	334	335	335	334	336	334	335	336	337	337	337	338	338	338	338	340	343	340	339	335	332	334	337	339	338	335	334	335	336	338	339	330	329	331	338	344	342	337	337	338	338	331	333	334	332	330	331	333	333	337	339	344	343	332	337	334	335	335	336	334	337	335	336	336	335	334	331	329	328	330	333	333	335	333	336	337	338	333	331	330	336	333	338	335	333	334	329	331	325	326	328	329	332	335	334	327	331	332	328	331	333	334	336	333	332	332	334	331	329	329	327	326	329	336	340	339	336	332	330	330	329	330	329	331	335	339	340	334	338	343	342	342	331	332	334	334	329	330	330	331	331	329	324	326	329	331	328	329	329	330	335	336	336	335	323	331	328	331	335	336	336	335	337	338	337	334	330	326	329	331	331	330	331	333	333	332	327	324	330	335	336	332	328	325	324	324	324	325	326	327	325	326	326	327	327	326	325	321	319	319	319	321	322	321	321	329	331	330	332	332	332	322	318	324	324	327	329	328	327	325	326	328	325	325	324	320	321	321	323	325	325	325	327	329	334	331	325	325	325	325	327	330	330	329	327	327	329	328	320	316	315	321	328	328	328	327	325	323	323	324	323	324	324	325	325	325	326	325	326	330	330	328	333	336	338	339	336	331	328	325	324	325	326	326	327	329	331	329	325	325	323	327	328	327	325	324	327	330	330	329	329	328	329	328	328	327	328	328	330	330	329	329	330	329	328	328	328	326	326	327	323	331	333	330	328	330	335	333	334	334	330	330	332	330	327	326	325	328	336	335	334	330	328	327	328	328	329	330	329	329	329	330	330	331	329	330	330	330	329	326	323	325	0	0	0	0	0	0	0	0
345	344	340	340	340	343	347	350	350	352	351	350	354	356	356	355	355	351	347	346	346	347	348	346	345	345	345	346	346	345	347	348	350	350	350	353	354	355	356	356	355	353	353	351	354	354	356	354	355	353	346	342	342	343	344	346	349	349	350	350	355	354	351	348	348	349	350	352	352	354	356	357	357	354	358	353	349	345	344	346	350	351	352	352	353	352	350	350	347	346	346	346	353	356	355	353	357	357	342	343	346	347	348	348	345	341	337	336	337	340	347	347	346	343	340	335	334	335	337	341	343	346	347	347	343	342	341	342	342	342	342	341	341	341	339	337	336	334	334	337	338	337	334	334	336	337	340	343	344	343	336	332	338	344	347	347	346	343	338	337	340	341	343	343	343	341	340	342	343	342	341	336	334	337	338	340	341	341	341	341	342	343	342	341	340	339	340	339	339	335	336	339	338	336	338	337	336	333	336	338	342	340	334	334	332	334	335	334	328	323	323	326	329	331	336	333	334	335	331	330	329	339	340	342	341	341	340	337	338	338	337	334	332	331	329	333	333	334	335	335	335	330	330	331	333	335	335	333	334	335	326	325	326	325	327	326	325	325	327	329	330	331	332	333	331	328	328	329	329	332	332	331	334	334	335	334	333	333	334	335	336	334	336	335	335	334	335	334	333	332	328	329	332	336	336	333	332	333	335	336	337	331	330	331	332	329	329	330	330	330	329	326	327	328	324	324	324	326	329	335	336	335	328	328	335	328	329	334	333	331	329	326	323	324	328	329	330	330	330	328	332	334	334	332	332	333	331	330	330	326	325	329	329	327	326	332	325	327	329	324	321	323	326	327	322	326	329	331	331	328	327	329	331	331	330	325	329	331	329	329	327	325	324	325	330	332	333	328	326	318	319	323	326	323	324	326	324	327	328	328	328	326	325	325	326	330	331	330	327	326	325	325	323	324	324	325	325	326	325	321	323	324	321	323	325	329	330	327	327	325	322	324	329	336	333	325	323	325	323	327	328	327	318	320	325	327	327	321	321	321	321	323	323	323	322	321	321	319	317	317	318	318	317	314	313	314	313	313	312	315	321	321	321	319	319	324	325	325	326	326	326	316	316	318	318	323	324	327	327	325	320	321	323	322	319	318	320	320	319	317	317	318	321	323	325	324	319	323	323	324	319	318	319	318	321	322	324	319	316	314	315	321	325	317	317	322	323	322	322	322	322	322	322	322	322	322	322	321	322	326	324	324	321	323	324	327	324	320	317	318	322	323	325	325	328	331	326	324	323	322	322	320	317	317	318	324	323	321	328	327	327	328	327	327	327	325	322	326	326	326	328	329	326	327	326	327	327	325	323	322	319	320	322	324	325	325	332	330	326	322	328	328	327	327	326	325	322	331	330	330	328	326	325	325	327	327	327	320	324	324	326	330	330	329	328	328	329	328	319	317	315	316	0	0	0	0	0	0	0	0
331	331	332	332	333	338	343	349	350	350	349	349	352	353	353	347	349	344	343	339	339	341	341	341	340	342	343	343	340	340	341	343	345	343	343	346	349	351	350	350	348	348	348	350	352	354	348	352	353	345	343	341	341	340	341	344	345	346	345	347	350	350	348	347	347	347	348	350	350	350	349	345	341	341	343	345	344	342	342	342	345	345	343	340	340	340	339	340	342	341	342	340	346	348	348	341	341	338	338	340	341	341	341	341	338	333	331	330	331	334	337	337	337	335	335	335	335	336	337	337	335	335	335	336	336	335	336	337	342	344	344	340	340	339	336	337	335	333	334	336	336	339	334	333	330	334	338	341	339	337	334	331	332	339	343	345	344	342	340	335	333	335	339	340	340	339	339	340	341	341	339	334	333	335	337	339	340	340	340	340	340	340	340	339	338	336	337	337	333	332	333	338	337	335	337	337	335	332	332	333	336	338	333	330	330	333	329	329	325	322	323	324	328	330	336	333	333	333	332	331	327	330	334	335	337	335	332	332	330	331	337	335	332	331	333	332	333	333	333	335	333	329	328	328	327	333	330	326	327	332	325	323	324	324	325	325	324	323	325	326	328	328	326	330	329	328	327	327	321	321	324	331	332	333	332	331	329	330	329	327	334	333	335	332	333	333	333	331	332	332	330	328	331	331	331	329	329	331	333	332	332	331	331	328	326	326	323	323	328	329	329	326	325	324	324	325	326	328	324	325	325	325	325	324	324	324	325	330	331	331	324	319	319	319	326	330	328	324	323	321	323	327	333	332	327	326	327	326	327	323	321	320	321	323	324	323	323	327	329	327	322	322	323	321	319	325	327	327	327	327	325	328	327	328	329	327	330	331	331	330	326	326	323	324	326	326	326	325	323	321	319	320	320	320	324	326	328	326	327	329	328	329	328	326	326	330	332	330	325	322	321	323	321	318	318	320	322	320	314	318	323	323	321	321	323	324	324	325	324	320	317	317	321	321	321	321	322	323	318	324	323	320	320	321	322	323	321	319	319	320	321	318	320	319	321	323	321	319	315	316	318	317	317	313	313	313	313	313	312	316	321	322	321	319	317	319	320	321	320	320	319	317	314	310	314	320	321	324	325	325	319	320	318	319	318	317	318	320	321	320	317	317	318	317	316	315	315	320	319	317	309	312	314	317	319	321	320	315	314	312	313	317	315	314	312	310	314	319	320	320	320	319	318	318	318	319	317	319	321	322	319	317	315	315	319	322	323	320	316	314	317	319	327	329	332	326	324	322	322	321	321	318	316	315	317	319	320	317	316	323	325	323	324	325	326	324	321	319	319	321	320	318	318	318	317	319	321	321	320	319	317	318	320	321	320	323	326	326	322	318	318	314	323	322	316	314	313	315	319	324	322	322	320	320	324	326	325	324	318	320	330	328	328	324	324	324	323	315	314	312	311	311	0	0	0	0	0	0	0	0
335	334	332	330	330	335	342	345	346	346	347	347	348	346	346	347	342	339	338	339	339	341	341	341	339	338	337	337	336	336	337	339	342	342	342	341	345	348	346	343	342	343	343	343	344	345	345	347	343	342	340	339	339	337	337	338	340	342	342	341	345	347	346	346	345	345	347	345	337	339	341	336	333	330	328	330	334	340	342	343	343	341	340	340	340	340	340	340	338	340	342	341	338	333	331	334	337	331	329	331	335	336	334	333	333	332	331	329	330	333	335	336	334	334	335	334	334	334	334	335	333	332	331	330	333	334	334	335	338	340	342	338	337	335	333	333	333	329	329	334	334	335	331	332	335	336	335	336	335	333	331	328	330	334	336	339	338	336	336	332	331	331	333	333	333	331	334	331	336	337	335	333	333	333	334	333	333	334	332	327	328	335	337	337	337	333	334	333	330	332	333	337	336	334	333	334	332	329	330	332	333	328	322	322	326	328	330	330	328	325	324	322	323	325	328	330	328	327	328	324	324	321	318	318	322	324	328	328	327	327	330	330	331	331	331	330	330	329	330	332	333	328	327	325	324	321	319	329	325	327	326	325	323	322	322	323	323	325	325	323	325	324	326	326	325	324	318	322	322	322	326	325	325	325	325	325	325	327	328	324	322	319	324	328	329	332	332	333	330	330	329	327	327	327	327	327	326	326	330	332	327	327	323	320	319	323	322	320	322	324	326	321	319	321	323	323	324	325	324	325	321	321	321	322	322	321	322	326	326	325	318	319	319	319	320	325	322	319	315	315	320	320	322	322	321	323	324	324	324	321	319	319	321	322	322	323	322	323	327	326	324	323	322	320	320	321	321	321	317	317	317	321	323	324	325	325	321	325	324	326	324	325	324	323	322	326	327	326	325	322	322	320	321	322	325	327	324	323	318	320	323	320	318	318	317	317	317	313	324	319	318	321	321	317	315	318	320	316	315	315	321	321	321	320	319	321	321	322	319	316	314	315	313	312	318	319	318	314	317	320	321	320	319	321	321	322	320	318	319	319	317	315	316	315	319	320	321	313	314	315	317	314	313	314	313	314	314	313	311	310	309	310	309	309	312	313	315	317	317	316	314	314	313	313	313	316	319	321	323	321	313	312	314	316	318	319	323	322	322	321	318	317	314	313	313	311	313	312	310	308	307	307	307	310	318	315	313	313	312	311	311	312	312	312	309	307	305	306	319	317	317	316	315	316	316	315	313	317	318	318	316	310	307	314	318	320	322	319	314	310	314	316	319	323	324	325	323	319	315	319	319	318	316	315	315	315	316	314	313	312	314	316	316	317	319	319	320	320	321	318	315	314	312	311	312	317	319	322	318	315	316	317	317	315	313	314	321	323	318	313	313	310	309	311	312	311	308	309	315	320	320	319	316	317	318	324	321	322	321	318	320	320	322	317	316	316	314	311	308	306	310	310	0	0	0	0	0	0	0	0
338	338	332	330	330	333	339	342	342	342	342	341	337	338	340	340	340	339	339	339	339	339	341	339	338	336	336	336	337	335	335	337	338	339	339	341	343	343	343	342	342	341	341	341	340	338	339	340	337	337	335	334	334	332	331	332	335	338	338	338	339	342	343	343	342	342	340	338	332	336	337	337	333	328	326	326	326	332	337	340	336	335	331	332	333	333	332	333	334	338	335	334	333	332	329	329	330	329	326	324	328	330	332	332	332	331	327	328	330	332	334	333	332	331	333	332	330	330	331	331	330	327	324	325	325	331	331	331	332	333	335	334	333	332	329	326	321	322	326	331	331	329	326	328	331	333	333	330	330	329	328	328	327	328	330	329	324	330	332	332	328	325	323	320	320	316	315	316	318	321	331	331	331	329	329	329	326	324	324	325	327	329	334	334	327	327	327	327	325	326	329	334	334	332	330	330	325	323	326	328	330	323	322	320	321	325	331	331	332	325	327	323	323	324	324	323	324	325	323	321	320	316	316	315	315	316	322	323	320	318	317	320	325	329	330	327	324	327	330	330	324	324	320	320	318	317	314	319	322	320	323	325	324	322	322	323	322	323	323	323	321	320	325	325	325	322	320	317	318	319	319	318	317	320	323	322	323	320	322	321	319	319	319	318	320	328	330	331	327	327	326	322	322	323	323	324	323	322	324	323	323	321	319	317	315	322	319	320	322	324	325	322	319	319	321	321	321	323	323	322	318	318	318	319	320	321	319	321	319	319	318	318	320	319	320	320	319	316	316	317	319	318	316	317	319	321	321	322	321	321	320	320	322	323	319	317	314	312	320	321	321	321	321	321	320	318	315	311	310	314	317	321	323	321	321	316	316	314	315	317	319	318	317	318	323	328	329	328	322	318	316	320	320	319	319	316	317	316	309	310	313	316	314	312	311	311	312	317	312	314	315	318	319	316	316	320	315	311	310	316	318	318	318	317	315	316	316	317	314	313	312	313	315	311	310	311	316	314	316	317	318	317	314	311	312	316	315	314	318	318	316	304	303	304	311	311	309	308	311	310	310	312	313	313	313	315	314	313	311	310	308	308	306	306	306	310	311	313	314	311	309	310	314	314	315	309	313	319	321	325	322	315	315	312	312	314	316	316	314	317	319	316	314	307	307	303	308	306	308	308	308	307	306	307	309	310	310	309	309	310	308	309	308	309	308	307	305	307	310	313	313	313	313	312	311	309	311	312	313	315	312	312	307	305	314	313	309	316	311	311	313	316	317	318	319	323	321	316	313	316	316	312	314	313	314	311	311	310	310	311	312	314	315	315	316	315	314	315	316	315	312	312	312	313	314	315	315	317	319	317	314	311	310	310	309	307	309	311	310	310	310	309	307	307	313	314	314	313	311	317	319	318	315	314	314	315	316	315	314	312	312	312	308	307	310	310	310	307	306	310	309	308	0	0	0	0	0	0	0	0
335	335	330	330	330	332	333	335	337	337	337	333	334	336	338	338	339	338	336	337	337	337	337	335	334	334	336	336	336	334	333	333	335	334	330	330	334	338	340	341	341	338	337	337	336	337	334	334	333	333	333	330	328	328	327	328	330	323	323	332	334	335	334	335	336	336	336	336	337	336	336	336	333	334	326	325	323	328	332	329	327	327	326	327	326	326	325	326	331	331	332	330	330	330	327	326	323	324	323	323	322	328	331	332	332	330	327	328	328	331	333	332	330	329	330	325	323	323	326	328	327	325	321	322	321	324	324	326	326	327	329	330	330	329	325	321	320	320	324	327	327	323	319	320	323	326	328	326	325	323	323	324	324	324	319	317	320	324	327	330	327	321	319	320	317	316	316	314	317	319	321	319	320	318	325	326	321	318	320	324	328	330	327	317	318	322	325	325	323	322	323	323	328	332	329	327	319	318	319	323	325	319	308	308	313	320	321	323	326	326	320	314	315	320	321	322	323	322	316	312	308	308	312	312	313	319	321	319	319	318	317	318	323	327	319	318	315	314	314	317	319	318	318	315	312	313	312	314	317	318	321	319	320	323	321	321	321	321	323	320	315	317	317	317	319	319	316	314	315	315	316	319	319	317	319	318	316	315	315	322	317	318	314	312	313	312	312	312	322	322	321	321	320	321	321	320	321	319	320	319	319	319	313	312	313	317	321	321	321	323	323	319	318	316	311	313	316	317	316	315	314	316	315	313	316	318	319	321	321	318	315	315	312	311	311	317	318	316	317	316	316	314	314	315	315	315	319	318	318	319	318	317	326	326	323	322	320	316	313	321	321	323	323	324	322	318	315	311	308	308	313	316	319	318	315	312	313	312	317	319	318	316	314	316	322	326	327	322	318	315	313	312	309	314	315	314	309	307	306	307	311	315	314	313	311	311	312	314	315	310	312	310	313	309	311	315	317	317	314	314	314	314	315	314	312	310	312	312	313	313	312	312	314	309	308	307	307	313	314	312	313	314	313	308	306	306	311	315	313	307	304	303	305	303	304	305	307	305	306	307	310	311	310	310	312	312	311	310	306	306	307	308	304	303	301	304	308	310	311	308	306	308	309	309	308	308	309	310	315	320	317	315	313	311	309	311	311	311	313	310	306	304	303	303	299	296	302	299	304	305	304	301	303	306	307	307	307	307	308	308	307	305	302	304	308	307	307	308	311	312	310	310	308	307	306	308	308	309	310	310	308	307	307	303	304	309	308	311	309	309	312	314	316	315	312	313	310	307	308	310	310	310	310	311	308	308	308	307	309	310	311	313	314	315	315	312	312	308	311	311	310	309	309	310	312	312	312	311	313	311	309	308	309	309	308	306	306	305	305	306	306	304	303	302	303	311	314	313	312	313	313	312	312	311	309	310	311	313	311	309	306	306	305	306	307	308	306	306	306	305	309	309	0	0	0	0	0	0	0	0
334	331	327	325	325	321	323	331	332	332	332	332	332	334	336	336	336	332	334	336	331	331	328	331	331	330	331	333	333	335	332	328	326	323	326	326	332	333	336	338	337	335	335	335	334	331	331	331	330	330	329	327	325	325	324	320	319	320	322	325	330	331	329	328	329	331	331	331	332	331	328	326	326	332	334	335	335	333	330	328	324	322	323	330	329	327	326	326	325	326	326	325	325	323	321	322	322	322	318	318	319	320	324	328	328	322	323	324	326	326	326	325	328	323	322	319	315	316	318	319	319	319	319	319	319	316	323	322	318	319	319	319	321	322	322	320	319	321	324	323	316	315	313	314	317	321	322	320	318	319	320	320	319	318	314	313	316	318	321	325	325	320	319	317	318	315	317	316	317	319	319	318	321	318	320	325	325	318	320	325	330	326	318	313	312	319	317	318	321	321	320	320	322	325	325	319	316	316	317	316	316	315	313	312	314	315	311	311	312	314	313	312	314	314	316	320	318	313	316	313	311	310	312	310	312	314	318	316	315	307	307	310	310	313	313	312	313	311	312	315	318	318	316	308	309	310	312	312	317	318	317	315	315	315	314	311	310	317	319	315	314	312	314	310	309	310	310	314	311	315	315	317	316	315	316	315	315	313	314	315	317	316	311	309	312	313	312	309	307	308	311	316	319	318	317	316	315	315	316	316	316	315	310	303	302	308	312	312	312	320	321	318	317	316	310	311	314	312	312	309	307	306	308	310	311	312	314	313	314	313	313	310	309	307	310	314	316	317	314	310	309	312	314	313	312	315	316	312	310	310	316	319	326	323	324	323	319	315	313	314	315	314	314	316	315	315	316	311	309	309	315	316	317	314	311	309	310	309	312	315	314	314	313	314	318	322	321	317	315	310	305	303	307	308	312	312	309	307	308	306	311	311	311	310	310	310	312	314	315	313	312	312	309	303	306	307	309	310	312	311	310	308	309	307	310	309	310	313	312	313	312	312	309	309	307	302	302	304	309	310	312	313	311	307	304	302	303	302	302	300	300	303	304	301	302	304	304	303	307	308	310	309	310	309	308	308	304	303	303	303	305	305	302	300	302	304	303	304	304	304	305	307	309	308	305	303	304	313	312	314	306	298	295	294	306	310	310	306	306	306	305	301	296	301	297	296	301	300	300	301	299	294	294	302	304	304	305	304	306	306	306	303	299	297	298	301	307	309	309	309	310	308	307	306	306	307	306	306	307	305	305	309	305	305	307	304	307	305	305	307	309	309	309	309	309	307	306	307	304	305	305	307	306	306	304	306	308	307	309	309	311	313	313	314	315	309	303	302	305	308	306	306	306	307	309	310	310	305	301	300	301	302	304	307	302	307	308	308	308	307	305	303	300	301	301	303	309	311	308	312	308	305	306	307	306	305	307	309	310	307	307	304	303	304	304	305	305	304	304	303	301	299	0	0	0	0	0	0	0	0
325	323	321	320	320	318	319	321	326	329	329	330	332	333	335	335	330	329	326	328	321	321	321	325	326	325	318	319	319	321	324	323	319	320	322	322	325	329	330	331	332	332	333	334	322	324	326	326	327	327	327	325	320	320	319	320	320	321	323	325	325	327	325	321	322	321	321	320	317	318	318	318	323	326	329	330	330	330	330	324	320	319	324	325	320	324	324	325	322	322	323	322	315	314	318	318	319	316	315	314	317	318	311	314	315	311	313	315	319	323	322	321	320	322	321	319	318	318	317	316	315	316	317	318	318	314	315	316	315	313	313	315	316	317	319	319	320	320	317	314	311	309	308	309	314	314	315	314	317	318	320	315	312	314	312	312	313	315	316	319	318	318	317	316	316	312	311	313	315	315	315	315	317	315	314	313	307	311	312	312	312	322	310	311	308	312	316	316	314	311	313	315	318	321	322	317	311	314	314	314	315	312	311	313	313	310	310	312	313	313	313	313	314	312	312	310	310	315	315	315	313	310	309	314	311	314	315	310	307	305	306	308	310	311	312	312	310	310	311	313	314	311	309	301	302	305	306	311	315	316	314	313	313	314	312	310	308	313	315	311	310	312	312	310	309	309	312	316	309	311	311	312	313	316	316	315	314	313	311	313	309	306	308	308	308	310	311	306	303	305	305	307	311	312	314	313	313	313	314	312	311	311	303	302	302	307	311	310	309	309	316	317	317	315	307	307	307	309	307	308	308	309	310	311	310	308	309	309	309	308	305	306	307	308	310	314	315	317	315	312	311	310	307	308	308	310	309	306	302	301	311	311	313	311	315	315	313	311	311	310	312	313	314	314	310	307	308	308	305	306	307	308	310	307	308	310	308	307	307	310	313	309	309	312	316	314	309	309	309	306	303	303	307	308	309	310	310	309	306	306	308	308	308	307	309	309	309	314	313	312	307	310	305	303	303	300	305	306	308	310	308	305	303	302	306	306	307	308	312	311	309	308	308	309	306	302	299	297	300	307	309	312	310	307	295	300	299	300	299	299	298	299	303	302	302	303	303	306	305	306	307	309	309	308	305	304	302	302	304	303	303	301	301	303	304	304	302	299	300	299	297	299	299	299	300	301	304	304	306	311	309	296	296	293	295	300	303	305	304	302	300	299	298	299	295	296	298	301	300	299	295	294	294	297	301	301	302	302	303	302	301	298	297	295	296	298	305	302	306	308	307	306	303	302	301	301	301	302	302	302	306	308	308	309	309	305	301	298	300	303	302	304	305	306	304	304	304	303	304	303	303	303	304	301	302	302	306	307	309	309	308	310	311	311	314	306	298	299	301	305	303	302	301	305	304	301	299	298	297	299	296	294	292	292	299	302	303	303	303	301	300	298	297	296	294	295	298	303	303	301	298	299	300	303	303	303	305	305	306	299	299	299	302	302	301	302	303	303	302	300	299	300	0	0	0	0	0	0	0	0
320	314	314	315	315	315	316	316	318	322	322	325	327	327	331	331	326	325	323	321	317	318	318	317	320	312	312	312	312	316	318	318	317	318	320	320	323	324	326	325	325	327	327	315	315	317	319	319	319	317	317	317	318	319	319	318	321	322	321	322	323	322	318	319	320	319	319	316	314	313	314	315	317	316	315	315	314	315	317	319	318	318	319	318	318	318	320	320	320	319	318	311	310	310	314	312	314	314	313	313	316	311	310	308	309	309	312	313	313	312	312	314	318	321	323	321	318	318	317	316	315	314	314	315	316	313	311	310	313	314	314	314	316	316	312	314	317	317	315	311	308	307	309	311	313	311	310	309	315	316	314	313	312	307	311	310	311	313	311	314	315	316	316	313	311	309	310	314	316	316	317	318	317	308	307	306	307	307	308	310	311	308	301	291	305	310	311	313	313	308	308	310	312	315	312	313	310	314	313	314	312	310	310	311	311	308	313	313	313	312	313	313	313	312	311	309	309	313	314	313	313	309	304	306	305	308	308	308	308	306	305	305	305	305	310	310	312	311	312	312	312	306	308	302	304	306	308	311	313	313	311	308	307	307	307	308	306	308	310	311	310	313	311	309	307	307	308	305	304	307	309	301	305	308	307	308	309	306	305	307	306	303	304	304	307	307	306	302	303	304	303	305	302	311	308	307	305	304	306	306	305	309	302	302	301	305	307	305	307	308	308	311	309	308	306	307	307	306	306	308	308	308	310	308	308	306	304	304	305	305	301	302	304	303	310	313	314	314	311	309	307	306	303	305	306	309	309	307	305	303	308	307	310	308	311	313	311	310	310	311	310	309	308	306	303	303	302	302	304	305	304	306	304	300	302	303	306	306	304	306	310	307	300	300	302	306	306	307	306	305	301	304	305	305	304	306	308	308	302	302	305	305	305	306	305	307	305	310	310	310	306	304	303	302	302	301	302	304	304	305	303	303	301	301	302	303	302	302	303	306	308	308	308	309	306	303	298	298	297	301	303	304	293	293	294	296	299	297	297	298	295	293	294	298	301	303	302	300	302	300	302	301	303	303	303	300	298	301	301	302	299	298	296	294	295	302	301	300	299	297	296	297	297	299	299	300	302	303	299	301	303	304	297	296	295	294	291	296	297	295	296	296	297	295	294	296	297	299	299	295	293	293	294	295	300	298	299	298	299	299	296	290	293	293	293	297	302	299	303	304	304	302	300	297	295	295	294	293	297	299	301	304	304	306	306	303	299	296	296	296	297	298	299	300	300	301	302	302	302	302	301	300	299	295	293	301	304	304	304	306	305	308	307	306	298	295	295	295	300	299	299	297	296	297	297	296	296	296	298	299	294	290	291	295	296	295	295	297	299	300	299	298	295	294	294	295	296	297	295	293	295	295	297	299	301	302	302	300	298	298	298	299	301	301	300	299	301	303	301	299	298	299	0	0	0	0	0	0	0	0
310	310	310	312	312	312	310	310	313	315	315	317	321	325	327	326	319	318	317	318	315	313	313	313	311	312	311	310	310	312	313	315	316	315	319	320	320	320	319	319	319	315	316	312	312	313	315	316	315	310	309	311	312	314	314	312	316	317	318	318	319	317	315	314	314	312	313	313	312	311	313	315	315	314	313	313	312	313	315	316	315	308	309	310	315	315	316	316	316	315	315	307	306	309	307	307	308	306	309	313	314	310	308	308	306	308	311	312	310	310	310	312	312	319	316	319	319	318	319	317	315	312	312	312	311	311	310	307	302	303	304	306	312	313	311	307	311	312	308	306	305	308	310	311	312	310	309	308	306	308	312	311	309	308	304	308	306	306	309	307	307	308	307	306	304	305	306	307	308	309	311	313	310	306	304	300	301	305	309	308	309	309	302	298	298	304	310	312	307	304	308	308	308	307	308	308	310	309	310	307	306	305	307	307	307	306	312	313	310	310	308	313	313	311	305	304	306	309	311	311	307	303	300	298	303	305	308	309	308	302	302	302	301	301	304	306	306	305	309	309	308	304	305	308	304	303	305	308	311	311	308	305	303	305	306	303	301	304	306	307	310	311	310	307	305	305	305	304	303	304	301	300	304	304	306	305	307	305	303	301	300	301	302	303	305	306	304	304	303	302	301	302	301	301	295	294	296	298	301	299	299	297	299	302	303	305	306	301	300	306	306	306	308	307	305	305	305	305	305	307	299	300	307	308	306	302	300	301	302	298	298	299	302	307	309	311	310	309	306	306	306	303	300	302	304	306	309	307	305	302	299	301	304	303	303	309	307	306	307	307	304	301	302	300	302	303	303	303	305	302	301	302	298	299	300	301	300	299	298	299	301	301	300	299	300	301	305	304	301	299	301	298	298	300	302	302	304	302	299	299	300	302	305	304	304	299	302	303	308	304	304	304	302	299	300	300	303	305	306	303	301	299	298	298	299	300	300	299	300	302	298	297	297	304	304	303	299	298	298	297	296	298	300	301	296	297	299	299	296	297	296	292	294	297	299	300	299	298	297	293	293	291	293	293	296	297	295	296	301	296	295	294	293	293	294	296	298	300	299	297	295	296	295	295	296	296	297	298	298	295	295	290	291	292	294	294	291	292	289	289	294	297	296	295	295	296	295	295	298	296	296	293	294	299	295	297	293	295	295	297	291	288	290	294	294	299	301	300	300	297	294	293	296	295	293	293	291	291	296	298	300	302	304	302	301	299	298	296	294	293	293	294	295	296	298	299	299	299	299	300	300	299	291	290	290	292	294	300	299	295	297	297	297	292	294	294	293	292	297	296	294	293	293	294	295	294	294	296	296	296	296	295	293	294	294	296	296	299	301	299	296	295	293	293	293	294	295	294	294	293	294	294	295	296	301	300	297	294	293	293	296	297	298	299	299	297	297	297	296	297	299	298	298	0	0	0	0	0	0	0
304	308	307	308	308	308	307	309	311	312	312	314	320	321	321	319	318	316	316	315	313	311	311	309	311	312	310	309	310	310	313	316	318	318	316	315	315	311	310	310	310	310	310	309	309	310	311	312	309	305	306	308	309	307	307	307	309	311	312	312	313	313	310	310	309	308	309	309	310	310	312	316	317	316	312	309	308	308	311	310	306	304	306	307	308	310	309	310	310	311	306	304	304	305	304	304	303	305	309	312	313	309	308	307	306	308	308	309	309	308	309	310	310	308	310	313	317	317	319	317	314	310	311	311	310	308	305	301	300	299	300	301	306	308	307	306	306	306	299	299	299	301	306	307	309	308	305	305	305	303	304	308	306	305	303	303	303	299	301	300	303	306	306	304	302	301	300	302	303	309	310	312	309	304	301	301	300	301	307	305	311	310	302	299	300	302	304	308	310	308	302	301	301	304	306	308	306	307	306	307	307	303	302	303	304	302	305	304	308	306	306	304	311	309	304	303	303	302	302	302	300	299	297	297	299	303	304	307	303	300	302	303	299	299	307	306	305	304	296	306	306	307	306	307	304	301	303	305	308	309	307	304	303	302	302	300	300	302	304	304	308	308	302	305	297	302	306	303	303	305	305	298	298	301	303	299	300	299	299	298	302	301	301	299	298	299	302	303	305	304	300	300	295	294	291	291	291	294	298	299	298	299	301	302	300	295	298	294	297	305	306	306	305	302	301	303	303	302	301	299	298	297	293	295	297	296	293	296	302	298	296	301	304	296	297	298	305	301	301	298	298	299	298	299	299	302	304	301	298	296	295	296	295	298	300	300	296	295	299	301	300	299	301	299	299	300	302	304	303	302	299	298	298	298	294	295	295	297	297	297	297	298	299	299	298	302	300	300	299	297	298	300	295	297	300	302	300	297	295	293	295	297	301	304	297	295	294	298	297	301	301	300	300	296	295	300	303	304	303	303	302	299	296	296	296	301	297	297	297	297	295	294	293	297	300	301	298	292	293	292	295	298	297	298	295	297	298	299	298	295	295	292	292	295	297	294	294	293	290	289	289	286	290	292	289	290	293	294	293	292	294	294	293	293	294	297	297	296	294	294	294	293	293	293	293	293	285	287	290	291	292	286	287	287	291	288	293	292	290	289	288	293	296	299	295	295	295	295	298	296	295	295	296	300	304	295	291	294	295	298	292	291	291	293	297	296	295	299	302	304	301	300	292	288	288	289	288	290	295	296	296	300	296	296	300	298	299	294	293	291	290	291	292	294	291	291	291	291	291	291	291	288	289	289	289	290	294	292	288	292	292	291	291	291	292	293	292	292	296	296	295	292	293	293	293	293	295	296	296	295	293	293	295	297	294	294	295	295	294	294	295	291	290	291	292	292	292	293	292	291	293	294	294	293	298	297	295	292	292	292	292	295	297	295	292	294	290	291	292	292	292	289	289	0	0	0	0	0	0	0
300	303	304	305	306	306	307	305	304	306	314	314	315	317	318	318	310	311	311	309	308	308	308	308	307	309	307	307	307	307	307	311	315	317	315	311	311	308	309	308	308	307	304	308	309	309	307	306	304	303	305	308	309	305	304	304	304	304	306	307	308	308	306	304	304	305	306	306	309	312	312	306	305	308	308	306	306	306	307	305	303	303	303	304	305	304	304	304	305	305	302	301	304	307	305	302	302	305	307	308	309	310	312	309	305	306	309	309	308	308	305	306	307	307	308	309	312	313	312	309	308	310	308	307	306	306	305	301	298	297	298	298	300	302	305	305	306	301	297	297	297	297	297	299	299	305	305	306	304	302	300	302	302	301	301	298	297	294	296	296	297	301	304	304	301	296	300	296	295	301	303	303	304	304	306	304	301	301	302	308	309	309	303	300	299	299	303	307	307	303	295	291	294	303	305	305	305	304	304	305	306	300	300	300	299	300	298	300	297	299	301	300	301	306	302	300	301	301	302	300	299	295	294	292	293	297	301	304	305	298	301	303	298	299	307	306	305	303	300	302	299	298	296	294	304	295	300	301	303	303	303	303	303	303	302	297	299	300	302	303	302	305	301	302	298	299	301	301	303	304	303	298	299	302	306	303	302	302	298	297	296	296	297	298	294	296	295	296	297	301	300	297	296	296	298	297	295	292	296	294	296	299	301	294	294	293	289	292	293	297	299	308	298	297	298	296	299	302	301	299	295	298	296	293	293	290	293	293	295	298	296	294	292	293	296	295	295	295	293	291	291	293	295	297	298	298	294	293	293	293	292	293	293	296	298	299	295	294	295	296	297	298	298	298	297	296	295	296	294	290	291	292	296	296	293	294	293	295	296	293	293	295	296	297	298	296	297	297	298	297	297	294	291	288	292	295	295	292	293	294	295	296	298	298	298	295	295	296	295	294	298	297	296	295	294	294	300	302	302	302	301	298	296	294	293	291	284	285	294	295	293	292	291	292	293	293	291	290	290	289	290	291	290	291	293	291	293	292	289	291	294	294	293	292	292	292	292	293	293	290	287	286	284	289	289	289	288	292	291	291	294	294	293	292	294	294	296	295	292	293	292	292	290	288	283	284	284	286	290	292	292	287	287	289	293	297	290	292	295	289	289	287	287	292	289	287	289	293	294	294	295	297	299	302	296	293	291	292	293	289	288	290	290	290	287	286	289	287	294	296	295	292	293	287	285	287	289	289	294	294	295	290	292	291	292	296	296	294	291	291	290	290	286	285	289	288	288	287	287	287	285	286	286	287	287	288	289	289	287	287	289	290	290	290	292	292	292	291	291	295	291	293	294	292	291	291	292	293	293	293	291	290	289	291	291	289	287	289	290	292	290	287	287	287	287	289	291	293	290	288	291	292	291	291	294	295	292	291	291	291	292	293	291	287	290	291	292	293	292	290	289	289	289	0	0	0	0	0	0	0
298	297	296	298	300	300	302	301	298	307	310	310	312	311	312	310	304	303	304	304	304	303	303	303	304	308	310	310	307	307	304	303	304	304	305	305	306	306	306	306	305	304	302	305	305	305	303	303	304	302	303	306	307	301	297	297	296	299	302	303	303	303	303	302	301	303	305	305	305	305	301	301	303	306	308	307	304	300	303	305	302	299	297	297	297	299	301	302	303	303	300	301	301	301	301	301	298	300	300	298	298	298	299	301	301	309	308	306	301	301	301	302	304	306	307	308	308	308	304	304	307	305	305	305	301	299	299	298	300	301	298	296	296	299	302	305	297	297	296	294	296	294	295	295	294	298	302	303	303	301	299	299	299	298	298	297	294	292	294	294	296	297	301	307	305	295	291	291	292	298	298	296	298	299	299	301	301	293	293	295	296	298	301	301	300	300	302	301	300	298	289	287	285	293	296	300	296	292	295	297	299	296	296	299	300	300	294	296	294	293	295	295	296	296	302	299	297	298	298	296	296	293	290	290	289	294	297	298	300	294	292	289	291	291	290	290	291	295	299	300	296	295	295	291	289	288	293	296	299	299	300	297	297	303	302	301	295	294	292	302	301	301	295	293	296	296	296	300	301	301	301	297	298	300	300	298	296	299	297	296	295	295	295	291	292	294	294	295	292	296	297	295	292	296	298	299	298	298	293	292	292	291	291	291	291	287	289	290	292	292	292	293	294	292	291	289	289	296	295	296	296	296	294	293	291	289	288	290	293	296	293	293	292	292	292	293	293	294	297	295	295	292	293	295	295	292	293	292	290	291	292	295	295	295	297	297	295	293	293	293	295	296	296	293	293	291	290	286	289	289	289	294	296	293	294	292	291	296	294	292	291	291	291	296	290	291	296	296	298	295	291	289	285	285	285	290	291	292	292	293	291	292	297	297	295	293	291	290	292	293	296	293	292	292	292	293	295	298	293	291	292	292	292	293	292	289	283	284	290	293	293	292	290	283	282	284	283	284	282	286	286	287	287	285	285	286	289	288	286	289	292	291	289	288	288	289	291	291	291	289	286	285	281	284	284	288	286	287	285	289	289	293	291	289	292	292	288	292	292	292	290	285	285	283	281	282	283	291	291	288	286	286	286	288	292	289	294	290	290	296	293	287	286	288	288	287	286	288	287	285	282	287	290	292	290	287	289	283	286	289	287	290	289	288	286	285	284	285	290	294	294	292	287	287	286	284	287	290	293	291	289	288	288	288	290	290	292	292	292	292	290	286	285	282	283	286	286	285	285	285	283	283	283	285	287	287	285	285	285	286	287	288	288	290	294	294	292	291	290	290	290	292	291	288	283	284	285	288	290	290	288	287	285	285	288	287	285	286	289	289	288	284	285	284	284	287	289	287	285	284	283	281	280	280	282	280	292	289	289	288	291	290	287	285	289	292	292	292	290	287	286	286	287	0	0	0	0	0	0	0
