991	998	998	1004	1000	984	972	972	960	963	972	974	979	979	986	993	999	997	993	993	1003	1017	1024	1010	986	979	979	982	994	1002	993	993	1004	1021	1021	1021	1002	987	968	962	967	972	977	977	969	976	991	1008	1015	990	987	987	993	988	988	993	986	986	983	968	970	971	981	988	989	988	992	986	983	983	988	988	989	955	939	943	961	977	979	957	945	942	936	937	941	949	956	954	943	939	935	935	934	934	929	920	925	930	933	926	912	900	905	911	917	904	900	903	919	915	900	893	892	883	884	887	884	884	877	870	868	877	889	903	903	902	899	897	899	905	904	900	898	897	897	895	897	892	879	878	888	901	910	907	903	896	886	878	868	865	889	897	903	903	907	899	889	882	883	890	895	902	900	894	892	886	880	881	886	894	901	894	882	871	865	870	874	873	876	884	886	880	874	874	867	868	868	868	871	878	887	890	894	900	888	875	871	867	882	898	902	901	896	896	884	881	878	885	885	889	894	888	886	882	889	877	861	859	865	860	860	868	868	862	852	846	846	850	847	841	845	856	864	878	894	888	884	870	859	843	844	835	852	863	870	874	862	855	848	855	860	860	859	859	860	866	875	879	873	864	860	860	860	860	857	851	832	837	840	837	835	840	852	864	854	836	815	822	853	841	821	817	829	833	840	844	841	839	834	828	824	819	816	817	823	841	843	850	855	850	850	850	856	834	831	822	818	803	789	790	803	812	815	817	815	816	825	827	829	824	817	809	809	811	816	812	804	795	802	816	817	809	796	784	789	798	809	811	810	810	812	810	812	819	824	815	807	793	798	806	810	809	797	789	803	811	810	810	816	816	822	815	806	792	786	784	790	795	800	808	823	825	817	808	797	800	800	791	783	777	785	796	807	809	799	797	790	785	787	796	802	807	817	812	805	803	805	812	803	806	808	806	801	783	785	792	807	807	800	790	787	786	790	792	796	802	808	803	798	804	806	807	806	797	792	796	802	802	803	811	817	820	804	804	809	817	806	798	794	794	797	811	827	834	831	816	807	806	807	805	801	798	791	788	788	787	786	784	784	784	787	779	776	774	773	786	794	798	798	797	787	787	787	762	755	761	773	785	786	782	783	778	775	769	765	763	771	788	792	789	780	774	765	768	777	776	765	754	750	754	755	756	759	767	770	765	760	761	764	766	770	780	789	793	788	776	769	775	780	784	785	781	773	770	766	772	769	778	775	777	770	764	759	755	746	745	745	743	746	752	766	778	785	780	780	779	754	750	751	757	754	756	766	771	771	766	753	745	736	736	744	745	748	744	744	740	742	756	767	777	781	778	765	752	734	733	740	751	757	747	730	734	744	750	749	745	742	746	754	761	766	778	776	762	757	759	767	765	768	767	763	754	748	749	753	759	760	760	756	751	741	748	758	763	753	753	757	759	754	758	765	761	754	752	761	775	782	779	770	760	756	0	0	0	0	0	0	0	0	0
977	980	980	981	974	969	957	957	950	950	950	949	944	944	948	949	948	950	953	953	965	980	970	964	948	942	942	938	940	949	936	939	941	945	945	938	944	948	942	932	922	923	928	928	939	945	954	961	930	934	949	954	944	952	952	950	934	939	937	936	933	936	935	935	941	941	923	906	904	904	897	897	900	902	904	906	909	919	920	909	898	895	901	913	917	924	924	913	902	898	899	895	891	891	890	882	875	883	893	890	881	871	870	878	880	879	875	862	858	876	879	876	872	868	865	864	872	870	863	855	848	850	859	871	874	880	884	887	885	884	888	890	889	884	877	879	875	868	863	864	872	881	886	885	890	875	864	851	843	843	850	867	880	888	886	872	851	843	848	860	854	866	871	874	869	864	857	860	865	864	864	865	861	853	855	857	861	863	866	864	858	856	852	849	850	846	842	842	855	870	881	878	874	867	844	826	826	838	857	848	843	838	839	855	854	839	825	835	842	845	844	839	831	833	832	831	826	827	824	822	824	828	834	836	824	819	810	807	810	811	810	811	817	829	834	830	819	828	816	807	800	800	810	830	842	844	840	836	824	823	829	835	840	839	837	825	824	827	827	830	832	831	839	846	844	824	815	810	811	806	805	806	803	799	794	789	793	807	820	812	799	790	790	799	801	800	797	794	798	801	799	794	792	791	794	811	816	799	800	811	814	814	797	789	787	786	782	780	779	779	777	783	790	794	797	797	796	803	799	801	790	787	786	784	779	772	764	770	780	784	782	773	771	779	792	802	806	805	803	798	799	800	799	797	784	782	786	786	792	801	799	788	772	761	771	783	792	800	805	805	800	791	784	777	774	769	780	785	778	782	784	790	783	777	772	768	763	770	767	760	765	766	771	778	781	779	773	768	767	771	780	786	795	787	783	778	775	779	782	781	778	788	779	758	761	771	775	772	762	754	765	773	775	777	780	787	790	790	784	781	780	770	763	761	765	768	773	777	775	767	763	762	763	764	775	783	783	779	774	780	787	785	786	779	754	760	767	783	789	788	775	760	757	759	765	770	775	779	778	777	772	771	766	756	751	756	771	779	780	773	769	774	764	750	739	744	757	758	757	755	758	754	749	747	747	751	758	760	764	771	764	752	749	746	750	754	747	739	742	742	737	744	747	751	752	745	743	742	744	745	750	756	766	777	783	769	760	757	764	767	772	768	762	756	749	739	734	734	739	741	749	755	751	747	740	736	731	724	722	723	726	733	744	749	751	751	736	735	736	738	735	741	744	755	757	751	741	738	731	730	729	733	738	743	742	741	741	748	755	762	762	752	740	724	712	712	715	728	730	725	723	730	740	745	740	731	730	732	735	738	743	742	743	733	736	749	750	751	748	746	738	736	739	742	742	746	743	747	741	726	729	733	739	738	740	740	742	742	739	746	752	752	749	747	750	752	746	747	750	749	741	0	0	0	0	0	0	0	0	0
954	954	954	956	951	943	929	929	931	938	933	923	910	910	906	905	905	901	903	903	910	924	928	930	919	908	908	902	899	892	897	893	891	896	896	901	912	910	916	910	905	905	908	908	909	914	910	885	885	898	920	922	906	899	899	887	892	890	897	899	891	885	878	872	876	878	877	883	887	891	884	884	879	875	874	880	883	888	890	886	878	870	865	870	883	881	877	869	875	882	880	873	868	873	876	872	861	857	850	848	853	855	849	853	856	857	850	838	830	843	862	860	854	844	845	851	855	859	854	846	840	839	838	839	856	862	868	871	868	868	868	872	872	864	862	850	845	845	844	850	859	868	869	859	858	850	838	830	824	824	830	841	852	859	860	849	846	837	838	847	847	853	851	845	845	841	837	832	829	825	823	818	807	809	821	828	846	846	841	833	833	832	831	834	835	824	818	824	839	851	865	849	827	804	801	805	816	831	829	823	816	817	817	827	829	818	808	811	820	820	820	815	816	809	805	805	806	810	814	815	814	819	827	832	808	798	792	786	783	782	774	773	772	772	780	789	790	780	774	790	791	793	793	795	804	820	812	801	781	781	800	811	820	815	802	796	795	799	804	802	797	799	801	792	778	780	789	789	777	774	779	780	787	781	777	776	775	784	784	778	774	775	776	784	788	791	783	780	789	789	785	783	779	779	780	788	789	780	766	758	763	766	770	775	765	755	747	745	755	762	765	774	777	782	784	776	768	753	757	750	750	757	760	767	771	764	756	752	754	755	753	753	759	768	780	786	786	786	780	772	772	765	768	766	771	772	773	774	774	777	782	771	760	752	752	759	769	782	791	790	783	772	768	763	753	751	759	756	746	743	750	756	759	758	756	750	744	748	751	749	748	753	750	756	761	760	756	746	742	747	763	775	781	777	771	763	763	770	773	770	766	764	751	747	748	750	753	750	746	738	744	756	758	753	747	750	761	764	763	760	753	743	740	744	753	757	757	754	754	748	739	739	744	746	749	761	755	756	753	760	771	744	744	744	739	736	737	734	738	752	748	739	744	752	760	757	757	755	755	753	746	738	732	730	733	740	746	745	744	746	752	759	745	729	726	731	740	745	743	735	730	729	731	732	736	735	737	718	718	728	736	730	733	729	722	723	719	725	731	729	724	721	723	725	730	730	729	727	731	726	713	707	712	720	732	749	741	740	742	747	753	754	751	738	725	716	712	714	716	718	729	731	732	738	734	726	719	713	710	714	717	720	724	728	736	740	732	726	722	717	718	722	729	731	727	725	725	722	720	718	717	714	716	722	736	738	735	741	746	745	738	732	722	707	700	701	700	704	706	712	716	724	733	735	729	720	715	715	715	725	722	728	720	707	705	725	733	733	729	718	703	703	718	722	719	716	714	711	708	711	714	716	714	714	720	720	725	730	722	711	706	705	713	726	731	722	718	718	723	735	732	0	0	0	0	0	0	0	0	0
925	925	925	920	895	881	870	870	874	884	887	873	867	867	864	870	868	864	860	860	847	861	885	889	896	877	877	867	864	859	866	856	854	863	863	879	886	889	892	892	890	887	887	887	879	862	853	857	860	852	857	859	864	864	864	850	850	853	861	864	858	853	852	847	840	833	836	855	867	863	850	850	840	852	850	848	859	862	866	865	858	848	840	838	839	831	833	839	855	862	847	834	832	832	839	846	843	830	818	813	814	816	820	830	831	838	825	820	818	826	837	846	838	826	819	825	831	843	840	834	829	825	824	822	830	842	850	853	850	842	841	840	824	818	820	820	823	827	823	826	832	843	843	837	833	816	805	805	804	807	811	822	822	825	832	836	839	838	840	840	839	831	826	829	822	818	817	810	808	811	805	796	789	792	799	806	812	814	809	807	811	809	801	798	793	790	797	801	803	807	814	804	793	788	790	797	802	807	811	806	806	800	802	807	809	803	793	786	791	795	792	795	803	798	790	789	784	793	800	804	803	799	788	780	768	773	777	777	772	767	761	764	767	767	768	771	770	764	761	761	762	765	773	771	772	770	766	757	752	750	757	768	783	789	785	779	778	778	773	773	772	769	767	748	752	753	756	752	754	755	761	763	769	772	762	761	755	756	747	748	762	763	759	768	777	776	765	761	759	773	773	766	757	763	768	772	769	759	755	747	744	751	756	756	745	740	736	732	734	747	755	766	772	771	758	738	730	727	726	726	735	742	745	751	759	755	749	739	732	735	735	742	749	755	756	753	749	750	745	742	737	740	741	745	746	752	746	750	754	755	750	745	736	725	735	742	741	752	766	761	743	735	728	724	713	708	716	714	716	713	715	729	744	749	748	744	739	736	738	738	740	739	737	735	732	735	735	723	721	726	727	732	737	744	757	757	760	759	759	757	752	751	741	737	737	735	730	731	735	733	733	737	740	738	735	737	745	746	746	746	738	727	721	725	728	721	718	717	717	712	707	716	726	734	730	727	732	728	735	716	715	713	719	726	726	724	720	710	706	713	718	720	719	716	726	734	734	743	744	737	726	713	705	711	715	722	724	729	739	738	741	742	707	707	707	710	715	718	725	721	719	716	716	721	726	729	718	701	700	709	707	701	703	698	700	703	704	705	707	707	705	696	695	705	711	716	719	725	721	702	693	691	698	707	708	714	717	715	711	713	719	722	719	715	708	705	703	700	699	700	705	709	712	715	710	704	698	698	698	702	709	708	713	714	722	728	722	716	707	703	703	705	709	713	717	713	709	703	701	706	702	700	700	699	702	708	712	714	716	717	710	710	704	698	696	693	692	692	693	696	704	710	716	714	710	702	701	701	701	693	693	691	686	684	684	683	685	688	687	679	667	659	659	664	670	678	690	689	691	691	694	691	694	699	704	704	711	711	706	698	696	700	707	706	703	701	697	695	689	683	680	0	0	0	0	0	0	0	0	0
863	868	868	851	849	842	833	833	832	834	840	844	847	847	843	829	814	793	800	800	806	824	838	846	845	848	848	845	830	829	833	829	830	840	840	851	845	846	861	865	870	853	850	850	846	846	838	827	828	827	825	832	836	836	836	829	825	831	835	836	834	826	827	827	817	811	811	819	820	819	814	814	808	806	809	817	824	840	848	849	845	834	823	818	818	814	819	822	825	817	818	815	814	815	820	829	825	816	804	798	793	791	786	794	804	806	810	809	812	817	821	822	813	800	796	804	810	816	817	818	817	816	812	802	805	821	830	835	828	822	819	816	809	799	798	802	806	808	808	808	815	825	824	820	817	809	800	798	794	787	788	783	787	794	805	815	824	826	823	821	818	798	776	782	797	798	792	798	803	802	794	785	782	782	789	795	796	788	783	785	785	786	784	775	775	775	782	785	792	797	801	798	782	778	777	780	785	797	795	796	790	785	789	795	794	790	775	758	755	757	765	776	785	784	781	770	765	768	776	783	777	766	756	748	748	756	761	763	760	743	737	747	758	761	759	757	757	759	753	751	756	755	749	741	753	745	738	737	735	741	745	752	765	773	771	766	759	753	739	738	741	743	742	743	742	743	726	721	723	735	745	748	743	722	732	731	735	736	733	720	729	733	740	748	753	735	730	723	723	728	736	742	745	751	757	762	759	754	748	743	737	730	729	729	730	729	725	723	724	730	737	744	745	730	722	718	715	714	713	719	731	734	739	738	741	740	720	712	710	726	729	735	740	747	748	738	733	730	726	723	723	724	728	722	724	724	732	737	742	739	727	714	710	716	722	727	725	716	719	718	713	707	699	692	681	679	687	699	706	707	708	715	722	730	737	737	729	718	713	710	716	733	732	731	729	724	716	707	705	701	705	708	717	730	734	735	740	741	737	736	737	741	736	725	718	709	706	711	715	717	715	716	722	725	722	723	725	730	736	732	725	717	710	706	702	694	692	689	696	696	698	703	708	717	710	701	698	692	691	695	698	698	703	706	705	702	700	696	701	705	701	697	691	692	694	692	693	697	723	726	714	702	696	698	703	700	703	708	726	722	695	680	690	689	690	676	671	674	683	688	689	687	686	696	709	712	700	681	679	684	685	685	675	671	679	694	702	706	700	690	680	670	674	685	694	707	714	718	709	699	689	685	689	693	696	693	688	687	686	691	696	696	693	688	688	690	694	693	691	685	689	694	698	693	687	675	672	680	688	694	695	696	696	695	697	705	709	707	701	693	691	693	694	700	705	704	695	688	688	692	692	691	688	688	693	701	703	701	686	684	683	677	684	687	692	684	678	670	665	666	677	692	698	696	696	691	689	692	689	684	672	656	654	656	665	672	682	684	681	679	670	663	658	660	665	669	674	676	677	673	671	675	676	677	678	678	676	672	666	666	669	677	684	685	694	686	681	677	670	671	673	0	0	0	0	0	0	0	0	0
800	809	809	814	810	798	786	786	792	801	809	821	830	830	828	809	790	783	787	787	795	802	809	813	813	813	813	813	807	800	803	807	813	819	819	811	805	805	806	812	813	810	821	821	835	835	830	814	802	799	806	812	820	821	821	813	812	818	817	811	803	806	804	804	797	795	798	802	800	801	797	797	792	792	785	778	770	771	790	805	810	805	794	787	784	787	789	792	793	795	795	794	784	777	782	785	784	785	790	786	776	766	766	769	769	778	787	793	798	810	809	805	792	779	778	783	788	796	799	802	800	799	798	792	784	789	799	808	813	812	806	799	793	788	782	781	787	784	784	776	770	782	782	793	797	802	796	792	782	769	768	767	771	776	783	788	796	806	803	798	795	775	761	763	771	773	780	790	792	791	785	780	779	779	770	766	769	770	770	771	775	774	771	766	766	769	771	775	779	784	787	783	772	767	762	758	758	769	776	771	768	763	764	771	779	771	753	743	742	744	752	762	763	761	757	747	742	742	747	753	750	738	732	732	729	733	737	741	736	725	725	727	731	720	718	729	741	745	741	744	739	739	734	723	714	714	727	723	718	726	733	739	750	758	755	742	736	731	728	725	731	738	736	736	731	717	709	703	709	715	721	719	715	711	709	711	716	718	716	706	703	707	717	724	728	724	722	715	712	716	726	733	740	737	738	745	750	750	748	742	731	717	699	695	706	710	710	706	708	716	726	726	717	714	708	701	698	703	711	717	718	727	727	724	722	720	703	701	701	701	703	720	731	735	737	728	726	721	718	715	714	715	705	696	697	706	714	717	718	717	713	704	699	704	704	710	707	698	689	692	695	695	695	687	679	674	679	690	697	699	702	710	714	720	725	723	712	703	699	694	704	705	707	710	715	722	715	708	699	698	698	699	704	713	719	723	723	723	720	702	707	723	719	715	704	698	697	701	706	703	700	697	691	685	690	694	700	702	694	697	689	689	681	676	672	676	679	690	696	696	695	686	688	697	669	679	680	675	670	665	670	677	686	692	689	682	680	682	690	690	683	683	684	687	690	678	674	671	668	667	660	661	665	674	677	678	681	677	684	680	675	670	668	668	664	663	665	668	671	672	673	672	672	674	683	687	684	676	674	674	677	675	672	666	666	681	692	695	692	680	674	667	667	669	676	688	690	696	697	694	687	679	677	680	681	671	676	679	678	679	680	678	675	670	669	676	681	682	678	671	675	681	677	669	661	658	660	669	678	684	681	681	679	678	680	688	690	692	691	685	684	682	682	684	690	695	690	674	670	658	657	664	666	670	670	671	673	673	675	671	667	670	672	679	684	681	668	657	647	648	655	671	682	683	678	659	657	660	671	665	645	646	644	645	653	661	671	677	680	680	672	664	660	658	656	657	659	664	662	661	662	666	666	666	660	660	658	660	654	651	656	660	662	656	656	650	648	650	650	651	652	0	0	0	0	0	0	0	0	0
782	787	787	787	771	760	765	765	774	780	791	797	804	804	806	796	784	779	782	782	785	784	782	786	786	783	783	776	773	776	773	775	781	789	789	784	790	787	786	784	782	789	801	801	807	803	790	786	778	779	786	789	796	791	791	793	795	799	797	793	790	790	787	766	768	770	767	768	771	776	775	775	769	768	767	758	753	749	749	776	783	784	775	780	782	780	776	772	764	760	766	769	763	764	768	770	771	773	773	777	771	759	754	755	762	769	781	785	783	777	766	758	752	743	752	760	765	761	756	764	779	788	787	793	788	786	787	787	785	789	789	781	776	771	768	763	761	756	749	751	746	744	742	744	753	770	763	760	757	754	753	754	754	758	765	768	768	773	772	770	762	750	748	751	760	768	770	773	773	769	769	770	771	769	758	750	756	757	755	754	761	760	751	751	748	754	755	758	760	764	770	770	757	749	740	742	741	734	736	740	735	736	734	743	743	737	728	732	730	731	735	739	740	737	733	722	727	730	732	731	728	722	720	715	713	705	708	713	713	703	703	706	709	708	707	704	705	704	706	718	723	723	719	710	704	703	707	702	706	702	696	702	727	731	728	711	709	705	701	706	718	727	728	723	705	703	698	699	700	708	711	712	702	701	700	701	696	697	703	697	694	700	709	715	720	719	717	713	708	703	706	713	708	708	696	701	713	719	715	715	711	705	698	694	691	688	687	688	689	695	694	695	697	699	698	698	694	699	704	707	691	688	697	710	710	701	691	682	681	686	696	712	719	725	725	716	715	712	704	705	701	688	681	681	683	694	696	698	694	695	693	689	692	690	688	689	688	682	673	672	679	679	680	675	669	667	668	680	689	690	695	700	705	713	705	689	687	680	679	677	676	678	683	695	700	707	711	710	704	699	697	695	693	695	706	708	708	705	695	676	681	706	703	697	686	684	684	685	686	680	666	665	665	668	668	673	670	662	663	668	672	673	668	665	663	667	671	672	678	677	675	671	652	652	663	665	663	661	655	651	654	660	668	663	661	655	656	651	651	652	654	653	655	664	672	669	663	650	638	640	649	655	651	650	651	650	649	644	643	649	664	661	657	652	651	652	657	660	661	660	657	655	659	665	667	670	671	664	662	668	665	668	667	661	660	664	671	681	679	671	664	655	661	660	658	660	663	665	681	674	672	673	673	671	669	659	664	670	669	669	664	664	661	660	661	664	667	669	665	658	660	659	641	638	641	645	651	659	660	664	663	660	656	654	659	668	669	668	647	643	645	653	660	655	644	646	654	666	657	651	650	649	652	648	642	643	644	638	649	651	653	658	663	669	675	674	661	645	639	637	638	639	647	652	648	643	646	649	647	644	640	639	636	636	637	646	659	645	650	663	667	661	657	650	649	646	643	646	648	646	648	649	652	643	644	644	643	644	639	636	641	639	631	631	633	633	634	633	634	634	638	0	0	0	0	0	0	0	0	0
769	763	763	756	740	736	746	746	757	770	775	781	780	780	775	773	777	775	775	775	770	766	764	765	765	761	761	757	757	760	757	756	754	764	764	769	772	773	770	766	767	766	768	768	773	773	769	767	766	771	771	773	772	769	769	766	743	738	731	727	734	736	737	737	741	743	744	744	750	756	753	753	748	747	755	753	749	747	736	729	730	739	748	754	755	738	740	744	742	740	737	746	753	757	757	757	749	750	751	763	761	748	741	742	742	746	763	767	769	766	752	740	729	727	738	748	751	749	743	743	744	752	760	763	763	759	749	736	736	740	746	747	746	754	751	739	732	733	735	736	732	731	732	737	740	742	737	737	733	735	735	738	745	750	749	745	740	742	740	739	735	734	738	732	738	743	742	740	737	741	744	748	744	745	737	736	742	740	740	735	738	734	733	727	732	732	739	740	741	747	751	754	733	721	722	719	718	710	707	710	716	715	710	707	706	705	706	713	713	704	702	699	691	685	681	687	714	720	721	717	710	708	709	706	696	674	680	687	696	690	675	678	692	699	700	695	691	688	686	687	685	679	681	686	689	690	694	694	687	674	673	674	681	684	694	699	694	680	679	678	680	684	684	687	691	693	692	693	697	701	698	688	687	688	688	686	687	689	695	694	684	690	695	699	703	706	709	706	699	693	684	683	686	680	685	683	685	686	691	692	694	697	692	685	681	677	677	679	675	673	676	672	677	680	689	690	687	684	679	673	668	667	675	683	680	677	670	664	666	673	684	703	706	701	687	686	695	699	696	690	676	670	663	660	660	671	679	686	689	691	689	681	674	672	668	666	666	672	672	672	669	668	665	665	660	654	651	658	666	668	668	661	659	663	663	666	670	672	671	668	669	665	664	667	669	674	677	683	681	676	671	671	668	667	668	673	675	673	664	657	661	676	681	679	667	661	663	667	667	661	647	648	644	644	646	644	644	646	644	656	666	670	667	660	652	644	641	641	641	637	628	633	632	638	651	652	650	642	637	636	639	643	644	645	643	639	640	643	644	646	643	640	643	651	652	643	639	638	638	637	643	653	652	644	641	635	629	624	629	637	640	646	645	641	638	641	647	651	651	644	637	630	642	651	657	659	658	649	653	648	653	657	659	657	655	656	660	664	663	657	650	644	644	649	648	646	652	655	649	641	640	652	658	655	649	646	644	651	655	655	653	650	646	651	651	652	651	654	655	649	640	633	627	627	631	636	640	649	649	649	633	629	625	630	635	637	639	638	633	627	624	624	625	627	629	634	637	642	652	650	643	634	628	626	629	633	635	630	628	636	639	641	651	655	656	659	650	630	628	628	630	629	626	622	616	619	623	627	628	636	637	633	630	626	628	636	631	631	630	637	644	649	642	636	634	630	616	618	617	628	630	633	628	619	616	616	610	620	620	619	619	611	610	612	614	620	623	625	622	624	623	0	0	0	0	0	0	0	0	0
732	730	730	725	718	717	725	725	734	742	737	737	738	738	739	747	764	760	762	762	743	736	738	743	743	741	741	740	743	746	747	745	741	743	743	751	755	752	749	750	749	749	751	751	752	751	749	752	756	758	758	740	736	732	732	727	726	724	714	713	715	723	725	724	723	727	730	733	737	743	741	741	735	727	725	742	748	741	732	721	718	719	717	723	718	721	725	726	728	727	729	732	738	740	736	730	724	712	714	714	721	719	715	719	725	725	736	745	745	731	717	714	709	712	718	731	734	730	720	713	721	730	735	735	727	726	719	710	711	717	720	720	718	717	720	714	709	709	710	710	713	725	724	727	727	717	715	714	717	716	714	721	725	732	733	734	726	717	720	722	721	719	722	714	707	710	713	715	718	713	716	711	701	691	693	697	699	715	709	714	709	706	708	715	716	723	724	728	731	735	734	724	706	703	703	704	694	688	685	688	681	685	678	677	678	687	687	686	678	676	677	674	667	665	666	656	663	662	658	665	671	686	690	684	665	665	670	674	676	669	655	657	682	693	693	684	676	673	672	671	661	660	662	665	660	659	659	669	673	662	655	656	670	678	685	688	679	674	674	673	666	666	667	669	676	682	686	683	682	679	677	673	677	674	671	670	677	680	678	689	675	669	667	675	679	686	689	682	672	664	667	674	671	671	669	667	674	675	678	681	681	684	678	672	666	665	666	667	663	656	654	657	666	674	678	667	675	675	671	665	660	659	661	664	666	670	660	650	648	655	661	668	671	673	669	671	673	672	680	673	663	658	648	649	644	641	645	659	672	682	677	673	664	662	658	654	656	671	679	677	665	658	653	652	651	645	642	643	638	635	637	641	639	643	646	657	664	666	666	663	657	648	649	656	662	661	657	655	648	639	640	638	645	647	644	640	633	626	636	641	641	655	666	664	653	647	645	642	637	637	638	645	642	634	631	634	637	640	643	646	648	649	649	652	650	644	639	635	619	614	611	614	619	629	633	634	630	623	619	621	626	629	630	632	629	627	628	626	630	636	634	630	633	633	630	629	625	626	629	628	641	645	647	640	630	621	613	614	618	624	625	631	624	626	627	633	637	635	629	633	630	624	622	624	629	630	627	636	636	623	618	626	638	644	640	637	635	632	622	619	617	629	638	640	639	638	630	631	631	623	614	614	618	623	632	632	629	630	616	623	638	642	640	639	638	637	633	634	639	630	624	623	621	619	606	610	611	611	614	620	625	627	619	615	620	625	624	623	617	608	603	601	606	612	617	618	621	625	630	630	624	621	615	614	608	610	611	612	612	619	622	623	624	617	615	619	623	618	615	618	616	612	611	607	605	606	613	617	619	622	625	625	621	619	619	615	622	620	619	618	627	629	612	610	612	611	602	600	600	598	608	612	611	605	600	600	595	593	590	596	597	598	601	603	607	608	611	615	619	620	616	0	0	0	0	0	0	0	0	0
708	708	708	707	708	707	715	715	722	723	725	725	723	723	722	722	723	737	736	736	721	714	706	706	718	725	725	727	725	729	730	730	728	729	729	733	735	733	734	736	732	730	738	738	738	734	736	720	721	726	723	723	716	718	718	720	716	714	710	706	705	705	709	712	714	718	720	721	723	725	724	724	717	706	692	697	723	724	724	709	703	697	694	696	701	708	709	711	715	717	718	713	717	714	708	708	705	706	704	700	695	690	692	699	709	711	707	700	695	700	705	705	702	693	697	709	711	702	691	693	699	709	718	713	706	701	684	681	686	697	704	698	696	703	709	705	698	691	692	698	700	703	702	701	689	680	677	692	694	691	685	687	695	708	722	720	709	698	697	704	706	708	707	695	692	694	697	701	702	699	695	680	680	681	687	688	690	685	692	692	690	690	688	693	691	693	685	681	680	677	677	675	667	660	658	661	666	672	671	669	668	665	667	665	664	669	668	663	665	667	670	668	666	656	652	648	645	646	650	658	663	662	659	659	657	656	657	663	661	649	647	651	659	669	675	673	654	645	646	648	652	657	661	662	660	658	655	649	646	642	646	651	658	660	675	666	666	667	665	657	658	655	655	657	663	674	673	668	661	656	655	659	664	659	660	661	660	652	647	652	650	653	655	657	656	647	645	655	652	647	647	663	664	661	646	650	661	665	670	664	662	662	667	662	656	654	656	657	655	652	647	651	657	656	658	657	661	667	663	656	650	650	649	654	656	653	645	631	629	637	646	653	651	655	658	658	657	652	645	646	648	649	640	636	632	634	634	633	632	638	643	645	644	642	640	640	647	655	659	655	648	640	634	633	634	636	639	638	633	628	628	626	629	634	641	648	653	652	652	648	641	638	643	639	644	646	645	644	638	633	630	630	632	634	628	620	615	621	629	632	625	634	641	635	629	625	622	621	623	627	636	638	633	628	622	624	629	635	634	630	623	619	631	642	645	644	619	619	610	593	589	591	595	620	623	619	621	619	614	616	619	622	620	618	614	607	605	603	605	614	624	622	623	624	624	621	617	615	616	617	624	629	634	628	620	610	602	605	611	616	612	604	603	608	611	619	616	613	608	610	609	613	614	618	622	623	619	620	616	613	605	599	592	594	602	612	618	617	613	611	613	618	624	625	618	613	614	616	617	608	603	599	607	612	626	626	617	610	605	607	612	616	615	617	616	617	611	609	590	602	607	605	595	593	589	594	597	596	598	603	606	609	605	602	613	615	604	601	596	591	589	592	596	602	602	604	605	610	608	607	607	608	602	598	600	603	603	593	592	601	607	610	611	604	602	600	605	607	605	604	601	600	599	597	598	601	609	612	615	609	607	610	609	604	596	597	604	605	609	607	605	599	584	583	592	595	594	592	591	591	594	595	596	597	593	593	591	586	579	576	581	587	595	601	604	603	597	594	591	586	586	0	0	0	0	0	0	0	0	0
700	700	700	702	702	702	708	708	704	710	712	714	710	710	705	703	705	710	713	713	708	697	695	700	711	717	717	705	706	714	717	719	724	728	728	727	720	718	716	719	716	695	688	678	681	683	687	691	693	699	695	701	700	703	706	706	705	703	701	697	692	691	697	699	703	708	710	698	699	702	701	701	694	685	684	682	687	692	693	680	677	673	673	679	682	690	691	693	690	699	702	683	669	666	670	681	690	697	696	691	686	684	685	691	694	692	687	683	684	689	691	688	680	676	676	678	679	677	672	668	657	658	670	677	681	679	676	675	677	681	681	672	668	671	684	684	675	669	667	681	683	684	676	667	660	660	666	669	667	668	669	667	666	682	690	688	680	677	683	688	691	688	679	685	683	678	678	684	688	684	676	669	666	671	678	684	681	666	669	675	679	675	672	669	670	673	672	665	660	659	643	633	645	655	656	657	656	656	655	656	656	658	659	659	657	658	658	654	654	657	665	664	657	647	643	638	636	635	642	650	653	649	648	648	649	647	646	646	640	639	642	645	641	631	635	640	636	629	625	633	635	640	642	648	650	647	638	637	642	641	637	638	637	637	640	643	648	647	648	639	639	643	647	647	659	655	656	649	648	641	644	647	649	646	642	638	636	639	641	643	642	651	648	646	644	642	633	634	639	638	625	624	628	628	624	631	647	658	655	641	637	640	643	644	643	644	643	644	646	645	634	626	623	625	627	632	634	651	651	647	642	641	641	636	630	633	629	628	621	630	635	637	639	643	646	649	650	644	637	632	631	631	631	625	626	626	624	615	611	613	619	628	629	626	625	627	640	644	648	636	631	628	623	621	622	628	633	635	630	625	624	627	630	632	637	637	642	639	640	639	633	633	632	631	628	622	623	622	626	626	623	620	625	625	619	615	610	615	621	618	617	615	606	601	604	609	612	617	621	623	625	625	622	620	617	615	617	620	621	615	606	601	609	620	609	612	610	603	593	589	590	591	591	591	599	605	610	613	613	612	611	614	611	600	592	589	588	593	595	600	605	609	612	618	615	610	605	605	599	599	603	608	610	610	609	607	605	609	614	612	607	599	600	602	602	600	607	603	596	591	592	591	596	609	616	616	612	608	607	601	596	591	583	579	577	578	588	602	603	603	607	605	606	605	600	599	603	608	608	599	589	584	582	588	601	597	602	604	604	603	600	597	596	589	588	584	581	574	578	597	600	596	587	580	578	578	586	590	595	595	590	587	578	590	596	599	595	591	586	582	581	585	583	585	591	591	593	593	590	589	594	592	592	586	592	599	599	591	585	583	586	591	596	595	593	592	589	585	585	586	589	592	591	591	593	594	599	602	600	597	595	591	588	588	580	583	591	596	598	595	589	580	575	572	571	570	571	571	578	585	588	591	592	592	592	592	588	582	578	577	581	584	587	586	586	585	583	577	571	574	578	0	0	0	0	0	0	0	0	0
688	687	687	689	684	685	681	681	680	682	688	695	694	694	690	684	684	684	691	691	679	677	678	689	699	695	695	693	693	694	697	699	706	712	712	700	703	700	700	700	675	671	671	671	673	677	680	682	684	676	673	677	684	691	697	697	695	688	681	679	676	680	688	691	692	694	684	680	679	683	683	683	680	674	674	675	673	669	671	666	657	657	659	667	670	672	670	669	672	678	673	663	654	649	653	664	676	682	684	682	681	677	679	682	683	678	674	669	668	673	673	668	663	662	664	664	660	657	655	640	640	644	649	653	657	653	651	652	657	658	656	647	646	646	643	644	642	642	653	662	663	662	656	653	643	642	651	654	655	653	652	654	651	653	652	649	648	650	671	671	669	666	655	660	656	654	654	663	664	661	654	650	651	653	664	676	673	665	656	657	650	645	646	653	659	661	656	651	641	627	620	625	630	640	650	650	649	649	643	640	644	649	650	649	650	653	651	649	637	631	629	627	627	628	629	631	627	627	634	640	637	635	635	636	639	640	638	631	630	630	632	624	619	618	621	623	623	616	612	617	624	624	628	622	625	625	622	627	631	631	629	629	629	631	633	633	635	633	632	621	616	626	637	642	647	640	634	627	626	626	630	635	639	639	630	623	627	636	637	628	621	644	644	642	639	636	629	624	620	618	613	609	604	606	606	607	609	626	628	629	634	633	628	620	620	621	619	616	615	613	613	614	615	618	621	615	616	627	632	635	639	638	633	626	621	622	618	613	608	603	600	601	606	611	613	613	613	623	619	612	601	598	597	601	603	600	599	598	595	599	603	608	614	618	618	621	625	628	630	627	622	618	615	614	616	617	621	625	622	613	614	616	616	617	624	622	620	619	615	617	616	617	616	620	618	614	616	615	614	616	615	615	614	613	614	611	611	613	613	606	594	587	585	592	595	598	605	611	613	612	608	609	609	610	609	609	613	616	615	606	596	595	588	591	594	598	594	589	587	586	588	586	584	581	577	588	593	587	588	586	586	588	590	587	585	585	587	589	591	592	592	587	588	597	603	596	592	588	588	596	598	595	596	601	599	601	600	601	604	601	593	582	592	593	593	591	594	595	593	589	585	585	585	587	590	591	588	589	590	593	592	590	586	576	573	567	569	572	578	585	594	596	594	595	593	590	589	597	604	600	591	586	580	579	579	581	584	587	576	584	586	581	571	565	572	569	560	562	570	587	590	589	579	568	557	556	567	573	580	583	576	573	567	569	568	570	576	582	581	578	573	570	570	576	578	581	583	581	579	577	569	566	572	579	586	592	588	582	575	567	565	567	577	582	583	579	573	575	576	576	573	570	569	572	574	582	588	586	583	583	577	576	578	580	582	584	588	590	591	588	581	575	570	567	565	567	567	566	567	573	579	581	582	579	579	578	578	575	574	572	573	575	578	579	575	570	567	566	566	570	571	0	0	0	0	0	0	0	0	0
669	664	664	661	654	655	662	662	660	665	668	677	680	680	672	664	657	657	660	660	660	663	665	665	665	665	665	670	677	685	684	684	684	689	689	690	690	690	670	664	663	659	659	659	665	667	669	669	662	662	664	664	669	676	682	682	677	670	667	668	670	676	681	688	684	675	666	665	668	666	665	665	664	662	661	661	663	661	659	653	646	648	653	655	656	656	659	662	666	655	655	650	646	641	645	653	663	665	668	672	670	664	665	665	664	665	659	649	654	656	651	640	629	630	632	638	638	638	629	627	631	636	641	646	648	641	637	636	638	642	641	640	637	636	635	633	627	626	625	628	634	637	636	633	633	635	646	643	643	635	632	632	627	628	631	633	636	633	630	642	640	628	628	642	634	630	629	637	644	647	643	639	639	643	644	647	647	635	639	634	633	635	638	646	649	645	641	636	629	624	623	626	623	623	632	633	637	632	631	627	629	634	633	624	631	636	646	642	627	625	619	613	615	615	620	625	626	625	627	625	623	619	619	620	629	635	627	619	615	615	616	614	608	611	614	616	615	612	607	607	613	608	611	618	621	619	612	616	625	612	607	617	614	617	616	617	624	625	621	614	616	619	625	624	617	615	613	615	619	617	618	620	624	627	617	614	618	625	624	615	607	611	623	629	628	624	620	618	606	605	602	600	601	599	600	598	598	603	605	612	619	623	617	607	604	606	608	605	609	607	609	610	613	612	611	606	603	605	607	604	605	609	610	612	607	609	605	605	599	595	594	597	600	600	606	608	604	599	596	593	593	591	589	587	587	584	589	592	588	589	593	594	598	604	609	609	607	610	613	608	595	588	582	585	602	607	599	598	602	603	609	609	599	589	583	586	592	598	597	592	587	596	605	603	605	609	608	607	604	600	595	598	598	599	609	613	616	612	604	586	577	575	575	578	584	586	591	590	590	587	587	588	596	600	602	603	608	611	607	598	583	578	578	579	579	583	577	577	578	579	580	574	576	578	576	575	577	578	576	575	575	579	581	580	579	581	583	583	580	579	558	559	567	576	575	571	577	575	581	588	588	584	584	587	583	585	581	583	588	586	577	573	578	580	581	570	574	580	584	582	583	580	578	581	584	585	581	585	583	581	584	585	580	577	574	570	567	570	573	576	580	580	582	582	580	577	576	576	583	590	591	584	579	575	569	569	565	562	562	561	569	567	563	557	551	550	556	559	565	576	576	569	559	554	550	551	551	552	552	554	552	555	561	561	562	564	562	573	573	570	564	558	561	565	559	561	560	562	561	557	550	547	550	562	571	570	565	561	560	558	556	563	565	567	565	565	561	565	571	572	568	562	555	553	556	563	567	564	563	561	562	564	571	578	581	579	577	577	580	578	574	566	563	562	562	562	562	560	557	564	569	572	574	570	570	566	562	555	551	557	562	564	567	572	569	568	566	565	564	565	565	0	0	0	0	0	0	0	0	0
652	649	649	639	629	628	631	644	644	650	658	664	660	660	651	642	639	641	645	649	649	655	654	654	651	654	661	661	672	678	679	674	673	673	673	674	646	646	646	640	639	643	649	649	653	657	659	652	648	649	654	655	658	654	651	651	649	648	655	658	660	662	664	664	656	650	640	640	647	649	649	649	646	646	647	650	653	650	650	639	634	634	639	639	641	643	646	647	645	630	635	637	641	637	635	639	643	646	633	633	631	639	639	637	634	639	635	633	630	630	633	621	609	601	607	615	616	618	618	614	613	611	624	634	636	630	625	623	627	631	639	636	631	628	626	620	613	608	601	600	603	609	617	624	627	628	628	626	623	615	611	612	605	606	612	623	624	605	601	604	610	612	616	605	608	605	605	606	621	626	629	631	629	630	626	624	618	604	616	616	618	621	628	634	638	638	636	631	625	623	623	624	617	610	616	619	624	623	620	619	621	617	611	604	610	623	625	629	626	616	611	611	608	609	612	615	616	618	610	609	606	606	608	610	613	610	610	607	607	609	607	605	605	605	608	607	606	605	607	606	605	605	607	612	613	605	604	607	607	600	594	593	592	596	600	599	607	613	614	605	602	599	615	611	609	609	608	610	609	601	601	604	604	606	605	604	605	605	605	602	597	592	599	610	611	610	609	605	592	592	595	596	596	596	596	590	592	591	592	592	598	601	592	595	599	596	593	591	591	594	595	593	592	598	601	598	594	591	586	591	595	600	600	601	599	599	595	595	595	593	593	590	592	589	591	596	593	587	583	585	583	583	581	581	578	581	584	587	589	587	583	582	585	589	588	584	588	588	590	592	587	579	572	567	576	579	577	577	578	583	589	592	578	571	569	572	575	579	577	574	572	578	581	587	593	596	597	596	589	583	578	577	581	587	594	594	596	592	590	577	572	568	568	569	574	577	577	577	575	576	575	576	581	588	592	596	602	601	598	568	577	574	571	567	569	567	570	567	565	564	564	564	569	570	572	573	570	570	567	562	563	569	574	576	570	571	572	576	569	561	556	557	561	564	562	558	555	561	571	578	574	572	573	578	576	574	572	571	570	574	566	566	568	567	564	560	559	564	571	576	578	578	576	575	571	573	572	578	574	569	561	559	561	571	571	567	565	566	568	571	572	572	572	571	565	558	558	561	565	568	553	551	549	544	543	549	555	555	547	549	554	554	556	554	552	552	552	555	552	548	548	548	547	548	547	546	545	545	544	543	541	538	548	552	553	557	559	562	563	558	553	551	549	552	553	551	548	548	550	549	546	544	543	551	557	563	554	552	550	554	544	539	540	553	558	559	556	557	562	564	552	545	541	542	542	546	546	542	539	539	541	547	555	565	567	560	551	544	543	551	557	560	557	557	556	556	555	552	547	551	560	566	567	559	559	557	555	550	545	543	544	549	552	554	557	559	560	558	554	552	551	0	0	0	0	0	0	0	0	0
641	633	633	622	619	619	619	621	621	638	647	651	646	646	637	629	623	628	637	642	642	644	645	645	645	648	657	657	665	669	669	665	659	655	632	631	630	630	629	623	615	619	631	639	639	642	632	633	631	632	637	642	639	639	638	638	632	632	633	633	635	638	642	637	629	626	624	623	631	631	630	630	626	629	631	632	633	630	630	630	627	624	620	622	622	627	633	635	630	627	629	630	627	625	628	624	622	620	614	616	618	623	624	622	616	614	612	613	614	617	614	611	601	593	592	599	607	614	615	610	605	603	604	615	619	615	612	610	612	618	628	625	625	619	615	616	609	602	595	594	598	598	600	605	605	604	604	605	602	594	591	591	593	597	600	601	601	588	585	588	597	603	603	601	599	595	596	599	598	599	602	603	612	612	618	613	592	591	601	603	600	600	604	619	625	626	627	623	621	618	619	618	614	605	603	609	605	605	600	598	592	591	595	596	599	600	602	605	608	592	587	589	599	596	601	604	606	607	607	609	609	604	599	597	600	600	603	603	599	599	600	598	597	594	596	596	594	597	602	598	596	596	599	602	603	602	599	601	597	591	589	591	589	587	586	584	584	587	591	588	585	585	587	590	605	603	604	604	593	583	582	589	596	600	600	598	598	595	591	589	587	584	584	584	592	596	589	589	585	587	589	591	590	589	581	579	586	590	591	587	585	585	586	585	581	577	576	575	572	563	569	573	577	582	588	588	585	582	579	578	580	581	588	588	581	576	587	585	579	579	580	582	578	573	575	574	576	576	574	573	575	575	571	571	572	576	577	581	582	580	576	576	572	572	570	572	574	576	577	576	579	574	568	564	559	561	567	570	567	566	569	567	568	567	566	565	564	563	561	560	564	573	578	584	585	578	581	579	571	567	566	568	570	572	584	586	583	579	577	571	568	564	562	562	561	564	568	568	568	570	573	575	576	580	580	579	578	561	560	558	557	559	561	564	563	561	561	562	562	561	561	561	561	564	568	569	563	557	551	554	557	562	567	566	565	564	568	566	562	560	554	554	555	551	549	549	548	551	557	559	561	563	564	568	569	569	567	565	562	563	559	557	555	557	552	551	552	557	563	564	559	558	562	559	556	563	568	572	569	563	558	554	550	557	560	558	562	562	558	557	561	559	562	564	556	546	534	534	538	538	543	550	551	547	531	534	542	544	541	532	534	540	540	549	547	547	546	548	545	545	545	548	545	542	542	540	537	537	537	534	532	531	534	543	546	548	548	551	553	553	548	544	545	546	546	544	540	540	539	541	541	539	541	549	553	553	542	540	544	545	543	539	539	542	547	552	554	554	552	548	546	540	537	535	536	536	537	535	534	534	532	533	533	540	547	550	548	540	532	532	536	545	548	551	550	548	544	534	528	530	535	545	550	551	551	548	548	549	550	545	543	545	547	550	553	551	544	534	527	528	532	0	0	0	0	0	0	0	0	0
621	617	617	610	613	612	610	613	613	622	627	631	632	625	625	615	614	622	628	630	630	638	638	640	639	640	647	647	654	656	655	649	605	606	605	605	599	599	603	603	604	602	605	613	613	614	614	617	615	614	613	616	618	618	614	614	614	612	613	617	622	623	623	625	620	615	613	614	614	606	603	613	613	620	619	618	612	612	614	618	622	619	615	610	613	616	619	619	618	620	620	616	607	604	606	606	605	602	600	601	606	611	612	610	604	600	602	603	605	606	602	600	595	589	592	596	606	612	613	610	604	599	596	602	604	607	604	602	606	608	609	605	602	606	611	611	608	603	599	592	593	590	589	588	589	589	599	602	600	594	587	578	575	576	585	589	577	576	577	580	588	599	597	589	586	585	582	588	588	588	587	594	593	590	590	585	584	584	589	587	586	589	594	604	614	617	613	604	604	607	609	608	605	596	592	592	588	589	591	587	588	585	588	593	594	594	595	595	590	581	580	578	576	576	574	570	576	592	599	599	585	586	586	589	591	595	594	588	587	587	580	579	573	578	582	584	584	587	579	578	580	587	584	575	575	580	596	600	589	587	584	583	584	583	577	575	575	577	578	575	576	579	580	580	578	575	594	592	577	572	570	575	585	588	591	596	592	589	585	582	575	571	567	563	568	578	579	581	581	580	583	581	580	575	571	577	583	585	583	577	573	573	576	573	569	568	561	562	557	557	558	560	563	563	574	575	574	575	572	569	568	568	567	568	570	566	560	562	566	569	570	568	565	563	561	563	562	561	560	559	562	566	563	564	565	567	567	571	571	569	566	563	562	559	557	557	563	564	567	567	568	564	563	564	567	568	568	566	563	557	559	560	562	561	554	554	552	553	552	556	558	559	561	560	556	554	555	564	564	563	561	563	561	559	566	571	573	572	567	564	561	559	556	555	554	556	560	562	563	564	571	572	571	572	570	551	550	550	552	552	551	554	558	561	557	551	550	558	560	557	556	553	554	559	562	564	557	549	543	538	542	546	551	550	551	557	563	560	553	549	552	551	549	543	543	546	549	553	554	556	556	557	557	557	557	559	548	554	554	554	548	550	550	548	545	544	547	552	559	554	547	548	547	547	546	549	555	560	560	554	553	544	539	538	540	542	549	548	544	539	544	551	545	546	541	536	529	529	532	533	534	536	542	537	524	525	530	531	529	522	525	531	530	527	525	524	533	539	538	540	541	544	541	536	533	533	530	530	530	529	526	527	529	536	539	537	536	538	539	541	544	542	541	541	539	537	535	534	535	535	535	535	539	546	551	548	529	529	537	538	538	537	534	538	540	538	537	538	541	544	543	540	537	532	528	526	527	530	533	533	531	523	530	535	543	544	539	534	528	527	530	535	540	543	546	543	534	527	524	524	527	529	531	536	536	536	536	535	536	534	536	539	543	546	548	545	537	528	523	523	527	527	0	0	0	0	0	0	0	0
605	601	601	604	604	604	603	601	601	608	616	615	612	611	611	610	612	614	616	621	621	628	627	627	628	624	626	626	629	630	626	593	594	592	589	589	588	591	595	593	596	592	596	602	602	603	604	603	605	608	610	611	603	595	593	593	597	604	605	606	608	603	605	614	616	618	616	604	596	591	591	599	599	612	618	614	609	609	608	610	610	608	606	604	602	602	594	591	594	599	602	602	599	594	591	591	591	590	591	594	600	603	602	598	592	593	593	591	595	587	578	584	599	594	597	598	603	609	607	603	600	596	591	592	593	594	594	597	598	599	599	595	596	595	597	599	602	603	596	588	580	577	578	576	578	582	588	594	589	580	576	567	565	564	563	562	562	567	570	576	582	588	584	581	577	573	574	573	575	574	572	573	584	584	579	573	568	565	569	580	579	581	584	591	599	598	594	589	582	578	577	583	587	583	581	578	577	577	581	583	585	583	581	584	583	586	586	586	581	576	574	572	569	565	561	562	572	581	582	576	576	571	571	562	571	573	575	580	585	581	569	557	557	561	567	570	571	567	564	564	563	563	561	558	564	570	580	589	590	579	572	572	571	567	567	568	571	575	577	570	566	564	566	562	565	558	557	556	563	562	564	569	571	573	576	578	579	582	581	578	574	566	562	562	564	566	568	575	571	559	556	555	558	560	563	568	574	573	570	566	560	558	560	561	559	553	550	548	545	544	545	548	551	556	562	567	565	563	565	560	556	558	561	562	562	556	550	545	550	557	556	554	553	552	551	552	554	552	554	554	553	553	554	557	552	546	542	546	555	558	557	556	560	559	552	547	553	558	559	562	564	564	563	563	569	572	569	563	559	558	555	555	555	543	538	538	543	545	548	548	547	547	543	541	541	543	546	548	553	553	552	553	551	550	546	545	551	560	552	546	548	551	548	543	544	546	556	558	552	544	542	542	547	535	535	535	529	528	531	538	542	550	555	557	548	544	541	542	548	549	549	544	544	551	555	556	551	543	538	536	534	531	529	529	534	537	543	546	543	538	535	543	541	535	531	528	532	538	548	551	551	547	541	535	533	533	533	535	539	542	541	542	545	545	541	539	542	548	552	547	546	541	542	542	542	540	538	542	535	531	533	533	537	541	543	541	538	535	531	512	524	527	526	527	530	528	523	523	524	524	525	527	528	526	522	523	523	524	518	513	515	522	521	518	517	516	520	531	534	533	534	535	533	530	526	524	526	525	524	523	522	522	524	527	525	523	524	516	515	527	527	535	535	533	532	529	530	530	529	525	523	524	534	539	539	537	519	518	521	525	527	527	528	526	523	519	517	520	526	534	538	536	530	525	522	519	515	517	522	529	522	522	525	532	540	539	534	529	527	527	526	527	529	534	537	533	528	524	521	523	527	525	525	524	524	526	526	523	519	518	523	526	529	526	531	538	531	524	516	518	515	515	0	0	0	0	0	0	0	0
580	582	582	588	592	594	591	592	592	596	600	598	598	598	598	603	607	607	604	606	606	607	609	609	609	604	602	602	602	590	594	594	591	586	575	575	578	584	586	583	576	580	591	598	598	599	597	595	600	606	606	597	594	589	585	585	586	591	594	589	586	589	592	594	596	590	587	584	584	584	587	590	590	592	596	594	590	592	594	599	597	593	589	590	589	587	580	581	583	587	587	589	588	588	589	591	591	591	589	589	593	594	590	588	585	586	584	584	578	570	573	575	586	590	591	594	594	595	587	586	580	580	579	579	580	586	587	588	588	587	589	587	587	588	589	591	593	592	586	579	572	568	566	567	569	572	571	574	573	566	563	561	561	560	559	557	554	551	560	568	572	572	569	568	567	565	566	566	564	558	553	553	556	559	560	563	562	560	563	558	556	559	563	584	580	578	584	581	578	575	575	575	578	571	567	563	556	557	565	574	579	576	572	572	571	569	565	565	573	569	567	565	563	563	559	559	564	568	568	569	566	560	549	551	553	561	564	571	571	562	553	545	545	549	554	560	555	546	550	553	556	557	557	554	554	555	553	557	564	561	558	553	554	556	556	560	566	571	574	567	560	555	555	554	552	553	554	555	555	560	562	564	558	562	561	564	565	564	570	570	570	566	561	558	553	555	554	550	545	545	542	538	538	542	554	559	559	561	560	557	550	548	550	552	548	546	542	539	539	539	536	539	541	546	547	549	549	548	549	551	550	549	552	551	553	549	540	535	529	536	545	548	550	549	548	546	545	538	535	537	538	544	544	537	535	524	521	525	540	542	543	548	557	549	540	533	536	555	556	557	560	555	551	557	558	562	560	556	550	545	542	542	544	541	531	533	533	534	540	538	537	533	533	533	534	536	539	542	542	541	536	531	530	531	527	523	523	532	530	531	533	537	540	539	539	542	543	541	537	538	538	531	526	524	525	523	524	523	522	525	528	528	531	537	536	534	538	539	540	539	536	534	535	537	542	546	546	540	534	533	532	529	527	528	527	527	533	539	538	533	526	523	529	529	523	520	523	530	539	543	543	536	530	527	525	524	526	527	527	526	525	527	533	537	541	541	540	546	549	548	542	540	538	539	537	532	529	528	522	521	520	520	528	536	540	527	522	510	504	507	510	517	521	519	514	511	507	505	506	513	515	518	519	519	519	519	519	517	513	508	507	510	514	515	514	513	514	525	525	518	518	519	519	518	519	520	520	513	508	510	509	512	516	521	520	514	512	510	510	512	514	523	523	514	502	497	500	509	517	520	519	519	521	509	504	506	511	512	514	519	521	516	510	510	507	504	503	505	511	512	510	506	505	515	512	510	510	512	514	516	516	521	526	531	532	533	527	524	526	527	526	519	518	522	519	511	511	510	515	519	521	522	518	519	519	521	520	514	513	513	518	521	513	508	503	512	518	515	510	504	501	501	0	0	0	0	0	0	0	0
562	566	570	570	577	578	575	575	575	581	585	585	587	589	589	594	597	595	596	596	596	589	586	589	589	587	586	586	576	581	584	582	573	564	564	564	560	566	569	570	573	577	579	579	579	579	578	582	583	586	585	577	580	579	578	578	576	568	571	574	580	585	585	584	579	575	572	575	577	579	583	582	582	576	576	574	572	571	573	575	576	574	571	566	567	569	569	570	573	569	573	574	574	579	581	583	587	592	588	584	582	581	580	579	578	576	574	567	567	568	565	564	568	571	576	578	576	571	563	562	567	568	564	565	562	579	580	576	577	575	576	580	581	576	574	577	579	576	564	561	561	558	553	551	553	557	559	568	565	560	552	550	549	554	553	550	529	537	545	555	556	554	544	544	545	549	561	560	559	553	550	548	547	544	551	552	553	555	558	549	550	546	550	551	553	555	571	575	574	572	570	566	563	560	557	556	552	550	546	556	567	568	565	564	566	564	562	560	563	567	562	560	560	559	558	556	553	549	548	548	549	544	540	540	543	548	551	554	550	550	544	540	542	545	549	547	538	541	546	549	550	549	547	544	542	540	543	545	549	547	547	544	546	546	548	551	557	564	562	556	550	547	545	547	549	552	551	550	547	548	547	557	555	556	557	559	558	557	553	556	558	558	552	548	543	544	544	541	537	534	532	529	526	531	539	544	548	549	551	550	546	542	539	537	534	535	534	534	535	528	523	521	528	528	532	538	543	541	536	532	531	531	529	527	531	534	527	518	518	519	530	542	544	534	530	528	526	518	518	521	527	537	535	528	520	513	514	518	527	530	532	537	539	532	517	518	524	527	527	529	536	541	544	543	542	535	538	538	532	533	530	530	530	527	523	521	516	516	518	522	525	525	523	526	529	529	528	531	535	537	535	532	530	525	521	515	512	516	520	526	526	528	525	530	534	536	530	528	528	522	522	518	519	516	514	517	522	517	513	512	517	518	516	519	519	519	520	522	522	524	528	533	529	526	527	530	531	526	522	521	521	521	520	521	523	522	525	537	537	532	521	511	517	522	525	526	525	525	526	526	523	523	523	523	522	522	522	522	525	524	514	513	516	520	518	515	517	529	545	544	540	531	516	515	512	516	516	514	514	516	517	514	507	507	507	505	506	505	505	506	506	507	512	513	513	510	508	508	504	502	504	510	514	513	513	514	515	515	508	501	500	506	513	513	510	507	507	510	507	497	497	499	503	506	511	513	511	503	503	502	499	500	501	505	506	504	500	503	503	508	513	518	511	505	500	497	499	507	514	519	517	510	504	499	501	501	508	509	510	512	511	502	498	497	496	497	494	495	499	501	500	500	499	496	501	500	501	503	506	507	507	500	498	503	510	513	512	511	512	510	512	513	504	502	500	500	501	502	506	511	513	508	509	509	509	509	507	505	504	504	505	508	504	501	497	494	492	494	493	490	486	486	0	0	0	0	0	0	0	0
554	555	558	558	560	562	561	561	561	563	569	574	573	576	576	578	582	580	583	584	584	574	571	576	578	577	575	553	548	547	549	549	550	552	553	553	558	561	561	561	564	569	560	559	559	562	571	570	572	569	568	568	570	568	562	562	556	556	560	569	573	577	578	573	569	564	565	566	561	560	560	566	566	563	563	563	562	560	555	559	560	561	560	555	555	559	561	561	563	560	556	554	555	560	570	579	581	582	578	562	556	556	560	562	558	555	554	555	556	557	555	559	562	562	562	559	555	546	543	547	550	539	537	537	544	552	550	540	535	541	562	563	564	562	560	562	560	554	547	542	543	542	543	545	547	550	552	561	558	555	548	544	543	546	547	520	522	530	539	546	548	544	539	527	530	535	547	552	544	541	541	539	539	541	543	544	545	542	531	538	540	542	548	551	547	547	541	539	541	564	561	553	545	547	551	549	545	543	543	545	552	556	559	562	561	558	555	552	553	561	556	555	554	555	554	540	540	541	543	541	537	537	536	533	540	543	546	548	545	543	538	532	533	541	544	538	527	526	528	535	537	534	537	536	534	534	535	538	536	531	532	538	536	536	536	538	542	544	534	535	535	535	536	538	540	545	543	543	540	540	538	541	538	550	551	548	544	545	544	546	547	548	546	543	535	537	538	534	528	525	521	518	519	523	530	534	536	539	542	543	542	537	534	531	528	527	528	529	525	515	510	504	510	520	526	533	537	534	528	525	525	525	518	520	520	516	511	510	513	516	518	517	518	520	521	517	512	504	509	520	530	534	532	524	520	518	518	516	516	519	520	520	516	512	507	512	518	522	520	515	515	518	522	524	529	525	521	520	524	527	523	517	514	514	511	512	511	511	514	517	518	516	514	512	516	516	515	521	528	533	536	532	525	522	516	511	511	513	516	519	520	515	513	511	522	522	519	516	506	507	508	510	510	514	520	521	512	511	510	508	505	507	512	515	516	511	509	510	510	510	510	516	513	515	513	512	514	511	508	513	516	516	513	512	520	526	530	531	529	526	517	509	512	516	517	518	519	519	520	518	516	517	515	516	519	522	522	519	519	512	508	508	508	508	509	508	507	510	518	529	519	506	503	497	496	505	507	508	508	500	497	499	497	493	491	493	497	501	503	506	505	501	498	501	506	508	508	504	500	498	495	494	495	507	508	511	512	511	499	493	491	489	489	489	489	491	494	494	493	492	491	493	496	497	496	498	498	500	502	498	493	488	489	492	499	501	499	497	494	496	497	496	492	491	491	494	494	496	499	499	498	498	499	498	499	498	503	506	505	504	494	489	487	488	488	490	492	494	496	497	496	497	494	487	484	485	490	495	500	500	500	491	490	496	500	504	504	502	501	502	504	505	503	500	499	497	494	493	488	486	491	494	498	498	502	500	497	496	498	498	499	498	497	495	492	487	485	486	486	485	482	482	0	0	0	0	0	0	0	0
542	547	550	550	553	556	555	550	550	547	551	559	563	563	563	560	557	559	562	564	564	564	564	568	570	568	537	537	532	531	531	536	540	544	548	548	550	550	550	549	550	544	544	549	549	549	553	556	556	558	561	561	562	562	557	549	549	548	552	560	566	567	570	566	558	554	554	552	552	550	550	548	548	553	556	556	551	543	542	543	544	551	551	549	548	553	555	556	553	553	553	552	552	557	563	563	571	568	552	548	544	544	545	543	538	540	542	545	552	554	549	550	548	548	546	542	535	529	526	532	533	536	539	541	541	537	529	519	519	527	542	548	548	546	544	547	544	539	538	537	535	537	533	529	536	536	528	525	527	535	540	539	536	532	524	520	520	525	531	535	538	536	530	530	524	529	533	536	536	536	534	531	534	538	541	538	533	526	529	529	530	533	542	546	544	537	531	531	533	536	531	527	536	535	543	543	541	538	537	540	544	549	553	544	541	537	535	533	540	540	538	534	531	530	530	527	529	530	532	533	531	529	528	532	536	538	542	540	519	514	515	519	523	525	524	523	521	522	523	527	527	520	516	521	528	529	529	528	525	523	521	523	524	526	524	525	521	525	529	529	527	525	524	526	526	525	528	531	531	528	525	527	524	521	522	536	533	533	538	540	539	538	535	531	528	529	530	529	525	520	513	511	512	517	523	523	524	525	526	528	529	530	530	529	525	522	521	520	516	510	505	500	505	512	521	527	528	526	523	520	519	514	513	516	519	516	518	514	513	511	512	512	511	512	513	509	502	499	499	507	515	520	514	513	513	515	514	505	505	505	507	504	503	502	503	506	514	523	523	516	510	506	509	511	514	515	512	511	512	511	511	505	503	505	507	506	505	506	510	515	516	515	513	508	509	507	509	512	519	529	529	524	520	517	513	508	507	509	509	508	506	504	499	496	495	499	486	492	497	501	502	502	506	515	506	504	504	503	501	499	497	498	502	506	511	510	507	506	506	504	507	506	510	511	511	513	510	503	503	507	510	511	511	508	511	514	515	516	514	515	511	506	507	510	509	510	512	513	511	510	510	507	505	502	500	503	503	504	506	506	505	502	503	501	499	499	501	496	500	499	493	493	493	493	492	496	498	491	494	493	491	485	485	483	485	487	492	493	501	502	500	496	486	485	489	494	496	496	495	489	489	489	491	500	501	502	498	498	489	484	481	480	480	481	486	490	493	491	489	486	485	487	490	492	486	484	485	486	481	478	485	484	487	490	501	502	501	496	493	490	488	487	487	487	489	489	488	489	491	491	489	490	490	497	498	497	485	484	479	474	479	478	478	481	482	487	490	492	489	490	493	492	487	483	482	483	485	489	491	490	487	485	484	487	493	498	493	492	489	487	484	484	487	488	488	489	491	489	484	478	479	475	476	476	479	489	489	491	489	489	490	489	488	488	484	479	473	476	478	480	477	477	0	0	0	0	0	0	0	0
532	537	543	543	547	548	546	542	542	536	536	544	548	549	549	546	543	550	556	555	555	556	558	560	560	532	527	527	525	522	522	529	535	540	539	539	538	535	535	532	528	531	536	539	539	540	541	541	544	547	550	552	553	551	551	543	543	538	541	545	554	545	544	541	540	540	546	545	544	544	544	544	544	545	549	547	549	546	539	538	538	538	543	541	544	544	546	547	536	530	535	544	547	552	553	553	549	543	542	540	538	536	534	529	528	533	536	538	539	533	535	535	537	536	530	530	531	532	533	526	521	523	528	533	534	526	515	512	512	520	525	530	528	531	527	532	535	533	529	526	521	525	530	523	522	525	522	515	515	520	525	530	531	529	523	511	510	515	516	519	526	526	527	520	518	522	525	529	532	534	532	529	532	535	537	534	529	527	527	527	524	524	531	536	534	530	525	524	529	530	527	524	520	517	519	533	533	531	530	530	529	532	527	519	515	518	519	522	519	516	516	520	520	519	518	517	514	513	516	522	526	525	521	528	530	533	536	531	508	509	512	516	518	519	518	517	517	517	518	519	518	513	512	513	514	522	520	515	506	503	508	513	516	514	515	510	512	517	518	518	514	516	514	511	510	511	514	515	513	511	512	512	512	511	511	515	517	524	528	528	525	522	515	512	515	518	520	519	513	512	516	512	509	510	513	513	509	509	513	513	511	513	514	523	521	518	514	510	508	506	501	497	496	500	505	512	517	518	511	508	507	505	506	511	513	515	515	513	513	507	504	506	507	509	511	509	504	498	494	495	498	504	506	507	507	510	505	499	496	496	490	491	496	497	498	500	506	515	506	504	503	502	503	505	508	506	504	504	505	507	503	500	503	501	495	490	490	490	492	497	497	492	492	493	494	495	496	500	507	508	509	512	517	515	510	504	504	502	503	501	501	500	497	491	482	480	480	487	492	495	495	497	496	498	498	495	491	494	493	488	490	491	493	498	499	505	504	501	501	501	495	497	505	510	514	512	510	507	496	499	496	501	502	494	499	504	507	509	508	507	500	492	499	501	502	502	504	505	503	504	503	497	492	491	494	496	497	498	501	501	495	494	491	490	490	491	488	488	484	480	484	489	490	488	464	459	467	474	472	472	476	477	476	477	481	482	472	469	470	473	474	481	480	480	482	483	484	478	481	476	476	476	478	485	482	479	471	472	473	472	473	474	472	474	479	484	489	487	483	481	482	483	484	481	478	477	478	478	475	475	472	477	480	484	498	497	496	492	488	484	481	484	483	483	484	480	481	479	481	480	481	481	483	486	491	486	480	476	468	466	467	470	473	474	478	480	483	483	475	477	481	484	482	482	482	485	483	480	477	477	480	478	478	479	478	478	478	476	476	475	474	478	478	478	477	480	484	484	481	475	469	471	472	472	475	475	479	479	478	477	478	480	482	482	479	473	470	465	463	465	465	465	0	0	0	0	0	0	0	0
524	529	536	536	541	542	537	533	533	530	528	531	528	526	526	527	533	549	549	546	546	550	552	554	535	534	529	529	522	519	519	524	528	530	528	528	526	527	526	525	524	526	528	531	531	534	533	532	531	536	540	541	539	539	536	535	535	528	522	523	526	526	529	524	526	529	538	538	534	531	530	531	529	529	530	538	542	539	537	535	532	531	535	533	531	529	536	537	525	520	514	522	534	540	538	538	536	536	536	537	534	528	521	519	525	529	531	529	528	526	527	531	532	530	527	526	526	530	531	529	521	520	522	526	528	517	507	505	510	518	518	516	511	515	516	520	523	523	522	513	509	510	517	518	516	514	515	513	514	519	524	528	526	523	516	509	505	507	509	515	518	521	519	515	513	514	518	524	522	522	522	521	527	531	534	531	525	525	528	513	509	513	517	522	524	525	524	522	521	521	522	520	513	509	508	510	510	512	520	519	520	519	518	510	511	512	513	515	516	514	511	512	512	512	510	508	505	502	503	508	513	513	514	515	515	517	517	515	509	508	508	509	513	513	511	510	511	510	512	511	507	505	504	503	502	499	497	496	495	494	497	500	500	499	495	498	502	506	507	505	505	505	502	502	497	496	499	498	497	496	497	500	503	503	499	498	497	501	502	515	512	509	503	504	505	508	512	504	503	505	503	498	498	501	502	501	503	506	507	504	501	503	501	503	501	500	498	499	498	499	499	498	498	497	496	502	507	500	501	501	504	505	502	500	503	509	513	512	505	498	493	498	504	509	510	507	498	496	490	488	490	494	497	495	495	497	495	486	487	485	483	483	485	487	490	493	495	495	497	498	496	495	494	496	498	499	496	496	499	500	495	492	496	494	489	482	481	482	484	482	481	479	485	486	487	491	492	498	499	492	491	491	504	511	506	497	499	500	496	496	496	495	480	480	478	476	478	479	482	489	490	492	496	493	491	488	488	486	485	484	487	488	489	490	490	482	475	477	479	482	487	488	489	492	493	496	500	499	492	485	485	486	486	484	486	493	500	499	496	499	491	481	484	490	494	497	500	503	501	497	493	489	486	485	485	487	487	493	493	492	490	487	486	485	483	480	476	471	474	478	482	473	470	466	461	455	458	459	460	463	464	467	467	467	465	467	468	469	471	469	469	467	471	473	476	477	478	474	470	466	463	464	466	472	473	467	463	463	464	466	467	467	467	470	476	481	485	482	476	473	472	477	479	475	470	470	468	469	471	469	469	468	467	467	474	479	483	481	478	477	479	480	480	480	480	471	467	465	467	470	472	474	477	479	479	475	473	467	467	469	467	469	469	468	471	469	468	467	468	471	473	474	474	477	481	481	478	474	471	466	470	469	471	468	465	462	465	467	467	465	465	467	469	470	473	472	475	477	472	463	462	465	468	468	468	469	471	471	469	467	470	472	475	475	474	472	471	467	465	461	458	458	0	0	0	0	0	0	0	0
518	523	520	520	513	518	522	523	523	522	522	524	517	512	512	517	533	537	536	536	540	540	544	542	531	534	531	523	523	519	518	517	519	520	521	521	520	522	523	523	522	522	523	525	523	523	526	529	527	524	527	528	528	527	524	524	524	520	519	517	518	521	519	513	514	519	527	527	525	521	521	518	516	516	515	525	529	531	522	520	517	521	519	519	517	521	527	528	520	512	505	505	511	516	520	526	528	525	523	521	515	514	514	517	524	524	524	521	520	521	521	523	524	522	517	517	518	520	523	525	520	515	515	520	517	515	503	506	511	516	514	509	502	500	503	508	512	512	511	506	507	507	507	507	505	503	505	506	509	514	519	520	518	515	511	507	501	501	507	512	515	517	516	512	505	507	509	510	508	504	502	502	505	503	498	499	502	507	508	498	498	496	504	510	511	513	513	511	505	502	502	506	506	502	499	501	504	504	501	502	512	514	511	506	505	508	513	514	518	516	510	506	507	508	506	502	501	498	498	501	501	494	496	497	500	504	505	505	506	505	504	496	491	490	491	496	499	506	505	504	502	499	497	495	490	491	491	491	487	486	486	486	484	485	487	491	493	495	495	495	494	491	495	495	491	488	489	488	485	483	486	488	489	488	485	481	482	485	492	492	502	500	501	500	499	501	503	498	497	497	496	494	494	495	496	495	497	501	498	490	487	489	485	489	489	489	488	488	491	493	496	494	496	498	495	494	490	492	494	494	498	501	498	495	490	489	490	492	489	489	492	495	497	494	493	494	495	488	484	483	483	487	489	489	486	479	476	481	477	478	478	478	478	480	484	487	489	488	489	490	488	487	486	483	484	486	485	489	493	493	487	488	492	489	483	478	477	478	479	477	476	474	478	481	484	487	489	492	486	484	485	485	485	491	494	496	495	496	488	479	468	470	472	474	474	472	473	476	479	483	485	487	490	492	488	486	484	482	481	480	483	485	486	485	483	476	475	476	477	481	480	478	475	474	481	485	488	486	484	477	475	478	478	477	478	484	488	485	485	479	484	477	484	487	487	487	481	482	485	483	480	479	478	478	479	478	478	473	473	478	479	485	482	482	479	475	471	467	469	468	467	463	462	460	455	452	454	458	459	461	458	457	460	461	461	463	466	465	469	468	465	464	464	463	469	469	470	467	464	462	460	461	467	466	461	457	456	457	458	461	462	462	462	464	470	473	472	469	467	467	469	473	471	469	462	459	458	463	465	466	468	466	464	462	468	469	469	468	469	468	471	471	472	478	477	469	461	457	461	464	467	469	465	463	467	466	460	462	466	468	465	463	460	456	457	460	459	460	463	465	467	468	468	469	476	476	471	466	459	461	464	465	463	463	461	459	458	461	463	465	465	465	464	465	464	466	463	460	458	458	459	461	463	463	462	461	463	461	458	454	454	459	463	464	465	467	468	467	464	458	458	458	0	0	0	0	0	0	0	0
505	502	502	502	499	505	510	512	513	513	515	515	513	512	512	518	524	528	527	529	535	535	539	521	525	530	530	518	518	513	513	514	513	511	515	515	512	513	517	519	520	514	509	508	513	513	522	528	529	524	518	515	510	513	517	519	519	518	515	513	517	518	512	506	505	508	515	514	512	512	513	514	508	508	510	510	509	509	505	507	510	508	505	503	505	512	518	520	512	505	502	504	509	514	518	517	515	507	505	506	502	500	499	503	507	511	512	510	511	515	515	511	514	507	508	508	510	513	515	513	508	504	499	487	486	497	507	510	516	516	510	502	496	493	496	500	503	504	506	506	505	503	502	499	498	497	498	500	503	507	512	511	510	507	504	501	498	497	498	509	514	515	510	504	496	498	500	501	498	490	491	494	494	491	488	487	491	493	494	497	490	487	486	484	487	495	499	500	495	491	492	494	494	496	494	489	490	492	488	486	492	494	495	502	501	504	510	513	516	513	507	500	492	489	490	488	491	495	495	492	488	488	490	491	493	496	498	502	500	497	499	487	485	486	485	484	488	489	490	494	493	490	488	486	486	483	483	483	481	479	476	479	480	481	484	486	488	490	494	493	489	484	483	484	483	479	475	474	474	474	480	483	481	480	479	476	474	474	475	475	476	481	494	493	491	491	497	494	491	489	489	489	489	488	487	488	484	486	487	484	481	480	481	482	482	482	482	483	484	484	485	485	484	485	484	482	479	483	487	484	485	484	484	482	481	479	477	473	471	472	480	484	487	486	484	480	478	477	477	476	478	480	480	485	484	476	472	472	469	472	474	475	476	476	481	485	484	482	477	476	477	476	474	474	473	477	479	482	485	488	486	489	485	486	480	477	475	476	475	474	473	474	476	479	480	485	487	481	478	474	475	477	479	479	488	491	491	479	464	468	471	473	472	470	470	471	473	473	474	474	473	470	471	476	486	481	478	476	471	476	477	478	481	480	476	475	474	474	475	475	474	474	470	468	469	475	476	477	475	475	473	470	465	470	472	474	474	468	468	469	468	466	472	476	475	473	468	463	462	466	471	473	476	475	472	471	465	459	463	468	472	469	467	467	468	466	455	460	466	468	464	458	452	452	448	450	450	455	453	452	447	450	451	454	458	459	460	459	463	464	466	463	457	459	459	460	459	460	461	460	459	461	464	459	453	450	449	451	454	457	455	450	448	448	462	465	465	459	460	461	464	466	461	459	455	455	455	458	464	463	465	466	463	455	455	460	462	457	455	452	452	449	452	452	452	456	461	459	457	456	455	455	456	459	462	458	456	453	454	462	461	459	458	457	453	454	455	456	457	459	461	460	461	464	469	466	460	454	455	456	457	461	462	462	460	456	457	459	462	465	463	461	455	449	444	440	443	446	452	452	454	454	454	454	453	451	453	452	448	444	445	448	453	455	458	460	460	459	456	459	459	459	0	0	0	0	0	0	0	0
493	491	491	491	493	495	496	501	503	503	509	509	507	505	505	512	517	520	517	516	517	517	507	506	511	513	500	500	500	504	506	507	508	503	503	501	501	503	506	512	512	501	498	500	508	508	518	526	526	514	504	498	495	490	490	493	493	510	512	517	520	519	508	502	501	499	506	504	501	503	504	496	490	490	491	491	491	492	494	499	500	498	491	491	498	504	508	508	504	501	499	499	503	508	509	509	499	492	491	492	494	495	495	497	498	496	493	497	501	507	504	502	497	498	494	495	502	503	504	503	499	496	491	484	482	484	506	511	513	509	501	495	492	492	494	496	496	501	500	502	501	498	494	491	491	492	494	497	497	498	502	503	502	501	497	494	492	489	491	496	499	499	497	491	489	490	492	493	488	487	484	484	487	483	480	478	483	485	485	484	482	477	474	476	484	495	498	496	492	487	486	487	488	490	488	474	472	476	480	482	485	488	489	491	494	500	503	488	487	491	487	494	495	482	482	483	487	489	487	484	484	486	489	488	488	492	492	495	485	482	481	477	476	481	481	480	473	472	473	474	483	483	483	482	482	483	481	480	477	474	471	475	476	479	480	481	480	485	489	485	477	475	478	481	477	474	471	470	473	475	474	471	469	467	467	465	465	463	462	464	471	473	475	474	481	480	480	480	479	476	472	469	470	475	478	480	484	478	477	476	477	477	478	478	478	476	476	480	473	472	473	475	475	475	478	474	469	463	464	467	472	473	476	478	478	475	473	468	464	466	464	476	480	480	476	472	470	469	467	470	470	467	468	469	472	471	466	462	458	463	471	475	476	476	478	478	480	477	469	465	462	460	460	460	462	469	469	468	469	472	477	483	483	482	478	476	473	470	468	468	472	473	475	477	480	482	480	477	473	472	469	469	472	474	483	482	463	459	456	459	465	467	466	467	466	469	471	470	458	455	456	460	465	465	464	471	466	461	464	466	469	469	474	474	462	464	468	469	467	462	458	463	462	461	462	465	468	470	471	471	468	457	459	459	461	460	458	459	460	462	460	452	452	454	464	460	461	459	460	464	468	472	470	467	465	462	461	459	462	465	467	465	462	459	451	448	449	456	463	465	462	453	447	447	445	444	444	444	443	438	443	447	446	450	450	450	452	452	456	459	459	456	454	454	455	449	449	454	459	460	460	459	458	453	446	445	445	445	445	447	446	443	440	435	439	436	440	446	444	444	447	452	452	450	449	450	452	454	454	460	461	460	455	449	443	446	449	447	447	444	444	445	445	446	446	450	457	457	457	455	453	447	451	454	456	454	449	447	446	446	451	457	459	458	455	451	451	449	451	453	454	452	455	458	458	458	449	450	451	450	451	452	450	455	451	451	451	452	453	454	453	447	444	443	440	438	439	444	448	449	451	450	450	446	443	444	446	443	439	440	442	443	447	446	448	452	454	454	454	459	459	460	0	0	0	0	0	0	0	0
483	487	486	486	494	496	494	494	495	495	497	495	493	497	504	504	509	513	516	515	511	511	493	489	492	491	486	488	488	489	494	495	492	493	492	495	495	496	497	500	499	495	492	493	503	503	513	518	510	503	495	489	481	480	480	483	483	491	494	497	499	500	499	495	492	491	487	485	487	491	491	485	485	485	488	488	485	485	487	492	494	489	485	483	489	495	501	500	495	494	494	493	494	500	502	496	493	489	484	486	488	485	480	481	488	487	485	487	488	490	487	485	483	481	483	478	473	479	482	488	489	490	491	487	482	477	497	505	503	499	489	486	484	491	493	491	489	485	491	497	496	491	485	483	485	486	489	492	490	486	488	493	497	494	489	486	484	482	483	487	491	494	493	487	485	486	486	482	478	471	468	471	476	473	470	474	479	479	476	474	471	470	470	474	486	490	492	491	484	478	480	481	485	483	480	474	470	470	474	477	480	484	487	487	487	486	480	477	478	481	481	485	484	488	480	481	483	481	478	481	482	483	484	485	484	484	481	477	476	476	472	469	469	471	472	471	471	470	472	472	472	473	479	481	479	476	475	475	471	469	469	465	463	462	460	465	470	479	476	471	467	470	474	476	477	469	468	472	472	469	466	464	460	460	459	460	460	460	460	463	465	468	468	465	463	462	470	471	469	466	464	464	465	469	473	477	477	476	475	473	473	471	468	467	470	470	471	470	465	458	467	469	470	472	474	470	466	463	460	461	465	467	470	472	472	471	463	464	462	463	460	463	471	472	469	466	463	462	460	459	456	452	452	455	462	468	462	458	456	460	472	475	476	475	474	467	464	466	463	462	459	458	455	452	452	456	456	451	450	452	463	475	476	472	465	463	463	462	463	462	466	469	471	468	468	470	472	474	473	473	466	463	463	473	470	465	462	458	457	456	455	457	460	462	460	463	463	457	452	450	449	450	452	452	453	457	454	458	460	463	465	461	459	458	456	456	458	458	444	443	447	451	456	459	459	460	454	453	460	458	454	453	455	455	449	449	448	451	456	459	457	453	449	449	447	445	451	452	456	459	461	461	461	457	454	451	454	453	455	456	459	446	453	450	446	442	443	450	458	459	455	452	451	441	437	434	434	434	433	436	440	440	439	437	438	442	440	441	447	448	445	443	441	444	445	443	445	450	454	432	432	434	451	445	440	439	439	439	437	437	440	439	436	433	430	432	431	427	428	429	430	436	440	442	442	444	446	448	450	450	453	450	444	443	442	442	441	440	438	440	440	442	443	444	444	443	450	452	452	453	449	445	442	445	447	447	445	442	438	438	440	446	448	447	446	446	444	444	446	448	445	444	447	447	449	447	443	444	445	444	444	443	444	439	442	446	449	449	448	446	441	440	437	437	438	438	435	439	443	446	448	446	446	442	438	436	434	436	436	437	437	435	435	436	437	433	434	435	434	435	435	442	0	0	0	0	0	0	0	0
472	478	489	489	495	497	494	491	488	488	482	481	484	486	493	493	499	508	513	511	504	497	485	476	477	479	483	484	484	480	481	479	482	483	485	486	486	489	492	491	491	489	486	489	494	494	499	500	492	488	484	480	479	475	474	477	480	480	480	480	480	480	479	481	484	486	483	481	481	481	482	483	484	484	488	486	483	481	483	486	485	481	480	482	487	491	490	485	481	485	485	483	483	485	488	487	492	491	485	481	476	471	465	466	469	477	482	483	480	480	481	483	486	485	480	474	466	460	462	464	470	479	486	486	481	475	475	476	476	472	474	474	477	481	488	489	482	478	477	481	477	473	475	474	473	468	471	485	481	478	478	481	481	484	471	465	465	466	468	473	477	479	477	474	470	474	473	473	469	463	459	459	464	466	468	473	476	476	472	467	463	461	459	466	472	476	480	480	480	480	477	472	473	472	477	475	471	468	468	468	472	477	477	475	468	468	476	472	465	466	474	479	477	474	474	474	468	471	472	477	480	477	478	478	478	474	465	465	470	472	467	462	463	466	468	467	469	469	470	470	470	467	466	465	465	465	462	458	457	458	456	457	453	453	457	461	461	460	461	462	462	466	470	469	467	472	467	470	469	464	459	453	452	453	453	455	454	456	460	465	461	456	452	453	459	460	459	445	450	450	451	452	455	456	462	473	472	464	464	465	465	465	464	464	467	466	465	464	460	457	457	465	468	470	471	468	465	461	458	457	459	456	460	463	466	467	460	460	464	460	458	456	460	464	464	460	459	457	454	453	452	451	451	452	457	461	465	456	455	456	459	464	471	469	463	458	458	455	454	454	455	452	452	451	450	449	446	442	446	448	454	454	456	457	458	455	454	454	458	459	461	467	467	463	462	464	468	463	457	456	451	455	451	458	464	464	461	458	456	454	450	447	452	456	456	447	445	449	449	448	447	448	451	452	455	454	453	452	455	458	458	454	453	452	449	449	449	447	437	439	442	447	452	456	458	450	441	441	444	444	444	449	451	448	446	442	441	441	443	445	451	449	443	441	437	432	441	443	442	439	442	445	450	451	447	446	449	443	441	426	429	432	437	444	441	431	427	427	429	431	433	436	442	443	438	431	429	428	429	434	435	434	434	431	430	432	435	437	440	441	440	435	433	433	433	435	438	441	423	424	416	416	439	436	434	433	433	434	434	436	437	436	434	429	424	422	426	425	421	426	428	433	435	438	437	437	438	439	443	444	442	437	438	440	439	437	435	435	434	434	435	437	439	439	436	438	439	441	446	447	445	441	436	432	432	439	439	438	433	433	437	439	440	441	437	430	437	436	437	436	436	438	440	437	435	437	436	436	437	438	436	439	433	433	437	440	444	444	442	440	437	435	436	438	437	439	434	435	438	440	441	441	441	439	435	431	427	422	421	425	425	427	429	428	432	431	427	425	419	414	414	423	0	0	0	0	0	0	0	0
470	478	487	492	492	492	488	486	481	481	480	476	479	481	482	482	488	498	503	504	497	483	474	470	469	472	478	476	476	473	473	473	474	476	474	476	476	479	482	483	481	478	476	476	476	476	478	478	475	474	473	475	477	474	474	474	476	476	475	474	475	472	472	471	476	481	482	482	483	482	481	479	481	484	484	486	487	484	481	479	476	473	475	478	484	486	485	483	480	481	478	475	473	475	473	476	477	484	482	476	472	467	466	464	469	477	480	480	479	477	475	476	476	480	480	472	465	459	460	463	468	474	479	481	477	471	464	462	460	459	462	467	470	476	481	479	474	468	466	465	463	462	464	465	465	463	465	468	472	469	469	472	468	464	459	461	459	462	464	467	472	474	471	468	464	468	468	472	468	462	462	462	463	464	467	472	472	472	470	464	462	460	457	460	462	466	474	476	477	478	473	470	468	469	470	470	461	462	463	461	462	461	460	455	454	456	458	458	457	457	461	462	460	464	462	461	461	464	467	472	478	473	471	467	463	461	458	459	465	469	463	458	459	461	464	464	463	462	462	467	464	463	459	453	451	453	455	453	446	448	453	456	452	452	453	454	457	455	455	455	457	456	460	460	460	465	469	470	466	458	450	447	444	443	447	451	453	456	458	454	452	452	451	447	447	444	438	431	450	454	453	451	451	451	453	450	453	457	458	460	462	462	462	463	463	463	460	455	453	452	453	456	463	466	464	459	455	452	449	450	450	450	451	453	446	446	452	455	459	458	453	453	456	458	458	456	453	452	450	452	451	451	448	448	449	453	459	454	453	452	452	453	452	452	451	455	452	447	444	444	447	449	448	448	449	447	444	442	440	439	442	444	446	450	451	449	446	449	454	456	457	459	460	459	459	460	459	454	449	446	439	442	449	456	451	444	441	456	455	450	443	440	437	437	435	433	432	433	441	436	439	437	438	439	444	445	443	443	442	444	447	447	446	443	445	444	442	437	432	432	438	441	443	442	442	437	433	433	434	442	443	444	446	447	442	439	436	435	439	440	439	438	441	433	432	435	434	435	434	434	434	435	438	439	443	444	441	422	419	419	421	422	423	423	424	421	417	416	416	417	419	423	428	436	431	425	420	421	424	431	432	429	426	420	415	414	414	430	430	431	432	426	425	427	430	430	426	417	417	414	414	414	425	428	429	429	425	422	422	424	425	426	428	421	419	420	421	419	417	421	423	428	430	433	432	433	436	439	441	437	430	427	430	433	432	431	427	429	430	430	430	430	430	429	429	428	424	425	420	426	423	428	423	423	423	420	418	419	420	424	423	425	425	425	424	420	416	414	413	421	421	425	427	427	423	424	425	424	423	431	429	428	428	431	432	434	436	435	427	432	431	430	428	433	438	433	428	426	429	433	435	435	435	432	431	428	422	417	417	418	421	420	423	425	429	427	426	423	416	409	409	412	0	0	0	0	0	0	0	0
472	478	483	484	484	482	477	476	478	478	479	481	481	479	476	476	474	481	489	490	471	471	467	463	464	467	471	468	468	471	472	471	471	464	466	470	470	469	472	466	465	465	466	467	468	468	470	470	470	470	472	475	475	474	472	473	470	470	467	467	467	466	462	463	468	474	477	481	483	481	474	464	464	470	470	472	471	472	474	469	463	455	453	457	460	460	463	467	470	472	473	468	462	459	464	469	471	469	468	469	470	469	467	465	469	474	476	473	471	471	471	470	463	462	468	467	465	465	467	468	468	470	470	470	468	467	461	462	461	457	457	461	467	471	473	471	464	459	455	454	456	458	462	463	462	461	460	458	455	456	454	454	455	455	455	457	457	457	460	460	464	464	463	463	461	462	468	469	468	467	466	465	463	463	464	465	461	462	464	461	462	461	459	459	461	460	462	465	466	471	470	462	462	462	461	457	453	455	453	459	459	458	454	450	452	455	457	456	453	449	450	454	453	452	453	456	456	460	464	466	466	472	460	459	458	458	457	456	460	464	457	454	451	454	459	460	457	458	450	447	452	454	448	443	445	448	449	441	441	444	450	455	452	449	449	449	445	450	448	448	444	446	450	452	457	461	467	467	461	453	449	447	446	446	443	447	448	450	449	445	447	447	447	444	441	439	435	431	434	446	448	449	443	447	450	448	447	448	451	454	456	457	459	458	458	457	457	453	442	446	446	447	446	453	455	454	451	449	446	444	440	441	439	436	431	432	436	441	455	454	446	441	446	453	450	448	430	430	432	433	443	444	444	440	441	445	448	453	448	448	450	451	449	450	457	451	445	441	438	438	440	443	445	444	443	445	444	442	437	434	435	440	445	445	445	442	438	436	435	450	456	455	453	455	456	455	452	446	437	435	436	438	441	439	435	434	432	430	426	427	430	434	437	439	437	432	429	425	425	422	425	431	433	431	433	437	434	431	429	431	434	434	436	437	439	438	433	430	431	431	434	433	432	434	431	426	426	427	425	425	426	427	427	426	428	434	430	431	436	432	430	432	430	425	425	429	435	436	434	430	428	429	429	430	423	411	409	412	412	414	419	419	418	416	416	416	417	416	416	415	416	416	416	426	421	419	415	411	412	415	422	427	426	423	414	409	407	421	426	426	424	421	423	423	423	424	414	411	411	413	412	416	416	423	422	423	419	420	419	420	422	423	417	414	417	419	418	416	414	419	421	423	423	424	425	431	432	435	436	435	427	420	422	424	423	418	418	420	411	416	423	423	414	412	413	412	412	412	418	418	418	417	415	413	414	417	417	415	415	415	415	415	417	419	419	415	412	410	412	411	413	419	419	421	424	421	416	416	416	417	418	418	419	423	423	419	417	421	419	419	419	419	417	421	417	415	415	417	419	420	421	421	427	430	429	423	418	415	414	413	412	411	412	418	424	422	422	419	412	407	407	409	0	0	0	0	0	0	0	0
469	473	475	476	476	470	465	469	471	471	475	481	477	473	469	469	467	469	475	473	463	463	462	463	460	457	457	457	457	460	461	464	463	461	461	462	462	460	459	458	457	457	458	456	457	460	460	463	466	468	471	472	466	462	462	463	462	462	459	459	460	459	457	456	457	461	467	472	473	465	458	457	457	459	459	456	457	468	471	469	457	457	454	450	450	453	457	456	459	460	460	454	449	450	458	463	464	462	460	461	468	467	466	464	468	467	465	461	456	452	453	456	455	454	456	458	461	462	462	462	459	464	463	465	464	462	460	460	458	455	455	458	463	464	466	462	456	452	445	446	451	456	459	458	458	456	454	454	454	454	456	456	456	453	451	452	454	453	457	457	459	459	459	457	458	461	462	462	462	465	466	464	464	459	453	445	444	445	456	458	462	464	460	455	456	456	454	455	455	453	450	444	454	458	457	451	448	449	446	448	455	449	448	447	450	452	454	451	449	448	448	450	449	436	432	431	433	448	449	456	456	455	455	454	455	456	457	457	454	452	446	445	444	444	444	444	446	447	448	444	443	444	439	436	437	440	440	439	436	437	447	452	450	447	447	446	443	437	433	435	436	438	439	442	443	445	448	447	446	444	444	443	441	442	447	448	448	443	442	441	440	443	442	439	438	435	435	434	436	438	439	442	441	440	440	440	437	440	445	449	452	455	455	453	442	441	439	434	434	435	441	439	437	435	443	444	444	446	443	441	438	437	437	433	429	429	432	433	437	437	437	437	435	438	429	429	430	420	423	420	428	431	427	426	427	430	444	444	440	440	443	445	450	452	449	446	441	437	433	433	439	442	441	437	437	441	443	440	436	433	432	438	443	444	441	435	433	433	430	431	446	448	450	454	453	449	433	431	430	430	426	421	426	428	429	428	426	422	420	422	427	428	428	434	433	430	427	423	419	419	419	422	428	426	426	432	433	430	428	424	425	427	429	430	430	429	429	426	428	431	430	430	429	426	423	420	422	425	422	418	413	416	422	421	421	420	423	428	431	429	426	426	426	421	420	420	429	432	429	425	421	419	410	409	410	409	403	408	410	416	417	417	417	416	415	416	416	413	412	412	415	415	414	419	415	411	407	407	411	408	413	418	426	422	414	407	405	411	423	423	420	413	419	421	415	406	403	404	407	409	410	416	414	412	415	416	413	413	412	411	411	409	405	409	412	416	409	398	399	402	417	418	415	413	416	419	424	423	425	424	420	408	401	405	401	401	406	404	404	408	412	411	409	406	405	405	407	411	415	414	413	413	411	412	413	413	413	412	410	408	408	408	410	413	410	408	406	407	409	405	410	415	418	414	414	414	410	410	411	412	411	412	413	411	412	413	413	412	411	408	406	406	412	419	416	413	412	413	415	418	422	422	422	425	424	420	416	412	410	409	406	408	408	409	410	412	412	410	407	407	407	407	0	0	0	0	0	0	0	0
458	456	453	448	448	451	453	453	458	458	468	466	461	462	463	463	460	458	460	451	456	460	460	461	455	452	451	448	449	449	454	457	459	456	456	454	454	452	448	448	448	450	450	452	454	455	455	455	457	462	460	445	443	445	450	454	454	454	453	455	457	455	452	448	450	452	458	462	461	457	456	454	457	454	454	451	448	449	459	457	454	454	453	449	445	447	449	451	449	450	450	451	447	447	452	456	451	453	454	454	447	445	447	450	453	449	452	456	454	450	444	439	440	443	445	444	436	436	439	442	445	446	444	445	446	447	448	445	448	454	455	456	458	457	453	448	445	441	436	435	440	446	450	453	456	456	454	451	450	451	453	455	454	450	442	439	440	446	452	453	452	453	452	452	446	455	456	439	438	439	444	447	450	449	444	440	437	434	435	440	447	446	447	449	452	451	450	449	449	439	434	440	449	453	453	449	444	442	444	446	446	445	441	441	443	443	442	443	445	446	445	445	444	433	430	431	434	442	442	441	443	444	450	451	452	453	453	450	445	439	438	437	438	440	443	440	439	440	442	440	439	437	438	435	435	433	432	430	429	434	437	439	441	442	446	443	440	432	437	434	433	436	437	436	434	434	433	432	431	429	433	432	432	430	428	433	440	445	442	436	433	432	431	428	430	432	433	430	429	430	435	433	434	434	428	423	423	429	430	432	437	440	442	439	436	438	439	438	433	432	435	434	432	430	429	437	440	441	436	435	433	433	431	427	425	426	427	428	429	430	430	429	427	423	421	417	414	426	413	423	426	432	428	423	423	426	429	429	429	434	437	440	440	442	440	435	434	430	429	429	430	435	433	429	431	435	432	430	427	423	428	436	442	442	437	430	428	427	425	425	424	427	431	431	428	425	421	419	418	413	409	411	414	419	421	422	421	418	416	418	418	416	417	421	423	425	423	422	420	416	418	418	422	419	415	427	431	428	424	422	417	413	415	413	415	421	423	422	426	427	428	425	424	421	416	414	418	421	417	414	411	413	418	424	420	420	416	416	427	425	425	422	422	418	417	417	418	413	414	413	407	407	407	408	409	409	404	403	406	412	414	415	415	414	414	414	413	412	410	412	418	418	413	412	412	408	405	411	411	408	408	409	412	410	403	398	398	404	405	404	415	412	408	407	403	401	400	400	402	407	412	414	411	407	406	409	410	410	406	404	399	397	399	403	407	408	401	396	395	401	410	412	412	407	404	395	393	396	401	403	403	393	395	401	400	400	399	399	401	405	406	402	398	398	398	399	404	406	408	409	410	403	402	400	406	405	410	406	404	403	403	404	402	400	400	397	398	400	404	403	400	405	409	411	410	408	406	406	409	412	412	410	407	409	408	412	411	410	410	407	405	405	405	400	391	390	394	400	402	404	406	406	406	402	411	411	408	403	407	407	403	400	402	402	400	397	403	393	394	394	398	405	0	0	0	0	0	0	0	0
442	440	430	433	433	440	444	447	446	446	450	452	454	455	453	453	452	446	446	447	452	458	458	456	452	447	444	442	441	441	447	449	452	451	445	448	447	447	444	441	438	442	447	451	452	452	452	453	454	456	447	438	438	444	451	456	457	457	456	455	453	451	447	446	447	447	447	450	454	456	453	452	454	450	446	446	442	441	442	445	445	447	448	448	443	443	445	444	442	438	444	448	448	444	440	438	446	446	444	441	436	434	434	438	444	444	445	446	448	443	439	438	436	438	438	433	431	432	435	439	441	435	425	423	427	431	435	433	435	445	445	451	448	444	438	436	433	430	428	430	435	440	443	450	453	454	453	449	446	448	449	447	447	445	437	434	433	434	438	440	441	440	437	433	430	438	438	432	432	433	437	442	445	444	442	439	435	432	430	433	434	436	438	439	438	442	444	444	440	434	430	435	439	443	443	443	440	437	440	439	438	436	435	434	434	432	426	426	433	440	438	435	433	431	429	429	431	422	424	422	422	436	436	432	430	432	437	436	430	429	431	429	429	435	439	438	437	438	439	436	434	433	431	433	429	424	422	424	423	427	429	428	425	426	435	434	430	437	436	432	430	431	433	433	433	431	428	430	433	435	425	419	417	416	419	422	426	439	437	433	430	430	431	428	423	422	423	425	423	428	434	431	425	421	418	418	421	422	423	424	430	433	431	430	431	434	436	435	430	428	428	428	426	422	419	420	423	428	429	430	428	423	418	419	420	415	420	421	423	423	425	421	419	418	414	415	413	419	413	420	418	428	427	421	418	418	423	430	430	431	431	434	424	420	421	421	424	425	427	425	422	420	419	421	420	423	418	416	421	421	423	429	430	430	429	430	429	429	428	429	427	424	426	424	421	417	417	416	416	411	408	409	409	409	412	415	417	416	414	414	413	412	409	406	412	420	421	421	419	417	419	417	415	412	410	410	426	426	422	415	409	406	408	409	413	415	420	421	423	426	424	423	420	415	412	411	412	418	414	410	410	409	410	416	415	413	414	413	408	408	411	415	417	418	418	415	414	410	403	401	403	406	406	407	408	407	401	400	399	404	408	410	410	410	409	409	409	408	409	413	416	415	410	407	402	399	400	400	398	396	397	401	405	405	401	398	398	399	395	397	398	400	401	401	401	400	397	399	398	401	405	406	405	400	399	398	404	406	399	395	394	394	395	399	402	402	397	396	393	393	392	404	400	400	392	391	387	390	395	398	393	394	396	399	396	394	395	396	398	401	400	397	395	396	396	396	399	399	399	398	396	396	395	390	391	400	405	403	401	399	400	399	390	391	390	391	391	396	398	397	396	397	402	408	407	405	402	402	404	405	402	399	397	398	400	407	408	407	406	404	402	396	390	389	388	392	399	400	395	388	385	393	397	398	392	398	400	398	403	405	401	396	393	394	394	394	394	391	393	393	393	397	0	0	0	0	0	0	0	0
422	420	420	426	426	437	442	442	441	441	441	445	444	440	442	442	441	442	439	444	449	448	448	445	442	437	431	430	436	436	440	445	443	440	440	443	441	441	434	430	434	440	444	446	448	447	447	448	449	438	437	436	437	441	447	453	453	451	451	451	445	441	439	442	444	444	444	444	448	450	451	450	448	445	441	441	437	435	436	440	440	443	445	445	436	430	426	426	424	426	429	435	435	432	430	431	434	436	435	434	433	433	433	432	435	436	435	434	435	433	432	430	428	429	436	436	433	431	433	436	433	428	422	421	425	429	430	427	424	422	438	437	435	433	434	435	433	429	428	430	436	440	437	436	436	436	445	443	444	443	433	430	428	432	428	426	429	431	432	431	430	429	426	426	427	426	431	431	429	431	435	439	441	438	431	427	427	429	430	433	432	432	426	420	422	428	431	431	421	419	419	421	424	427	429	432	430	431	432	434	433	432	430	428	425	423	421	422	425	428	428	426	427	429	426	417	415	415	418	420	423	424	424	422	424	419	418	422	419	421	424	429	425	427	435	435	434	434	434	432	427	425	422	416	416	413	413	416	422	426	428	427	424	419	419	419	422	431	432	428	426	426	429	428	427	425	426	426	429	434	430	416	414	412	414	416	417	415	414	418	422	425	420	416	419	416	416	417	419	425	428	427	421	417	415	414	414	419	421	420	421	420	425	426	427	429	431	431	426	426	424	420	418	417	417	418	420	415	412	410	411	413	413	414	413	409	412	417	418	419	418	416	416	411	408	413	423	412	419	413	417	422	415	413	414	415	416	421	424	426	420	417	409	412	414	419	427	430	426	426	422	420	415	409	412	412	413	412	413	420	421	420	420	417	414	413	414	419	415	414	416	413	410	408	405	404	409	413	414	408	405	407	409	407	406	407	412	414	413	412	409	407	406	405	404	404	409	411	411	411	410	412	411	409	407	407	407	420	416	412	404	405	406	409	411	413	416	416	414	409	408	408	408	408	407	408	408	407	407	408	407	410	406	408	407	407	406	405	399	397	395	399	402	406	410	411	411	413	409	404	403	402	403	405	404	396	393	393	392	395	399	405	405	404	401	401	402	402	407	410	408	405	400	397	394	394	393	393	395	394	394	396	398	401	398	398	398	395	396	393	390	392	397	399	399	398	395	391	394	397	399	400	397	396	397	393	395	393	393	393	393	393	395	396	397	395	392	394	393	389	383	386	385	385	386	383	380	384	390	392	396	399	397	395	393	393	393	395	396	394	393	395	393	393	393	392	389	390	390	391	393	395	394	389	387	397	396	395	396	394	395	389	386	385	385	386	385	392	394	395	393	394	396	400	404	399	396	398	398	390	389	390	387	386	392	395	398	400	391	389	388	387	390	390	392	390	395	393	390	387	387	387	390	389	392	393	396	395	397	396	395	394	394	394	388	390	393	392	389	389	388	386	0	0	0	0	0	0	0	0
417	416	417	423	423	434	441	442	439	435	435	434	433	433	436	437	437	438	430	432	436	438	438	437	430	427	425	423	425	425	428	432	435	434	434	436	435	435	429	428	430	437	440	438	438	435	435	430	431	434	433	434	435	437	440	447	448	447	447	441	437	433	434	434	440	442	443	444	444	445	446	446	444	441	438	438	435	433	434	436	429	431	434	434	427	423	420	422	427	427	427	431	432	430	427	426	428	428	429	428	429	430	432	431	429	427	426	425	426	428	428	426	425	431	432	431	426	426	426	427	426	423	419	419	417	417	417	418	416	416	419	417	415	423	427	432	431	429	427	430	432	430	428	421	420	420	420	423	425	421	419	417	425	426	428	428	427	429	430	429	427	424	423	423	424	425	425	421	420	424	428	427	425	416	412	414	419	424	424	420	419	420	417	418	420	423	426	424	419	413	413	416	419	422	422	423	421	425	424	419	418	424	424	424	417	416	416	418	419	419	423	427	428	425	414	411	411	413	414	416	420	422	422	422	419	417	418	418	420	423	422	429	423	427	431	435	433	430	425	420	418	416	413	413	412	412	413	413	417	415	413	410	410	411	413	413	418	421	423	420	421	422	424	422	422	421	419	419	426	423	419	415	411	410	410	413	411	408	406	408	411	411	409	408	408	407	409	407	409	416	424	423	412	409	408	406	406	408	408	408	409	411	411	411	411	423	426	424	419	409	411	415	413	411	412	411	415	414	408	406	408	409	408	409	409	402	404	412	414	414	413	412	410	406	408	409	416	421	419	418	416	415	412	410	411	411	411	414	419	415	414	413	415	416	417	417	417	418	418	420	415	410	406	405	405	406	407	408	412	413	417	413	412	413	413	408	406	407	409	410	410	410	408	405	401	400	402	407	407	405	404	403	401	400	400	403	407	410	413	413	408	405	404	401	399	397	395	396	401	404	408	408	409	407	405	404	404	405	405	406	405	404	403	404	398	408	414	413	409	410	406	403	401	403	402	402	396	400	403	404	406	406	406	402	398	397	391	392	396	398	398	395	394	394	389	393	392	390	389	386	392	400	404	404	392	392	395	392	390	388	389	393	397	398	397	395	394	396	400	404	404	400	395	392	390	388	390	390	391	392	392	392	392	392	392	386	390	393	395	395	393	390	387	384	395	396	392	391	389	389	389	391	393	393	393	390	393	392	393	393	394	394	394	391	391	392	394	393	388	383	380	378	382	384	383	381	380	388	393	397	402	399	391	391	390	392	393	393	393	387	386	384	389	389	388	383	380	383	382	382	383	385	386	384	382	380	378	379	378	379	384	385	385	385	383	382	382	388	391	391	389	388	389	391	389	390	389	388	385	384	384	384	385	385	386	388	390	388	380	379	384	385	386	388	389	387	384	383	384	386	386	387	386	388	389	389	388	394	391	389	385	385	390	393	398	395	392	390	388	388	386	383	0	0	0	0	0	0	0	0
418	418	419	423	423	430	440	441	436	429	429	424	424	427	430	431	431	432	420	422	423	423	423	424	425	423	422	420	421	421	424	429	432	431	429	428	429	429	426	425	432	437	438	434	433	431	431	427	423	418	418	422	427	430	432	432	435	436	436	434	433	432	428	429	434	439	438	438	441	443	444	443	440	438	435	435	432	428	428	426	424	421	422	423	421	419	420	427	432	431	429	426	425	427	424	424	423	421	421	422	423	419	419	422	422	419	418	418	418	418	423	421	420	418	423	423	420	420	419	419	422	419	416	414	413	414	412	412	414	414	415	413	412	411	411	413	416	421	425	418	413	412	410	406	402	406	409	412	416	421	418	414	414	417	419	415	417	417	426	426	424	420	419	419	420	421	418	416	416	419	421	420	414	413	412	411	413	415	410	406	410	413	416	418	418	423	423	418	416	409	409	410	413	416	416	415	417	422	421	416	414	413	414	414	414	414	416	418	417	415	416	423	425	423	410	409	409	411	411	413	406	404	405	408	416	418	418	416	418	416	414	416	415	416	420	425	425	420	415	418	413	412	411	410	410	412	414	414	413	410	405	404	407	405	404	404	406	409	411	414	414	416	418	419	417	414	412	411	416	411	410	408	411	410	411	410	409	404	405	405	407	408	407	407	403	402	402	400	400	404	415	415	408	407	406	404	401	402	400	401	403	402	402	399	396	398	400	399	411	409	410	409	402	401	402	410	413	411	406	403	403	405	405	402	401	396	396	405	409	407	406	406	404	404	403	406	410	414	414	412	408	412	410	406	406	407	409	410	411	400	398	403	408	410	404	399	395	396	398	405	407	406	405	405	404	401	403	399	405	409	408	408	407	407	406	402	401	400	402	405	406	407	406	404	401	403	404	405	406	404	404	402	401	399	397	400	404	407	410	411	404	404	405	404	402	397	393	393	395	400	403	403	405	404	400	400	398	399	401	402	405	406	402	398	396	393	404	410	413	413	408	401	396	396	393	390	392	393	395	398	406	407	406	404	393	387	386	388	395	397	398	395	390	386	385	384	383	385	387	388	387	390	393	394	390	390	392	391	387	385	385	385	391	394	394	393	390	392	394	393	391	389	389	389	388	388	387	387	387	388	390	389	382	380	379	379	387	391	394	394	394	390	385	383	383	396	395	391	386	381	380	385	388	389	387	386	385	386	380	381	383	385	385	384	383	387	388	388	385	378	375	377	382	384	381	376	376	374	374	376	376	375	388	389	391	391	390	390	379	382	381	377	375	378	380	381	380	381	381	385	389	389	387	385	386	385	374	367	366	371	375	382	384	382	378	376	378	381	380	380	380	382	381	382	383	383	384	382	380	378	378	378	380	386	387	387	387	380	377	375	375	379	384	386	386	383	382	376	377	375	375	376	376	378	381	384	384	385	388	387	383	380	379	384	382	378	377	379	379	379	381	382	0	0	0	0	0	0	0	0
422	421	421	424	431	431	438	428	425	420	420	416	418	421	426	427	427	423	412	411	409	411	411	417	420	420	420	419	420	420	424	428	428	425	423	422	424	424	429	429	428	429	429	429	426	423	417	417	418	420	421	423	425	427	428	428	431	429	429	428	422	422	424	424	424	425	425	427	426	427	428	424	421	422	420	423	423	423	422	420	420	421	420	418	416	418	420	423	425	422	420	417	418	421	421	420	413	408	407	408	411	413	414	415	415	415	415	413	410	409	408	409	411	411	411	412	411	408	411	415	417	416	413	411	410	412	413	409	411	412	412	412	413	411	408	407	410	414	414	412	408	405	403	402	402	402	403	408	411	405	406	408	405	407	408	408	407	405	409	412	410	414	410	407	413	416	414	412	413	414	413	411	413	415	415	413	410	405	403	404	406	408	414	415	416	418	414	410	405	404	404	406	408	409	408	410	412	413	416	413	412	410	409	408	407	410	414	416	414	409	408	407	415	416	405	406	409	410	407	403	398	399	403	403	403	413	413	412	410	405	410	412	413	413	415	421	413	407	404	406	403	398	401	400	401	403	401	404	406	403	403	398	396	399	401	403	404	407	406	407	408	410	411	415	411	410	406	404	405	401	402	404	408	408	408	407	405	403	402	405	405	406	404	402	402	400	398	395	396	398	402	404	407	404	404	399	395	394	391	396	401	402	400	398	399	399	395	395	396	399	400	399	401	399	402	403	405	401	402	401	399	400	403	401	400	395	396	400	402	400	398	397	397	401	402	404	407	409	408	404	405	405	398	399	400	404	404	403	398	397	395	398	401	399	393	393	393	396	398	400	401	403	401	399	397	397	397	396	396	392	395	398	396	398	400	398	396	396	395	396	400	401	399	399	397	399	399	401	399	400	400	399	398	393	394	398	399	401	400	395	389	388	389	392	396	398	393	390	389	388	385	385	389	394	394	395	394	394	397	400	399	401	399	398	388	386	390	395	398	400	398	391	389	389	386	385	388	388	387	387	388	389	390	391	389	387	385	389	391	394	389	391	390	383	383	382	382	382	382	383	387	386	388	389	388	384	389	386	382	382	383	386	389	389	390	389	388	389	389	387	387	387	386	387	387	386	384	382	384	384	385	382	379	376	375	377	385	387	385	386	390	389	387	385	383	384	390	394	387	379	375	379	384	386	377	374	372	372	372	372	375	376	378	381	380	379	380	383	380	380	376	376	379	378	375	375	373	371	371	372	374	372	374	373	381	386	386	371	370	373	375	374	374	376	379	381	379	380	377	378	383	385	384	382	381	372	367	364	365	369	372	378	381	380	381	381	379	377	372	371	374	377	376	377	380	382	383	382	380	379	377	376	379	383	387	386	382	380	375	373	373	375	378	383	384	382	375	375	372	373	373	372	373	374	378	379	381	379	375	375	376	376	385	383	375	372	371	371	371	371	373	375	0	0	0	0	0	0	0	0
