347	351	351	353	351	347	344	344	343	342	344	344	347	347	347	344	345	345	345	345	343	344	343	345	346	346	350	357	358	357	355	355	355	356	353	353	351	352	352	355	355	353	350	352	356	359	359	357	355	354	348	344	347	350	352	350	349	347	348	350	353	356	356	358	357	355	353	349	349	349	348	348	349	349	351	353	356	356	356	354	353	353	353	356	357	360	359	355	355	355	356	357	357	356	356	355	354	358	361	361	361	359	358	359	361	365	367	362	360	358	359	362	362	360	358	354	354	354	352	353	355	357	359	360	361	362	361	360	358	355	355	359	365	367	361	357	353	354	353	351	355	357	357	360	360	361	363	361	354	351	351	355	358	356	353	355	358	354	353	353	354	354	354	351	350	348	350	352	357	357	357	359	358	355	351	347	349	348	350	351	349	351	351	351	352	351	347	347	347	342	341	339	338	336	343	351	354	354	353	352	352	350	351	351	352	347	342	344	354	354	353	358	365	368	363	361	360	357	357	355	356	353	352	350	345	349	354	351	348	346	347	348	354	357	354	354	356	353	349	348	350	352	354	353	354	356	358	359	358	355	354	352	354	353	351	349	353	350	346	343	342	345	343	351	352	354	352	347	346	345	348	350	352	354	354	352	349	347	347	346	345	344	349	352	354	355	358	359	360	360	358	356	356	357	352	346	345	348	352	354	355	354	356	354	351	348	345	349	349	349	353	356	359	357	353	352	352	354	356	360	359	356	352	351	348	348	348	349	350	350	347	347	349	348	352	351	352	352	357	358	355	350	347	344	342	349	350	352	346	345	345	350	349	350	351	352	351	349	347	346	348	348	346	345	346	348	352	349	351	355	353	352	348	346	345	346	348	351	353	359	358	361	362	359	358	353	349	347	351	354	355	355	354	353	354	353	352	359	360	357	358	357	354	351	349	351	353	352	351	351	352	356	359	360	358	355	353	350	348	349	352	353	354	351	349	348	346	344	345	344	343	345	349	348	342	347	348	348	348	348	347	350	354	355	351	353	353	351	353	355	356	354	357	352	348	348	350	354	356	359	348	346	348	347	351	352	356	356	360	361	359	355	355	352	352	352	352	349	350	351	350	350	347	347	350	352	353	356	348	346	344	341	346	346	345	348	352	353	353	352	349	350	345	346	346	348	349	348	347	348	347	348	349	349	351	349	345	347	350	354	357	355	347	348	350	353	361	361	348	340	351	344	347	346	348	349	353	357	358	357	351	348	345	345	343	341	337	339	343	347	346	351	353	353	351	350	350	347	344	347	350	355	348	348	349	352	351	350	348	347	347	347	347	350	352	353	354	355	355	355	354	354	355	357	360	359	357	356	359	361	362	359	357	358	359	358	359	358	358	353	352	354	356	360	360	356	362	362	359	355	351	351	355	359	358	357	357	354	354	354	354	354	353	352	352	352	353	353	353	355	360	361	0	0	0	0	0	0	0	0
342	345	345	344	343	341	338	338	337	338	340	341	341	341	343	341	343	343	342	342	341	341	342	343	344	344	348	349	347	349	348	350	348	348	348	347	345	345	349	349	348	348	346	346	349	355	351	351	350	348	338	342	346	350	348	341	339	341	345	348	351	352	352	351	351	347	344	344	348	347	349	349	350	348	351	353	356	356	354	351	351	351	352	353	353	351	349	351	353	351	350	350	352	353	354	357	357	358	358	357	354	351	347	348	352	355	355	354	353	354	355	360	363	359	353	349	350	351	349	352	353	358	358	356	356	358	358	356	350	348	348	352	355	355	351	349	346	346	348	350	352	356	356	356	357	358	360	359	351	347	347	348	358	359	356	355	352	353	352	353	353	351	350	348	347	345	345	348	347	348	348	347	345	344	343	346	348	349	348	345	345	347	351	350	349	349	346	345	344	341	340	338	337	340	345	347	349	350	350	350	350	347	344	344	341	339	340	341	342	344	352	354	356	357	349	348	349	348	347	351	351	352	349	344	343	343	351	349	346	344	345	346	350	353	351	349	347	346	349	347	348	352	353	352	350	351	356	356	353	351	350	352	350	347	343	341	342	346	343	341	341	342	342	344	343	342	346	342	340	338	339	343	347	345	348	348	348	342	340	340	341	342	340	343	349	352	356	357	358	358	356	354	349	347	342	344	345	344	345	347	349	351	356	350	346	344	347	348	352	353	353	354	348	344	344	344	346	349	352	356	355	350	344	344	340	338	339	341	340	339	344	346	345	343	340	350	353	355	354	353	353	348	343	338	336	339	342	344	339	340	346	348	348	348	347	346	341	335	338	344	346	346	343	343	342	343	348	347	347	349	349	349	348	348	348	348	347	345	347	354	352	346	341	345	350	347	344	345	350	351	353	351	351	351	351	350	352	351	351	349	350	353	353	354	354	352	349	348	351	350	350	352	354	357	354	349	347	347	349	352	347	347	343	347	346	343	341	341	343	343	343	341	339	339	345	348	348	348	348	347	346	348	350	352	349	340	342	346	352	353	353	351	353	350	347	346	347	348	347	347	346	345	345	345	342	346	347	350	343	343	345	347	350	350	344	345	351	349	349	348	346	343	340	346	349	344	342	342	344	339	338	337	343	343	340	340	344	350	349	347	345	344	344	344	344	346	347	343	346	345	346	346	346	346	346	344	343	345	344	348	351	347	342	343	344	347	353	356	345	340	343	345	340	339	339	345	339	333	339	345	344	346	348	341	338	336	334	335	336	340	340	343	343	342	343	345	345	344	342	346	347	346	344	345	347	344	342	346	345	344	343	343	344	346	349	350	352	352	350	348	346	347	350	352	353	353	353	352	353	355	352	351	352	353	355	356	356	354	353	351	350	350	352	352	354	348	353	354	355	353	349	351	358	361	359	356	350	349	350	351	352	353	353	352	352	352	352	352	353	352	352	354	0	0	0	0	0	0	0	0
333	334	334	335	335	334	334	333	333	334	337	338	339	339	340	341	341	340	341	341	340	340	341	341	340	339	339	342	343	344	342	344	344	344	346	345	346	346	345	348	347	347	346	345	344	343	342	341	338	338	339	339	343	341	340	338	338	339	344	347	348	347	347	347	345	345	343	345	348	348	349	350	349	350	349	349	351	353	353	350	347	347	347	346	346	343	346	349	347	348	349	346	349	351	353	355	352	352	354	352	352	352	352	350	353	355	354	352	349	350	352	356	356	350	346	343	345	348	348	349	352	350	352	353	352	351	355	353	350	348	349	353	352	350	347	345	341	341	341	345	349	350	349	351	352	355	356	357	345	344	345	346	358	358	357	353	348	349	350	350	350	348	347	344	342	341	339	341	342	341	342	342	347	347	344	344	346	347	347	344	343	348	349	352	349	347	344	343	342	339	338	338	338	339	343	346	345	347	349	348	348	348	343	339	337	334	335	337	339	342	346	348	349	341	347	349	346	342	345	344	349	348	349	341	339	338	341	346	345	343	342	344	343	348	347	347	346	342	343	345	346	345	349	348	347	341	349	352	348	348	345	343	344	342	339	338	337	337	340	341	341	341	342	346	342	340	336	334	334	337	340	340	340	341	342	344	346	345	340	338	340	340	340	340	342	344	346	344	346	346	349	349	338	339	339	342	343	342	341	340	343	345	347	342	345	341	340	342	346	346	346	344	342	340	340	341	342	344	348	353	346	343	343	342	341	340	338	341	339	339	341	341	340	340	342	341	341	340	339	341	345	341	336	333	330	334	336	338	337	337	338	345	345	343	338	336	332	333	331	336	344	345	343	341	341	341	341	344	341	349	350	350	348	348	343	338	339	340	337	343	347	340	336	343	348	346	341	347	349	351	348	346	341	342	346	347	346	346	341	340	342	344	350	352	353	351	349	349	350	348	349	351	351	342	340	345	340	344	347	347	345	341	337	337	339	339	340	343	342	343	343	343	344	344	346	346	346	347	346	345	346	345	346	341	337	335	335	336	339	342	342	343	345	344	341	339	341	344	345	345	344	343	343	343	343	347	346	341	340	340	342	345	345	339	338	339	344	347	347	342	339	337	335	339	348	346	344	340	338	336	335	336	340	338	339	339	341	341	338	336	342	343	343	343	342	345	341	341	344	344	343	344	345	344	342	342	341	342	344	344	343	345	338	338	339	340	349	352	346	343	332	333	333	333	330	331	334	332	339	343	344	344	341	339	336	333	333	332	333	334	334	332	333	336	338	340	339	340	341	342	341	342	342	341	340	342	340	343	343	342	342	341	342	344	345	347	348	349	348	346	346	346	348	350	350	348	348	347	344	345	344	344	347	349	351	352	349	349	343	341	345	345	345	345	347	347	345	344	346	350	352	354	352	348	346	344	343	344	346	347	350	351	349	349	348	349	350	350	348	345	343	343	0	0	0	0	0	0	0	0
328	328	328	328	328	329	328	330	330	332	333	334	336	336	338	340	340	336	336	336	337	335	334	334	335	336	336	340	343	343	342	342	342	342	347	349	347	343	347	348	347	347	343	339	339	339	340	339	339	338	336	336	336	334	334	336	337	338	342	341	340	339	338	338	338	338	341	346	347	347	347	347	348	347	346	343	345	346	343	344	344	345	345	346	344	343	344	346	345	345	344	342	342	347	352	348	342	342	345	348	347	349	348	344	344	347	348	348	349	348	349	352	351	347	340	340	343	348	350	351	349	346	345	346	345	343	342	343	347	348	353	341	334	334	341	339	340	338	337	338	342	343	345	348	349	350	352	350	346	346	345	346	355	355	350	346	345	341	338	349	346	344	344	341	337	335	333	336	336	338	338	345	347	346	344	344	341	337	338	343	343	344	343	340	337	337	343	342	341	340	338	338	338	340	341	342	340	339	344	346	347	347	346	336	333	332	331	334	336	342	344	346	341	339	338	343	345	343	340	344	348	348	347	338	337	338	339	344	344	338	333	336	342	341	341	344	344	343	341	343	342	341	340	339	341	338	341	346	348	343	337	338	341	342	340	337	336	337	341	341	340	338	341	343	341	340	337	339	340	340	339	340	338	338	339	342	344	344	340	337	335	335	337	338	340	341	341	342	343	339	335	335	335	336	337	338	343	342	339	339	338	340	335	332	335	335	337	337	334	331	330	331	335	338	338	337	337	338	340	341	341	341	341	341	340	334	335	335	336	337	338	340	343	342	342	340	339	339	338	336	334	332	334	333	335	333	335	333	332	334	335	336	339	338	333	331	332	332	335	337	346	339	338	336	337	337	338	340	342	352	350	346	345	337	335	336	338	337	337	341	337	334	337	337	341	342	343	342	343	344	342	339	334	336	338	342	339	338	338	340	340	342	346	348	349	348	348	345	345	345	329	337	339	334	336	337	342	344	345	342	341	338	335	332	333	334	334	335	334	336	338	337	337	337	346	345	345	338	337	341	338	334	334	337	337	336	340	341	341	339	338	337	339	338	336	334	340	342	344	346	345	344	342	343	343	345	346	339	338	338	340	340	334	335	335	335	337	339	340	341	339	337	335	333	338	342	345	343	337	336	335	334	332	334	337	341	340	337	333	332	335	338	339	339	339	338	341	344	344	342	338	338	342	339	339	339	340	340	340	338	338	338	335	335	333	330	329	332	334	333	333	333	334	333	333	333	333	333	337	342	343	343	341	335	335	332	329	331	330	331	331	330	330	331	333	333	334	330	335	337	337	340	341	341	340	333	337	340	340	341	342	341	341	341	341	338	339	340	341	342	342	341	340	338	336	336	343	344	342	340	339	338	336	343	346	343	344	343	341	333	333	337	337	341	343	345	345	346	348	349	349	349	344	344	341	339	338	340	338	339	345	345	344	344	346	348	349	347	345	342	342	341	0	0	0	0	0	0	0	0
327	324	322	322	323	323	324	326	326	328	328	329	333	333	338	334	331	333	332	332	330	328	329	332	336	335	335	338	341	341	340	337	342	342	348	346	340	341	345	346	340	340	335	335	336	340	339	340	338	336	336	336	333	333	333	334	335	338	335	337	335	334	332	332	331	333	338	343	345	347	348	350	348	345	339	336	335	339	339	339	340	345	345	348	346	344	343	343	342	341	341	335	332	333	335	337	339	340	341	343	342	343	342	341	343	341	341	334	333	334	335	340	340	340	337	341	349	352	351	346	341	340	339	343	343	337	339	341	342	343	339	340	340	342	339	341	337	337	336	336	334	333	337	339	342	342	347	347	348	347	346	344	345	345	344	342	342	339	335	331	332	334	337	337	333	331	330	331	332	333	338	341	343	344	342	342	341	339	337	335	335	341	340	337	334	336	337	341	338	338	336	331	332	334	338	337	334	336	338	341	343	333	334	330	330	329	328	329	333	339	343	343	341	337	338	340	341	340	339	339	346	343	340	335	335	334	334	335	334	335	336	336	337	339	339	342	343	343	340	335	336	337	337	335	337	338	340	341	341	337	334	336	337	339	339	336	340	340	341	340	337	333	337	337	325	332	332	331	333	334	333	332	336	333	336	338	340	341	340	334	330	331	333	334	337	339	339	337	335	334	332	329	330	333	335	336	338	337	335	335	337	332	330	331	329	329	328	328	331	335	336	335	337	334	334	330	334	335	335	334	335	336	337	333	331	331	333	333	332	329	332	336	336	340	340	338	336	336	335	332	331	327	328	332	335	337	332	328	329	334	335	336	330	328	326	326	328	333	334	334	336	334	335	332	331	332	334	335	331	333	336	331	331	330	332	334	337	337	334	330	332	331	333	333	335	338	335	327	330	333	333	334	335	334	335	336	335	336	337	338	338	339	339	341	345	345	342	335	326	327	333	334	333	331	331	332	330	332	334	337	337	336	334	332	333	333	334	335	334	335	335	332	332	334	336	338	337	336	337	334	335	336	339	337	335	336	338	338	338	336	334	331	329	332	332	331	332	334	343	344	344	344	331	330	332	333	333	335	335	335	335	335	330	331	332	333	334	336	341	339	335	333	332	332	332	333	334	338	337	336	336	331	331	331	335	334	334	334	332	332	331	333	331	332	333	331	331	334	335	333	330	333	332	335	337	337	339	340	339	335	335	332	333	331	329	327	328	330	332	332	333	333	332	329	328	329	331	330	335	341	337	336	332	325	332	331	329	329	332	331	326	323	324	327	327	330	328	328	328	334	335	339	341	340	337	333	333	336	339	341	341	340	340	339	338	335	337	336	336	339	339	337	334	333	333	332	338	339	337	338	338	336	333	329	330	340	341	340	338	330	330	332	332	335	340	343	345	346	346	346	345	339	340	340	339	337	335	333	331	333	335	337	342	342	345	348	350	347	346	342	340	336	0	0	0	0	0	0	0	0
327	324	320	320	318	321	323	324	324	322	321	323	329	334	334	325	328	328	329	323	323	321	325	330	333	334	334	335	338	336	330	331	332	332	335	335	337	339	341	341	336	332	332	331	335	336	334	334	335	335	334	334	331	332	332	333	334	334	332	334	334	334	334	336	336	336	336	336	336	341	346	347	342	334	333	331	332	332	333	336	337	338	342	342	345	344	343	341	340	338	331	329	327	328	330	333	336	337	337	339	339	339	339	340	335	334	326	329	330	338	338	339	338	336	335	339	340	341	343	342	341	340	337	337	334	335	336	340	340	336	337	335	337	341	339	338	334	335	336	336	334	331	331	332	334	333	333	331	329	329	331	332	328	333	333	335	336	335	333	331	332	332	332	330	330	330	328	330	333	332	335	337	339	339	339	338	339	338	337	335	335	335	335	335	338	338	337	337	337	330	329	328	327	329	331	330	331	333	336	330	328	330	333	329	329	327	326	328	330	328	329	335	340	339	337	337	331	332	331	339	336	333	333	333	330	328	327	330	333	333	335	335	337	335	332	331	340	339	337	335	330	331	332	332	333	333	335	332	327	324	323	325	332	333	333	332	332	333	334	333	332	332	331	328	334	331	330	324	325	325	327	329	328	327	334	335	339	339	337	331	326	321	323	326	331	335	332	331	330	330	327	327	326	328	330	332	335	334	334	332	330	330	328	327	331	330	328	327	328	335	335	334	331	327	325	324	330	334	333	333	331	329	328	328	328	330	331	331	331	328	330	333	336	331	332	333	331	333	331	327	326	327	334	333	333	331	328	328	328	330	329	330	328	325	322	323	326	329	330	333	332	334	333	327	326	328	331	332	330	330	330	329	330	330	331	334	340	336	328	330	325	327	327	330	330	327	326	325	328	329	331	334	334	334	332	331	330	329	333	333	332	334	335	337	337	335	326	325	326	328	331	332	332	330	329	328	328	328	328	327	332	333	333	333	332	334	330	326	329	328	329	329	325	326	328	328	327	334	336	335	334	336	329	327	327	329	328	329	334	335	330	327	325	327	330	330	331	333	337	335	328	327	328	330	327	326	326	325	327	330	332	330	326	326	328	334	335	334	333	332	332	331	332	330	331	332	331	331	331	329	328	325	327	328	327	327	329	330	329	329	331	333	331	331	332	330	329	328	328	330	326	325	328	329	330	323	323	321	322	322	320	323	325	322	325	327	327	328	325	325	329	329	326	326	327	328	329	327	329	334	333	332	329	322	325	325	326	326	324	321	320	324	322	322	323	326	326	327	328	331	332	333	334	334	333	331	331	334	337	336	332	329	329	329	328	327	329	332	335	336	336	334	332	329	327	327	329	333	330	331	332	333	327	327	327	331	327	326	336	327	327	327	328	331	336	341	342	341	337	335	334	336	337	336	335	334	330	330	330	331	332	333	333	338	343	342	341	343	343	338	334	334	0	0	0	0	0	0	0	0
323	320	315	315	312	310	313	314	314	315	315	319	323	323	323	330	329	327	324	322	322	322	327	327	325	326	326	330	330	329	329	330	330	330	330	329	333	337	337	337	334	330	330	326	326	326	331	327	328	330	328	331	331	331	331	331	332	329	330	332	334	333	334	335	335	336	334	327	321	321	325	329	330	327	325	321	322	323	328	329	329	329	332	332	332	330	330	332	331	331	327	325	324	326	329	331	333	335	327	326	326	324	329	331	336	333	333	333	332	337	338	338	337	335	332	336	337	337	336	335	335	336	334	334	331	331	334	338	337	336	332	331	330	330	331	331	331	334	334	333	330	330	330	329	331	333	332	330	326	326	329	328	326	326	330	332	334	334	332	333	331	332	330	329	328	328	328	330	331	330	330	333	333	337	337	337	337	336	335	334	333	334	334	331	329	331	333	324	325	324	326	326	324	323	324	328	329	322	321	324	325	328	332	326	324	324	322	320	318	321	328	330	336	337	333	329	330	330	329	329	328	329	330	331	330	328	328	331	331	332	333	334	332	328	327	327	327	330	336	332	325	326	328	326	327	329	330	324	322	321	318	317	324	325	326	323	322	322	325	329	327	327	328	327	321	329	326	319	323	325	327	327	326	326	326	324	326	331	331	328	324	323	324	325	328	329	326	323	325	326	323	323	322	323	325	332	333	332	333	332	329	333	329	326	325	325	329	331	333	332	328	326	327	328	328	327	328	330	335	332	329	325	324	326	326	326	327	329	328	327	329	329	325	324	327	327	328	326	325	322	323	321	329	329	329	331	328	323	325	325	325	327	324	321	320	320	322	325	325	327	326	328	327	324	325	325	327	328	329	328	327	328	328	328	328	327	331	332	323	324	323	323	325	326	327	326	325	323	326	327	328	330	332	330	322	323	325	328	328	328	329	332	333	324	328	332	333	325	324	325	325	326	325	328	329	329	329	329	330	328	326	326	326	330	331	327	327	326	324	324	321	323	322	322	325	325	324	327	334	331	325	325	322	325	326	327	329	329	332	332	331	323	319	319	321	326	327	325	324	327	328	326	327	329	323	323	323	324	325	325	326	324	319	318	317	326	328	327	322	322	324	325	325	329	330	330	329	327	328	327	323	324	325	325	324	324	324	324	325	327	328	328	329	330	330	329	328	325	324	323	327	320	323	321	322	322	320	320	321	319	317	314	315	318	321	323	323	324	324	324	323	324	322	322	323	326	325	324	323	331	329	327	326	325	323	323	323	321	321	319	319	322	323	322	320	322	324	326	328	332	325	326	326	323	320	329	327	331	325	325	327	327	326	323	319	321	326	329	329	330	331	331	327	325	324	323	326	328	329	327	325	323	324	326	325	322	324	326	328	324	324	324	325	328	333	337	337	334	332	330	333	334	335	335	333	328	325	326	327	327	331	333	333	332	328	331	334	327	333	335	332	331	0	0	0	0	0	0	0	0
317	316	314	314	313	313	312	311	311	311	314	319	325	327	327	325	326	322	321	319	319	322	322	319	319	322	323	323	321	325	326	326	323	323	323	326	328	331	334	333	332	328	328	326	326	326	322	323	323	322	327	327	327	328	328	321	319	319	321	324	328	330	334	335	335	333	331	325	322	319	322	323	326	325	323	319	322	325	325	323	325	328	327	327	327	327	328	331	333	334	331	324	320	325	328	327	324	322	325	326	325	328	331	333	336	333	334	335	334	335	336	336	333	328	325	325	333	334	334	335	334	335	332	331	329	326	326	329	336	333	330	327	327	327	329	331	331	329	326	327	327	327	328	329	331	332	331	331	331	326	324	324	323	326	327	331	333	332	331	327	330	327	327	325	325	326	328	328	328	327	326	328	329	331	333	333	330	329	330	330	330	328	328	327	326	327	327	322	323	324	325	325	321	322	323	323	326	327	326	323	323	321	322	320	322	321	319	318	317	322	328	330	331	329	326	326	327	327	327	327	328	324	324	325	329	331	328	328	330	332	330	328	327	326	325	324	325	325	328	329	326	324	321	322	321	324	325	322	321	320	318	318	321	321	319	318	319	320	324	326	325	324	324	325	321	321	322	323	323	324	326	324	324	325	324	323	323	327	327	327	326	325	323	325	327	325	320	318	321	322	322	320	319	320	325	323	324	328	330	326	329	327	325	321	321	323	323	322	319	317	317	319	321	322	324	324	324	327	326	324	319	317	316	316	315	315	316	324	326	325	324	323	321	321	324	324	324	321	324	321	321	322	328	325	321	319	322	320	321	322	322	324	321	321	319	319	321	323	324	320	318	320	324	321	322	325	325	325	326	326	325	326	326	327	326	328	328	329	323	322	320	320	320	322	324	325	324	324	325	326	326	327	328	318	320	321	323	324	326	326	324	321	319	318	317	318	318	318	318	316	315	318	321	327	323	324	322	324	320	319	322	319	319	326	328	325	324	323	323	322	320	316	315	317	318	320	320	320	321	323	323	322	323	325	326	329	330	328	329	330	329	324	319	320	322	322	323	325	322	324	327	326	324	322	321	320	321	322	322	321	322	321	320	318	317	324	326	323	320	321	322	324	324	323	325	324	320	322	323	322	321	320	322	325	322	319	320	316	319	321	324	324	325	326	326	327	325	324	321	321	320	311	308	315	316	312	313	315	319	319	317	313	314	316	317	320	322	322	323	323	325	322	320	319	320	322	319	317	317	323	323	324	323	323	322	319	320	318	317	318	318	318	322	322	321	320	317	317	316	318	319	321	321	320	317	317	322	322	321	317	321	326	326	322	318	314	321	324	323	326	327	326	326	323	318	320	322	324	326	326	325	323	323	323	326	320	324	327	328	329	329	328	324	327	329	324	324	329	326	328	331	333	331	328	324	321	321	322	323	326	330	327	327	325	320	325	324	324	324	329	329	329	0	0	0	0	0	0	0	0
315	314	312	313	313	314	318	317	315	315	317	321	326	325	325	325	319	311	308	308	308	311	316	318	320	320	320	320	313	312	313	310	320	325	325	321	321	321	320	321	328	328	328	327	326	323	320	321	319	320	322	323	323	324	324	322	321	322	324	324	322	323	326	329	331	331	328	321	320	318	319	319	322	321	320	318	320	325	326	327	325	325	325	325	325	326	328	330	333	331	331	329	322	323	323	321	318	314	317	322	323	325	328	330	332	330	327	323	325	327	326	325	326	326	325	322	322	327	325	326	329	328	327	326	327	327	324	327	332	331	327	327	327	325	322	323	327	324	323	323	322	324	325	327	328	323	320	321	326	326	320	320	321	321	323	329	330	330	327	326	325	322	322	319	319	318	323	324	325	325	324	322	320	318	317	318	320	321	324	325	326	325	325	323	323	322	321	321	322	324	325	324	322	321	323	324	324	325	325	324	323	319	320	321	321	320	318	314	316	319	322	326	327	325	322	322	324	324	325	323	323	322	311	312	317	319	329	328	325	323	322	322	321	321	320	321	324	324	322	325	323	319	318	319	319	317	319	320	321	320	320	320	320	318	316	315	318	320	320	319	318	318	321	320	320	319	320	320	318	320	321	319	319	319	318	322	324	322	325	325	324	321	323	323	323	320	318	319	318	319	319	317	317	321	320	321	318	323	322	324	322	320	320	320	320	318	318	316	315	313	316	318	319	320	321	321	322	324	323	323	319	316	314	314	313	314	312	315	317	318	321	321	321	321	321	321	319	317	318	316	319	318	318	318	315	314	316	316	317	320	320	322	321	321	319	319	320	319	316	317	316	318	320	321	321	324	324	323	323	322	320	324	324	324	328	327	325	324	319	320	320	317	317	321	322	324	323	320	316	318	320	323	320	320	320	321	322	322	318	325	325	322	320	318	317	317	317	317	315	312	313	315	317	316	321	319	317	318	316	316	317	317	318	324	330	323	321	321	319	318	315	312	312	312	313	315	314	317	321	320	322	322	321	324	325	326	327	326	327	327	325	320	316	312	315	319	321	319	315	321	324	324	321	319	318	319	319	318	318	316	319	320	320	319	311	311	313	317	317	319	320	315	315	316	316	317	317	318	318	319	319	317	316	321	320	317	315	316	317	318	315	314	317	320	323	320	322	317	316	316	306	306	307	307	310	311	313	315	317	319	318	318	317	316	315	313	310	309	311	314	315	313	309	313	314	315	317	313	312	316	310	310	309	313	316	315	312	315	312	314	318	316	319	322	321	320	318	316	316	315	313	315	316	315	314	313	319	317	317	317	318	319	319	319	316	314	313	311	314	319	321	323	323	319	317	320	321	322	322	324	323	322	319	320	318	320	323	325	325	323	323	322	318	320	327	321	318	319	320	322	325	330	327	321	319	321	320	321	321	322	325	325	323	319	320	320	321	320	322	327	328	328	0	0	0	0	0	0	0	0
315	313	310	310	310	316	319	319	316	316	318	319	318	316	317	317	314	309	309	311	313	313	316	318	318	317	315	315	313	310	309	315	321	324	324	326	323	322	321	318	317	321	323	323	318	316	318	318	318	318	322	325	325	325	320	319	320	322	322	324	323	322	324	325	324	324	318	316	316	316	316	319	319	319	318	317	316	322	327	327	323	322	322	323	325	325	323	324	328	326	320	321	324	323	319	317	314	315	317	319	322	322	324	325	324	323	320	319	322	323	322	322	323	324	324	322	318	318	319	323	327	325	324	323	323	324	324	326	330	330	326	326	326	327	322	319	317	322	321	320	319	319	321	320	314	314	315	320	319	320	321	319	317	317	320	321	322	319	316	315	319	320	321	318	311	307	308	313	317	318	321	317	317	316	316	317	318	318	320	322	324	324	323	321	318	319	318	318	320	320	312	312	320	323	323	322	320	321	320	318	322	316	317	318	318	317	318	314	317	321	323	325	324	317	317	318	320	320	320	319	320	317	310	311	316	318	318	317	315	318	320	320	321	315	316	318	317	316	317	317	316	316	317	317	316	316	318	318	316	315	315	314	314	312	312	310	314	318	320	320	318	317	315	315	316	317	317	310	309	310	315	315	316	316	316	315	315	320	322	325	324	322	318	314	311	316	315	317	318	319	316	316	318	316	317	318	315	317	319	321	320	319	318	315	312	314	315	316	314	313	315	316	316	316	317	317	319	319	314	313	312	313	313	315	311	317	312	313	313	314	315	318	320	319	318	313	314	314	313	315	317	316	314	315	314	314	313	313	315	317	319	321	321	320	318	317	317	314	317	319	319	319	320	320	321	322	322	319	319	319	319	320	319	315	317	318	318	320	319	317	314	311	312	316	322	323	325	318	314	312	317	320	320	319	316	319	321	318	319	315	316	316	320	318	316	315	317	316	314	313	314	313	315	312	310	310	310	311	307	309	312	316	319	317	316	317	316	317	318	316	315	316	316	314	313	311	311	313	319	318	317	317	317	318	320	321	322	322	325	324	321	308	309	310	313	316	320	317	312	309	310	309	308	312	316	318	317	314	313	313	313	313	317	317	310	311	313	314	314	314	315	314	313	314	316	319	317	316	314	313	312	314	315	314	315	317	317	318	315	315	314	315	318	311	310	312	310	311	313	308	305	304	306	307	310	310	311	312	315	318	318	315	315	315	313	308	307	307	309	310	310	309	305	304	308	311	310	309	310	310	308	308	308	311	315	313	307	313	310	313	316	315	308	308	309	310	314	316	316	316	315	315	315	313	311	313	316	314	315	316	314	314	315	315	312	312	311	311	310	311	312	314	313	315	319	318	319	319	318	320	319	315	314	314	317	319	319	321	320	320	318	315	312	311	311	311	315	311	309	319	322	324	321	317	315	316	319	319	316	317	315	315	319	318	319	319	318	318	320	324	325	326	0	0	0	0	0	0	0	0
314	311	308	313	313	315	319	318	317	317	317	316	315	312	312	312	313	309	308	310	312	312	317	314	310	312	315	315	315	313	312	317	321	322	321	321	320	315	314	316	319	318	317	317	315	314	314	314	313	315	321	321	317	317	313	316	318	317	320	323	324	324	324	323	321	321	313	312	312	313	314	315	315	317	314	314	314	320	321	321	319	318	318	321	320	320	321	319	318	317	319	321	319	319	315	314	310	310	314	318	318	321	321	320	319	321	319	316	314	318	318	318	321	322	322	319	316	316	317	320	320	318	319	319	317	317	321	323	324	326	326	324	323	323	321	320	319	320	324	325	318	319	314	309	310	309	313	314	316	318	318	320	318	309	308	307	308	308	309	313	317	317	317	316	309	303	305	307	312	312	314	317	317	312	316	317	317	316	317	316	318	320	320	319	317	315	315	315	311	306	308	309	313	316	318	318	318	318	315	313	312	312	315	314	315	314	313	312	313	316	318	320	318	318	316	317	314	317	316	315	316	313	307	308	313	317	318	317	312	310	321	319	310	311	310	310	311	309	307	313	312	312	312	314	315	316	314	315	316	314	315	314	310	310	308	307	309	315	317	317	314	311	310	308	307	307	309	308	307	308	313	314	314	312	312	311	311	312	316	316	316	316	315	312	313	312	303	306	313	316	314	314	313	314	314	315	315	315	317	316	318	317	313	310	309	309	315	315	313	310	309	310	313	313	317	317	317	315	309	307	307	311	313	309	310	315	314	313	314	314	314	314	315	316	314	312	307	312	314	315	316	313	311	311	311	313	312	313	312	318	319	319	320	318	315	314	314	316	318	319	316	314	313	316	317	317	320	318	316	316	317	316	313	313	316	310	309	306	310	310	310	310	309	313	317	321	321	316	315	311	310	312	312	310	310	309	312	318	311	313	313	315	314	317	314	314	315	314	313	309	310	311	312	311	310	310	311	306	306	308	311	315	317	316	312	308	305	307	306	309	309	308	304	305	305	307	309	316	317	316	314	314	314	314	314	314	317	317	317	310	309	306	308	308	311	315	318	315	313	312	310	308	307	305	309	312	313	309	309	304	303	310	313	314	305	312	313	314	313	311	310	311	310	311	314	315	319	316	313	312	312	313	313	312	311	310	307	311	311	312	310	309	308	305	307	305	305	307	308	305	303	303	305	307	308	308	307	307	308	315	309	311	313	314	310	307	305	305	307	309	310	309	306	305	303	306	307	308	310	309	305	306	307	310	313	310	304	303	309	309	312	309	308	307	307	311	313	315	316	316	317	314	313	311	311	314	311	311	312	314	310	312	310	310	314	313	311	309	308	308	308	306	306	310	316	317	315	315	312	313	309	309	308	309	308	315	316	315	315	313	311	307	306	307	308	309	309	312	311	317	319	318	317	314	313	313	314	314	316	318	314	314	314	312	316	316	315	313	316	320	321	319	0	0	0	0	0	0	0	0
312	313	311	313	313	315	317	316	315	315	314	312	310	310	317	317	313	308	308	312	312	312	311	309	308	308	310	310	310	313	312	313	316	317	315	315	315	314	313	309	309	310	311	311	309	311	309	309	308	313	314	313	311	311	311	310	308	312	317	319	322	321	322	321	319	313	313	310	309	311	313	312	312	313	313	313	315	317	318	320	317	315	311	314	314	316	316	315	314	313	311	308	308	309	312	311	306	306	310	315	315	316	318	318	317	317	318	315	313	310	312	314	313	309	308	305	306	308	309	310	310	310	311	312	311	308	317	322	321	320	319	317	320	318	315	308	308	318	320	317	316	309	306	306	306	308	309	311	313	315	315	316	316	311	307	305	307	307	309	314	316	315	315	312	307	304	305	305	310	314	315	317	316	310	311	311	312	314	315	313	314	316	318	316	312	309	309	309	306	309	309	306	311	312	314	315	315	314	312	310	309	309	310	308	308	313	312	310	310	312	314	315	316	314	314	314	315	313	314	315	315	312	308	308	312	315	317	312	308	307	309	308	307	307	306	306	308	305	305	309	309	307	309	310	311	310	308	305	306	309	313	312	310	310	308	307	308	311	315	315	312	310	308	306	305	307	305	310	314	315	310	310	313	308	305	304	305	308	313	315	312	311	310	309	310	304	301	301	304	306	307	310	311	312	312	313	312	312	313	315	316	314	312	308	306	306	311	313	313	309	308	308	310	315	316	315	314	314	313	310	309	310	312	310	312	312	308	307	308	313	311	311	312	302	303	302	303	310	314	314	314	312	309	307	307	309	311	313	313	307	315	315	313	309	308	310	312	313	314	312	307	305	304	307	312	313	312	314	312	312	313	313	309	310	314	309	309	307	306	308	308	310	310	310	313	314	315	314	312	308	308	311	310	307	308	309	308	308	309	310	313	312	313	311	307	304	304	305	306	306	307	308	310	309	307	306	307	307	305	307	310	312	314	310	309	308	308	306	307	306	304	302	302	303	303	304	308	312	315	314	312	311	311	312	311	311	306	305	306	304	306	305	305	306	309	307	313	311	311	310	310	306	306	306	305	305	309	310	309	308	309	312	310	308	306	305	312	313	313	313	308	304	307	311	305	314	316	316	315	313	312	311	309	310	309	308	304	300	303	310	309	309	303	302	302	301	300	305	307	302	299	300	302	303	304	301	304	304	305	308	306	307	309	312	307	306	305	304	305	307	310	308	307	307	307	308	302	302	312	307	305	305	305	304	306	298	302	301	300	299	299	299	304	307	310	307	307	309	312	315	315	315	311	309	307	307	308	308	307	307	309	312	312	313	314	314	310	308	308	307	305	305	306	308	315	310	309	303	302	305	305	305	303	302	303	304	306	306	306	305	306	304	303	304	304	306	307	311	312	315	315	314	313	309	308	308	312	312	314	316	316	315	313	310	309	310	311	311	312	314	316	314	0	0	0	0	0	0	0	0
310	312	311	312	312	312	310	309	309	310	310	309	307	308	311	311	309	308	308	311	309	309	307	305	304	306	307	305	305	305	309	310	311	311	314	314	314	313	309	305	303	301	306	309	310	309	308	307	307	307	310	310	309	309	307	303	304	305	312	316	317	320	318	316	309	307	307	307	308	310	312	311	310	311	311	310	312	313	314	316	317	317	310	310	314	313	313	313	311	310	308	306	307	307	307	304	301	303	307	309	309	309	311	315	315	315	316	315	312	311	310	308	302	303	302	304	305	306	306	307	304	306	311	312	311	307	308	309	312	318	317	317	314	307	303	303	311	311	307	305	299	300	297	297	300	302	305	305	305	308	309	312	313	312	312	306	307	311	311	312	314	314	312	311	309	307	298	297	304	304	310	315	316	313	311	309	306	305	305	305	305	313	315	314	312	309	310	306	307	308	308	308	306	309	313	316	316	313	312	308	302	302	302	302	306	313	311	309	310	310	311	312	311	311	310	311	310	304	305	313	312	309	307	304	306	310	314	311	304	305	308	308	305	303	300	300	302	303	303	306	307	303	305	302	303	303	303	303	304	300	302	303	305	307	308	309	309	311	312	310	308	308	306	305	303	303	303	309	309	308	307	301	302	305	304	304	301	303	307	310	307	306	305	306	305	302	300	291	291	301	306	306	308	308	311	311	311	309	312	314	311	311	308	306	303	305	306	304	304	303	305	306	307	314	313	312	313	315	313	311	307	306	309	310	303	300	298	299	305	307	307	307	307	300	302	300	306	305	304	309	311	310	307	306	305	307	310	311	310	306	313	312	309	307	306	307	310	311	313	309	305	303	304	303	306	310	308	310	308	309	309	309	307	307	311	310	309	307	306	308	308	309	309	312	313	313	309	309	306	303	301	302	308	303	302	304	302	303	304	311	311	311	312	306	307	304	306	308	305	305	305	306	306	305	305	307	307	306	306	304	309	310	309	305	306	306	308	307	305	305	303	301	300	301	302	302	306	307	307	307	307	309	310	311	304	305	305	306	300	300	304	306	305	305	307	307	307	308	309	308	305	305	306	306	306	308	307	304	303	301	302	304	305	303	300	304	305	305	312	311	307	302	304	302	305	313	312	317	318	312	312	310	304	303	303	297	293	302	302	304	310	308	305	301	296	297	298	302	302	301	298	298	299	298	297	297	294	298	300	301	300	301	307	306	303	304	306	306	305	304	309	309	308	307	308	308	307	310	307	301	305	304	305	303	305	300	299	301	299	298	297	296	296	296	301	304	306	306	307	306	307	308	304	303	305	306	302	303	302	301	300	302	306	309	314	314	309	308	307	306	303	303	304	304	307	309	305	302	301	304	304	302	301	300	302	304	304	304	302	301	301	299	301	302	300	301	302	302	306	307	306	305	308	308	310	311	311	311	312	312	312	312	310	302	302	308	306	309	309	307	307	310	0	0	0	0	0	0	0	0
308	308	307	309	308	308	306	306	304	306	306	307	305	307	309	309	308	308	310	309	305	303	303	300	301	299	302	302	302	305	305	306	307	311	314	314	318	313	309	302	300	306	309	309	309	310	307	306	306	305	307	308	307	303	303	298	299	302	305	310	311	311	309	306	304	304	304	306	308	310	311	310	309	306	306	307	307	310	310	314	315	315	315	311	309	307	306	306	308	306	304	305	306	307	305	300	302	303	305	305	306	307	309	311	312	312	313	314	312	310	307	300	299	299	302	303	303	306	305	304	298	299	303	305	306	306	306	303	303	311	313	313	314	310	306	305	304	306	303	299	296	295	296	297	300	301	302	300	301	304	306	305	305	305	305	305	306	305	304	309	307	306	309	310	309	300	298	298	297	295	297	298	306	303	300	302	303	302	302	302	303	304	304	305	308	310	304	306	305	303	304	305	305	306	309	311	313	306	303	304	303	301	299	300	306	304	310	308	309	310	308	308	309	309	308	306	302	301	307	305	308	307	303	299	299	308	310	308	301	301	305	305	303	301	300	298	302	303	304	305	305	302	305	303	303	303	304	305	300	300	301	301	301	304	303	302	303	309	309	307	306	303	301	296	295	295	296	300	303	303	302	301	304	304	304	301	302	301	302	302	304	300	298	298	300	299	293	295	295	295	298	299	300	301	304	306	306	299	301	303	304	304	302	302	304	302	299	297	296	299	302	303	302	297	293	298	301	299	302	304	305	305	307	296	294	294	294	298	301	304	304	302	301	296	300	300	303	302	299	301	305	307	305	305	306	307	307	307	307	302	302	310	308	307	306	305	308	310	310	307	305	304	302	301	300	305	306	305	304	302	299	298	299	306	306	307	306	307	306	306	309	304	298	294	303	307	308	307	304	301	300	298	299	299	298	299	300	302	295	302	308	307	305	303	299	300	304	304	305	306	306	305	304	304	306	306	306	305	304	304	303	302	302	303	305	306	305	302	303	304	302	300	300	300	302	302	302	303	304	305	306	308	303	301	301	302	304	303	301	297	297	305	303	303	304	306	305	305	307	305	301	300	302	303	302	301	302	299	297	298	299	300	301	301	299	293	297	298	307	306	300	300	300	300	300	299	304	301	308	306	304	305	300	300	295	291	293	302	300	301	299	307	306	301	298	299	299	299	301	296	295	297	297	297	296	295	292	294	294	295	295	296	297	298	297	298	302	302	302	302	303	306	305	306	305	307	305	305	301	298	301	304	301	303	301	303	299	297	298	297	297	298	297	298	298	298	300	303	304	302	300	296	297	298	305	306	304	303	300	298	298	299	299	300	304	305	306	306	306	305	303	302	301	302	302	302	303	303	304	304	304	302	301	301	303	303	303	302	301	302	301	300	300	299	297	297	298	299	306	306	305	297	302	305	312	311	310	309	308	309	309	308	306	301	300	299	306	306	304	304	303	306	0	0	0	0	0	0	0	0
305	303	304	306	304	304	304	305	305	299	299	300	303	306	307	308	304	307	308	303	301	299	299	299	298	298	300	303	303	304	301	301	302	305	313	315	315	313	303	300	302	303	307	304	304	307	305	305	305	303	304	306	306	301	301	297	297	297	299	302	309	310	309	305	304	303	305	305	307	309	310	308	306	305	306	305	305	306	308	308	313	308	309	308	307	305	304	304	305	306	305	304	303	303	300	300	302	303	303	304	302	302	304	305	302	303	306	302	301	300	300	297	297	300	301	303	304	306	308	303	301	300	297	300	302	302	302	301	300	301	301	298	301	300	299	300	301	301	300	297	295	294	295	297	299	298	299	299	299	299	300	302	303	304	304	304	303	304	302	301	300	302	301	304	297	298	297	297	295	295	296	297	298	298	298	296	298	300	300	299	301	302	302	301	302	304	303	304	303	298	302	303	304	305	306	306	310	305	300	302	302	301	299	296	302	303	306	305	303	308	305	306	308	307	306	303	300	297	295	299	302	305	302	297	296	305	303	300	298	298	300	301	301	299	299	303	300	300	299	302	306	306	300	300	301	302	304	301	298	298	301	301	299	301	301	300	301	303	305	304	302	297	295	295	294	294	297	300	302	301	300	300	303	300	300	300	299	300	300	300	300	299	292	293	292	291	290	295	294	294	294	296	295	292	290	302	293	297	296	298	301	300	300	299	300	300	298	297	293	297	298	300	299	295	292	297	300	298	299	297	291	296	296	295	293	292	292	296	302	303	303	298	295	298	296	299	299	296	298	299	301	301	305	303	305	306	308	307	303	301	294	293	296	299	298	300	303	308	308	306	301	301	302	301	301	303	303	300	299	298	300	298	298	300	301	302	302	305	303	304	301	300	296	295	296	301	306	305	301	298	296	297	298	299	299	297	299	298	299	300	301	303	300	298	298	298	298	301	302	303	306	306	304	305	305	304	304	303	303	299	302	296	296	299	301	301	299	300	301	299	298	297	297	300	301	298	296	298	300	301	296	296	299	299	296	293	292	292	292	298	295	297	302	302	302	304	304	304	304	302	295	296	298	299	295	294	294	296	296	296	297	297	297	297	295	295	295	296	294	290	290	297	296	300	296	294	302	299	298	292	292	296	298	293	292	292	291	295	297	298	303	303	302	299	300	300	299	298	295	292	291	292	295	297	296	296	293	287	290	293	294	295	295	295	293	295	293	297	299	299	300	302	302	302	301	298	296	296	300	298	299	298	298	299	300	300	297	295	296	296	295	296	296	296	296	295	296	297	298	298	294	293	295	302	305	304	303	301	299	296	295	293	296	302	299	296	298	304	303	304	301	300	297	294	293	295	296	302	300	300	299	299	298	298	299	303	303	302	303	303	300	301	303	298	295	296	296	297	300	306	305	296	295	298	306	308	307	306	303	303	303	304	300	300	300	301	298	298	297	298	300	301	301	0	0	0	0	0	0	0
295	298	299	302	303	303	302	304	298	296	296	296	296	298	302	304	299	300	295	298	298	297	297	296	296	296	299	301	299	299	294	296	297	298	303	300	300	300	300	300	300	301	303	302	302	304	304	303	303	298	299	301	306	301	301	296	295	295	296	296	298	304	304	304	303	303	304	304	305	305	305	303	302	302	303	304	304	302	306	310	303	298	300	304	304	302	301	303	303	304	304	302	299	300	299	299	301	303	304	301	299	300	300	301	301	293	293	294	296	295	295	294	294	297	301	302	304	307	305	301	299	299	297	296	297	299	299	300	301	299	298	293	297	296	295	295	296	297	297	295	293	293	293	294	294	295	295	298	299	299	299	300	301	300	303	303	303	303	299	300	297	294	294	293	295	294	292	292	293	293	294	295	296	296	297	296	294	295	296	297	295	300	302	302	297	298	300	301	301	298	296	297	298	300	301	302	302	301	298	299	297	298	298	297	297	302	305	304	301	300	303	306	306	302	294	293	295	295	293	295	298	301	299	297	298	296	296	302	297	297	299	302	297	293	297	299	300	300	302	298	297	295	298	299	295	300	301	299	297	299	300	300	296	296	297	299	300	301	303	300	299	296	293	295	297	298	297	297	301	301	299	299	299	298	297	294	296	295	299	298	296	291	290	289	290	289	288	288	292	292	293	294	296	294	290	289	290	289	294	295	297	297	297	294	293	293	294	295	293	291	297	299	294	292	292	293	295	294	292	291	295	296	296	296	293	288	290	295	299	303	302	294	291	295	299	299	298	298	298	299	298	301	300	301	304	295	293	299	298	300	294	292	293	297	297	296	293	295	298	300	298	295	298	300	301	301	296	295	292	297	298	299	303	302	302	303	297	298	299	301	301	301	297	297	297	298	296	296	297	294	294	294	295	296	296	297	295	297	295	297	301	295	298	298	298	298	296	295	294	295	300	299	298	297	299	303	302	301	299	297	292	289	291	295	297	298	297	296	297	295	293	293	295	299	300	293	295	295	297	297	295	296	296	296	293	292	290	293	293	293	292	293	297	299	300	301	302	300	298	289	291	291	296	293	291	293	294	296	296	296	296	298	295	293	291	291	293	294	290	289	291	294	296	293	291	292	285	288	293	292	291	292	294	292	291	288	291	295	296	295	295	295	297	297	299	300	299	297	292	292	290	289	291	291	291	290	288	292	291	293	291	291	290	292	290	290	287	289	297	299	297	300	300	299	296	295	292	292	293	294	295	294	294	297	297	298	297	296	294	292	292	294	295	295	294	295	295	295	293	293	296	297	297	296	297	296	297	296	294	293	287	289	291	295	294	294	295	296	298	297	296	295	296	295	288	286	291	296	298	297	296	297	298	297	296	296	301	305	301	301	296	297	299	304	297	295	294	297	299	305	299	294	293	293	299	301	302	298	299	299	300	300	298	298	298	299	299	298	298	299	298	295	295	0	0	0	0	0	0	0
285	292	295	298	298	298	298	295	294	293	292	292	292	295	298	299	293	290	291	294	295	296	296	294	293	296	301	301	298	298	293	291	288	291	295	296	296	298	297	298	298	298	296	296	297	297	298	298	299	294	296	298	299	300	297	297	295	293	294	294	294	295	298	299	300	300	300	300	301	302	299	300	299	300	301	299	300	301	305	300	299	298	298	296	298	299	298	299	301	301	298	297	295	297	297	297	299	301	301	297	296	297	298	298	292	294	296	299	302	301	299	298	298	300	299	296	298	300	301	298	297	296	294	294	296	298	302	301	297	293	299	293	295	293	294	294	295	293	294	293	292	292	291	292	294	294	296	297	297	298	298	297	295	296	301	301	301	301	296	297	297	292	291	289	289	290	290	289	289	290	291	291	294	294	292	290	288	289	288	290	296	300	300	299	293	293	298	298	299	295	288	287	290	297	298	299	299	298	297	296	297	299	300	297	295	299	301	299	297	295	301	302	295	294	292	290	292	291	290	292	293	294	300	297	296	291	293	296	297	300	300	300	296	298	296	290	291	293	296	296	297	300	299	296	293	295	297	298	297	293	292	291	294	294	296	297	299	298	292	288	291	291	291	294	298	299	295	291	300	295	291	292	294	295	294	293	290	290	292	294	293	290	289	289	288	287	287	290	290	290	291	292	291	294	290	288	287	287	291	291	292	292	295	293	291	291	288	291	292	293	293	297	294	291	292	292	289	292	291	289	293	296	296	296	292	291	291	295	299	300	300	293	289	287	292	293	292	294	297	296	296	297	294	296	297	291	291	290	295	295	295	295	297	296	295	294	292	294	293	293	291	291	292	294	297	297	294	295	296	295	294	297	296	301	299	300	299	299	299	300	301	300	300	299	298	299	294	295	296	295	294	293	291	290	291	295	292	289	293	293	293	294	296	296	297	296	294	294	294	294	294	295	295	294	296	297	299	299	299	296	291	288	287	290	293	288	286	286	289	290	290	290	292	295	295	289	289	292	294	295	293	293	294	293	292	292	291	289	290	292	292	292	291	292	295	297	301	296	294	287	288	292	292	290	290	294	295	295	289	288	294	295	295	294	291	290	290	289	288	290	289	291	292	295	288	286	283	285	290	292	292	292	291	290	290	288	288	291	286	294	292	292	291	296	299	299	298	294	289	290	288	288	288	286	283	284	285	289	294	293	291	290	291	289	286	282	283	282	282	289	292	291	298	295	293	293	290	289	289	288	289	290	292	294	295	296	296	292	291	291	293	292	294	293	293	294	294	292	292	292	293	292	293	291	293	293	292	293	292	292	294	291	292	291	294	295	294	294	293	292	296	297	295	288	286	288	288	290	292	293	293	295	296	296	296	295	294	294	297	289	291	291	290	294	293	291	291	294	295	294	293	294	294	295	294	296	295	294	294	296	300	299	296	296	295	295	298	296	296	296	295	293	293	0	0	0	0	0	0	0
281	284	290	294	292	292	292	292	289	292	290	290	290	293	295	293	293	291	290	290	293	293	292	292	293	297	295	293	288	288	285	286	286	287	291	293	294	294	295	294	294	295	294	291	295	295	293	291	294	294	294	296	297	297	295	295	293	292	293	293	290	288	291	295	298	300	299	298	298	298	297	293	292	290	291	291	294	295	298	299	299	296	294	292	293	295	296	297	296	296	293	290	294	295	295	293	292	293	294	294	293	293	295	297	294	293	296	300	301	296	296	296	298	299	300	298	297	296	295	292	292	292	292	293	296	298	298	294	292	292	293	293	292	292	291	290	292	291	293	292	292	291	290	290	292	293	295	293	293	291	288	288	288	288	290	290	290	293	294	294	293	292	291	287	287	286	287	287	287	288	287	288	288	288	285	289	288	288	286	285	286	288	290	292	291	289	291	294	295	293	283	283	285	286	288	296	296	298	298	294	295	296	293	293	294	294	294	295	294	297	290	290	294	291	289	290	291	291	290	289	289	286	287	289	287	289	292	293	293	294	295	296	297	294	292	291	290	290	288	289	289	290	292	295	293	289	292	290	289	287	288	288	288	291	293	296	297	298	296	295	291	290	291	288	289	289	289	298	291	289	289	289	289	289	286	292	288	288	290	294	294	290	289	286	287	285	285	285	287	289	289	283	283	284	289	288	287	288	288	287	289	290	295	294	290	287	287	291	292	290	292	291	297	290	291	287	292	291	287	289	293	285	285	290	289	287	290	295	294	292	290	294	293	287	292	293	293	293	294	294	296	294	292	292	291	291	290	290	288	289	290	292	295	295	294	290	291	292	291	290	288	291	293	291	288	289	291	288	289	289	289	293	293	297	295	295	293	292	295	294	299	300	301	293	299	294	294	294	283	287	290	289	289	291	289	289	289	289	289	291	291	291	289	293	293	291	292	293	293	291	292	294	294	293	294	293	297	298	298	296	288	286	289	289	289	289	286	286	288	289	284	284	290	290	291	289	288	289	293	289	289	291	291	290	290	288	287	286	286	288	289	289	288	287	286	294	293	298	291	290	290	292	291	288	289	292	291	288	286	287	289	293	290	291	289	289	289	289	288	289	288	284	284	289	287	285	282	285	288	291	290	292	290	288	288	285	287	285	288	290	290	287	291	293	295	293	293	290	287	285	281	281	281	286	283	280	280	279	289	286	283	282	282	284	284	286	284	284	289	278	277	292	292	288	288	290	289	289	288	288	288	288	290	291	291	292	288	288	290	290	290	290	290	293	293	295	294	288	289	290	289	289	290	290	294	293	292	292	292	290	292	291	291	289	288	291	294	294	293	292	292	292	287	286	284	287	286	287	290	291	291	293	293	293	297	297	292	289	286	288	288	287	287	287	282	286	289	286	286	287	288	286	287	291	290	288	293	293	293	297	297	294	291	287	287	290	292	293	294	294	292	292	290	0	0	0	0	0	0	0
282	282	283	286	289	289	289	286	286	290	289	289	289	290	292	293	294	294	293	293	290	291	287	287	293	296	293	292	292	292	290	288	286	288	290	292	292	292	290	289	290	290	289	288	286	286	285	284	285	291	291	291	291	294	288	288	289	291	291	291	290	287	285	293	297	298	293	292	292	291	289	286	288	289	293	292	290	292	296	296	296	293	292	289	291	290	292	293	294	290	290	287	283	283	283	284	285	285	285	287	286	284	290	292	293	287	288	290	290	293	293	294	293	292	292	292	290	289	286	286	286	284	285	288	295	296	296	289	288	289	289	291	292	291	287	286	290	290	292	292	291	289	286	285	288	289	290	288	287	286	286	285	284	286	288	286	286	288	289	288	289	291	290	287	283	285	285	286	285	288	287	287	283	288	286	286	285	285	284	283	283	283	284	288	288	286	289	291	291	295	281	279	278	281	283	283	284	288	292	294	289	288	289	289	290	289	287	286	283	286	286	284	283	285	287	289	289	285	286	285	284	284	282	280	281	285	287	288	288	288	289	290	292	292	291	288	287	286	286	288	288	289	289	288	286	289	284	282	285	290	287	289	287	286	283	280	285	287	287	291	289	288	288	290	287	286	284	285	287	287	287	286	286	287	286	284	285	288	289	291	294	290	287	289	287	282	283	283	286	286	283	282	281	281	284	287	285	283	284	286	285	286	286	286	284	282	282	282	282	284	285	286	288	286	284	282	282	280	283	285	280	278	278	279	282	281	285	291	290	289	289	290	288	286	288	291	291	291	287	285	284	288	291	292	292	289	288	287	287	286	289	290	293	287	291	287	284	283	283	282	282	283	287	290	286	285	286	285	286	287	279	282	285	289	288	290	290	290	290	290	290	290	284	287	288	290	291	282	282	286	284	284	284	284	285	287	287	287	285	287	285	286	286	288	290	289	289	290	292	288	291	293	293	293	294	292	296	296	295	287	286	288	289	290	289	285	286	286	286	284	285	285	284	285	293	288	288	288	287	289	289	286	284	283	286	284	283	285	285	285	284	285	285	283	285	285	287	288	286	283	288	289	288	289	289	290	285	286	288	285	287	289	286	287	286	287	286	283	288	285	284	286	285	283	285	281	281	284	285	288	287	286	286	285	284	284	285	285	287	285	286	285	285	290	291	290	288	285	280	279	278	278	278	282	282	283	283	282	282	277	276	276	278	279	283	283	287	287	283	280	277	275	276	278	279	283	289	288	283	286	285	287	287	287	286	286	286	287	287	289	288	286	287	290	294	294	287	287	287	287	287	286	286	288	290	290	290	289	285	287	288	289	288	287	285	286	288	292	292	292	290	287	285	284	284	284	283	285	287	290	290	289	289	291	293	290	287	286	287	286	287	286	285	283	284	289	286	285	284	281	283	284	284	290	289	285	286	294	294	294	288	286	286	285	285	288	290	291	291	290	289	289	288	0	0	0	0	0	0	0
278	278	278	281	286	283	283	285	286	286	288	288	287	287	293	295	287	287	288	288	287	287	288	288	289	289	288	289	290	289	289	288	286	286	287	289	289	289	288	287	285	288	286	286	285	282	282	282	283	284	284	285	286	289	288	288	288	289	290	290	289	286	286	287	289	290	287	286	286	286	287	287	287	288	293	285	285	288	289	293	289	290	289	287	287	288	289	289	287	286	286	284	283	282	281	280	281	283	283	285	286	288	287	291	286	287	286	287	287	283	287	287	289	288	286	288	287	286	284	284	284	283	282	282	289	295	294	287	286	285	287	289	289	290	285	285	287	290	291	292	289	286	284	282	283	288	287	286	285	283	283	283	283	284	284	283	280	281	282	284	286	288	288	285	283	282	282	284	285	286	288	284	286	287	287	286	285	282	280	280	282	282	282	282	282	283	285	289	293	288	283	280	278	278	279	278	279	283	284	281	282	284	281	281	282	281	280	276	281	284	287	289	286	284	283	285	284	283	284	282	282	282	281	282	283	283	287	289	288	287	286	286	290	287	287	286	285	284	284	284	286	288	287	287	285	283	278	280	283	287	283	284	284	285	281	281	280	282	290	290	283	283	284	285	285	282	285	286	283	283	285	283	282	282	282	282	284	286	285	287	288	287	282	285	286	281	282	283	282	283	283	280	279	284	282	286	285	280	281	281	281	282	277	276	281	280	280	280	281	277	279	279	279	279	281	281	282	282	283	284	280	280	283	283	284	282	283	285	285	286	283	283	282	281	283	282	283	284	283	281	281	279	282	284	286	286	286	284	283	278	279	281	282	282	282	281	281	282	282	283	284	285	284	283	283	281	283	283	282	282	281	283	286	288	288	288	288	290	289	289	288	287	283	282	283	282	283	281	282	286	284	283	283	282	285	286	286	285	282	281	282	285	286	283	282	282	286	286	284	285	286	289	292	292	293	294	292	293	285	277	284	285	287	290	289	285	281	281	283	283	282	285	285	287	285	286	286	282	281	283	284	283	282	282	278	280	281	282	282	282	280	279	279	281	282	284	285	285	282	281	281	282	282	282	281	281	285	285	285	285	285	283	281	284	283	285	280	280	279	281	281	284	282	281	281	280	277	281	280	279	278	284	284	284	283	282	283	285	287	281	281	279	281	283	290	289	286	282	280	278	276	277	279	283	285	283	283	280	278	278	278	276	278	279	282	283	283	282	283	279	275	276	276	276	276	276	285	283	280	277	283	283	285	282	281	283	284	284	283	284	284	283	283	285	284	282	284	284	284	284	284	284	285	285	287	286	287	281	281	285	287	289	288	284	281	276	280	286	288	287	287	285	284	283	282	282	282	283	286	288	290	290	290	288	289	288	289	287	285	285	284	285	284	284	286	284	285	281	279	280	282	282	283	286	285	283	283	283	285	283	282	282	287	287	288	286	288	290	289	289	287	287	282	0	0	0	0	0	0	0
278	278	277	275	276	278	278	282	283	281	277	279	279	283	285	287	287	278	283	285	285	287	287	287	286	287	283	284	283	284	284	283	283	286	286	285	285	285	280	279	279	280	282	281	283	282	282	280	282	283	284	282	284	285	284	279	279	281	286	288	287	285	286	285	286	286	283	285	286	286	287	287	287	288	281	282	282	279	278	282	285	285	286	285	285	286	285	287	282	279	281	281	281	280	280	282	286	285	285	285	285	285	287	289	283	285	286	286	284	282	281	283	284	286	285	281	279	278	282	282	283	283	282	282	281	281	281	281	282	283	283	285	285	283	283	285	287	288	289	287	286	284	282	281	281	284	285	283	282	282	283	283	284	284	281	279	277	276	274	282	286	287	284	283	282	278	278	277	277	277	280	281	283	284	286	285	284	282	281	280	281	282	281	279	281	281	284	281	285	282	281	280	277	278	278	278	276	279	280	281	281	282	280	278	278	280	278	274	274	278	283	285	285	284	282	282	280	283	285	284	282	282	281	282	283	283	284	284	282	281	280	280	281	282	283	283	284	282	282	282	282	288	285	285	277	275	276	276	278	277	277	277	280	283	284	279	280	282	287	281	281	284	284	281	280	282	282	287	282	281	280	279	282	281	279	279	281	285	285	285	284	275	281	280	280	277	279	280	280	280	281	279	279	282	281	279	279	279	278	277	278	277	278	277	275	277	276	277	276	277	278	279	280	281	281	282	281	282	280	276	280	282	282	281	279	278	278	280	282	284	281	281	281	278	279	280	281	281	280	279	279	278	279	281	279	276	276	277	277	277	277	275	272	269	279	282	282	282	281	282	284	285	285	280	278	277	282	280	279	281	281	281	286	287	284	285	286	288	289	287	285	284	280	279	277	278	278	282	283	283	284	281	281	282	283	285	283	282	281	279	278	277	277	280	281	282	281	280	277	277	278	285	284	285	286	288	284	282	282	275	279	278	284	284	288	283	281	284	285	281	280	279	279	286	284	281	280	277	277	276	281	280	280	278	278	277	279	280	281	280	278	276	276	278	279	281	281	280	278	274	278	279	283	279	279	282	285	283	282	281	281	280	280	278	281	284	286	285	277	278	279	281	281	281	281	281	274	278	281	279	278	281	281	282	281	280	279	280	286	280	278	277	280	279	281	285	284	282	281	279	276	277	277	273	278	279	279	279	278	277	277	275	277	278	282	284	282	280	283	279	277	277	277	277	276	275	276	278	273	274	276	278	281	280	277	273	270	275	282	283	281	279	278	274	279	279	280	281	280	279	282	283	282	281	282	282	281	281	280	280	278	280	279	278	277	276	279	284	287	286	285	283	282	282	283	282	281	280	281	287	290	290	289	288	286	286	288	285	283	283	282	281	282	284	284	281	280	279	279	279	280	280	281	284	278	280	280	280	281	283	279	280	288	285	283	281	281	284	284	283	283	283	281	0	0	0	0	0	0	0
279	279	276	275	273	274	274	278	278	276	274	277	277	280	279	277	278	277	280	282	287	288	287	286	286	284	279	279	274	279	279	279	280	283	285	282	283	277	277	277	276	277	279	281	283	281	281	282	284	285	283	277	275	275	273	273	273	275	278	283	284	283	283	278	277	279	280	281	283	283	285	284	283	281	281	279	272	271	275	277	279	282	281	282	282	282	279	283	279	272	272	275	275	278	281	286	286	286	283	280	280	280	279	278	276	282	280	281	277	277	278	279	280	282	281	279	276	275	274	278	280	281	281	280	280	279	279	279	279	279	279	279	280	281	282	284	285	284	281	283	283	280	278	274	273	279	278	278	279	279	282	283	284	283	278	279	280	276	274	280	279	280	280	280	280	280	277	276	274	276	280	281	281	281	283	282	280	281	281	280	277	279	278	278	275	273	272	277	278	279	276	281	278	277	277	278	278	278	279	279	279	278	276	276	276	277	277	274	274	277	277	279	281	280	280	281	280	280	283	280	281	281	281	281	281	282	277	280	278	278	277	277	276	281	283	283	282	282	279	280	286	281	283	275	274	272	272	275	275	275	276	277	278	280	281	287	281	284	277	278	281	285	280	279	278	279	281	280	279	276	276	275	277	280	278	278	278	280	281	282	281	272	272	281	278	279	278	278	276	276	279	278	277	276	273	275	278	279	279	277	276	276	277	276	275	274	275	277	279	278	277	281	281	280	278	278	277	273	277	275	278	281	281	279	277	277	278	278	277	277	276	280	274	269	272	272	273	276	278	277	275	275	275	275	275	276	275	275	277	276	271	266	266	267	268	275	278	278	280	281	282	281	275	271	275	275	277	277	279	281	279	275	275	280	281	280	280	276	288	286	283	281	278	272	277	278	281	280	277	277	277	279	279	278	282	282	281	281	279	279	277	276	276	279	282	281	279	276	276	276	275	274	279	279	279	279	274	272	272	270	273	277	285	282	284	281	284	284	279	279	278	276	277	284	286	278	277	275	272	274	275	276	275	276	275	276	276	278	278	276	274	274	273	275	273	274	279	276	276	277	275	276	280	282	282	282	282	283	279	278	280	273	273	272	275	277	282	281	270	277	281	282	281	280	281	282	277	277	279	278	279	278	278	278	280	279	279	277	277	278	279	278	278	279	280	281	282	281	281	281	278	274	272	271	278	277	278	280	278	276	276	276	275	277	281	282	280	279	281	280	278	277	279	279	278	276	273	273	272	273	276	279	280	279	276	274	270	270	273	275	276	277	276	273	274	277	279	280	279	277	279	280	280	278	279	280	279	279	279	277	277	276	278	277	276	275	279	274	275	276	274	282	281	282	286	287	280	273	274	278	278	281	281	281	280	280	282	282	281	281	278	278	280	283	283	276	276	277	278	278	277	271	271	275	280	280	280	280	282	279	285	284	284	281	279	274	273	273	275	277	277	282	282	0	0	0	0	0	0	0
278	277	277	274	271	275	275	275	277	274	272	274	274	278	277	276	277	279	279	284	286	287	287	285	285	282	276	273	271	274	277	277	277	279	283	281	278	275	275	275	276	274	276	278	283	286	286	286	284	284	276	275	275	274	273	273	274	274	276	279	280	281	278	275	275	276	275	278	280	284	284	280	276	277	276	272	270	273	274	276	278	278	278	280	280	280	277	277	275	270	270	271	271	273	276	277	277	275	276	276	276	276	275	271	269	270	269	269	273	274	277	279	278	279	278	276	274	272	272	275	277	278	277	276	275	275	275	277	278	277	276	278	279	279	280	280	280	277	273	277	277	277	274	275	273	273	274	274	274	275	279	280	283	280	277	278	279	279	277	275	277	279	282	282	281	280	277	276	273	274	278	278	278	277	277	278	277	275	278	275	274	272	275	275	274	272	272	274	278	276	277	279	275	276	276	275	271	270	269	276	277	277	271	274	276	277	276	275	274	276	277	277	277	274	276	277	277	277	273	273	273	273	271	273	276	279	274	274	276	274	270	273	280	278	276	275	274	272	272	275	277	272	274	274	273	273	273	276	271	271	271	273	276	274	272	269	268	270	269	260	260	273	274	273	273	276	275	277	276	273	272	274	273	272	274	266	264	274	270	270	273	276	280	281	278	277	274	275	272	272	273	275	274	275	276	276	278	277	276	276	275	271	274	275	276	275	275	274	274	272	273	266	280	279	274	275	275	272	272	273	277	279	278	278	277	275	275	276	276	269	274	274	271	265	271	274	272	271	274	275	276	274	274	271	274	275	273	271	269	267	266	266	267	267	270	271	271	273	274	273	273	272	268	269	271	271	274	275	278	279	274	272	274	275	277	277	276	274	274	275	274	274	272	272	274	278	279	278	275	275	277	277	275	272	272	274	276	278	278	275	276	278	280	280	280	280	279	274	276	276	276	278	278	275	274	272	268	269	270	269	273	273	274	279	277	277	276	276	274	273	272	273	278	279	276	282	275	273	272	272	273	275	275	274	275	274	273	274	276	276	274	274	273	274	273	274	276	274	275	272	273	270	273	279	278	278	280	280	277	273	268	270	267	267	268	271	273	273	269	271	273	281	286	279	277	276	270	275	278	278	277	275	276	276	275	276	277	272	269	274	275	278	272	272	272	278	281	281	279	277	278	275	272	271	272	276	275	275	276	276	276	272	273	274	276	277	277	278	279	279	279	281	280	278	278	275	271	270	270	272	270	274	275	277	273	270	269	268	267	272	273	273	272	272	271	273	272	271	271	276	277	274	275	276	277	278	278	275	276	277	277	275	275	274	274	273	270	272	274	275	272	274	276	274	270	268	268	269	269	271	272	274	274	275	276	280	281	280	278	276	274	275	280	277	275	270	270	273	275	275	270	270	270	272	274	276	276	277	277	277	280	281	281	274	273	272	271	272	273	273	273	275	279	0	0	0	0	0	0	0
275	273	273	272	272	272	272	272	275	273	271	273	273	276	275	274	275	275	275	280	284	284	283	281	281	277	275	273	273	274	276	276	276	276	277	275	273	272	272	273	273	273	275	277	279	281	282	282	281	279	276	274	274	274	274	273	274	274	276	277	278	279	274	273	273	275	274	274	277	277	277	275	273	274	273	269	270	271	273	277	278	275	274	276	275	279	276	276	271	270	271	271	271	271	274	275	274	276	275	273	273	274	273	271	270	270	268	268	270	274	274	275	276	276	276	274	271	270	270	270	272	272	272	273	273	271	275	277	277	274	273	273	274	274	276	275	272	271	271	269	268	272	274	275	274	270	272	272	272	272	273	276	279	277	276	275	276	277	278	274	278	280	282	283	282	280	279	276	275	274	275	275	273	275	278	278	278	274	275	274	273	272	272	277	278	274	273	277	277	277	276	275	276	274	271	271	274	274	268	270	272	269	270	269	272	271	271	271	273	276	276	272	271	274	274	275	276	275	274	274	273	273	274	271	270	271	272	274	273	270	270	272	273	272	271	268	265	265	266	267	268	269	275	275	275	275	275	276	270	270	270	272	272	269	268	268	269	269	269	270	272	272	272	271	271	271	271	270	265	265	267	271	272	272	269	269	267	264	272	270	270	268	272	273	275	275	273	273	271	269	269	272	272	273	273	274	275	268	270	274	271	270	270	275	273	273	273	273	271	272	270	274	273	274	270	268	268	267	268	271	275	275	275	276	276	274	274	274	270	271	267	274	269	262	265	268	268	274	274	275	275	274	271	271	265	267	266	262	264	263	265	265	265	267	269	271	271	271	271	271	271	271	268	268	271	268	273	274	275	274	274	271	271	278	281	278	275	274	274	271	270	271	271	272	273	275	278	276	273	272	272	272	271	270	273	274	275	276	277	276	276	278	279	278	278	278	276	275	277	278	275	276	276	276	275	272	270	267	268	269	271	271	273	273	274	270	270	272	271	272	272	272	273	272	273	267	273	273	273	275	274	275	275	276	273	272	272	272	275	276	276	275	274	274	272	272	271	271	272	273	272	271	272	273	274	276	272	273	272	276	275	272	271	271	270	273	272	269	266	263	267	270	273	273	274	272	271	271	270	272	274	275	273	274	273	268	266	264	263	273	274	274	271	270	269	271	274	277	277	277	275	275	273	272	271	272	273	274	275	276	276	272	270	273	274	275	276	276	275	274	274	273	271	270	274	272	270	265	265	266	267	268	267	270	272	270	269	269	268	265	267	268	269	266	267	266	267	268	269	271	272	273	274	276	276	274	273	271	271	276	274	275	273	272	268	268	269	271	269	269	269	271	276	272	269	269	268	268	268	270	272	273	273	272	272	273	275	278	276	274	273	273	274	273	270	269	269	268	269	270	272	271	270	269	268	268	271	273	273	273	274	278	273	273	272	272	271	273	274	274	273	271	270	0	0	0	0	0	0	0
269	268	268	269	270	269	270	270	270	269	268	269	272	272	270	269	274	272	272	276	279	280	277	273	273	271	268	271	271	271	275	275	275	275	274	273	269	267	266	266	270	271	274	275	274	270	271	271	271	271	272	270	270	269	268	272	272	272	271	273	275	271	271	270	271	270	271	271	274	274	272	272	272	271	270	268	269	270	273	277	277	276	273	271	273	275	273	272	271	270	270	272	271	270	270	270	274	274	273	271	272	272	272	271	271	272	272	272	273	271	270	269	269	272	272	267	265	269	270	270	270	270	268	268	267	268	271	272	270	271	271	271	272	270	269	267	266	265	267	266	266	268	271	273	267	268	269	270	271	270	272	274	276	271	271	272	274	274	273	272	273	275	275	270	270	271	270	269	265	269	270	272	273	273	274	274	273	271	274	274	271	270	269	278	272	273	274	276	277	277	273	270	275	272	270	269	271	273	269	267	268	269	265	267	269	269	269	269	270	271	270	270	269	269	273	275	275	273	274	273	272	272	275	273	269	266	271	272	272	269	269	269	271	269	268	265	263	265	265	266	266	267	273	273	273	276	272	271	270	269	271	268	267	268	268	268	267	265	268	271	271	271	267	268	269	269	267	267	268	269	268	270	273	270	269	268	267	264	264	266	265	268	269	271	272	271	269	268	266	265	267	269	271	272	273	272	269	266	269	271	270	271	268	270	272	273	272	271	272	271	269	270	268	268	267	265	266	265	267	270	273	274	270	265	262	267	268	266	268	272	275	265	267	261	264	268	266	267	270	272	272	271	271	264	263	263	262	264	263	263	262	262	264	269	268	271	269	268	269	269	268	270	270	268	268	268	273	274	267	265	269	267	266	266	263	266	270	275	275	272	270	270	271	273	273	273	273	272	273	271	271	272	271	269	272	273	273	273	274	274	275	275	275	275	271	272	272	276	276	276	277	277	276	277	276	272	268	267	267	270	272	272	272	271	271	271	270	269	270	270	272	269	277	275	269	270	271	271	272	274	274	273	275	272	271	269	271	271	272	275	277	276	275	274	272	269	268	269	272	272	276	272	273	272	272	272	267	267	269	274	274	273	271	269	270	271	270	267	264	264	266	268	272	273	272	273	269	269	269	269	268	266	265	273	274	270	267	264	260	268	270	273	268	266	266	269	271	269	272	272	274	273	272	271	270	270	273	274	274	274	275	271	268	270	270	268	270	272	272	271	271	271	271	271	273	272	267	266	265	265	265	267	268	270	271	269	266	267	267	263	265	266	266	265	264	265	264	267	270	271	271	271	273	273	274	272	270	266	264	263	264	276	274	274	268	268	270	267	267	266	267	273	272	270	269	269	269	269	268	271	272	274	273	272	270	269	268	267	266	271	272	272	272	271	269	269	267	267	267	269	271	271	269	269	268	268	269	270	271	270	270	268	269	268	269	271	269	272	274	274	273	270	268	0	0	0	0	0	0	0
265	264	264	266	268	267	265	265	265	262	263	264	265	265	262	262	267	267	270	270	273	273	267	264	265	265	267	267	266	267	270	270	269	270	269	267	264	263	270	270	270	267	271	269	268	270	271	272	272	273	272	273	270	269	264	263	266	267	267	266	267	268	268	269	270	270	271	272	271	271	269	269	270	270	267	266	266	271	274	275	272	272	269	263	262	266	270	269	267	265	265	265	267	266	265	265	268	271	272	267	269	270	271	271	271	273	274	273	268	267	267	268	268	268	268	266	266	265	266	269	268	267	265	264	263	265	267	269	269	269	270	270	270	269	269	265	262	263	264	262	261	259	260	262	266	269	270	270	272	270	272	273	268	269	269	267	271	271	272	270	269	265	268	268	265	263	261	261	260	265	270	269	267	267	271	271	270	270	268	267	268	268	269	269	271	272	273	275	275	275	266	264	274	267	265	264	264	264	265	267	268	266	265	265	266	268	267	269	270	271	269	267	264	264	268	269	265	267	269	269	271	273	274	270	268	266	269	266	265	266	265	268	267	267	266	263	262	261	264	267	267	268	269	270	269	270	269	268	268	267	269	266	266	267	264	262	261	262	264	267	269	267	267	268	267	268	265	267	268	269	268	270	266	272	274	269	269	265	262	264	261	262	268	270	271	272	271	268	264	264	264	262	263	261	266	266	265	264	266	266	269	269	269	269	264	271	273	273	272	271	270	267	264	263	265	265	266	264	262	262	265	264	264	263	261	265	267	265	266	266	269	273	260	260	262	264	265	266	265	266	268	268	261	261	262	261	262	264	263	263	262	262	264	270	268	265	266	266	266	268	268	268	266	266	266	263	270	272	266	264	267	266	265	265	263	266	264	267	272	271	269	269	270	272	270	265	267	266	268	271	266	264	266	266	268	268	269	270	271	272	273	273	274	271	269	270	270	274	275	275	275	270	271	270	271	270	268	266	267	271	271	270	269	269	269	270	270	270	269	269	268	267	272	272	266	267	269	268	270	270	273	272	269	270	268	267	266	266	266	268	270	274	274	274	270	266	266	267	269	274	272	265	262	269	268	267	267	266	270	275	272	270	271	269	270	268	266	265	263	262	266	268	272	273	272	268	268	269	269	269	270	264	262	263	264	263	263	265	265	265	268	268	267	265	263	267	268	268	268	270	271	272	271	266	268	267	271	272	271	270	268	266	266	265	264	264	270	270	271	269	269	269	265	267	271	270	266	266	264	262	260	264	264	266	270	271	270	265	260	261	264	264	263	262	261	263	266	267	270	270	271	270	271	273	274	273	266	266	266	265	267	267	270	270	271	273	270	264	266	266	266	266	267	266	266	268	268	268	269	270	271	275	274	272	269	268	269	262	264	269	271	272	271	271	269	268	266	266	264	266	267	269	269	268	268	268	269	270	268	268	267	265	267	265	266	264	264	265	265	270	270	267	265	0	0	0	0	0	0	0
264	265	268	268	267	263	261	259	259	259	259	259	257	257	258	261	264	266	267	267	268	265	265	264	263	263	262	261	261	264	267	263	263	262	261	261	264	272	269	269	268	266	265	265	267	269	270	271	271	272	272	271	269	270	271	268	269	269	269	267	265	268	265	266	265	266	267	269	272	263	265	268	268	266	266	263	262	261	263	268	267	266	263	261	262	263	263	262	262	262	264	265	265	265	263	264	264	266	267	270	267	267	267	268	269	270	273	272	268	265	268	264	265	267	267	267	266	265	266	266	265	264	263	262	261	262	265	266	267	268	267	268	270	267	267	264	261	263	261	262	261	259	259	261	263	265	266	267	267	268	263	264	265	268	264	262	264	265	262	263	263	260	260	259	259	257	259	260	262	259	264	266	265	265	265	266	262	260	259	261	262	266	269	269	269	270	271	274	270	268	265	265	264	267	265	263	263	263	264	267	266	261	264	266	265	266	267	268	269	269	260	261	260	264	267	267	264	264	265	267	268	269	263	262	262	264	266	266	267	264	262	265	265	265	263	263	262	266	265	264	262	264	270	269	267	266	266	267	268	267	266	266	265	265	265	261	260	260	259	263	266	266	265	267	267	264	261	260	262	265	270	267	267	268	274	268	269	265	260	261	260	261	268	267	266	266	266	261	263	264	261	261	260	260	260	260	263	264	265	267	273	268	266	266	264	264	265	267	267	262	261	261	263	263	262	259	270	263	264	263	263	266	265	264	261	260	260	263	265	266	266	266	265	260	260	264	265	264	265	262	263	264	259	260	261	263	263	266	265	264	266	267	262	263	264	266	266	265	265	264	263	263	263	260	261	261	264	267	267	262	263	267	266	266	268	264	263	263	264	265	265	267	267	266	266	264	266	264	266	266	263	263	265	266	268	268	270	270	271	270	270	269	271	269	267	268	269	270	272	272	268	265	264	265	266	269	267	266	265	267	270	268	267	268	267	268	269	268	266	265	262	265	265	265	266	266	267	266	267	265	265	263	260	256	262	264	261	262	264	266	265	267	268	268	266	266	265	265	266	257	257	258	258	263	264	262	262	262	269	269	269	266	267	267	268	267	266	264	259	263	265	269	271	272	271	270	268	263	264	267	267	265	262	261	263	263	263	264	263	266	266	267	266	263	263	263	263	265	264	265	268	269	267	266	263	260	261	260	265	264	264	266	265	264	263	260	259	263	267	267	265	263	263	264	268	267	266	264	262	261	260	264	265	253	257	258	261	263	263	262	261	267	265	263	261	257	264	268	268	267	263	264	268	268	276	277	275	269	267	262	261	261	261	265	267	268	266	265	272	270	261	260	260	264	264	261	265	266	268	268	267	268	265	264	262	258	252	251	264	266	271	270	270	269	268	267	261	262	263	263	266	267	267	267	267	268	268	268	267	266	265	264	265	265	266	262	261	260	260	261	264	264	264	0	0	0	0	0	0	0
264	265	265	265	261	258	258	257	257	256	257	258	257	257	256	258	258	266	261	261	256	257	257	260	261	261	262	260	260	261	263	261	261	260	261	262	264	270	269	268	267	266	265	264	262	263	268	270	270	268	267	262	263	264	266	266	266	266	265	265	265	265	264	264	264	265	257	258	260	259	261	264	264	259	259	261	263	263	265	267	266	266	264	264	263	262	261	261	261	262	263	264	265	262	261	262	262	263	264	264	263	263	263	263	267	267	267	264	263	263	262	263	263	265	268	267	267	265	266	265	264	263	262	260	261	260	263	264	263	265	262	263	265	266	264	264	264	266	267	266	264	263	262	261	263	262	259	262	255	254	253	255	257	264	265	265	264	263	261	259	260	260	259	255	256	256	259	260	261	256	261	263	262	261	262	259	258	259	257	258	262	267	268	263	262	265	271	266	258	260	259	265	265	265	265	262	262	261	265	262	259	263	263	264	264	263	265	266	263	261	260	259	258	258	267	265	264	264	262	263	267	268	264	262	262	263	267	268	267	262	261	262	261	262	257	255	253	259	259	260	259	261	262	263	263	264	264	265	264	262	266	265	265	265	265	262	260	258	258	262	261	263	264	267	268	263	260	260	261	259	259	259	257	271	266	269	265	267	258	256	257	264	266	264	266	266	265	262	261	262	263	264	262	261	262	259	262	262	260	263	264	266	266	263	260	260	262	264	266	260	260	260	260	262	259	267	258	263	264	265	267	265	266	265	261	260	261	262	262	262	266	265	265	263	263	259	265	259	261	264	265	265	264	260	260	263	264	266	265	264	265	268	261	261	263	264	262	262	257	260	260	260	259	258	259	260	262	267	267	266	264	265	267	265	264	262	258	261	264	263	261	264	265	264	262	262	262	263	265	266	263	262	260	261	263	267	268	268	267	267	268	267	267	269	267	267	269	266	265	266	265	263	263	262	262	266	267	265	264	263	261	263	265	267	263	266	266	265	264	264	263	261	261	262	262	264	263	262	262	263	263	261	257	255	254	261	261	264	262	264	266	267	267	264	264	258	256	257	257	259	259	261	262	263	263	262	261	260	267	267	267	262	264	266	267	266	263	262	259	260	261	264	269	271	270	270	268	262	262	265	266	266	262	262	264	264	265	264	266	266	268	266	265	264	261	261	261	262	263	263	265	263	263	261	257	254	257	263	261	261	262	261	261	264	264	264	263	264	265	265	263	263	263	264	266	266	264	258	255	257	259	258	260	254	255	256	261	263	262	259	258	260	265	260	256	262	260	265	265	264	261	260	260	262	264	264	262	260	260	262	259	259	258	256	257	257	259	259	259	259	260	263	260	260	261	262	263	264	268	268	259	257	254	255	256	254	254	261	263	266	270	271	269	263	258	260	260	260	261	264	266	266	266	265	265	265	265	266	265	265	263	264	265	265	263	261	261	261	261	261	260	259	260	0	0	0	0	0	0	0
258	258	256	256	254	255	256	256	256	254	259	258	258	256	256	255	256	264	257	257	256	256	257	258	260	261	261	260	259	259	259	258	258	258	260	261	263	267	267	267	265	264	263	263	263	263	263	264	264	264	258	258	260	263	264	264	264	264	264	264	264	264	265	263	262	264	259	259	259	259	262	262	262	262	257	260	261	265	266	266	264	262	263	263	262	261	260	259	259	261	263	263	262	260	259	259	258	258	260	261	260	260	260	261	260	262	263	264	264	263	263	264	265	265	265	265	266	266	265	264	259	258	259	260	259	260	264	264	264	259	258	260	261	256	258	258	259	261	262	261	256	252	257	260	263	261	259	262	255	254	254	254	257	260	263	263	263	261	259	260	262	261	259	256	256	260	261	261	257	258	259	261	261	259	258	258	258	256	257	258	263	265	262	261	255	256	261	255	259	257	259	260	262	263	261	261	260	260	261	259	256	256	262	262	262	261	260	259	260	258	259	260	261	258	259	258	258	259	258	264	264	264	265	257	265	265	265	265	263	263	261	260	261	260	257	256	256	260	259	260	259	261	262	262	262	262	261	261	261	261	257	256	256	258	261	262	261	259	259	258	262	259	260	263	263	265	263	262	257	258	256	259	258	258	262	265	262	263	263	263	255	256	263	264	266	262	260	262	261	263	263	264	261	261	259	260	254	259	260	261	264	263	259	259	260	259	261	262	259	256	256	253	258	259	258	259	261	262	263	263	265	263	266	266	261	260	260	262	262	260	259	260	265	264	265	263	258	259	258	259	258	254	256	257	261	260	261	263	264	264	263	259	258	258	259	259	257	255	256	258	259	259	258	258	260	260	259	261	263	265	265	266	263	263	261	256	256	259	260	260	260	261	260	261	260	260	256	256	259	259	260	262	259	261	263	262	261	265	264	261	259	259	263	266	266	265	264	263	262	261	259	257	259	261	263	264	265	265	263	263	262	260	261	263	263	263	261	262	262	261	259	259	258	259	261	263	262	261	262	261	261	262	257	254	253	256	259	262	263	264	265	267	267	261	257	257	256	255	258	260	260	261	262	263	261	259	258	258	261	262	256	259	262	264	265	266	263	261	260	259	259	257	259	262	262	263	262	266	263	263	266	266	264	266	264	261	261	264	265	265	266	265	264	263	261	259	258	256	261	262	261	261	259	258	259	260	260	256	255	255	258	260	261	258	256	256	258	256	256	264	264	265	265	264	263	261	260	260	256	259	261	260	257	253	257	257	264	266	262	260	260	257	256	257	256	256	261	259	263	263	261	261	261	261	262	261	260	259	258	258	259	259	258	258	258	258	258	257	257	257	257	258	256	258	265	264	265	263	262	260	255	253	255	255	256	256	262	263	263	263	261	260	259	254	255	256	258	260	260	260	264	264	260	260	262	261	262	262	263	263	265	264	261	258	260	262	263	263	262	262	261	261	260	0	0	0	0	0	0	0
247	247	248	248	250	252	253	254	257	257	258	258	258	255	255	257	257	258	256	257	257	255	256	257	258	258	258	257	257	258	257	256	256	256	253	256	259	263	264	265	262	262	262	261	261	263	263	262	260	260	257	258	260	260	262	262	261	258	261	261	263	262	261	261	259	260	260	259	259	259	258	259	258	258	257	255	255	259	261	262	262	258	257	257	258	258	257	256	256	258	261	263	263	260	261	258	257	257	257	258	260	258	259	259	259	257	258	263	263	262	263	263	263	260	258	257	256	262	260	258	258	260	260	258	255	255	256	256	255	255	254	256	256	263	257	258	259	258	257	250	250	254	256	259	261	262	262	260	254	251	252	254	254	256	259	261	261	258	257	261	260	258	257	256	255	251	259	259	254	256	257	258	259	256	255	255	257	257	255	256	256	258	257	260	255	255	254	256	254	257	258	257	257	259	258	255	255	256	258	258	255	254	254	254	260	256	256	259	258	258	253	255	256	256	258	257	256	254	256	259	261	263	263	256	258	257	257	261	261	261	260	259	259	259	259	259	261	258	258	258	255	260	259	260	260	260	258	259	259	255	255	257	254	256	258	261	259	259	257	256	256	256	253	254	257	260	262	260	258	253	257	259	258	257	257	260	263	256	255	260	253	253	259	259	259	259	260	259	259	259	262	265	261	259	259	255	257	255	255	258	259	258	258	257	257	255	255	254	256	257	256	255	251	251	256	254	256	266	263	252	255	265	263	262	258	259	259	261	261	259	259	263	265	266	265	259	256	257	256	253	251	253	254	256	262	260	259	262	263	264	263	260	260	259	260	258	257	259	256	257	255	256	259	259	257	254	260	260	264	262	263	262	263	261	256	255	255	254	257	257	256	256	258	259	257	256	255	256	257	260	262	260	259	259	261	261	260	259	258	259	260	258	258	258	262	261	258	261	261	258	257	256	259	259	262	263	262	262	262	261	260	261	259	262	262	262	260	259	261	261	259	258	258	257	257	258	258	260	260	261	260	260	258	256	254	255	257	258	261	262	264	260	258	257	256	256	256	256	258	261	260	259	256	258	259	257	258	258	258	253	255	258	260	262	262	262	262	261	261	258	256	258	259	257	256	257	256	261	260	257	257	267	265	266	262	260	260	261	263	263	266	262	261	261	257	257	256	255	256	258	259	260	258	259	255	257	258	256	255	256	258	259	260	259	257	257	258	257	257	259	264	264	263	257	255	254	255	262	262	262	262	261	259	256	257	258	261	261	263	265	259	257	256	257	256	256	256	259	261	259	259	259	258	256	256	256	257	253	256	258	261	261	261	258	257	259	257	256	254	254	255	256	256	254	256	262	262	262	261	254	252	259	256	256	256	261	262	262	262	260	255	257	256	255	254	254	256	253	259	261	258	257	249	249	255	257	258	259	261	262	264	256	256	257	259	262	263	263	263	262	262	261	257	0	0	0	0	0	0	0
245	247	247	250	250	250	251	253	254	254	258	259	255	255	255	256	254	254	254	254	254	254	254	255	257	257	257	257	257	256	258	254	251	251	252	254	257	259	260	262	258	258	258	254	259	257	260	260	260	260	259	257	259	259	257	256	254	254	257	257	257	257	256	257	257	259	255	257	259	258	257	257	257	257	255	254	253	254	259	260	260	256	256	256	256	255	254	254	254	257	260	261	262	262	261	258	257	256	257	257	258	256	256	258	257	257	257	258	260	261	257	256	255	253	254	255	255	255	257	254	253	255	257	256	254	254	254	253	256	255	256	253	253	254	252	256	255	251	250	250	251	252	253	252	256	255	256	251	249	249	250	252	252	249	248	249	256	257	256	256	258	256	255	255	255	254	251	251	249	251	252	256	257	254	252	252	255	258	256	253	252	251	252	253	254	254	253	254	254	256	256	259	258	255	254	254	256	255	257	257	254	254	253	253	253	256	256	259	256	256	253	253	255	254	256	254	253	252	253	253	255	254	254	256	257	257	258	257	258	257	256	256	260	259	259	259	261	259	259	258	257	257	260	256	258	254	257	256	254	254	255	258	255	255	257	256	257	257	255	255	252	252	253	253	255	256	257	257	257	259	255	257	259	257	257	260	257	254	255	255	253	252	255	258	259	255	253	254	256	256	257	257	257	257	261	260	253	254	258	258	257	257	258	256	252	255	256	255	256	257	256	253	254	253	253	257	259	258	258	258	255	255	252	256	256	256	258	257	258	256	256	257	259	261	261	259	254	252	251	250	251	252	253	255	255	258	257	256	256	256	258	261	262	261	259	259	261	259	255	256	255	256	259	259	257	254	253	255	256	257	258	257	255	255	255	253	252	257	255	254	252	253	255	256	253	254	255	255	257	258	257	255	258	256	259	262	259	258	257	257	257	255	256	257	258	258	258	258	257	257	259	260	259	259	258	259	260	260	259	259	257	258	257	259	258	259	259	257	257	260	258	258	258	258	255	255	254	256	259	258	259	260	257	256	255	255	257	257	257	258	258	258	256	256	255	255	253	253	258	259	259	258	253	253	256	256	257	257	257	254	256	257	259	260	261	261	258	258	255	254	256	256	259	256	255	256	256	259	259	257	255	257	262	263	259	259	259	261	261	262	251	255	255	257	256	256	257	258	253	251	253	254	254	254	251	256	257	256	254	254	256	259	258	258	257	258	259	257	258	258	261	258	256	253	251	252	255	256	259	259	259	259	256	255	254	254	255	260	260	258	256	256	256	258	256	255	254	256	257	257	259	258	257	255	254	252	252	251	255	260	259	258	259	256	258	255	254	254	254	254	254	254	254	255	253	253	254	259	256	255	258	257	259	257	259	255	254	257	256	254	256	258	258	256	255	254	253	254	258	260	257	251	251	252	246	250	255	253	251	251	254	254	254	254	250	259	259	257	257	258	261	259	256	0	0	0	0	0	0	0
242	245	250	251	251	249	249	249	253	253	255	256	252	254	254	252	251	253	250	251	251	251	252	254	254	253	253	253	254	255	255	254	250	250	252	255	257	258	258	258	255	255	252	252	250	250	254	256	254	255	255	252	252	254	257	254	254	254	255	256	256	254	254	255	256	254	253	257	257	257	257	255	255	253	253	252	250	251	252	257	254	254	255	256	256	254	253	252	251	254	257	261	261	261	259	258	253	255	256	256	256	255	255	258	255	254	256	255	254	254	249	248	249	251	252	254	255	255	255	253	250	250	249	253	252	251	252	252	250	251	253	254	253	251	253	250	250	250	250	250	250	250	251	250	255	254	253	249	249	249	250	252	250	248	247	249	255	255	255	254	254	254	255	255	255	252	251	248	247	249	250	250	255	255	252	251	256	257	255	251	250	251	251	253	254	253	252	253	256	256	256	255	251	249	254	255	255	255	254	255	254	254	252	252	252	253	253	256	256	254	252	252	253	254	254	253	252	251	251	252	253	253	251	251	258	259	258	253	252	251	255	255	257	259	259	259	259	258	258	257	257	257	260	258	255	253	253	252	252	254	255	258	255	255	256	258	256	256	253	252	252	251	252	253	255	255	256	256	253	253	255	255	253	253	253	254	250	254	255	253	253	254	256	257	252	251	253	254	253	254	254	254	255	255	256	259	258	257	259	259	255	254	255	257	251	251	255	256	259	255	253	255	251	253	254	254	254	254	253	254	256	255	252	254	253	252	249	255	255	253	250	252	252	251	253	253	253	251	250	251	250	252	252	254	251	253	255	256	255	255	256	257	260	259	257	257	248	256	260	257	256	256	255	260	259	252	250	252	255	256	258	259	255	252	252	252	252	252	250	250	250	254	255	257	256	255	253	254	255	256	252	252	256	254	252	253	255	254	254	255	255	255	253	250	254	255	254	253	252	256	255	253	256	257	253	253	256	256	256	257	256	255	254	255	257	256	255	255	257	255	257	259	259	258	255	252	252	252	255	258	261	261	258	257	257	258	253	252	252	256	258	256	256	254	251	252	251	251	252	252	252	251	250	251	254	254	256	255	256	256	256	256	257	258	259	260	257	256	254	252	256	259	262	258	258	260	260	260	259	258	254	255	254	256	257	257	258	252	252	251	250	252	252	255	255	257	257	256	255	248	250	251	254	251	251	253	252	255	252	254	252	254	254	254	255	253	257	256	257	256	259	250	247	248	251	253	256	256	255	255	256	256	255	255	253	255	254	258	257	254	250	248	248	253	253	251	251	251	252	252	255	257	255	254	251	247	248	252	254	259	256	255	254	254	255	255	254	254	252	253	252	253	253	253	255	254	253	254	259	259	257	257	256	257	254	255	248	249	250	254	254	253	251	254	255	253	253	255	258	259	258	253	253	248	248	245	248	249	250	250	251	253	252	251	251	250	250	250	250	252	256	256	253	0	0	0	0	0	0	0
241	244	248	249	249	250	248	247	247	247	250	249	246	249	252	252	251	251	250	248	248	248	249	248	249	246	246	246	248	252	252	253	252	254	254	255	254	254	256	256	252	252	250	246	246	247	247	250	250	247	247	250	251	253	253	254	254	251	253	253	254	254	254	254	255	253	254	254	255	254	252	250	250	251	251	250	248	247	250	250	256	252	251	250	254	255	254	252	251	248	249	251	256	254	252	251	251	251	254	253	253	253	252	251	252	252	252	247	248	248	247	248	247	248	248	253	253	254	253	252	251	247	247	247	255	251	248	245	247	250	250	251	250	250	247	248	248	250	249	248	248	248	248	249	248	250	250	248	249	248	253	248	248	248	250	249	253	252	252	252	252	253	253	253	252	251	251	248	246	246	248	250	254	255	250	251	253	252	250	252	251	252	251	246	246	246	248	250	255	254	250	251	251	248	253	254	254	254	252	253	250	250	250	249	248	249	251	253	251	250	250	251	253	253	252	252	250	251	250	251	251	251	250	246	244	247	249	251	253	252	251	252	252	252	250	252	256	253	257	256	254	255	254	252	251	249	250	251	251	253	254	256	256	255	253	252	252	255	254	252	252	250	250	250	250	251	252	252	252	246	247	251	252	253	251	250	250	248	249	249	250	251	255	253	250	251	250	251	251	251	251	251	251	253	254	257	259	258	258	259	255	252	252	255	253	250	254	256	256	258	251	252	250	252	253	253	255	251	249	252	252	253	248	253	250	245	253	253	253	252	251	251	250	250	250	251	252	252	250	251	249	250	250	250	249	252	254	255	256	252	251	255	255	257	255	256	248	253	255	257	257	256	255	256	256	252	252	253	254	257	258	257	257	253	250	251	253	249	250	250	251	252	254	256	255	253	252	253	253	253	251	252	253	250	250	252	252	252	252	252	255	254	249	248	251	252	251	250	251	251	250	253	253	251	255	252	252	251	251	249	255	252	252	255	251	253	252	252	254	251	255	255	256	255	255	253	251	249	253	255	259	260	258	257	255	253	253	253	250	250	253	255	254	249	249	250	250	251	252	251	250	248	248	250	253	253	252	251	253	255	256	255	256	257	255	255	255	253	251	253	257	259	258	256	257	258	260	260	260	258	255	255	252	252	252	258	254	252	251	251	251	249	251	252	253	251	251	251	252	245	245	250	250	249	249	250	252	252	251	250	248	249	249	248	249	251	253	254	254	251	251	251	249	250	248	251	250	254	253	253	254	254	254	253	252	250	252	256	254	251	248	247	249	252	252	249	250	250	251	246	252	253	253	249	248	243	242	248	252	253	251	250	250	251	246	254	255	253	252	252	251	249	254	256	256	254	253	254	255	257	258	255	254	253	250	250	247	247	247	249	252	253	251	250	253	253	253	255	257	257	255	255	252	248	247	247	248	248	248	249	251	252	253	249	251	251	251	251	251	250	253	251	250	0	0	0	0	0	0	0
239	243	245	249	248	248	247	246	246	248	248	246	245	246	250	250	250	247	248	246	247	247	247	247	247	245	243	243	247	251	251	251	252	251	251	249	247	249	251	253	249	246	246	247	246	246	248	247	247	248	248	248	249	251	251	249	249	249	250	250	251	251	251	251	251	253	250	251	251	250	249	248	246	247	247	247	245	245	244	250	253	253	252	249	248	249	249	249	247	244	244	245	250	248	245	242	243	246	249	251	253	250	245	245	243	247	247	246	245	244	246	247	248	247	248	250	249	248	248	249	251	249	245	244	244	248	243	245	249	250	249	249	248	248	247	248	248	248	247	246	246	246	246	245	248	248	250	251	247	247	249	248	247	248	248	247	244	249	248	252	250	251	252	251	251	251	248	248	245	246	246	247	249	250	246	248	248	248	245	246	248	249	246	247	245	246	248	250	251	250	248	251	251	250	246	250	253	251	250	248	249	248	247	243	243	247	250	248	249	249	249	249	251	253	252	250	248	249	250	250	250	249	248	244	243	246	248	248	254	251	250	250	250	249	249	257	249	255	254	250	253	252	252	251	251	250	251	250	248	248	249	251	254	253	250	249	252	248	248	251	251	251	250	249	248	246	249	249	251	247	247	249	250	251	247	248	246	247	249	249	249	250	246	252	249	250	251	248	245	248	250	249	247	252	252	254	257	257	257	256	255	247	247	251	250	249	257	250	257	251	245	250	251	253	253	254	252	249	248	248	249	249	245	251	252	252	253	253	253	251	250	251	248	249	248	250	245	246	248	249	248	249	250	252	252	254	250	250	250	246	250	251	252	252	253	251	253	253	255	257	255	254	253	251	253	253	253	254	253	254	255	257	257	253	251	251	252	248	249	251	251	252	253	254	253	251	251	251	250	247	249	249	248	250	250	250	252	252	250	250	249	250	248	249	249	251	250	250	250	251	250	250	251	251	250	252	254	252	250	249	248	252	248	249	249	249	251	250	252	252	252	249	253	253	253	250	250	249	249	254	257	252	250	251	253	251	253	252	249	249	249	249	248	246	246	244	245	250	250	250	250	247	249	250	253	253	252	251	250	250	251	249	248	249	250	258	255	250	249	248	253	253	256	254	256	255	253	252	251	252	249	248	249	251	254	252	253	251	250	251	249	250	252	251	244	244	245	247	249	246	245	244	244	245	247	247	249	249	248	249	248	247	248	247	249	248	250	253	251	246	252	252	252	250	248	249	244	247	246	250	248	249	250	250	249	248	248	254	251	250	248	246	249	250	249	249	251	251	246	245	245	249	243	247	245	244	242	244	245	246	247	247	247	244	248	251	250	250	251	250	249	249	249	254	251	245	245	251	252	253	247	250	252	249	251	250	248	247	247	248	251	251	250	250	253	254	254	251	251	254	253	253	247	246	245	246	247	247	246	246	247	250	254	252	246	246	251	255	254	249	247	247	249	0	0	0	0	0	0	0
239	242	246	248	248	248	248	248	248	248	248	246	245	245	242	242	241	246	246	246	247	247	241	241	242	239	241	241	241	244	249	250	250	250	250	248	246	247	250	251	244	245	245	245	245	247	246	246	245	248	248	248	247	248	247	245	243	244	249	248	245	245	246	246	249	248	249	246	248	247	247	246	245	245	242	242	240	240	241	244	246	249	249	244	245	245	248	247	245	244	244	246	247	247	243	242	244	246	246	246	246	248	249	248	250	249	248	248	246	244	243	243	244	245	243	245	246	247	246	249	250	248	244	242	245	240	243	245	248	249	248	248	245	247	246	249	248	248	246	242	241	240	241	243	248	248	250	250	250	248	249	244	246	247	245	244	244	244	246	246	246	248	246	245	247	249	249	248	245	245	246	241	245	245	244	246	247	251	245	245	246	247	245	243	245	244	248	250	250	248	248	247	247	246	246	247	248	250	245	248	249	249	247	245	245	243	245	245	248	250	251	251	250	248	247	247	247	248	250	247	247	248	248	247	245	247	248	249	252	251	250	249	250	248	243	249	249	247	248	247	252	251	251	251	250	248	248	247	248	247	247	245	244	250	247	247	247	248	245	245	246	247	248	248	247	243	245	248	250	246	249	251	250	250	249	247	246	247	247	249	246	246	246	245	244	247	248	244	244	246	248	247	247	245	247	246	246	247	249	249	247	247	246	247	248	245	252	250	257	252	251	246	250	251	250	252	250	249	248	249	249	246	245	250	252	251	251	251	250	245	244	246	248	248	247	248	249	248	246	247	246	250	252	253	256	248	245	250	247	246	251	250	253	252	251	250	250	249	248	247	244	244	250	248	246	250	250	250	254	252	249	251	253	251	252	250	249	249	249	249	248	252	249	249	251	250	251	250	247	247	247	247	248	250	251	251	252	251	250	247	248	249	248	249	250	250	250	249	248	249	248	249	250	249	250	252	254	253	252	250	247	248	246	248	249	249	248	249	250	250	247	245	247	250	248	247	247	248	250	249	248	243	243	243	247	247	248	250	247	248	248	248	246	245	243	244	244	245	251	250	250	249	248	249	248	254	254	253	251	248	247	248	250	252	244	251	254	249	248	249	252	251	250	250	250	253	254	252	250	248	247	244	245	248	248	246	246	247	249	247	249	249	248	250	244	243	245	247	247	245	246	245	245	246	249	247	249	247	248	249	248	247	247	247	246	249	252	247	253	245	249	250	250	246	249	247	248	245	243	244	246	246	247	248	248	246	247	247	249	250	248	245	247	248	249	249	248	248	246	244	243	242	246	239	241	244	244	245	244	244	244	243	244	244	244	245	242	242	245	249	246	246	248	247	246	246	245	246	248	244	242	243	246	248	248	248	247	248	248	248	248	248	247	249	251	252	252	252	250	251	251	248	248	245	245	245	245	244	245	244	244	248	248	248	247	247	245	249	249	242	242	247	248	0	0	0	0	0	0	0
238	243	244	243	245	245	245	245	247	246	246	247	246	244	242	240	240	241	243	241	241	241	243	242	240	240	240	240	240	242	242	243	243	243	244	244	245	246	243	244	243	244	244	246	246	246	243	245	246	245	245	245	246	246	244	241	240	240	241	241	242	243	243	245	244	246	248	246	246	244	243	245	244	241	240	239	239	239	239	242	247	248	246	244	242	241	241	241	242	241	242	246	246	246	243	242	244	245	245	245	244	243	240	245	244	244	240	241	244	244	245	245	243	243	244	243	244	245	246	247	248	248	245	241	241	244	243	245	247	246	247	247	242	246	243	245	246	244	242	240	243	243	242	243	245	247	249	249	247	247	246	243	245	247	246	242	240	241	245	246	244	243	244	242	246	247	248	248	249	246	240	240	240	243	244	246	248	250	245	245	245	246	245	243	243	244	239	243	243	244	247	247	246	247	246	245	244	245	246	248	249	247	247	247	246	246	245	246	247	245	247	250	247	243	242	241	241	241	244	245	248	245	247	247	245	245	246	248	250	250	250	249	243	243	247	245	245	245	246	246	248	250	247	250	248	246	246	246	246	245	244	243	243	244	249	247	247	247	246	244	245	245	246	246	243	245	244	247	246	247	248	247	248	248	244	247	248	247	244	246	249	245	246	243	245	244	241	243	244	246	249	246	245	244	242	246	246	247	246	244	245	245	248	245	243	247	244	250	252	252	246	246	245	248	249	250	249	249	249	249	245	245	245	245	247	248	247	246	244	243	241	242	243	245	246	247	247	247	248	246	249	250	251	251	251	255	248	246	247	245	245	251	251	251	249	249	247	247	248	246	243	243	242	242	242	245	247	246	247	247	249	250	250	248	248	246	245	243	243	245	246	248	244	245	246	248	250	250	248	246	245	247	248	249	250	250	250	251	250	250	247	245	245	248	249	248	247	247	247	248	248	246	247	248	248	252	253	253	252	250	244	244	244	245	249	249	248	248	248	248	246	246	247	248	248	247	248	248	249	246	244	244	243	241	243	243	244	246	246	241	240	246	246	242	243	243	244	245	246	249	247	247	245	246	245	247	251	251	251	247	245	247	247	245	243	246	249	246	248	249	250	250	248	249	248	251	249	250	247	245	244	244	241	239	240	243	243	243	243	246	247	245	246	248	248	247	247	246	245	245	246	245	245	244	244	245	246	249	249	249	250	248	246	246	247	249	248	247	247	247	247	247	249	250	251	250	246	246	243	243	244	244	245	245	244	245	246	246	249	245	244	244	245	245	243	245	245	247	245	243	242	241	240	238	239	244	247	246	244	243	242	242	242	245	245	242	244	242	243	245	245	246	244	242	245	247	248	246	243	243	244	242	241	241	245	245	246	247	247	248	247	243	246	246	247	247	249	248	250	250	248	250	248	246	245	244	243	243	242	239	238	242	245	246	246	245	243	242	241	241	241	246	248	0	0	0	0	0	0	0
243	243	243	241	240	240	242	243	243	245	245	245	244	241	241	242	242	242	244	240	244	243	243	240	240	238	237	236	236	238	241	241	242	243	244	244	244	244	241	242	243	243	244	244	244	241	243	244	245	243	242	243	243	242	240	240	239	238	239	239	240	241	241	242	242	243	244	243	243	241	239	240	239	239	239	239	239	239	238	240	245	245	245	243	241	240	240	240	241	241	242	242	242	241	239	241	243	243	244	243	239	239	239	241	240	241	240	240	240	242	245	246	244	243	242	245	242	241	246	246	248	247	242	241	241	242	245	246	247	245	245	241	244	246	244	245	246	243	246	245	245	245	242	243	243	247	247	246	245	238	240	240	240	239	241	241	241	245	247	247	242	242	240	243	243	244	248	249	244	240	239	238	237	239	240	242	242	239	242	243	243	243	245	243	238	238	242	240	241	242	243	242	243	247	246	243	238	242	242	243	244	246	248	245	244	245	247	248	243	243	244	246	244	244	244	242	240	240	241	242	244	248	248	247	245	244	244	245	249	248	249	245	239	240	240	242	243	244	243	245	245	241	241	242	242	245	246	245	246	244	243	243	243	243	241	244	246	247	246	245	245	245	244	243	243	242	244	243	244	242	246	245	246	246	243	239	248	243	242	244	243	244	241	244	248	246	244	244	246	247	244	244	244	244	244	245	245	246	244	243	244	244	244	243	244	241	243	244	249	248	245	246	247	248	248	249	250	249	248	246	244	245	245	245	245	246	246	245	242	240	242	242	242	245	248	247	248	248	249	249	251	249	250	249	247	245	247	246	244	244	244	251	251	251	249	246	245	247	246	241	240	240	235	235	246	246	247	247	249	249	247	245	243	244	243	240	241	243	245	247	247	247	247	246	247	248	247	246	244	244	245	245	246	249	250	249	247	246	249	247	245	245	244	243	244	244	242	246	245	245	246	246	245	245	246	249	248	246	243	243	242	243	245	245	246	249	247	247	245	246	246	245	247	243	244	245	246	247	247	246	246	243	242	240	240	241	245	243	242	240	242	239	243	243	243	242	244	245	245	245	246	244	244	244	245	245	244	247	245	245	245	244	243	243	243	244	243	248	248	249	249	243	245	246	247	246	247	247	245	244	244	243	241	239	240	242	243	245	242	242	239	246	244	249	248	248	248	245	244	243	243	244	246	244	244	244	244	246	246	247	243	247	247	244	245	248	247	244	242	243	244	245	248	248	249	246	245	244	243	244	243	242	243	241	243	244	245	247	248	248	244	244	243	243	242	242	242	243	244	243	241	241	240	239	239	239	244	245	246	246	246	241	245	244	245	239	241	241	242	243	245	244	242	241	242	244	245	243	241	242	243	243	242	241	241	243	246	246	245	247	246	242	242	242	243	244	244	245	247	247	248	247	248	246	244	243	243	242	241	239	238	237	240	244	244	242	240	244	241	241	240	245	246	0	0	0	0	0	0	0
