360	367	371	371	371	371	372	374	373	373	372	371	373	375	374	374	368	359	356	355	356	356	359	360	365	367	368	368	369	367	366	365	365	365	365	367	365	365	363	363	361	359	361	361	363	358	359	359	359	361	362	363	363	362	359	357	353	356	368	371	373	369	366	365	363	363	360	357	353	352	350	353	356	360	361	360	356	353	356	361	363	366	369	367	365	365	361	359	361	363	362	363	363	363	363	361	360	359	354	352	351	351	355	357	355	355	354	357	361	363	362	357	352	348	348	351	356	359	359	355	354	355	355	354	354	358	356	355	353	353	352	351	353	354	356	355	353	350	351	352	351	352	356	355	355	354	355	356	358	356	356	357	354	351	352	354	358	358	357	354	352	348	348	346	350	347	347	350	352	354	359	355	354	352	349	351	356	359	361	361	360	356	352	351	348	351	346	348	346	350	357	354	350	350	350	345	343	340	347	353	356	355	355	352	350	350	350	349	350	349	350	349	346	345	346	349	349	349	350	352	353	353	351	349	349	349	349	347	352	350	347	345	345	346	349	342	343	348	348	345	346	349	347	347	347	348	346	344	343	348	353	353	346	340	341	343	345	354	354	352	347	346	347	349	348	349	349	350	349	349	348	347	350	346	344	345	347	347	346	346	346	343	341	341	338	343	350	352	352	349	346	349	349	349	347	345	345	346	345	352	351	349	345	342	341	345	343	346	349	354	351	349	348	349	353	355	358	356	355	351	342	342	347	345	342	344	347	346	340	344	347	347	347	346	345	343	341	340	342	347	355	353	348	349	346	345	346	347	346	345	342	343	345	353	357	355	351	343	341	343	346	350	353	353	344	349	350	349	349	350	349	352	352	350	348	348	345	342	342	348	346	344	343	341	340	347	346	347	344	341	342	341	341	344	345	344	345	344	347	345	333	331	331	325	329	337	343	349	348	342	341	340	342	345	349	350	348	346	343	340	340	338	337	336	338	342	340	340	343	344	342	342	344	344	342	342	343	342	343	342	344	343	341	340	341	347	348	346	344	343	344	342	346	342	342	346	344	341	338	338	338	339	339	339	340	343	343	341	340	343	345	345	341	340	337	336	337	339	344	341	341	343	343	342	342	341	342	344	345	345	345	346	346	349	349	352	343	342	341	340	341	341	343	341	334	337	339	339	340	342	337	337	339	339	341	344	349	350	348	342	338	339	341	344	346	346	346	345	343	344	349	341	341	339	336	336	339	345	345	341	344	344	341	340	341	339	337	341	343	341	340	341	344	344	345	348	348	347	345	343	341	344	346	345	342	336	341	340	338	338	340	341	340	340	342	342	342	348	340	344	345	340	338	336	335	333	338	340	336	340	346	349	345	344	346	347	343	342	343	343	348	350	346	344	344	344	345	339	332	340	342	342	342	344	345	346	349	352	353	349	351	351	351	350	349	347	345	344	344	347	346	344	0	0	0	0	0	0	0	0
363	368	368	369	369	368	371	371	373	373	371	366	367	369	369	369	358	353	350	350	350	350	353	357	362	364	366	366	365	364	362	361	362	365	363	363	363	360	358	356	355	355	356	356	355	359	360	356	354	355	360	361	356	356	354	354	354	357	361	365	365	364	361	360	359	359	358	356	352	349	350	351	355	359	360	360	354	354	354	357	361	363	364	364	361	361	360	357	356	357	360	361	359	360	358	357	356	357	356	354	350	348	348	350	353	355	353	357	359	358	357	357	352	347	344	347	353	353	350	348	348	349	348	349	348	352	355	355	354	353	350	348	348	351	353	353	352	349	349	348	347	345	347	350	351	351	351	350	350	352	353	353	351	348	349	349	351	356	357	356	352	347	346	347	345	344	344	345	349	351	350	350	349	344	347	346	348	353	354	349	349	346	348	346	342	341	341	339	348	349	345	346	346	348	343	340	338	341	340	342	342	341	342	339	342	346	346	345	346	347	348	347	344	344	346	347	347	347	344	343	343	340	334	344	345	348	348	345	346	345	345	343	342	342	339	338	335	335	336	341	345	346	349	350	350	346	341	340	344	345	351	340	335	335	338	341	343	345	346	348	344	339	341	342	344	344	346	346	346	346	345	341	339	343	345	345	344	343	341	338	334	336	340	345	342	340	336	336	336	339	346	346	345	344	344	344	343	340	343	350	350	349	344	341	342	345	345	344	346	347	347	346	346	345	348	350	353	354	353	348	343	343	342	342	341	342	340	341	340	343	345	345	345	344	344	343	340	340	342	344	351	350	345	342	340	341	344	345	344	344	343	347	344	344	344	352	352	344	340	341	343	344	343	337	342	344	347	347	346	342	342	343	343	343	343	343	338	335	337	342	342	342	338	336	338	340	344	344	342	340	338	340	335	338	338	341	341	343	342	338	334	328	328	326	325	333	338	344	347	344	339	337	337	338	346	348	347	343	327	330	336	338	336	335	336	339	335	338	339	340	337	335	339	340	341	342	342	341	340	340	339	339	340	342	342	340	340	341	343	340	338	339	341	339	338	337	341	338	337	336	335	334	336	340	342	343	341	338	336	340	342	342	341	338	334	334	335	339	339	338	337	337	338	340	339	339	340	342	343	342	342	343	342	340	341	339	338	337	339	340	341	340	338	334	332	332	334	335	336	337	340	339	337	335	336	337	339	343	347	343	338	334	335	339	341	337	337	337	337	336	337	337	336	334	334	334	336	337	340	339	336	339	338	338	338	335	335	337	338	335	329	333	336	340	343	349	348	348	345	343	341	343	344	341	335	334	337	337	336	335	337	338	335	337	335	338	336	330	346	333	340	339	336	335	336	338	338	338	334	331	331	336	339	339	338	337	339	340	340	342	345	343	336	339	341	342	341	337	332	335	337	338	338	339	342	343	344	347	347	347	347	347	348	348	349	345	342	340	341	342	337	335	0	0	0	0	0	0	0	0
356	359	357	360	360	358	359	361	361	361	361	361	362	363	362	362	355	351	349	350	348	348	352	358	359	359	361	360	360	361	358	356	358	361	361	361	360	356	353	349	349	351	353	353	354	357	359	357	354	355	357	356	355	355	354	352	352	354	356	361	363	362	361	358	357	357	357	352	352	350	349	348	350	355	357	356	355	352	351	353	358	360	358	361	362	360	359	356	350	350	350	350	348	350	349	350	354	355	356	353	350	350	349	353	355	354	352	349	351	352	354	355	353	346	342	342	344	345	345	344	343	341	343	344	346	344	350	355	352	351	350	349	349	351	352	353	350	350	349	346	344	341	340	343	345	348	348	348	349	349	347	346	347	349	346	345	346	347	353	351	348	344	343	344	345	343	344	345	347	348	349	348	341	338	338	336	333	337	341	344	347	346	346	345	342	335	336	338	342	343	344	347	346	344	342	342	338	338	340	339	339	339	339	337	339	344	342	338	338	343	344	345	345	345	345	346	346	346	346	344	341	339	335	335	339	342	345	342	340	339	339	337	336	339	338	337	337	335	337	341	343	345	343	340	338	334	337	334	336	341	338	337	337	334	335	340	342	343	344	340	339	338	333	338	339	341	341	342	341	345	342	336	333	336	343	340	339	339	338	335	333	333	330	338	341	340	334	333	332	337	343	346	344	342	339	341	338	338	339	341	348	348	342	343	344	345	345	342	346	344	342	345	341	343	344	345	347	348	348	351	341	340	342	336	336	338	337	338	338	339	341	344	344	342	341	339	336	337	338	340	339	339	341	342	334	334	335	336	339	339	339	340	340	343	340	340	337	336	340	340	340	339	339	335	337	341	344	342	339	342	339	336	338	339	341	338	337	334	335	336	338	340	337	335	335	338	340	336	334	329	326	324	330	330	330	334	336	336	335	335	332	335	327	326	332	334	337	341	341	334	330	332	337	336	328	324	338	326	327	328	329	336	336	334	340	339	336	332	329	328	328	331	334	336	338	339	340	338	339	336	336	335	336	338	341	340	337	330	329	330	332	334	334	335	335	334	334	336	335	335	334	332	335	335	338	340	339	336	336	336	339	341	339	333	331	333	335	336	337	334	332	334	338	339	339	338	339	339	340	342	336	331	327	330	332	334	334	332	335	337	336	336	331	331	328	330	331	336	336	335	338	335	333	332	332	330	332	337	338	334	331	331	325	326	328	331	332	334	335	334	334	332	331	331	331	333	333	336	338	337	337	339	337	334	334	331	332	330	328	328	329	332	333	335	340	341	343	340	338	341	339	336	335	334	333	333	336	336	335	333	335	335	334	333	333	334	324	329	326	328	334	332	331	335	336	337	335	334	331	328	328	327	327	328	329	332	335	339	339	343	339	331	331	335	339	338	337	336	334	334	334	336	337	338	337	335	335	338	342	341	341	342	342	345	344	342	337	333	332	333	336	332	0	0	0	0	0	0	0	0
352	356	357	357	357	356	357	357	356	355	355	357	359	360	359	359	353	353	351	352	350	350	353	353	356	354	352	350	350	348	350	351	354	357	357	357	349	347	345	345	346	348	348	354	344	351	352	352	354	353	351	353	353	353	351	350	350	348	353	356	357	364	362	357	353	349	349	348	349	348	347	344	343	346	352	353	352	349	348	351	356	358	357	356	352	345	345	343	341	339	339	341	341	338	338	338	341	342	341	342	346	349	350	352	354	353	351	349	346	350	350	350	342	342	340	339	341	346	348	344	338	336	337	339	343	344	347	348	350	349	348	348	342	345	346	347	348	351	350	347	343	339	338	341	344	344	346	345	345	346	344	342	344	345	344	341	342	343	343	344	344	342	335	340	342	344	342	341	345	346	346	344	336	334	334	333	332	336	339	340	342	345	344	342	340	337	332	339	340	342	344	346	344	342	340	339	340	339	341	341	341	340	337	338	339	342	340	338	340	342	342	342	343	344	344	346	338	336	335	334	332	332	333	334	336	343	340	335	330	327	328	329	330	331	333	335	336	335	334	338	341	341	336	337	336	332	329	331	324	332	333	335	336	336	335	337	341	340	337	332	329	330	332	334	337	338	339	340	342	338	333	332	332	331	333	332	332	334	334	329	328	328	330	327	325	330	333	329	327	328	328	335	336	334	336	333	333	331	335	338	339	339	340	341	335	334	339	339	342	342	337	336	337	337	330	334	337	340	339	338	336	336	335	334	335	333	333	333	335	337	338	341	341	340	339	337	337	336	336	335	334	336	338	337	336	328	330	331	332	332	338	343	339	335	332	335	332	332	333	341	339	337	334	334	334	336	340	333	335	336	339	335	335	337	338	336	336	335	334	335	337	337	335	325	326	328	328	327	329	326	323	320	322	321	323	327	331	330	331	332	330	327	325	325	327	336	335	339	330	333	330	332	336	335	326	328	320	321	326	326	333	329	328	328	338	337	334	331	328	325	325	327	327	329	331	330	334	335	335	334	332	333	334	337	326	329	333	330	327	326	329	331	331	330	331	331	334	334	334	335	332	330	332	332	333	334	335	335	334	335	335	334	332	329	328	327	326	328	336	334	330	332	336	338	338	335	332	331	329	334	334	330	330	329	330	332	331	332	332	333	334	336	337	337	325	327	335	336	332	330	330	330	327	325	328	328	329	329	328	330	328	329	324	324	326	328	328	331	331	331	330	328	327	328	327	331	333	334	336	336	335	334	333	329	330	328	328	326	326	328	330	330	329	329	332	338	338	336	334	332	331	329	331	334	333	333	336	335	333	332	330	332	333	332	332	330	329	319	322	328	330	330	329	329	332	332	330	330	329	327	325	325	323	324	326	328	328	328	330	329	328	325	329	333	337	337	333	330	331	331	333	333	335	340	338	335	332	330	330	332	332	333	336	341	340	336	333	329	326	331	334	333	0	0	0	0	0	0	0	0
348	351	353	353	354	354	355	354	351	351	351	355	357	357	356	356	352	351	351	350	348	349	349	346	349	347	346	344	344	344	344	345	347	347	349	349	349	348	348	344	344	345	345	342	342	345	345	344	344	346	349	350	350	350	350	349	348	348	350	348	350	349	349	347	344	345	345	346	344	345	345	344	341	340	346	348	346	345	346	349	354	357	355	349	345	336	334	334	339	339	338	339	341	340	339	340	340	339	336	338	344	347	347	346	344	344	345	347	346	346	345	337	336	340	344	344	340	341	341	339	338	337	338	343	347	348	346	344	334	337	337	336	340	337	337	337	343	344	345	343	342	340	338	338	339	338	338	339	337	339	342	339	338	334	334	337	339	339	337	336	335	328	329	336	335	338	336	338	340	339	339	339	334	332	331	332	332	332	337	337	337	337	333	332	337	334	333	334	337	342	343	343	342	337	336	332	332	334	340	342	339	336	336	336	334	335	338	338	339	339	338	338	340	341	339	338	335	335	334	331	330	330	329	329	329	332	342	342	331	327	325	326	327	327	327	328	329	331	332	332	331	327	332	335	333	333	332	325	329	331	334	335	335	335	334	332	332	334	333	330	330	331	332	332	333	332	333	334	335	331	329	327	329	328	329	330	330	329	331	323	323	323	327	324	326	326	329	328	326	325	326	328	328	327	325	325	324	325	334	333	329	325	324	332	333	333	332	341	332	332	327	325	324	324	327	330	334	337	337	335	335	335	334	335	331	332	329	329	329	331	331	335	334	332	332	332	335	335	331	331	331	332	332	333	330	330	325	324	322	326	335	335	332	328	327	331	332	333	331	329	336	334	332	332	331	333	327	330	331	330	329	326	325	326	327	328	332	333	331	332	333	330	323	320	322	332	333	333	329	326	322	320	320	324	324	324	324	325	325	325	325	325	324	324	323	324	337	328	328	326	332	324	326	329	329	327	324	324	323	325	328	329	326	324	321	334	334	325	325	325	324	324	322	322	324	333	327	325	325	328	329	327	325	322	321	323	324	322	319	320	324	327	326	326	327	331	333	334	334	329	326	324	325	328	329	327	329	333	331	331	332	331	330	329	327	328	328	328	329	333	331	332	338	335	334	330	328	328	329	331	330	328	329	330	328	327	329	326	326	330	332	334	335	330	325	327	332	333	327	325	324	324	323	323	323	325	326	327	326	328	328	327	322	322	323	323	324	326	327	327	327	326	324	324	329	331	330	330	334	334	333	331	328	329	323	323	324	326	326	329	330	327	323	325	326	330	333	331	327	325	326	324	326	330	334	333	335	333	330	330	331	328	325	332	330	327	324	322	325	326	325	325	325	324	324	329	329	330	330	327	324	321	320	320	316	318	318	321	322	324	326	327	328	327	331	329	322	320	321	322	322	322	332	336	335	334	328	327	327	330	330	331	333	334	335	331	327	324	326	330	330	330	0	0	0	0	0	0	0	0
346	348	350	350	350	350	351	351	349	346	346	350	355	355	353	352	347	347	347	345	343	341	341	343	340	339	341	340	340	340	339	339	340	341	344	345	345	344	343	343	342	341	340	339	339	340	340	341	343	344	345	347	350	349	349	347	345	342	341	341	342	342	341	341	342	341	341	341	342	344	346	343	341	338	338	339	341	342	343	346	351	340	341	344	340	336	335	335	335	337	338	338	339	342	344	342	339	337	335	335	337	338	340	340	338	338	335	334	338	341	341	339	338	337	337	335	338	339	340	338	336	334	336	336	337	336	334	333	334	334	334	334	338	337	336	338	339	339	340	341	334	336	335	336	337	335	336	337	335	334	334	333	332	328	330	333	333	332	332	332	330	328	323	326	328	329	333	334	337	338	337	337	336	333	331	327	331	329	326	331	329	331	331	331	332	332	332	330	330	334	340	338	334	332	333	331	330	328	331	334	332	334	334	327	328	325	334	332	331	330	332	333	334	332	334	334	333	332	330	331	329	326	323	325	327	328	330	326	324	323	323	322	323	320	319	320	322	324	327	328	328	324	325	328	331	332	331	327	327	331	333	331	332	333	334	330	328	329	332	332	332	331	331	331	330	330	330	330	331	325	324	322	319	319	321	324	324	326	327	320	319	319	318	322	324	326	328	326	324	320	326	327	329	327	326	325	325	326	323	323	327	321	326	321	324	328	328	332	329	329	325	322	322	321	325	328	330	333	334	333	333	331	332	332	330	328	325	324	322	322	324	329	330	330	327	324	325	330	330	329	327	329	329	327	322	322	322	321	322	323	325	328	328	324	322	323	328	333	332	328	325	324	324	323	323	323	323	328	326	325	322	323	323	323	324	326	327	329	328	327	327	325	323	320	322	327	329	328	328	325	324	321	325	325	325	319	319	318	319	320	323	324	322	323	324	324	317	320	315	316	315	318	321	322	324	325	324	321	321	320	323	319	325	323	320	319	320	323	323	319	321	319	317	320	321	320	323	322	324	328	327	324	323	323	323	322	321	321	319	320	323	325	323	323	324	331	332	333	331	325	322	321	321	324	324	324	321	321	323	326	330	332	329	327	326	322	322	327	327	326	329	333	331	331	323	325	326	327	326	323	322	322	322	321	320	322	320	319	317	320	326	325	321	319	322	325	327	321	322	321	321	321	321	322	322	323	323	319	322	327	329	324	321	318	318	320	321	322	323	322	323	323	322	323	325	326	328	328	326	326	328	329	326	327	322	323	324	324	324	326	326	321	315	314	316	323	325	326	325	323	320	322	323	323	324	324	326	324	324	327	328	321	320	322	327	324	323	323	325	322	321	321	318	317	318	320	327	326	323	321	319	318	317	314	312	317	317	320	321	322	324	326	326	326	323	322	318	318	319	321	320	317	311	318	331	329	325	324	326	326	326	329	328	328	329	326	324	324	328	328	328	327	327	0	0	0	0	0	0	0
342	346	346	347	346	346	347	346	346	344	344	347	350	352	350	347	340	340	342	340	336	336	336	337	334	333	334	335	337	337	338	338	338	338	339	338	338	339	340	339	339	338	337	335	335	336	334	338	339	337	337	339	338	338	338	335	336	336	337	337	338	338	338	339	339	339	340	340	340	346	346	345	341	337	336	338	340	342	344	340	334	337	343	343	340	337	335	337	337	338	339	339	339	336	334	333	337	337	334	333	333	335	335	337	336	334	333	331	330	333	336	336	337	335	335	333	333	336	337	334	330	331	331	333	334	333	328	332	334	332	332	332	332	337	338	337	338	337	337	330	328	327	332	334	335	334	334	334	333	331	331	330	326	324	324	323	319	320	323	326	329	329	326	323	324	327	327	327	323	323	324	329	333	329	325	323	320	321	324	324	326	328	329	330	332	331	332	329	328	327	324	326	327	328	328	327	328	328	327	330	328	325	326	332	326	325	326	326	325	328	328	330	330	330	328	329	329	330	328	327	326	324	322	323	326	326	326	320	323	319	319	319	320	318	319	321	323	325	324	325	324	324	324	326	327	328	329	328	328	324	325	326	328	330	330	330	327	325	326	327	329	330	330	328	324	324	327	327	329	328	319	316	317	318	321	321	323	324	320	317	316	316	315	315	322	324	328	327	323	321	320	321	326	326	326	323	320	320	321	321	321	318	319	320	318	323	325	323	323	325	323	322	321	321	322	326	327	327	327	326	327	326	328	328	325	322	322	317	319	320	317	322	325	324	322	324	325	327	329	326	324	325	323	320	320	319	320	320	320	320	322	324	323	321	320	321	323	330	331	327	324	324	323	324	323	322	320	326	325	321	322	323	323	323	316	319	319	318	319	323	324	318	319	317	318	320	324	324	324	324	321	321	317	317	317	317	314	314	313	314	316	318	321	323	325	317	316	315	317	317	315	316	317	317	316	318	321	320	319	318	318	319	323	320	320	321	319	321	320	318	315	316	317	317	318	316	317	315	317	317	316	320	321	321	318	319	319	316	317	321	323	322	319	321	321	322	322	320	318	314	310	313	320	319	319	318	321	321	319	318	318	322	325	321	320	320	322	323	323	321	323	323	323	319	318	321	319	323	321	321	320	321	318	317	318	318	317	316	316	316	318	320	319	317	317	316	317	318	318	320	319	320	318	318	317	316	316	319	323	327	326	322	320	317	315	316	316	318	320	321	319	319	319	320	322	321	318	318	318	318	320	316	323	326	324	321	321	320	321	322	322	316	313	312	314	316	318	320	318	312	316	319	320	319	318	317	316	313	314	315	318	321	320	322	322	322	320	320	320	319	316	315	314	315	315	315	318	314	312	313	316	315	314	311	311	311	315	320	324	325	323	320	318	317	315	314	313	314	317	318	317	312	307	307	314	325	327	323	322	322	317	316	317	323	327	327	327	329	328	326	325	323	323	0	0	0	0	0	0	0
337	341	343	343	343	343	342	341	342	343	344	344	345	347	343	340	336	333	331	329	330	331	331	332	327	329	329	330	330	330	332	334	332	334	334	334	334	336	336	336	334	333	331	332	328	328	330	333	334	335	335	336	336	333	331	331	333	333	334	335	335	335	332	330	335	338	338	338	337	338	339	337	336	336	336	338	340	342	339	325	325	328	331	336	336	335	336	337	336	336	336	334	333	333	332	331	330	334	333	331	329	330	331	332	332	332	332	328	329	331	332	333	332	330	331	329	329	330	332	330	329	327	324	327	327	327	329	331	331	331	330	329	330	333	334	335	334	329	328	324	322	324	327	329	332	332	331	331	330	328	327	327	323	320	320	318	317	316	318	324	326	324	322	321	322	322	321	315	308	310	320	322	324	328	327	324	320	323	323	323	323	325	328	326	328	328	327	324	323	325	320	317	318	325	325	326	327	326	325	324	323	323	318	316	321	323	326	323	319	321	327	328	324	324	324	322	323	323	324	325	323	323	323	321	320	323	321	319	316	317	317	322	318	318	319	320	324	324	325	322	324	323	322	315	317	320	321	320	322	322	320	322	322	324	324	320	320	319	321	318	322	325	323	323	322	321	320	324	321	318	315	316	320	325	326	324	322	319	316	314	315	314	312	312	312	318	319	319	320	319	317	316	318	319	321	319	317	316	317	316	315	312	316	321	321	320	318	319	321	323	322	321	319	314	315	321	319	321	323	324	324	324	324	323	323	321	318	318	317	316	317	318	319	320	315	313	322	323	323	325	325	322	315	314	315	316	319	320	320	319	320	321	320	320	320	320	321	323	326	329	322	322	322	322	323	320	320	324	320	318	320	315	321	324	319	317	315	316	316	318	320	313	313	316	315	316	319	320	321	318	315	314	311	311	312	313	311	310	312	314	315	316	320	322	319	318	315	314	316	314	315	314	318	309	311	311	316	312	317	317	314	312	311	310	312	314	316	316	317	318	306	303	311	312	313	316	318	319	318	316	315	315	315	315	315	315	313	309	307	311	321	319	317	317	310	313	314	316	316	314	310	310	313	316	317	317	320	320	318	317	317	318	321	320	319	320	321	320	320	321	318	317	315	313	313	312	313	314	315	318	319	318	317	312	315	316	316	316	318	317	313	317	317	313	312	315	314	316	316	317	314	313	312	312	312	312	312	311	312	320	320	321	319	312	312	314	316	315	317	318	316	313	316	316	318	317	315	313	317	316	313	314	316	316	323	319	316	314	318	320	321	317	312	309	311	315	316	315	312	312	315	316	317	317	316	316	315	313	313	315	319	319	318	317	319	318	318	317	316	314	314	314	314	314	315	311	309	307	309	311	315	317	316	312	312	311	314	318	319	317	314	312	312	312	313	312	310	310	311	311	311	304	303	305	306	315	320	319	319	314	313	312	313	318	320	321	322	322	321	318	313	312	312	0	0	0	0	0	0	0
329	334	338	339	339	339	338	337	336	340	341	341	340	340	338	336	333	332	326	323	321	324	325	325	323	325	328	328	326	326	326	328	328	327	328	330	331	331	332	329	327	327	325	325	325	325	327	331	331	332	333	334	333	329	324	324	326	330	332	332	332	331	330	329	329	333	334	335	335	335	331	324	327	331	334	333	331	325	324	321	324	326	326	329	330	332	334	335	334	334	332	332	332	329	329	329	327	327	331	330	327	327	327	329	329	327	326	326	324	324	325	324	321	321	324	324	325	326	328	328	328	326	324	324	325	327	327	328	328	328	326	325	326	321	321	321	322	324	321	318	318	322	324	326	327	326	321	323	323	321	321	321	320	319	317	318	315	317	319	318	319	320	321	320	321	321	317	313	307	309	317	319	321	326	326	326	323	320	317	320	321	322	318	324	327	330	329	324	317	314	310	309	312	314	316	328	327	324	322	321	323	321	320	315	315	321	323	323	318	317	318	320	320	320	320	319	314	315	315	316	318	319	320	319	317	320	316	315	313	313	314	316	318	318	317	319	320	320	321	320	319	322	318	315	313	313	317	319	315	313	313	311	313	317	319	318	317	316	317	316	311	309	311	317	316	317	316	316	315	312	312	312	311	315	315	316	316	312	313	311	314	314	313	312	310	308	312	313	316	314	314	314	316	318	320	320	316	318	314	313	314	312	311	317	319	317	315	316	319	319	319	318	317	315	311	311	309	315	314	315	319	321	319	319	320	320	320	319	316	314	315	317	321	314	313	312	319	319	319	322	320	319	313	310	310	313	316	320	319	320	319	319	320	322	319	319	320	316	315	314	313	315	317	316	319	315	316	316	317	317	309	317	318	323	321	318	314	315	315	315	312	311	312	314	313	312	313	315	319	313	310	309	308	308	309	310	311	313	313	314	313	314	315	318	316	316	316	314	311	310	311	313	312	316	313	311	313	310	310	316	313	313	310	309	311	313	315	315	316	308	305	300	310	306	313	314	314	315	314	311	309	307	305	304	308	312	310	308	308	308	309	318	315	312	310	311	313	313	314	315	312	311	311	308	309	312	317	319	317	316	315	317	319	318	319	319	318	319	318	319	316	310	309	310	311	312	314	312	312	314	318	318	315	311	309	313	314	314	317	317	311	313	312	312	306	310	313	314	315	311	308	308	310	311	310	310	308	307	309	315	317	315	313	311	310	310	309	311	313	316	311	310	310	308	312	313	312	312	311	315	313	313	314	314	312	312	311	315	316	319	318	315	311	307	310	312	312	311	310	308	308	312	312	313	315	315	314	312	313	313	313	316	317	315	316	316	315	314	312	314	313	313	310	311	310	309	307	306	306	309	312	315	315	315	314	313	310	312	311	309	310	311	311	312	309	309	309	305	303	303	304	303	304	304	305	307	309	306	306	311	308	309	309	312	313	316	312	312	314	314	312	312	311	0	0	0	0	0	0	0
326	326	330	333	334	335	335	332	333	337	337	337	336	335	335	333	326	326	325	324	320	320	320	320	322	328	330	330	329	329	327	327	327	327	325	323	322	322	321	321	322	322	323	325	326	326	328	327	323	326	326	325	324	323	320	320	320	325	328	331	330	330	329	324	326	327	326	326	326	325	322	321	326	329	329	327	321	322	318	317	320	323	323	324	327	330	330	328	328	328	328	325	323	324	323	325	325	327	328	328	327	325	325	326	325	325	323	323	319	317	317	317	317	318	320	322	320	322	324	326	327	326	325	322	321	320	324	326	327	326	323	322	324	317	315	317	316	317	318	316	316	318	322	324	324	320	320	321	323	321	319	317	315	316	318	317	316	314	316	316	318	319	321	320	320	319	316	314	313	315	315	313	314	325	325	324	320	316	315	316	315	313	313	314	320	321	323	321	314	312	310	310	307	309	313	319	315	319	323	323	322	319	318	312	314	318	320	321	318	317	317	317	317	317	317	316	312	310	312	314	315	316	316	315	315	313	313	310	309	309	309	311	317	318	317	315	313	310	307	313	315	315	316	312	311	311	311	312	312	314	313	312	313	315	316	313	313	314	313	310	307	308	310	310	313	312	314	315	312	307	303	309	309	313	313	315	315	315	314	312	311	313	312	312	309	305	305	309	311	312	312	313	314	317	318	314	309	313	313	313	313	312	311	309	307	315	313	314	312	316	318	317	316	310	310	307	306	307	308	308	315	315	314	313	309	314	315	314	310	310	314	316	313	313	313	315	316	315	314	313	318	312	309	308	310	312	314	315	318	319	318	316	317	317	314	312	308	307	306	307	310	312	314	315	313	313	314	314	315	309	309	311	315	315	311	309	306	306	312	312	309	309	312	310	311	311	308	315	312	305	303	303	305	307	307	309	310	311	312	311	311	310	312	309	311	312	316	310	306	309	310	309	309	306	309	305	312	313	309	313	314	314	312	308	306	307	309	312	309	309	309	308	305	310	314	312	314	311	310	309	306	305	304	302	302	303	307	308	310	308	310	308	309	307	308	309	314	312	310	307	309	307	305	306	309	312	315	317	316	309	304	312	315	316	317	316	316	315	316	312	311	310	308	305	303	310	311	309	308	308	315	314	312	309	308	309	310	308	308	308	310	310	310	309	307	303	306	309	312	312	312	310	309	312	308	306	305	303	304	308	312	305	302	303	306	307	308	309	311	313	310	306	305	307	307	307	310	308	308	312	310	313	312	313	314	311	309	311	314	316	315	314	309	304	306	308	309	307	303	301	302	305	308	310	310	313	310	309	310	310	311	313	314	312	312	312	312	310	308	305	303	303	306	309	309	307	305	305	306	308	308	311	311	312	314	313	312	313	312	307	303	305	306	306	305	302	299	300	301	302	310	306	302	303	305	309	309	305	305	306	307	309	312	313	312	311	310	310	311	311	311	311	311	0	0	0	0	0	0	0
320	320	324	327	330	327	327	326	325	330	333	333	326	329	330	329	320	320	323	323	323	322	326	326	330	328	329	329	329	327	327	328	328	327	323	323	324	324	324	323	320	320	320	323	326	323	323	320	319	320	320	321	321	323	323	325	325	328	330	329	329	329	324	323	323	324	321	319	315	315	317	321	326	327	326	320	316	317	311	313	314	319	320	321	323	326	321	317	317	318	318	319	317	317	319	322	324	326	327	327	325	320	317	314	309	311	308	311	315	314	315	315	319	317	320	323	322	317	316	315	316	315	316	316	316	318	324	325	322	320	323	319	316	313	313	311	311	316	316	315	315	316	318	319	319	318	319	320	321	320	317	315	314	315	312	318	315	310	312	313	314	314	320	317	315	316	314	314	316	315	313	313	311	311	323	318	313	313	310	308	311	312	310	313	314	316	317	316	313	310	310	310	310	310	310	311	312	311	310	314	315	316	314	310	308	315	317	317	310	310	313	314	315	315	315	312	310	308	310	310	311	312	314	313	311	311	306	305	306	308	308	309	313	315	311	307	303	305	306	310	311	312	311	309	308	308	309	311	311	313	311	310	308	308	308	308	307	309	309	308	309	311	312	310	311	310	310	307	302	301	302	303	308	311	310	312	312	312	312	314	312	310	311	307	306	306	305	306	309	310	310	308	307	310	309	306	308	310	307	306	306	310	312	311	305	302	302	305	310	312	315	315	311	309	308	306	303	303	304	305	305	313	307	309	310	309	310	311	309	308	307	308	307	308	311	311	312	312	308	304	301	300	306	306	306	302	302	302	303	300	304	303	303	303	304	301	302	303	305	306	309	309	307	309	310	308	306	305	305	302	309	311	310	308	308	305	304	304	303	304	305	309	305	308	309	308	307	307	304	302	300	301	303	304	308	306	307	310	311	309	309	304	309	307	307	310	310	307	306	305	310	309	305	306	309	308	312	309	307	302	302	302	301	304	305	305	307	307	307	309	306	309	307	305	309	311	308	311	309	309	307	305	303	302	299	301	302	305	308	309	308	307	304	303	308	310	313	311	304	304	303	303	302	304	305	308	311	316	315	308	304	308	309	309	309	313	308	307	307	306	308	308	305	302	300	299	306	305	303	301	304	313	311	308	307	304	304	303	305	306	308	308	307	308	307	305	304	303	305	301	305	304	304	305	307	305	305	301	301	311	310	304	300	303	304	306	308	308	307	307	307	307	308	307	307	307	306	305	299	298	302	307	312	312	314	310	309	308	309	311	311	308	302	303	303	304	302	303	301	300	302	304	306	307	308	304	300	301	306	309	309	309	310	310	310	308	308	307	305	302	299	297	299	301	306	306	304	304	304	305	303	306	306	305	310	309	309	310	312	307	303	301	302	302	304	302	302	302	301	305	307	304	301	301	302	304	306	306	308	304	303	305	311	310	310	309	308	307	308	308	309	309	309	0	0	0	0	0	0	0
316	316	319	320	323	319	319	317	318	318	320	321	321	321	320	320	320	315	318	319	323	326	327	327	325	324	324	324	323	323	323	325	328	327	325	323	323	323	323	323	319	320	318	316	319	318	318	317	317	316	316	318	319	321	321	322	322	324	324	326	327	323	322	321	321	318	315	314	316	316	317	321	324	323	318	315	312	309	308	310	313	313	316	319	320	318	315	314	315	317	316	316	313	312	314	318	322	324	325	320	316	314	308	310	307	309	312	314	311	311	314	315	319	321	324	324	323	317	315	314	315	314	314	313	312	314	316	321	320	318	315	311	306	311	314	314	311	312	313	311	312	313	315	315	315	315	316	318	319	318	313	311	311	312	311	311	310	309	309	309	309	311	315	312	311	311	311	309	311	313	314	312	310	307	307	309	309	308	307	307	308	310	307	309	311	312	311	310	310	308	309	309	310	309	308	307	304	305	309	308	309	311	307	306	307	307	306	304	307	312	312	312	311	307	312	310	308	308	310	310	311	311	309	310	309	306	303	303	302	304	306	307	307	306	302	300	301	303	306	308	309	309	307	305	305	305	307	309	311	311	309	305	301	299	301	301	303	305	305	304	305	304	307	306	306	308	309	307	302	301	301	303	307	308	303	307	306	306	306	305	302	299	300	305	306	307	308	307	306	306	307	306	303	297	298	295	298	304	302	299	300	311	313	312	311	303	299	299	303	303	306	311	310	305	304	304	303	302	303	304	304	306	310	307	305	302	305	309	311	308	306	306	306	304	307	302	308	308	305	303	299	304	308	308	302	301	299	301	302	301	301	299	299	302	301	299	299	301	302	306	309	308	306	304	302	301	302	300	297	301	306	307	305	306	303	303	303	301	301	301	303	303	300	304	305	305	306	306	305	301	300	300	301	303	305	305	306	307	310	305	305	300	306	301	305	310	310	307	306	306	309	306	303	303	302	301	303	305	301	301	300	300	299	299	302	303	306	306	307	307	305	306	304	304	310	308	303	299	308	307	307	304	304	303	303	301	301	303	304	306	307	304	301	301	302	311	313	299	299	300	303	303	304	302	302	305	308	311	311	309	303	303	304	303	304	305	304	304	304	303	306	305	304	298	297	300	301	304	300	299	301	301	302	301	299	296	299	301	303	302	299	299	302	300	302	305	304	301	297	300	302	300	301	301	304	302	299	297	298	292	290	290	291	291	298	304	306	306	306	308	309	308	308	306	306	306	305	306	299	296	297	298	301	305	307	308	307	305	302	302	298	297	300	302	304	302	300	300	300	299	301	303	304	303	303	302	297	298	303	307	307	306	309	310	307	306	305	303	302	302	301	300	299	296	300	300	299	301	301	296	301	301	304	304	305	305	305	308	308	308	305	303	300	301	300	303	301	300	304	302	307	301	298	295	298	300	302	302	301	301	295	301	305	307	306	306	305	305	304	304	304	304	305	0	0	0	0	0	0	0
312	312	314	316	310	311	311	315	316	318	316	314	314	313	313	314	315	309	312	320	322	323	323	323	323	321	319	320	317	321	321	323	325	325	323	320	321	322	322	322	320	316	312	312	314	313	313	314	315	315	314	316	317	317	318	319	319	318	317	316	315	318	321	320	319	315	313	316	318	318	318	320	322	311	311	312	309	304	308	309	310	311	312	315	318	315	313	313	315	314	306	305	305	307	310	313	317	319	319	317	313	313	305	302	303	308	310	312	312	309	309	313	316	317	317	315	311	305	305	306	307	311	312	311	308	309	310	310	307	306	306	306	306	307	308	310	310	309	307	309	311	311	310	312	311	313	313	311	312	312	313	310	309	303	301	306	308	307	306	305	306	307	307	308	308	309	308	309	309	305	308	313	305	303	305	307	309	307	307	301	305	307	304	303	304	311	309	308	307	303	307	308	309	309	308	305	304	304	302	302	302	306	305	305	306	305	304	301	305	308	307	307	306	307	306	308	309	308	309	306	305	306	306	307	307	304	300	299	299	301	303	303	304	303	303	302	300	304	306	307	305	297	300	300	302	303	303	300	300	302	302	302	300	298	299	300	300	302	302	302	303	301	300	300	303	305	308	305	302	301	303	304	303	300	300	302	303	303	305	303	301	298	300	306	306	308	309	306	304	297	298	298	297	296	295	300	297	299	301	299	300	310	305	301	297	296	296	296	295	301	302	300	299	298	296	297	298	300	302	304	303	299	299	299	299	299	301	310	311	306	306	300	301	303	298	300	302	303	302	302	299	303	302	301	301	300	297	298	298	296	300	296	294	293	297	296	295	295	295	297	304	308	305	300	298	304	298	296	295	302	304	303	303	302	299	299	301	300	299	299	298	299	296	295	300	300	303	303	305	304	305	306	303	299	301	300	300	306	302	303	303	307	300	301	305	308	306	299	299	302	303	303	302	303	302	302	300	297	300	296	293	295	296	296	297	304	305	303	300	298	299	299	294	308	310	309	298	296	295	298	301	304	305	304	303	302	300	300	300	307	297	302	300	303	302	302	300	298	297	299	300	301	303	299	298	301	305	307	304	302	303	301	299	295	302	303	302	300	300	301	303	300	300	296	295	299	293	298	297	299	299	300	300	298	297	296	295	300	300	298	296	296	299	301	300	302	302	298	296	294	297	299	300	299	300	299	299	297	298	293	291	290	288	288	291	293	291	293	299	305	307	308	306	304	305	305	306	303	296	296	297	298	299	300	301	304	304	301	301	300	300	300	300	302	302	299	298	299	300	299	299	301	303	300	297	298	298	300	301	303	302	296	299	299	300	299	299	298	297	299	298	297	296	296	296	296	298	297	297	296	296	295	296	297	297	296	300	303	305	304	304	302	300	299	298	298	293	298	301	303	301	297	296	297	298	293	293	294	296	293	293	291	298	301	299	299	301	300	298	296	296	297	299	0	0	0	0	0	0	0
309	306	306	304	307	312	314	314	316	318	319	314	314	313	307	307	309	315	315	318	319	321	320	320	320	317	317	313	311	318	321	321	323	321	320	320	318	315	315	317	319	309	308	305	308	310	312	312	312	312	312	314	314	311	312	313	313	313	313	312	313	314	315	315	313	311	311	315	319	321	321	319	307	309	310	308	309	309	307	306	306	307	310	313	316	316	310	311	310	305	304	302	302	305	309	312	316	316	317	311	310	307	301	299	301	305	308	308	310	307	307	308	308	308	311	309	308	301	299	297	304	304	305	305	302	302	302	301	300	301	300	301	302	303	305	306	306	304	304	307	309	309	309	306	307	303	301	307	308	312	314	312	308	302	302	302	302	305	304	302	298	305	305	305	307	309	306	309	306	298	299	309	301	298	297	297	307	307	300	301	300	299	301	299	300	298	297	300	300	301	302	305	306	306	304	302	301	300	297	301	300	303	301	301	305	303	301	299	298	307	307	306	304	303	303	307	310	309	299	301	303	303	305	306	304	303	297	292	294	297	300	299	302	302	301	301	301	302	302	302	302	301	299	296	298	299	299	295	294	294	293	295	295	294	292	292	295	296	297	299	298	300	300	299	297	299	301	302	300	303	304	303	302	300	298	299	301	301	302	301	300	299	301	308	308	306	301	298	294	295	298	298	298	298	301	301	297	297	302	302	302	303	299	297	296	296	296	295	294	293	292	298	300	299	297	297	297	298	299	300	298	295	293	295	295	295	298	309	312	306	304	301	293	293	297	301	298	299	298	299	299	298	299	301	301	295	297	297	293	293	295	293	290	290	291	294	294	293	291	292	290	299	295	296	291	290	294	294	294	301	302	300	300	299	299	301	303	301	298	297	295	295	293	292	295	298	300	301	300	296	296	295	296	298	298	299	295	299	300	297	299	303	307	304	306	306	302	296	295	298	301	301	295	296	297	297	295	298	299	292	295	287	296	298	299	297	297	297	297	296	297	298	294	294	301	298	297	295	296	296	295	296	296	298	295	296	294	295	297	297	298	299	299	299	301	300	297	294	297	298	300	300	295	294	294	297	296	298	298	299	296	298	296	292	292	298	300	299	298	299	299	297	295	295	294	294	292	291	295	295	298	298	297	296	296	294	295	298	298	296	294	296	294	294	297	301	301	297	294	293	296	298	300	299	298	298	297	294	297	299	299	296	297	293	290	288	290	297	293	293	296	298	298	300	299	297	295	295	296	297	296	295	294	294	295	297	296	295	291	292	297	294	291	289	294	292	293	293	295	297	298	298	299	294	296	296	298	296	294	289	294	296	293	294	295	295	295	294	292	292	298	298	297	296	295	295	295	292	292	291	293	295	296	294	292	293	296	298	298	298	301	298	298	297	291	290	291	294	295	295	293	292	292	294	293	292	292	293	294	290	290	287	287	296	297	298	298	297	294	294	294	294	294	0	0	0	0	0	0	0
304	297	297	300	306	310	312	312	317	319	314	311	311	309	306	306	307	313	313	315	315	315	315	313	313	316	314	311	310	311	311	311	311	308	309	309	309	309	309	311	314	306	305	307	309	309	309	309	310	311	312	311	310	309	309	309	309	309	309	308	312	315	315	314	311	307	305	305	307	306	306	308	305	304	305	305	309	307	306	305	302	303	311	315	316	314	308	306	305	303	303	304	305	305	307	311	312	313	311	307	302	301	300	298	299	300	301	305	304	305	304	305	301	306	306	304	303	306	303	301	301	301	300	301	301	301	299	298	297	298	298	298	300	301	304	304	304	304	299	299	302	300	302	303	298	299	303	305	304	306	306	307	303	302	302	299	299	300	302	299	297	304	306	306	307	308	308	301	305	295	294	292	298	295	294	295	298	299	301	296	295	295	300	301	299	298	296	299	300	301	300	300	302	299	300	299	298	299	297	299	300	301	301	301	302	300	297	299	300	293	293	303	300	300	300	300	300	299	296	296	298	302	303	305	298	301	298	298	297	294	294	297	301	300	299	299	301	301	299	302	302	300	298	297	297	299	300	300	292	290	291	292	293	291	291	291	292	293	292	292	294	299	300	299	299	297	296	297	298	299	301	302	296	296	296	295	298	299	300	301	299	298	300	302	305	298	293	293	293	295	296	298	298	297	299	295	295	295	301	300	301	297	297	296	295	294	296	294	293	288	289	290	296	297	298	297	293	295	297	296	294	293	292	291	291	291	292	293	297	296	302	299	298	295	295	296	295	295	298	298	298	294	292	295	296	294	298	292	289	289	292	293	290	291	292	294	293	292	291	290	287	291	293	292	290	290	290	294	294	293	294	294	296	300	300	304	292	292	294	294	293	292	292	285	289	292	292	293	295	295	294	292	292	293	297	296	295	294	295	296	295	293	300	302	301	300	296	294	295	295	295	295	293	292	291	292	294	290	287	287	290	290	288	294	297	296	293	293	295	295	295	295	294	294	293	297	297	298	296	295	295	296	296	297	295	295	295	295	295	296	298	301	299	297	294	295	296	294	296	293	292	290	292	292	293	295	289	295	296	295	296	295	292	289	289	293	298	296	296	298	291	289	295	294	293	295	294	290	289	288	296	295	293	290	289	288	292	291	292	290	289	294	292	291	291	293	294	295	295	293	296	298	297	297	295	293	295	293	297	298	298	298	297	293	291	287	286	286	286	287	288	287	285	292	295	293	293	291	287	288	289	294	292	291	287	286	286	288	292	291	291	293	290	288	286	288	291	291	291	289	289	292	290	290	291	291	292	297	292	288	292	290	290	291	292	293	291	292	291	291	291	297	295	298	296	293	291	291	292	293	293	293	295	293	292	294	293	291	292	292	296	293	294	288	288	288	288	290	290	291	290	290	292	292	293	293	293	292	290	287	285	286	286	289	297	298	293	294	293	293	294	295	292	0	0	0	0	0	0	0
295	291	291	297	302	305	308	308	312	314	309	305	304	304	303	305	309	307	307	310	310	308	306	305	305	309	312	313	311	307	305	305	304	305	308	306	304	304	302	302	307	303	308	309	308	307	307	307	306	306	310	309	309	305	303	303	303	303	303	307	310	311	312	308	305	303	303	303	299	300	302	301	301	301	301	302	302	301	305	302	301	308	306	305	305	305	307	305	300	299	298	299	299	301	301	300	302	305	303	302	300	301	301	299	297	299	300	303	301	302	302	301	298	302	296	295	295	298	300	300	301	301	301	300	299	300	298	296	293	294	294	295	297	297	300	299	299	298	297	293	291	292	293	294	296	298	300	301	303	304	306	303	302	300	299	298	298	299	299	295	294	293	294	303	297	298	298	295	297	296	292	292	293	294	295	297	298	297	299	296	295	294	297	301	302	301	296	301	298	300	300	300	298	297	293	291	297	299	301	298	299	299	298	297	302	302	300	297	297	292	294	294	293	293	293	293	292	293	292	291	292	294	298	301	303	303	303	302	298	296	293	293	296	296	297	296	297	296	297	297	297	297	295	291	293	298	299	299	290	289	291	290	292	291	291	288	290	290	289	287	289	292	293	294	295	291	293	293	293	293	294	295	296	294	293	294	295	294	294	294	294	295	294	297	296	292	289	290	290	291	296	298	299	299	294	291	292	292	295	297	297	297	294	292	291	291	293	293	291	289	290	290	291	294	292	290	291	292	292	295	293	293	292	289	289	290	289	288	291	292	295	298	295	291	289	289	291	296	298	298	294	294	291	289	292	297	293	294	286	286	288	292	289	290	292	292	291	291	289	288	287	288	291	290	284	287	290	292	291	284	286	286	288	289	289	289	291	290	290	291	288	289	285	289	287	287	287	290	295	295	294	293	290	290	295	295	293	293	291	292	292	289	290	293	292	292	293	294	294	296	295	295	294	295	295	293	292	287	287	285	288	286	293	294	292	293	294	291	289	291	294	295	296	296	294	295	292	290	291	295	295	296	295	294	292	292	293	292	294	296	300	299	297	294	293	291	290	290	292	292	289	288	286	287	287	289	291	292	289	292	292	291	291	287	289	289	289	296	289	291	288	288	294	297	296	295	294	291	288	285	284	283	286	287	289	289	290	292	291	290	288	287	287	284	289	292	294	293	293	292	291	293	292	294	292	292	294	291	294	292	289	287	287	288	287	288	287	284	279	280	285	287	282	279	282	282	287	286	287	288	287	287	285	283	284	285	287	290	287	291	292	291	289	287	281	281	286	289	288	285	284	285	287	290	289	288	286	286	286	284	287	287	286	287	289	289	289	289	288	288	288	294	293	296	294	290	290	292	290	288	290	289	294	292	290	288	290	287	287	289	289	289	289	288	286	286	284	284	286	287	289	290	291	291	292	292	292	291	288	287	285	285	288	291	296	292	290	291	291	291	291	290	289	0	0	0	0	0	0	0
286	292	292	296	299	301	302	302	307	306	304	300	298	298	299	302	306	300	303	303	304	301	302	303	307	307	310	311	310	306	303	303	303	304	306	304	302	297	298	298	298	301	304	305	302	296	297	298	298	300	299	302	302	300	296	294	296	301	301	306	307	307	302	299	298	296	294	295	297	298	297	297	292	292	293	296	297	300	300	302	301	306	302	300	299	297	302	303	302	301	300	299	298	295	294	294	295	298	296	298	305	308	306	302	298	295	298	302	300	299	297	293	297	296	295	292	290	293	296	299	299	302	300	297	297	295	296	293	292	292	293	293	293	293	296	296	296	296	295	290	289	291	292	292	294	295	297	295	295	297	298	297	298	295	293	285	292	298	299	297	293	290	295	296	296	295	294	294	290	291	294	292	293	295	294	295	296	296	296	294	295	295	298	300	299	299	293	293	296	297	297	298	298	295	291	295	294	293	294	295	297	294	295	292	289	289	291	286	286	286	295	293	291	291	292	291	291	292	294	294	293	295	296	300	302	299	296	293	298	295	292	289	290	289	290	288	289	292	292	294	295	295	291	292	292	295	298	295	291	288	289	289	290	289	285	285	286	286	286	286	287	289	292	292	289	287	287	288	291	291	293	293	294	294	293	294	295	292	292	291	290	288	290	293	287	287	287	288	287	287	292	295	298	298	293	289	289	289	293	295	295	295	290	285	286	288	291	289	290	292	292	290	290	290	290	289	288	289	291	292	294	293	290	287	286	287	287	288	290	290	291	289	285	282	283	289	292	295	297	298	290	285	285	288	288	288	291	286	284	286	286	292	289	287	287	289	287	288	288	289	289	289	288	288	284	285	288	289	284	287	287	287	288	288	289	289	289	289	290	288	291	290	288	285	284	284	284	286	290	291	289	287	289	290	289	289	292	287	286	288	287	287	289	290	292	288	290	291	294	295	295	295	296	289	290	288	290	287	287	290	291	292	289	284	286	290	289	287	286	286	289	295	300	297	292	292	290	289	286	288	292	293	301	297	294	291	288	288	287	287	292	291	294	296	294	290	290	288	287	287	288	286	285	285	287	287	289	290	286	287	287	288	289	289	290	290	289	287	285	286	288	288	290	292	292	293	293	290	288	285	288	288	287	286	286	290	290	292	292	292	290	287	286	286	285	286	287	288	290	289	288	288	288	288	287	286	280	280	293	294	285	281	282	280	280	283	287	286	283	282	283	283	280	277	281	279	279	286	285	287	287	287	285	282	281	285	287	289	284	290	291	291	288	286	281	281	285	284	288	285	284	284	284	285	288	288	285	286	286	286	283	283	283	283	284	286	286	284	283	285	282	282	291	287	287	284	286	293	288	286	288	288	294	291	289	289	287	284	285	282	283	285	286	286	285	282	283	284	283	283	284	286	289	290	290	290	290	290	285	285	285	284	287	289	288	286	285	285	285	287	287	287	292	0	0	0	0	0	0	0
293	293	295	295	295	293	296	299	299	301	300	296	290	290	292	298	300	296	298	298	300	298	299	302	304	304	306	306	305	304	301	300	300	300	301	300	298	296	296	296	293	294	293	293	291	291	292	294	294	297	297	298	298	294	292	295	298	302	302	305	306	302	297	297	296	297	295	295	295	295	292	292	292	291	292	294	296	300	301	301	300	301	301	301	300	300	300	299	298	296	295	296	296	296	292	292	292	296	300	293	294	296	294	293	292	293	293	295	295	294	290	289	292	296	295	291	287	288	290	296	297	297	294	293	293	293	293	290	290	291	292	291	290	291	294	295	295	297	294	289	287	287	290	290	292	292	293	291	290	286	289	289	291	290	284	284	287	292	294	299	290	290	289	294	293	293	292	292	291	290	285	289	295	294	294	289	289	290	291	294	295	296	296	297	296	294	289	289	294	293	293	293	291	288	288	288	287	289	291	292	294	291	286	285	285	286	285	286	287	289	287	286	288	287	288	287	289	292	293	295	295	295	297	298	300	292	290	289	290	286	284	282	280	280	280	282	284	288	290	286	286	289	291	290	290	290	293	291	291	287	288	289	288	287	287	282	283	285	285	282	285	288	291	293	291	287	287	287	287	288	291	291	291	293	293	296	293	291	288	286	284	288	288	284	285	286	287	287	285	286	285	291	294	294	292	286	285	288	291	292	293	293	285	283	283	287	286	287	289	290	291	289	286	287	286	286	289	290	291	291	290	292	289	285	284	284	286	289	289	289	289	290	286	285	284	283	283	283	283	285	285	284	284	283	285	284	287	285	285	286	286	286	285	286	286	284	284	283	286	291	290	289	286	281	281	284	284	288	288	284	287	287	283	287	292	289	289	287	287	287	288	288	283	284	284	284	282	285	286	291	290	287	288	288	287	288	290	286	285	286	288	287	288	289	291	289	288	290	295	298	286	287	286	287	285	285	285	282	281	282	284	284	281	281	284	287	284	286	286	281	286	288	291	286	286	289	285	283	284	282	286	287	290	288	284	283	286	289	287	286	285	286	285	286	294	290	287	284	285	281	284	283	282	280	284	285	288	288	283	281	284	285	289	289	291	289	288	282	285	286	286	288	289	289	285	282	282	281	282	288	288	287	284	283	284	285	283	289	290	291	290	285	284	284	285	286	284	283	283	282	286	286	287	289	292	284	276	278	280	279	282	281	281	280	275	280	288	288	287	279	275	277	278	278	278	277	277	281	284	282	282	283	282	283	288	278	284	285	284	281	289	288	287	283	281	277	276	282	287	287	283	282	280	285	287	287	286	286	287	286	282	278	278	284	282	281	279	275	279	279	278	278	278	279	280	281	281	284	288	286	286	288	288	287	287	288	286	283	277	278	279	282	283	284	283	282	283	283	284	283	286	285	286	289	289	289	288	285	283	282	281	280	283	286	288	282	284	285	285	285	285	284	289	0	0	0	0	0	0	0
293	292	290	290	290	287	292	295	295	295	289	284	284	284	288	291	292	296	295	295	298	295	295	296	298	298	302	302	300	299	298	299	299	297	297	297	298	296	293	293	289	292	293	293	292	293	294	294	294	293	291	291	291	291	293	296	298	298	297	297	297	298	294	294	295	296	297	296	296	292	292	290	290	289	289	292	295	296	289	291	297	298	301	302	301	300	299	295	294	294	292	293	293	289	283	286	286	289	295	292	290	286	290	292	293	292	295	300	292	289	288	289	293	296	293	287	286	287	288	290	290	285	287	288	292	291	286	284	283	285	284	285	287	289	290	290	291	283	287	286	286	285	284	284	283	283	282	280	281	280	281	282	277	289	283	283	286	291	297	288	287	286	286	284	283	282	284	285	288	285	278	280	289	289	288	288	287	286	285	285	287	283	282	289	287	286	285	285	287	291	291	291	290	286	284	284	283	283	286	289	289	285	283	281	281	285	287	288	288	285	284	284	285	285	287	286	289	289	286	286	286	288	295	291	290	287	287	288	287	285	283	281	278	277	280	283	284	284	281	283	284	287	288	288	287	286	291	291	290	289	288	287	287	287	286	284	281	281	278	278	282	286	290	289	286	283	283	283	284	284	285	282	281	284	283	285	294	290	286	282	282	286	282	284	283	286	286	285	284	283	284	283	286	285	287	287	284	285	288	289	289	289	284	282	281	283	285	283	283	287	286	286	285	283	284	286	289	290	290	291	290	288	286	283	283	281	286	288	286	288	289	290	285	286	285	284	283	278	276	279	283	283	281	285	285	285	284	286	287	287	285	284	285	284	286	282	281	280	281	291	291	290	288	278	276	278	282	281	287	288	284	280	281	282	291	287	285	284	286	286	286	287	284	285	282	280	282	283	283	289	285	282	283	292	287	287	290	286	285	287	286	281	281	284	286	282	286	288	288	285	296	283	281	281	284	284	285	283	281	281	281	281	280	281	281	285	283	282	281	285	281	281	281	282	281	286	280	280	279	280	279	279	279	279	279	281	281	288	289	287	278	279	282	287	294	285	276	275	274	276	278	278	277	279	283	281	282	283	281	280	278	280	282	288	289	290	282	280	280	280	282	285	285	284	281	280	278	278	277	285	285	283	281	281	283	282	282	283	289	289	286	283	282	282	276	280	280	283	280	281	281	282	284	285	280	276	281	276	279	279	279	283	282	280	275	282	281	281	271	279	276	276	276	277	277	276	275	278	279	283	283	282	284	285	281	278	283	281	280	279	281	287	287	287	275	270	270	275	282	289	286	283	279	282	283	280	283	282	283	284	275	274	274	283	281	278	280	274	274	273	273	273	273	274	279	279	279	282	284	283	286	288	288	285	284	281	281	276	275	275	275	276	278	282	282	282	282	284	285	287	285	281	278	278	278	280	280	280	279	279	280	280	278	281	281	282	283	284	284	282	282	281	282	0	0	0	0	0	0	0
290	288	284	284	284	285	287	290	290	290	287	283	283	283	283	286	289	293	295	295	292	292	290	290	293	296	296	297	294	295	297	295	295	294	293	295	296	295	292	289	289	291	292	294	295	294	294	293	291	291	289	290	290	291	293	294	293	291	292	292	293	294	294	293	294	294	297	296	291	291	291	289	289	288	287	287	293	286	286	292	295	295	298	298	295	292	288	288	287	288	290	292	289	283	283	285	284	284	286	285	284	285	288	289	290	290	287	287	286	286	287	289	292	292	290	286	284	280	280	281	278	280	282	285	288	288	286	282	280	280	279	280	282	284	283	283	282	280	280	284	284	283	282	283	283	281	281	280	277	281	282	283	282	283	284	283	281	283	281	279	283	283	283	281	279	284	286	287	289	283	279	278	279	281	280	282	287	286	284	285	285	282	282	281	281	281	281	282	282	284	286	283	283	278	281	281	279	278	282	285	287	285	287	285	285	284	285	285	287	284	282	284	284	284	285	285	286	288	288	284	277	277	278	278	289	288	288	286	286	283	282	273	273	274	279	282	283	283	282	282	282	287	284	284	281	281	285	288	290	287	286	286	285	283	282	282	279	278	279	276	278	281	284	283	282	281	281	282	280	281	275	276	275	276	280	284	282	280	278	281	282	282	284	282	283	285	286	285	282	282	280	279	280	282	283	283	281	284	285	281	280	286	285	280	281	280	280	279	280	281	286	280	280	282	285	279	288	287	287	285	285	288	280	281	279	278	277	278	282	286	288	286	286	286	284	281	279	279	277	276	278	279	284	284	285	282	281	285	285	285	284	284	285	284	280	278	274	278	280	282	283	281	278	277	279	280	280	280	285	283	280	280	278	280	281	283	282	282	283	283	285	283	282	284	282	280	278	278	283	284	283	282	282	284	286	281	281	283	283	282	277	279	281	282	283	284	283	288	284	282	276	279	279	281	281	282	283	283	281	280	280	279	280	280	281	283	282	282	282	283	281	281	281	280	281	280	281	280	278	277	277	278	278	276	278	281	279	279	278	277	281	281	281	281	275	276	275	273	269	272	274	274	271	278	278	278	276	278	282	282	278	279	281	282	287	286	282	278	278	279	279	284	279	277	277	278	276	274	275	276	277	279	279	281	278	276	277	284	284	284	281	277	277	276	280	277	278	272	275	282	282	280	279	279	277	274	273	277	276	278	276	276	277	276	274	276	281	278	270	277	270	275	276	276	275	274	273	281	279	279	279	282	280	284	285	270	278	276	275	277	279	285	287	275	271	270	271	273	276	279	284	282	280	281	282	279	281	279	278	274	270	269	269	271	274	276	277	274	271	271	273	275	274	274	276	277	278	279	277	274	275	277	279	280	279	278	276	274	274	274	274	272	272	271	273	275	275	277	279	280	281	279	278	278	274	277	277	276	276	277	276	278	277	276	280	279	277	277	277	277	276	279	275	0	0	0	0	0	0	0
283	280	276	276	275	282	285	287	288	288	285	282	281	282	282	286	289	292	290	289	289	286	287	286	289	289	289	288	290	292	293	291	289	289	291	290	287	287	287	289	286	290	293	295	295	293	290	287	286	286	287	287	289	291	291	285	283	285	289	289	291	291	291	290	290	284	286	291	286	288	284	284	283	283	282	282	281	285	291	286	285	285	286	287	286	283	282	280	281	282	283	284	285	284	285	285	284	283	283	284	284	283	285	285	285	285	285	285	286	286	286	287	288	287	285	284	280	278	274	274	277	279	281	283	285	283	283	279	278	277	276	277	280	277	280	282	279	277	277	279	280	281	282	279	275	275	279	278	280	280	281	279	283	282	281	281	279	281	280	280	282	283	281	281	281	284	287	287	287	284	281	278	278	276	278	279	284	284	283	282	281	280	280	280	279	279	279	279	280	281	281	278	277	276	275	276	276	278	280	281	283	284	282	284	282	282	281	283	281	283	279	276	281	280	283	279	286	287	280	281	279	278	277	278	280	281	282	285	285	285	277	275	275	275	278	286	285	283	282	281	277	281	281	280	277	277	285	289	287	286	284	284	282	281	280	278	276	277	276	279	277	277	278	280	281	279	280	281	280	273	275	275	274	276	280	283	284	277	273	274	279	280	283	283	282	282	284	283	280	280	280	279	279	280	280	282	281	280	278	278	277	282	280	278	277	276	277	276	277	279	285	278	277	279	279	277	275	275	276	280	282	279	278	278	278	275	274	278	280	281	287	287	288	289	284	282	280	279	278	276	275	275	277	280	281	281	281	279	280	279	280	279	281	281	283	279	274	273	274	278	278	280	281	279	279	280	279	284	284	276	278	279	276	275	273	276	279	280	280	282	283	280	280	282	282	280	278	280	283	284	283	283	283	284	283	280	277	278	278	275	275	279	280	281	283	283	282	282	282	273	273	279	279	277	278	280	280	279	277	277	276	277	278	280	280	281	281	279	280	282	283	282	281	278	277	279	279	279	276	276	278	276	277	276	274	278	277	278	276	277	277	279	277	273	273	275	275	276	277	276	272	271	271	272	275	274	276	283	282	278	275	269	279	280	281	281	276	277	281	280	278	278	275	273	274	274	272	271	271	275	276	277	277	277	275	274	274	279	277	276	275	272	271	271	272	274	270	270	273	275	277	278	278	277	276	272	271	272	273	274	274	275	275	275	274	272	275	269	269	269	267	267	270	271	271	273	268	281	278	277	274	281	279	274	274	266	270	275	274	271	269	277	265	269	271	270	270	272	275	277	271	281	278	279	279	279	278	276	271	273	272	268	268	270	272	275	274	271	269	270	272	272	272	272	272	276	276	277	277	278	276	276	279	277	275	273	272	272	272	272	272	271	271	271	269	270	267	269	271	274	276	277	277	277	278	275	272	270	269	271	274	277	275	275	276	277	276	276	273	271	271	273	273	0	0	0	0	0	0	0
280	277	273	278	278	279	282	284	283	283	282	280	280	284	284	288	291	291	287	285	285	285	279	283	283	283	283	283	286	285	287	284	281	281	283	277	278	280	282	286	286	286	284	285	286	286	284	283	282	282	285	286	285	284	281	280	279	280	285	288	288	288	287	283	282	282	283	279	281	282	283	283	281	281	276	274	275	281	286	282	282	285	285	283	282	274	276	278	279	280	281	282	282	283	284	283	276	280	281	281	281	280	277	280	281	280	280	282	283	285	286	284	283	279	279	279	277	274	272	276	278	279	280	280	279	277	275	278	274	270	274	275	274	277	279	278	275	275	276	277	279	278	278	277	276	274	274	275	277	281	281	279	279	281	279	278	277	277	276	281	280	277	273	275	280	281	282	284	279	277	282	279	279	277	276	277	282	284	278	280	280	275	277	279	278	277	278	279	278	279	281	281	280	272	273	275	279	278	277	278	280	282	283	282	276	277	277	278	280	280	280	280	280	279	279	278	277	278	277	277	279	277	276	277	277	276	276	276	274	282	277	277	277	277	278	281	282	280	282	286	283	279	277	279	277	282	280	277	280	282	284	285	280	280	279	276	276	276	280	277	276	275	274	275	275	275	280	280	276	274	272	273	272	273	277	280	279	278	275	272	276	271	284	281	282	281	283	281	281	280	280	278	278	276	278	280	280	279	276	275	278	279	276	279	279	279	279	278	276	276	276	276	273	277	278	276	274	273	274	275	275	272	275	277	277	272	271	270	279	279	280	279	280	281	281	276	276	277	277	277	274	275	279	279	280	280	280	277	276	276	277	278	278	278	276	274	273	273	275	276	278	280	281	279	280	280	279	279	276	276	278	278	276	279	272	273	278	279	280	279	277	279	279	280	280	280	280	278	280	282	276	281	282	282	280	277	276	278	278	275	275	275	276	274	279	283	281	275	272	272	274	279	278	279	277	277	275	276	275	274	276	276	277	279	280	279	277	277	276	281	281	279	280	278	276	276	277	277	274	276	277	277	275	275	275	277	276	275	273	276	276	276	272	273	273	274	273	274	274	272	271	268	264	267	269	275	277	276	276	276	273	267	270	278	281	279	276	277	279	276	274	273	270	267	271	273	274	270	268	270	274	275	275	274	273	272	272	273	272	271	269	270	271	271	270	270	270	270	272	274	277	276	276	275	272	271	268	269	269	273	272	273	273	273	273	272	271	267	266	267	267	267	272	272	272	272	268	267	268	273	273	272	271	273	267	267	267	273	269	271	270	268	265	264	265	261	262	265	267	269	271	277	270	269	276	277	270	273	272	272	271	269	269	274	276	276	270	267	267	269	269	269	269	271	268	268	269	274	278	282	282	281	274	271	270	267	264	269	270	271	272	272	269	266	268	270	270	268	268	268	271	274	274	274	273	271	269	269	268	269	270	274	273	273	274	277	277	275	272	271	270	270	270	0	0	0	0	0	0	0
273	281	280	279	279	274	275	276	279	279	277	277	279	283	283	287	287	289	274	273	273	274	273	275	281	281	281	280	278	278	280	279	276	276	277	277	280	281	282	285	274	274	273	273	276	278	279	280	280	280	280	280	279	279	279	279	279	280	282	281	281	282	285	282	281	280	278	279	280	281	281	280	277	275	275	277	279	282	276	277	277	279	280	278	278	278	277	276	275	277	279	281	280	279	278	276	279	275	277	276	276	276	277	278	274	277	280	281	278	278	274	274	275	274	274	277	276	271	276	276	277	278	279	277	275	273	273	271	271	272	277	277	277	277	272	268	267	269	275	277	278	274	274	277	279	276	272	273	271	274	279	278	278	280	279	272	276	276	275	274	273	268	271	274	275	279	282	280	277	279	281	284	279	276	273	276	281	282	279	278	270	265	267	278	278	278	278	278	278	280	281	283	274	270	272	273	275	276	274	275	277	280	280	269	270	271	272	275	278	279	279	279	277	277	275	276	276	275	276	276	277	277	275	274	273	273	276	275	273	269	277	276	276	277	277	279	275	277	279	285	282	280	276	274	276	276	276	277	278	281	281	278	275	277	278	278	276	280	277	277	275	275	275	276	275	274	275	275	275	271	272	272	271	269	269	275	272	280	268	272	270	271	272	275	274	276	281	281	281	280	278	276	275	272	277	280	281	279	276	276	275	275	276	275	275	276	277	277	277	276	274	272	274	273	276	275	274	271	272	272	271	270	271	273	271	269	269	270	272	277	277	277	279	280	277	276	275	275	274	276	274	273	274	272	277	277	274	274	274	275	275	276	277	277	276	274	273	273	275	276	278	281	280	280	278	274	268	268	272	275	278	276	278	274	272	272	278	276	274	272	272	272	277	279	277	277	275	275	272	271	269	273	275	276	275	278	278	276	274	273	273	275	271	272	269	268	270	270	270	271	275	276	278	278	277	275	273	272	271	276	278	275	276	278	279	276	275	273	275	273	279	277	277	276	274	274	274	274	273	274	273	267	268	274	276	275	271	272	273	274	274	272	273	272	272	275	272	270	272	271	269	264	263	266	269	275	273	268	273	274	275	275	273	270	277	281	279	275	274	271	272	269	269	265	271	273	272	273	270	267	269	272	271	272	273	273	275	273	273	271	271	270	270	270	269	269	270	270	270	273	273	272	271	266	263	264	268	267	271	269	269	269	271	271	270	268	267	269	265	263	262	263	267	274	274	276	266	263	263	268	269	269	269	271	269	268	267	268	268	267	265	265	265	263	258	261	261	260	259	264	265	265	268	268	269	266	264	269	270	269	268	268	269	267	272	274	271	273	271	270	269	268	268	267	268	266	269	269	276	279	279	275	270	264	265	265	264	261	264	264	261	262	265	267	268	266	265	265	266	267	269	268	268	268	270	270	269	267	268	268	269	272	270	269	268	276	276	275	272	271	269	268	268	0	0	0	0	0	0	0
271	274	278	278	278	278	275	275	275	275	275	275	275	278	282	282	284	277	274	269	269	269	271	280	280	277	277	277	273	274	273	275	276	277	277	278	278	278	278	280	271	271	272	274	278	279	278	279	277	277	277	277	277	278	279	280	279	277	279	279	278	278	280	281	280	279	278	275	274	272	271	272	272	273	273	274	273	271	276	272	275	276	277	278	275	276	275	275	273	273	276	278	278	276	273	273	277	274	269	271	274	274	276	272	274	275	278	272	271	271	271	272	271	270	267	270	275	272	271	272	273	270	275	270	270	270	271	271	271	274	276	276	274	269	269	268	267	266	269	271	273	270	270	271	272	272	272	270	271	271	274	277	278	276	275	264	272	271	270	271	273	268	269	268	271	273	275	277	274	270	269	272	273	271	272	271	270	272	271	271	269	270	271	268	276	276	279	278	279	279	282	271	269	270	272	272	273	273	271	271	274	279	278	267	265	267	268	273	276	276	276	275	274	273	276	275	274	274	274	272	275	275	276	273	273	272	270	272	273	271	270	275	274	273	269	273	272	274	275	281	281	278	275	274	273	275	275	276	271	272	277	278	274	273	272	272	273	275	276	275	273	274	274	277	276	274	273	273	275	271	271	273	270	270	269	270	270	269	268	269	270	268	266	267	270	266	275	271	272	276	276	274	273	273	271	279	280	275	275	272	271	270	270	272	272	273	275	277	275	273	273	272	274	274	275	274	271	271	269	267	268	268	268	272	266	267	268	273	273	274	273	276	275	275	276	276	276	277	276	273	270	270	269	270	272	273	272	271	273	274	274	274	275	275	274	273	272	273	273	275	275	280	279	278	277	272	271	272	272	275	276	274	277	278	272	272	273	274	275	273	273	275	273	274	271	273	274	273	272	271	269	269	270	271	271	272	273	274	271	268	268	269	270	268	268	267	265	270	269	272	269	268	277	276	277	277	269	267	266	266	267	268	278	275	275	276	274	272	272	270	273	276	276	275	273	273	273	273	270	268	270	271	268	268	273	272	273	273	274	273	272	271	271	270	270	269	270	269	269	269	264	263	263	263	269	274	272	267	266	269	272	269	270	273	273	278	278	275	272	267	265	265	264	266	271	273	271	271	268	267	268	272	271	268	268	275	275	272	271	270	270	269	269	266	266	267	266	269	269	270	270	270	268	260	259	262	265	265	267	267	265	265	267	267	268	267	267	266	263	261	258	260	266	269	265	264	263	265	263	262	265	266	266	268	268	267	265	266	266	262	263	263	264	263	260	260	266	264	259	264	262	259	258	258	259	265	265	263	269	268	266	263	260	261	263	266	267	266	266	267	265	262	266	266	266	266	266	262	268	272	276	274	270	263	264	264	261	265	263	262	264	265	265	266	266	265	265	265	265	267	266	266	265	265	266	267	267	266	265	265	267	268	269	269	267	261	268	268	270	268	267	266	265	0	0	0	0	0	0	0
269	272	275	276	276	276	277	277	276	275	275	273	273	276	273	273	275	277	271	273	273	273	275	276	274	274	269	269	269	269	270	272	276	278	278	278	276	274	274	273	272	274	274	276	277	277	276	277	278	277	277	275	276	277	279	278	277	276	275	276	277	277	276	277	279	278	272	271	270	270	270	269	269	270	268	268	269	270	271	272	274	277	277	275	274	274	273	273	271	273	276	277	277	275	272	272	273	273	273	273	276	276	273	273	272	269	269	269	271	269	269	269	270	270	274	276	273	272	271	269	268	271	260	266	268	270	270	273	273	275	269	274	271	268	267	269	268	269	269	270	272	270	269	270	272	270	272	271	270	269	272	267	277	266	269	269	270	272	268	267	269	269	269	269	270	272	271	273	268	266	264	270	270	270	271	272	270	270	269	270	269	269	269	271	271	273	275	275	277	277	280	269	267	268	269	276	267	271	268	268	269	274	274	265	264	264	268	273	275	274	273	274	273	271	274	273	275	274	274	272	274	276	275	273	271	269	270	270	269	269	265	273	269	268	273	272	271	272	275	277	278	274	273	272	273	273	274	274	268	271	271	271	267	265	268	271	269	269	269	270	271	272	272	273	274	269	268	269	271	273	270	271	270	268	267	269	268	268	266	266	266	263	260	260	261	275	266	269	270	271	275	274	269	267	263	262	273	273	270	270	270	270	271	268	266	270	269	270	272	272	269	268	268	265	265	272	270	268	267	266	268	268	268	269	267	267	266	271	273	273	267	270	270	273	272	273	271	270	277	269	270	269	270	270	272	272	270	271	264	263	268	271	272	273	273	270	272	273	276	276	278	278	277	277	270	270	271	272	273	271	276	275	272	269	266	268	268	274	274	273	273	272	269	269	270	271	268	269	271	272	272	271	269	269	271	272	272	272	268	267	266	263	267	267	265	265	263	270	270	270	266	266	275	274	273	269	266	264	262	262	262	267	268	268	267	266	275	272	270	270	271	275	275	274	272	273	271	271	270	268	269	266	267	271	273	272	268	269	270	272	271	269	269	269	269	266	265	266	266	265	264	261	263	266	271	272	269	264	264	266	265	267	269	272	273	273	274	270	269	266	264	264	269	269	268	266	263	263	266	266	264	263	264	264	266	272	271	269	267	269	267	268	266	265	263	263	264	266	270	268	264	261	260	260	260	262	265	267	266	267	266	265	266	267	267	263	265	265	261	259	260	265	263	259	259	262	264	266	265	260	260	265	268	268	267	264	262	263	260	259	258	259	261	262	261	260	260	257	259	260	261	261	257	258	254	259	261	262	265	263	262	260	258	260	266	266	266	263	266	264	260	260	259	265	264	265	265	263	267	270	268	271	270	269	268	261	261	264	262	261	263	264	266	266	265	263	265	263	262	264	262	262	263	265	265	264	267	269	269	269	268	265	267	268	264	264	261	267	265	266	266	264	264	0	0	0	0	0	0	0
269	270	275	276	276	276	277	278	276	275	275	271	265	265	270	270	271	275	275	268	269	269	271	273	272	271	268	268	266	267	265	267	271	275	275	274	274	271	272	272	273	274	274	275	275	275	273	275	274	275	274	274	273	274	276	276	275	275	274	275	273	273	272	272	274	270	270	267	268	267	268	267	268	264	268	268	268	267	266	268	268	268	270	271	271	271	271	271	271	270	271	272	271	271	271	270	272	272	273	275	277	274	270	270	268	268	268	269	265	263	264	265	265	267	266	268	267	265	265	264	265	263	263	264	264	267	269	270	272	273	268	266	261	261	264	265	266	271	271	270	269	268	268	268	269	271	272	271	271	268	268	264	266	266	265	267	268	273	268	266	266	265	263	264	265	268	269	268	265	264	265	265	266	268	269	272	271	264	266	268	268	269	269	268	266	266	271	269	269	269	269	265	264	267	268	274	272	270	266	264	266	267	268	265	264	264	266	266	267	271	271	270	268	269	271	272	274	273	271	268	268	269	276	272	269	269	269	268	267	266	267	264	270	272	273	271	270	272	272	273	278	278	276	274	271	270	270	269	267	267	268	269	267	264	265	262	263	266	266	265	266	267	267	265	267	266	266	268	269	264	266	267	269	267	266	269	264	265	266	265	265	259	258	258	260	261	267	267	268	270	269	267	265	262	267	267	266	267	272	273	274	271	268	269	264	265	267	268	270	270	269	266	262	266	266	265	271	269	267	269	269	269	268	266	265	259	265	266	268	267	266	267	265	271	272	271	272	270	267	266	268	271	273	271	270	269	269	267	262	263	267	269	271	270	270	265	263	265	267	268	273	273	273	271	269	267	271	271	275	272	269	267	269	266	265	265	268	268	268	266	262	267	260	261	266	268	268	270	271	270	269	268	267	269	270	270	273	272	269	267	267	264	260	266	265	264	267	266	266	263	264	266	268	271	271	266	265	264	263	264	263	267	268	265	259	261	265	271	269	270	271	269	267	267	272	270	270	267	265	266	266	265	266	266	269	267	265	267	266	263	266	268	267	266	268	266	264	264	264	264	263	264	264	269	269	268	267	262	261	261	261	263	267	271	269	272	272	269	268	266	263	264	267	267	263	263	262	261	259	261	262	262	261	262	265	270	259	257	262	264	265	265	264	262	261	261	260	263	266	272	260	257	256	259	259	257	266	264	264	266	264	264	263	263	264	264	267	264	262	258	258	258	255	254	262	262	261	260	261	256	255	260	262	265	265	263	260	259	259	257	256	258	259	262	259	260	257	257	259	260	261	260	258	258	258	259	261	259	258	261	260	257	256	257	263	264	263	260	259	261	258	256	253	259	258	256	256	260	262	267	266	262	258	267	265	255	259	260	259	261	262	264	262	264	264	263	261	262	262	260	260	260	262	261	262	265	264	261	261	260	260	262	262	259	259	259	260	264	259	260	257	258	261	0	0	0	0	0	0	0
270	269	270	270	273	273	275	276	275	272	272	263	262	262	264	268	268	268	267	266	267	267	269	272	270	269	268	265	265	266	265	265	267	268	268	268	269	270	272	273	274	275	275	274	273	272	271	271	273	271	273	273	273	273	275	275	274	275	276	272	271	270	270	268	269	268	269	267	267	265	266	266	266	266	268	267	267	266	264	263	266	266	268	267	265	264	267	268	269	268	268	269	269	269	267	266	261	264	267	270	270	269	267	266	261	261	266	268	262	263	264	263	263	267	268	267	266	265	264	262	264	263	267	264	264	264	266	263	264	263	263	262	260	258	265	266	264	264	261	266	266	267	267	269	270	270	271	270	268	267	261	261	260	263	263	261	260	271	264	265	266	264	262	264	266	266	265	265	267	264	261	263	266	266	268	270	267	261	261	258	263	264	262	261	262	262	259	262	266	267	266	266	263	266	267	263	267	268	265	264	263	265	263	258	263	268	263	259	265	267	267	263	264	267	268	270	264	265	264	267	265	263	269	270	268	266	265	265	265	265	266	265	268	271	273	272	269	268	269	268	264	264	269	272	270	267	268	267	267	266	266	266	266	262	261	259	262	264	263	262	264	264	264	261	263	264	264	265	260	261	264	266	267	267	264	261	264	265	265	266	259	257	252	258	257	260	263	264	265	264	265	264	264	265	263	265	265	264	264	265	265	269	267	266	265	262	263	267	269	269	271	269	270	269	268	266	265	265	269	269	266	266	266	266	262	257	258	266	263	269	265	264	265	267	265	269	269	269	263	271	269	271	270	270	270	268	266	264	264	260	263	265	268	270	269	266	265	266	264	261	267	270	270	269	266	269	269	268	268	266	260	262	264	265	265	264	266	266	265	261	260	260	260	259	259	266	268	268	269	268	267	267	267	268	270	269	269	268	270	270	264	260	258	260	262	266	259	266	265	265	265	264	265	266	264	262	260	262	263	264	265	266	267	259	257	256	270	271	270	270	266	260	260	262	264	264	264	264	264	264	266	266	266	265	263	262	263	265	264	263	262	262	263	264	265	265	263	263	263	263	263	263	264	266	266	265	264	261	260	260	261	261	267	268	268	269	268	267	268	267	262	261	268	266	260	262	262	261	259	260	261	261	261	260	261	260	259	257	258	262	261	258	261	260	260	261	260	264	264	263	260	258	258	257	257	259	265	262	263	265	263	260	261	260	262	265	264	258	261	257	256	256	256	258	261	261	262	263	261	260	259	254	259	261	255	260	256	257	255	255	256	257	257	260	260	256	255	256	256	257	257	257	257	259	259	259	260	259	258	260	257	257	255	260	261	262	262	258	258	260	255	254	251	255	254	253	253	255	257	264	263	259	259	258	259	260	257	256	257	262	262	267	259	263	260	260	262	261	260	260	260	260	260	259	258	257	258	258	258	259	258	258	253	253	253	261	261	261	257	257	256	255	258	0	0	0	0	0	0	0
269	265	267	267	268	268	272	270	263	261	261	259	259	261	264	268	268	268	268	264	263	265	265	264	268	267	265	265	265	266	268	267	268	266	267	267	268	270	272	273	270	271	270	270	260	259	260	263	265	267	267	268	268	269	268	266	268	273	275	277	274	272	272	270	267	267	266	266	266	264	264	264	265	266	267	267	267	265	263	262	264	265	266	265	265	262	265	265	266	267	267	268	270	268	268	268	264	262	264	269	261	261	261	265	262	262	263	263	264	263	264	263	264	266	265	263	262	262	260	261	262	263	267	267	266	263	264	263	263	261	257	256	253	258	266	265	265	263	260	265	264	263	262	264	265	266	262	263	263	262	261	261	260	260	260	259	260	260	262	263	263	263	262	263	262	262	264	264	263	258	262	263	261	263	265	268	268	259	257	262	264	264	265	265	257	261	253	256	257	264	261	263	260	264	264	268	263	261	265	264	263	263	261	260	261	268	264	259	262	263	259	260	263	264	268	264	263	263	263	263	260	261	260	265	265	264	263	264	264	264	265	264	265	268	269	266	267	267	266	265	263	263	264	265	265	266	267	267	267	265	264	263	264	263	258	258	261	262	260	260	261	263	259	259	260	263	264	260	258	255	255	261	262	257	256	257	259	264	262	260	257	258	252	256	257	263	259	258	261	261	262	260	263	265	263	263	264	262	262	263	263	263	265	263	258	256	258	260	266	263	268	268	270	268	266	266	263	264	265	265	262	259	263	261	259	259	261	261	267	265	265	264	263	261	261	258	265	261	261	268	272	272	270	267	266	266	264	264	257	260	260	266	268	269	269	266	263	264	263	259	266	267	268	268	266	268	268	268	266	265	259	261	260	262	264	263	263	265	261	260	261	261	260	261	259	259	265	268	266	268	268	267	262	261	261	260	264	265	269	272	263	260	257	264	264	261	258	264	264	262	264	264	264	265	262	262	261	265	261	259	259	260	264	259	258	260	259	258	261	264	259	258	257	258	260	259	262	262	264	266	268	266	266	264	259	260	263	263	262	261	262	262	262	263	265	259	261	261	261	263	262	261	261	261	263	263	261	260	259	260	259	261	261	265	264	265	262	262	261	267	263	255	255	255	257	258	259	260	260	261	262	262	261	261	261	260	258	257	257	256	254	255	259	261	261	260	259	255	261	261	259	257	257	258	259	259	256	261	259	264	261	260	259	256	258	258	257	257	256	254	253	253	256	259	260	257	261	261	262	261	260	257	257	260	253	253	260	260	254	255	255	255	255	251	252	251	254	255	255	257	256	256	253	258	258	258	259	259	258	258	256	252	255	255	255	255	256	257	257	257	254	253	251	253	250	253	254	255	257	263	263	260	259	259	260	260	259	258	258	253	254	262	263	255	257	259	258	258	257	257	257	258	259	257	253	253	257	257	257	258	257	255	254	251	251	250	252	259	254	253	254	261	259	0	0	0	0	0	0	0
265	265	264	263	263	260	260	261	262	259	258	258	258	261	263	266	266	267	266	264	261	261	261	261	262	265	265	265	265	267	267	269	268	264	263	263	265	266	266	267	269	266	264	264	260	258	260	261	263	264	264	264	264	266	265	265	264	265	267	268	270	269	268	268	267	266	265	264	264	263	263	263	262	263	265	266	266	266	264	264	261	263	263	264	264	261	263	262	263	261	263	267	270	268	268	269	264	261	259	259	260	259	258	258	263	263	262	263	263	263	264	264	262	265	263	263	261	257	260	259	260	261	263	262	260	262	258	262	260	262	258	249	256	257	262	265	261	260	260	260	256	262	257	260	259	261	259	260	261	257	257	254	258	255	253	256	257	261	263	265	265	264	261	261	262	262	263	262	263	258	262	263	261	261	264	263	262	260	257	257	262	265	264	264	257	258	253	252	252	255	260	261	261	266	263	262	257	260	263	263	262	263	262	260	261	261	260	258	256	261	264	265	265	265	263	263	263	263	263	261	258	257	261	261	261	262	262	263	264	264	263	262	262	261	263	265	267	264	262	261	261	262	263	265	262	264	266	259	267	264	261	261	264	260	259	259	261	259	260	260	259	261	260	260	261	262	261	259	256	254	254	259	262	262	263	263	264	263	262	261	256	258	259	261	262	259	258	256	255	257	256	255	260	263	263	261	261	260	261	259	260	260	261	260	258	257	257	257	256	256	259	261	263	267	267	264	263	260	261	261	260	262	263	264	264	263	264	262	262	261	262	262	261	260	260	258	259	259	261	265	265	258	270	264	261	261	262	263	262	260	260	259	263	259	259	263	262	260	261	259	259	255	258	258	258	255	254	254	256	256	256	258	259	260	260	262	260	260	258	256	256	257	257	259	263	265	267	268	268	263	263	263	260	260	260	261	263	264	262	258	259	259	262	259	260	260	260	257	261	263	264	264	266	263	267	264	264	264	265	268	257	256	256	252	250	259	258	257	260	259	254	253	253	253	257	257	259	261	262	263	263	263	262	262	260	257	260	261	261	260	260	262	262	261	259	259	256	261	262	264	261	260	258	259	260	259	258	258	257	257	257	260	259	261	261	262	261	260	257	255	251	254	254	256	256	259	259	257	258	258	259	260	261	256	255	255	255	254	254	255	255	253	255	257	258	258	256	253	252	253	254	256	257	259	259	255	254	254	252	256	256	255	255	256	256	256	256	256	255	257	254	254	254	256	257	253	258	259	260	259	259	257	251	255	253	258	259	253	255	258	259	259	258	257	254	253	255	254	255	254	255	254	251	254	258	255	254	257	258	256	250	257	254	255	255	254	250	251	248	251	251	251	252	253	251	248	255	258	256	247	247	254	259	259	255	254	259	258	257	253	253	253	248	252	255	257	256	256	256	254	255	256	257	257	252	252	254	256	257	256	255	254	252	252	250	248	251	251	251	252	254	258	256	0	0	0	0	0	0	0
263	263	261	260	257	257	257	259	260	259	257	257	259	263	262	260	260	260	260	262	260	260	260	260	264	265	264	266	267	267	269	267	264	263	263	263	263	262	265	266	267	265	264	264	263	263	264	265	263	262	264	265	265	267	267	265	264	263	263	260	265	267	266	266	266	265	264	262	263	263	262	261	258	259	262	264	266	266	264	264	263	261	262	262	262	259	259	259	259	260	261	260	262	260	260	260	260	258	260	267	263	263	257	259	263	261	260	259	263	262	261	264	264	264	264	261	259	260	259	259	258	259	262	261	259	258	258	258	252	249	250	251	252	257	260	260	260	261	259	253	260	255	251	257	255	256	259	258	257	256	254	254	255	254	252	255	257	261	261	260	263	262	260	258	255	254	253	253	257	257	258	263	259	259	258	257	256	259	257	257	257	255	257	257	257	251	252	250	250	252	252	256	255	257	260	260	256	254	258	256	260	258	257	256	256	258	259	263	263	264	263	264	263	262	259	259	262	263	262	261	258	260	261	262	262	263	262	264	263	262	260	257	255	260	261	263	262	261	260	260	260	259	260	257	258	256	257	255	257	257	257	257	263	259	258	262	259	259	257	257	259	259	261	261	262	261	260	258	255	253	254	256	260	256	256	257	257	253	257	256	255	257	257	259	261	261	260	257	257	255	253	254	256	258	265	260	260	256	256	256	260	260	259	258	258	257	257	256	255	257	257	264	267	267	266	264	258	255	254	256	260	260	263	265	266	262	261	261	258	258	260	260	260	260	260	260	258	258	259	259	259	258	258	258	259	259	258	259	258	259	259	261	256	258	257	255	253	253	255	255	255	259	261	261	263	254	253	254	254	258	255	255	256	258	257	257	258	256	257	253	255	255	257	257	257	257	257	257	256	256	257	258	260	258	260	260	257	263	261	257	260	262	262	258	253	255	257	257	257	258	256	257	261	262	260	261	261	261	261	251	252	254	256	254	256	258	261	260	258	256	253	253	252	254	255	254	257	258	261	262	263	262	260	259	256	256	259	259	259	260	260	260	264	261	258	255	256	258	257	255	257	257	258	259	260	257	255	255	255	256	256	256	257	258	259	257	257	256	255	254	251	254	254	254	256	256	254	252	254	257	258	254	253	252	252	252	252	254	253	255	255	254	254	255	254	251	251	250	251	249	252	251	253	259	258	255	252	253	257	256	255	255	253	252	250	250	250	250	254	253	256	255	256	255	251	250	254	256	256	257	258	257	256	249	252	251	252	253	259	258	259	259	259	258	256	253	253	254	252	252	253	250	252	252	253	250	253	248	256	256	253	252	254	253	251	249	248	251	248	249	249	250	250	252	251	247	246	244	248	248	248	249	247	251	253	252	249	257	257	252	251	248	252	255	256	256	254	252	252	252	253	256	256	258	252	252	253	254	255	253	252	253	250	250	249	247	249	250	251	250	253	253	252	0	0	0	0	0	0	0
261	261	261	258	256	255	255	257	258	258	256	256	257	259	261	258	258	258	259	260	260	260	261	261	259	258	261	264	266	266	265	264	261	262	261	260	260	260	263	264	262	266	264	264	264	264	264	263	261	261	262	263	264	264	265	265	263	260	259	255	256	260	264	263	263	264	264	262	262	261	258	257	258	259	261	262	263	263	263	257	259	260	260	260	261	259	258	259	259	259	259	256	252	254	255	255	258	260	262	260	259	257	257	254	256	257	259	263	259	261	263	258	259	261	259	258	256	258	258	257	258	259	260	257	257	258	261	259	257	256	264	252	255	250	258	259	261	261	256	253	251	249	252	257	260	262	261	258	255	254	254	253	252	252	252	257	259	256	254	255	259	262	262	258	255	254	253	252	251	252	256	257	257	256	255	255	254	257	262	258	256	255	252	257	257	256	252	249	250	250	254	253	253	255	256	258	256	256	256	257	254	257	254	255	257	257	260	260	261	260	261	260	261	260	258	257	257	263	262	260	258	259	261	258	258	261	263	261	262	259	256	254	256	257	259	256	258	260	258	259	260	260	259	256	255	254	256	255	255	253	255	254	256	256	258	257	255	257	257	257	257	258	261	261	261	260	258	256	253	253	254	254	259	255	256	256	253	255	256	256	256	251	256	258	259	261	260	259	257	253	253	254	253	255	257	255	255	257	256	257	256	256	257	255	253	257	257	256	256	257	258	258	257	268	262	261	257	257	255	258	258	258	259	259	259	258	257	254	254	256	257	260	255	256	251	251	254	256	257	259	260	253	260	256	259	259	253	251	252	251	250	256	257	257	258	258	256	255	259	261	259	258	256	251	252	255	255	254	254	256	255	255	256	256	257	257	258	256	256	254	253	253	257	257	257	256	255	256	254	255	257	257	256	256	254	254	255	256	258	258	257	253	255	254	252	255	256	259	259	256	252	254	256	258	261	261	261	258	252	251	250	252	254	255	257	254	257	258	259	256	256	255	256	254	254	255	256	257	257	259	261	259	256	255	257	257	257	253	253	254	256	259	262	258	254	255	255	256	255	253	251	254	254	258	257	256	255	255	254	253	253	252	248	250	252	252	255	255	254	248	252	248	248	250	252	250	248	247	247	249	250	249	252	252	251	250	251	254	254	255	255	254	256	254	252	250	251	249	249	247	252	252	249	252	259	253	253	256	255	253	253	254	254	252	251	249	248	249	250	252	252	251	252	252	250	248	251	254	253	254	255	253	256	255	253	249	249	253	257	257	256	244	246	255	254	250	251	251	251	251	251	250	251	249	252	245	249	247	255	256	253	253	254	254	253	251	244	243	249	248	249	249	250	250	250	247	246	244	245	246	248	248	247	251	252	251	249	250	247	245	247	247	249	251	255	254	253	253	251	253	253	259	258	253	254	252	250	252	251	249	249	248	248	246	246	247	248	241	248	249	251	251	249	0	0	0	0	0	0	0
259	260	260	258	256	256	257	257	257	258	256	254	254	256	260	260	259	259	259	259	258	259	256	256	254	254	257	259	261	261	262	260	258	257	256	255	255	258	260	259	261	263	263	260	260	259	258	258	258	258	260	261	263	263	265	264	262	257	257	257	259	259	261	258	258	261	261	261	261	257	257	257	257	259	260	261	260	255	252	252	251	253	255	258	259	258	258	259	258	259	257	253	253	251	253	253	256	258	256	254	255	255	256	254	255	255	255	249	255	255	256	256	256	258	258	257	256	254	255	252	252	254	254	254	256	260	256	262	259	254	249	250	249	254	255	257	256	254	256	256	256	253	256	259	262	261	261	258	255	253	250	249	249	251	252	256	257	253	254	254	258	253	251	249	249	252	254	253	251	252	256	254	255	254	254	253	252	256	255	252	251	252	251	254	251	252	254	252	253	251	254	253	251	248	250	251	254	256	254	253	256	255	253	254	254	253	255	259	258	257	257	258	258	258	258	256	254	256	256	253	253	253	254	253	255	258	257	256	259	257	255	254	255	256	252	253	256	258	259	259	259	259	257	256	255	255	254	255	255	251	252	253	253	252	253	253	252	257	255	256	256	257	257	255	253	253	254	254	253	255	253	253	252	251	253	256	256	253	255	255	256	250	253	255	257	260	262	258	255	256	254	253	253	254	255	256	254	254	254	252	253	255	254	254	253	256	253	257	256	257	257	251	250	259	259	258	255	255	254	253	256	256	258	255	257	253	253	249	255	254	256	257	258	256	253	255	255	257	257	260	261	261	254	254	253	253	252	251	251	248	250	250	255	259	261	255	253	252	252	258	253	251	250	251	253	255	252	256	258	256	254	254	255	255	257	257	257	256	253	251	251	252	256	256	256	255	256	255	253	256	258	258	257	256	253	253	253	254	257	257	256	255	256	255	252	253	255	254	257	258	256	251	256	261	257	259	258	251	251	254	252	254	253	253	254	253	254	254	253	255	255	254	253	253	254	254	254	255	255	253	253	252	255	255	257	253	252	247	247	252	251	256	257	251	250	249	251	251	251	252	251	249	250	257	256	255	252	253	252	250	250	249	249	249	249	250	249	251	251	248	248	247	249	247	247	246	249	248	247	249	250	248	246	249	251	251	250	250	253	255	254	254	255	250	251	252	251	251	249	249	246	245	251	252	253	252	252	254	253	251	250	250	251	250	249	247	247	247	248	249	249	248	245	247	248	247	251	252	254	254	254	250	249	249	249	248	245	247	250	253	246	245	244	254	254	247	249	248	248	251	251	250	249	247	248	249	247	245	244	245	246	252	253	254	252	247	246	244	244	247	247	247	248	249	244	245	245	244	244	245	248	245	243	244	251	253	247	246	247	246	247	247	248	247	248	250	249	249	246	249	250	250	252	253	251	251	248	246	245	247	248	246	246	245	242	245	245	241	245	249	251	249	248	248	0	0	0	0	0	0
257	258	258	254	253	254	256	256	258	256	255	255	255	255	259	260	255	255	255	256	258	257	255	255	251	251	254	256	256	255	255	256	255	254	252	253	254	254	257	258	263	261	258	257	257	257	259	258	254	255	257	258	256	257	257	257	259	259	259	258	258	258	258	257	257	257	258	255	255	255	257	256	257	258	259	260	256	251	248	248	249	252	251	253	254	255	257	260	260	256	254	254	253	252	252	252	251	254	252	251	252	250	251	253	254	255	253	250	252	251	252	254	256	257	256	255	255	249	252	252	251	253	252	253	252	257	262	261	260	257	251	243	246	249	251	253	253	256	254	255	253	254	254	258	260	261	256	252	252	252	252	248	250	251	253	255	257	254	251	253	245	244	249	246	249	250	249	256	255	254	253	255	254	254	252	252	256	256	252	249	249	251	250	251	251	252	254	254	253	253	254	253	251	249	249	250	253	256	254	249	250	251	255	254	252	252	251	251	251	254	255	253	257	257	257	254	253	254	253	253	252	250	251	250	250	252	255	257	256	254	253	255	253	252	251	253	252	252	253	254	256	257	255	255	253	253	252	250	248	249	251	252	252	252	252	252	250	253	253	253	256	256	252	254	250	248	247	250	250	254	254	253	251	252	252	253	254	256	255	254	253	251	252	252	253	254	255	253	253	255	255	254	254	254	255	255	254	253	253	251	252	254	249	252	253	253	253	255	255	252	248	248	250	251	253	255	253	253	252	250	251	247	250	249	250	250	248	253	245	254	255	256	257	257	255	255	256	251	250	250	258	255	252	252	252	253	252	251	251	250	252	253	252	250	255	254	252	253	253	254	250	250	249	250	251	253	254	254	253	253	252	253	253	258	255	256	255	254	251	250	250	251	252	253	255	255	253	252	251	257	258	258	257	256	253	251	249	254	253	252	251	252	255	255	251	251	252	251	254	256	256	255	254	253	256	253	254	251	251	252	253	252	253	254	253	253	254	252	250	250	250	249	249	251	253	253	253	252	249	248	249	248	248	249	249	251	250	250	249	249	251	255	254	251	250	249	248	253	253	253	250	250	250	252	251	250	252	251	252	252	251	250	248	249	248	248	248	250	249	247	247	247	245	242	243	246	249	249	250	249	252	252	246	250	252	252	248	251	252	252	253	252	253	249	250	251	252	250	250	249	244	242	241	249	250	251	251	252	252	251	249	249	250	250	247	245	246	246	246	249	248	247	246	246	247	247	247	248	248	252	253	250	248	248	249	248	246	247	249	248	246	240	245	245	246	245	244	247	247	251	249	250	248	247	247	246	247	245	243	244	244	249	252	250	249	245	248	247	244	245	246	247	246	248	248	243	248	247	245	245	245	245	243	245	250	252	246	246	248	247	245	247	247	245	243	242	242	242	244	248	247	249	251	252	251	247	245	244	243	246	246	246	245	241	240	243	245	245	241	244	250	247	247	247	0	0	0	0	0	0
252	254	254	254	251	253	257	257	256	254	255	252	252	247	248	248	251	251	251	255	257	261	261	261	261	259	255	252	254	256	256	254	253	251	250	250	252	252	255	260	260	257	252	255	256	256	255	255	253	254	253	251	251	252	252	252	253	254	256	256	255	257	258	255	252	252	251	251	251	251	251	249	253	254	263	257	253	252	251	250	250	251	250	252	253	253	255	250	252	251	251	251	252	251	251	252	251	250	247	247	249	249	249	252	253	253	254	248	249	250	249	252	254	253	253	254	249	249	251	251	250	249	248	251	251	250	250	251	253	251	251	248	251	252	252	253	252	252	251	250	251	252	253	254	254	254	252	251	252	252	254	251	251	246	250	251	252	253	251	246	244	242	248	248	248	248	249	249	259	253	253	255	255	255	253	251	255	256	255	249	247	247	248	250	250	252	254	254	254	252	254	252	249	247	247	247	248	254	253	253	253	254	254	253	251	249	249	248	248	249	251	251	253	255	253	251	248	251	251	251	251	248	249	247	248	249	253	254	255	254	254	254	249	251	250	249	249	251	252	253	253	253	252	252	252	253	253	251	248	248	250	251	252	252	252	252	251	251	251	251	250	247	248	250	251	248	249	250	252	253	252	250	250	250	251	254	255	254	254	253	252	248	249	252	251	250	253	252	252	252	254	255	254	256	254	253	252	250	250	248	250	249	249	250	252	252	253	253	252	249	247	250	252	253	251	254	251	250	250	250	247	246	244	245	248	249	247	246	242	244	250	253	256	257	250	254	255	249	246	246	254	252	254	253	253	252	251	249	249	250	252	252	250	249	247	248	247	249	248	246	244	246	248	250	250	255	254	255	251	250	250	251	254	256	257	255	252	249	249	248	249	249	251	245	244	247	251	251	251	254	257	257	252	248	247	248	247	251	251	251	252	252	255	253	251	250	254	256	258	252	254	254	255	254	251	252	252	252	250	251	252	252	251	251	251	250	251	251	250	249	246	246	246	247	250	252	251	250	246	247	249	245	247	248	250	251	252	250	249	249	251	252	252	251	250	250	249	250	253	251	250	250	248	248	245	244	243	245	252	252	252	250	248	247	247	247	246	245	241	242	245	246	244	242	243	246	247	251	250	253	247	245	246	246	251	252	248	249	250	251	254	252	248	249	250	250	248	250	249	248	246	246	246	247	249	249	250	252	250	249	248	247	250	249	248	245	244	243	245	246	247	247	246	247	247	249	246	246	246	248	251	251	249	248	247	246	247	249	251	252	246	246	249	253	250	244	242	241	240	245	247	248	248	245	244	243	239	245	243	243	244	243	244	246	249	250	251	243	246	243	243	246	246	244	243	243	243	242	245	245	244	245	244	241	242	244	246	251	250	248	245	245	246	244	242	242	241	241	244	245	246	247	247	247	245	243	243	242	243	243	242	242	241	240	242	244	244	245	244	245	245	247	247	245	0	0	0	0	0	0
250	251	252	252	243	247	249	249	247	246	244	243	244	244	246	248	253	253	253	257	261	254	250	248	248	248	248	251	253	254	254	255	253	248	248	250	250	254	254	258	252	249	252	252	253	253	254	253	253	253	247	247	249	250	250	250	250	252	252	253	250	252	252	252	248	248	245	245	248	250	250	250	252	256	258	257	251	249	251	249	249	250	250	251	247	250	251	253	250	252	249	249	246	249	250	251	248	246	246	247	247	247	246	245	247	248	251	247	246	250	252	252	254	252	248	247	246	247	250	250	250	248	247	247	249	250	245	245	245	245	246	249	250	251	250	250	250	250	250	250	251	250	250	252	253	253	252	251	251	254	254	252	250	245	246	246	252	250	248	247	246	243	245	248	248	247	248	255	252	253	255	255	255	255	252	251	252	251	249	246	245	243	245	247	250	251	252	255	253	252	255	252	252	247	249	250	252	251	254	253	254	253	254	251	250	249	247	248	247	249	248	249	249	249	248	249	248	248	249	249	249	249	247	246	245	247	248	253	250	252	252	253	248	247	246	249	248	247	249	251	252	253	253	250	252	255	253	250	248	248	246	246	246	246	252	249	249	250	250	250	248	248	248	248	248	247	249	250	250	250	251	251	250	249	251	251	252	252	250	250	246	247	246	249	247	244	250	250	250	253	253	254	254	250	253	250	249	248	248	249	250	250	250	250	251	252	251	251	251	249	250	248	249	249	253	253	254	250	249	249	248	246	244	246	249	249	247	246	241	250	243	247	250	256	249	253	253	249	247	249	250	250	248	251	253	252	251	247	246	246	243	245	248	247	245	246	248	249	248	247	247	241	246	248	249	253	255	256	254	247	246	252	250	247	246	250	248	247	249	249	250	250	249	244	244	245	248	251	250	250	250	249	245	245	245	247	245	249	251	250	251	250	250	250	249	250	254	255	255	255	249	248	251	246	248	251	248	250	248	249	251	251	248	250	249	250	248	247	249	251	249	245	245	244	249	247	247	245	245	245	246	246	245	245	251	251	252	249	248	249	252	249	249	252	249	250	248	250	251	249	249	246	245	245	245	243	243	245	250	251	247	247	249	248	247	246	244	241	241	242	241	242	242	242	243	244	246	248	250	246	243	242	242	242	252	251	249	249	250	247	244	243	247	249	251	249	247	246	243	245	243	243	246	248	249	249	252	251	250	248	247	247	248	248	248	244	243	243	242	242	246	247	245	246	247	247	245	245	244	246	245	247	245	244	244	247	247	247	251	248	249	242	246	252	253	241	244	238	238	242	244	243	242	244	243	243	243	239	240	240	238	239	242	244	246	249	242	242	241	243	243	244	244	243	242	243	244	241	241	239	239	236	234	238	239	240	243	243	244	243	245	244	245	244	242	242	241	242	242	244	244	245	247	245	244	242	243	242	241	238	238	238	243	243	242	243	244	243	243	246	245	242	242	244	0	0	0	0	0	0
240	241	242	242	243	248	250	248	248	243	242	243	245	245	246	247	252	256	256	255	253	246	247	246	246	247	247	249	251	253	254	254	252	248	246	249	249	254	254	255	252	251	250	251	252	249	249	254	255	250	245	247	249	248	249	249	250	250	248	249	249	251	246	246	247	247	247	245	245	243	244	245	246	248	248	251	252	250	253	251	246	246	243	244	242	248	250	250	249	247	246	246	247	246	246	247	246	243	247	249	251	250	245	243	243	244	246	246	246	244	248	248	248	249	246	244	246	245	248	249	248	246	247	248	245	244	244	242	244	244	245	248	250	250	250	249	248	249	249	249	249	249	248	246	248	249	248	247	241	249	250	246	247	245	245	246	246	249	248	250	250	249	248	249	246	246	246	250	254	249	251	252	254	251	250	250	250	246	246	245	244	242	246	245	246	247	251	250	247	249	250	251	248	247	249	248	248	252	251	251	248	250	250	250	248	250	247	247	248	247	246	246	245	245	246	246	245	247	248	248	248	245	246	245	245	245	248	250	249	249	248	247	247	246	246	248	247	247	248	245	245	249	249	247	248	247	247	245	243	240	241	246	247	247	246	252	248	249	248	247	249	248	248	248	248	247	244	243	243	245	245	246	244	245	247	249	249	248	248	250	245	244	243	245	244	243	242	242	243	245	247	252	252	247	251	250	247	246	248	249	250	253	251	251	250	250	250	251	251	254	250	246	245	247	249	251	250	243	243	246	246	245	245	246	250	248	248	244	242	242	240	243	243	244	243	249	250	248	248	244	247	247	248	248	250	252	251	246	246	243	244	243	247	250	250	249	249	249	247	247	247	245	246	246	249	251	253	253	251	240	244	244	249	246	245	247	245	243	246	248	249	251	250	244	243	246	247	250	250	249	247	246	246	246	245	244	245	246	249	251	251	247	249	249	249	249	253	253	252	249	247	242	244	246	247	247	247	248	247	247	248	245	248	249	248	248	248	246	243	244	246	246	244	242	242	245	245	246	246	249	250	248	246	244	246	252	250	248	249	250	249	248	248	250	249	250	249	248	250	250	249	246	243	244	243	242	242	242	244	241	241	243	244	247	245	245	244	241	237	242	244	245	242	243	242	242	239	243	242	242	242	242	242	241	240	247	247	247	250	247	243	243	246	244	243	241	245	243	242	243	243	243	243	245	245	243	241	246	249	248	246	243	241	239	239	243	244	244	245	245	245	243	243	246	245	246	243	244	244	244	241	239	239	239	240	243	244	244	247	242	242	242	242	246	244	248	240	241	235	234	240	240	239	239	235	242	242	242	238	238	238	237	236	235	244	239	241	239	235	235	236	237	238	240	242	243	243	239	238	238	237	236	238	235	234	237	241	240	239	239	239	239	245	243	243	242	240	239	241	241	243	244	245	244	242	242	239	237	238	238	238	239	242	241	239	239	238	240	242	243	242	242	240	241	0	0	0	0	0	0
238	238	239	239	243	245	245	242	242	243	243	243	244	244	247	247	245	244	245	245	250	246	245	244	243	243	246	245	247	250	252	252	252	249	247	244	245	247	247	254	248	245	243	243	243	242	242	247	247	247	245	243	245	246	248	248	247	247	244	245	246	247	245	245	245	246	246	245	246	246	245	242	245	246	246	249	251	252	254	253	247	247	242	241	243	245	246	243	244	246	246	246	247	245	245	246	245	243	245	248	249	247	244	243	241	241	244	243	247	245	244	246	247	246	244	242	241	240	243	248	247	247	245	245	243	244	242	241	242	243	245	248	249	248	248	245	244	245	246	246	248	248	248	246	246	245	239	237	239	247	249	243	244	242	242	244	245	245	248	250	250	251	250	246	246	245	248	248	249	248	248	248	251	249	247	246	247	249	249	243	242	241	242	241	241	239	243	243	245	245	245	243	245	246	246	247	247	247	247	243	244	243	241	247	246	248	248	247	247	247	244	245	243	244	244	246	244	246	245	244	243	246	247	248	245	245	246	249	249	247	246	246	246	245	247	248	247	246	246	248	248	243	242	250	246	246	244	242	241	237	241	245	240	245	245	244	244	245	247	247	249	250	241	243	243	244	244	243	242	240	239	239	243	245	246	247	245	246	245	244	243	243	243	243	244	243	243	244	243	245	247	246	245	246	245	245	245	245	249	251	253	252	251	250	249	248	248	250	253	251	247	245	244	244	247	244	243	244	244	244	244	246	245	244	247	244	244	244	242	240	239	243	244	244	245	243	245	249	246	245	247	245	247	248	247	249	248	248	246	244	244	243	247	248	249	249	249	249	248	247	246	244	244	245	245	249	251	250	248	247	240	239	243	242	242	242	242	242	245	246	250	251	250	244	241	242	243	245	248	247	247	246	246	246	245	244	246	245	242	243	249	247	247	248	246	248	250	250	249	244	243	244	245	244	246	247	248	248	246	246	244	242	245	248	248	248	246	243	242	243	243	244	244	245	241	242	242	245	246	248	242	241	241	242	245	247	248	245	246	249	248	248	248	246	244	241	243	246	244	246	245	242	240	241	241	243	243	242	242	240	239	239	243	245	244	243	244	242	241	241	244	245	242	241	240	238	238	243	245	245	245	245	244	242	241	239	245	244	244	244	247	246	245	244	240	240	240	243	243	244	242	242	243	244	241	238	242	238	242	241	241	239	240	237	237	237	238	240	238	241	243	242	242	240	240	238	239	240	241	241	241	239	239	238	237	233	229	235	236	241	241	242	243	243	243	240	243	239	235	233	240	240	239	237	237	238	242	241	242	239	239	238	235	235	236	239	240	238	237	237	236	237	239	239	238	238	237	237	238	238	236	236	237	236	233	235	239	238	237	237	236	237	236	240	240	239	239	239	240	241	242	242	242	243	242	238	235	238	235	235	238	239	240	240	238	236	236	239	239	240	240	240	239	238	0	0	0	0	0	0
