811	830	830	843	843	847	843	843	841	833	812	813	815	815	817	814	802	804	803	810	810	804	799	806	812	815	815	808	811	810	806	805	804	814	814	820	825	820	756	752	770	765	756	756	761	766	766	767	770	771	773	770	766	757	751	751	747	747	746	741	741	743	745	740	729	727	730	739	752	758	754	754	742	735	736	739	742	734	718	723	732	742	742	740	738	734	736	740	741	738	738	737	734	737	733	726	712	704	703	705	705	711	720	725	727	710	707	710	715	721	724	726	725	719	716	717	711	712	708	709	713	719	717	717	715	693	694	696	703	711	715	716	715	716	717	709	696	690	686	686	687	688	686	682	684	690	699	696	696	689	687	684	687	693	695	698	700	706	703	698	693	695	693	713	708	701	705	711	710	715	710	706	713	715	726	723	724	716	725	722	719	711	701	698	700	701	705	704	704	708	702	691	677	680	688	685	685	683	677	676	681	688	686	679	680	674	668	665	674	681	686	686	686	676	670	667	665	662	660	665	667	668	664	663	659	656	665	664	662	664	670	679	683	683	685	680	671	659	649	649	651	654	661	670	680	667	660	656	656	651	652	661	677	678	675	672	672	665	664	667	677	667	665	662	672	671	671	665	664	661	659	655	653	655	659	669	677	681	678	679	670	660	657	658	662	665	663	658	651	652	653	655	659	661	666	667	659	657	658	653	647	647	648	645	639	641	642	642	649	651	646	644	643	650	640	633	638	641	650	656	656	655	651	652	649	647	640	630	622	620	628	634	648	651	651	646	642	637	630	620	613	614	614	619	625	623	627	628	623	625	629	636	638	642	639	635	629	633	631	634	635	637	636	637	636	634	630	628	634	638	639	639	644	637	635	633	633	634	631	625	624	625	630	638	643	645	636	630	629	637	642	647	646	640	626	622	618	619	619	619	617	619	614	610	605	606	609	608	610	614	619	624	627	621	615	614	619	620	620	616	605	598	593	590	591	595	595	599	602	602	600	599	596	587	593	600	602	606	606	598	594	598	589	586	589	595	599	604	607	605	596	590	590	589	591	591	588	587	592	601	605	607	608	609	608	606	603	599	597	598	601	603	603	600	597	591	592	591	592	594	594	600	604	605	598	591	583	593	596	592	590	588	582	580	584	589	589	587	582	581	578	575	573	575	576	576	576	575	579	587	594	590	582	573	570	568	566	569	568	569	567	563	568	577	585	586	576	567	567	570	574	576	573	570	568	563	564	565	565	563	559	554	560	564	565	557	555	558	559	560	558	554	559	561	559	558	550	548	546	551	552	552	552	553	549	549	555	558	564	568	568	561	557	554	551	550	546	553	560	565	563	560	561	562	555	553	554	553	553	559	563	565	567	571	572	570	563	557	556	557	554	551	549	547	549	553	557	557	555	550	548	550	555	557	557	556	552	546	549	545	544	547	549	551	551	550	549	547	543	540	542	0	0	0	0	0	0	0	0	0
772	788	788	800	807	806	797	791	791	772	767	778	790	790	796	785	776	773	777	775	775	764	761	763	770	774	781	781	793	792	787	779	784	787	787	793	739	725	711	710	724	735	736	736	742	744	735	728	720	726	734	742	746	743	737	737	732	723	719	721	723	721	725	727	728	727	725	736	749	750	737	737	724	722	727	725	715	696	695	703	714	723	717	713	712	714	716	719	719	714	713	712	723	726	721	709	693	688	683	686	688	694	699	700	702	692	696	703	706	704	705	708	710	706	706	707	701	695	694	695	695	695	704	703	692	673	677	680	694	701	708	706	707	708	708	697	687	680	677	680	685	685	682	675	676	675	681	685	684	682	678	673	671	676	680	675	672	674	675	673	668	673	673	670	678	678	677	671	690	692	691	688	688	691	690	700	694	690	711	715	712	706	692	689	686	688	692	690	687	688	681	664	652	655	667	672	672	669	666	669	671	671	669	664	661	660	658	661	665	660	658	669	668	665	663	657	652	649	645	651	651	653	651	646	646	647	653	653	650	648	646	645	651	656	657	652	639	632	634	639	645	655	664	669	664	655	654	655	648	645	648	646	647	647	649	644	631	621	622	628	637	642	643	634	636	646	650	652	653	655	648	647	646	646	647	649	653	647	645	643	636	628	637	645	651	651	651	644	640	645	651	654	653	650	648	647	643	643	640	639	634	633	629	629	625	616	628	631	633	641	639	637	636	635	630	625	624	629	636	644	639	632	631	638	640	637	620	618	616	616	617	612	614	624	636	635	626	621	607	603	605	607	608	607	603	606	613	613	615	612	610	611	615	620	622	617	615	617	617	626	625	622	620	623	610	607	606	609	616	615	614	615	617	620	622	623	621	622	622	620	615	616	615	624	632	634	627	622	619	625	632	637	635	625	619	612	610	610	613	602	600	605	607	607	605	604	603	606	610	612	610	611	614	611	607	605	606	610	611	604	599	591	588	584	584	581	589	593	589	592	592	590	581	582	586	592	593	589	586	586	585	585	587	583	576	576	579	588	592	588	585	582	579	581	585	587	586	581	579	584	597	598	598	597	597	597	593	588	587	586	583	582	583	582	578	579	577	575	573	572	570	577	585	589	585	581	572	573	567	572	586	584	581	576	573	572	573	574	573	569	568	570	572	574	572	570	566	567	569	574	565	570	569	567	566	561	558	556	555	554	552	552	564	574	579	580	569	562	563	566	567	565	562	556	551	553	556	559	557	554	550	548	556	560	558	550	552	556	556	552	547	547	548	552	551	546	541	539	540	542	544	545	542	540	543	545	548	553	558	560	558	553	548	546	543	540	538	542	547	552	548	544	543	539	539	543	545	542	541	550	554	556	560	563	564	561	556	550	545	542	541	539	539	541	542	546	546	545	540	536	536	541	545	548	548	546	543	538	534	531	532	536	540	541	542	544	541	538	533	528	530	0	0	0	0	0	0	0	0	0
752	761	761	764	773	754	751	740	740	732	733	739	752	752	757	750	748	751	751	743	743	742	739	739	742	741	741	741	746	745	747	745	745	745	715	716	712	702	697	701	708	712	715	721	721	722	717	712	704	709	714	715	714	722	721	721	720	708	704	700	706	706	707	709	714	717	721	710	710	700	695	695	689	692	695	697	692	682	677	687	701	704	701	696	696	697	702	707	710	709	704	699	705	705	698	695	684	678	675	677	679	683	687	690	685	683	682	682	682	679	679	681	684	683	686	687	680	678	679	681	681	679	674	668	659	651	654	670	683	685	694	693	694	684	683	680	671	669	669	675	680	678	674	666	666	664	664	668	670	671	670	663	661	659	655	656	660	664	667	666	663	664	653	647	650	652	651	654	645	647	651	654	670	673	669	667	665	664	676	681	682	677	672	671	671	674	679	676	667	661	657	649	643	647	655	660	662	661	656	658	656	651	652	653	657	657	655	656	660	631	622	622	641	654	652	652	649	643	638	638	647	643	635	630	627	625	627	632	635	636	637	642	646	643	635	622	614	617	626	628	627	632	639	642	637	634	636	645	645	643	642	643	641	634	627	621	617	614	615	619	627	629	628	625	630	624	624	629	631	636	639	642	641	641	640	640	634	630	629	623	618	615	633	635	640	640	639	629	626	630	641	644	644	642	638	630	628	630	629	622	618	619	620	616	610	606	610	616	617	619	633	628	620	617	612	609	607	596	597	599	599	596	599	603	607	611	611	606	603	601	602	605	596	592	609	614	612	596	597	596	598	602	603	600	597	599	603	610	612	611	610	609	607	604	602	602	599	608	609	612	611	607	600	595	595	597	601	606	610	610	613	609	609	612	613	613	610	599	603	610	613	617	616	614	615	607	606	606	605	613	621	614	612	609	608	602	594	592	595	593	595	596	599	601	598	597	596	597	596	594	598	598	599	601	589	587	595	592	596	587	581	580	582	582	579	579	579	579	581	581	580	575	576	581	585	584	583	580	576	566	567	568	574	572	564	565	570	574	574	574	573	569	566	560	562	567	571	567	563	572	576	580	584	582	582	580	577	579	580	579	575	573	568	563	562	560	561	564	567	564	560	562	564	563	561	567	575	571	565	559	565	569	566	568	567	565	559	556	555	556	564	568	572	571	569	565	556	556	556	552	549	551	560	562	556	556	555	552	549	544	544	552	558	564	569	571	564	556	556	556	555	552	539	533	534	543	546	548	544	541	543	545	550	552	547	542	547	551	552	549	542	539	542	545	543	535	536	539	540	540	540	540	538	539	539	542	547	551	554	552	547	544	541	540	535	529	529	531	537	540	538	535	531	529	529	534	539	536	533	534	541	547	549	551	545	538	537	541	536	533	529	526	526	531	532	533	534	531	528	526	526	530	536	537	537	537	536	532	531	528	527	528	530	532	536	535	533	526	520	514	512	0	0	0	0	0	0	0	0	0
730	728	728	725	722	710	715	712	712	711	712	715	722	716	716	710	711	716	723	720	720	728	729	731	730	725	723	723	722	723	729	723	694	696	689	689	678	675	675	682	692	696	699	688	688	688	690	692	690	692	696	693	695	696	699	699	702	696	691	682	676	679	683	689	697	699	685	685	685	683	680	681	681	684	687	685	679	670	664	672	684	686	686	677	675	673	686	696	698	690	684	686	680	678	675	670	674	671	670	667	665	662	669	677	675	671	669	663	664	667	665	665	667	670	677	674	666	663	664	667	667	664	659	654	648	639	644	657	666	664	661	658	655	655	661	660	661	663	665	663	664	659	657	653	647	642	646	648	653	656	648	639	634	633	639	642	647	653	657	659	655	650	641	638	639	639	637	637	638	642	646	650	645	643	638	640	648	650	666	669	671	667	660	651	657	664	667	662	654	648	642	638	636	642	648	650	655	654	652	648	645	641	643	644	643	638	635	642	646	630	625	618	622	624	625	630	635	636	631	624	623	624	625	623	619	618	612	618	621	629	628	631	634	631	622	619	610	610	616	617	620	629	632	630	621	617	624	632	634	637	636	632	624	611	603	609	610	610	612	607	604	606	609	606	602	600	618	623	626	629	633	631	630	624	627	626	622	620	616	605	602	604	618	626	631	627	621	618	614	616	623	620	629	625	613	614	619	618	616	611	605	600	602	603	604	597	596	605	609	606	604	602	594	585	584	580	579	582	583	586	585	590	593	597	600	602	602	597	595	587	588	587	586	582	579	581	585	584	584	586	593	592	588	587	588	589	594	596	596	605	605	599	594	591	589	588	589	583	580	582	592	593	587	584	584	591	592	596	599	600	608	606	604	603	604	603	595	595	599	605	612	613	611	604	596	594	593	595	601	602	595	588	590	593	595	591	584	580	590	593	591	589	586	592	586	582	586	589	587	582	580	580	581	580	579	573	574	582	579	573	573	574	574	573	575	571	570	569	569	568	564	561	574	580	582	581	573	561	557	555	558	559	558	554	547	547	548	558	550	551	558	558	559	550	550	551	556	558	556	557	566	569	566	563	561	562	562	568	572	569	564	561	557	546	543	543	544	547	553	556	556	558	557	558	555	556	558	563	561	554	552	549	544	545	546	546	546	549	549	552	557	562	544	546	539	535	537	538	538	536	533	533	537	544	551	552	550	546	542	534	529	534	536	537	540	544	550	550	530	529	528	530	529	531	534	538	541	542	542	540	540	542	544	543	534	535	543	547	545	542	538	538	538	538	537	535	536	537	539	539	538	532	532	534	537	540	545	536	536	532	529	527	526	524	520	519	519	522	526	529	530	527	523	519	520	524	528	531	532	533	534	532	535	529	530	530	528	528	528	522	518	510	508	513	516	519	523	525	522	518	515	516	520	525	525	526	524	526	519	518	521	521	523	527	526	525	523	519	514	510	508	508	0	0	0	0	0	0	0	0
697	698	698	686	684	693	695	696	696	697	691	693	687	684	684	678	672	674	682	689	689	696	697	698	697	700	700	700	695	698	701	677	673	671	665	665	661	658	661	667	669	666	669	670	670	676	673	663	657	658	667	676	678	675	676	676	680	682	673	665	654	650	658	663	664	668	667	663	664	664	666	672	672	676	678	676	670	662	656	655	660	674	669	652	650	654	655	653	656	661	658	658	657	655	654	656	657	656	654	647	643	641	650	656	660	658	654	650	653	658	655	655	656	656	661	664	656	653	653	655	656	653	646	642	635	635	637	642	646	646	643	639	639	639	643	648	653	658	657	649	642	641	640	640	637	633	630	635	637	630	622	611	611	622	629	637	640	634	637	644	646	640	633	630	632	630	627	627	630	633	641	642	639	633	631	632	629	626	628	651	655	650	645	639	638	650	650	647	644	636	632	633	634	623	623	621	627	627	628	632	634	631	633	640	637	630	622	622	629	632	626	616	607	608	606	607	616	619	621	615	615	612	615	614	614	608	607	609	611	618	617	616	617	609	609	609	608	607	609	611	615	620	622	611	601	600	607	614	613	607	611	609	605	598	592	590	599	602	593	581	582	588	596	594	596	591	590	586	622	622	620	617	615	612	600	602	604	604	589	593	596	597	598	612	609	606	602	598	598	603	604	609	604	595	595	601	608	607	604	600	596	596	598	599	599	577	578	580	582	581	583	581	580	581	581	580	578	577	579	578	578	581	586	588	585	579	579	576	576	577	572	573	571	567	565	567	576	583	595	596	592	588	584	577	572	573	577	584	586	588	586	584	587	585	582	580	580	579	575	576	583	582	575	569	563	568	579	586	587	588	585	584	586	586	588	589	586	586	585	586	570	567	573	572	575	581	585	591	595	590	581	575	574	573	573	571	571	573	578	575	570	571	575	574	572	572	576	579	580	575	568	567	568	566	568	571	569	562	559	557	556	561	560	563	564	562	561	560	560	557	555	561	566	570	569	567	562	557	553	553	554	555	553	549	547	544	538	534	534	539	539	545	549	545	544	546	548	550	548	549	555	558	555	552	552	547	544	548	549	549	549	547	544	533	529	534	534	537	536	539	549	552	552	554	551	549	551	553	553	546	544	537	538	536	538	539	540	543	544	526	527	531	532	527	525	526	531	533	533	531	528	526	527	532	538	541	541	538	527	525	523	528	527	528	537	540	538	535	521	518	518	520	525	529	529	531	534	533	535	535	538	537	537	534	528	526	528	527	522	522	525	525	524	524	524	529	530	528	536	533	527	524	529	530	531	536	532	525	519	517	516	517	518	516	513	511	511	513	518	521	521	515	511	508	509	515	522	525	525	522	509	508	514	518	523	522	519	516	515	514	504	504	503	505	507	508	513	515	511	507	507	508	510	512	512	511	510	509	504	508	509	511	516	515	518	517	517	514	509	503	502	502	0	0	0	0	0	0	0	0
673	665	665	664	666	672	680	685	685	682	679	670	672	666	666	660	658	662	667	677	677	680	678	674	667	663	663	663	663	653	654	655	641	640	637	637	647	646	640	643	646	649	655	660	660	664	663	654	647	648	655	658	662	662	661	661	658	654	649	645	642	639	642	647	653	662	662	657	649	647	656	664	664	663	654	653	647	643	641	648	652	650	646	640	640	641	640	641	631	629	637	643	646	647	650	652	650	643	635	631	631	636	637	642	648	645	641	642	643	641	646	643	637	642	645	646	641	635	622	618	625	626	626	624	622	625	630	630	632	631	629	625	625	629	631	637	641	643	640	627	621	623	623	622	620	620	629	629	621	611	606	605	605	615	629	631	630	625	614	613	620	620	623	622	623	615	615	618	620	623	624	621	615	612	610	616	616	618	617	615	615	617	618	626	628	635	637	637	633	627	625	620	624	620	613	614	616	612	613	611	617	623	627	629	623	614	607	606	615	625	620	607	596	597	597	601	605	607	611	608	606	607	602	606	603	600	599	601	597	596	599	597	595	594	594	594	604	605	605	604	606	609	600	590	589	588	589	586	587	591	593	592	591	584	581	582	579	580	581	578	577	581	590	593	587	587	587	582	579	587	590	590	582	585	587	592	592	576	571	575	585	589	590	592	593	590	582	577	576	580	580	582	581	582	581	584	586	596	593	591	586	585	591	579	574	573	573	570	566	564	567	568	570	574	572	570	573	571	574	575	572	572	574	574	570	566	566	569	569	569	567	565	562	560	559	562	570	583	588	580	578	582	581	576	572	568	572	578	580	576	574	572	580	580	579	576	574	575	574	576	574	566	561	556	553	556	565	574	584	579	572	563	562	562	566	568	565	563	563	561	560	559	558	561	563	564	571	580	584	573	560	553	554	559	566	568	568	568	567	561	560	558	562	563	561	561	562	565	567	567	565	548	548	550	552	549	551	548	547	546	545	542	543	545	544	542	548	553	552	550	552	560	563	561	548	550	557	557	554	555	556	553	549	544	540	537	533	531	528	530	535	534	541	535	535	540	541	542	543	541	544	551	550	546	541	540	540	539	538	538	539	538	535	526	524	526	526	527	531	535	541	545	547	547	543	542	542	543	538	535	530	529	531	533	533	529	531	535	533	524	523	525	524	520	516	518	522	526	528	526	523	521	520	528	527	521	516	518	519	520	520	520	520	523	534	531	528	522	509	508	511	515	521	524	524	524	520	521	524	526	530	527	527	525	517	515	516	517	518	521	523	521	516	516	517	518	516	517	516	516	519	523	525	526	527	526	518	515	511	508	499	495	504	504	505	507	509	510	513	513	511	509	504	503	507	514	517	516	514	507	496	500	506	509	514	512	510	505	503	501	504	503	500	500	501	502	504	502	501	498	497	499	499	500	500	498	496	494	496	499	503	504	507	510	508	503	504	502	501	496	495	495	0	0	0	0	0	0	0	0
651	652	652	652	654	658	666	662	662	661	662	658	663	657	657	653	651	653	658	661	661	662	659	653	652	652	656	656	642	637	633	631	631	627	630	630	630	632	633	638	643	647	650	657	657	658	655	646	638	640	643	650	650	650	647	647	643	641	638	638	640	644	644	649	650	650	651	645	638	634	633	628	628	629	636	637	633	633	627	630	629	627	623	626	627	624	614	605	608	610	624	633	638	644	649	650	642	633	622	617	620	625	627	630	629	631	632	634	631	629	619	621	625	633	635	628	621	614	610	606	610	614	614	612	612	615	620	618	618	619	620	620	619	618	619	611	604	601	608	607	606	608	607	607	604	601	603	613	609	602	593	589	592	600	612	615	615	602	598	601	607	608	612	607	602	591	592	595	596	602	605	603	599	591	590	589	595	603	611	605	601	600	605	604	604	596	629	628	625	612	608	611	610	603	604	607	608	603	600	600	604	607	603	602	600	595	592	592	596	597	592	589	584	585	587	588	592	598	597	600	601	599	590	586	584	589	591	591	586	587	579	577	580	579	582	577	579	582	588	589	593	590	579	581	583	584	577	575	575	575	578	578	576	574	568	569	573	575	576	573	573	573	571	566	554	558	581	578	573	571	569	581	586	588	587	577	569	561	563	566	567	571	581	583	581	575	570	566	565	564	567	572	576	574	569	563	562	560	558	555	553	553	566	567	566	572	572	569	565	563	563	561	565	563	566	564	563	563	564	564	561	557	558	558	555	559	564	564	561	561	562	563	559	555	555	557	564	573	575	572	573	575	575	570	567	567	560	560	571	559	555	555	569	572	571	569	568	570	570	572	565	559	551	547	545	549	554	564	569	570	566	564	559	557	557	555	554	558	559	555	553	551	553	554	558	560	563	569	570	554	541	540	545	547	553	560	564	561	554	552	545	549	552	554	551	558	559	560	560	535	530	526	537	540	544	547	546	542	541	539	538	536	535	533	534	534	532	530	529	531	536	545	545	543	541	545	545	549	551	551	550	548	542	536	535	535	531	530	527	528	529	531	532	530	530	535	537	539	535	533	521	519	522	526	528	528	529	528	527	527	527	528	528	526	524	521	520	522	527	532	537	539	540	540	536	528	531	528	526	527	524	520	508	510	516	522	525	525	513	510	516	518	517	513	511	511	514	519	521	521	519	512	509	508	509	509	509	514	516	513	512	511	512	512	513	517	517	510	498	500	504	511	516	518	519	516	507	502	507	512	514	510	506	510	509	506	506	508	511	517	517	514	510	509	508	506	506	507	509	512	515	518	514	513	509	506	511	510	508	499	496	492	488	492	497	502	504	506	508	508	503	499	499	500	508	507	507	504	500	493	488	489	496	504	504	502	491	489	492	501	503	501	496	494	495	497	497	492	491	491	491	491	492	493	493	492	489	488	489	492	493	497	500	500	497	496	495	494	489	484	482	482	0	0	0	0	0	0	0	0
648	642	642	642	638	637	624	631	631	640	649	653	653	652	652	649	649	648	649	651	651	639	632	634	636	642	647	628	629	626	622	619	617	619	621	621	626	629	633	634	635	634	633	627	627	622	623	621	623	623	626	628	631	632	633	633	630	627	626	630	636	642	644	644	645	643	631	621	615	615	613	616	616	617	621	621	623	622	622	621	619	618	616	613	615	610	601	591	593	600	610	620	624	629	635	636	621	613	607	605	606	604	600	602	606	616	620	615	615	616	608	605	613	620	620	613	606	601	600	600	603	607	611	606	604	605	606	604	608	611	615	611	603	601	601	598	597	594	592	591	589	587	592	597	598	595	595	594	589	588	585	583	586	591	599	596	595	589	588	592	592	591	588	584	582	582	579	582	585	595	602	601	597	592	584	587	590	589	584	586	584	577	578	581	582	580	559	549	547	569	578	586	587	584	579	580	592	589	580	583	587	588	586	584	583	586	582	583	584	582	577	575	576	577	578	577	581	585	591	594	594	591	586	576	578	577	581	582	581	581	578	575	570	569	568	571	568	566	566	572	568	564	565	571	575	574	568	569	568	563	564	565	559	560	561	563	565	569	566	566	563	559	551	549	545	545	551	562	564	565	564	562	564	584	579	569	551	551	551	556	559	561	565	567	569	569	565	560	555	558	560	562	565	567	563	560	558	557	553	549	547	545	547	551	552	556	558	558	557	556	558	560	563	562	561	555	550	548	550	552	551	553	556	559	561	559	552	552	551	551	555	554	554	552	549	549	555	563	561	560	560	559	562	559	555	552	549	545	533	544	543	544	545	550	550	554	555	560	562	560	552	548	544	541	542	543	545	550	554	561	561	561	557	555	548	546	546	546	545	546	547	547	545	542	546	556	557	556	543	538	541	542	539	539	539	540	538	545	544	543	538	538	539	537	539	541	546	546	526	520	516	513	519	530	536	540	538	535	535	533	531	532	533	530	530	530	527	524	525	526	528	535	534	537	535	537	533	531	531	534	536	539	534	531	530	530	529	525	522	524	524	526	526	525	527	531	537	538	530	518	511	510	511	512	514	516	518	516	515	518	516	515	521	523	522	519	517	516	521	529	531	533	534	531	527	517	515	519	519	515	496	486	483	487	496	503	502	501	500	503	507	511	510	504	501	502	506	504	505	506	504	494	490	496	498	499	502	509	507	507	503	500	502	505	505	505	504	499	492	494	501	508	512	514	511	508	499	496	497	501	497	499	497	496	497	496	495	490	490	491	490	494	493	497	499	499	496	496	499	506	510	509	505	504	502	499	505	504	498	496	493	489	485	485	490	495	500	501	498	495	493	492	491	492	493	494	494	494	491	488	487	483	485	494	496	492	489	485	489	494	499	498	492	488	488	491	491	489	485	481	488	490	492	492	492	489	485	484	480	485	487	491	494	491	489	489	489	487	484	481	476	476	0	0	0	0	0	0	0	0
628	628	628	628	624	607	607	615	615	620	628	637	639	640	640	641	646	646	643	634	634	621	617	619	623	627	615	615	618	614	611	604	600	606	613	613	621	625	628	624	622	620	613	608	608	608	608	610	610	611	606	603	604	607	615	616	616	613	612	613	615	619	628	631	626	618	613	610	603	601	603	609	609	610	609	611	612	613	614	614	612	611	609	602	598	597	592	585	583	588	598	608	610	612	615	613	612	595	591	594	596	594	594	594	596	601	599	605	610	610	599	599	602	606	606	602	595	591	591	595	598	601	599	599	595	590	591	587	589	596	596	585	587	590	590	591	589	587	588	582	582	582	586	590	593	591	590	579	575	574	576	581	583	583	579	573	577	574	579	575	573	580	579	583	575	569	566	569	577	585	592	591	580	573	566	571	569	566	569	572	565	562	568	570	573	564	546	545	548	556	564	568	583	579	576	574	574	572	566	572	566	570	573	573	578	582	586	584	577	571	569	566	568	570	570	569	570	574	580	584	586	583	574	573	571	569	569	572	572	573	570	569	556	559	559	555	554	557	560	557	554	556	559	560	559	558	559	556	550	551	546	548	552	553	555	557	558	556	555	557	555	545	537	538	538	538	537	541	548	549	554	558	553	542	535	551	541	539	545	550	551	546	546	555	563	562	559	554	551	551	553	556	555	555	557	555	553	554	553	549	544	541	539	538	541	543	544	545	547	546	547	546	549	550	552	546	540	537	539	543	547	552	554	556	557	538	545	545	543	539	540	541	544	548	548	546	546	546	547	546	543	541	539	536	539	539	537	523	526	526	534	536	537	538	538	536	538	547	550	550	545	541	540	536	535	536	537	540	544	549	541	541	539	537	536	534	532	532	529	531	532	536	537	533	533	533	533	531	530	531	535	537	535	532	530	531	533	531	529	524	521	526	527	530	529	530	520	520	517	514	510	511	512	521	522	523	530	531	528	524	524	526	526	525	526	526	524	521	520	522	527	527	527	528	524	520	519	517	517	511	510	523	525	521	519	519	521	522	518	519	518	518	510	512	516	517	517	514	517	514	511	510	510	507	506	507	508	508	507	508	509	510	516	518	518	516	513	509	513	515	516	511	510	509	505	504	504	491	490	493	485	478	480	486	491	496	498	494	493	500	500	498	494	489	485	486	489	493	491	486	482	480	484	486	488	488	488	489	486	486	483	487	492	495	500	500	499	495	489	492	498	506	508	508	506	502	493	491	490	488	490	491	488	490	492	493	491	485	483	483	484	482	484	488	487	483	481	480	482	487	489	493	492	490	489	490	496	496	495	494	492	488	484	480	475	473	472	474	473	477	483	484	484	483	485	485	485	487	486	485	482	479	482	486	489	490	486	481	481	487	493	492	489	485	485	486	487	484	481	481	487	486	484	484	482	483	477	478	476	475	481	484	479	479	480	481	482	481	479	476	473	473	0	0	0	0	0	0	0	0
614	611	607	607	598	597	603	607	607	607	616	624	623	626	626	628	624	628	628	614	614	603	605	607	609	603	605	605	605	604	600	600	601	599	602	602	609	610	612	610	602	600	603	600	600	593	590	594	593	591	592	592	589	588	598	599	599	600	598	592	600	604	613	611	611	603	605	601	597	596	598	603	603	604	602	601	604	605	601	603	603	591	588	586	585	585	583	582	580	578	575	579	588	594	590	592	590	585	583	584	584	581	579	582	589	589	592	596	598	592	587	588	591	588	590	588	579	577	582	590	593	590	589	590	590	588	586	585	580	580	574	574	573	578	572	575	579	577	577	577	581	580	583	585	588	586	581	569	560	558	562	570	575	574	570	560	558	562	563	556	558	566	573	574	571	564	561	564	569	567	571	571	568	564	562	558	556	550	548	564	559	555	555	558	563	559	548	543	548	556	560	565	563	558	571	575	571	563	560	555	556	559	564	566	568	565	566	564	559	554	551	555	562	559	555	552	551	559	566	568	567	569	566	567	560	553	555	561	560	558	548	550	551	551	543	539	540	547	550	549	546	546	550	549	549	549	550	546	542	540	538	541	544	547	550	548	545	544	541	544	542	538	534	533	531	531	532	534	536	538	536	539	540	535	530	522	517	534	539	541	540	531	530	536	548	552	554	549	543	537	540	543	546	546	545	548	550	550	546	543	537	536	534	533	534	536	535	534	535	536	539	539	540	538	534	543	540	536	536	540	545	548	550	549	538	529	532	536	536	533	532	534	535	539	542	542	536	535	534	531	528	528	526	527	530	532	518	517	521	524	524	526	525	527	526	525	526	532	535	540	540	538	537	535	532	529	526	524	528	531	530	524	523	522	523	524	524	525	527	529	530	529	531	528	521	518	521	523	525	527	529	530	529	525	525	526	526	524	515	513	516	517	519	522	513	512	510	511	512	517	514	516	513	514	515	515	515	512	505	504	508	511	513	514	511	515	511	511	508	516	517	514	511	517	517	512	510	505	500	499	496	503	511	509	509	511	515	516	514	512	508	506	506	506	506	507	509	508	506	510	511	511	508	505	501	498	497	496	500	507	507	501	500	502	503	502	502	506	506	502	500	499	496	500	495	499	493	488	482	476	475	476	479	482	482	487	495	496	491	494	493	491	489	487	486	485	482	478	477	476	476	475	475	480	482	484	485	486	483	477	473	471	471	473	475	474	473	470	473	477	484	486	496	498	498	494	483	483	481	481	483	484	480	477	482	482	477	473	475	478	480	476	468	466	468	474	478	479	479	479	480	482	482	483	484	482	482	484	487	490	489	485	479	473	470	469	469	468	468	467	471	472	476	476	477	477	476	478	483	481	478	470	466	469	480	485	481	477	474	475	480	484	483	481	481	478	478	478	480	483	482	480	477	477	476	472	473	474	472	470	469	467	468	471	474	475	476	474	470	469	468	468	0	0	0	0	0	0	0	0
600	599	591	591	594	602	602	602	602	599	599	604	610	607	607	596	597	605	604	597	597	595	598	601	593	595	594	594	587	588	592	593	593	589	589	589	585	580	576	573	578	586	592	594	594	586	579	576	574	576	579	581	580	578	586	589	589	588	587	579	574	577	587	583	584	584	594	594	591	593	596	601	597	597	588	583	584	587	590	592	582	576	570	567	569	573	576	575	570	571	567	570	576	579	580	583	582	578	574	571	572	568	569	572	575	578	579	574	567	563	564	571	575	579	578	577	573	571	578	586	585	579	579	576	571	583	582	581	574	571	564	560	561	563	565	571	573	571	569	571	575	574	571	572	571	568	562	550	546	549	560	566	567	565	559	553	551	550	546	542	544	552	557	559	563	557	556	559	558	561	561	561	559	557	554	551	547	543	541	536	535	538	544	551	554	553	550	545	546	550	555	560	551	546	548	552	546	540	546	543	545	546	549	548	547	541	539	548	543	537	528	531	536	541	535	535	540	543	544	539	535	532	532	532	530	537	541	542	529	527	533	536	536	535	533	527	529	533	543	542	540	540	539	536	534	537	533	535	534	528	529	531	535	540	542	539	533	530	526	532	538	536	531	528	526	526	527	532	534	527	524	528	533	534	530	523	515	513	514	529	524	522	519	527	535	542	541	535	527	526	532	535	538	533	530	530	530	530	533	532	529	528	528	528	530	532	531	528	527	529	532	532	529	523	524	529	533	531	528	531	536	540	541	524	519	519	519	526	529	528	525	526	528	525	524	526	526	521	519	519	519	519	518	521	523	517	515	512	516	519	519	517	518	517	518	520	522	522	520	521	528	534	537	536	527	516	512	515	520	526	524	520	516	511	505	505	509	518	523	524	518	519	527	523	514	512	514	516	515	515	511	515	516	519	519	517	516	510	508	507	508	511	509	508	506	501	503	504	506	511	508	506	508	508	509	510	509	505	500	497	498	499	500	500	502	500	500	500	499	499	500	498	496	496	498	497	497	492	487	486	485	491	496	496	497	502	501	497	492	498	498	497	498	500	500	504	505	502	499	496	495	498	502	499	495	487	486	491	496	501	487	480	478	479	484	488	490	494	493	491	489	484	482	482	480	478	478	479	476	474	472	474	475	482	483	480	478	482	482	476	475	471	473	477	479	477	473	472	470	469	468	468	466	471	475	476	481	484	482	477	472	468	469	468	471	469	470	467	466	463	463	466	473	474	469	469	469	467	466	469	474	474	474	470	472	470	470	471	473	475	477	474	468	464	467	471	479	480	477	474	471	474	477	478	479	473	474	477	482	486	483	480	475	468	468	469	469	468	470	472	471	472	471	469	469	465	464	466	468	470	468	464	459	460	467	476	477	472	467	466	464	457	456	457	470	470	472	467	472	472	473	469	468	468	467	466	469	471	470	466	461	461	463	466	469	471	471	467	462	462	466	466	0	0	0	0	0	0	0	0
592	581	580	580	588	596	598	596	596	591	586	583	586	577	577	580	586	588	590	589	588	588	590	593	582	587	578	572	572	573	582	582	580	577	574	574	568	570	571	566	558	557	567	585	579	579	571	567	565	567	570	572	574	577	581	581	581	571	571	570	567	568	569	563	561	565	578	586	587	585	591	594	593	593	579	572	572	575	580	581	576	568	562	564	564	569	571	572	569	568	568	566	569	570	571	574	575	568	562	560	558	557	559	565	570	574	574	570	566	563	562	562	567	570	569	563	558	557	566	567	569	562	556	554	556	559	560	556	550	549	549	553	557	559	563	570	570	564	557	549	548	553	555	556	553	553	554	541	539	541	547	551	548	549	546	543	540	536	537	537	536	538	541	542	543	544	546	550	551	552	551	549	550	548	544	541	538	535	535	535	534	535	541	547	547	548	547	543	540	534	535	537	536	538	541	542	532	530	530	530	537	538	533	531	531	535	535	535	536	533	528	525	526	526	525	527	534	536	536	533	530	524	519	517	518	525	525	523	518	522	525	527	528	524	521	521	524	524	532	533	532	533	528	513	502	509	514	514	512	514	517	522	524	521	521	517	514	515	520	524	527	526	524	518	518	518	521	520	519	518	519	522	529	536	537	526	515	510	509	504	518	518	518	519	526	530	530	523	516	521	523	528	529	526	523	523	523	525	525	524	521	523	521	523	521	512	513	518	521	525	527	523	512	513	516	519	520	523	523	522	517	515	513	509	509	508	510	510	516	518	518	519	516	517	520	519	517	513	505	504	506	511	514	515	512	512	512	512	511	512	512	506	507	509	511	512	514	515	517	520	521	522	521	515	500	499	502	508	516	516	508	503	504	500	497	497	497	500	506	510	509	504	507	505	502	500	505	510	511	510	507	506	496	495	492	501	501	501	502	501	498	498	500	500	500	494	494	497	500	503	501	498	496	501	505	505	502	497	494	490	489	488	488	490	493	490	492	494	493	493	493	492	492	491	495	495	494	488	483	477	478	484	486	488	493	498	501	493	489	487	491	483	483	483	483	486	486	486	487	488	492	494	486	484	483	479	474	479	490	488	482	478	478	477	475	475	476	478	479	477	474	475	475	472	461	460	465	467	468	468	469	470	469	474	477	477	473	469	472	471	470	469	465	462	467	469	467	466	465	462	455	452	458	462	465	466	468	466	468	468	466	464	461	463	465	468	469	466	461	459	460	460	462	468	469	467	462	458	458	460	465	468	466	466	464	465	464	467	469	470	474	471	467	466	466	469	478	477	468	460	457	461	470	474	469	460	461	467	472	478	479	477	467	462	462	466	467	468	469	468	466	471	474	473	466	459	458	461	464	468	466	462	458	460	467	470	469	461	454	453	451	451	453	450	447	455	457	453	454	457	455	456	456	456	458	460	463	460	460	460	456	455	460	463	462	461	458	451	450	449	449	450	0	0	0	0	0	0	0	0
573	572	571	571	578	586	590	591	584	584	573	569	570	565	565	568	576	579	583	584	580	580	579	567	570	566	563	561	561	565	572	570	561	556	557	557	558	563	566	562	555	550	547	547	558	558	560	562	563	563	563	568	568	563	562	557	557	559	564	566	565	563	561	554	552	554	563	568	570	571	573	584	583	583	575	563	560	566	574	574	568	562	563	562	564	568	569	569	564	563	563	564	565	567	566	559	555	553	555	552	548	548	551	554	556	559	562	564	566	563	559	555	555	556	552	545	543	544	548	551	551	547	545	542	542	546	546	545	545	541	539	542	545	541	542	548	551	551	545	539	534	532	537	542	545	546	544	535	534	533	532	534	536	538	535	533	533	531	530	530	531	529	531	531	531	534	537	540	541	537	532	536	530	530	530	529	528	529	531	533	530	531	536	538	541	540	533	532	531	528	527	521	517	518	524	529	518	514	516	515	515	512	510	522	523	527	529	531	530	529	527	524	522	521	519	518	526	530	528	525	524	521	516	509	508	512	513	515	513	515	518	512	509	511	513	517	523	523	520	516	515	511	504	502	503	504	501	498	500	503	504	506	507	512	513	510	505	507	513	519	523	519	510	507	503	506	509	509	508	502	503	511	517	523	517	508	504	500	500	499	499	496	500	508	508	509	510	512	513	516	517	518	520	520	519	521	518	516	515	513	514	512	512	511	505	499	498	503	513	517	519	506	505	506	507	506	506	507	507	505	506	504	502	497	495	495	501	505	504	505	506	505	507	513	516	515	511	501	495	502	506	512	511	510	505	503	504	509	511	510	501	499	503	507	510	511	506	504	512	513	504	499	496	492	493	494	496	498	502	500	496	495	490	494	495	495	494	496	500	502	500	500	499	498	495	495	495	499	503	504	500	490	487	487	488	488	493	493	484	489	492	494	488	484	480	478	475	476	478	484	487	486	486	489	493	495	492	489	484	484	483	481	480	481	483	486	485	483	483	485	486	486	490	492	492	492	489	485	479	475	474	476	481	479	478	481	484	480	478	479	476	471	480	482	481	479	477	478	480	485	480	473	475	478	478	476	471	467	475	480	480	478	477	477	474	473	470	475	476	475	470	469	468	465	452	453	454	459	459	461	465	466	463	466	470	469	464	458	464	465	467	466	460	460	460	463	463	460	458	456	454	453	452	456	460	459	458	460	460	461	461	458	457	454	454	455	461	464	464	461	456	452	457	462	466	463	457	451	450	453	458	463	464	462	460	459	460	461	462	463	465	465	464	463	453	453	460	460	456	454	450	450	454	457	454	452	456	460	459	456	452	453	458	458	456	458	459	461	460	458	457	456	457	457	456	455	452	450	454	456	458	456	456	457	463	461	456	455	454	446	445	449	450	447	444	442	444	445	447	446	446	447	449	449	450	451	445	445	447	449	449	451	454	456	456	451	448	447	447	446	446	444	0	0	0	0	0	0	0	0
555	554	550	550	558	567	575	568	560	560	561	559	556	552	552	553	561	570	577	574	562	562	551	554	552	548	549	553	553	557	560	554	548	546	545	549	549	555	559	555	550	545	541	541	546	546	552	556	559	559	555	551	548	541	545	548	548	550	554	559	558	558	556	553	551	551	554	551	542	546	551	552	549	549	541	532	531	538	546	552	557	559	559	560	562	564	562	556	550	550	552	553	553	554	551	551	549	549	549	545	542	542	538	540	546	551	554	553	554	551	550	544	532	533	534	534	537	538	541	536	535	537	536	526	521	518	530	534	537	535	533	534	535	536	536	535	539	540	535	534	530	528	528	535	542	541	536	529	526	527	526	526	529	530	527	524	525	523	522	523	521	522	526	525	526	525	527	523	525	522	518	515	518	517	515	518	519	520	522	522	513	512	518	524	519	512	512	513	514	517	518	514	509	508	509	509	497	500	504	507	507	503	498	499	499	518	521	523	526	527	525	523	520	516	514	516	513	516	516	515	515	515	514	508	502	503	501	505	510	510	505	501	503	507	512	518	520	518	497	491	489	488	492	496	498	500	497	498	502	505	505	506	510	510	506	503	501	501	507	515	517	508	504	500	500	502	506	503	495	492	491	495	503	513	510	501	495	492	493	495	493	493	494	495	501	503	500	502	506	505	508	511	512	515	515	515	513	506	499	489	493	500	500	497	495	490	491	498	502	504	504	498	497	498	500	500	501	499	496	492	499	501	501	498	495	491	487	486	487	491	490	493	498	508	511	508	500	496	494	497	498	501	502	501	497	499	496	497	498	496	493	492	496	500	503	501	496	496	498	500	498	492	488	488	490	493	493	494	493	486	486	489	489	488	490	494	494	492	486	482	480	480	480	489	489	488	487	488	488	487	483	481	483	482	486	483	480	475	475	468	473	476	477	471	468	465	466	466	465	466	473	479	480	483	485	485	479	477	477	474	473	473	474	476	477	478	474	471	471	476	477	479	481	487	485	486	483	482	480	477	472	474	474	471	463	468	473	478	475	469	466	464	467	476	480	480	475	469	466	468	468	465	467	470	472	473	472	471	465	466	469	471	476	476	466	462	466	472	473	469	463	461	461	452	451	451	448	453	454	456	460	461	461	464	464	462	458	453	458	464	466	463	461	457	460	462	455	452	451	451	454	452	452	453	455	454	452	450	448	452	452	449	448	440	441	441	449	460	460	455	448	446	445	453	455	453	444	438	437	440	444	450	456	458	454	452	456	456	457	458	459	458	455	444	441	441	444	448	448	447	446	446	448	450	448	451	457	457	453	449	448	448	453	454	447	444	446	449	451	451	449	444	443	442	446	450	451	452	453	456	456	454	449	450	446	450	453	453	453	451	450	446	447	445	443	442	442	443	441	440	438	438	438	439	442	439	439	440	440	439	442	446	451	451	450	446	445	445	444	443	443	440	0	0	0	0	0	0	0	0
534	540	541	541	544	545	546	543	546	546	550	548	546	543	545	545	550	554	551	553	552	552	530	534	537	539	541	544	544	548	548	546	540	536	538	541	541	548	552	548	545	540	537	539	542	542	545	547	549	548	546	543	540	539	538	540	540	546	546	545	549	551	548	545	544	545	542	537	531	534	538	538	535	535	538	536	532	532	533	537	543	542	543	543	541	538	537	533	532	540	541	538	535	533	531	532	535	540	538	533	528	524	525	529	532	539	537	538	539	538	533	529	528	525	527	528	529	532	530	529	529	532	531	524	516	509	510	516	519	521	521	524	529	532	531	528	525	523	521	524	523	520	522	527	534	532	529	526	517	519	522	521	521	522	520	519	518	517	517	514	511	512	518	522	517	511	508	510	513	517	513	508	509	508	509	510	509	510	514	514	505	505	505	505	504	505	506	506	503	504	509	511	509	505	502	495	494	494	498	500	499	493	489	485	487	489	490	492	516	516	517	513	509	505	501	499	500	498	500	498	499	499	500	501	498	497	497	502	503	504	504	503	503	505	506	508	505	497	489	486	485	487	490	494	497	498	497	498	501	502	500	498	504	510	505	499	492	489	488	496	500	495	496	497	499	500	498	493	489	484	484	485	490	496	503	496	489	484	483	488	492	491	493	492	492	489	493	494	497	497	499	505	503	501	508	508	506	497	488	483	480	481	489	489	485	485	487	495	500	502	499	495	491	491	494	496	495	490	491	489	486	493	496	495	494	491	484	483	485	488	486	485	485	490	488	485	485	487	488	489	490	490	492	489	487	486	488	489	484	479	482	485	489	492	492	492	488	489	495	497	495	490	485	482	485	491	491	485	482	482	480	480	480	481	483	485	487	485	480	477	475	474	475	476	480	481	483	479	478	479	473	467	468	482	467	467	468	467	468	471	463	464	467	466	462	463	464	463	461	461	462	465	475	477	478	473	471	472	469	467	466	469	471	475	473	472	467	463	464	465	470	471	476	478	476	471	464	460	462	462	464	465	465	462	462	465	471	476	475	465	460	462	465	474	478	478	472	464	454	453	454	458	462	464	467	469	470	465	456	457	460	446	445	447	452	456	459	462	465	460	456	454	453	449	449	450	449	447	449	452	454	454	456	454	456	455	452	449	451	456	456	457	452	451	450	452	449	445	444	444	445	448	452	451	448	448	444	439	440	440	441	440	438	435	435	438	440	454	454	450	442	441	439	444	445	443	439	435	432	433	440	447	448	446	443	443	447	452	449	450	446	445	441	439	436	435	437	439	440	441	443	444	446	447	447	453	458	457	452	448	444	443	445	445	441	441	441	444	449	447	444	440	437	434	443	448	451	452	452	454	455	450	448	443	442	446	449	450	450	450	451	451	446	442	443	440	439	441	441	437	434	432	432	431	429	430	431	434	432	435	440	445	447	447	443	441	441	440	440	439	439	435	0	0	0	0	0	0	0	0
523	526	529	529	533	535	533	535	538	538	540	539	534	528	529	529	529	527	525	526	529	526	528	528	528	530	533	536	536	537	539	538	532	530	530	535	535	541	535	527	525	529	531	533	534	534	536	536	536	540	542	542	542	534	523	519	525	525	533	539	541	544	542	530	527	527	526	526	526	521	520	524	531	531	538	537	530	523	521	525	536	538	536	536	534	532	528	521	516	520	529	530	528	525	524	522	521	520	527	524	519	514	511	514	520	520	527	531	532	530	527	525	524	521	520	520	522	522	521	522	524	526	524	520	513	505	507	511	514	513	513	515	521	523	522	522	514	510	506	506	509	511	515	518	522	520	515	511	502	502	509	513	516	516	514	513	513	513	511	505	501	499	498	498	502	499	497	498	504	506	504	500	503	504	505	503	504	505	505	505	502	502	501	502	502	501	501	499	497	497	499	493	501	497	496	493	489	489	491	492	490	484	481	481	487	487	490	489	490	490	496	496	488	487	485	487	488	491	493	493	494	491	491	490	494	494	495	496	496	496	497	498	499	500	498	495	493	489	485	483	484	485	487	492	495	493	493	493	495	496	495	495	498	501	497	491	487	485	484	482	481	484	490	490	494	495	495	489	484	481	479	479	481	485	485	483	474	468	470	474	478	485	489	488	486	482	481	482	486	485	486	488	485	480	477	490	494	491	485	477	476	478	481	486	484	480	482	489	497	500	498	489	484	482	479	482	484	487	484	484	481	483	490	490	491	489	482	479	484	477	469	462	467	474	475	474	477	478	482	482	480	480	479	478	476	474	472	472	471	472	477	480	478	481	480	483	482	485	492	493	490	485	481	479	481	485	481	478	479	475	472	471	473	473	475	473	475	475	473	471	471	471	473	471	472	470	469	467	465	464	454	465	452	449	450	454	457	457	460	460	460	460	457	452	451	456	461	461	459	457	459	461	465	469	469	467	467	466	464	461	457	462	469	470	471	470	465	461	458	460	461	458	461	470	469	460	455	456	456	458	460	462	455	450	452	462	467	471	471	463	455	455	458	464	468	466	462	452	448	445	445	451	458	462	462	465	465	454	449	442	443	443	443	444	448	451	452	449	442	442	446	447	446	446	446	448	446	440	442	445	447	447	447	447	447	448	444	440	440	442	440	442	441	443	446	447	444	440	435	434	436	439	450	447	443	439	438	434	434	436	433	432	431	431	430	432	437	441	440	441	438	438	439	441	443	443	438	432	431	432	434	442	444	442	440	439	438	443	444	446	440	435	429	426	428	432	432	432	430	434	441	442	442	439	441	440	437	441	443	443	440	438	438	441	439	435	437	439	441	441	440	433	427	427	433	438	446	447	446	446	447	446	444	440	438	439	441	444	445	445	446	443	437	433	432	432	432	436	436	434	434	431	431	425	425	425	425	425	428	431	435	442	445	441	438	436	435	434	431	429	429	427	0	0	0	0	0	0	0	0
516	516	519	522	522	524	525	527	527	527	530	526	521	521	521	521	523	523	523	524	526	521	520	517	519	521	525	527	527	530	530	529	524	523	527	533	533	527	523	518	517	521	525	526	527	527	530	531	531	532	532	529	525	515	507	508	520	520	528	534	535	532	527	524	517	520	523	526	524	518	511	512	516	518	518	526	524	515	512	514	523	531	533	530	527	525	515	513	510	509	512	516	515	513	513	512	512	514	516	517	515	511	511	508	508	509	513	516	515	516	514	507	504	505	515	511	510	514	517	519	521	519	517	515	509	501	502	506	508	505	505	505	505	508	505	508	502	498	496	495	496	496	503	509	513	511	507	500	496	494	493	493	495	505	507	507	507	509	509	505	502	497	493	490	490	495	491	491	489	488	493	494	496	498	498	499	499	498	497	497	499	499	499	498	496	494	494	490	485	489	489	485	481	486	488	488	485	484	485	485	482	479	478	482	491	492	492	489	483	478	476	472	476	481	482	486	490	493	492	491	490	486	483	481	478	479	481	485	489	492	492	492	492	489	486	486	487	486	482	482	485	485	485	484	483	484	481	482	483	479	475	476	486	489	490	487	483	478	477	475	473	473	477	481	485	489	489	485	479	477	476	475	475	473	474	473	475	471	464	463	464	465	469	474	477	476	475	476	468	468	477	476	476	475	472	473	481	487	481	477	475	476	478	480	481	477	480	485	490	492	486	482	474	470	467	469	472	476	475	476	473	476	479	482	482	479	477	474	470	465	459	460	467	471	471	470	469	468	471	472	474	478	477	475	471	469	466	466	466	465	463	461	463	472	471	473	476	482	483	476	473	473	474	469	474	467	469	470	466	466	464	466	468	469	470	470	467	467	465	466	467	467	466	469	468	460	460	460	459	457	449	449	449	450	451	454	454	456	461	461	460	456	454	450	448	444	449	454	452	448	443	450	457	462	457	456	456	456	453	450	448	450	458	466	465	461	458	455	455	457	447	445	445	455	454	454	452	453	454	457	458	455	453	450	448	455	463	467	467	459	452	451	450	443	446	447	448	444	441	439	438	442	446	448	445	454	456	444	440	438	439	440	439	441	445	447	447	444	439	438	438	441	441	444	444	442	439	436	428	439	441	443	441	440	443	442	439	437	436	437	435	436	439	439	443	444	439	435	425	420	424	434	437	434	438	433	431	430	433	434	433	430	427	426	427	430	432	426	422	422	427	433	435	446	448	445	442	439	433	430	430	429	434	436	436	436	430	428	436	434	433	428	421	420	421	421	422	426	427	431	431	431	424	421	421	426	427	427	427	426	427	429	430	433	427	426	425	425	426	429	428	426	421	419	418	421	420	420	421	431	434	439	440	432	432	433	431	430	433	436	439	437	434	431	431	428	428	426	426	429	427	425	425	423	421	423	421	423	425	426	429	436	438	436	434	432	430	428	425	422	422	419	0	0	0	0	0	0	0	0
504	502	501	506	506	512	515	518	519	519	521	520	520	519	521	521	521	522	521	520	511	511	508	506	508	513	519	523	523	522	520	517	520	520	521	522	522	519	513	507	507	510	511	510	512	512	519	518	519	522	523	521	515	512	506	508	514	514	523	529	522	518	514	512	509	511	509	518	515	511	507	506	502	500	500	501	514	515	515	513	509	503	501	517	517	511	508	507	504	500	499	500	499	499	501	501	502	505	508	506	501	500	502	501	501	501	501	499	495	492	490	493	494	496	500	498	498	501	506	511	511	506	500	496	496	496	493	496	499	499	498	498	499	498	495	494	494	493	491	489	486	485	494	500	501	498	499	498	489	486	487	488	491	492	492	484	486	490	497	495	494	490	486	484	483	487	487	483	479	478	481	482	481	481	482	487	492	491	490	490	493	497	487	474	479	483	483	480	475	476	476	476	472	471	479	480	477	474	474	478	478	476	478	487	494	496	493	486	472	466	462	462	462	461	463	482	488	488	485	484	486	483	480	478	479	479	480	482	487	492	491	487	483	481	481	482	483	476	473	472	471	471	476	472	472	473	479	481	481	473	468	468	470	475	481	479	477	477	474	472	471	468	469	470	471	474	479	476	471	464	462	461	461	461	460	468	472	470	463	459	458	459	460	463	467	464	461	457	457	462	462	461	462	467	466	469	474	476	474	470	469	473	476	474	469	466	469	472	475	479	479	472	469	462	462	462	465	469	468	467	462	461	463	465	465	465	465	464	464	463	462	464	470	466	463	460	456	455	454	454	457	458	459	468	468	467	464	463	463	465	463	461	458	456	454	455	459	466	465	466	465	464	458	455	451	459	465	465	460	457	457	458	460	462	464	465	463	461	459	460	459	455	456	454	455	452	453	453	448	448	450	450	448	449	454	454	453	452	454	462	459	455	453	450	448	445	437	439	435	432	433	435	446	453	449	447	446	449	448	447	441	440	440	444	449	452	456	459	456	450	438	437	437	437	447	449	446	442	442	445	450	450	447	446	443	442	448	453	458	443	441	447	445	442	445	445	447	443	441	438	437	436	436	437	426	424	429	436	436	433	435	436	436	436	437	437	437	437	436	434	434	435	437	441	439	437	435	433	428	423	417	418	420	421	431	438	435	431	430	430	429	430	440	439	439	439	430	425	417	415	414	415	415	425	422	418	418	424	423	425	427	428	427	426	427	426	426	421	416	421	424	429	432	436	443	445	444	442	436	431	429	426	425	428	427	429	427	421	419	420	421	415	409	406	410	422	424	421	422	420	427	424	418	416	419	424	424	421	418	419	420	422	423	421	420	418	419	419	421	421	422	422	417	412	412	414	414	415	416	419	422	417	417	418	420	422	421	426	425	427	430	433	433	430	428	426	425	425	425	424	424	424	420	419	418	411	412	416	420	421	416	412	409	411	424	423	421	419	415	413	413	412	0	0	0	0	0	0	0	0
490	494	497	500	500	504	506	511	514	514	517	519	519	521	523	523	523	523	519	516	499	499	497	498	499	500	503	504	504	508	507	506	508	510	508	506	506	504	498	494	492	495	500	505	508	510	510	511	512	513	512	508	503	501	501	502	506	506	512	514	514	510	508	502	501	497	496	496	498	501	502	501	497	495	495	491	493	499	502	500	497	493	494	496	498	496	498	493	488	490	490	487	486	485	487	486	487	490	490	490	493	490	491	492	492	492	494	493	491	489	489	490	490	488	490	490	494	495	496	495	494	493	489	489	491	491	491	494	496	494	491	493	494	492	488	487	489	491	490	486	482	482	483	483	487	490	481	481	479	478	481	484	487	486	483	478	477	473	472	471	477	477	475	472	464	471	471	472	471	478	482	484	490	491	489	486	485	481	477	474	475	480	471	471	474	477	477	474	472	469	467	467	469	467	468	469	469	467	466	466	474	478	482	489	486	468	464	464	465	466	471	468	460	460	461	464	466	474	475	479	483	480	479	477	476	478	476	479	485	494	493	480	477	478	480	480	478	475	474	470	466	461	457	462	466	471	473	473	467	458	456	455	460	470	469	470	472	470	472	468	465	462	458	449	447	452	453	454	454	456	458	457	454	451	457	461	467	460	460	456	454	453	454	454	456	442	439	440	450	458	454	455	455	452	448	463	459	461	464	466	465	466	469	468	465	463	464	465	467	468	468	466	464	463	456	457	458	464	465	463	462	458	462	461	459	457	456	454	456	460	464	461	459	456	454	455	453	451	451	454	456	455	455	457	461	464	460	455	458	462	459	458	456	453	449	449	449	449	450	452	454	452	446	437	443	453	454	454	452	451	450	451	452	453	456	458	458	455	442	438	443	450	454	453	448	447	442	443	445	450	449	445	446	452	452	450	450	449	449	449	451	450	453	450	449	446	443	432	429	432	432	435	438	437	435	435	440	443	448	448	447	447	443	444	444	444	444	439	435	434	426	427	427	434	437	442	439	436	436	439	443	444	443	442	438	438	438	439	440	437	435	436	443	442	441	439	439	438	441	436	430	429	420	417	416	417	414	430	421	416	411	413	420	431	430	428	430	430	433	431	432	433	431	433	434	432	430	427	425	422	425	425	424	422	419	423	424	424	424	423	421	422	439	438	433	426	421	418	416	413	408	409	410	408	410	416	419	420	417	417	416	417	420	425	428	426	422	421	419	418	424	427	426	429	433	435	434	430	431	427	425	418	418	415	412	416	418	419	419	421	419	414	413	413	418	420	422	415	414	411	409	410	410	409	413	420	421	412	410	411	412	415	419	416	408	408	410	412	414	415	419	419	408	407	405	408	409	409	411	412	410	410	410	408	411	411	410	407	407	408	411	417	420	428	425	423	421	425	425	423	421	421	417	414	409	407	409	409	410	410	403	401	401	404	410	412	412	404	398	398	400	401	0	0	0	0	0	0	0	0
483	486	492	494	494	493	498	503	508	508	516	517	515	514	518	518	521	521	515	502	500	499	499	499	498	497	496	490	487	487	491	496	495	493	494	491	491	491	489	486	485	486	495	499	503	503	503	504	504	503	502	498	494	492	495	499	499	499	498	499	500	501	497	493	492	492	493	496	496	497	497	496	494	490	490	489	488	490	491	493	490	489	492	495	497	491	484	480	480	483	484	487	485	484	482	480	472	474	477	481	484	485	482	487	487	487	486	488	486	482	475	472	466	469	470	471	474	474	473	471	469	468	469	471	471	474	475	479	480	480	472	481	479	480	477	474	474	478	477	479	480	479	475	476	477	479	478	475	474	475	476	479	480	480	474	468	465	465	465	469	471	471	469	467	465	465	467	464	465	466	472	477	480	484	492	493	490	481	472	467	465	468	466	466	467	470	471	471	468	466	461	460	462	461	462	461	464	463	462	464	467	476	480	476	463	458	460	464	464	467	468	466	465	462	461	464	464	464	463	468	470	476	477	476	476	475	474	468	468	471	472	467	465	466	470	470	473	474	472	467	460	454	451	455	463	467	468	465	461	454	451	450	451	460	461	463	463	463	461	461	460	456	448	447	444	444	444	445	447	452	457	457	453	451	452	455	457	455	453	454	453	452	449	447	442	439	438	435	437	438	445	450	452	449	443	439	437	450	454	459	459	449	450	451	453	457	463	464	464	463	460	461	460	457	454	453	455	458	460	459	456	453	451	451	447	444	441	437	436	438	444	447	449	449	448	449	450	450	451	453	454	453	453	454	457	457	451	442	439	446	450	453	453	451	444	443	446	447	448	449	450	448	443	440	438	440	442	444	446	444	444	443	444	444	447	445	440	434	431	434	439	445	448	441	439	438	440	442	443	443	442	443	448	453	452	446	444	443	443	442	435	428	423	429	441	443	448	451	445	438	435	440	443	437	432	428	428	436	442	444	443	442	442	441	438	439	437	429	427	428	427	425	426	432	434	434	429	425	425	433	433	435	434	432	430	432	431	429	431	430	431	430	437	439	434	431	430	432	434	430	422	420	418	419	418	415	413	414	414	415	411	409	415	419	420	418	414	416	425	425	417	415	409	411	414	418	423	427	427	426	426	426	425	421	413	412	412	413	413	415	416	413	412	416	415	417	416	415	413	410	407	406	405	407	414	420	421	419	416	415	413	415	419	423	426	425	415	413	412	418	416	420	422	423	425	416	415	413	412	414	415	415	415	410	409	411	412	411	416	416	414	412	410	412	411	415	417	413	406	406	407	411	412	406	406	403	403	403	405	408	409	414	413	410	403	397	397	400	406	411	412	409	408	408	405	403	404	405	407	409	407	405	405	404	405	406	403	400	396	396	398	409	414	413	411	407	401	423	418	416	413	413	408	402	406	406	406	405	406	407	409	408	406	406	406	405	402	398	399	399	399	401	0	0	0	0	0	0	0	0
464	468	474	481	481	484	486	491	497	497	508	508	496	499	504	504	509	509	505	496	495	493	493	489	489	490	490	486	475	475	476	478	482	479	481	483	482	482	482	481	478	481	487	490	491	493	493	495	496	495	496	496	491	489	487	487	489	489	488	489	491	491	487	485	487	489	493	492	491	489	490	490	491	488	486	486	485	485	484	481	479	482	488	491	491	488	481	477	476	468	469	473	476	475	474	470	468	465	462	460	458	462	468	469	472	478	482	483	479	472	469	467	465	464	464	461	461	460	458	456	459	462	465	465	467	467	467	465	462	458	452	452	457	467	472	471	467	458	455	457	470	471	471	475	477	480	478	474	465	468	471	474	477	477	466	459	455	457	461	462	462	460	461	462	464	463	464	461	462	462	464	464	466	465	478	484	482	475	463	458	459	465	462	459	460	462	465	468	468	463	457	456	459	458	455	455	454	455	456	455	458	461	466	463	455	457	462	464	461	459	459	458	461	455	453	453	457	456	460	455	454	458	456	456	454	459	459	462	460	456	456	448	445	449	455	461	465	472	469	460	450	448	448	448	456	463	463	463	456	450	449	448	447	445	455	456	455	454	455	455	455	447	446	445	444	444	442	445	446	448	450	449	445	442	446	446	447	449	445	443	441	441	439	435	437	439	440	439	436	436	443	449	443	444	442	435	435	435	440	443	444	446	448	450	450	452	455	458	458	453	455	455	452	449	449	448	450	454	453	449	443	445	447	446	446	443	436	425	426	427	430	433	433	436	445	450	448	447	445	445	449	451	450	453	450	444	440	436	437	434	438	447	448	447	440	437	441	447	448	447	446	443	438	435	436	435	431	433	434	435	436	437	438	439	440	439	443	440	435	436	437	441	439	436	436	435	438	438	441	440	437	439	438	434	433	431	433	435	435	432	423	417	416	418	428	432	437	446	447	444	439	439	440	439	432	428	428	437	437	436	431	432	432	437	434	433	425	422	422	422	421	431	431	419	423	426	421	420	418	419	422	426	429	428	426	426	427	426	426	424	420	423	430	430	427	421	422	424	415	415	417	417	417	418	417	414	407	409	408	410	410	409	410	410	409	403	398	400	403	405	408	408	399	408	408	407	407	414	423	426	426	426	422	416	409	407	407	411	410	412	415	414	410	408	408	412	410	410	408	407	407	408	411	410	413	416	417	416	414	410	412	416	418	422	422	420	411	411	408	409	409	411	414	414	411	407	405	406	405	401	405	407	409	405	403	400	397	401	407	410	409	408	407	406	407	408	409	403	403	402	403	407	408	406	402	392	393	397	401	405	408	410	404	399	395	394	395	399	403	404	403	405	407	408	405	401	397	397	401	405	405	402	400	395	395	394	391	393	388	389	394	397	405	408	406	401	393	390	390	387	385	391	390	395	399	403	404	404	404	405	405	405	402	400	397	399	399	397	396	396	393	392	0	0	0	0	0	0	0	0
465	466	469	473	473	477	480	481	487	491	491	482	478	483	489	489	495	499	479	483	480	478	478	479	484	487	489	486	479	479	471	468	470	472	475	478	477	477	479	477	477	481	485	484	482	481	481	482	483	487	488	489	486	483	476	477	478	479	479	482	486	486	482	483	485	488	487	485	475	478	480	484	486	487	484	484	483	481	477	475	471	471	476	480	476	475	472	468	464	465	469	470	468	467	467	468	470	462	459	457	453	452	454	460	468	472	475	475	468	464	463	462	459	458	458	456	454	454	450	448	455	456	459	460	462	457	446	446	449	448	449	448	451	463	470	469	454	440	443	444	445	449	465	465	460	453	475	464	462	460	462	457	454	452	453	451	451	451	453	454	458	458	457	458	461	461	458	461	460	460	461	459	458	458	462	469	471	456	450	453	454	455	454	449	447	446	444	449	452	452	455	457	458	454	449	450	447	443	442	442	446	445	445	443	444	447	449	452	452	449	447	443	445	444	445	443	443	439	443	446	447	445	442	442	451	452	456	458	455	457	453	444	442	449	454	457	456	455	454	446	443	443	444	443	444	440	442	445	445	446	444	442	442	441	437	444	446	448	451	450	447	444	441	438	436	437	439	442	441	442	428	423	429	433	435	440	439	436	432	430	429	432	430	425	423	428	432	437	438	435	434	436	440	442	442	435	433	434	443	443	438	433	446	448	448	448	445	449	447	449	450	450	448	445	443	442	448	447	441	441	438	438	441	441	443	442	435	430	424	426	428	430	431	431	436	438	441	443	442	441	438	437	440	442	439	436	437	436	433	431	430	435	440	440	436	434	440	444	442	433	429	431	431	429	426	426	429	428	429	428	426	427	429	431	434	438	441	443	432	434	435	437	437	437	436	432	428	429	432	433	432	432	429	430	423	414	419	424	426	425	417	414	415	416	420	424	428	428	427	427	427	427	437	436	431	427	428	433	431	432	429	429	427	428	427	428	420	419	420	418	419	416	414	414	415	416	412	412	413	415	419	423	422	422	423	424	421	413	410	419	416	420	426	417	413	411	409	407	409	410	414	416	416	416	415	413	404	403	405	404	406	409	409	406	403	399	397	395	400	405	407	408	405	395	395	403	399	397	401	418	418	418	412	408	405	404	403	406	410	409	409	411	407	402	402	407	407	405	406	407	407	406	403	404	409	411	413	412	409	405	403	407	412	418	417	414	408	409	405	404	404	409	410	410	407	402	399	397	395	397	397	393	397	402	401	398	394	393	401	403	403	404	401	401	402	403	403	400	399	398	400	402	406	400	397	387	385	387	395	396	399	401	397	395	391	389	389	396	400	399	396	399	402	398	385	385	388	393	396	396	390	389	387	387	387	387	388	386	385	386	390	393	395	397	397	395	390	383	382	382	382	382	386	390	398	401	403	403	401	400	400	392	392	391	390	390	393	393	390	390	386	386	0	0	0	0	0	0	0	0
474	471	473	471	471	472	473	476	478	476	476	469	470	475	477	476	476	475	471	473	470	466	466	470	477	481	487	483	478	478	472	467	467	469	475	474	474	474	474	473	471	478	480	477	475	471	471	471	473	476	478	479	477	471	467	468	469	472	472	474	475	471	473	477	483	482	473	470	468	469	469	472	476	480	483	483	481	477	473	469	463	464	468	472	472	469	466	466	464	464	467	468	467	461	457	457	458	457	457	457	456	454	455	458	461	464	465	462	462	458	456	455	453	456	456	454	450	447	446	448	449	448	446	448	448	450	445	445	449	452	453	449	445	445	448	445	440	439	440	442	442	441	443	443	440	441	442	444	444	445	441	436	440	442	443	448	447	447	449	450	450	453	453	454	456	457	452	452	457	458	458	455	452	449	450	452	451	449	447	448	448	451	447	446	442	441	439	441	448	450	453	454	450	441	435	438	433	436	436	437	440	443	441	439	440	441	445	445	444	441	438	437	438	440	437	435	434	435	438	438	436	428	424	425	430	433	450	448	450	453	446	445	443	448	451	451	450	446	439	433	433	436	434	435	436	431	428	429	431	433	439	439	436	432	430	431	432	436	440	441	441	439	437	435	430	429	429	436	435	427	423	421	420	422	424	429	430	432	426	426	425	426	424	414	412	418	428	434	434	434	430	432	437	441	441	434	429	429	428	426	426	426	427	426	425	434	434	435	438	437	435	435	432	431	434	435	438	435	428	427	429	431	435	438	439	438	430	425	422	421	420	426	428	431	431	432	432	436	436	433	423	423	425	429	428	428	426	431	432	430	429	434	435	433	431	430	431	435	428	424	421	425	425	420	420	420	419	419	429	429	426	424	423	426	430	425	423	423	424	427	429	431	430	432	428	426	426	426	427	428	427	424	415	411	410	412	415	417	420	417	414	423	424	418	420	426	425	423	422	422	422	422	425	424	431	428	428	429	428	427	425	423	422	420	425	416	416	413	411	416	417	411	408	406	407	410	408	406	406	411	415	415	416	413	412	410	407	404	402	406	408	410	408	406	402	402	403	406	401	388	391	405	412	411	404	405	401	399	399	401	404	408	407	406	399	395	393	393	396	400	406	396	394	396	396	389	392	398	401	401	395	395	395	394	398	401	400	403	407	410	407	402	397	389	391	395	399	404	405	408	408	399	398	399	402	403	406	407	401	400	400	400	403	407	403	407	406	404	401	398	396	397	394	391	390	390	392	393	395	390	387	390	393	396	398	396	393	391	393	399	402	397	395	395	394	393	396	396	394	393	390	384	388	388	390	384	383	382	382	385	386	390	392	394	388	384	386	392	394	393	391	387	378	377	376	375	376	388	389	387	380	380	383	383	385	384	382	384	379	380	385	386	382	379	379	379	380	382	380	381	381	383	385	388	391	386	382	398	396	393	385	385	388	388	388	383	380	379	377	377	377	379	0	0	0	0	0	0	0	0
477	474	471	468	468	463	465	468	471	466	466	461	465	467	468	466	466	468	465	469	463	458	458	459	465	474	477	473	469	469	468	468	469	471	472	471	469	469	470	466	468	470	470	470	467	464	464	463	462	462	463	464	464	463	460	460	460	461	461	462	460	462	463	465	468	468	462	460	461	466	468	466	460	457	456	456	466	456	461	460	459	457	458	460	456	457	457	455	458	459	462	462	458	457	457	457	457	455	454	454	453	456	451	453	451	453	453	455	455	453	450	451	451	450	450	445	446	445	444	446	446	441	440	442	443	444	439	445	453	452	448	440	435	436	439	442	439	438	439	439	440	437	436	434	433	438	440	439	439	441	439	436	434	432	432	431	439	444	444	446	442	442	442	444	447	453	446	445	445	454	455	451	447	443	437	436	437	440	442	445	447	446	442	435	432	432	431	429	428	425	425	427	429	430	426	427	430	430	432	435	437	439	438	436	437	438	438	439	438	437	433	429	425	427	433	432	430	434	427	421	422	423	424	422	423	426	429	431	442	445	429	430	438	442	440	440	442	439	438	434	431	428	428	429	428	421	422	425	425	428	428	427	428	426	425	428	430	431	431	436	434	432	428	427	428	424	422	426	427	424	422	423	427	431	430	428	430	423	420	417	420	419	415	415	414	413	416	421	425	429	431	428	422	421	420	417	413	412	413	415	419	422	421	423	425	425	423	420	432	431	428	426	423	422	424	423	425	424	422	423	424	426	430	429	433	429	421	418	418	417	417	418	420	420	427	429	429	428	426	423	421	420	422	422	420	416	413	415	418	420	425	431	432	428	425	423	422	422	423	423	420	418	417	416	414	416	417	414	415	424	423	422	413	417	421	420	420	414	414	416	420	427	425	424	423	428	430	426	426	424	422	419	412	409	407	412	417	419	417	405	414	417	417	415	419	419	415	418	417	416	416	417	420	421	421	420	420	420	417	415	410	411	413	412	410	404	404	404	411	413	412	409	405	399	400	404	406	405	405	407	411	412	412	411	409	404	402	397	397	401	402	403	403	402	400	396	393	390	386	386	383	387	393	395	394	398	400	396	395	395	397	402	405	403	399	394	388	385	388	395	398	390	394	394	393	390	390	393	396	396	394	394	393	392	389	388	398	401	405	408	410	401	392	387	388	390	392	389	390	397	396	395	391	392	396	399	399	395	383	391	394	395	398	398	399	403	402	401	399	397	394	394	391	385	378	372	371	373	378	383	385	386	385	389	394	394	392	389	389	388	390	387	381	383	384	388	389	390	385	383	378	380	381	383	384	381	381	381	379	378	380	380	381	385	388	383	384	385	385	385	382	377	373	373	373	371	371	376	377	377	377	377	377	379	380	379	376	375	376	376	379	379	377	374	371	372	375	377	380	379	379	381	382	384	382	375	374	373	374	375	380	380	383	381	382	378	375	374	374	373	374	375	0	0	0	0	0	0	0	0
465	459	459	459	460	460	462	462	462	461	461	456	460	464	463	461	461	463	462	466	461	451	451	449	452	457	462	463	462	462	462	463	463	465	467	467	463	463	457	459	461	461	459	456	454	454	451	451	452	454	455	456	456	456	455	451	450	454	454	455	457	457	457	457	459	460	458	458	457	458	461	459	454	449	442	438	438	439	447	452	452	443	444	446	450	452	450	448	450	451	449	446	450	451	453	456	455	452	449	447	449	449	446	445	447	446	446	447	449	449	448	449	449	446	440	437	436	441	445	446	445	442	437	436	439	438	437	444	448	443	435	429	430	430	430	433	437	437	438	438	437	434	433	432	434	436	437	435	433	436	436	437	432	430	429	428	423	421	422	422	425	434	436	439	439	439	435	436	439	440	437	438	439	436	433	430	429	434	438	442	442	442	434	426	426	425	425	424	425	423	422	425	426	424	422	424	426	428	428	433	438	439	437	435	432	433	433	434	433	430	425	422	423	425	431	430	432	426	419	419	419	421	420	415	417	417	420	420	419	415	421	424	429	429	425	424	431	435	441	442	436	430	429	429	421	419	419	421	422	423	424	422	421	421	421	424	425	428	425	421	418	419	422	424	423	422	418	415	416	414	415	415	418	420	421	422	419	414	412	412	412	413	414	415	415	412	411	411	412	413	422	417	418	418	417	414	411	410	411	415	419	420	418	419	418	415	416	413	413	420	420	418	419	418	416	413	415	414	418	420	422	426	427	424	424	425	418	416	414	414	414	415	415	415	418	426	426	419	418	416	416	417	418	420	418	415	409	408	410	412	412	413	414	413	418	417	416	420	420	418	417	417	416	410	410	413	415	413	412	409	401	400	402	405	412	413	410	406	406	405	411	419	419	417	410	402	411	406	404	421	419	414	412	410	411	413	407	402	399	402	404	418	417	408	406	412	407	404	408	412	409	410	414	415	414	415	413	409	407	404	406	409	409	410	408	401	397	399	401	412	412	409	404	399	398	398	400	406	408	405	405	407	408	408	406	400	397	395	396	400	405	405	403	400	395	393	390	387	385	384	386	391	392	395	396	392	395	392	388	384	385	390	398	399	395	390	386	383	382	385	391	386	380	387	393	389	389	396	398	387	387	391	392	390	388	385	387	394	400	402	402	397	391	387	387	387	385	384	384	387	390	387	384	386	386	386	379	376	379	383	384	384	385	383	383	383	382	384	391	392	392	390	389	386	381	379	379	380	382	384	385	383	381	376	374	376	376	376	379	380	378	377	377	380	382	384	386	384	379	376	377	377	377	377	376	375	375	376	377	377	377	378	379	379	379	382	380	380	380	381	380	377	373	371	371	369	368	368	370	372	374	374	374	373	374	373	371	369	370	375	375	375	375	372	369	368	370	377	377	377	377	378	379	377	373	371	367	366	369	372	371	372	378	376	374	372	369	370	370	370	372	373	0	0	0	0	0	0	0	0
455	451	452	452	454	454	454	455	454	453	453	454	458	460	460	458	458	456	458	459	452	443	443	442	445	446	449	450	453	453	453	453	455	454	451	449	447	447	449	451	454	455	452	451	448	445	440	440	441	440	444	446	451	452	451	448	448	450	450	453	454	454	454	454	454	453	453	455	455	452	453	441	449	444	439	433	433	430	434	440	435	431	435	440	444	446	445	442	438	442	444	445	443	441	441	437	437	436	436	437	440	443	444	444	445	443	442	441	439	439	440	439	436	432	425	426	429	434	437	440	440	439	435	429	428	433	435	438	438	438	433	424	423	423	423	427	429	433	433	436	434	432	429	428	429	432	430	428	426	426	426	427	427	421	419	421	426	428	430	428	428	429	429	427	424	426	426	429	429	427	426	426	427	433	430	427	426	426	430	438	436	435	424	419	419	420	420	422	422	421	421	423	426	423	419	419	423	421	423	422	430	432	431	428	423	420	417	416	415	416	420	421	421	424	425	426	421	415	415	415	417	418	415	413	413	414	414	415	415	416	416	416	422	425	421	417	418	424	431	433	433	430	426	421	417	415	415	410	413	416	419	418	416	418	417	418	420	420	413	406	404	408	417	419	420	417	414	413	414	415	412	410	411	416	416	416	412	408	409	407	407	409	412	413	413	410	409	410	410	410	406	409	409	411	410	408	408	409	413	416	418	415	412	409	409	409	409	406	406	408	413	415	409	408	405	408	410	409	411	408	410	414	416	415	423	419	412	406	404	404	405	412	411	412	419	419	407	408	411	410	411	412	415	416	412	407	406	406	407	409	409	409	409	408	408	411	414	414	412	410	410	409	408	404	405	400	407	409	409	399	398	400	398	399	400	403	401	401	398	400	405	410	413	406	395	396	409	400	399	398	396	396	397	402	404	401	398	391	393	396	410	414	402	402	398	402	403	399	399	403	406	405	403	408	408	407	407	403	401	401	402	404	408	408	401	400	396	393	395	398	402	404	399	396	396	398	398	398	399	399	395	389	390	398	399	397	394	394	396	399	396	387	393	394	393	393	392	390	387	385	384	385	386	389	392	395	390	386	382	375	373	376	384	384	387	386	383	381	380	380	380	375	378	381	387	388	386	379	376	378	382	386	390	387	385	380	376	378	384	387	389	383	378	375	372	382	381	379	379	378	370	371	376	381	383	375	370	373	377	379	379	373	371	371	375	378	376	375	376	377	380	381	382	381	376	371	375	379	380	381	378	375	368	366	365	365	367	373	376	377	376	375	375	375	378	381	379	372	373	374	374	374	372	371	370	369	371	372	374	375	375	374	375	375	375	377	376	375	373	376	378	375	373	370	368	366	365	363	365	368	372	372	369	363	364	366	365	364	365	367	370	371	368	367	367	367	371	374	375	375	375	373	373	372	370	367	364	363	366	368	363	365	365	366	369	366	366	365	365	363	364	366	0	0	0	0	0	0	0	0
453	450	445	443	445	445	445	448	449	448	448	446	450	454	455	457	457	449	448	447	443	440	436	436	434	437	438	440	442	443	443	441	441	443	440	439	440	442	442	443	444	445	446	443	439	438	436	436	436	436	435	438	443	448	450	447	445	445	449	449	451	450	448	448	448	448	449	449	447	432	429	429	434	438	435	431	431	428	426	428	428	428	427	431	438	438	439	433	433	438	438	441	440	435	434	432	431	432	431	432	435	435	434	435	435	436	437	436	434	431	430	431	428	424	424	426	427	428	429	432	431	431	428	423	425	428	431	434	433	433	427	420	417	417	420	423	423	423	425	428	427	425	425	424	424	425	423	420	422	423	419	413	414	415	415	416	425	428	429	425	426	427	426	419	417	416	417	418	422	420	418	416	418	420	424	429	427	425	424	424	425	426	415	408	406	406	410	413	416	422	426	427	425	421	416	414	414	412	409	414	416	417	416	415	414	413	413	410	412	413	414	416	417	419	417	412	411	408	408	411	411	414	411	412	411	412	411	412	414	415	411	407	408	412	414	411	409	410	414	416	414	413	413	418	416	414	413	411	412	412	416	418	421	421	418	412	411	407	400	399	400	401	409	410	411	410	410	413	412	413	409	405	407	412	413	411	409	406	403	400	403	403	400	405	410	407	404	405	408	407	405	401	400	402	403	402	402	405	408	412	412	406	405	404	404	404	401	399	399	400	405	409	410	404	401	400	400	401	402	401	407	406	409	412	410	406	401	400	398	400	401	402	407	411	412	405	405	405	404	407	407	407	410	411	408	405	402	402	404	406	407	406	406	405	405	405	404	407	405	405	405	398	395	397	393	395	403	405	404	398	396	397	396	396	394	395	396	396	396	396	397	403	403	400	391	390	393	394	393	391	389	391	394	395	395	396	393	390	394	398	403	395	394	392	392	393	395	396	395	394	401	401	399	399	403	403	402	399	398	398	401	402	405	403	397	394	392	393	393	396	395	388	394	390	395	395	394	395	398	399	399	397	393	390	384	381	383	379	384	387	381	372	382	389	390	391	391	389	389	386	384	382	381	382	387	387	390	387	380	375	364	362	372	378	383	384	382	374	369	368	372	374	380	380	381	385	377	375	373	374	379	381	382	382	379	375	375	376	378	380	380	379	377	378	378	380	375	371	370	371	371	370	372	373	373	373	370	372	371	371	369	366	365	366	365	372	374	372	372	372	372	372	372	374	372	366	368	368	368	371	370	368	369	369	365	363	364	366	372	373	372	368	366	369	373	373	370	371	370	371	372	372	370	369	368	365	362	366	370	372	371	371	369	367	369	371	372	372	373	372	370	370	371	368	364	364	358	353	353	364	368	366	363	361	361	363	362	360	360	361	363	365	365	363	362	363	364	370	369	369	370	366	363	363	361	363	363	363	363	361	356	360	359	356	358	360	364	364	364	363	362	363	0	0	0	0	0	0	0	0
451	445	440	439	436	436	438	440	443	440	440	440	444	449	452	452	452	445	442	441	439	438	435	435	429	429	431	434	436	437	437	437	435	435	435	436	437	439	439	439	436	428	427	426	430	432	432	432	430	432	432	432	433	434	435	434	436	435	435	435	439	440	439	440	440	441	439	431	428	421	419	423	427	430	428	427	427	425	421	422	425	424	422	424	429	427	424	424	425	425	426	430	432	429	426	424	427	428	429	428	428	429	424	424	427	431	432	432	431	425	422	423	426	426	424	423	424	424	424	429	428	424	422	419	418	423	428	428	424	424	421	419	415	415	415	416	416	414	413	418	419	417	419	417	417	417	417	417	419	415	412	411	413	412	411	413	416	417	417	416	416	417	415	414	412	414	415	416	414	414	415	410	410	415	421	425	430	429	423	425	419	414	410	408	407	403	402	404	407	412	414	416	415	413	411	409	407	405	409	412	416	415	414	408	410	411	407	403	404	405	406	403	402	405	410	414	410	403	400	402	406	406	408	409	409	409	410	410	412	411	408	407	406	404	402	399	403	407	410	413	414	414	414	413	414	414	411	411	408	409	401	408	410	413	412	408	405	401	402	398	396	394	400	399	401	403	407	411	412	409	406	405	406	406	406	406	406	403	401	397	395	395	395	398	401	402	399	402	403	402	400	399	398	396	396	398	399	402	406	408	407	404	402	402	401	399	395	391	392	392	397	402	401	397	396	398	399	400	397	396	394	398	402	402	402	407	405	400	396	397	398	400	402	407	399	402	402	403	401	402	405	404	405	409	405	401	395	397	401	403	403	403	401	402	398	390	388	387	387	393	392	392	390	386	385	390	397	400	401	399	397	391	391	392	393	395	401	401	395	393	389	391	398	387	387	388	388	386	386	387	389	395	394	392	392	388	385	388	393	396	397	394	386	384	383	383	384	393	391	390	390	388	387	388	396	397	395	389	386	385	394	397	401	397	394	389	391	392	392	390	388	384	382	382	385	389	387	386	392	398	398	396	392	387	393	391	384	381	379	374	374	379	380	384	382	377	373	371	386	386	383	378	376	378	382	380	380	376	380	371	363	357	357	362	371	373	374	369	365	363	372	378	380	381	379	377	374	371	369	371	373	378	380	377	371	374	371	371	372	373	374	374	375	373	368	367	369	369	368	370	370	369	362	362	364	368	370	369	369	368	364	364	362	363	363	368	368	365	367	368	370	369	368	368	368	363	362	364	366	367	368	366	367	366	360	360	361	363	366	371	372	369	366	366	369	370	371	369	368	368	369	369	368	367	366	356	357	359	364	366	367	363	361	364	367	369	370	369	370	369	365	362	359	357	356	352	349	350	352	355	365	363	360	358	359	361	360	358	358	359	360	361	363	359	357	359	358	360	365	365	364	359	356	356	359	364	364	362	357	353	349	348	347	349	355	350	352	363	363	359	360	358	0	0	0	0	0	0	0	0
440	438	437	432	431	431	432	434	435	435	437	437	442	445	445	445	445	440	438	434	433	435	433	433	428	423	426	431	434	434	434	433	431	430	429	431	433	435	435	435	431	426	423	423	425	427	428	428	426	427	429	430	430	430	431	431	431	430	427	427	429	432	434	434	437	431	429	426	421	414	412	417	422	424	423	423	421	421	419	421	419	418	418	417	420	420	423	423	422	422	422	422	423	423	420	421	424	427	426	425	423	422	421	420	422	425	427	428	425	421	418	421	423	417	416	414	413	410	406	408	412	415	416	415	415	424	426	422	417	415	416	416	417	413	413	412	411	411	411	410	412	411	411	413	413	413	412	413	415	415	412	411	412	412	411	407	408	411	413	412	416	416	415	412	412	414	417	410	400	401	408	409	406	402	399	409	415	415	411	411	408	406	405	406	402	401	399	401	404	409	409	411	407	411	406	402	401	403	407	412	415	414	407	402	402	404	405	406	407	408	405	402	400	400	404	406	404	399	398	398	401	403	402	404	405	402	405	406	407	405	402	400	400	400	400	401	395	399	405	411	412	411	408	408	407	412	412	410	396	395	396	404	410	407	404	400	399	404	402	395	393	392	390	392	390	391	394	394	394	400	402	399	397	397	397	397	397	398	400	397	392	390	392	394	395	393	395	396	394	395	395	396	396	397	396	394	396	398	402	404	404	404	400	399	398	397	393	387	385	388	391	391	388	384	385	391	399	399	396	392	391	389	396	398	399	398	397	396	390	389	391	388	388	387	388	387	400	401	399	399	399	402	410	408	404	400	393	391	393	394	395	394	394	393	391	388	384	384	383	388	392	391	385	382	382	385	387	391	391	394	393	389	386	388	388	389	384	383	384	382	384	385	386	386	386	387	383	379	380	385	392	387	385	384	385	381	382	387	393	397	397	395	388	384	382	383	378	377	378	377	381	388	388	387	388	390	390	393	390	388	387	391	391	384	387	385	382	384	380	379	377	379	379	381	381	378	373	375	383	393	391	387	373	367	374	379	382	383	383	379	375	374	375	379	377	375	372	370	373	379	380	380	377	374	372	367	365	364	367	366	364	359	361	367	370	371	371	368	367	367	369	376	378	378	375	374	371	367	367	368	371	376	377	377	372	368	367	367	368	368	368	364	366	366	363	363	365	364	364	365	362	362	357	358	361	364	366	366	366	365	362	360	362	361	361	357	358	356	362	363	367	365	366	366	364	362	360	360	362	363	363	362	363	362	359	358	357	358	358	360	359	362	363	363	364	368	368	366	366	366	364	364	364	361	359	353	352	356	358	358	357	358	358	361	363	364	363	361	364	364	362	357	355	355	354	351	348	349	353	354	351	356	354	354	357	359	358	358	356	357	358	355	351	353	355	356	354	354	354	358	350	346	349	356	359	364	365	358	356	354	353	352	350	350	348	345	343	343	351	355	355	355	0	0	0	0	0	0	0	0
430	432	430	425	422	422	424	424	426	428	433	433	435	435	438	439	434	434	432	430	430	433	431	431	428	424	425	427	428	429	429	428	427	426	425	426	430	433	433	435	429	426	422	421	421	420	421	421	423	424	425	426	425	425	426	427	428	426	428	428	425	429	431	429	427	427	424	421	417	413	411	413	417	418	417	417	418	418	418	415	415	413	411	414	415	417	419	421	420	418	419	418	418	419	419	420	424	424	422	421	419	420	418	418	419	419	419	421	415	412	411	413	413	413	411	410	410	412	411	403	404	407	413	415	414	417	419	412	410	410	412	412	412	412	411	412	412	411	409	408	410	410	411	410	409	408	406	406	407	407	408	407	408	414	411	406	405	406	405	407	406	401	395	399	403	406	406	398	393	392	394	396	392	389	390	392	393	397	407	411	411	405	402	402	397	392	391	397	402	405	404	402	402	401	398	394	389	393	400	409	411	412	413	410	399	397	395	395	395	402	398	396	395	396	394	390	390	392	395	399	400	400	398	395	395	393	393	396	397	398	397	398	397	396	390	391	388	393	398	402	409	409	401	399	399	405	402	393	390	388	392	397	403	402	399	397	398	402	401	393	393	393	394	393	392	390	389	390	390	389	393	393	395	393	392	392	392	393	394	391	388	387	388	391	390	390	393	392	390	389	390	392	389	388	388	388	389	394	398	399	401	396	391	389	388	386	383	381	383	385	389	389	385	382	383	386	390	398	392	386	384	386	393	395	394	389	389	381	383	383	388	388	387	378	380	384	385	385	384	380	380	383	385	382	385	388	387	384	385	389	390	392	393	395	391	386	383	380	378	378	380	380	380	377	376	380	382	385	386	388	389	385	381	381	382	381	381	380	378	380	383	385	385	384	383	386	386	378	377	383	384	385	384	381	381	381	381	386	393	397	396	390	385	377	380	380	377	372	373	375	379	380	381	384	383	384	389	385	384	381	383	380	376	375	375	373	371	367	364	364	366	374	377	379	377	372	369	374	380	384	378	374	369	367	360	366	374	374	372	372	374	373	371	370	374	371	368	365	370	374	377	377	374	362	363	365	364	362	361	361	361	362	364	365	365	366	367	366	367	367	364	369	371	369	369	366	362	362	363	364	368	369	368	366	365	365	365	363	359	357	355	353	358	360	358	358	360	361	360	353	353	356	354	355	357	359	361	361	361	361	359	357	355	355	357	354	354	356	364	365	361	361	364	364	360	356	356	355	357	358	359	359	358	356	356	356	354	353	352	354	352	349	348	356	359	360	355	354	352	353	361	360	360	359	357	348	345	349	353	357	359	358	356	357	356	355	354	351	351	352	351	348	351	354	354	351	346	344	347	349	348	347	349	354	355	355	355	353	350	349	348	346	346	347	348	349	348	351	351	351	348	346	344	346	349	351	346	346	346	348	350	350	348	347	347	347	342	342	343	347	350	351	0	0	0	0	0	0	0	0
421	421	419	417	413	413	417	418	421	423	425	425	424	426	429	434	425	425	421	416	411	413	415	415	416	417	421	424	425	424	424	424	424	423	421	422	427	431	431	428	426	424	421	419	415	412	408	412	412	419	423	421	420	421	424	423	423	422	422	422	425	423	418	420	422	421	419	414	410	412	411	411	412	412	412	409	409	409	409	411	409	408	407	410	411	413	414	415	415	414	413	413	412	411	413	415	416	416	413	409	414	414	414	414	414	414	414	412	407	407	408	410	410	408	407	405	409	412	411	403	402	404	411	413	412	411	408	409	409	409	403	396	392	407	406	405	404	401	400	400	404	413	416	416	412	409	404	399	400	401	398	400	401	405	404	398	396	393	391	391	392	391	390	389	392	394	397	395	392	391	390	391	388	388	388	390	392	393	398	401	400	403	400	396	389	388	389	395	397	399	398	398	396	395	390	390	393	393	393	397	392	390	388	390	390	390	388	387	386	386	389	388	387	383	382	384	389	389	391	397	398	397	394	391	391	390	389	388	389	390	391	395	395	395	390	386	387	395	399	399	396	390	391	383	385	389	392	392	391	389	391	397	399	397	396	395	396	396	398	394	391	392	393	395	394	391	385	386	386	387	390	392	392	392	389	387	387	389	388	387	386	387	387	390	387	388	390	389	388	385	380	377	382	387	384	380	380	383	390	391	386	384	386	390	392	386	380	378	378	380	384	384	382	381	381	381	386	388	386	385	383	381	380	382	386	386	386	383	379	379	378	377	380	377	380	377	375	374	374	376	378	378	379	379	378	379	381	378	378	379	378	379	386	387	386	382	379	374	370	371	372	374	374	370	368	375	380	381	381	384	381	377	371	373	377	378	378	374	374	374	377	381	383	382	380	384	384	381	379	377	379	380	381	381	379	379	382	384	389	387	377	376	374	374	371	372	372	369	369	371	374	376	373	371	372	374	378	379	377	376	373	368	369	370	369	368	368	364	355	356	359	362	364	364	363	365	371	372	365	366	375	372	368	364	364	365	361	360	364	369	372	372	369	360	363	364	364	365	368	371	374	370	365	359	361	362	363	362	360	355	354	355	359	363	362	363	363	362	359	364	365	368	370	365	359	358	360	357	358	358	357	356	357	357	356	355	355	356	354	350	353	350	354	356	356	354	357	359	351	347	348	352	356	355	354	353	356	354	356	357	357	355	354	351	352	355	359	357	352	354	357	359	360	359	356	354	354	352	354	353	354	352	351	351	353	352	350	349	348	347	343	343	340	342	343	346	351	354	355	354	355	355	354	354	352	345	345	347	349	350	359	358	357	352	350	347	344	347	348	351	350	348	346	350	351	350	350	347	346	347	350	350	350	350	349	348	348	345	342	341	342	346	345	343	343	345	345	348	348	350	345	342	341	342	345	344	344	340	340	343	338	339	345	344	345	345	344	344	343	343	342	339	0	0	0	0	0	0	0	0
411	409	408	406	406	415	415	417	417	418	416	416	416	417	421	424	416	416	415	414	412	410	408	408	409	410	413	417	418	420	420	420	420	417	417	418	419	416	417	417	418	416	415	415	411	405	402	404	404	409	417	418	417	418	420	420	419	418	416	415	400	402	403	405	408	410	408	407	409	412	413	414	411	410	408	407	403	398	398	398	398	399	402	402	405	405	405	403	401	403	405	405	404	400	401	404	406	401	402	400	399	398	398	400	400	399	397	398	404	403	404	403	402	399	399	398	398	397	396	396	395	394	395	395	395	396	396	403	403	398	396	392	388	387	389	394	397	393	389	391	392	403	408	409	405	400	395	392	389	389	389	393	395	395	395	392	391	390	389	390	394	394	391	390	390	391	392	396	391	390	389	387	388	388	387	386	385	387	384	385	382	383	382	382	385	390	393	396	396	395	392	386	385	386	389	392	394	391	387	383	382	383	385	384	381	381	381	382	383	382	382	381	380	379	381	383	387	387	387	391	394	393	390	390	390	389	385	382	380	383	387	393	393	392	389	382	385	389	393	390	387	381	375	375	381	381	383	388	390	389	388	384	386	390	391	392	394	391	391	389	387	388	391	393	391	388	386	386	386	386	388	389	390	388	382	381	382	382	379	377	378	379	380	380	379	380	383	385	384	381	375	376	381	382	382	375	368	373	376	379	381	381	382	383	383	380	378	379	382	380	378	377	377	378	377	376	377	379	381	382	379	378	377	378	379	383	383	380	378	373	371	371	371	370	374	371	369	368	368	369	376	377	377	375	375	375	377	377	376	375	374	370	371	378	378	374	372	364	361	364	371	371	372	370	366	366	368	370	371	370	369	363	364	367	372	373	373	372	370	370	372	373	377	376	376	375	374	375	375	369	364	363	376	376	374	373	373	370	367	364	364	365	367	368	367	367	363	362	359	362	365	362	360	361	368	370	371	372	371	369	365	360	366	368	368	367	364	361	353	352	353	358	361	361	360	364	363	362	359	359	362	368	370	364	360	359	359	357	354	356	366	367	362	357	357	362	361	359	358	358	357	357	359	355	353	352	353	361	356	354	354	355	355	356	356	352	350	351	356	365	364	362	358	360	358	358	358	356	354	354	351	349	348	344	351	353	354	351	348	348	352	349	348	347	347	347	348	347	345	344	347	349	353	353	347	344	344	342	344	347	350	354	352	349	350	354	354	349	344	346	348	350	349	347	347	346	348	351	351	350	351	348	344	342	346	347	346	345	346	344	341	339	335	332	332	337	343	346	346	346	345	343	344	343	344	342	344	343	343	345	346	348	348	346	344	341	339	345	347	348	347	344	343	343	344	349	349	345	345	342	346	349	349	348	344	343	344	346	341	343	348	345	342	337	337	343	345	345	348	342	341	340	341	341	341	335	335	334	334	334	334	335	334	338	340	341	341	341	342	342	340	336	0	0	0	0	0	0	0	0
396	396	398	398	402	412	412	411	405	407	408	408	407	407	405	409	402	402	409	410	407	408	407	407	407	407	407	407	411	416	415	415	412	410	411	407	410	409	409	409	408	410	410	408	405	399	399	400	400	403	404	405	404	401	413	414	414	412	401	397	397	400	403	403	401	399	400	402	405	409	413	413	408	404	400	400	395	395	395	394	394	395	396	399	400	401	401	399	401	402	401	400	399	397	396	393	394	391	388	389	392	393	393	395	397	393	392	393	394	397	400	400	399	395	393	393	393	392	392	395	394	394	395	394	395	394	391	392	393	393	392	390	386	384	386	390	394	391	384	384	388	389	392	394	398	394	385	383	382	381	380	380	381	382	387	390	389	388	389	391	396	395	391	387	384	383	384	385	384	385	385	388	388	388	388	387	382	383	384	382	377	376	375	374	381	385	389	394	395	393	392	383	380	381	384	389	391	385	382	385	380	376	379	378	375	374	376	378	380	380	380	379	376	376	376	381	385	383	384	385	388	389	386	387	387	385	382	378	378	381	384	389	389	387	385	382	385	388	389	387	384	380	376	374	373	371	378	384	387	389	386	382	382	384	387	391	388	387	388	387	387	387	388	390	391	390	387	385	385	385	385	379	375	374	375	379	377	374	373	376	379	380	380	375	373	371	373	375	378	378	374	374	378	377	373	371	365	372	376	380	381	381	376	372	370	372	376	377	378	378	377	375	375	374	373	374	375	377	377	377	377	375	373	374	376	378	377	375	373	372	368	367	367	369	369	371	372	371	368	367	367	372	374	371	368	367	369	369	372	367	365	364	362	366	371	368	364	363	360	360	360	370	369	368	364	365	361	361	357	362	361	360	360	363	366	369	373	372	367	366	364	360	363	364	373	373	372	372	368	363	363	357	363	366	366	365	361	361	362	359	358	358	362	363	364	363	361	357	355	358	359	358	358	360	360	362	369	370	369	366	363	358	359	365	364	364	363	357	355	355	354	356	359	359	358	361	359	358	356	356	359	360	360	359	358	357	355	354	353	352	352	356	355	352	354	357	360	358	352	350	350	351	354	348	349	349	348	347	347	350	353	357	356	356	358	355	350	353	356	360	357	351	350	355	354	354	355	355	355	350	347	348	349	349	350	351	345	345	345	343	342	347	346	344	342	342	342	343	341	341	344	349	348	348	346	345	345	344	346	348	346	345	347	345	343	342	343	343	342	343	347	348	348	346	343	343	346	349	348	345	345	343	340	338	337	339	342	348	342	337	334	334	332	331	331	336	340	343	345	345	343	341	338	340	344	344	344	342	340	338	344	346	348	347	347	346	334	334	337	341	343	343	340	341	340	340	340	341	341	341	342	343	342	336	336	336	339	340	340	340	338	340	341	337	336	336	332	332	330	331	335	339	341	340	334	330	329	330	332	332	332	329	330	331	329	331	331	335	339	337	333	331	0	0	0	0	0	0	0	0
393	393	393	396	403	409	409	404	403	402	402	402	398	388	390	396	395	395	399	402	403	407	407	407	407	404	396	394	393	407	406	406	400	400	402	404	404	402	400	400	401	400	398	396	393	392	395	399	399	400	401	399	398	396	394	392	392	392	395	397	397	397	399	396	397	395	394	396	400	404	406	399	393	392	392	391	393	392	392	392	392	393	395	392	390	390	392	392	393	394	397	396	395	394	392	390	384	383	384	384	387	387	391	393	392	390	389	388	387	387	387	390	390	396	395	396	396	397	397	395	395	394	395	394	394	391	386	387	390	389	389	387	386	384	385	390	390	385	384	383	381	382	383	384	384	380	380	381	382	381	379	378	378	379	383	384	384	383	386	391	392	391	385	378	377	378	378	379	379	380	382	384	386	388	383	380	381	382	382	379	376	374	373	374	380	382	385	382	380	380	387	384	378	377	379	382	384	379	378	378	378	373	372	376	375	375	376	380	379	379	377	376	374	372	375	378	381	381	381	381	381	376	377	384	384	382	381	379	378	380	381	380	382	381	380	376	384	385	384	382	380	378	381	379	375	371	371	374	385	389	388	384	382	383	384	378	374	377	379	376	376	377	381	385	379	382	381	378	374	372	372	374	373	373	372	375	374	373	373	375	377	380	378	375	372	371	369	372	376	375	375	370	371	370	370	371	370	372	374	375	374	375	373	369	368	368	373	374	375	374	376	376	375	372	372	374	376	375	374	367	370	366	361	360	371	374	371	367	367	365	365	363	364	366	367	364	366	369	370	370	369	368	367	367	366	364	363	362	361	359	363	362	360	359	359	360	362	362	361	361	359	360	360	360	359	359	361	363	363	364	364	364	362	359	361	366	368	370	367	363	360	359	360	362	366	370	371	367	361	361	360	358	356	362	362	361	359	359	358	357	354	352	357	360	362	359	357	354	356	358	358	357	355	355	355	356	359	366	366	363	360	355	356	359	364	364	363	360	361	360	357	354	354	355	357	357	358	356	355	355	356	355	351	354	356	356	353	352	351	351	348	347	346	348	348	353	357	351	352	350	351	353	352	348	345	346	345	344	345	347	350	354	357	358	357	353	350	349	351	352	349	349	344	347	346	347	348	339	340	341	342	340	343	345	344	343	342	341	339	340	341	340	341	342	344	344	342	345	338	336	338	339	340	341	341	342	342	340	339	341	347	342	341	338	340	340	340	339	340	344	347	349	348	341	340	341	343	342	345	343	340	335	335	333	334	336	338	331	329	325	333	333	334	332	332	333	335	337	340	339	338	336	335	338	342	346	343	338	336	340	339	339	340	341	340	335	332	329	329	336	337	337	335	335	335	337	338	338	338	335	339	332	332	331	331	332	336	339	338	336	332	331	331	336	333	330	329	329	327	328	329	331	332	332	329	323	323	326	327	325	324	323	325	325	322	323	323	326	328	330	327	326	0	0	0	0	0	0	0	0
390	390	394	398	408	409	409	403	401	398	393	386	386	383	384	388	384	384	391	395	401	403	402	402	402	390	389	389	388	389	392	392	393	396	399	400	398	397	392	392	390	391	393	389	387	387	391	394	398	398	397	396	395	391	389	388	387	390	392	388	388	391	392	394	392	392	392	392	393	393	393	390	387	388	387	385	389	390	391	391	390	387	385	384	383	384	386	382	380	380	390	390	389	386	384	383	383	382	381	377	383	384	385	385	381	381	382	379	377	374	375	378	380	381	389	392	385	382	384	387	387	388	390	392	389	386	382	381	377	378	379	380	381	381	382	385	385	383	381	379	376	377	377	381	381	378	380	381	382	378	379	379	379	380	374	374	378	379	376	375	374	372	372	373	373	375	375	374	373	375	377	380	377	367	367	371	375	379	377	374	373	372	373	372	375	377	377	368	369	370	375	373	370	371	373	373	375	375	375	375	373	372	371	374	376	377	379	380	380	378	376	374	372	370	372	375	375	373	375	374	373	374	374	372	374	380	378	379	380	381	378	376	372	370	370	369	374	377	379	378	376	374	375	376	374	370	369	370	373	374	387	385	380	376	371	370	370	369	369	370	375	374	375	374	377	374	373	372	371	372	372	373	372	372	371	370	367	370	373	375	377	377	375	371	371	367	366	371	375	374	373	371	366	365	369	371	372	372	366	367	370	371	368	362	359	363	367	370	368	368	368	372	371	368	366	364	361	360	360	360	359	359	358	359	359	362	361	361	360	360	359	361	359	360	357	358	359	359	360	361	360	364	363	364	364	361	359	354	356	359	360	359	357	355	355	359	359	360	361	358	357	357	358	358	357	359	362	359	357	359	359	357	357	358	360	360	360	360	362	360	359	358	358	358	359	362	361	359	358	356	356	355	355	355	360	358	357	355	356	354	350	352	353	355	350	354	355	351	352	354	353	354	352	349	349	352	350	354	361	356	352	350	352	358	361	361	361	363	362	361	347	346	353	353	354	355	355	353	350	353	348	346	348	353	354	352	350	345	348	350	343	342	338	341	347	347	351	350	349	349	349	353	352	350	346	345	346	343	342	343	345	352	356	357	355	350	346	346	349	345	344	344	343	342	340	337	334	336	337	337	339	337	336	341	342	341	339	336	337	340	342	342	343	342	343	343	346	346	336	335	338	337	338	338	340	340	340	339	336	337	339	339	334	336	339	338	337	337	339	342	345	345	341	339	338	339	341	339	340	340	339	339	338	338	338	337	332	328	325	323	322	325	329	332	332	332	333	332	332	332	333	335	335	336	336	334	331	331	330	330	330	331	337	340	336	332	329	327	328	330	333	331	332	331	332	334	336	331	331	332	329	329	329	329	328	328	330	333	334	333	330	326	326	331	331	330	330	327	327	327	328	329	329	329	328	322	321	323	324	322	319	319	319	320	322	323	323	322	324	323	322	323	0	0	0	0	0	0	0	0
386	386	395	401	406	405	405	400	398	396	391	385	385	381	378	381	383	386	386	392	390	385	385	385	385	385	385	384	383	382	384	384	388	390	392	393	391	390	387	387	386	388	389	388	386	384	387	390	394	394	394	393	390	388	386	381	382	378	378	380	380	380	380	383	388	391	392	384	382	384	385	383	383	379	378	382	385	387	387	387	385	383	380	377	375	377	379	381	381	381	381	380	377	373	372	373	374	375	371	371	376	377	378	380	378	377	375	373	373	371	373	375	374	373	376	376	377	377	380	382	382	380	380	376	373	371	372	373	376	380	380	377	375	375	377	380	379	378	375	370	370	372	371	372	375	375	375	372	373	376	376	376	371	369	366	371	377	376	371	371	372	371	371	371	370	371	370	370	369	368	369	368	363	360	361	364	372	375	371	369	368	370	370	370	370	367	364	364	365	366	369	369	367	362	362	367	370	373	373	373	374	372	372	374	377	378	380	380	378	375	374	373	369	367	366	367	369	370	371	371	371	371	371	370	369	370	372	371	366	367	370	371	367	365	364	364	368	373	373	372	373	372	373	375	372	368	368	369	368	368	360	362	371	369	367	367	369	368	365	367	373	372	371	371	372	372	371	369	369	370	371	372	371	370	366	366	368	365	363	364	368	371	369	369	364	366	371	373	369	366	370	368	362	363	369	371	375	373	363	364	367	365	362	359	357	358	361	365	361	364	366	367	369	367	360	355	354	354	356	354	352	351	356	358	358	356	358	357	355	354	354	354	355	352	353	355	355	355	354	356	356	356	357	360	360	356	355	352	352	356	356	356	354	352	353	356	357	359	357	356	355	358	359	359	354	354	353	353	352	353	353	354	355	358	358	357	358	358	359	361	353	355	358	357	354	349	354	354	354	354	353	351	352	354	355	355	347	352	351	350	346	347	347	350	350	354	352	346	346	348	349	351	350	347	349	348	349	348	349	348	346	346	349	353	357	359	360	361	341	338	337	337	341	347	354	354	347	344	342	345	343	340	343	351	351	350	343	343	344	341	338	337	335	340	337	339	341	343	343	343	343	342	343	341	339	340	339	338	337	339	341	345	352	354	341	338	338	340	339	340	340	341	339	337	337	336	336	336	338	337	337	335	334	338	337	337	337	335	337	339	341	343	343	342	339	339	337	335	332	332	335	332	332	331	331	338	338	338	336	335	335	334	330	334	336	335	334	333	333	333	332	328	327	332	334	335	336	337	338	338	338	338	338	332	332	332	330	325	322	321	324	326	329	331	330	330	329	327	328	327	329	333	334	336	336	326	331	326	325	327	329	331	332	333	333	329	325	324	325	328	328	327	325	322	323	323	327	329	331	329	330	328	326	326	325	324	324	325	329	331	326	324	325	323	328	328	328	327	326	327	329	330	329	326	326	322	321	322	320	319	320	319	319	319	318	320	320	319	319	320	319	319	0	0	0	0	0	0	0	0
381	381	389	395	398	395	395	393	392	392	389	384	384	380	377	375	380	381	381	380	372	372	377	378	378	378	380	380	381	380	380	380	381	382	384	385	385	386	386	387	387	389	389	388	386	384	384	384	389	389	394	392	389	385	379	375	374	373	370	371	372	372	369	371	376	380	381	378	376	374	375	376	377	376	376	377	377	380	383	383	381	379	373	373	371	371	372	374	381	381	381	379	375	371	369	370	371	369	368	366	366	368	371	372	374	374	372	370	368	368	369	372	372	370	370	370	370	371	373	375	373	372	372	371	369	370	372	376	377	378	377	371	368	368	369	370	369	369	370	368	369	369	367	365	368	369	368	365	363	363	365	369	368	368	366	364	366	365	365	366	366	367	366	367	368	367	367	367	367	352	352	359	358	357	357	361	367	364	363	365	365	366	367	367	367	365	362	361	362	363	365	366	365	361	361	363	370	370	371	372	373	370	368	360	361	362	367	369	371	372	372	369	369	367	363	365	367	368	369	367	367	368	371	368	367	365	360	363	364	361	362	362	361	362	360	359	359	364	365	367	367	366	363	362	360	360	361	361	358	357	359	360	360	360	367	367	366	362	363	367	371	370	366	367	366	368	368	365	368	368	370	372	369	366	366	366	366	363	361	363	370	371	368	365	365	365	364	364	363	362	360	358	359	365	370	373	375	364	362	362	360	361	361	361	362	362	359	358	359	361	363	362	361	360	356	352	352	354	353	349	349	351	355	357	356	354	353	350	349	350	349	349	350	349	352	350	351	350	349	350	350	352	353	354	354	353	350	349	348	348	351	351	351	350	351	354	355	355	355	353	358	356	356	353	353	353	351	350	349	346	346	351	354	355	353	352	355	357	360	356	348	348	351	349	350	350	350	352	352	352	349	348	350	352	355	355	346	346	344	348	351	347	345	344	351	354	349	346	346	347	350	351	350	345	347	348	349	345	345	346	339	341	345	348	349	350	336	335	334	336	339	338	337	339	345	348	346	339	338	335	335	337	338	345	345	342	340	336	342	339	337	338	338	337	336	332	331	331	334	335	335	335	338	338	338	338	336	338	336	337	340	341	344	341	338	335	333	332	334	335	334	333	336	337	337	330	331	331	332	333	333	331	330	331	331	331	331	332	330	333	337	338	337	336	335	333	332	331	328	328	329	326	326	325	324	327	327	329	331	333	334	332	334	339	341	340	331	326	325	323	321	323	327	325	326	330	332	334	335	337	337	328	328	329	328	331	327	323	320	320	322	326	328	329	328	329	323	325	324	325	326	328	330	334	330	324	324	323	323	324	327	329	331	330	329	327	325	323	323	319	318	315	317	318	319	324	326	327	329	329	329	326	322	323	322	320	321	318	318	318	318	318	317	318	320	320	321	324	327	327	322	321	321	323	324	323	321	320	319	319	319	317	318	319	317	317	316	314	317	317	318	318	0	0	0	0	0	0	0	0
