152	153	153	155	159	155	155	153	153	152	153	153	154	155	154	154	152	152	156	154	154	157	154	153	154	154	154	156	156	158	158	158	155	155	154	154	154	153	155	156	155	155	155	156	156	156	155	156	156	157	159	160	160	159	158	158	155	154	155	155	156	156	156	158	159	158	157	156	157	157	156	156	156	156	156	158	160	158	159	157	156	156	156	157	155	156	157	157	158	158	158	158	158	160	158	158	158	157	158	158	158	157	158	158	160	161	160	157	157	159	159	159	160	162	162	161	161	160	160	160	160	160	160	160	163	162	160	161	162	162	162	162	161	159	158	159	160	160	160	160	160	164	162	160	160	161	162	162	161	162	158	164	158	159	163	162	161	160	158	159	160	160	161	163	163	163	162	160	162	163	163	162	161	161	162	163	165	162	162	160	160	162	163	163	162	162	162	162	163	163	163	164	164	163	164	164	164	162	161	161	162	163	164	163	162	164	164	162	163	165	164	162	162	162	160	159	163	165	166	166	166	165	162	160	162	165	164	164	164	164	164	166	166	165	165	164	164	164	164	165	167	165	166	165	166	166	166	166	166	166	167	167	166	165	165	165	164	164	164	164	163	165	165	166	166	165	165	164	163	163	164	165	164	165	166	166	166	166	166	165	165	165	166	167	168	166	165	165	165	166	166	169	166	166	165	165	165	168	168	167	165	168	168	168	168	168	168	169	165	166	167	167	168	167	165	165	164	164	165	165	165	165	166	166	167	166	165	166	169	166	167	167	166	167	168	166	165	165	166	166	165	164	165	165	167	167	168	165	163	163	165	164	165	167	167	166	165	164	164	164	164	165	164	168	168	168	168	165	166	168	165	167	167	167	166	158	161	165	167	166	167	166	166	166	166	166	165	165	166	166	168	164	165	166	164	165	165	166	166	166	167	166	163	163	165	163	167	166	165	166	165	165	164	163	165	165	164	163	163	166	165	166	167	165	164	167	167	167	166	165	163	163	164	163	164	166	164	165	164	166	165	166	166	164	163	163	162	162	163	165	164	164	163	163	164	166	167	167	166	166	165	163	163	163	164	163	163	163	163	164	163	164	164	164	163	163	162	161	160	160	161	161	162	161	161	161	162	162	162	162	162	161	160	161	162	160	160	161	161	160	159	159	160	160	159	159	159	161	161	161	160	159	158	159	158	160	161	161	160	159	159	159	161	160	160	160	160	160	160	160	160	159	157	157	157	157	157	157	158	156	158	156	157	156	154	153	155	154	154	155	155	155	155	155	154	154	154	154	154	154	155	154	153	153	154	156	156	154	156	155	154	154	153	152	152	152	153	154	155	155	157	156	153	153	152	153	153	153	153	155	155	155	155	154	153	152	151	154	152	153	154	153	151	151	151	151	152	152	152	151	153	155	156	153	151	151	153	153	153	152	152	149	150	150	150	151	151	151	151	149	149	150	150	149	150	148	149	148	148	148
150	150	153	153	155	155	154	154	152	152	152	152	154	155	152	151	151	152	152	154	154	153	153	153	153	153	155	156	157	157	158	158	155	155	154	155	155	156	154	154	154	154	154	156	156	155	155	157	157	157	158	158	158	158	157	157	158	158	156	154	154	158	158	158	158	158	156	156	156	156	156	156	156	156	157	157	159	158	155	154	155	155	154	155	155	155	157	158	159	158	158	158	157	157	159	157	157	158	157	158	157	158	158	158	158	160	159	157	158	158	158	159	159	160	158	158	157	158	158	158	159	158	158	159	160	161	158	159	160	161	160	160	160	159	159	158	159	160	161	159	159	158	159	159	160	161	162	161	161	161	164	160	162	163	164	163	161	160	159	160	160	162	162	163	163	161	160	159	161	160	162	163	166	165	166	165	161	162	162	163	162	162	162	163	162	163	163	164	164	165	164	164	164	163	162	162	164	165	163	162	163	163	163	162	162	163	162	162	163	163	163	163	161	161	160	160	161	165	165	166	165	165	163	162	162	165	164	164	163	164	164	167	167	166	165	164	166	164	165	165	166	165	164	163	165	164	164	167	167	166	167	167	165	165	164	164	165	164	163	164	164	164	165	166	166	166	165	163	164	161	162	163	164	164	165	166	166	166	165	165	166	164	165	167	166	165	165	165	165	165	165	167	168	165	164	164	164	165	167	166	165	165	166	165	162	165	164	165	166	165	166	167	167	166	166	167	164	164	164	163	165	164	165	164	164	165	164	165	165	166	165	165	165	165	164	163	167	165	167	167	165	166	167	165	166	166	168	168	166	165	164	165	167	167	163	159	161	163	166	165	164	163	164	165	168	168	165	164	165	168	165	164	165	164	164	163	164	164	167	168	165	166	163	165	167	164	165	164	165	165	165	165	165	165	165	162	164	164	166	166	166	167	165	164	163	163	166	166	165	166	164	163	163	163	163	164	164	164	164	164	164	164	164	164	163	165	164	164	163	163	163	163	164	163	164	164	164	164	164	164	166	166	164	162	162	162	162	164	163	163	163	163	165	163	163	163	165	166	166	166	165	164	162	161	162	162	163	163	163	164	164	164	164	163	163	163	162	160	160	160	160	160	160	159	160	161	162	160	160	161	162	162	163	163	162	160	161	160	159	159	160	161	161	160	160	159	158	160	161	159	160	158	159	159	160	158	160	159	157	158	158	160	160	160	159	159	160	159	160	158	160	159	158	157	156	157	157	156	155	156	156	157	157	157	154	153	154	153	153	153	154	155	154	153	153	154	155	155	156	156	155	156	154	155	155	155	155	152	153	155	154	154	153	152	152	152	153	154	152	152	154	156	154	153	153	154	154	154	153	154	153	153	152	151	152	152	151	153	152	152	153	153	154	151	151	151	151	152	152	151	151	151	154	152	152	149	148	148	152	151	152	151	150	150	150	150	149	150	149	149	149	149	149	148	149	148	147	148	148	148
153	149	148	148	151	155	154	154	152	152	152	152	152	152	152	151	151	154	154	152	152	152	152	152	153	155	155	156	156	158	158	158	156	155	155	155	156	156	155	154	154	156	156	156	154	155	155	156	155	155	155	156	154	155	157	156	156	157	156	154	156	155	157	159	159	158	156	158	159	159	159	157	157	154	155	157	157	157	155	155	154	153	153	156	154	157	158	158	160	159	158	157	158	157	157	158	157	157	157	157	158	158	158	158	159	159	158	157	159	159	159	159	159	159	158	157	159	158	158	158	158	158	158	157	156	155	157	156	158	158	158	159	159	159	160	161	161	161	160	159	158	158	159	159	159	159	162	162	162	163	163	160	163	162	162	162	160	160	159	159	161	161	162	161	161	160	161	160	160	162	162	163	164	165	165	164	162	162	163	163	163	162	162	162	162	163	163	163	162	163	162	161	162	163	163	163	163	162	162	162	163	162	161	160	162	162	162	162	162	162	162	163	161	161	161	161	161	163	165	165	164	163	163	163	164	163	163	163	163	164	166	166	166	166	164	164	163	164	165	165	165	165	165	164	162	164	166	164	163	164	166	166	166	165	165	164	164	164	163	163	164	164	164	165	165	164	163	164	162	161	162	165	163	163	164	165	164	165	165	164	166	163	164	166	166	165	165	164	164	164	165	166	165	165	165	165	165	165	165	165	164	165	164	164	165	167	168	167	169	168	165	166	166	166	166	166	165	165	165	163	164	164	165	163	165	165	163	166	165	166	165	165	165	165	166	165	164	164	165	165	165	166	166	165	165	165	167	168	165	167	163	164	165	165	163	163	166	162	165	166	164	165	165	167	167	165	163	163	163	163	165	164	163	163	160	163	165	165	165	167	165	163	164	163	163	164	165	165	168	168	166	165	165	162	162	163	165	163	164	164	164	165	165	161	161	164	166	164	163	162	163	163	163	163	163	163	164	165	166	167	164	163	163	163	164	163	163	163	164	163	162	161	161	162	164	163	164	165	165	163	164	163	162	163	162	162	163	162	163	163	161	162	164	162	163	163	163	165	165	165	164	162	160	162	161	161	162	162	163	163	163	162	160	162	161	160	160	160	160	161	162	161	160	160	160	162	163	161	160	161	162	163	162	163	159	161	160	160	159	159	159	159	162	162	161	162	164	162	162	161	160	160	159	159	158	158	159	158	159	157	159	160	158	158	158	157	159	158	159	158	158	159	158	156	157	156	156	156	156	156	155	156	157	156	154	153	154	152	152	154	153	153	153	153	153	154	155	155	156	156	156	155	155	155	154	155	153	152	155	154	154	154	154	154	154	153	154	153	152	152	152	153	151	153	153	154	153	153	154	151	151	152	152	150	151	151	151	150	152	152	153	153	153	153	151	151	151	152	151	151	151	151	151	150	150	148	150	150	150	151	150	149	149	150	149	151	149	149	150	149	149	149	148	148	148	149	149	149	147	148
152	151	150	150	150	152	154	150	150	152	151	151	151	152	152	151	152	152	150	151	152	152	152	152	153	155	155	156	156	155	156	157	157	154	155	156	156	156	154	154	154	154	157	157	154	155	155	154	154	153	153	153	152	153	156	155	156	156	156	155	154	154	155	157	157	156	156	158	158	157	158	157	154	154	154	155	154	154	154	154	152	153	156	156	156	156	157	158	161	158	158	157	158	158	156	156	157	156	156	157	158	156	157	158	157	158	158	156	159	160	159	159	158	157	158	158	159	158	156	158	158	158	158	158	157	154	155	156	155	158	158	158	158	158	160	160	163	163	160	159	158	159	158	156	158	157	160	163	163	162	158	160	160	160	163	160	160	160	160	160	160	158	158	161	160	160	161	161	161	161	161	161	164	164	165	163	163	163	164	162	162	162	162	161	161	161	163	160	160	163	162	163	162	162	161	161	164	162	163	163	162	160	159	160	162	162	163	161	162	162	163	163	162	162	162	161	161	162	163	164	162	162	161	158	160	159	162	161	161	163	164	165	165	165	163	163	163	162	164	165	166	166	166	164	163	163	165	163	163	162	166	164	164	165	165	164	164	164	164	164	165	165	164	164	164	165	165	166	166	166	165	167	164	164	164	165	164	164	165	165	164	166	165	165	166	165	164	162	164	164	165	165	164	165	164	165	165	164	164	162	162	162	164	165	165	165	166	166	165	164	164	164	165	166	166	163	164	164	165	166	166	165	164	164	165	165	163	165	165	164	165	165	165	165	165	163	165	164	165	165	165	165	165	165	165	164	163	167	167	166	163	164	166	165	166	164	164	164	164	165	164	164	164	164	164	164	163	163	163	164	162	162	162	160	163	163	165	165	165	165	167	167	165	162	162	163	164	166	166	167	166	165	162	162	163	163	164	163	162	165	164	164	164	165	165	163	164	164	162	162	162	161	163	163	163	162	164	164	164	167	164	163	162	163	164	161	163	162	161	163	162	160	160	162	161	161	162	164	164	165	163	164	162	162	163	163	164	162	161	162	162	161	162	163	163	163	163	164	165	164	162	163	160	163	161	161	162	161	162	161	161	161	161	160	161	160	160	159	161	162	162	162	160	161	162	163	163	160	159	160	160	160	161	159	159	158	157	159	159	158	158	160	161	161	160	160	161	162	162	162	160	160	162	163	161	159	158	159	159	160	159	160	159	159	158	157	156	155	155	158	159	158	158	159	158	156	155	155	155	155	156	155	156	156	155	153	153	152	152	154	154	153	151	150	149	151	153	153	154	154	154	154	155	155	154	155	153	153	152	154	152	152	151	154	154	155	154	153	154	153	152	152	151	153	152	153	153	153	154	154	153	152	150	150	151	151	151	150	152	151	150	150	150	150	152	152	150	151	150	150	150	151	151	151	150	148	150	149	147	149	149	149	149	149	151	151	148	150	150	148	148	149	148	148	148	146	146	146	145	148
149	152	148	150	150	152	151	150	149	150	152	153	152	152	153	152	152	151	151	152	152	153	153	151	152	155	153	153	153	155	153	154	154	153	155	155	154	154	154	154	154	153	154	155	155	155	154	153	152	154	154	155	154	152	157	155	155	155	156	155	154	154	154	154	156	156	157	156	157	158	158	157	154	154	154	153	153	154	154	154	153	153	153	156	156	154	157	157	157	159	159	158	158	158	157	157	157	156	157	157	157	157	156	156	157	157	157	157	159	160	158	155	154	154	155	158	157	156	156	157	157	158	158	157	157	157	155	154	157	157	158	157	159	160	161	158	159	159	160	158	159	160	158	157	156	161	158	160	158	158	158	160	162	163	162	157	159	157	159	160	159	158	158	159	158	160	161	161	161	161	162	162	163	164	164	164	163	163	162	161	162	162	162	159	160	161	160	160	159	159	163	164	161	162	161	161	162	163	164	162	162	159	159	159	160	160	161	161	162	162	161	162	163	162	162	161	161	162	162	162	161	161	161	160	160	159	161	160	160	160	162	160	163	163	164	163	162	163	164	164	164	165	165	165	164	164	164	163	163	163	162	163	162	164	165	165	164	164	163	164	164	167	166	163	163	166	168	168	166	165	165	163	164	164	164	164	164	165	164	164	164	165	167	164	164	165	161	161	164	163	164	164	164	163	164	165	164	162	161	164	162	161	162	164	165	166	166	166	164	163	163	163	164	164	163	163	164	164	166	166	166	165	164	163	164	164	164	164	163	161	161	164	164	165	164	165	165	165	165	166	164	164	164	164	162	162	166	167	167	165	164	164	164	164	164	165	164	163	163	164	162	160	161	161	163	163	163	162	162	161	161	161	161	162	162	159	158	164	164	164	165	165	165	160	161	162	164	165	165	165	165	162	162	164	163	162	162	162	160	161	164	163	162	165	162	165	164	163	162	161	161	161	161	162	161	162	163	164	164	164	165	164	163	163	161	160	159	161	161	163	160	160	160	160	160	162	160	162	162	161	164	161	164	162	160	160	162	163	161	163	163	161	161	161	163	163	162	162	162	162	162	161	162	162	162	160	159	160	161	161	161	161	161	159	161	160	160	159	161	161	161	161	161	160	160	161	161	161	162	160	160	158	160	159	157	158	157	158	159	158	158	160	160	160	160	160	161	162	162	161	157	157	160	161	159	157	158	159	160	160	158	157	158	159	160	159	157	155	155	154	157	155	155	155	158	155	155	155	155	155	155	155	155	154	155	154	154	153	153	153	153	153	153	152	151	152	152	152	153	153	153	154	155	154	154	154	152	152	152	151	151	150	151	154	154	155	154	154	153	153	152	153	153	151	152	155	152	153	151	151	152	152	151	150	149	149	151	149	148	148	150	150	150	149	149	151	150	150	149	149	150	151	151	150	150	151	150	147	148	148	149	149	149	149	149	149	148	151	150	150	149	148	147	148	146	145	145	146	147	148
152	152	150	151	151	151	151	149	150	148	151	152	152	152	153	151	151	150	150	153	153	153	153	153	151	152	153	153	154	155	154	154	155	155	153	155	155	154	154	154	153	152	153	155	155	155	154	152	153	154	155	155	154	154	151	152	155	153	153	154	155	154	154	154	156	156	156	156	156	156	156	155	156	153	153	153	154	154	154	155	153	154	156	156	156	156	155	157	156	158	159	158	157	158	156	156	157	157	156	158	157	156	156	156	155	156	157	157	159	155	157	157	154	155	155	156	156	155	155	156	156	156	157	159	158	157	156	157	157	157	159	157	157	160	159	157	156	156	158	158	157	157	157	157	154	158	158	157	159	159	157	157	159	162	159	157	159	157	157	158	158	159	157	158	158	159	160	161	161	159	161	162	162	162	162	160	160	159	160	160	160	160	161	159	159	159	160	160	159	159	160	163	161	161	161	160	161	160	163	161	160	160	159	160	160	161	161	159	158	162	161	162	162	165	161	161	160	161	161	161	160	162	161	162	161	159	160	160	160	160	160	159	161	162	162	162	161	161	163	163	163	161	159	163	163	163	163	164	163	163	163	163	162	164	164	163	163	162	163	163	164	164	165	163	161	164	165	168	168	165	163	161	160	161	163	164	164	164	164	163	162	164	166	164	163	161	160	162	159	161	163	164	164	161	162	161	162	161	162	163	164	160	161	164	164	164	168	165	164	162	163	163	163	163	162	162	163	162	166	166	165	166	163	164	163	163	164	165	162	160	161	161	163	163	164	165	165	164	165	164	164	163	162	162	163	161	162	164	165	167	164	162	162	161	162	163	163	162	163	163	161	161	161	161	161	161	161	160	160	162	163	161	162	163	162	160	159	162	163	164	165	164	162	161	161	161	162	164	164	165	162	163	161	164	164	163	164	162	162	161	160	163	164	162	164	162	163	161	161	163	161	161	161	161	161	161	162	163	163	162	163	164	163	164	163	162	160	161	163	161	160	159	160	160	161	160	160	162	162	162	162	163	163	163	160	160	160	160	163	163	162	162	161	161	160	162	161	161	161	161	161	162	161	161	161	160	159	158	160	160	160	161	161	161	161	161	160	161	161	160	160	160	160	160	160	160	161	160	161	161	159	160	157	157	157	158	159	161	161	161	160	159	158	157	158	158	158	158	157	159	156	155	154	157	159	158	158	159	159	158	158	157	158	158	160	159	157	156	155	157	154	154	154	154	155	155	155	155	155	154	155	154	154	153	154	154	156	155	154	155	154	154	152	153	152	151	152	153	152	152	152	151	153	153	153	154	153	154	154	154	153	152	154	155	154	154	154	153	153	151	151	152	152	153	150	151	151	151	153	152	150	151	150	149	150	151	151	150	150	149	149	149	150	148	149	148	148	150	149	148	150	150	151	150	151	151	148	147	146	148	148	148	149	149	149	149	146	145	145	147	149	149	148	146	146	146	146	145	145	147
152	148	150	152	151	151	147	149	148	148	150	152	152	151	151	150	150	150	154	153	153	153	152	152	153	152	153	153	153	154	154	154	153	153	154	152	155	155	154	154	152	151	151	154	155	155	154	155	154	153	154	153	153	153	151	151	153	153	154	154	155	155	156	156	156	155	155	156	156	154	155	154	154	153	151	151	153	154	155	155	153	157	157	158	155	156	156	156	157	155	156	156	157	156	155	155	156	157	157	158	157	156	154	155	156	156	155	157	155	154	157	158	158	155	156	156	157	156	156	156	156	156	157	157	158	158	158	157	157	157	155	156	157	158	158	157	155	157	158	158	157	157	157	156	157	157	157	156	157	157	156	157	157	157	157	158	158	157	157	157	157	156	157	158	157	159	160	161	161	159	160	160	160	160	160	159	160	160	160	160	159	158	158	158	158	159	159	160	159	157	157	159	162	161	160	161	159	159	160	160	160	159	160	161	161	160	159	159	158	160	161	162	161	164	162	162	161	160	160	162	162	164	163	162	162	160	161	161	161	161	162	161	162	162	162	161	161	160	163	163	160	159	159	160	162	163	162	164	163	161	160	162	162	162	163	163	163	161	163	163	164	163	162	162	160	163	164	165	167	163	161	160	158	160	161	163	163	164	164	164	163	161	165	164	162	160	159	161	160	161	161	162	163	161	160	162	161	161	162	162	162	160	163	163	162	162	163	168	163	162	162	162	162	162	162	162	162	161	164	166	165	166	163	162	162	163	164	166	162	160	160	160	161	162	163	164	164	163	163	163	163	162	163	161	161	163	161	161	161	164	162	161	160	160	162	162	161	163	163	162	161	161	161	161	161	161	159	160	160	162	161	162	163	163	164	163	162	162	163	164	163	164	162	160	160	161	162	162	162	163	164	161	162	164	165	165	162	163	160	162	161	161	161	161	162	161	160	160	161	163	162	161	161	160	160	160	163	163	163	163	162	164	164	164	164	164	163	162	163	160	160	159	161	160	160	160	161	161	163	163	162	162	161	159	156	159	162	161	162	162	162	163	162	160	162	162	162	163	163	161	160	160	162	161	160	160	159	159	159	160	161	162	163	162	161	162	161	161	161	161	161	162	160	160	159	159	160	161	161	160	159	160	158	157	157	159	158	159	158	161	158	158	158	158	157	157	160	158	157	157	156	157	154	157	157	157	157	156	159	159	159	158	157	157	157	157	156	156	158	157	157	156	156	155	155	157	157	155	155	153	154	153	153	153	154	155	154	153	153	155	154	154	152	151	152	151	152	153	153	153	152	152	150	151	153	153	154	154	154	154	152	154	154	152	153	154	152	153	150	150	151	152	151	153	152	150	150	152	152	152	151	150	149	150	150	151	151	151	150	150	150	149	149	148	148	148	148	148	146	148	148	148	147	149	150	150	148	147	146	148	148	148	149	148	148	146	146	146	146	146	146	145	148	148	148	148	148	147	150	145
148	150	153	152	151	147	147	146	147	150	147	150	152	149	149	150	150	154	153	152	153	153	152	151	151	151	152	153	151	151	154	151	151	149	149	151	153	154	155	152	152	151	153	154	155	155	155	153	150	152	153	154	154	153	150	150	152	153	153	153	155	156	156	156	154	153	153	153	153	154	154	154	154	152	151	153	153	154	154	155	156	156	156	155	156	156	156	156	155	155	155	156	156	156	155	154	153	155	157	157	155	156	154	155	157	156	155	157	154	154	157	157	157	158	158	157	157	156	156	156	155	156	158	159	156	157	156	156	157	156	158	156	155	158	158	157	157	157	157	156	156	155	154	156	158	156	156	155	155	157	156	156	157	157	157	157	157	157	157	157	156	156	156	156	156	158	160	160	159	158	158	159	158	158	159	159	159	158	157	158	157	157	157	159	157	158	159	159	160	158	158	160	159	160	160	160	159	159	159	159	159	160	161	161	161	159	159	160	160	160	161	161	161	159	159	159	160	159	162	161	162	164	162	161	160	161	161	162	162	162	161	161	162	163	162	162	159	159	160	161	160	161	162	161	162	162	163	163	162	160	160	162	162	163	163	164	163	162	160	161	160	161	162	161	160	162	163	164	164	165	159	157	158	159	161	162	163	164	164	164	164	162	162	163	161	162	159	161	162	161	161	162	163	161	161	161	161	161	162	162	160	164	165	163	162	162	163	162	162	161	161	161	160	163	164	162	161	164	164	163	166	163	163	161	161	162	165	166	161	160	159	160	162	163	162	162	161	162	163	161	162	161	161	161	162	163	160	163	163	162	161	160	160	160	159	161	162	162	164	162	161	162	160	160	160	160	160	161	161	162	162	163	163	163	164	163	163	163	163	163	163	163	161	161	160	159	157	159	161	159	160	161	161	163	164	165	163	162	163	164	167	167	163	161	161	161	160	160	162	164	162	159	160	160	161	161	160	161	162	162	160	162	162	162	164	164	163	161	160	160	160	161	161	160	160	160	161	163	163	162	162	158	156	157	156	161	161	161	161	160	161	163	162	161	161	161	164	162	162	160	159	160	160	160	160	159	159	157	158	158	160	161	160	160	161	163	160	160	160	160	160	158	161	161	160	158	158	160	160	160	159	159	158	157	159	158	158	156	160	158	157	157	157	156	158	158	160	158	156	154	156	155	156	158	157	157	158	157	157	158	158	158	157	157	157	157	156	155	157	157	156	155	156	155	155	154	156	156	155	154	154	155	154	154	154	154	153	152	152	153	154	154	153	153	151	151	154	154	154	153	152	152	151	150	152	153	153	152	152	153	153	153	152	152	152	152	151	151	151	150	149	151	152	152	154	154	153	151	151	151	152	150	149	150	150	151	151	151	150	150	150	149	149	149	148	147	148	147	146	147	147	147	147	148	149	149	147	148	145	145	148	148	148	146	146	146	146	146	146	147	146	148	147	146	146	146	147	146	147	144
150	153	153	153	152	150	150	146	146	147	147	150	149	150	149	149	152	152	152	152	151	151	152	148	148	149	150	151	151	152	151	149	149	150	150	151	153	154	152	151	151	152	150	151	153	152	152	153	150	150	152	152	153	153	150	150	151	152	153	154	154	154	155	153	154	153	153	154	154	154	152	153	152	151	152	153	154	154	154	153	156	156	154	154	155	155	155	155	153	155	155	155	156	156	154	153	153	155	156	156	156	154	156	156	156	156	155	156	154	157	156	157	157	156	158	158	157	156	156	156	156	155	155	158	158	157	157	156	156	155	157	156	154	155	157	157	156	155	155	155	154	154	154	154	157	157	156	155	155	155	156	156	157	156	155	156	157	154	155	156	156	157	156	155	155	157	157	159	157	155	157	158	158	158	158	157	155	157	156	156	156	158	157	157	157	158	158	159	160	159	160	160	159	159	160	160	162	159	159	160	161	160	160	161	159	159	160	158	156	157	159	159	158	158	158	158	159	161	161	161	161	160	160	161	161	161	160	160	162	163	162	162	161	162	162	161	159	159	158	161	160	161	162	162	162	163	162	163	162	160	164	163	162	162	163	164	162	163	160	160	160	159	160	160	161	160	162	163	162	163	162	162	159	160	161	165	164	164	164	162	163	161	161	158	161	161	164	164	163	161	161	162	161	166	163	164	162	160	161	162	162	164	163	163	161	160	160	161	161	161	161	160	161	162	161	162	163	163	162	164	164	162	163	162	162	162	163	164	160	159	159	161	163	163	163	162	161	161	162	162	162	161	159	162	161	162	163	161	161	162	162	160	160	160	160	159	160	165	167	162	161	162	160	160	159	158	160	160	161	160	162	163	163	161	163	162	162	161	162	162	162	163	164	161	160	160	162	160	160	158	159	160	161	163	165	164	164	163	163	164	167	165	164	163	164	161	160	161	162	164	161	162	160	160	163	161	160	160	163	161	160	161	161	163	163	163	163	162	162	163	161	160	160	159	160	159	161	161	161	161	162	157	158	158	159	162	161	162	162	158	161	160	161	162	162	162	161	161	160	159	159	160	160	160	160	158	156	156	158	157	158	159	158	159	158	159	159	159	159	159	160	157	160	158	158	157	158	159	158	158	158	161	161	157	157	158	158	158	158	154	157	155	155	157	157	157	157	157	156	156	154	156	157	157	158	158	157	157	157	157	157	156	156	157	157	156	156	155	156	154	154	153	153	154	151	154	154	155	155	155	155	154	154	154	153	153	152	154	153	152	154	153	152	151	152	152	152	153	153	152	152	152	151	153	150	151	150	150	149	151	151	152	150	150	151	150	150	150	150	148	149	150	151	149	149	149	149	149	149	149	149	149	148	150	150	150	149	150	150	149	149	150	149	150	150	149	149	147	147	147	147	146	147	147	148	148	148	147	147	147	147	148	146	146	146	148	148	147	147	146	146	148	146	144	144	145	145	144	142	143
149	152	153	153	152	150	149	149	147	147	150	150	149	150	149	149	149	150	150	151	150	150	150	149	147	147	148	150	152	153	153	152	150	149	149	149	149	150	152	150	150	150	149	150	150	151	151	151	150	151	151	153	152	152	151	151	152	152	153	153	151	151	152	153	151	152	152	153	152	152	152	152	152	151	152	153	154	153	153	154	150	151	154	152	153	154	153	152	152	152	152	151	151	156	155	153	152	155	155	155	154	154	154	155	157	156	155	157	156	155	156	155	155	156	156	156	156	155	155	155	155	152	152	155	156	158	159	156	156	155	154	155	155	154	153	154	153	155	155	154	155	152	156	153	155	157	154	155	154	155	155	156	156	156	156	156	157	154	156	156	156	156	157	156	156	156	156	157	157	155	156	157	157	158	157	154	154	155	156	157	157	156	156	155	156	157	159	157	160	161	160	162	157	157	158	159	160	161	160	160	161	161	160	160	158	159	158	159	158	156	158	160	158	158	158	158	159	160	161	160	160	158	159	160	160	161	160	161	161	162	162	162	162	161	161	159	159	159	161	162	161	160	161	162	162	161	159	160	161	163	163	163	163	162	161	161	162	163	160	160	161	159	159	158	160	161	162	163	162	162	163	161	163	161	160	164	163	164	163	163	161	161	161	160	158	161	162	162	160	161	161	164	164	164	164	163	163	162	161	162	162	164	163	162	162	160	160	159	159	161	162	162	162	161	161	162	162	161	161	162	162	161	161	161	162	162	163	162	158	160	161	163	163	164	163	162	161	162	162	162	161	159	159	159	160	161	162	162	163	162	162	160	160	160	160	159	159	159	164	162	161	159	160	158	159	159	160	160	160	160	160	160	162	160	159	161	163	162	161	161	161	161	163	164	161	160	162	160	161	161	160	159	163	163	163	163	161	162	162	162	165	165	163	163	163	162	160	162	160	160	161	160	160	160	162	160	160	158	160	160	161	161	161	163	163	163	160	162	162	161	160	159	159	159	159	160	160	161	161	160	158	157	157	157	160	161	162	162	162	160	161	161	160	160	160	160	161	158	159	159	159	160	160	159	159	157	156	158	159	158	158	158	159	158	160	158	156	157	158	158	158	158	159	160	158	158	157	158	158	158	158	159	160	159	158	158	156	157	157	154	153	154	155	156	156	155	157	157	157	156	156	156	156	157	157	158	157	157	156	156	155	155	155	155	156	156	156	156	153	152	152	153	153	153	151	152	152	154	155	154	155	154	153	155	153	152	151	150	150	150	151	152	151	151	151	152	151	151	152	151	151	151	152	151	153	152	151	151	149	148	149	150	150	150	150	150	150	150	150	150	149	151	150	150	148	148	148	147	147	148	148	147	148	149	150	150	149	149	149	149	148	149	148	149	150	149	149	147	147	148	147	146	149	147	147	148	147	147	147	147	146	145	146	146	146	147	147	146	146	147	146	145	145	145	145	145	146	144	142	143
149	150	151	151	152	150	150	150	149	146	146	146	149	150	149	150	150	149	150	150	150	149	150	148	147	147	148	150	152	153	153	153	150	149	149	149	149	150	151	149	150	150	148	149	149	149	150	150	150	151	151	152	152	152	152	152	152	153	153	153	150	150	151	153	150	152	153	153	152	152	152	152	152	153	153	154	154	154	154	153	150	151	154	152	152	152	153	153	152	152	151	153	153	151	154	151	150	154	155	154	152	154	154	155	155	156	155	155	155	155	155	154	153	155	156	155	156	153	152	154	154	156	155	156	156	155	155	157	154	152	152	153	153	154	154	152	153	155	157	154	154	154	155	155	158	157	157	154	154	155	155	158	158	155	156	157	158	159	157	156	156	156	156	156	155	156	157	157	157	154	156	156	156	156	155	156	155	156	156	156	155	154	155	155	156	157	158	157	158	159	159	159	159	157	157	159	159	160	160	160	160	159	159	159	158	157	159	159	159	155	158	158	157	158	158	160	160	158	160	160	161	161	161	160	160	160	160	162	161	162	162	163	160	159	159	159	159	159	160	162	161	161	162	161	161	160	161	160	161	161	160	162	161	160	161	161	162	163	161	161	160	157	159	160	159	160	161	163	163	162	162	164	164	162	160	161	162	162	163	163	160	160	160	160	160	160	160	160	160	161	163	162	164	164	164	163	162	161	161	161	162	163	163	162	161	161	161	162	160	160	162	162	162	161	160	161	162	161	162	161	160	160	160	161	161	162	162	162	161	161	163	163	162	162	163	161	161	160	158	160	161	159	158	160	158	160	161	160	158	158	158	158	159	160	160	159	157	157	158	162	160	158	159	158	157	155	158	159	159	160	159	159	159	159	159	157	160	161	161	161	160	160	164	165	160	160	160	160	161	161	161	161	162	162	162	161	162	160	160	162	164	164	163	163	164	164	161	160	157	157	158	159	161	161	162	162	159	160	160	160	161	160	159	160	161	162	161	158	160	160	159	159	159	159	160	161	161	160	161	160	158	157	156	158	159	159	160	161	161	161	161	160	161	160	159	158	158	158	159	159	159	160	159	158	160	157	156	158	158	158	158	158	158	161	158	156	156	156	157	158	158	159	158	158	157	157	157	157	156	156	156	157	158	158	156	157	157	156	157	153	158	153	155	156	157	157	157	158	157	155	155	155	156	155	156	156	155	155	156	155	155	154	154	154	155	154	155	152	152	152	152	152	153	153	151	151	151	153	153	154	154	153	152	152	152	152	151	150	150	150	151	152	152	151	152	151	151	151	150	150	150	150	150	152	152	151	151	150	149	148	149	150	150	150	150	150	150	150	149	150	150	151	151	150	148	148	148	147	146	147	147	148	148	146	150	148	148	148	148	147	147	147	148	148	149	149	150	149	149	148	147	149	147	148	150	149	147	147	147	147	145	146	146	146	147	147	149	146	146	146	146	146	146	144	146	146	145	143	143	143
148	148	149	151	151	149	150	147	147	145	145	148	148	150	149	146	146	147	148	148	149	149	150	150	150	151	151	152	152	153	153	151	149	150	149	152	152	150	150	149	147	147	147	147	148	149	150	150	150	151	150	150	151	152	153	153	152	152	153	150	149	151	151	150	151	152	153	154	152	151	151	152	151	152	153	155	153	152	151	151	151	151	152	152	152	151	152	152	153	152	152	153	153	153	151	151	150	152	153	154	152	154	153	153	154	155	155	155	153	151	154	154	155	154	155	153	155	153	153	154	154	155	155	156	156	154	155	156	154	154	153	153	153	152	152	152	155	157	154	155	154	155	156	155	157	158	158	155	154	154	153	154	158	156	156	158	159	159	156	154	156	155	156	156	155	156	157	157	158	157	156	156	156	156	156	155	157	157	157	155	156	154	155	155	157	157	157	154	157	159	159	159	159	158	156	158	158	158	160	161	159	158	159	158	158	155	156	160	159	157	157	156	156	158	158	159	161	159	158	158	159	162	162	160	160	160	160	162	160	161	161	162	162	159	158	158	159	159	159	161	161	161	161	161	160	159	159	160	159	159	160	159	158	158	160	161	161	162	163	159	158	157	157	160	163	160	158	160	161	161	160	161	164	163	161	160	160	161	161	160	161	159	161	160	159	159	158	159	159	161	161	162	163	162	160	158	162	161	161	160	160	161	161	161	160	162	161	161	163	163	164	162	163	161	161	160	162	162	160	160	160	160	161	161	161	161	161	163	162	161	161	162	162	161	161	162	162	162	158	158	159	159	158	157	158	159	158	160	160	160	160	159	158	160	160	160	157	157	161	160	158	157	157	159	157	157	155	158	158	157	157	157	157	156	155	157	160	161	161	161	161	160	164	163	158	160	159	159	161	161	160	159	159	160	160	159	160	159	159	160	163	163	163	158	158	161	160	160	159	159	159	159	158	159	159	159	159	159	160	161	160	161	159	158	160	160	161	159	159	159	159	158	157	157	161	159	158	161	161	161	158	157	158	157	159	158	156	160	160	161	160	159	160	160	160	156	158	158	157	157	159	160	158	157	157	157	156	157	158	158	156	157	156	157	156	156	157	158	158	158	158	158	157	157	157	157	157	157	156	156	156	156	156	156	156	156	157	156	156	157	158	157	156	156	156	157	157	158	155	154	155	155	154	155	155	155	154	155	156	155	153	154	154	153	153	154	155	152	152	151	150	152	151	152	151	150	151	153	154	153	152	151	149	152	151	151	151	149	150	150	150	151	151	151	151	149	151	151	150	150	150	148	148	151	153	151	150	148	148	149	150	150	150	149	148	148	149	150	148	148	148	148	147	149	148	148	148	148	147	146	146	147	144	146	149	149	149	149	148	146	146	147	148	146	147	149	149	150	148	146	148	148	150	149	149	147	147	146	147	147	146	146	146	146	146	147	148	147	146	146	146	144	144	145	145	146	145	145	145	143
146	147	148	150	150	149	147	144	144	146	147	147	147	150	147	146	146	146	147	148	149	149	150	150	150	148	148	149	151	151	151	151	149	149	151	151	151	151	150	148	147	146	146	146	147	149	149	150	150	150	150	149	151	152	153	153	152	150	151	149	149	150	151	151	151	152	151	151	148	149	149	149	151	152	155	154	152	152	151	151	151	151	151	151	151	152	152	151	152	151	151	151	149	152	153	151	150	152	153	152	152	151	151	151	151	152	152	153	152	152	153	154	153	153	152	152	154	154	155	154	156	156	152	152	151	152	154	155	155	155	153	153	152	152	152	153	154	154	154	154	155	155	155	156	158	157	154	156	154	154	152	157	156	157	157	157	159	156	155	154	155	155	156	156	156	155	157	157	157	157	156	155	156	156	156	155	157	157	157	157	158	157	157	157	157	157	155	154	155	155	159	157	157	156	156	156	156	158	160	160	156	159	158	158	157	158	160	160	159	158	156	155	156	158	159	161	159	159	158	159	158	159	160	160	160	159	160	159	158	161	161	161	157	159	158	159	159	159	159	161	161	161	161	161	161	159	159	158	160	160	160	159	158	158	158	159	160	162	160	159	157	157	158	160	157	158	160	160	160	159	160	160	163	162	162	161	159	158	159	160	160	159	159	161	160	160	159	158	159	161	161	161	161	160	161	158	159	164	161	161	161	161	161	160	159	163	163	161	163	163	163	164	163	162	162	161	160	159	158	158	159	160	160	160	163	163	161	160	160	160	161	163	163	162	161	161	161	163	162	161	159	158	157	157	157	157	157	157	159	160	161	159	159	160	163	160	158	158	159	156	158	159	156	156	159	161	159	160	156	156	158	160	157	157	157	159	159	160	160	160	161	160	160	162	162	159	160	160	160	161	160	160	160	160	159	159	160	160	159	159	160	160	159	158	161	159	160	161	161	159	161	160	160	159	159	160	160	159	159	159	159	157	159	157	155	156	156	158	159	159	159	159	158	155	158	158	156	157	156	158	157	157	158	158	156	157	157	157	159	159	160	160	159	159	159	159	155	155	155	155	157	160	158	158	157	157	158	157	158	156	157	156	156	157	157	156	159	158	158	158	157	157	156	156	157	158	157	155	155	155	156	156	155	155	155	155	156	156	154	155	156	156	157	156	156	156	156	155	153	152	154	155	154	155	155	155	153	155	156	154	152	153	153	153	154	153	154	154	153	151	151	151	151	151	152	150	152	153	153	153	151	150	149	152	152	152	151	150	151	149	151	151	151	152	152	149	149	149	149	149	147	149	148	149	148	146	145	146	147	149	150	151	150	149	148	148	147	149	147	149	149	150	148	146	147	146	145	148	145	145	146	147	145	146	146	146	148	147	148	148	146	145	146	146	146	146	149	149	147	147	147	148	148	147	145	145	147	146	147	146	145	146	146	146	146	147	147	147	146	146	145	145	146	144	146	146	146	145	145	144
146	146	150	148	146	146	147	145	146	146	146	147	148	148	147	146	146	146	147	147	149	149	149	146	146	147	148	148	149	149	149	149	149	149	150	150	150	150	149	147	146	146	148	148	149	150	148	150	151	151	149	149	150	151	150	149	149	150	149	149	149	150	151	151	150	149	151	152	152	152	151	151	151	151	154	154	151	150	150	150	151	151	150	150	151	152	153	152	152	150	149	149	149	152	154	151	151	152	152	151	151	150	150	150	151	151	152	151	151	152	154	154	153	152	152	153	153	154	154	154	153	153	152	154	154	154	156	155	155	154	153	153	153	154	154	154	154	152	153	154	156	154	154	156	155	156	155	154	153	153	154	154	154	153	155	156	156	155	154	153	153	154	156	156	156	156	154	156	157	157	156	155	156	157	155	156	157	156	159	158	155	156	156	155	156	156	154	154	153	155	156	156	157	157	157	155	157	158	157	158	156	159	158	158	158	159	159	160	159	159	158	154	154	156	158	160	160	159	159	159	159	158	158	159	160	158	159	159	158	157	158	159	156	156	158	157	157	159	159	161	161	161	161	161	160	158	158	158	159	159	159	157	157	157	158	159	160	160	159	158	158	159	160	160	160	158	158	159	158	158	157	158	160	161	161	160	158	158	159	159	160	158	159	161	161	159	159	159	159	160	159	161	159	159	159	158	159	162	163	161	161	159	160	161	159	162	162	163	160	161	162	163	161	161	161	159	158	157	159	159	158	157	160	161	161	162	160	159	160	160	163	164	164	162	162	162	162	163	162	160	161	158	158	158	161	163	161	161	160	161	161	159	159	160	161	162	160	159	158	159	159	159	157	157	158	159	161	162	158	158	161	159	159	159	157	159	160	159	159	161	161	160	161	162	161	160	159	157	159	160	159	160	160	161	160	159	160	161	159	159	158	158	157	158	160	160	159	159	157	158	158	160	161	161	161	160	160	159	158	158	158	157	159	156	156	156	158	158	158	158	158	158	157	155	155	156	156	156	155	157	157	157	156	155	156	156	157	157	158	159	159	159	158	157	157	156	155	157	155	156	155	154	158	157	157	157	158	158	158	157	156	156	156	156	156	158	158	158	158	157	156	155	156	156	158	158	156	154	153	156	156	154	154	153	154	155	154	152	153	155	156	156	156	153	153	153	153	155	152	150	151	154	155	154	151	155	155	152	153	153	154	153	153	153	153	153	154	154	154	152	151	153	151	150	152	151	152	154	153	152	152	150	150	149	148	150	152	151	151	150	151	151	150	149	149	148	148	148	148	147	148	150	151	149	149	148	146	146	146	149	148	149	149	150	148	149	147	150	147	147	149	146	147	146	147	146	147	148	147	147	147	146	145	145	146	146	147	146	147	147	147	147	145	145	145	146	146	147	148	149	148	146	145	142	142	144	145	148	148	148	146	147	147	147	147	146	146	143	148	145	145	145	144	143	144	145	146	146	145	143
144	144	149	147	145	145	145	145	147	147	148	148	149	146	146	146	146	147	147	147	148	148	146	146	146	146	147	147	147	148	148	149	149	150	149	149	149	148	148	147	146	146	148	148	148	149	149	150	150	149	149	149	152	151	151	148	149	149	149	149	150	150	151	149	149	149	150	151	151	151	151	150	150	151	150	151	151	150	148	150	151	149	149	150	152	151	152	152	151	150	149	149	151	151	153	152	152	152	152	152	152	150	150	150	151	152	152	152	153	152	152	153	154	153	153	154	152	154	152	152	151	151	151	153	153	156	156	155	155	154	153	152	153	154	153	154	153	154	155	155	153	155	154	155	156	155	153	153	153	153	154	154	153	153	154	154	155	155	153	153	152	154	155	154	156	155	154	157	157	156	155	156	156	155	157	157	158	157	158	157	155	157	156	155	155	156	153	154	154	155	155	156	157	157	157	156	157	156	157	157	157	158	158	158	157	157	157	160	159	159	158	156	154	155	159	159	159	160	160	160	157	158	155	157	160	160	159	157	156	156	158	158	157	159	158	157	157	158	160	161	162	161	159	160	160	158	157	157	159	159	158	159	160	160	159	158	158	159	158	158	159	160	161	160	159	160	159	159	158	158	159	160	159	162	162	160	159	159	159	159	158	158	159	160	161	160	160	160	160	160	159	159	160	159	158	159	160	162	160	161	159	158	160	160	160	162	162	162	162	160	160	161	159	159	160	160	158	157	159	160	158	158	158	161	161	160	159	160	160	163	162	162	161	161	161	161	160	159	159	160	160	160	159	159	162	161	161	160	161	163	163	162	161	163	161	160	160	158	158	159	160	159	160	160	161	160	161	160	157	158	159	160	160	159	160	159	158	158	158	161	161	160	160	160	160	160	158	159	158	157	157	156	160	158	158	159	159	159	157	157	156	158	158	158	159	159	159	159	159	157	158	157	157	158	158	159	160	158	158	159	158	158	157	156	157	158	158	156	156	156	156	157	157	157	156	155	155	157	156	155	157	156	155	155	155	156	157	157	157	157	157	157	158	158	157	157	156	157	157	157	157	154	154	154	159	157	157	156	157	158	156	156	156	155	156	156	157	158	157	157	156	156	155	155	157	156	156	153	153	154	154	154	155	154	155	155	152	152	153	155	155	156	154	152	152	153	153	154	151	150	151	150	152	153	152	150	151	152	152	152	152	153	153	153	154	154	154	155	155	153	152	150	150	152	152	154	153	152	153	152	151	151	150	150	151	151	151	152	151	149	151	149	149	149	149	149	148	148	150	150	150	150	150	149	150	148	147	146	146	149	147	149	149	148	149	149	150	148	150	148	147	148	146	146	147	146	146	147	147	147	147	146	146	146	146	146	147	146	146	146	147	147	146	145	145	145	147	148	148	148	147	146	145	143	143	143	145	147	148	146	145	145	145	147	147	146	144	143	143	144	144	146	146	144	144	145	145	146	145	143
144	146	146	145	145	144	144	146	147	148	148	149	148	146	146	146	146	147	147	147	147	147	148	148	146	146	148	146	146	146	148	148	150	150	148	149	149	148	146	146	148	146	148	148	148	149	150	150	148	148	149	149	152	151	149	149	149	150	150	152	153	153	151	149	147	147	150	150	150	151	150	149	148	148	149	150	151	148	148	150	147	148	148	150	151	151	152	152	151	150	150	150	150	150	149	149	151	151	152	152	151	150	150	150	152	151	151	151	153	151	151	150	151	153	154	154	153	151	148	150	148	148	151	153	153	154	153	155	155	154	152	152	153	153	153	152	153	153	153	152	152	153	154	154	154	154	154	151	152	152	154	151	152	152	152	152	154	154	153	153	152	154	152	153	153	154	156	156	156	156	155	155	156	156	155	157	156	157	156	156	155	154	155	154	155	154	154	154	155	156	156	157	158	156	155	155	155	156	155	155	156	157	157	158	157	158	156	157	156	158	158	157	155	155	159	160	160	161	160	158	157	157	157	155	156	157	156	157	157	157	156	158	157	158	157	156	157	158	159	161	161	161	161	159	160	159	160	160	159	158	158	159	159	158	158	158	158	157	158	158	159	161	160	159	159	160	160	158	159	159	160	159	161	159	158	161	159	159	159	159	159	158	160	161	160	161	160	161	163	163	160	159	160	160	160	160	160	161	160	158	158	160	159	160	162	161	160	161	162	160	160	160	161	159	160	159	159	160	159	158	159	158	158	158	159	159	157	161	160	161	161	160	159	160	161	161	159	159	158	158	159	160	160	163	160	159	159	158	162	160	162	164	163	163	161	160	159	159	159	160	161	159	159	159	159	159	160	158	157	158	159	160	161	158	159	159	158	158	157	157	156	158	160	159	157	156	157	157	157	157	159	159	161	159	159	158	159	158	156	156	157	157	156	157	156	157	159	158	158	158	156	157	157	158	158	158	159	159	158	159	159	158	158	158	155	157	156	156	156	156	156	155	157	157	157	155	155	157	156	156	155	156	155	156	156	157	156	155	154	155	155	157	157	157	156	158	158	157	154	153	154	156	156	156	157	156	156	157	157	156	156	155	155	155	154	155	156	157	158	155	155	155	155	155	154	154	156	153	154	154	154	154	154	155	155	153	152	153	153	155	155	154	153	151	151	151	152	152	151	150	149	150	150	151	151	153	151	152	152	152	152	153	153	153	153	154	153	153	153	153	152	150	151	152	152	153	153	152	151	150	152	151	150	151	150	149	151	152	150	150	150	149	149	149	149	148	150	148	150	151	150	150	150	149	148	148	147	146	148	147	148	149	149	146	149	149	147	150	148	147	146	146	145	148	148	146	145	146	146	145	146	146	146	146	146	146	146	146	146	146	147	146	146	146	145	147	148	147	146	146	147	146	143	143	143	143	145	148	147	145	145	145	145	145	146	146	144	143	143	143	144	144	144	143	144	144	145	146	144	143
143	146	142	144	143	146	146	147	147	148	148	148	149	147	146	146	145	146	147	147	148	148	149	150	150	146	148	146	144	144	145	146	148	148	148	148	149	149	147	147	146	147	149	148	147	147	149	148	148	148	147	147	148	151	148	149	150	150	150	151	151	152	148	149	147	148	148	149	148	148	148	148	148	149	149	149	150	151	148	149	150	150	150	150	151	151	152	152	152	152	152	151	149	149	149	149	152	153	153	152	153	150	145	146	147	152	153	150	150	151	152	151	151	152	151	152	151	148	149	148	148	149	151	152	154	153	153	151	151	151	152	150	152	153	150	151	151	153	152	152	151	151	153	153	153	153	152	153	154	152	151	152	152	154	153	152	151	152	154	153	151	154	152	152	152	156	154	155	155	155	154	155	155	155	155	155	156	158	158	156	155	155	154	153	153	154	155	155	155	155	155	157	156	155	155	154	155	154	155	153	154	155	156	156	158	159	155	157	156	156	155	156	156	155	157	160	159	157	158	155	155	157	156	155	155	155	156	155	155	157	157	157	157	158	158	155	154	155	159	160	159	159	159	159	155	155	158	158	158	157	158	158	158	156	156	155	156	156	160	159	156	157	158	159	158	159	158	157	158	156	156	157	158	158	160	159	157	160	160	156	160	159	158	159	159	159	158	158	158	157	158	159	160	159	159	159	159	159	159	159	160	160	160	158	159	158	158	158	160	162	161	160	160	160	160	158	157	157	159	159	162	161	161	162	163	160	159	158	158	159	156	157	158	159	159	159	158	159	160	160	160	160	160	159	158	156	156	156	159	161	161	162	156	159	158	157	156	158	158	160	159	159	158	157	158	159	159	159	158	158	158	156	156	158	157	159	157	157	156	156	156	157	158	158	158	157	157	157	158	159	159	159	160	160	157	157	157	157	157	157	156	156	156	156	156	156	157	158	157	158	157	156	159	158	158	157	155	156	158	158	158	158	157	158	156	156	155	156	156	156	156	156	156	156	156	156	155	157	156	157	156	153	155	157	157	156	155	155	156	156	155	156	156	156	157	158	157	154	155	155	154	155	154	155	155	156	155	155	155	156	156	155	155	154	154	156	156	158	155	155	154	154	154	155	154	152	154	154	154	155	155	154	154	156	152	151	152	153	154	153	151	149	150	151	151	152	153	152	152	151	150	150	152	151	152	152	152	152	152	152	152	153	152	151	153	152	150	150	151	152	152	151	151	151	150	150	149	151	150	150	152	151	151	150	150	149	151	151	149	149	149	148	149	148	148	148	147	147	147	147	147	149	149	149	148	146	146	147	147	147	147	148	150	148	145	145	147	147	147	148	148	148	147	146	146	147	146	146	145	145	145	146	146	145	145	147	145	146	147	148	146	146	146	146	147	147	147	146	145	145	146	144	144	144	144	142	142	143	142	143	145	145	144	144	144	141	143	142	142	143	144	145	143	143	143	143	144	144	143	143
142	142	144	143	144	145	145	145	147	148	145	145	148	148	147	147	147	146	147	147	147	149	150	152	152	150	148	146	146	146	146	147	147	148	148	146	146	147	149	149	149	147	145	147	147	148	148	147	147	149	149	149	149	148	150	150	151	151	151	151	151	150	149	147	147	147	147	146	147	149	150	149	148	150	149	148	150	151	149	149	149	150	149	150	150	151	151	151	152	152	152	152	149	148	148	148	151	152	151	152	152	153	149	149	147	152	152	150	150	150	151	152	151	151	151	151	151	150	148	148	150	149	151	151	153	151	151	150	151	152	150	150	151	150	150	149	149	150	151	150	149	152	152	152	151	152	152	154	154	152	151	151	154	153	154	152	152	151	152	150	153	151	154	152	152	153	155	154	153	154	154	154	154	154	155	154	154	159	159	157	155	155	156	156	153	153	154	155	154	154	155	157	155	155	155	155	156	153	155	153	153	154	155	157	157	159	155	154	157	157	155	155	154	155	157	157	156	158	157	158	156	157	156	156	157	156	156	155	155	155	157	158	157	156	154	153	154	158	158	158	157	156	156	157	157	156	157	158	158	158	157	158	156	156	152	156	156	156	157	157	157	157	158	158	159	159	158	158	157	155	155	156	158	156	156	155	156	157	157	155	159	158	157	158	157	158	158	158	157	157	157	158	158	159	158	159	160	159	159	159	159	159	159	159	159	159	158	158	157	156	158	159	159	159	159	158	157	157	159	159	161	160	159	160	162	160	158	160	160	159	158	157	156	158	159	158	160	160	160	159	158	158	159	159	158	158	155	155	157	159	159	155	157	157	157	157	158	156	157	158	160	159	157	157	157	158	159	160	158	156	157	157	155	158	159	159	156	155	155	155	156	157	156	155	156	155	156	159	159	158	156	158	158	159	159	157	159	158	157	156	156	156	156	156	158	159	158	157	156	156	156	156	154	154	155	155	155	156	155	157	157	156	157	157	157	157	156	155	156	157	157	158	158	158	156	156	156	156	157	156	157	157	156	157	157	156	154	153	157	157	156	156	156	154	156	156	157	156	156	155	155	155	155	155	155	155	155	156	156	156	154	153	155	155	155	155	154	155	155	154	154	153	154	155	155	155	152	153	155	155	154	153	151	153	151	151	152	152	153	153	152	150	150	150	152	153	153	151	151	151	152	152	152	152	152	152	151	153	152	153	151	149	149	151	152	150	151	151	152	150	152	150	150	150	148	147	146	149	148	147	146	151	149	149	150	150	150	150	150	149	148	148	149	149	148	146	148	148	147	147	147	147	149	148	147	146	147	146	147	148	148	148	146	144	144	146	147	147	147	148	147	147	148	146	146	146	145	145	144	145	145	145	145	146	145	146	146	146	148	146	145	145	146	147	146	146	146	145	146	146	145	145	144	143	144	143	144	143	142	143	143	142	141	142	144	141	144	144	142	143	144	144	144	144	144	143	142	142	143	143
142	141	143	143	142	143	143	143	145	145	145	143	145	147	147	146	146	146	147	146	146	146	147	147	146	146	146	145	146	147	147	147	147	147	146	146	145	145	146	149	148	148	146	147	148	147	147	148	149	146	149	149	150	150	150	150	150	151	151	150	150	150	149	149	147	147	148	148	148	149	148	148	148	146	148	148	149	150	148	148	149	150	148	150	150	150	151	151	150	152	153	151	151	150	153	152	152	152	151	151	152	152	149	151	150	151	151	152	151	151	149	149	150	150	151	151	149	150	150	148	150	150	151	150	151	149	151	148	150	150	150	150	150	150	150	150	150	149	149	147	151	152	151	151	150	151	152	154	154	152	152	152	153	154	153	151	151	149	150	151	153	153	152	152	154	154	153	152	152	153	153	153	153	156	154	153	153	153	153	154	155	155	154	156	154	155	153	154	154	154	157	157	155	156	153	157	156	157	157	155	153	154	155	158	158	157	153	153	153	153	153	154	155	156	154	155	157	156	157	157	158	158	158	159	157	158	159	156	156	157	158	158	160	156	155	155	156	156	155	154	156	155	154	155	157	158	157	158	157	157	158	155	155	152	155	156	155	157	157	158	157	157	157	158	159	159	158	157	155	154	155	154	155	156	155	157	158	156	155	155	156	155	157	156	159	156	158	157	158	158	158	158	159	158	158	158	158	158	156	156	153	158	158	158	157	158	158	161	157	157	156	158	158	159	159	158	158	157	158	158	158	157	158	159	160	160	161	160	158	158	157	156	156	156	157	159	160	160	159	159	158	159	159	159	156	155	153	156	158	159	158	156	154	157	157	157	158	158	157	156	157	158	157	157	157	158	156	159	159	156	157	156	158	159	158	158	156	155	156	157	157	156	156	155	156	155	154	155	157	157	155	156	156	157	157	157	159	157	159	157	157	156	156	156	158	158	157	156	156	156	156	155	155	155	155	154	154	155	156	155	156	157	158	158	159	157	155	155	155	157	158	158	157	157	157	156	156	158	157	156	157	156	157	155	156	155	154	155	157	159	158	156	154	154	154	155	153	153	157	158	157	155	156	156	155	155	155	155	154	155	155	155	155	155	155	155	153	153	154	154	153	152	153	154	155	154	154	154	154	153	153	152	153	153	151	151	150	152	153	153	152	151	150	151	153	153	152	151	151	152	152	152	151	151	152	152	152	151	151	151	151	150	149	150	149	150	150	148	149	151	151	149	152	147	147	147	148	149	149	146	146	148	148	148	149	149	150	150	149	149	149	149	148	148	147	147	146	147	147	147	147	146	149	148	144	143	143	144	147	148	148	147	146	146	146	146	145	147	146	146	144	144	144	144	143	145	146	147	146	144	145	145	144	144	145	144	144	147	147	146	146	146	146	146	145	145	146	145	143	144	144	145	144	144	143	144	144	143	142	142	142	143	142	143	144	141	141	141	141	141	143	143	143	144	144	142	141	141	143	141
143	142	144	142	141	140	144	144	144	144	143	145	145	145	146	147	147	146	145	146	145	145	146	147	147	147	148	145	146	146	146	146	145	145	144	145	145	145	146	148	149	149	147	146	146	147	148	148	147	146	149	150	150	150	150	150	150	151	151	151	151	149	149	148	146	147	150	149	149	150	150	148	151	150	151	149	149	149	148	148	149	149	148	148	149	151	151	151	150	148	150	150	151	148	150	150	148	148	148	152	152	149	148	149	149	148	150	150	150	151	148	149	149	150	150	151	149	149	149	150	150	151	149	151	151	148	150	149	151	153	153	150	149	148	148	150	150	150	150	149	149	148	150	150	150	151	151	154	154	153	153	152	153	153	151	151	149	148	150	153	153	152	153	153	154	154	152	153	153	152	152	151	152	154	153	153	153	153	153	154	155	154	154	153	154	154	154	154	155	154	155	155	156	154	156	156	158	158	154	156	155	153	153	155	155	155	155	153	152	154	153	154	152	154	153	154	154	155	157	157	156	159	159	160	159	159	159	156	155	156	157	157	154	157	158	157	156	154	153	155	156	154	154	153	154	157	158	157	157	156	157	153	154	154	154	155	157	157	157	157	158	157	157	157	159	158	156	155	156	156	153	154	157	156	157	157	157	155	155	155	155	156	155	156	158	159	159	156	156	156	156	158	159	158	157	158	158	158	156	155	155	155	155	155	155	155	155	158	160	160	157	156	158	157	158	160	160	157	157	157	157	156	156	159	159	158	157	158	160	156	157	155	156	156	157	157	160	159	160	160	160	159	158	158	159	158	157	157	157	158	156	156	156	156	159	159	159	157	157	156	158	157	158	158	159	158	156	155	156	156	158	157	158	158	158	158	156	156	156	156	157	156	156	155	155	157	157	157	156	156	155	155	156	155	155	157	158	157	157	158	158	158	157	155	155	156	157	156	157	158	157	158	157	155	155	155	155	155	156	156	156	157	157	157	157	155	156	156	155	157	157	157	156	156	157	156	156	158	156	156	155	156	154	154	153	154	153	153	156	156	154	157	156	155	155	154	154	154	154	154	154	154	153	153	154	155	154	154	155	156	155	155	155	154	155	154	154	153	153	152	152	152	154	153	153	153	153	153	153	153	152	152	152	151	150	150	151	153	152	153	153	152	151	151	151	152	150	151	151	152	153	152	150	150	151	153	152	151	150	150	150	150	150	150	150	148	148	148	150	150	150	153	150	152	147	146	149	149	149	147	146	147	146	146	147	147	149	149	148	147	147	148	147	148	150	148	148	147	148	147	147	148	146	147	148	147	147	147	146	148	148	147	147	145	147	146	146	146	145	145	143	144	145	145	145	145	146	147	147	146	145	145	144	144	146	146	146	146	146	146	146	146	145	145	144	145	144	144	144	143	143	143	143	144	145	144	145	145	145	142	140	140	140	142	143	143	143	140	142	142	141	142	142	142	144	143	143	143	142	142
143	143	142	141	141	142	143	142	142	147	145	145	145	145	145	145	145	145	145	145	145	145	146	146	147	146	146	147	146	145	145	145	145	143	143	144	144	145	148	149	148	148	148	148	147	150	148	146	146	146	147	147	146	149	149	150	149	150	149	150	151	151	147	147	147	147	150	148	149	149	151	151	152	152	150	148	149	148	148	148	148	148	148	149	149	149	150	150	148	148	148	148	148	149	151	151	147	147	147	148	149	149	146	148	148	149	148	148	149	149	148	150	150	150	150	150	150	149	148	149	149	150	148	149	150	149	149	148	150	151	151	150	149	148	150	150	150	151	152	150	148	148	149	150	150	152	152	154	155	151	155	153	151	150	151	150	151	153	151	151	153	152	153	154	154	154	152	153	153	153	153	153	153	154	153	154	153	153	153	154	154	153	153	151	153	153	154	153	154	155	154	154	152	153	156	156	158	156	156	152	152	151	152	153	153	153	156	155	153	152	152	153	153	153	154	154	154	154	154	154	155	156	158	158	158	156	156	156	155	155	157	157	152	156	157	154	155	154	153	156	156	154	153	153	153	154	157	157	155	154	154	154	154	153	154	156	156	158	157	156	157	157	156	155	157	156	156	156	156	156	156	157	157	156	156	156	155	155	155	155	155	156	155	158	158	157	158	157	161	161	156	157	159	157	156	156	155	155	156	155	156	156	156	156	154	156	156	155	157	158	157	157	156	156	157	160	157	156	156	157	157	156	156	157	156	157	157	159	158	155	156	155	155	157	158	159	157	159	160	159	159	157	157	156	158	157	157	158	159	158	156	155	155	157	157	158	158	159	158	158	156	158	159	158	157	157	156	155	156	156	154	157	158	158	159	158	157	156	156	158	156	156	157	157	157	156	155	155	156	157	155	157	158	155	155	156	156	154	156	156	158	157	157	156	155	156	156	156	154	156	153	158	157	156	154	155	156	156	156	156	157	155	155	154	155	156	155	155	156	155	155	156	156	156	157	156	156	156	156	154	154	153	153	154	152	153	153	153	153	154	156	153	155	155	154	154	152	153	154	154	153	152	154	154	154	154	153	153	153	153	152	155	153	154	154	154	153	153	153	151	151	152	151	153	152	151	152	153	153	153	154	152	152	152	150	149	150	152	153	154	153	152	151	152	151	151	152	150	152	152	154	152	150	149	151	150	151	150	150	149	150	150	150	150	150	150	149	148	149	149	151	152	151	147	146	146	149	149	148	147	147	147	146	146	148	148	147	148	147	146	147	146	146	149	148	148	147	147	147	147	147	147	147	147	148	148	147	146	145	144	144	145	147	147	147	149	147	146	145	146	144	144	144	144	144	145	145	145	147	147	146	144	144	145	145	146	146	146	147	147	145	145	144	143	144	144	143	142	143	143	143	142	143	144	144	144	144	144	140	140	140	138	140	142	143	143	143	143	140	141	141	142	142	142	141	143	142	142	142	142
144	144	142	141	142	142	144	142	144	144	147	144	145	145	144	144	144	144	144	144	145	143	143	145	147	147	147	147	146	145	144	143	143	143	143	144	145	145	144	145	145	148	148	146	144	147	146	146	146	147	147	147	147	145	148	148	149	147	148	148	149	147	147	146	146	149	148	147	150	150	151	151	151	151	149	147	148	148	149	149	147	147	148	147	146	147	149	149	149	148	148	148	147	148	149	149	148	149	148	148	147	147	146	145	148	148	148	146	147	147	148	149	150	150	150	148	150	146	146	148	148	150	151	152	151	151	151	150	149	150	151	150	149	147	150	150	150	151	151	148	150	149	150	151	151	153	153	153	154	151	150	152	151	151	150	151	150	153	152	151	153	155	154	153	153	154	154	153	153	154	153	154	154	155	153	154	153	153	153	152	152	152	152	150	150	150	151	153	153	153	154	153	153	155	155	155	154	154	153	151	151	151	151	152	154	155	155	154	155	154	153	152	153	153	153	154	154	155	153	151	151	152	153	155	155	154	156	155	155	154	156	154	155	153	153	155	151	151	153	153	152	153	154	154	156	154	155	155	154	154	153	154	154	153	155	156	156	157	156	156	155	155	156	157	156	156	155	155	155	156	156	155	155	155	155	155	155	155	155	155	155	155	155	155	157	157	157	159	158	156	158	156	157	158	158	157	155	155	156	156	156	156	156	156	154	155	156	155	156	157	157	157	156	157	156	156	159	156	156	154	156	156	156	158	158	157	156	156	154	154	152	156	155	157	158	159	158	158	159	159	159	157	156	156	154	155	155	157	158	158	155	155	156	156	157	158	158	158	158	157	157	157	157	157	156	155	156	157	157	157	155	154	158	158	159	158	157	157	156	156	156	156	156	157	156	155	154	153	155	156	156	157	155	156	155	154	154	156	156	155	158	158	156	155	155	155	156	156	153	157	152	156	157	157	155	155	155	155	156	156	157	154	155	155	154	155	155	155	156	155	156	156	157	156	156	156	157	156	157	154	154	153	153	153	152	152	152	152	154	154	154	154	153	153	152	152	152	153	154	154	152	152	153	155	154	152	152	152	152	152	151	152	153	152	152	152	152	152	153	152	152	151	151	151	152	153	152	153	152	153	153	153	153	151	150	150	149	150	152	153	154	152	152	152	152	151	152	152	152	153	153	151	150	149	149	150	152	151	149	149	149	150	150	150	150	149	148	147	148	147	148	152	148	150	147	146	146	148	146	147	147	147	147	146	148	147	146	147	147	146	145	145	147	148	147	147	147	146	147	147	147	146	146	146	145	146	147	147	145	145	145	145	145	145	147	147	145	146	146	145	145	144	145	144	144	144	144	144	146	146	145	144	144	144	144	145	146	143	143	145	145	144	147	147	145	143	142	141	141	141	142	142	142	143	143	142	140	140	142	141	139	139	140	141	143	143	143	141	142	140	140	140	142	142	141	141	143	142	142	141
140	143	143	144	144	144	144	142	143	143	142	141	145	144	139	142	144	143	143	145	144	143	143	144	146	147	147	147	147	145	144	143	143	143	144	145	145	145	144	142	143	145	144	144	144	146	146	146	146	146	146	146	146	145	147	147	147	147	147	147	148	146	146	147	148	148	150	147	148	149	149	149	151	148	146	147	148	149	149	148	147	147	147	147	147	147	148	148	148	148	147	148	148	148	149	149	151	148	147	146	146	145	144	145	146	148	149	147	146	149	149	149	150	150	149	149	148	149	148	149	148	149	150	151	151	151	149	150	151	150	149	149	151	151	150	149	150	150	150	150	150	150	150	150	152	151	151	153	150	150	149	149	151	150	150	150	150	151	152	151	153	154	155	154	153	153	153	152	154	154	153	153	154	154	154	155	154	153	154	152	151	152	150	150	149	150	150	152	152	153	153	153	152	155	157	157	153	152	153	151	151	152	150	151	153	153	153	153	153	154	153	153	153	154	153	153	153	153	152	151	151	151	152	154	156	156	156	155	153	155	155	156	155	154	154	154	152	152	153	153	153	153	154	155	155	153	153	154	154	154	154	154	154	156	155	155	156	156	155	158	154	154	155	155	156	156	153	155	155	156	155	155	153	153	155	155	155	154	155	157	156	156	155	157	156	157	157	159	158	156	154	156	155	155	156	156	156	156	156	156	157	157	156	156	155	155	155	156	156	157	158	160	156	156	157	156	158	156	155	155	155	156	155	157	159	158	157	154	154	154	152	155	154	156	160	158	158	158	158	157	157	155	154	154	153	153	153	155	157	155	155	154	154	155	156	157	158	157	156	154	155	155	156	156	155	156	156	158	158	158	157	158	155	158	158	157	156	155	154	154	155	156	156	155	156	155	154	153	155	155	157	158	156	155	155	153	154	156	156	155	154	154	155	156	154	156	155	152	151	150	156	156	157	157	157	154	155	155	156	157	156	156	155	154	156	155	155	155	155	155	156	157	155	154	156	157	156	156	157	156	154	153	153	153	153	152	152	152	153	154	154	153	152	152	151	151	153	153	154	154	154	152	152	154	153	152	152	150	151	151	152	152	149	149	151	152	150	151	154	153	152	153	150	150	151	152	153	152	152	152	152	152	152	151	149	150	150	150	151	152	152	152	151	152	153	152	151	152	152	152	150	152	151	149	148	148	150	151	148	149	148	147	147	149	149	148	147	147	147	146	148	148	148	149	148	146	145	146	147	147	146	146	146	146	145	147	147	146	146	146	145	146	146	147	147	147	147	146	146	146	146	147	146	146	146	146	145	144	144	144	147	144	145	145	145	143	144	143	144	144	144	143	145	144	144	143	144	144	144	145	144	142	143	144	144	145	143	143	143	145	146	147	148	146	142	142	141	141	139	140	141	142	141	142	141	140	140	139	140	142	141	139	140	141	141	141	140	141	138	137	139	140	140	139	140	141	142	142	142	140
140	140	140	140	140	142	142	142	142	142	142	141	139	139	139	143	144	143	143	142	144	143	144	143	146	146	146	147	147	146	144	143	143	143	144	144	143	143	143	142	143	144	147	147	147	146	146	146	146	145	145	145	145	144	144	145	145	148	147	145	146	148	146	146	148	145	146	145	148	146	148	148	149	148	147	147	148	148	148	148	147	148	148	147	147	148	147	147	145	145	147	147	148	147	147	146	147	147	146	145	146	146	145	145	146	149	148	149	148	149	149	149	147	149	149	150	149	149	149	149	150	149	149	149	147	148	148	148	149	148	149	150	151	151	150	149	149	150	149	150	149	150	150	150	151	150	149	149	149	148	150	148	149	149	150	150	150	151	149	149	151	153	154	150	151	151	151	152	153	152	152	153	155	154	154	153	154	155	152	150	151	153	153	151	150	150	152	152	152	153	153	152	152	152	156	156	154	153	151	151	151	150	151	152	152	154	152	152	154	154	155	154	153	154	153	153	153	152	152	149	151	151	152	154	154	154	156	155	153	155	155	154	155	155	156	154	152	152	153	153	153	153	154	155	155	155	152	153	153	153	154	154	155	155	155	155	156	154	155	155	154	153	154	155	157	156	153	154	154	155	155	155	153	154	154	156	155	155	156	156	156	157	156	155	155	156	156	156	154	154	155	155	155	155	156	156	158	158	158	156	156	157	155	156	155	153	155	155	157	157	160	156	157	156	156	157	159	153	156	154	155	156	160	160	158	156	156	155	154	152	154	154	154	155	156	157	157	157	157	157	157	157	156	154	155	156	156	155	155	156	155	155	154	156	155	157	156	155	155	154	154	155	155	155	156	156	156	155	158	157	156	156	157	157	157	157	156	154	153	152	153	155	155	156	158	157	156	154	154	155	156	157	157	156	154	153	155	156	155	155	154	154	155	156	155	156	156	154	153	151	154	155	155	155	155	155	154	155	155	156	156	156	156	156	156	155	155	154	153	155	155	155	154	153	154	156	153	156	156	154	155	153	151	151	153	152	153	152	153	152	152	151	151	152	151	151	153	154	154	154	153	152	151	152	151	151	152	150	150	150	152	151	153	150	151	151	151	150	153	152	153	153	150	150	151	152	153	153	152	151	151	150	150	150	149	150	150	150	151	152	151	151	151	151	153	152	153	151	149	149	150	150	150	150	149	150	148	149	149	150	148	148	147	147	149	149	149	147	148	147	148	147	147	147	147	145	145	145	145	146	145	145	146	145	145	145	147	146	145	144	145	145	145	147	148	147	147	146	146	146	146	146	146	145	144	144	144	145	143	144	146	146	144	145	145	144	143	142	142	142	142	144	143	143	143	143	144	144	144	144	142	141	142	143	141	142	142	144	145	145	146	146	146	145	142	141	141	140	140	141	141	141	142	142	141	141	139	139	140	142	143	139	139	139	140	140	140	139	139	139	139	139	138	138	139	139	140	140	140	139
141	139	139	139	140	139	141	141	142	143	141	141	140	139	143	143	141	143	142	142	142	143	143	146	144	145	145	146	146	145	145	143	143	143	143	144	143	143	142	142	143	146	146	146	146	145	145	146	146	145	144	142	145	144	145	145	145	145	145	145	146	147	146	141	141	147	146	145	144	147	147	149	149	149	147	147	147	149	147	147	147	148	148	148	148	146	145	145	146	145	145	147	149	147	147	146	145	146	146	146	145	145	145	146	149	150	149	148	148	148	147	147	149	149	149	150	150	149	150	149	148	148	148	148	147	148	145	147	148	147	148	150	150	151	149	149	149	149	148	148	149	150	151	150	150	149	149	148	147	147	148	148	148	149	149	150	149	147	151	148	149	151	150	150	151	151	151	152	153	151	152	151	154	154	154	153	152	153	152	152	153	152	152	152	152	152	151	152	152	153	153	153	152	152	153	155	153	152	152	150	150	151	152	153	153	152	152	152	154	154	155	153	153	152	153	153	153	152	153	152	153	153	154	152	153	153	153	154	154	155	155	153	154	154	155	154	153	152	153	153	153	153	155	155	155	155	153	153	152	152	153	154	155	155	154	155	154	152	151	154	154	153	153	156	154	154	154	153	153	156	156	155	155	155	155	155	157	156	155	156	155	157	155	154	155	154	156	157	155	155	155	154	154	155	158	157	157	156	155	155	155	155	156	156	154	153	153	154	154	158	156	155	155	155	156	156	156	158	152	154	156	156	156	155	155	156	156	156	155	154	155	155	156	155	155	156	155	156	157	156	156	157	156	158	156	156	155	155	154	156	156	156	155	155	155	155	155	155	155	154	154	156	156	155	155	156	156	154	156	156	156	156	155	158	157	157	155	154	153	151	151	155	154	156	158	157	156	156	155	154	155	156	156	155	153	154	155	155	154	154	154	154	154	154	156	156	154	155	154	154	154	155	155	155	153	153	153	154	155	155	155	156	156	156	155	154	155	155	154	153	155	154	154	153	154	154	155	155	153	153	154	154	150	153	151	152	153	153	152	150	151	150	151	152	152	151	152	154	154	153	153	152	151	151	151	151	151	151	150	150	152	153	151	151	149	151	152	150	149	150	150	151	149	150	151	150	152	151	152	152	151	150	151	149	149	149	149	150	151	150	150	149	149	148	150	151	151	149	148	148	149	149	151	151	149	150	149	146	148	148	150	146	147	148	149	149	149	148	148	148	148	147	146	146	145	145	144	146	145	145	145	145	145	145	145	146	147	146	144	143	144	144	146	146	147	146	146	146	146	146	146	146	146	144	144	144	142	143	143	145	145	144	144	145	145	144	143	142	143	143	143	144	144	143	143	143	144	144	146	145	144	142	143	142	143	143	143	143	145	146	145	146	143	144	142	142	141	141	141	141	141	142	142	141	141	141	140	139	140	141	143	143	143	140	139	139	139	140	140	139	139	139	138	138	138	138	138	138	136	139
140	139	139	139	139	138	138	138	138	139	140	140	141	142	143	143	141	141	142	141	141	143	143	144	144	142	144	145	144	144	144	144	143	142	142	143	143	144	143	143	145	146	146	146	145	145	145	144	145	144	142	145	145	145	146	146	146	146	146	145	146	146	145	145	142	142	143	144	145	147	146	146	146	148	148	147	149	147	147	147	148	147	148	148	146	146	146	145	144	145	147	147	148	148	147	145	147	144	144	144	146	147	149	149	149	147	149	149	148	147	147	149	149	149	150	150	151	150	149	148	147	146	147	147	147	145	145	148	147	147	148	148	150	151	149	149	148	148	148	147	147	147	147	148	148	147	147	147	147	147	147	148	148	149	148	148	147	148	148	148	148	149	152	151	150	151	151	152	153	150	151	151	153	153	152	153	151	152	152	153	152	150	151	151	152	152	152	151	152	152	153	152	151	153	154	152	152	152	150	151	151	152	152	151	152	152	152	152	155	158	155	153	152	153	152	152	152	153	153	153	152	153	154	153	153	152	153	155	153	151	154	154	153	154	155	155	154	153	153	153	155	155	154	154	154	154	151	150	149	151	154	154	153	154	154	154	154	154	154	154	153	152	153	154	154	154	154	154	153	156	155	153	155	156	156	155	155	156	155	154	154	155	154	154	155	155	156	157	156	155	155	155	155	155	154	157	154	154	154	154	154	154	154	155	155	154	154	154	156	154	154	155	155	154	156	155	154	154	153	154	156	157	154	155	154	154	153	151	152	153	154	154	152	154	154	154	155	156	156	155	156	155	156	158	156	156	156	156	154	154	156	155	155	154	154	154	154	154	153	153	155	155	156	156	155	155	155	155	155	155	155	155	155	158	157	157	154	153	153	152	153	156	156	156	155	155	156	155	155	154	154	155	156	154	153	151	154	153	153	152	152	152	154	154	157	155	154	154	154	154	154	154	153	153	153	153	152	153	153	153	154	155	156	156	153	153	153	154	154	154	153	153	153	154	154	153	153	152	152	151	153	154	153	152	153	154	154	154	151	151	150	151	150	152	152	152	152	152	152	152	152	152	151	151	150	150	151	150	149	150	150	153	150	150	151	152	151	152	152	149	149	150	150	149	150	151	149	149	152	151	150	150	151	149	149	150	151	150	149	149	149	147	148	147	147	150	150	148	149	147	146	147	148	151	148	149	148	147	148	148	147	147	147	149	149	149	149	149	148	148	148	147	146	144	145	145	146	146	146	146	145	143	143	145	146	146	146	149	146	144	143	145	146	146	146	144	146	146	146	145	145	144	143	142	142	144	144	144	144	145	147	144	144	144	145	144	143	143	144	144	144	144	143	144	143	143	142	144	144	142	141	142	142	141	141	141	142	143	144	144	145	145	144	144	142	142	141	141	142	141	142	141	141	141	141	140	140	140	140	141	141	141	141	140	140	138	137	139	140	140	139	139	139	137	138	138	139	137	138	136
143	139	139	140	140	140	136	137	137	139	142	142	142	140	141	142	142	141	136	139	139	142	144	144	142	142	143	143	143	143	143	144	143	142	142	142	142	144	145	146	146	146	145	146	145	143	143	143	143	142	145	146	146	147	147	145	145	145	145	145	146	145	145	146	147	147	146	147	146	146	146	145	145	145	147	147	146	146	147	145	147	148	146	147	146	146	146	148	148	147	149	148	148	146	146	147	147	148	145	145	145	148	148	148	148	147	148	148	148	147	146	148	149	149	150	150	149	148	148	147	144	144	143	144	147	147	148	149	147	146	147	147	147	149	149	148	148	148	148	148	147	147	147	148	148	147	148	149	149	149	148	147	147	147	146	150	148	146	147	147	148	150	151	151	151	152	152	151	151	153	151	152	152	149	150	151	151	151	152	152	151	150	149	150	149	150	150	150	151	151	151	150	151	151	152	154	153	151	151	152	152	149	151	152	152	152	152	155	155	155	154	153	152	153	154	151	152	152	152	152	152	153	154	153	152	156	156	152	152	152	153	154	154	155	155	154	154	153	153	153	155	155	153	153	154	153	151	151	150	152	153	154	154	153	154	154	154	154	154	153	154	154	154	154	154	154	155	154	155	155	154	155	154	154	154	156	156	155	155	155	155	154	154	155	155	155	156	157	156	155	154	155	155	154	153	153	153	154	153	154	153	154	154	153	154	154	155	155	154	154	154	154	155	157	154	154	153	154	155	155	155	153	155	152	154	154	152	151	152	153	154	152	152	153	155	157	156	156	156	157	154	156	156	158	156	155	155	155	154	154	155	154	154	154	154	155	154	154	153	153	155	155	156	156	155	155	155	156	156	156	154	155	154	154	156	156	153	153	153	153	152	155	155	156	153	155	155	155	154	154	154	154	155	154	152	155	155	155	153	151	151	153	155	155	155	154	153	154	154	153	154	154	155	154	154	152	151	152	154	154	153	155	156	156	154	155	154	153	153	153	153	153	153	153	153	152	152	149	151	152	154	154	153	153	154	153	154	152	151	151	149	148	149	149	149	151	151	151	152	150	150	150	151	151	150	150	149	149	149	149	150	150	153	153	152	153	152	152	150	150	150	149	149	150	151	151	150	148	148	148	149	151	151	151	150	150	149	150	149	149	148	147	146	146	150	148	152	148	147	147	148	147	147	147	147	147	147	147	146	147	147	148	148	147	150	148	149	149	148	145	145	145	145	144	145	145	145	145	145	145	144	144	143	145	145	145	145	147	146	145	145	145	146	146	146	144	145	143	144	143	143	143	143	143	141	142	144	144	144	145	146	145	142	142	142	143	144	144	144	144	144	145	144	143	143	142	142	143	140	141	140	140	141	141	141	141	142	143	144	144	144	144	143	143	143	141	141	141	142	141	141	140	140	140	140	140	140	139	140	141	140	140	140	141	140	139	137	136	139	140	140	140	140	140	138	138	139	139	138	136
140	140	140	140	141	141	140	141	141	141	142	143	143	142	140	140	140	139	136	138	142	142	143	144	145	145	144	143	143	143	143	143	143	142	142	141	142	143	145	146	146	146	145	144	144	144	144	144	144	145	145	146	145	145	145	145	144	144	143	143	144	145	145	146	146	148	148	147	146	144	143	145	143	145	145	144	146	146	145	144	146	146	146	146	146	146	146	148	148	148	147	147	146	146	147	147	148	145	145	145	146	146	147	147	147	147	147	146	146	146	147	147	147	148	149	149	149	148	146	144	145	144	144	145	146	149	147	147	147	146	147	146	146	146	149	148	148	148	148	148	148	148	149	148	149	150	150	150	150	148	147	147	147	147	146	149	147	147	147	146	147	147	150	150	150	151	151	151	151	151	152	151	149	149	150	150	151	151	153	149	149	149	149	150	149	149	149	149	150	151	149	150	151	151	151	153	151	152	152	151	149	150	150	151	151	153	154	154	155	154	154	152	151	152	151	151	152	152	151	151	152	153	153	152	151	151	154	153	152	152	153	154	152	152	154	154	154	153	153	153	153	153	154	153	153	152	150	152	150	153	153	152	153	152	153	154	154	153	152	153	154	154	154	154	153	155	154	155	154	154	153	154	154	154	154	154	155	154	152	150	155	155	154	155	155	155	156	156	155	155	153	152	154	153	153	153	153	155	153	154	154	154	153	152	153	156	155	155	155	154	154	155	155	156	152	153	152	153	155	153	153	153	152	154	152	152	152	152	154	155	155	154	154	154	152	152	152	156	155	155	155	154	155	155	155	155	155	155	155	153	154	155	154	155	155	155	155	155	153	154	154	156	156	156	155	155	156	156	156	155	156	156	155	154	156	156	152	152	152	153	153	152	155	155	154	154	155	155	155	155	154	154	154	153	154	155	155	154	152	151	152	154	154	155	154	154	155	154	153	153	154	155	156	155	153	152	151	151	152	152	152	152	154	156	156	153	153	154	154	152	152	152	152	152	151	151	150	151	151	153	154	153	152	152	154	154	152	152	152	150	148	149	148	149	149	150	150	150	151	150	152	150	152	151	151	149	149	149	149	150	150	150	150	150	151	151	151	151	149	148	150	150	149	151	151	149	150	150	148	149	149	151	150	149	149	149	149	149	148	148	147	148	147	147	147	147	151	148	146	146	146	147	148	148	147	147	144	144	146	143	147	149	148	147	146	147	146	147	148	145	145	145	144	144	144	145	145	145	146	145	145	144	144	145	144	144	144	143	145	144	145	144	145	145	145	144	142	143	142	142	142	142	141	142	142	143	144	144	142	142	146	145	144	142	141	140	141	140	141	141	144	143	142	141	142	142	141	140	140	139	139	140	140	140	139	139	142	143	143	143	143	143	143	143	143	141	141	141	141	142	141	139	139	140	140	141	140	140	140	140	140	141	140	140	138	137	137	137	136	138	138	137	137	137	137	138	140	139	138	136
140	140	141	141	141	139	139	142	144	144	144	143	140	140	140	142	142	142	138	142	143	143	143	144	144	144	144	142	143	144	142	142	142	142	141	141	141	142	143	145	145	145	144	144	144	144	143	143	143	145	145	145	145	144	144	144	143	142	143	143	143	143	143	144	144	144	143	143	143	144	144	143	141	144	145	145	145	146	146	144	145	145	146	146	146	144	144	144	144	144	147	146	146	147	147	147	146	146	147	147	147	146	148	146	147	147	147	145	145	145	146	147	146	147	146	148	149	149	147	145	145	144	146	146	145	149	147	147	145	144	145	145	145	145	145	148	149	148	147	147	148	148	148	149	150	150	151	150	150	149	148	149	147	147	149	148	148	148	147	146	146	148	148	149	149	150	150	150	150	150	150	151	148	150	149	150	151	151	150	150	147	148	150	149	149	149	149	149	150	150	149	149	150	150	150	150	151	152	152	150	149	149	151	151	151	151	153	154	154	154	154	152	153	154	152	152	152	153	151	151	151	151	152	152	151	152	150	152	151	152	152	151	151	152	153	154	155	153	153	152	153	153	154	154	152	152	153	153	150	153	153	152	152	151	152	153	153	152	152	152	153	153	153	155	155	152	153	152	153	153	153	151	154	154	154	154	154	153	154	154	150	154	155	155	154	155	154	155	154	153	152	153	152	152	153	153	154	153	153	153	152	151	151	153	153	153	153	153	157	154	156	156	154	155	154	154	151	152	153	153	153	153	153	152	153	154	154	154	154	155	154	155	154	154	154	154	152	152	155	154	154	154	154	154	154	155	155	155	155	154	156	156	155	155	154	153	154	155	155	155	155	154	154	154	154	154	156	157	156	153	153	154	154	155	155	152	152	151	151	153	151	152	152	155	152	154	154	154	154	155	154	153	154	155	156	155	155	153	153	152	153	154	155	155	155	156	155	154	153	153	154	154	154	153	153	152	153	151	152	152	152	153	153	153	153	153	154	154	153	153	152	152	151	151	151	151	151	150	152	153	151	152	151	152	153	154	154	154	153	151	149	148	148	150	150	150	150	150	151	150	152	150	151	152	151	150	150	148	148	149	151	150	150	152	151	149	151	150	150	149	151	150	150	150	149	149	150	149	149	150	149	150	149	149	149	149	149	149	150	149	149	148	148	147	146	146	146	146	146	146	149	150	150	147	147	144	145	146	141	144	146	148	148	146	145	145	146	146	146	145	144	144	143	143	144	144	145	145	144	145	144	144	144	145	145	144	143	144	145	145	145	144	144	144	145	144	142	142	142	142	141	141	141	141	142	141	142	144	142	142	142	145	143	141	141	140	140	139	139	141	143	143	142	141	141	141	141	141	140	140	140	140	140	140	140	139	142	143	143	142	139	139	139	140	142	140	140	141	141	142	139	139	139	139	140	140	139	140	139	139	141	141	141	139	138	137	136	137	135	135	137	137	136	136	135	136	140	139	138	137
138	139	139	138	139	139	138	140	141	141	142	144	140	140	141	140	144	139	139	142	143	143	143	143	144	143	142	142	139	139	144	144	143	143	144	141	142	142	143	142	144	143	143	144	144	142	142	143	143	144	144	144	144	144	143	144	143	142	143	142	142	142	143	142	142	142	142	143	143	143	143	145	141	141	144	145	145	145	146	146	146	145	145	146	144	144	143	142	145	145	145	146	146	146	147	147	145	146	146	146	146	147	145	145	146	146	145	145	145	146	147	148	148	149	148	148	150	149	147	147	145	144	144	145	145	147	147	147	145	145	145	144	144	145	145	146	149	147	146	146	146	148	148	148	149	149	149	150	150	149	150	150	147	147	148	148	148	147	146	146	146	148	147	147	148	148	149	149	149	150	150	151	148	148	150	150	151	151	151	148	147	148	149	149	148	151	149	149	152	150	149	149	150	150	150	150	150	151	150	149	148	149	151	150	150	151	153	153	151	151	151	152	153	153	152	153	154	153	152	151	152	152	152	152	152	152	150	151	151	151	151	152	152	151	151	152	154	152	151	153	153	152	153	153	154	153	152	153	153	153	153	152	152	152	152	152	152	152	152	152	152	153	153	154	154	151	152	151	152	151	150	150	150	151	151	154	153	152	153	149	151	153	154	154	154	153	154	154	151	150	152	153	152	152	152	153	154	155	154	152	151	148	152	152	152	152	154	154	154	157	154	154	154	153	154	154	150	154	153	153	154	152	153	153	153	154	154	155	154	155	154	154	154	154	154	154	154	153	154	153	153	153	153	154	154	154	154	155	155	154	155	155	154	154	154	154	154	154	154	156	155	154	154	154	154	154	156	154	154	153	153	154	154	154	153	151	151	152	152	153	154	155	154	155	155	152	153	153	153	154	153	155	156	154	154	154	153	151	152	152	152	153	154	155	156	156	156	153	153	154	154	154	153	153	152	153	152	153	154	153	151	151	151	151	152	153	153	153	154	153	153	151	152	152	151	151	151	152	153	153	152	151	150	152	154	154	153	153	153	151	150	148	150	150	150	149	149	149	150	150	150	150	151	151	151	151	149	149	149	150	150	151	150	150	151	150	149	150	151	151	150	150	149	149	149	148	148	148	150	147	150	150	149	149	148	149	148	150	149	149	149	149	148	147	146	145	146	145	146	148	147	148	146	146	145	147	146	145	143	145	146	148	148	147	145	145	145	148	148	148	145	144	144	144	144	145	145	145	144	145	145	145	145	146	145	145	144	144	143	145	145	145	143	143	144	144	142	142	142	142	142	142	142	143	141	142	141	141	140	142	141	144	144	141	141	140	139	139	139	140	142	141	142	141	140	140	141	141	140	142	142	140	140	139	138	140	142	142	142	140	139	139	137	139	139	139	140	141	141	141	141	139	141	140	139	140	139	137	136	136	139	140	140	140	140	137	137	136	135	135	134	134	135	135	136	136	139	139	138	138
137	135	135	137	138	138	138	138	140	142	142	143	140	141	143	144	142	139	139	143	143	142	142	142	143	141	137	137	139	139	138	144	144	144	144	142	142	143	143	142	142	142	143	143	143	142	142	142	142	143	143	143	143	143	143	147	144	141	143	144	141	141	141	142	142	143	143	143	143	144	145	141	141	141	142	144	144	144	144	141	143	144	144	143	144	144	144	144	144	145	145	146	146	146	147	145	144	146	146	144	144	143	144	146	146	146	145	145	146	146	146	146	148	148	146	148	149	149	149	147	146	144	144	145	144	144	144	145	144	144	145	144	144	146	146	147	147	147	149	148	146	146	144	148	149	147	148	148	149	149	148	150	147	146	148	148	148	147	146	146	147	147	148	146	146	146	146	147	148	151	151	150	149	149	148	149	150	151	150	149	148	148	148	149	150	151	149	149	149	149	148	148	149	150	151	148	147	147	148	149	149	149	149	151	149	149	151	151	151	151	150	150	151	152	151	152	151	152	151	149	150	150	152	152	152	151	150	151	151	152	152	151	151	150	150	151	151	152	151	150	153	152	152	152	153	153	153	152	153	152	152	152	151	153	151	152	151	153	154	153	152	152	153	153	152	151	151	151	151	152	150	152	149	152	152	154	156	154	153	149	151	152	153	154	153	153	153	152	151	152	152	152	153	153	153	153	154	153	154	152	150	151	152	152	153	153	153	154	154	155	155	152	152	151	153	153	154	155	153	153	153	153	153	154	154	154	154	154	154	155	154	155	154	154	154	154	155	154	152	151	152	152	152	152	152	152	154	155	154	151	156	156	155	155	154	153	153	153	155	155	154	153	152	154	154	151	153	151	152	152	152	152	154	153	152	151	152	153	153	154	153	154	154	154	154	153	155	154	154	151	153	153	156	156	154	153	151	151	151	152	154	153	153	155	156	155	155	154	153	153	153	153	154	153	152	151	152	151	152	153	151	150	150	151	151	152	152	153	152	152	152	152	153	153	153	151	151	152	153	153	152	152	152	151	151	151	151	151	151	151	151	151	151	151	150	147	147	149	150	150	150	150	150	151	150	150	150	149	149	148	149	147	149	150	150	149	149	149	151	151	151	150	149	149	149	148	148	148	148	147	148	149	148	148	148	148	148	148	149	148	148	147	147	147	146	146	145	145	146	146	146	147	145	145	146	148	148	148	147	145	145	147	148	147	145	145	146	147	148	148	146	145	147	145	147	147	145	145	146	145	145	145	146	146	145	145	144	144	145	145	144	143	141	143	143	143	143	142	142	142	142	142	142	142	142	142	140	141	140	141	140	141	143	143	141	140	140	140	140	139	139	139	140	140	139	141	141	141	141	141	143	141	141	140	138	139	140	142	142	140	140	139	137	137	139	139	139	139	139	139	138	138	137	139	139	140	137	137	137	136	139	139	140	138	138	140	137	135	135	135	135	135	135	135	135	136	136	138	138	137
137	135	137	137	137	138	138	138	138	141	141	143	142	143	143	138	140	139	142	142	143	142	142	142	141	141	141	141	141	139	144	145	144	144	142	143	143	143	143	141	141	141	142	142	142	142	142	142	143	143	144	142	144	145	147	145	140	143	141	145	143	143	143	143	142	144	144	144	145	145	145	142	140	141	142	143	144	144	144	145	141	144	143	144	144	144	144	145	145	145	145	145	146	146	146	144	146	145	145	144	143	143	144	145	146	145	145	145	146	144	144	146	147	144	145	146	148	147	147	145	146	145	144	144	144	145	145	145	144	144	145	147	147	146	147	148	148	148	149	149	145	145	146	147	146	146	146	146	147	146	147	148	147	145	148	148	147	146	146	143	145	147	147	147	146	147	147	147	148	149	148	148	148	148	149	150	151	150	149	148	147	148	148	148	149	150	151	150	148	148	148	149	149	150	150	149	150	149	149	149	149	149	149	149	149	149	151	151	148	149	149	149	150	151	152	150	150	151	150	150	150	150	151	151	151	150	149	151	151	152	152	151	150	150	150	150	152	150	150	152	152	152	152	152	152	153	153	153	152	152	152	153	153	152	152	150	153	154	154	153	154	152	154	153	153	152	150	151	151	153	151	151	153	153	154	155	155	154	152	153	152	153	154	154	153	154	153	153	153	152	153	152	152	153	153	153	153	152	153	153	153	151	152	153	152	152	153	153	154	153	152	151	152	151	151	153	154	153	150	151	151	153	153	152	151	150	152	154	154	155	154	155	155	154	154	154	154	153	152	152	153	153	155	153	152	153	153	154	151	150	153	154	155	155	155	153	149	149	152	152	151	152	151	151	151	151	152	151	151	151	150	151	151	152	154	153	154	154	152	153	152	152	152	153	152	154	154	153	152	153	152	152	152	156	156	152	152	151	151	153	153	153	153	152	152	153	154	153	153	154	152	153	153	153	153	150	151	151	152	151	149	150	151	151	151	151	152	152	151	151	152	152	153	154	153	151	152	152	152	153	152	152	152	150	151	151	151	152	152	151	151	151	152	150	150	148	147	148	147	150	150	151	150	149	150	150	150	148	148	147	147	148	147	148	149	149	148	149	151	151	151	147	147	147	149	148	148	148	148	148	149	149	149	148	148	147	148	148	147	147	148	147	146	146	144	144	144	146	146	147	145	146	145	145	146	148	146	146	145	147	146	146	145	145	145	144	146	146	146	145	145	144	145	144	144	147	146	147	145	144	145	144	146	146	145	143	143	143	142	142	141	143	142	141	141	143	143	142	142	142	141	142	142	141	142	141	140	140	141	139	140	139	140	140	140	140	141	141	140	139	138	139	138	139	139	141	140	140	140	140	142	141	139	140	140	139	141	141	142	142	139	138	137	138	139	139	139	139	138	138	138	138	137	137	139	139	138	138	137	138	138	138	137	136	136	138	138	138	136	136	136	136	136	136	135	136	138	138	138	138
136	135	135	135	136	136	138	138	137	141	144	144	145	142	138	141	140	139	140	140	142	142	142	140	140	140	141	141	141	141	144	143	142	142	141	142	142	143	143	141	141	141	142	142	142	142	142	144	143	143	143	143	144	146	145	140	144	140	141	143	144	142	142	142	144	144	144	144	146	143	143	141	140	141	142	142	143	144	144	143	140	143	144	143	143	144	142	142	142	142	143	144	144	146	146	146	145	142	142	142	142	143	144	146	145	145	146	145	145	144	145	145	144	144	144	145	144	145	144	144	145	145	144	145	147	146	146	145	144	144	147	148	146	146	147	146	148	149	149	145	145	148	148	146	146	145	146	146	147	147	146	147	146	147	147	147	147	146	145	143	143	145	145	146	147	149	149	149	148	148	148	148	148	148	150	149	150	149	149	149	148	148	149	148	148	149	151	150	148	148	148	149	149	148	149	150	152	150	148	148	148	147	147	147	149	150	151	151	148	148	149	150	151	151	149	149	150	152	150	149	150	148	150	150	150	150	150	149	152	151	152	152	150	148	149	151	151	152	153	152	151	152	150	151	152	152	152	153	153	152	151	152	149	151	150	151	154	154	154	153	153	153	153	153	153	152	151	150	153	150	150	154	154	154	154	154	154	152	152	152	154	154	154	153	152	153	153	153	152	151	151	151	151	153	152	153	154	153	153	153	152	152	152	153	152	152	152	152	153	153	152	151	153	153	154	153	154	152	152	151	152	153	154	153	152	151	151	152	154	154	153	154	154	154	155	152	151	151	151	152	153	153	152	153	152	151	151	152	151	154	153	154	153	153	153	153	150	150	151	153	153	152	153	152	153	153	152	151	151	150	150	150	151	153	154	153	153	152	150	151	151	151	150	150	150	151	153	153	153	153	151	150	150	151	156	152	149	151	151	152	152	153	153	153	152	151	151	152	152	153	154	154	152	152	153	152	152	152	151	151	149	149	151	151	151	152	152	151	150	150	150	152	153	153	152	153	152	152	152	152	152	152	152	151	151	151	151	150	150	151	151	150	150	150	149	149	147	147	150	148	148	148	147	149	149	149	148	148	147	147	146	147	146	147	147	147	148	149	147	148	148	146	147	146	146	149	149	148	148	148	148	148	148	146	146	147	146	145	145	146	146	147	144	144	144	144	146	146	146	146	147	146	145	145	146	145	144	145	144	145	146	146	145	145	145	145	145	145	144	144	144	143	144	144	144	146	146	145	144	144	143	145	146	145	145	142	141	142	142	142	142	140	142	142	142	143	142	142	142	140	140	141	140	141	141	140	139	140	140	139	138	138	139	139	139	139	140	139	139	138	138	138	137	138	139	140	139	139	140	140	141	142	139	140	140	139	139	141	141	141	139	138	137	137	138	139	139	138	138	138	137	137	137	137	139	139	139	138	138	138	137	136	136	136	136	137	137	137	138	140	139	139	137	136	136	136	138	138	138	136
136	135	135	134	134	135	136	137	137	141	145	142	142	140	141	140	141	139	140	141	141	142	141	140	140	140	141	141	141	141	143	139	138	140	140	141	143	141	141	141	141	141	141	140	140	141	142	144	144	142	142	143	143	142	139	144	140	139	140	141	143	143	142	142	144	145	145	144	142	142	141	141	142	141	141	142	143	142	142	142	142	144	144	143	142	143	142	141	141	142	139	140	141	146	147	143	142	142	142	142	142	146	143	145	146	144	145	146	145	145	141	140	140	140	142	142	145	143	142	143	146	145	144	145	147	146	147	147	146	146	146	144	146	147	148	148	148	146	148	144	145	146	146	147	146	145	146	146	146	147	146	146	146	146	146	147	146	146	145	144	144	144	145	147	148	149	149	148	148	148	148	149	148	150	149	149	147	148	149	148	147	149	147	147	147	148	149	149	149	148	148	148	149	149	148	150	152	150	150	147	148	148	149	149	150	147	149	151	150	147	149	150	151	151	151	150	148	148	150	149	150	149	149	149	150	150	151	150	149	149	148	149	149	149	149	151	152	152	150	151	150	150	150	151	152	152	151	153	152	152	151	151	151	149	150	152	154	154	155	153	152	154	153	153	152	151	151	151	153	153	153	154	154	155	154	153	154	151	152	152	153	153	153	152	152	153	152	152	153	151	150	151	153	152	152	152	154	153	152	150	151	149	151	152	151	152	153	151	150	150	152	154	153	153	153	154	153	154	152	152	152	152	153	153	153	151	151	153	151	152	152	153	152	152	151	150	150	150	151	152	152	150	152	150	152	150	150	150	149	151	151	154	153	153	153	153	152	150	151	152	152	152	153	153	152	152	153	152	151	150	150	150	151	153	152	151	152	152	152	151	150	151	150	151	150	150	153	152	152	154	150	150	151	151	152	152	149	149	150	151	151	152	151	152	153	152	150	152	151	153	154	154	154	153	153	151	152	152	153	152	149	148	149	152	152	151	150	150	151	149	150	151	151	151	153	150	150	152	151	152	152	152	150	151	151	151	151	150	149	150	150	150	149	147	148	148	148	149	149	149	147	147	146	147	148	148	148	148	147	147	147	146	147	148	148	145	148	148	148	147	146	146	146	146	146	145	146	145	146	147	146	146	147	146	147	145	145	144	144	145	147	147	145	145	146	146	146	146	145	145	145	146	148	145	143	142	143	144	144	142	145	145	145	144	144	143	144	144	143	143	142	143	143	143	144	145	145	143	143	142	142	143	145	145	145	144	140	142	142	141	141	142	140	140	141	140	141	140	140	142	140	139	140	138	143	139	139	139	140	140	138	139	139	139	139	139	140	139	139	138	138	138	136	137	138	138	138	139	139	140	140	139	141	139	138	138	140	140	140	139	138	137	137	137	137	138	139	139	138	138	139	138	137	137	137	137	138	138	138	137	136	137	138	136	136	136	136	138	138	138	138	137	137	137	137	137	137	137	137	137
136	136	134	134	136	136	136	137	137	141	143	141	141	143	138	141	141	139	138	140	140	142	141	140	140	140	140	141	140	141	141	139	138	139	139	140	139	141	141	141	142	141	141	139	139	139	143	144	144	139	142	142	141	140	140	137	139	139	141	143	143	143	144	144	144	145	145	142	142	142	142	142	142	141	142	142	143	142	142	141	141	141	143	142	142	141	142	141	142	142	141	140	141	141	141	142	144	143	142	143	143	142	141	143	143	143	144	145	145	144	141	143	143	143	142	141	143	142	142	141	144	145	146	146	147	147	146	143	143	143	145	145	145	149	147	148	148	145	146	144	142	145	145	146	147	145	144	144	144	145	146	148	147	146	145	146	146	146	145	144	144	146	147	146	146	148	148	148	147	148	147	149	150	150	150	148	148	148	147	147	147	145	145	145	147	149	149	150	150	148	148	148	147	148	148	149	149	149	149	149	148	147	148	149	149	150	150	150	149	149	146	145	149	150	150	148	148	149	149	149	150	149	150	151	152	152	151	149	150	148	149	150	150	149	149	151	151	150	150	151	150	149	149	148	150	149	149	152	149	150	151	151	150	151	149	152	153	153	150	152	152	153	153	152	151	150	149	150	152	152	152	152	151	152	153	151	152	151	151	151	152	152	151	151	152	152	152	153	153	152	151	151	151	151	150	152	153	152	152	151	150	148	149	150	149	152	153	151	152	153	155	154	154	154	153	153	153	151	150	152	152	153	153	153	154	150	151	150	151	150	151	152	151	148	151	153	150	150	152	152	152	149	150	151	151	150	150	149	149	152	151	153	153	152	153	153	151	152	155	154	153	152	153	152	152	152	152	153	152	150	150	151	153	153	150	151	151	151	152	152	151	152	153	153	149	148	149	150	150	151	150	150	151	151	152	152	151	151	150	152	151	151	151	153	153	153	153	150	151	151	152	153	153	153	153	151	151	151	152	152	151	149	147	147	150	149	148	148	150	148	149	150	150	151	150	152	151	151	151	151	150	151	152	152	151	151	150	150	149	149	149	150	148	146	147	147	149	149	148	148	148	149	149	148	148	148	148	148	148	148	148	146	148	148	148	147	147	147	146	146	146	146	146	146	145	145	146	146	146	146	145	145	147	146	144	144	144	144	144	144	146	147	146	144	145	145	145	144	145	146	144	149	148	144	142	142	142	143	142	143	144	145	144	145	144	143	144	144	143	143	141	142	142	142	144	143	145	143	144	142	143	142	140	143	142	141	141	141	141	141	141	141	140	139	140	140	141	140	142	142	139	139	139	139	139	138	139	139	140	139	140	140	138	138	139	138	139	139	139	138	138	137	137	137	138	138	139	139	138	140	140	139	139	139	138	137	137	138	140	138	137	137	137	137	137	137	137	137	139	138	139	137	137	136	137	137	136	138	137	137	139	140	137	138	136	136	135	137	136	136	136	137	137	136	136	136	137	136	136	136
135	135	134	134	138	138	138	139	141	141	143	141	141	141	142	140	139	139	138	139	140	140	140	140	140	140	140	141	140	140	140	140	138	140	139	139	138	139	141	142	142	141	140	140	140	141	141	142	139	139	138	141	141	140	138	141	142	141	141	143	141	142	143	144	142	142	142	142	141	142	143	145	145	144	143	142	142	142	142	141	142	142	143	143	143	143	143	143	142	140	140	140	140	139	140	143	145	145	143	143	140	140	140	142	141	141	142	143	143	142	143	143	143	143	143	142	142	140	141	143	145	144	145	146	147	148	145	141	141	142	143	145	145	145	149	149	147	145	144	142	142	142	144	144	146	146	143	143	143	145	148	147	146	145	145	145	147	145	145	146	147	148	147	146	147	147	147	146	147	146	147	149	149	149	150	148	147	144	142	141	144	147	147	145	147	148	149	150	151	148	148	147	146	148	147	149	149	149	149	149	148	146	146	149	147	149	147	147	146	148	148	148	151	151	148	147	148	148	149	149	149	149	149	150	152	153	150	150	150	148	149	150	150	150	148	150	149	149	150	149	150	149	150	148	148	144	148	147	147	149	149	150	152	151	151	151	150	149	150	152	152	152	153	153	152	152	149	150	150	151	149	150	152	150	150	151	152	152	153	152	151	150	151	152	151	151	151	153	153	151	151	151	150	150	151	150	151	152	150	148	150	149	148	149	150	150	154	153	151	153	154	154	154	153	153	152	152	151	150	151	152	152	153	153	152	152	148	150	149	150	151	150	149	150	151	150	152	152	153	154	152	152	150	152	152	152	152	151	147	147	152	152	151	149	149	150	150	150	148	152	151	151	150	152	152	153	152	152	151	150	151	152	152	152	151	151	149	149	151	151	152	155	151	150	149	150	149	149	150	149	150	150	150	151	152	152	152	152	151	152	152	151	151	152	152	153	153	150	149	150	151	152	151	150	152	149	151	149	151	151	151	149	148	148	148	150	149	149	148	150	151	150	149	150	149	150	151	150	150	150	150	150	150	150	149	150	149	147	148	148	148	148	148	147	147	147	148	148	148	148	148	148	147	146	146	148	147	147	148	148	148	147	148	147	148	149	147	147	146	146	146	146	146	145	144	146	146	145	146	146	146	145	144	143	144	145	145	146	144	144	145	146	145	144	143	143	144	141	141	143	148	148	145	144	142	142	142	143	142	143	144	144	144	145	144	144	143	143	142	141	138	138	141	142	142	143	144	144	144	142	143	142	141	140	139	139	140	140	142	141	141	141	140	139	141	141	141	141	140	138	138	138	138	139	140	138	139	139	140	140	140	139	139	138	138	139	139	139	139	138	137	137	138	137	137	138	137	139	139	140	140	139	139	138	137	138	138	139	137	137	137	137	136	136	137	137	137	138	138	138	138	135	137	135	135	135	138	137	137	137	139	139	140	137	135	134	133	134	134	135	135	136	136	136	136	136	136	136	137	136
137	137	137	138	138	138	138	139	142	142	140	141	141	141	141	140	138	138	138	139	140	139	139	139	139	140	139	140	140	140	138	138	140	140	140	140	140	140	140	141	141	141	139	139	140	140	140	140	139	139	138	141	141	142	142	141	141	140	143	143	144	143	143	142	142	141	141	141	141	142	144	144	144	144	141	140	141	141	142	141	142	142	142	142	142	142	142	142	142	141	140	140	139	139	141	144	145	144	144	145	139	139	139	140	140	142	142	144	144	142	143	143	143	141	141	141	142	142	142	142	143	143	142	143	144	148	148	143	142	142	143	144	145	145	147	147	144	141	142	142	141	142	143	145	144	143	145	142	142	145	146	146	145	144	144	146	147	145	145	146	147	148	147	147	147	147	147	147	149	147	147	148	150	149	147	146	146	145	144	143	146	146	148	147	147	144	145	147	148	148	148	146	146	146	148	149	148	149	149	148	146	149	148	150	147	148	145	145	146	148	149	151	151	150	147	147	147	147	148	147	147	148	149	149	150	150	150	150	150	150	147	148	148	147	148	148	148	149	151	149	150	150	149	149	147	149	146	147	148	149	148	148	147	146	145	149	148	149	151	151	151	151	152	152	152	151	151	149	149	149	149	150	149	150	150	151	151	150	150	150	150	151	152	152	152	151	151	152	152	149	151	151	150	150	150	150	150	150	149	147	148	149	150	149	149	149	152	152	151	152	151	151	152	151	151	152	153	151	151	152	151	150	151	152	153	151	150	151	150	150	150	151	151	151	150	150	152	151	152	153	152	152	152	151	153	152	153	151	149	146	148	148	149	149	148	149	150	150	147	150	151	149	150	151	150	151	151	152	151	151	151	150	152	152	151	151	151	150	150	149	151	152	152	150	149	148	148	149	149	149	149	150	149	150	152	152	149	148	149	149	149	149	151	152	151	151	150	152	152	151	150	150	149	151	149	149	150	148	150	151	149	149	149	152	152	152	150	149	149	150	149	148	150	149	150	150	150	150	150	149	150	149	149	150	149	149	149	148	147	147	148	148	148	147	146	147	149	148	147	147	147	146	145	145	146	146	146	147	148	148	149	149	149	149	148	148	147	145	147	146	147	147	146	145	145	146	147	145	144	144	144	144	144	143	145	146	146	146	145	143	145	141	141	145	144	144	143	142	145	145	143	148	144	143	144	144	141	142	141	143	143	143	144	143	144	142	142	142	141	141	138	137	141	141	142	144	143	143	143	143	143	143	142	142	140	140	139	140	142	141	141	140	143	143	142	141	141	143	142	138	139	140	140	140	140	142	140	139	139	140	139	140	139	138	138	138	139	139	138	138	137	138	137	137	136	137	139	140	139	140	139	139	140	137	136	136	135	136	138	138	137	138	136	136	136	137	136	137	137	138	135	135	135	135	135	135	135	136	136	137	136	139	139	138	135	133	133	133	133	133	135	136	136	136	136	137	137	137	137	137
