173	174	174	174	174	175	173	174	174	172	174	175	174	174	175	176	177	179	179	178	177	177	175	177	177	176	178	180	177	177	177	177	178	178	176	177	177	178	179	177	176	177	177	178	179	179	178	178	177	179	179	177	178	176	179	179	179	179	180	180	180	179	179	179	178	179	179	181	181	182	182	180	179	179	179	178	176	180	180	180	177	179	178	179	180	180	179	179	178	179	180	181	181	181	181	180	179	178	179	179	178	179	179	180	180	180	180	179	179	179	179	178	178	179	180	181	181	181	179	178	178	179	179	179	178	179	179	177	177	178	179	182	183	178	179	181	181	181	184	181	182	180	182	180	182	183	182	182	181	181	180	180	180	180	180	181	181	180	183	183	182	182	184	182	183	183	182	182	182	182	184	188	186	186	184	186	186	183	183	182	182	183	183	183	183	182	183	183	185	184	184	184	183	182	184	184	186	186	185	185	184	183	183	186	185	183	183	184	182	182	182	183	182	183	184	187	187	186	184	182	183	181	183	184	184	181	181	183	185	186	186	186	186	186	186	185	186	182	182	185	186	185	185	184	184	182	184	185	186	185	186	183	184	184	184	182	182	182	185	185	185	187	188	187	185	183	184	184	183	183	183	183	185	183	183	183	182	182	183	183	185	185	185	184	184	184	183	184	186	186	186	186	186	184	183	184	182	185	183	183	183	184	184	184	185	184	184	184	184	185	185	187	184	185	185	184	185	185	185	186	185	187	187	186	185	183	181	183	185	185	182	185	188	186	186	185	185	184	184	184	184	185	184	185	183	183	183	183	183	183	184	183	183	184	185	185	185	185	188	188	185	185	185	185	184	183	183	184	184	182	182	183	184	185	185	187	185	184	184	183	181	181	182	181	181	183	184	184	184	185	184	184	183	185	183	185	187	186	183	183	183	184	185	185	187	185	183	182	182	184	184	185	185	185	185	184	184	183	183	182	182	183	185	185	183	183	183	183	184	184	184	186	182	184	183	183	182	181	181	181	180	179	183	185	183	182	180	181	179	180	182	183	183	182	183	180	180	179	178	182	182	184	180	181	182	182	182	182	185	184	181	181	181	182	182	183	182	180	180	179	181	180	179	178	178	178	178	178	180	181	180	182	180	180	182	180	180	180	180	180	178	177	176	175	176	178	178	179	178	179	179	178	179	179	179	178	178	180	178	178	179	179	178	178	178	179	179	179	178	175	174	178	176	175	175	175	176	176	176	177	177	177	175	175	174	175	174	174	176	177	177	177	176	175	175	176	176	176	176	177	176	175	175	175	175	176	176	176	174	175	174	173	174	174	174	175	177	175	175	173	173	172	173	172	173	173	173	173	172	174	174	174	174	174	173	174	174	173	172	173	172	173	172	172	172	172	171	172	172	173	173	173	170	173	174	172	171	169	169	168	168	168	170	169	168	169	169	167	168	168	169	169	171	169	171	169	0	0	0	0
173	173	175	176	176	177	176	173	173	173	174	175	175	175	175	176	176	178	178	177	175	176	177	177	177	176	176	178	178	178	176	177	178	177	177	177	180	179	177	174	173	177	177	179	178	178	179	179	179	179	181	178	176	175	175	176	177	179	179	180	178	178	179	178	178	178	180	180	180	180	180	180	179	180	179	178	178	178	178	180	177	179	177	177	177	181	179	179	178	178	179	181	181	181	179	178	179	177	179	179	180	179	179	179	179	180	180	179	179	179	178	178	178	179	180	179	177	177	178	179	179	179	179	177	177	177	178	177	178	178	177	180	181	179	180	178	179	180	181	184	185	183	180	181	180	180	181	181	181	181	180	179	180	181	180	179	179	181	182	183	182	179	179	181	181	182	181	182	182	183	184	183	186	185	185	182	185	182	183	183	183	183	183	183	183	182	184	183	183	183	181	181	183	183	183	185	185	186	185	185	183	184	184	184	181	182	183	183	182	182	182	183	181	181	184	185	186	185	184	183	181	181	181	182	181	180	180	182	182	184	186	183	184	185	185	185	183	184	185	185	184	184	183	183	182	182	184	186	185	186	185	182	182	183	183	183	182	183	184	186	186	186	186	186	185	183	183	183	183	182	183	183	184	183	182	182	182	182	183	183	183	185	188	187	186	185	184	185	186	185	185	186	186	185	184	183	183	183	183	183	187	185	185	184	184	183	183	184	184	184	185	184	184	183	185	185	185	185	185	186	187	185	186	184	185	182	180	181	182	182	184	185	184	182	184	184	183	184	182	183	184	184	184	185	185	183	183	183	184	184	184	183	183	184	184	186	185	185	185	188	187	185	185	185	185	184	183	184	185	185	185	182	181	182	186	187	185	185	183	181	181	180	180	182	184	184	183	183	183	184	184	183	183	183	182	184	183	183	183	183	183	184	184	185	184	184	184	183	185	183	184	184	184	184	184	184	183	182	182	182	183	186	187	185	186	185	182	183	185	188	186	184	180	180	184	183	183	182	180	179	178	182	182	185	182	182	181	179	181	181	183	183	184	183	183	182	181	178	180	181	180	181	181	180	181	182	182	184	184	184	184	181	181	181	181	182	181	180	180	180	180	180	177	176	177	178	178	178	180	181	179	178	181	180	182	180	181	181	180	179	180	179	177	175	176	178	178	179	178	178	178	178	178	178	178	178	178	180	179	179	179	178	178	177	178	179	179	176	175	175	174	176	176	176	176	177	176	175	176	176	177	175	175	174	174	175	175	175	176	177	176	176	174	175	176	176	176	175	175	175	175	173	173	174	174	174	174	174	174	173	173	174	174	176	175	175	175	175	175	173	172	172	172	172	172	171	173	173	172	171	171	171	172	171	171	172	173	172	172	172	172	172	171	171	171	170	171	171	170	172	172	170	170	171	171	171	170	170	170	170	169	167	166	168	167	166	168	166	167	167	168	169	169	169	171	167	0	0	0	0
173	172	174	174	174	174	175	173	172	172	173	175	177	177	177	175	176	175	174	174	176	176	177	177	175	174	174	174	177	177	177	177	177	178	177	180	176	179	177	175	175	176	178	178	178	179	179	179	180	181	178	177	177	176	176	177	177	178	178	177	178	178	178	178	178	177	179	178	178	177	178	180	178	179	178	179	179	176	176	176	177	177	177	176	178	179	180	179	179	178	178	178	178	178	178	176	176	177	179	180	179	177	178	177	178	178	178	178	179	179	178	178	178	179	179	178	176	176	178	180	180	179	177	177	173	173	176	176	178	177	177	178	179	178	178	177	177	178	175	180	182	180	181	180	180	180	180	180	182	180	177	179	179	180	181	181	180	180	182	181	179	179	180	179	179	179	180	180	182	185	185	183	183	182	182	182	179	181	183	183	183	183	182	183	183	184	183	179	180	180	182	181	183	182	182	184	184	184	183	183	184	183	185	184	184	184	182	182	183	182	183	181	180	181	182	183	185	184	182	180	181	181	182	181	184	181	181	180	181	182	183	183	183	183	183	183	182	183	185	186	183	183	182	182	180	180	181	181	185	184	185	183	184	183	183	182	183	183	186	183	185	184	184	184	183	183	183	183	184	183	182	182	183	184	181	184	183	183	182	183	184	185	186	186	189	183	184	185	187	187	185	185	186	185	183	182	180	182	183	183	187	185	185	183	184	181	183	183	184	184	185	184	184	182	183	184	185	185	186	187	187	185	184	185	184	184	180	181	181	183	183	183	183	182	182	181	181	182	182	183	182	182	183	182	184	184	183	182	183	184	183	182	182	183	185	185	186	185	184	185	187	185	185	185	184	183	181	183	185	185	186	182	185	185	186	184	184	183	183	179	180	180	183	184	184	184	183	183	182	183	183	184	183	181	180	181	183	182	183	183	184	184	185	183	184	184	184	184	183	185	183	181	183	183	183	185	183	182	182	183	182	185	187	186	185	186	184	183	184	185	188	187	187	185	183	185	183	182	180	179	181	182	182	183	185	182	181	178	178	182	182	183	184	183	183	182	177	177	178	177	178	181	180	180	181	178	178	181	183	183	183	182	180	181	180	180	181	180	181	181	181	177	175	175	177	178	176	177	178	177	178	178	181	180	180	182	182	181	180	179	176	178	176	175	176	176	177	179	179	179	178	178	178	178	178	178	177	178	177	176	178	178	178	179	178	177	179	175	175	174	173	173	175	175	175	176	176	176	176	175	176	175	174	174	174	173	174	175	176	176	175	175	174	173	174	174	174	174	175	173	173	173	173	174	174	174	172	173	172	172	173	174	175	174	173	174	175	176	176	176	174	172	170	170	169	172	172	172	173	172	172	172	172	172	171	171	171	170	171	170	170	170	171	171	169	170	170	170	170	171	171	169	169	170	169	169	170	170	170	168	167	167	166	167	168	166	166	166	166	167	169	170	170	171	171	171	171	0	0	0
172	172	173	172	173	173	173	171	171	171	171	175	177	175	175	176	175	174	174	174	176	176	176	175	172	172	173	174	174	176	176	176	177	177	176	176	179	178	176	174	173	173	174	174	176	176	177	176	178	178	176	176	174	175	176	176	177	177	177	177	177	178	178	177	177	176	179	177	177	176	177	179	178	178	178	178	176	176	176	176	176	178	178	175	178	176	176	178	178	178	177	175	175	175	176	176	176	177	177	176	175	175	175	176	176	177	177	177	178	178	178	178	179	179	177	178	178	177	178	178	179	178	179	178	178	176	176	176	177	176	176	179	179	178	178	177	176	175	179	179	179	180	180	180	180	180	180	179	180	180	179	179	178	176	179	179	178	177	176	177	175	177	178	178	179	180	180	180	181	182	183	181	180	181	181	180	179	179	179	182	182	180	182	182	183	184	183	179	180	179	180	180	182	182	181	180	181	181	182	181	182	184	184	184	184	184	182	180	180	181	182	181	180	178	181	181	182	182	181	180	181	181	182	183	184	181	182	182	181	181	181	182	182	182	181	181	181	183	183	186	185	183	182	182	183	180	182	182	183	184	183	182	183	183	183	183	182	181	183	183	184	183	183	182	183	181	182	182	183	182	183	181	182	182	185	184	184	182	182	182	183	183	185	185	185	184	184	184	184	186	186	185	185	185	182	182	181	181	183	185	184	183	183	183	181	181	181	181	182	182	183	184	183	183	183	183	183	182	183	185	185	182	181	184	184	184	181	182	182	182	182	182	182	183	182	182	181	182	181	182	182	181	181	181	183	183	183	183	182	183	183	182	181	183	184	183	185	184	183	183	183	186	185	185	184	184	181	183	184	185	185	184	183	184	184	184	184	184	180	180	179	180	182	184	184	181	179	182	183	183	184	184	183	183	182	182	183	183	183	183	182	183	184	183	183	184	183	182	182	182	183	181	182	182	182	183	184	183	183	182	182	181	186	184	182	186	185	183	184	183	187	179	179	179	181	182	182	180	180	181	182	182	180	180	182	182	181	180	177	177	179	180	181	183	181	175	178	179	178	176	175	178	180	179	176	178	178	181	181	181	179	179	178	180	179	177	176	179	177	180	179	178	176	176	177	177	177	176	176	176	177	177	180	180	180	179	179	180	178	177	175	179	175	175	176	177	177	177	177	176	176	178	178	178	178	178	178	178	177	176	176	173	176	177	177	176	175	176	173	172	173	174	174	173	173	173	176	176	177	176	175	173	173	173	172	173	173	173	175	176	174	173	173	173	171	173	171	172	173	176	176	173	174	171	174	172	173	173	172	173	173	174	172	172	174	174	174	175	177	175	174	172	167	170	169	171	172	172	173	173	172	170	170	172	170	170	172	171	170	171	169	169	169	169	169	169	169	170	170	170	171	170	169	168	169	168	168	169	169	170	168	167	167	167	168	168	168	168	167	168	167	170	171	171	171	171	171	0	0	0
173	173	173	170	173	173	174	171	169	171	171	173	174	173	174	174	174	174	173	175	175	174	171	171	172	172	173	174	174	175	176	176	176	177	176	175	178	176	175	173	173	174	175	175	175	175	175	177	177	179	176	177	174	172	174	175	175	175	177	177	178	177	178	177	177	175	174	174	175	175	176	176	175	177	176	177	177	176	176	177	177	177	176	175	174	175	174	175	176	175	175	174	173	172	174	175	175	176	176	176	176	175	174	172	172	175	177	177	178	177	177	177	178	178	177	176	175	177	178	178	178	178	178	178	178	179	177	178	176	176	179	179	177	176	176	177	177	177	178	178	179	178	179	179	180	179	177	179	177	178	179	178	178	176	179	176	177	177	178	178	178	178	177	178	179	180	180	180	181	183	182	180	179	179	179	180	179	178	179	181	180	180	182	182	182	182	182	182	182	181	180	178	178	178	179	180	179	181	181	180	180	180	183	184	183	182	182	181	180	180	181	180	180	180	182	180	180	180	181	181	180	181	182	181	183	181	183	179	180	180	182	181	182	181	180	180	182	182	183	184	185	182	183	182	182	181	182	182	183	184	183	183	183	183	182	182	180	181	183	182	181	183	183	181	180	180	182	181	182	182	182	182	182	181	181	184	184	183	183	182	182	183	184	184	182	182	183	184	183	184	184	184	184	184	183	181	180	182	182	183	183	182	181	179	179	179	181	181	181	181	181	182	183	182	182	180	181	181	180	185	184	183	182	181	182	184	184	181	181	181	182	182	182	182	183	182	182	181	182	182	181	180	181	182	182	182	181	184	185	182	183	182	182	181	183	184	181	182	183	181	184	184	185	185	184	182	181	183	185	185	186	183	183	183	184	183	183	181	180	182	181	181	181	182	181	179	182	183	183	183	184	183	183	183	183	186	184	181	183	181	182	182	181	182	181	181	181	182	182	182	182	182	181	183	183	182	183	183	182	183	183	180	181	181	185	183	181	181	182	177	180	179	178	178	180	182	181	180	180	181	181	178	177	179	180	180	182	180	177	177	177	179	179	180	176	175	177	180	178	176	177	175	174	178	177	176	177	180	180	179	178	178	180	179	179	178	175	177	177	179	179	176	174	175	175	176	176	176	176	175	179	176	178	177	176	177	177	178	177	177	176	174	176	176	175	176	175	175	175	175	174	174	177	178	177	178	177	177	176	176	176	174	174	175	176	177	175	175	174	172	173	173	173	173	173	174	174	174	174	172	172	173	173	172	172	173	173	173	174	174	175	172	170	172	172	173	171	170	172	173	173	177	175	172	169	170	172	172	171	172	173	173	172	173	173	173	173	174	174	173	172	170	168	167	170	170	172	171	171	173	172	170	172	172	172	170	169	170	168	171	169	170	168	169	167	167	168	167	168	170	171	170	170	168	168	169	169	169	171	170	169	167	167	169	168	169	169	169	168	166	169	169	171	171	171	171	168	0	0	0
168	168	169	168	169	170	170	170	168	171	171	171	172	173	171	171	171	173	174	174	174	172	172	171	172	174	174	173	174	174	174	174	175	176	176	175	176	175	172	173	173	173	174	174	174	175	176	177	178	176	177	172	172	173	175	173	173	174	176	177	177	177	177	176	175	175	174	176	175	175	175	175	174	175	176	176	177	177	176	176	177	177	174	174	174	174	174	174	174	174	174	173	172	171	172	174	175	175	175	175	174	174	176	173	173	174	174	175	176	176	176	176	177	178	177	176	176	175	175	176	176	176	176	176	178	178	178	177	176	175	176	177	176	174	175	177	176	177	177	178	178	178	178	178	179	178	176	176	177	178	178	178	177	178	178	177	176	177	177	179	178	178	177	178	178	178	178	180	181	182	182	179	178	179	180	180	178	178	178	179	179	180	180	182	182	181	181	181	182	182	181	178	178	178	179	180	180	180	180	179	179	179	182	182	180	182	181	181	180	178	179	180	180	180	180	178	180	180	180	180	179	181	181	180	181	183	183	181	180	180	181	180	180	180	180	181	182	181	181	182	185	184	183	183	182	181	180	182	183	183	184	183	183	182	181	180	179	181	182	181	181	180	179	182	181	181	181	180	181	182	182	182	182	182	181	181	180	180	180	181	182	182	183	183	183	183	183	182	183	183	182	184	184	183	183	180	179	181	182	182	182	181	179	179	181	179	179	181	181	180	181	181	182	180	179	180	180	180	180	183	182	182	181	181	181	182	181	181	181	181	182	181	182	182	183	183	183	181	181	181	181	181	181	181	182	181	184	182	185	184	183	182	182	181	179	181	182	181	183	182	183	183	183	181	181	181	183	184	184	185	185	183	182	182	182	182	180	180	181	181	180	181	181	181	181	182	182	181	181	181	183	184	183	184	185	184	183	181	179	181	181	181	181	181	179	181	181	181	182	182	181	181	181	178	180	181	182	182	182	181	179	180	181	181	183	183	180	179	181	178	180	179	179	180	180	181	179	178	178	178	175	177	176	178	178	180	180	177	177	177	177	177	177	176	176	176	176	177	178	177	176	178	177	178	177	177	177	178	180	181	181	180	178	180	179	178	174	174	180	179	178	176	175	177	177	175	175	176	176	175	178	176	178	176	177	176	177	177	177	175	174	175	176	176	176	176	175	175	174	174	173	173	173	173	174	176	175	174	174	174	176	177	172	173	173	172	172	174	174	171	172	173	173	173	174	174	174	175	173	173	172	172	172	172	172	172	173	173	173	172	173	171	171	171	172	172	171	170	171	172	175	174	173	172	170	170	172	173	172	172	173	174	173	171	171	173	174	174	173	171	169	169	168	171	172	171	171	171	171	171	172	170	171	170	170	168	168	170	168	170	170	169	169	169	169	167	167	167	168	169	170	171	170	168	167	167	167	168	170	168	168	168	168	169	168	167	167	166	166	167	168	170	169	169	169	169	167	0	0	0
167	166	166	168	168	168	168	168	168	170	171	171	171	169	171	171	171	172	173	174	170	170	169	173	174	174	174	173	174	174	174	173	173	174	175	174	174	172	175	174	172	173	171	170	172	172	174	174	173	172	172	174	174	174	173	171	172	173	175	176	176	176	176	175	174	174	176	177	175	175	175	174	174	177	175	175	175	175	176	176	177	174	174	175	174	174	174	173	174	174	173	173	171	172	172	172	174	174	174	174	174	175	176	176	173	173	174	174	175	175	176	177	177	178	178	179	178	176	175	174	175	176	175	176	177	178	178	177	176	175	174	177	175	174	175	176	176	176	176	177	177	178	178	177	177	176	175	176	177	178	178	176	176	178	178	177	176	177	178	178	178	177	177	178	177	177	177	178	181	181	181	179	178	179	180	179	178	179	179	179	180	179	180	180	180	180	180	180	180	180	180	179	178	178	178	180	179	180	180	178	178	179	180	181	181	179	181	180	180	179	178	180	181	180	180	179	180	179	179	180	179	181	181	179	183	183	183	181	180	182	183	179	180	180	180	181	181	181	180	181	183	184	185	183	182	180	180	180	181	184	184	182	181	181	182	181	182	182	182	182	182	181	182	182	181	179	180	181	180	181	182	181	181	181	184	180	179	179	179	181	181	181	179	180	183	182	182	181	181	180	182	181	183	183	181	180	181	182	183	182	182	181	181	181	180	180	179	177	177	180	181	180	179	180	180	180	180	180	182	181	182	182	180	180	181	180	180	180	181	181	182	183	182	183	182	181	182	181	181	181	181	181	181	181	181	181	181	184	182	185	183	182	181	180	181	184	182	183	182	181	182	181	179	179	180	180	183	179	183	182	183	181	180	181	182	181	179	178	179	180	180	180	179	181	181	181	181	182	180	180	181	182	182	182	182	181	181	180	180	181	182	182	181	180	181	181	181	181	179	178	179	177	176	179	179	180	180	180	180	180	180	180	181	181	181	181	180	180	181	180	177	177	180	179	181	180	178	178	177	175	173	173	176	179	179	177	179	177	177	177	176	176	176	176	176	176	177	176	177	177	176	178	178	178	177	177	175	176	180	179	177	175	178	176	175	179	178	177	179	178	178	177	177	178	178	175	176	177	176	176	175	176	177	179	181	177	177	175	176	175	174	175	176	176	176	175	175	174	175	174	173	172	171	172	173	171	174	173	173	173	172	175	175	173	174	172	173	174	175	172	173	173	173	174	174	174	174	174	172	172	171	171	171	172	171	171	173	173	172	172	171	171	171	171	170	169	170	169	172	171	173	174	172	171	170	170	169	170	171	173	173	173	172	171	171	171	173	171	171	171	169	169	170	171	172	171	171	170	170	170	169	169	170	170	169	167	165	168	167	169	167	169	169	169	168	168	167	166	168	169	169	169	169	169	166	165	165	164	166	167	168	168	170	170	168	167	167	166	166	166	167	167	167	168	168	167	167	0	0	0
167	167	167	168	165	166	167	167	167	167	170	170	170	169	172	172	172	171	172	172	170	170	169	170	173	174	171	171	171	171	174	171	171	173	175	172	174	175	174	173	171	170	168	172	173	173	173	174	174	174	174	174	174	174	172	172	172	172	173	174	175	175	174	174	175	175	176	174	174	172	172	172	173	173	175	174	175	175	173	174	176	174	175	176	174	174	171	172	172	174	174	173	172	172	173	173	171	171	174	174	174	175	173	172	177	176	173	173	174	175	176	177	177	178	178	179	178	173	173	174	175	173	176	175	177	177	177	178	175	176	175	174	174	174	174	175	175	175	175	176	177	178	178	178	175	175	175	175	178	178	177	176	176	176	178	177	177	178	178	178	177	177	177	177	176	177	177	177	178	179	179	178	177	179	179	178	178	178	178	179	180	179	179	178	179	179	180	179	179	179	178	178	178	179	179	180	180	180	179	178	178	178	180	181	181	179	179	179	180	179	179	179	179	179	180	180	180	179	179	180	179	181	179	180	181	182	184	182	179	180	180	180	179	180	180	179	180	180	181	182	182	184	184	181	182	181	180	180	180	182	181	182	179	182	181	180	180	180	181	182	182	181	182	182	181	179	179	180	180	181	180	180	181	183	181	183	181	179	180	181	179	179	179	179	180	179	179	181	180	181	180	180	178	180	181	179	181	183	183	183	182	181	181	182	181	181	179	179	178	179	179	180	180	179	179	179	181	180	179	181	180	180	181	180	180	180	178	178	179	181	181	182	183	179	179	180	181	181	180	180	178	179	178	179	180	181	181	182	181	185	181	182	181	180	181	181	182	182	182	180	179	179	180	180	181	180	179	181	180	181	181	181	179	181	181	181	179	179	177	178	180	180	181	181	181	181	180	180	180	180	180	180	179	181	181	182	181	181	178	182	182	182	181	182	181	181	181	181	179	179	177	178	178	178	178	178	179	180	180	180	180	181	181	181	181	178	180	181	181	181	175	177	177	178	180	180	179	178	177	177	176	174	176	177	177	177	177	177	177	177	176	176	177	176	178	176	177	176	174	176	177	178	178	178	177	177	175	176	176	177	178	177	177	177	174	179	179	177	180	178	176	177	174	172	172	171	172	175	174	175	176	176	176	177	177	177	178	176	176	175	175	175	175	175	174	175	175	174	174	174	173	172	171	171	171	175	175	171	172	173	173	173	175	175	173	173	173	174	174	173	173	173	172	175	174	174	175	176	171	172	172	172	173	173	174	173	173	172	172	170	171	170	171	169	169	169	170	170	171	172	172	172	170	170	169	169	169	169	171	172	170	171	171	172	172	173	172	172	171	170	169	170	169	169	169	169	169	169	164	169	168	168	170	169	168	165	166	166	166	166	167	168	168	168	168	167	166	166	166	168	167	166	168	166	167	167	165	165	166	166	167	168	170	170	169	169	167	165	165	166	166	165	165	166	166	166	166	0	0	0
166	167	165	165	165	164	166	166	168	168	169	170	170	169	172	172	172	173	172	170	170	168	168	169	170	171	171	170	170	170	168	169	169	169	172	172	174	174	173	173	172	171	171	172	173	173	173	173	174	174	174	174	174	174	172	172	172	172	171	173	174	174	174	174	174	176	176	169	170	171	172	172	172	172	174	172	173	173	172	173	174	176	176	174	172	170	171	171	172	173	174	174	174	174	174	173	171	171	171	171	172	173	171	173	171	174	174	174	174	174	174	177	177	177	176	175	174	174	173	176	175	174	176	175	176	176	176	177	175	176	175	175	173	173	174	175	176	174	174	175	177	178	178	175	174	174	175	175	174	176	176	175	176	177	177	177	176	177	178	177	177	177	177	179	178	177	177	177	177	178	178	178	177	179	178	176	175	176	177	180	179	179	179	179	179	179	177	177	178	177	177	178	178	178	178	178	178	179	179	179	177	178	179	179	180	180	180	179	180	179	179	178	178	176	179	179	178	179	179	179	179	178	180	179	178	179	179	178	178	176	179	179	178	178	178	179	179	180	180	180	184	182	181	181	182	181	180	180	180	180	179	179	177	179	180	178	178	178	178	181	181	181	182	180	179	179	179	179	181	179	179	180	179	182	183	180	179	179	179	178	179	179	179	179	179	180	180	180	180	180	181	180	179	179	177	180	179	177	178	181	182	181	180	181	181	180	180	180	179	179	179	180	179	179	178	179	180	179	180	179	179	177	178	179	180	180	180	178	179	180	180	181	182	180	180	180	181	181	180	179	179	180	181	179	180	182	183	182	182	181	181	181	183	182	182	182	181	182	181	181	180	180	179	181	181	181	180	179	181	180	180	181	181	181	182	180	178	176	176	177	177	177	180	180	181	180	180	180	179	179	179	177	178	179	178	180	180	180	179	179	180	180	180	180	181	180	181	181	178	179	179	179	179	178	178	178	178	180	180	180	179	181	181	180	180	180	181	180	180	177	174	176	177	178	180	178	179	178	177	176	176	175	177	178	178	177	177	179	180	180	179	179	176	178	178	178	175	175	175	176	176	177	176	175	177	177	178	175	175	177	177	177	173	172	171	177	177	180	176	178	178	177	177	174	172	172	173	175	174	175	176	172	173	176	176	175	175	171	175	173	172	172	172	173	173	174	174	174	174	173	173	171	171	171	169	169	173	170	170	170	171	172	174	174	172	171	174	175	174	173	173	172	173	173	173	173	173	170	171	171	175	172	173	173	173	173	171	173	170	171	172	170	170	170	169	169	169	169	169	171	169	169	170	169	168	168	169	170	170	169	170	171	171	170	168	168	167	167	170	169	166	168	167	168	168	169	168	168	165	165	166	168	168	168	167	165	165	167	166	166	167	168	168	167	167	166	167	166	166	166	168	166	166	167	167	166	165	164	165	166	166	167	168	166	170	168	167	165	163	163	163	164	164	164	165	166	166	0	0	0
164	167	165	165	164	164	170	170	170	171	169	170	170	170	171	172	169	169	169	169	167	168	168	170	169	170	170	170	170	169	169	168	169	169	170	170	173	173	173	172	172	172	172	171	172	171	171	171	171	174	174	174	174	172	172	172	172	169	169	171	171	173	173	173	173	174	174	172	170	171	172	170	170	171	171	172	170	171	171	171	173	175	174	170	170	170	171	171	172	173	172	172	174	175	174	174	172	169	169	171	171	171	172	173	173	174	173	174	174	174	175	176	174	174	174	175	172	171	173	172	174	174	174	175	175	176	176	172	176	175	175	175	175	175	175	176	175	174	172	174	174	175	175	177	174	176	177	174	175	175	176	178	178	178	177	176	175	175	174	176	177	176	176	176	176	175	177	177	177	178	177	175	178	177	176	176	175	175	178	177	178	178	179	179	178	177	177	176	177	177	177	178	176	176	176	176	178	179	178	177	177	177	177	177	177	176	180	181	180	177	176	176	176	177	177	178	176	179	179	180	179	179	179	179	178	176	177	177	176	177	176	179	179	178	177	178	178	180	179	180	179	181	180	180	180	181	181	178	178	180	180	178	178	179	179	178	177	177	178	178	180	179	179	178	179	179	180	179	179	181	181	179	180	182	183	179	178	178	177	179	179	179	180	181	180	180	180	180	180	180	179	181	179	178	176	177	177	176	179	180	180	180	180	179	181	179	179	178	180	180	178	177	177	177	180	179	179	179	179	180	179	177	177	178	179	180	180	180	180	180	181	180	178	178	181	180	180	180	179	179	180	180	181	181	181	182	182	184	184	181	180	180	182	180	180	180	181	182	181	181	181	182	181	182	181	181	182	181	180	181	180	179	182	181	180	179	179	179	180	180	178	179	180	180	180	180	179	180	179	178	178	179	179	180	182	180	177	181	179	179	178	178	179	181	181	180	179	179	179	181	180	178	178	180	179	180	180	180	179	179	181	181	180	180	180	182	180	180	181	177	177	177	177	178	178	179	179	179	177	177	176	177	177	178	177	177	177	179	180	177	179	175	177	176	177	172	175	176	176	176	177	177	175	177	177	177	175	173	173	174	176	173	173	174	174	174	174	175	174	174	176	177	174	173	172	172	173	173	172	170	170	171	172	173	174	174	175	175	172	171	172	171	172	172	171	171	171	173	173	173	172	171	170	169	170	169	169	170	173	169	169	175	175	175	175	170	170	172	174	173	172	172	172	172	173	173	173	174	173	173	171	173	171	173	171	171	171	173	171	171	171	171	170	169	168	168	169	169	169	170	169	169	169	169	168	168	169	169	169	169	168	168	168	168	167	167	167	167	167	169	166	166	167	167	166	166	166	167	165	165	165	166	168	168	167	167	166	166	166	168	167	167	167	166	166	165	165	166	166	166	166	163	164	166	166	167	165	165	165	167	166	166	162	166	166	164	165	163	165	164	162	162	162	162	162	162	163	0	0	0
166	166	166	166	170	170	169	171	171	171	172	171	171	171	170	171	169	170	168	169	168	170	169	169	165	167	169	170	173	172	169	169	169	169	169	170	169	169	169	172	167	172	171	171	171	170	171	171	171	174	174	173	171	171	171	171	171	170	170	170	173	171	171	171	171	171	172	170	170	171	171	171	170	170	172	172	169	171	171	171	173	173	170	170	169	169	170	170	172	171	172	172	174	175	175	175	173	172	172	170	171	171	173	174	174	174	172	172	173	171	171	175	174	173	172	170	169	168	172	175	176	174	174	174	176	175	175	174	175	176	173	173	176	176	176	177	176	172	174	174	173	175	174	177	175	175	176	174	174	174	173	174	176	176	176	175	175	174	174	174	174	176	178	177	176	176	175	177	177	177	177	174	173	177	177	177	176	177	176	176	176	177	177	176	178	177	175	176	177	178	176	176	176	176	176	176	177	177	176	175	176	176	177	175	177	175	177	179	181	181	177	177	177	176	175	176	176	175	175	179	178	178	179	179	180	176	177	178	176	175	177	177	177	177	178	178	176	178	178	178	179	179	179	180	179	180	180	179	178	178	179	179	180	181	180	178	178	177	177	177	178	178	178	177	178	179	180	179	180	181	181	181	181	182	182	178	178	178	179	179	179	179	180	181	180	180	179	179	179	177	179	179	180	178	177	177	175	179	178	179	179	178	180	180	178	177	178	177	178	180	179	177	178	180	179	179	179	179	181	178	176	179	179	179	179	179	179	178	178	178	177	177	177	178	178	180	181	181	177	177	178	179	180	178	181	180	184	186	186	181	181	181	176	177	178	177	179	181	182	183	184	182	179	182	182	181	182	182	182	181	181	181	178	179	180	180	178	179	179	179	182	182	180	180	178	178	178	177	178	177	176	175	178	177	182	180	176	177	176	177	177	177	176	180	181	179	179	180	179	182	180	178	178	178	179	181	180	181	181	179	179	178	177	180	181	178	179	180	176	178	178	178	178	178	178	177	176	176	176	178	177	177	178	177	173	176	176	177	173	173	175	175	175	175	172	173	175	176	176	176	175	175	175	175	174	176	173	176	175	174	174	173	174	174	174	174	173	174	174	174	174	176	175	173	172	173	175	173	172	170	170	170	171	171	172	174	173	171	171	171	173	174	171	172	171	171	172	171	173	173	173	171	170	171	168	169	172	170	170	168	169	175	174	171	174	170	171	171	171	171	172	173	173	171	173	173	171	171	170	169	170	170	172	171	171	171	171	171	171	171	171	170	169	169	169	168	166	169	169	169	169	169	169	168	168	167	167	168	167	170	170	170	168	167	166	165	166	166	167	167	166	166	166	165	165	166	167	166	167	165	165	166	167	168	167	167	167	167	166	166	166	164	163	165	165	165	166	166	166	164	163	163	163	163	165	166	166	166	166	167	166	165	164	162	161	163	163	163	163	162	163	163	163	162	162	163	162	0	0	0
164	165	167	168	168	170	169	170	170	169	168	167	167	167	166	169	170	169	169	168	170	167	168	168	165	168	170	173	173	172	168	168	169	170	170	169	168	169	169	167	172	169	167	171	170	168	168	169	169	170	170	170	171	170	171	171	172	172	171	169	172	171	171	170	170	170	170	170	171	170	169	170	170	171	171	170	170	170	171	171	170	169	169	170	170	170	170	170	171	171	172	172	172	173	175	174	175	174	174	172	173	173	173	173	173	173	172	172	173	170	170	171	170	170	169	169	168	169	171	174	172	173	174	173	175	175	175	175	172	171	171	171	173	174	175	173	174	173	173	173	174	174	174	173	173	173	173	174	173	173	173	174	175	176	176	174	174	174	173	173	176	176	178	177	176	176	175	174	176	176	175	174	174	175	175	176	178	178	178	176	176	176	176	176	176	176	175	176	176	177	177	178	178	177	177	176	176	177	175	174	174	176	177	176	175	177	177	178	179	184	178	177	176	176	175	175	175	175	175	175	176	177	178	178	178	179	177	177	175	176	176	177	177	177	177	177	176	178	178	178	178	179	179	179	177	177	178	179	179	179	178	178	180	179	179	177	177	178	177	177	177	176	176	177	177	178	179	179	178	179	180	181	179	179	179	178	178	178	179	179	178	178	178	178	178	178	177	177	175	175	177	180	180	179	178	178	176	176	177	178	178	177	179	178	179	178	178	179	177	177	177	178	178	179	178	178	179	179	179	177	177	177	178	177	177	177	177	178	178	178	177	177	177	177	178	180	181	179	179	176	178	179	179	180	178	176	180	178	177	178	178	178	176	176	177	178	178	179	181	182	181	179	177	178	180	179	179	179	179	182	177	178	178	179	179	179	179	180	178	177	178	181	181	180	179	178	176	177	178	178	177	177	176	181	181	179	179	179	176	176	176	176	179	180	180	181	181	179	181	179	178	178	179	178	178	179	178	179	179	178	178	178	177	175	181	178	178	179	177	175	176	177	179	178	177	175	176	174	176	176	177	178	178	176	174	173	176	173	173	173	174	175	174	174	174	174	175	176	175	175	174	174	173	174	174	174	176	174	175	174	175	175	174	174	174	173	174	174	174	175	173	173	171	175	175	175	175	175	173	170	170	169	169	172	174	173	173	173	171	172	171	171	169	168	171	171	171	171	172	174	173	173	170	172	167	169	170	170	170	169	169	171	172	172	172	172	171	172	168	169	170	171	171	171	171	171	172	171	171	171	169	171	169	172	171	170	170	170	171	171	170	170	169	168	167	168	168	165	166	166	167	166	168	166	167	167	166	167	167	168	169	169	168	167	165	165	166	166	167	167	167	167	167	168	167	167	166	166	164	166	166	166	166	166	168	168	168	167	165	165	163	162	165	166	166	165	164	166	165	165	164	163	163	163	164	164	164	166	166	166	165	164	164	164	164	163	161	161	163	163	165	165	163	162	162	164	162	0	0	0
165	164	166	167	167	164	164	170	165	165	166	167	166	166	166	165	168	169	166	167	166	167	165	165	165	167	170	172	172	172	169	170	169	169	168	168	168	169	168	166	169	167	168	170	171	169	169	169	169	170	169	169	171	170	170	171	171	172	172	171	170	171	170	170	170	170	170	171	172	172	171	170	170	170	170	170	170	170	170	171	170	170	169	169	168	170	170	170	170	171	170	171	170	173	175	174	175	173	173	173	173	173	173	173	172	172	171	170	170	170	170	170	169	170	169	170	171	172	172	172	172	172	173	174	174	173	172	172	172	171	171	171	171	173	174	172	173	175	172	174	173	173	174	173	173	173	173	173	171	171	172	173	173	173	173	174	173	174	174	173	174	175	175	177	176	175	175	175	176	177	177	177	176	175	176	176	176	179	177	176	175	175	175	176	175	176	175	175	175	176	176	177	177	178	178	177	177	176	176	175	176	176	177	176	176	177	176	178	177	176	177	177	176	177	175	175	175	173	175	175	176	175	175	175	176	178	179	177	177	177	177	179	179	178	177	176	176	178	179	179	178	177	177	177	177	177	177	178	179	180	179	177	178	178	178	178	178	178	177	178	177	175	176	176	177	176	177	178	177	178	182	180	179	178	178	179	179	178	178	177	176	176	176	176	177	177	178	175	176	177	178	178	179	178	179	178	177	176	176	176	177	178	177	178	179	180	179	177	176	176	176	178	178	179	178	178	178	177	177	177	177	177	177	176	176	177	177	179	177	177	178	177	177	179	179	179	179	178	178	176	177	178	179	180	179	176	178	176	175	176	177	175	175	175	175	176	177	177	176	177	178	178	177	177	179	179	178	179	178	177	174	174	178	178	180	180	178	178	176	177	176	178	179	176	175	176	177	176	177	177	177	176	176	178	179	179	178	178	176	177	177	176	179	180	180	181	181	180	181	181	180	179	178	176	176	176	178	175	177	177	179	177	176	174	177	178	178	178	178	176	175	174	177	178	177	174	173	174	173	174	176	177	175	173	175	173	175	174	173	173	174	173	175	174	174	174	174	173	174	175	175	174	174	173	173	173	174	173	174	174	175	175	173	172	172	173	171	173	173	174	174	174	171	170	172	172	172	173	170	170	172	172	173	174	174	173	174	174	173	173	172	171	171	171	169	171	171	171	170	174	173	174	175	171	169	169	170	170	171	171	172	172	171	170	172	172	170	170	167	166	170	170	170	170	170	168	168	170	171	168	168	165	170	170	170	169	168	168	170	170	170	170	169	169	167	168	168	168	165	165	167	166	168	165	167	167	165	167	166	168	169	168	168	167	166	165	167	167	166	166	166	166	167	165	165	165	165	164	163	164	165	165	165	165	165	167	167	165	165	164	163	164	164	166	165	164	164	165	165	165	164	164	166	165	164	165	164	164	166	166	164	164	164	164	165	164	162	161	161	160	162	162	164	162	162	162	164	0	0	0
164	163	165	165	163	163	163	165	164	164	164	163	165	167	167	164	166	166	167	166	167	166	163	164	164	165	169	169	172	172	168	168	168	169	169	169	169	172	167	166	167	168	168	169	169	171	170	167	167	167	167	167	169	170	170	171	171	169	167	167	167	167	168	171	171	171	172	171	170	171	170	170	170	169	169	169	169	170	170	170	169	168	168	169	169	170	170	170	170	170	170	170	169	168	167	172	174	172	172	171	171	173	169	170	170	170	170	170	171	170	169	168	168	170	170	170	171	171	171	172	173	173	174	172	172	172	170	173	172	172	172	173	172	173	173	173	171	171	171	172	173	172	174	174	173	173	172	172	173	172	172	174	175	175	173	173	173	174	174	174	174	174	174	176	176	176	175	174	173	176	177	175	175	177	176	177	176	175	177	175	175	175	175	175	175	175	175	175	175	176	176	177	177	177	177	176	175	175	175	175	176	176	178	176	176	178	177	176	174	176	177	177	174	175	177	177	174	173	174	174	175	176	175	176	176	176	177	176	177	176	176	177	178	177	176	177	174	177	177	177	176	176	176	177	177	177	177	178	180	180	179	178	178	177	178	178	177	178	178	178	177	176	175	176	176	176	177	175	176	176	179	178	177	177	177	179	178	178	177	175	177	176	175	176	176	176	176	175	175	176	177	176	176	178	178	178	176	177	176	176	176	175	177	177	179	178	177	176	176	177	177	176	178	179	179	177	176	176	175	176	175	176	176	180	176	176	176	176	177	176	176	178	178	178	177	178	179	179	174	174	176	176	178	178	178	178	177	178	178	176	175	174	175	174	174	174	174	174	176	176	177	178	177	177	178	175	177	178	178	178	176	176	177	178	178	177	177	176	175	175	175	178	178	176	176	176	176	176	176	176	176	176	176	178	179	179	178	178	178	176	178	179	180	178	175	178	177	175	175	176	177	176	176	176	176	174	174	175	176	178	174	175	176	173	174	177	178	177	176	176	175	174	176	177	176	174	174	173	173	174	174	175	176	176	176	171	173	173	173	172	174	174	173	174	174	171	173	172	175	175	174	175	174	174	173	173	173	172	174	174	175	175	174	173	171	169	170	170	172	172	172	172	172	171	173	173	172	171	171	170	172	173	173	174	174	173	173	174	172	173	170	170	170	170	171	171	170	170	168	172	173	174	172	168	170	171	170	171	171	171	171	171	171	170	171	171	169	169	169	166	170	169	169	168	168	168	167	166	168	167	166	166	169	170	170	169	168	167	169	169	169	169	168	169	167	168	168	165	165	166	166	166	168	167	167	167	167	165	166	167	169	169	167	166	165	165	167	167	167	166	166	166	166	165	165	165	165	165	164	163	164	164	164	164	165	164	166	165	165	164	163	163	166	166	165	164	161	162	164	166	165	165	165	165	165	165	164	164	165	163	165	165	164	164	164	163	162	161	163	161	161	161	161	162	163	162	164	0	0	0
163	163	164	162	163	163	164	163	164	162	162	165	165	163	163	165	165	166	166	166	165	165	163	163	163	164	166	168	169	168	164	166	167	168	166	169	169	166	166	167	168	168	169	169	169	168	172	166	167	167	168	168	169	169	170	170	169	169	168	168	167	167	169	170	171	171	171	170	170	170	170	170	170	169	169	169	169	169	169	168	170	169	168	169	171	170	169	170	170	170	170	170	168	169	167	171	171	171	171	169	169	168	169	169	170	170	170	170	170	173	170	169	171	171	170	170	170	171	171	171	172	172	173	171	172	172	171	172	173	174	173	173	172	170	173	172	171	170	171	171	170	170	171	172	174	173	172	172	172	171	173	172	174	175	173	173	173	173	173	174	175	173	173	174	175	174	173	173	172	173	174	174	174	174	176	177	175	174	176	175	175	174	175	175	173	175	173	174	175	175	176	175	175	175	176	176	176	174	175	176	177	177	175	175	176	175	175	174	174	174	176	175	173	174	174	176	176	175	174	175	175	176	175	176	177	176	176	175	175	174	176	176	177	177	176	178	177	176	177	176	176	177	177	177	176	177	177	178	179	178	178	177	176	178	178	178	178	177	177	177	176	175	174	174	175	176	176	176	176	179	178	177	177	176	175	177	178	178	177	176	176	176	175	175	176	176	175	177	176	176	175	176	176	176	178	177	176	176	175	175	175	175	176	177	175	177	177	177	176	174	175	176	177	178	179	178	176	175	176	176	176	175	178	176	179	176	178	177	176	176	176	176	175	177	176	179	176	176	174	178	178	175	176	175	176	174	176	177	175	173	173	174	176	175	175	177	173	174	176	176	176	177	179	176	175	176	177	178	177	177	176	175	177	177	178	178	177	177	175	175	176	176	176	176	176	176	176	176	176	176	176	175	176	176	178	177	178	176	177	176	177	178	179	176	177	177	174	174	174	174	174	175	176	176	176	175	175	174	173	173	174	175	175	173	172	171	174	174	176	175	175	174	174	176	173	173	175	175	174	174	174	176	175	176	173	172	173	173	173	172	174	174	175	172	172	172	172	174	175	174	173	173	173	173	173	173	173	171	171	172	175	175	174	172	172	169	169	170	170	171	171	172	172	173	174	173	171	171	170	168	169	170	170	170	172	172	172	172	173	174	174	172	172	171	171	172	170	169	167	170	170	169	170	169	169	170	172	172	171	171	166	168	169	169	169	169	169	168	168	168	169	170	169	168	167	167	165	168	168	170	167	166	168	169	170	169	168	167	165	166	168	168	167	167	166	166	168	165	165	166	167	167	168	166	166	166	167	165	167	167	168	167	168	164	164	165	166	166	168	169	167	167	168	164	164	164	164	164	164	163	164	163	163	164	163	164	164	164	165	165	164	163	164	165	164	164	161	163	164	164	164	165	164	164	164	163	164	163	162	164	164	165	163	163	163	163	163	163	162	162	162	161	162	162	162	164	164	164	0	0
159	159	160	161	164	164	164	162	162	161	161	166	167	167	169	169	169	167	166	165	165	163	163	162	164	164	165	167	168	164	164	163	165	164	166	168	168	166	166	168	168	169	169	168	168	166	164	166	167	166	166	168	168	169	168	168	169	168	168	166	166	167	168	169	171	169	169	169	169	170	168	168	168	167	167	168	168	168	168	168	168	168	169	170	171	170	169	170	171	171	168	168	169	168	168	171	167	167	167	168	167	169	167	168	169	169	171	171	171	170	173	172	170	171	170	170	170	170	171	172	171	171	173	172	172	170	171	173	174	174	173	173	171	172	170	171	171	170	171	171	170	170	170	169	172	172	172	175	173	171	172	171	172	172	171	170	171	172	173	174	174	173	173	173	175	175	174	172	171	172	174	174	174	175	175	175	176	176	176	176	175	174	175	175	175	174	174	174	175	175	174	173	175	174	175	176	176	176	175	176	176	176	176	174	174	175	174	174	174	174	175	175	172	172	172	174	174	175	174	174	175	176	175	173	173	175	174	175	175	174	174	175	175	176	176	176	177	177	177	177	177	176	177	177	177	177	175	174	173	173	173	174	177	179	177	177	174	174	173	175	176	174	174	174	174	175	175	175	177	178	178	176	175	174	174	175	177	177	176	175	176	175	174	175	176	176	175	175	176	175	174	175	175	175	176	178	177	177	176	175	175	175	177	175	175	175	177	177	177	175	177	177	177	177	178	178	176	176	176	177	176	177	175	175	179	178	176	175	175	175	177	176	176	176	176	178	179	179	177	177	176	177	176	177	177	176	176	175	175	174	172	173	173	176	176	174	173	174	176	176	176	175	177	176	175	175	176	176	176	174	175	178	179	177	175	175	176	175	176	173	174	175	175	175	175	175	174	176	176	176	177	176	176	176	175	176	175	175	176	175	173	176	181	177	176	177	175	173	173	174	173	174	176	176	177	175	175	175	174	173	173	173	174	174	173	171	169	172	174	174	173	171	173	175	174	174	176	174	174	173	173	173	174	174	173	171	172	173	172	173	174	173	174	174	172	172	174	174	173	174	174	174	171	170	172	172	171	170	170	170	172	172	172	171	171	170	170	170	170	170	171	171	171	172	172	173	172	168	167	168	169	168	170	170	170	171	172	173	172	168	171	174	171	171	172	173	170	169	167	170	169	168	169	169	170	169	169	168	168	165	165	163	168	169	169	169	168	168	168	167	168	168	168	168	169	168	167	168	168	170	167	168	169	169	169	169	167	165	165	165	167	168	167	165	164	165	167	168	166	165	165	167	167	165	165	164	165	166	166	166	166	167	166	164	163	164	164	163	165	166	167	167	167	168	167	166	164	164	164	164	162	162	163	164	164	164	164	164	163	165	164	164	164	164	164	163	161	162	163	163	163	164	164	163	161	161	161	161	163	160	160	163	160	160	162	161	160	162	163	163	160	161	161	160	159	161	164	164	0	0
159	164	164	165	166	164	164	162	160	161	164	164	163	164	166	166	168	166	165	165	161	160	161	161	162	162	164	165	165	165	163	162	162	163	166	167	166	166	165	166	168	167	168	167	165	164	162	165	166	167	167	167	168	168	167	168	167	166	166	166	167	167	166	168	168	167	168	168	168	168	166	167	168	169	166	167	167	167	168	167	167	167	170	170	171	169	170	169	168	167	167	168	169	169	169	168	168	168	167	167	170	169	170	170	170	169	168	169	169	170	171	171	171	170	169	170	170	170	171	172	172	171	171	172	172	170	170	171	172	174	173	171	171	171	170	170	170	170	170	170	170	170	170	170	170	173	175	174	171	172	173	171	171	170	171	170	171	172	173	173	173	173	173	174	174	174	173	170	169	171	173	174	174	171	172	171	175	174	175	175	173	173	174	175	175	174	174	173	175	175	174	174	174	174	173	176	175	174	174	173	174	174	175	174	174	174	174	174	174	174	175	175	172	171	174	172	173	173	175	174	175	176	174	172	173	175	174	174	176	176	175	174	175	175	176	175	174	174	175	176	176	176	176	176	176	176	176	174	173	173	173	172	173	174	176	174	174	174	174	175	174	174	175	173	174	175	174	175	176	178	178	176	176	175	175	174	176	175	174	174	175	174	175	176	177	176	175	175	175	175	175	174	175	176	177	177	176	176	176	175	175	174	175	174	175	177	176	176	176	176	176	177	176	176	175	177	177	177	176	177	175	176	176	175	176	175	176	177	174	177	178	177	177	177	177	179	179	179	177	177	177	178	177	175	175	175	176	175	174	174	174	173	172	173	174	174	173	174	175	176	175	175	172	174	173	175	176	176	175	173	174	174	174	178	175	174	174	175	176	175	174	172	172	175	174	175	174	174	175	176	177	177	175	176	176	174	174	175	174	174	175	176	177	176	178	175	174	174	173	173	173	174	175	176	176	171	174	175	175	174	174	173	173	174	173	174	171	169	171	172	172	172	172	173	173	175	175	174	174	172	171	172	174	174	172	172	172	173	174	176	174	173	173	172	172	172	172	173	174	174	174	174	171	172	171	171	168	171	170	170	171	171	170	171	171	169	170	172	173	172	171	171	171	172	170	169	172	168	170	169	168	169	169	168	167	171	170	171	168	172	171	171	171	172	171	168	168	169	168	168	169	168	168	167	169	168	169	169	167	165	165	163	162	167	169	168	168	167	166	166	165	166	167	167	168	167	167	168	171	171	171	168	168	168	169	167	167	165	166	165	165	166	166	164	165	167	167	167	165	165	166	165	165	166	166	165	163	164	163	165	164	165	164	164	164	164	163	164	165	165	165	165	166	166	165	165	165	165	164	165	163	163	162	163	164	164	162	162	163	163	166	165	165	165	164	161	159	159	159	161	160	159	159	159	161	159	159	158	158	158	160	160	160	160	159	157	159	160	160	160	160	160	161	160	159	158	158	163	0	0
159	160	160	163	163	163	163	162	159	161	164	163	163	163	161	160	160	161	160	161	160	160	161	160	161	162	162	161	164	164	162	162	162	164	165	167	165	165	164	166	166	165	167	165	165	165	165	163	165	166	164	164	165	166	167	167	164	164	164	164	165	165	166	165	165	167	166	167	167	168	167	167	168	169	168	168	168	167	167	168	166	166	167	168	169	170	171	171	168	167	168	168	170	169	169	167	167	166	166	167	168	169	170	171	169	169	168	169	170	170	170	170	171	170	170	171	170	170	169	168	170	169	171	170	170	170	169	171	172	174	172	171	170	170	171	171	170	169	170	171	170	168	170	171	171	172	172	170	173	172	173	171	169	170	170	172	170	172	172	172	172	173	173	172	172	171	172	168	168	171	171	172	172	171	170	170	173	172	173	173	172	172	173	173	174	173	172	173	174	175	172	173	174	173	172	173	174	174	173	173	173	173	173	173	173	173	173	173	173	173	175	174	172	172	171	172	173	174	174	175	175	174	174	174	175	174	173	173	176	175	172	174	175	176	175	173	173	172	174	173	174	174	175	175	176	176	175	174	174	173	173	174	174	175	175	175	175	174	175	173	174	173	173	174	176	176	175	175	177	176	176	175	175	176	176	176	176	173	174	175	173	174	173	174	175	175	174	175	174	175	174	175	175	176	178	176	176	176	175	176	175	175	175	175	175	175	175	175	175	176	175	177	176	175	173	176	176	176	176	175	176	176	175	176	176	175	175	175	174	175	176	177	175	176	176	178	179	178	176	176	176	179	177	176	176	176	175	174	173	174	174	171	172	172	173	173	174	174	175	175	174	173	172	173	172	173	175	176	174	173	174	174	174	174	172	173	173	174	173	173	173	172	173	174	174	174	175	174	175	177	177	177	178	177	176	175	174	175	172	175	175	175	175	175	177	175	174	174	173	175	173	173	174	175	176	173	173	174	174	174	173	173	172	173	174	174	174	174	173	172	172	173	174	174	174	174	174	173	174	172	172	172	174	174	172	172	171	173	173	177	177	173	171	172	172	172	174	172	171	171	171	171	172	172	172	169	169	169	170	170	171	170	170	170	171	171	169	170	172	173	171	170	170	170	169	168	172	169	168	169	169	170	168	167	165	169	169	168	171	171	167	168	170	167	167	165	164	169	168	168	169	169	170	169	169	170	167	167	167	166	162	163	163	166	166	168	167	167	167	165	165	164	166	166	165	166	166	168	168	165	166	167	166	167	166	168	167	166	165	164	165	166	165	164	164	166	167	169	167	167	164	164	164	163	163	163	165	163	163	163	164	164	164	164	164	163	164	165	163	164	164	165	165	165	164	164	165	165	164	164	164	163	163	163	163	163	163	162	162	164	164	166	166	166	163	161	160	160	160	159	160	156	159	160	161	159	159	158	158	160	160	161	160	159	158	157	157	159	159	160	161	160	160	161	159	159	159	159	0	0
161	160	162	162	162	160	161	161	161	163	163	163	162	162	160	160	160	162	162	158	160	160	162	162	161	161	161	161	163	163	160	162	162	164	163	163	163	162	162	163	165	165	165	165	165	165	166	165	163	162	164	165	165	163	164	166	164	166	166	166	167	167	167	167	165	165	167	165	165	166	168	168	168	169	168	169	169	168	166	166	166	167	167	168	169	170	170	169	167	167	168	168	168	169	168	168	166	167	167	167	170	170	171	171	171	170	169	167	168	169	169	169	169	169	169	171	169	169	169	169	169	170	170	172	170	170	169	170	170	171	172	170	170	170	171	171	171	170	171	170	169	170	168	169	170	169	170	170	171	170	171	169	169	169	169	172	170	172	173	172	172	171	168	173	172	170	172	172	173	173	173	171	171	171	171	168	170	172	172	171	171	171	171	171	171	172	171	171	174	173	171	173	172	171	170	171	173	174	174	173	172	173	173	172	171	171	173	174	173	173	175	174	174	173	171	172	172	174	174	174	175	172	174	174	173	173	173	173	175	175	173	172	175	175	173	171	172	173	173	172	173	174	174	174	174	173	172	172	172	172	173	174	174	175	176	175	175	174	173	173	174	173	176	174	177	178	178	176	174	175	177	176	174	176	176	176	172	174	171	172	174	174	173	172	173	175	175	173	172	174	175	175	176	177	177	177	175	175	175	175	174	176	175	175	175	174	174	174	174	174	175	176	175	173	173	174	176	174	175	176	176	176	176	175	176	173	174	176	175	174	174	174	175	175	176	176	177	175	175	176	175	177	175	175	176	177	176	174	172	175	173	176	173	172	174	174	174	174	173	173	174	174	174	172	172	173	174	175	174	174	174	173	174	172	171	173	173	173	173	172	172	172	173	174	174	175	174	174	175	176	175	178	174	173	173	172	174	175	175	173	174	173	174	174	173	173	173	173	173	173	173	173	173	173	174	172	170	173	174	174	173	172	173	173	174	174	174	174	176	173	173	175	174	174	174	175	175	175	174	172	173	173	174	172	171	172	171	170	171	171	175	173	173	174	174	174	172	174	172	171	171	169	168	167	169	168	167	168	171	172	170	169	171	172	173	171	170	171	172	171	170	169	167	169	168	167	168	167	168	170	170	168	167	167	170	168	169	168	170	171	167	168	170	168	166	165	163	164	167	167	167	168	169	170	169	167	167	167	167	167	166	164	165	165	165	168	166	167	165	164	164	164	165	165	167	169	169	168	164	164	164	166	166	166	166	166	167	167	166	166	165	165	165	163	164	163	163	163	165	164	163	163	162	162	160	163	164	161	162	163	164	164	164	165	165	164	165	165	164	164	163	163	162	162	163	163	163	163	164	164	164	163	161	161	162	160	161	163	163	162	162	161	160	160	163	162	162	162	160	161	159	159	159	161	161	159	158	159	159	158	159	161	160	159	158	159	159	159	159	160	159	159	160	161	159	159	159	159	0	0
161	161	161	161	159	159	159	159	160	164	163	162	160	160	160	159	161	161	161	162	161	162	163	163	162	161	162	162	163	160	162	163	164	163	162	161	162	161	163	163	165	165	165	165	165	164	165	165	164	163	162	163	163	164	164	165	166	165	166	167	167	165	165	167	167	168	167	167	167	167	168	167	166	166	168	167	168	166	165	165	164	165	167	166	169	170	167	166	167	167	168	168	168	169	169	167	169	169	166	167	167	169	169	167	168	169	169	168	168	167	169	169	170	168	168	168	168	169	168	169	169	170	171	171	170	167	167	169	170	172	169	170	170	170	171	171	171	170	171	169	171	172	167	166	168	168	170	169	170	169	169	169	169	169	171	169	170	170	170	171	170	171	171	170	171	169	172	173	173	174	174	173	172	171	170	171	171	173	173	173	171	171	171	171	171	171	170	171	172	172	172	171	171	170	169	172	170	175	175	173	173	172	172	171	172	171	173	172	173	173	171	171	174	174	174	171	172	174	174	174	173	174	172	173	172	172	172	173	173	173	173	172	172	175	173	173	172	173	173	172	172	172	171	171	172	172	173	172	172	172	172	172	176	175	175	174	173	173	173	173	174	172	174	176	174	177	177	174	174	175	174	174	170	173	173	174	174	176	174	171	171	174	174	172	171	170	172	172	173	173	173	174	175	175	175	175	175	174	174	174	174	174	175	175	175	174	173	173	173	173	173	175	174	173	173	173	175	172	173	175	175	173	172	173	174	175	175	176	175	174	174	175	175	174	173	176	174	175	175	175	175	175	172	173	175	176	176	172	172	172	174	174	173	175	173	173	172	174	172	172	173	173	173	172	172	173	174	173	174	173	173	173	173	172	172	171	172	172	173	173	172	174	174	175	174	174	172	173	173	173	176	172	172	173	172	171	170	172	172	172	171	172	173	174	174	175	173	173	171	174	173	171	172	172	173	172	171	172	173	173	173	172	172	173	174	173	173	173	174	173	172	173	173	173	174	172	174	173	173	172	173	173	173	171	171	171	171	171	171	171	171	172	171	173	173	172	172	169	169	172	172	171	170	170	169	167	168	169	170	170	171	174	173	172	173	173	173	171	171	170	170	169	169	166	168	168	169	165	165	167	169	170	171	168	171	170	170	169	168	168	168	170	168	167	166	165	163	164	168	167	166	166	170	169	167	167	167	165	165	166	166	164	165	164	166	166	166	165	164	164	164	164	165	166	165	164	164	166	163	163	164	166	166	166	166	165	167	167	165	165	165	165	165	163	162	162	164	163	164	163	163	163	162	161	160	163	161	160	162	162	162	164	165	163	163	166	165	163	163	164	164	163	163	162	162	162	161	161	163	162	162	162	162	161	160	160	160	161	161	161	160	160	159	159	163	162	162	162	161	161	163	160	159	160	159	160	160	160	160	161	160	162	159	160	159	159	159	158	159	160	159	160	158	159	159	158	157	156	0	0
160	160	161	158	158	157	158	161	161	162	162	160	160	158	160	159	160	160	163	164	164	163	163	161	163	163	162	162	161	164	163	163	163	163	160	160	160	161	163	163	163	163	164	164	164	164	164	165	165	163	163	164	164	164	165	165	165	166	165	166	165	165	165	166	167	167	167	167	167	167	167	166	166	166	167	166	166	166	165	165	165	164	165	162	163	166	166	166	167	167	168	168	169	169	169	168	169	169	166	165	165	168	168	166	167	167	167	166	165	166	167	169	168	168	168	168	167	169	170	169	171	169	170	169	169	167	166	169	170	168	170	169	169	168	170	169	168	168	168	170	172	170	168	168	168	169	170	169	168	170	170	171	170	170	170	171	170	170	169	170	170	169	169	170	171	171	169	169	169	169	170	171	170	172	171	171	171	170	170	170	170	170	170	170	171	169	170	168	170	171	171	171	169	169	170	170	171	171	173	173	172	172	172	172	172	171	171	172	172	173	173	173	173	173	170	172	172	174	174	174	172	171	171	169	171	170	171	175	175	175	173	172	172	172	173	172	172	172	172	172	171	171	171	172	172	173	173	172	172	172	171	172	173	176	174	173	173	173	173	173	173	174	173	174	176	177	173	172	174	173	174	171	171	174	172	173	174	173	173	176	174	174	171	174	173	172	171	171	173	173	173	174	174	174	174	174	174	173	173	174	172	172	174	174	175	173	172	172	172	173	173	174	174	174	174	174	176	172	172	173	170	174	172	172	173	175	174	175	175	174	175	175	175	175	172	173	173	174	174	174	174	174	173	172	175	173	173	169	168	171	174	174	175	173	174	173	172	173	172	171	171	173	174	173	174	172	173	173	175	175	174	173	173	174	175	175	175	173	174	173	172	172	174	169	173	174	173	172	173	171	172	172	172	173	172	172	172	171	173	172	171	172	173	172	174	173	173	171	174	173	172	171	172	173	171	172	172	172	171	170	172	171	170	173	173	173	173	172	172	172	172	173	173	173	173	172	173	172	172	172	170	173	172	168	170	171	171	171	171	171	171	169	174	170	172	172	172	168	168	169	172	172	170	171	170	169	170	171	171	171	171	172	170	169	167	168	168	171	171	170	169	169	166	167	167	168	168	167	167	169	169	169	167	169	168	168	168	169	168	166	167	169	168	171	168	167	167	167	167	166	165	165	164	165	165	168	166	165	166	166	165	166	166	166	167	166	165	165	165	165	165	164	164	164	164	164	165	167	163	163	165	165	165	165	165	165	165	165	165	165	165	163	162	162	161	162	163	164	164	163	162	162	161	161	160	161	160	163	160	160	162	164	165	163	161	160	162	163	163	162	163	163	161	162	162	161	160	160	160	159	159	159	160	160	160	160	160	162	161	160	159	160	160	161	162	163	162	162	162	161	160	163	161	158	158	158	158	158	161	161	161	160	156	156	158	156	156	156	156	155	158	159	158	158	158	157	156	157	0	0
157	161	160	158	158	157	158	159	159	161	161	160	158	158	159	160	163	163	163	163	163	164	161	161	163	162	163	162	162	162	163	163	162	160	159	159	160	163	164	162	162	161	161	162	164	164	163	164	165	162	162	164	165	165	165	165	164	166	164	164	164	164	165	168	167	167	166	166	166	166	166	164	166	165	163	165	166	165	164	163	164	164	165	165	163	163	164	167	167	165	164	164	167	167	167	168	167	167	165	164	165	165	166	166	167	168	167	167	166	167	167	168	168	167	167	166	166	168	168	171	170	169	168	168	167	166	167	168	169	170	168	167	166	167	169	169	168	168	168	170	171	170	168	169	169	168	169	169	168	168	170	171	170	170	170	171	169	169	169	168	168	167	166	168	170	169	168	168	167	168	170	171	171	170	170	170	170	169	170	170	170	170	170	171	168	168	168	168	170	171	171	169	169	169	170	171	171	170	171	173	173	172	171	173	172	172	172	172	173	174	172	172	173	170	172	169	171	171	172	174	172	171	170	170	171	170	171	174	175	174	173	172	173	171	172	172	171	172	171	171	170	170	170	171	171	172	172	170	173	170	171	171	172	173	173	172	172	172	172	173	173	173	172	173	173	172	173	171	171	173	174	171	170	171	173	173	172	173	174	173	173	174	172	171	171	171	171	173	172	171	171	171	172	171	171	171	173	173	171	172	171	172	173	174	175	174	173	174	172	172	173	174	175	173	174	176	174	173	171	173	172	171	170	173	174	174	175	175	173	175	175	175	175	174	172	172	173	172	174	175	172	171	172	173	172	172	167	167	166	173	173	173	174	173	168	169	171	172	171	171	172	174	173	174	172	172	172	173	175	174	0	0	0	171	172	175	175	172	172	172	171	171	171	169	171	173	175	172	172	172	172	172	170	172	172	172	170	171	171	173	171	172	172	173	173	172	172	170	172	172	172	171	170	170	172	172	172	172	171	172	172	171	168	169	169	173	172	172	171	171	170	171	173	173	172	172	172	172	172	171	170	171	171	169	167	169	169	171	172	171	170	170	169	171	171	170	170	170	169	171	171	172	170	172	169	170	169	169	170	170	168	168	169	168	167	167	168	170	170	170	169	169	169	168	169	169	169	168	168	168	168	169	167	169	166	168	168	167	167	166	169	170	170	167	166	166	165	166	167	165	165	161	163	165	162	165	164	165	166	166	165	165	165	165	165	165	166	165	165	165	165	164	164	164	164	163	162	162	163	161	162	164	164	164	163	165	165	165	165	164	163	163	161	162	161	162	163	164	164	163	162	162	160	160	161	161	163	163	163	162	162	164	165	161	160	160	162	164	163	161	163	163	162	162	161	160	160	162	159	159	159	158	160	160	159	160	162	162	161	161	161	160	159	161	162	162	162	162	159	159	162	159	159	156	157	157	157	159	159	160	159	154	156	155	157	157	154	155	155	155	155	155	159	159	158	155	157	157	0	0
158	161	160	158	158	156	157	159	159	159	160	160	158	158	160	160	162	161	161	159	160	161	162	162	161	162	161	161	161	162	162	164	163	159	159	161	162	163	164	163	163	160	160	162	163	163	163	163	164	162	162	162	163	165	165	165	165	162	162	163	164	164	164	168	165	165	164	164	165	163	164	164	162	163	163	162	163	164	163	163	164	165	165	164	164	164	164	165	166	164	164	164	164	165	166	166	165	164	163	165	165	165	164	166	166	168	167	168	167	167	167	167	166	167	167	167	167	167	168	167	171	170	168	166	165	167	167	167	169	169	166	167	167	165	166	169	169	169	168	168	168	169	169	169	170	169	170	169	168	168	168	171	170	170	170	170	168	167	166	166	166	166	166	170	169	169	168	168	168	169	170	170	170	169	170	169	168	169	170	170	171	169	169	168	170	172	170	167	168	171	170	171	169	170	169	170	170	170	170	171	174	170	172	171	173	172	171	170	170	172	172	171	170	169	169	170	171	171	172	171	170	169	169	170	171	172	173	173	173	171	171	172	173	171	170	169	169	170	170	171	170	169	169	169	171	171	172	171	173	172	172	172	171	172	173	172	172	172	172	172	172	173	172	172	171	170	170	170	171	173	173	173	172	174	174	174	172	173	172	173	173	171	171	171	171	171	173	173	172	171	172	171	171	170	170	171	172	172	171	172	173	175	174	174	174	174	174	172	172	171	172	172	173	172	172	174	174	173	171	171	172	170	170	173	174	175	175	172	173	174	175	175	174	172	172	172	173	172	174	174	172	170	171	170	170	172	170	167	170	171	172	172	171	168	169	168	170	171	171	170	171	172	171	174	172	172	169	171	173	0	0	0	0	171	171	172	172	172	172	172	172	171	171	170	171	172	171	171	172	173	172	170	170	171	171	171	171	170	171	171	173	175	175	174	173	172	173	174	170	170	172	172	172	170	170	172	172	172	171	172	172	170	171	170	169	169	169	170	170	170	170	170	171	172	173	172	172	172	172	171	169	169	169	169	172	169	168	168	169	168	168	168	169	170	170	170	169	169	169	170	169	170	171	170	168	169	169	169	168	168	167	167	168	167	165	165	166	169	169	169	169	168	168	168	167	168	168	168	167	166	168	166	165	166	167	166	166	165	165	166	167	167	170	166	164	163	163	163	166	168	168	167	165	161	163	162	162	164	167	165	165	165	165	164	164	165	166	166	164	164	163	164	164	164	164	164	162	163	162	162	161	162	162	163	163	164	166	166	165	164	164	163	162	162	164	162	162	163	163	163	162	160	160	161	161	161	162	163	163	160	160	161	165	166	162	162	163	163	162	162	163	162	161	162	160	159	159	162	161	161	161	161	160	160	158	161	161	160	161	162	162	160	159	158	161	159	159	159	159	158	158	158	159	158	156	156	156	158	159	158	158	157	153	156	156	157	157	157	157	156	156	155	155	159	157	157	157	157	0	0
161	161	160	158	156	155	156	156	158	158	159	160	159	160	160	159	161	159	160	160	160	160	161	161	161	161	159	159	160	160	162	162	162	159	161	162	162	163	163	163	161	161	161	162	162	162	163	162	162	163	162	162	163	163	162	162	162	161	162	163	163	163	162	162	162	161	162	163	161	161	161	162	161	161	163	162	162	165	164	164	163	164	164	165	163	164	165	165	166	164	163	164	164	164	164	165	165	164	164	163	164	164	165	165	164	166	166	167	167	166	167	168	167	166	167	167	167	167	168	167	167	169	167	165	167	167	168	168	169	167	167	166	166	168	166	167	167	169	166	166	167	169	170	170	169	168	167	168	169	169	170	168	169	169	169	168	167	169	168	167	165	165	166	168	169	169	169	169	168	168	168	169	169	170	170	170	170	168	169	170	171	170	171	169	172	172	168	167	170	170	170	171	171	170	170	169	169	170	170	171	173	170	172	174	173	170	169	170	169	169	170	169	169	169	170	170	170	171	171	171	171	169	169	168	170	173	173	173	169	170	171	171	172	172	170	169	169	172	170	168	170	169	169	168	169	170	170	171	171	171	171	170	170	171	173	172	172	172	171	173	173	171	172	172	169	169	170	170	170	172	172	173	173	171	173	171	173	171	171	173	173	172	171	169	171	172	172	172	171	172	172	171	170	170	171	170	171	171	171	171	173	172	172	170	172	172	173	172	172	172	172	172	172	172	172	171	171	171	170	171	170	172	171	172	173	174	173	173	172	171	171	172	172	174	173	172	172	172	173	173	173	171	170	167	170	170	169	170	171	172	171	171	171	169	168	168	171	171	172	172	170	169	171	171	174	171	170	168	170	171	0	0	0	168	168	170	170	172	172	172	172	171	171	170	170	171	171	171	172	171	170	171	171	170	170	170	170	170	169	171	174	175	175	176	176	172	173	174	175	171	170	171	170	170	170	171	171	171	169	169	169	169	170	170	170	169	169	169	170	169	169	169	169	168	169	172	173	172	171	170	170	168	168	170	169	170	170	168	168	167	167	167	167	170	169	169	169	168	170	169	170	170	169	170	168	166	167	167	168	167	167	167	169	169	167	166	168	169	168	168	168	167	167	167	167	166	168	166	165	165	167	166	168	166	165	165	164	164	165	166	165	165	166	166	164	163	162	164	168	168	168	166	165	160	159	163	162	164	166	167	164	164	164	164	164	164	165	164	164	163	164	164	163	164	164	163	163	163	160	161	160	162	162	163	164	164	162	166	165	163	162	162	162	165	165	163	163	164	163	162	161	160	161	160	160	160	159	159	161	161	159	160	160	161	163	161	161	163	160	161	161	163	161	160	160	157	156	162	162	161	160	158	158	159	160	159	159	159	161	161	160	159	157	157	158	158	158	158	158	158	158	158	158	157	157	156	157	157	159	159	157	157	157	155	155	156	153	153	153	155	156	156	156	157	157	157	154	153	0	0
157	157	159	158	155	155	156	156	157	159	159	159	161	160	160	159	158	159	159	159	159	160	161	161	161	159	158	159	159	159	158	159	160	159	162	162	161	163	162	161	159	159	160	162	162	162	162	162	162	162	164	163	163	163	162	162	161	162	162	162	162	159	161	161	161	160	162	162	161	160	161	161	161	161	162	162	162	164	165	164	163	162	163	163	164	165	166	165	165	165	164	164	163	163	163	164	166	166	164	163	166	165	164	165	165	164	163	166	166	166	166	166	164	165	165	167	167	168	168	168	167	166	166	167	167	166	166	166	166	170	166	166	165	164	165	166	167	165	165	166	166	167	169	169	168	167	167	167	167	169	168	167	167	168	168	168	168	168	168	167	166	165	166	170	167	169	169	169	169	168	168	169	170	168	168	169	169	170	169	169	170	171	171	170	169	170	169	167	166	165	168	168	168	169	169	169	169	171	169	169	170	171	173	171	172	169	170	170	170	169	170	168	169	167	167	171	170	171	171	172	171	170	169	169	171	171	171	169	168	170	171	171	171	169	169	169	169	169	169	169	171	172	172	171	170	171	172	171	170	169	170	170	171	169	170	172	172	172	172	172	173	172	172	170	169	169	170	170	171	166	174	167	169	171	172	171	170	171	171	172	173	170	169	168	169	171	171	171	173	173	171	171	169	170	170	170	171	171	170	170	170	171	170	167	168	167	169	171	173	172	173	172	172	173	171	171	170	170	169	170	173	171	172	172	171	169	168	171	173	171	171	169	173	174	174	171	170	170	172	172	172	170	169	167	170	170	170	171	171	173	171	172	170	171	170	170	171	171	170	171	170	172	172	173	172	170	168	167	167	169	169	169	168	168	168	169	170	170	171	171	173	173	171	170	170	169	169	170	171	169	170	174	173	171	170	172	172	173	172	173	173	174	175	175	175	172	173	173	171	171	171	169	170	169	169	169	170	171	169	172	168	169	169	170	170	170	170	169	167	166	169	168	169	167	165	171	171	172	171	170	170	168	166	169	171	171	171	171	167	165	166	166	168	168	170	168	169	167	168	167	168	170	171	168	169	168	167	167	167	167	167	168	169	169	168	166	166	166	168	168	166	168	167	167	167	168	167	166	165	164	164	166	168	168	165	165	165	165	164	163	165	165	166	167	166	165	163	165	166	167	167	166	165	164	162	162	164	164	165	164	162	164	163	164	163	163	164	163	164	164	163	165	164	163	163	164	165	163	162	160	161	161	162	162	163	164	160	165	164	162	162	160	162	165	165	162	163	163	162	161	161	160	160	161	160	160	160	160	160	160	159	160	160	160	162	162	161	161	161	161	160	161	161	161	160	160	158	156	158	158	157	158	160	157	157	157	157	156	159	160	160	158	158	157	157	157	157	157	156	156	158	158	157	157	157	157	157	157	158	157	158	157	156	156	154	155	154	152	153	154	156	156	155	158	157	156	156	154	0	0
157	158	158	157	157	156	156	156	157	157	157	159	159	159	159	159	159	159	157	157	157	160	159	159	159	159	158	158	158	159	159	158	161	161	161	161	161	162	160	159	160	160	160	163	163	162	160	162	160	160	162	161	162	163	162	162	162	162	162	162	161	156	160	160	160	161	162	161	160	161	161	161	161	162	162	162	162	164	165	162	163	163	163	163	163	163	164	165	163	162	163	164	163	163	163	163	164	164	164	163	165	166	165	165	164	162	162	163	164	162	163	162	166	163	163	165	166	166	166	166	165	165	167	167	166	165	163	164	167	166	166	165	165	165	164	165	165	165	165	165	165	165	166	168	167	166	166	166	167	168	167	167	167	166	167	167	167	168	168	168	164	164	166	170	168	167	165	167	170	169	169	168	169	167	167	168	169	169	168	168	170	170	170	168	168	168	168	167	166	166	167	169	168	167	169	168	169	171	169	169	168	168	169	169	168	168	170	170	171	168	170	170	167	167	170	170	170	169	171	171	172	171	171	171	171	171	171	169	169	169	170	169	171	170	169	169	169	171	171	171	171	172	172	171	171	171	171	171	170	169	169	168	169	170	170	168	169	170	172	172	172	170	170	169	169	169	171	170	170	166	169	167	169	170	169	170	170	170	170	171	171	171	169	168	169	169	170	170	172	170	171	171	170	170	170	170	170	170	169	169	170	170	169	167	169	169	171	173	173	173	172	172	173	172	170	169	169	170	170	170	171	171	172	173	172	169	170	171	171	171	172	172	174	171	173	170	168	169	169	169	173	168	167	168	170	169	168	171	170	171	171	171	170	171	170	171	169	171	170	169	168	170	171	172	171	169	166	167	167	168	169	169	169	169	169	167	170	171	171	170	171	172	173	171	169	171	168	167	171	170	169	172	172	169	167	167	168	171	170	173	172	173	172	174	173	172	172	171	170	170	171	169	170	167	167	169	171	172	170	169	168	168	169	170	171	170	168	168	167	167	168	169	169	168	168	165	170	171	171	171	170	165	170	171	171	171	169	170	166	164	166	165	167	167	170	170	170	170	170	167	167	167	166	167	169	167	167	166	165	166	166	167	166	166	168	166	166	165	163	164	167	166	165	165	166	167	166	165	165	165	165	165	164	165	164	165	164	164	164	164	164	164	165	167	166	163	163	165	165	166	165	165	163	163	163	163	164	164	164	163	162	166	165	164	164	164	164	164	164	163	163	163	163	163	163	162	163	163	162	162	162	161	161	162	162	164	160	164	162	162	162	160	161	161	161	161	160	162	162	161	161	161	160	160	158	158	160	160	160	160	160	160	160	160	162	161	161	160	160	159	160	161	160	161	161	160	160	158	157	156	157	158	160	157	156	155	156	160	159	160	159	159	157	156	156	157	156	156	156	156	156	158	156	156	155	155	155	158	158	159	157	156	156	155	156	155	155	155	154	153	154	154	155	156	156	158	156	155	155	0
159	159	159	158	158	156	156	156	156	156	157	157	157	159	160	160	159	159	159	160	160	160	159	158	160	160	158	158	158	158	159	159	160	161	161	162	162	160	159	159	162	163	163	162	163	162	159	159	160	160	160	161	161	162	162	162	162	162	162	163	163	160	159	160	161	161	160	159	160	161	161	160	162	162	162	163	162	163	164	163	162	163	163	164	163	163	163	164	163	160	162	162	161	161	162	164	164	163	163	163	161	161	161	164	164	162	161	162	164	162	162	163	164	164	162	163	164	165	164	165	163	163	165	161	165	164	164	165	165	163	165	165	163	164	163	164	165	165	165	166	165	165	167	167	167	167	167	166	168	168	168	167	168	166	167	166	165	167	167	165	164	164	166	169	168	166	166	166	168	166	166	167	166	166	165	167	168	168	170	168	167	167	168	169	168	168	168	167	166	168	168	168	168	167	169	169	168	172	172	169	167	167	167	168	168	167	168	168	168	170	170	170	170	169	167	167	170	167	167	167	169	170	168	170	170	170	170	168	169	168	169	170	168	169	170	169	170	171	171	171	172	170	170	171	171	171	172	172	169	169	168	169	168	168	167	169	171	170	171	169	170	170	169	168	168	169	170	172	172	167	166	167	167	167	168	170	170	168	170	172	171	170	170	169	168	169	169	170	170	169	169	168	170	170	170	170	170	168	168	169	168	170	170	170	169	170	170	171	171	171	172	172	171	170	170	168	169	169	170	170	171	172	169	171	168	169	170	171	171	171	171	172	173	173	170	169	167	168	169	172	168	168	169	168	168	169	168	169	169	170	171	170	169	169	169	168	170	169	169	168	168	168	169	170	169	167	166	168	167	167	169	169	167	168	167	168	169	171	171	169	169	169	168	172	170	169	168	169	170	170	169	168	170	168	167	167	170	170	169	170	171	171	170	171	173	170	170	171	170	168	169	168	169	167	166	168	172	169	169	168	170	170	171	171	171	170	170	168	167	167	168	168	168	169	169	166	164	168	168	167	168	170	170	169	168	168	168	167	168	166	166	167	168	166	170	170	170	169	168	166	168	166	165	167	168	166	166	164	166	166	167	166	166	167	168	168	166	167	166	165	163	162	164	165	165	164	164	164	165	165	164	164	165	164	164	164	164	164	164	164	163	163	164	166	166	163	163	162	163	164	164	165	165	164	164	165	164	164	163	164	165	165	165	164	164	164	163	164	163	161	163	163	163	161	160	162	162	163	162	162	162	161	161	162	163	162	159	159	162	161	160	160	160	160	160	160	160	160	160	160	160	160	159	158	157	156	157	160	160	160	160	159	159	158	161	161	159	159	161	158	160	160	160	159	158	158	160	158	157	156	157	158	158	158	157	156	156	160	158	158	158	156	157	156	156	157	157	156	154	156	156	158	158	154	157	155	155	157	157	159	156	156	156	156	156	155	154	154	154	153	153	152	153	154	156	156	157	157	156	0
155	158	159	159	159	157	156	156	156	155	157	157	157	160	160	160	160	157	157	157	156	156	159	158	158	159	159	159	158	158	158	158	155	158	159	160	160	160	158	159	159	160	159	159	159	160	160	158	160	161	161	160	161	161	161	162	162	162	162	162	163	160	160	160	161	161	161	159	161	160	161	160	161	162	163	163	163	163	163	163	162	161	160	160	163	163	163	162	160	160	162	163	161	161	162	164	164	163	162	161	161	161	162	164	163	162	162	163	163	164	162	164	164	165	163	164	164	164	164	164	165	163	163	161	164	162	163	165	164	163	164	165	164	164	163	164	165	166	165	166	167	165	167	163	168	169	167	168	167	167	167	167	166	167	165	164	165	166	168	164	164	165	165	167	166	166	167	167	167	165	165	166	167	166	165	165	166	167	166	166	164	167	168	168	168	167	166	166	165	167	168	167	169	167	168	169	168	170	168	167	167	166	167	167	166	167	168	169	167	169	169	168	167	166	167	167	166	166	166	169	167	167	168	168	169	169	169	168	168	168	169	170	170	167	171	172	170	169	171	170	170	170	169	171	171	171	170	169	168	168	168	168	169	169	169	169	168	168	168	167	168	168	169	169	168	168	170	171	170	168	167	168	167	167	168	168	171	170	169	171	172	172	171	170	172	171	170	170	170	170	171	168	169	169	169	168	168	168	168	169	170	170	171	171	170	170	170	171	172	172	171	171	170	170	170	168	169	169	172	167	170	168	173	167	168	169	170	170	170	170	172	173	172	172	168	168	167	168	167	168	169	167	170	169	167	168	168	169	169	169	170	170	168	168	169	170	169	168	170	168	168	169	170	170	170	169	170	169	167	168	166	167	169	167	166	166	168	169	169	169	169	169	168	171	173	171	170	168	170	168	168	168	167	168	168	168	167	168	168	165	168	169	170	170	169	169	169	171	168	166	167	167	168	167	166	167	169	168	169	167	168	170	170	170	170	170	169	168	167	167	166	168	169	169	170	166	167	167	166	167	168	170	168	167	167	168	168	167	168	167	168	165	167	166	167	169	169	169	168	168	166	167	165	167	167	164	164	165	166	166	165	165	165	166	167	165	167	166	166	164	163	162	162	165	164	164	164	166	166	163	163	163	163	163	163	165	164	164	164	161	165	164	163	163	163	162	162	162	161	161	164	165	165	165	163	163	161	161	162	162	162	162	162	164	164	164	162	161	159	163	161	162	161	162	160	158	160	159	162	162	162	163	160	160	161	161	158	158	156	158	159	158	158	160	158	158	158	158	160	160	159	159	159	159	159	157	156	160	160	159	159	159	158	158	158	158	158	159	160	160	157	156	155	156	156	157	158	158	156	156	157	156	157	157	157	157	158	158	155	156	156	157	155	155	156	157	157	156	155	155	155	155	155	155	154	154	155	156	156	156	154	154	154	154	154	155	155	155	154	154	152	153	154	153	154	154	155	155	154	0
152	155	157	157	159	157	156	156	156	155	156	157	157	159	159	160	160	157	155	155	155	155	155	156	158	158	158	159	157	157	156	157	157	158	158	159	159	159	157	158	158	159	158	157	157	158	157	160	160	161	161	160	160	161	160	161	162	163	163	162	161	161	162	161	161	160	160	162	161	162	162	162	162	163	162	162	161	162	162	162	161	161	160	159	160	160	160	159	160	161	161	160	160	160	161	165	164	162	161	161	161	161	162	164	162	161	162	160	162	162	161	162	166	162	163	164	161	164	165	164	165	166	163	162	162	166	165	163	163	163	163	163	164	164	163	164	162	163	164	168	167	167	164	164	166	168	168	168	166	165	165	166	166	167	164	165	164	165	165	164	164	165	165	166	168	168	167	167	167	167	165	166	162	164	164	165	167	167	166	164	166	168	166	167	168	166	164	164	166	166	166	168	166	168	168	168	168	168	168	169	166	167	168	168	170	169	167	167	166	166	168	168	168	166	166	166	167	168	167	168	169	167	167	168	168	168	168	168	168	168	168	170	169	168	169	169	171	168	169	170	168	169	168	167	170	169	168	168	168	168	166	167	169	169	170	169	169	169	168	166	167	168	169	169	169	167	170	170	169	169	168	167	167	168	169	171	170	169	169	170	170	172	172	171	170	172	172	170	169	170	171	169	169	168	167	168	168	168	168	169	170	170	171	170	170	170	170	170	170	170	169	169	167	168	168	168	170	169	170	169	167	171	167	168	166	170	170	170	168	169	170	173	172	169	167	168	167	167	169	169	168	168	167	168	165	167	168	168	168	169	168	169	169	168	168	168	167	168	166	169	167	168	170	170	170	170	171	167	169	167	166	165	167	166	166	166	167	169	169	168	169	170	170	170	171	172	169	168	167	167	167	167	167	168	168	169	170	169	167	167	167	169	169	169	169	168	169	169	169	166	167	167	167	169	167	167	170	167	168	167	168	169	170	169	167	166	167	167	168	166	165	168	168	169	166	166	167	167	167	167	169	168	168	167	167	166	167	167	168	167	167	166	166	165	166	168	169	170	170	167	167	165	165	166	166	167	165	165	165	164	164	165	165	166	165	165	165	167	166	165	162	162	164	166	166	164	166	166	165	166	163	164	162	162	162	163	163	161	164	165	165	165	164	162	162	162	162	160	162	161	164	165	165	164	163	162	162	160	161	161	162	161	161	162	161	161	162	161	161	161	161	161	160	158	158	158	160	159	160	160	161	162	161	160	161	161	161	155	155	155	157	158	158	158	158	158	159	160	159	159	159	159	159	158	158	158	157	156	160	158	158	158	157	158	157	158	160	159	157	158	157	156	157	157	157	158	157	158	159	156	155	156	158	157	156	156	155	155	155	155	156	155	155	155	157	158	156	156	155	155	155	155	153	152	152	153	154	155	154	154	154	154	153	154	154	153	154	155	154	154	153	153	154	153	154	154	154	153	151	0
152	155	156	157	157	159	157	155	155	155	156	157	157	160	159	157	155	155	155	154	154	155	155	156	155	155	156	156	157	157	157	157	157	156	154	158	158	157	157	158	158	157	157	156	156	158	160	159	161	161	162	162	160	161	160	160	160	158	158	160	160	161	161	163	161	161	162	162	162	161	162	159	158	161	162	159	159	160	160	160	160	160	161	159	160	160	159	159	160	161	161	162	160	160	161	164	164	160	159	159	161	161	161	159	159	160	160	160	161	162	161	160	161	160	159	161	161	164	164	164	166	163	163	164	166	165	162	162	162	163	164	163	163	163	163	162	161	163	163	164	165	165	163	163	163	163	163	163	163	165	165	165	167	165	164	164	165	164	165	164	165	164	165	167	167	168	167	167	167	168	168	166	165	164	164	165	166	167	165	164	163	166	166	166	167	166	164	166	164	164	164	165	167	167	168	168	168	168	167	169	165	166	167	168	172	169	169	166	167	166	166	167	166	166	167	166	164	167	168	168	167	167	167	170	169	167	166	169	167	169	170	169	169	168	168	168	168	168	167	168	168	169	167	167	166	166	167	169	168	167	168	168	171	169	169	169	168	168	168	168	168	168	167	169	169	168	167	168	168	168	167	167	167	170	171	170	169	169	168	170	169	169	169	169	171	172	170	169	169	169	170	170	169	167	167	167	167	168	169	171	171	171	170	168	167	168	169	170	170	170	169	170	170	167	168	168	170	169	169	168	169	167	167	166	170	170	169	167	167	167	170	170	169	167	167	168	167	169	168	167	167	165	167	165	164	163	165	167	167	167	167	169	168	168	168	168	166	166	166	167	167	169	170	170	171	170	169	169	167	167	168	166	166	165	166	167	167	169	170	169	169	168	170	171	170	170	169	167	169	168	170	170	166	167	169	167	169	169	169	167	169	167	169	168	168	168	169	170	168	167	167	166	167	167	167	167	167	166	165	166	166	168	168	168	166	165	169	169	169	166	165	164	164	165	165	167	167	168	166	167	167	167	167	165	165	165	166	167	166	166	166	166	167	166	166	168	169	169	169	165	167	166	167	166	163	163	165	164	163	163	163	163	164	164	165	163	164	163	165	164	164	162	164	165	165	166	164	167	167	167	165	163	162	164	162	165	165	164	162	164	164	163	163	160	159	160	163	163	163	161	162	162	162	161	162	162	163	160	160	159	160	160	160	161	161	161	160	162	161	160	161	160	159	159	159	158	158	158	159	158	159	160	161	160	161	161	161	160	157	157	157	158	157	157	158	159	159	160	160	159	158	158	157	157	158	158	159	157	158	158	157	158	158	159	159	158	157	157	155	157	157	157	157	156	157	158	158	158	156	155	155	155	156	157	155	155	154	154	154	154	155	155	155	156	157	158	156	156	156	154	154	154	154	153	151	153	154	154	154	154	154	155	154	153	153	152	152	152	155	153	154	154	154	154	154	153	153	152	152	0
154	156	155	156	156	158	156	155	155	155	155	155	157	157	158	156	154	154	153	154	154	154	154	155	155	154	155	155	154	157	156	157	155	155	155	154	156	157	158	158	157	155	157	157	157	157	159	159	160	161	162	159	159	159	159	159	159	158	159	159	159	160	159	160	159	160	162	162	162	162	159	160	159	159	159	160	158	158	160	160	160	160	160	159	160	159	160	160	160	160	162	160	161	160	160	161	161	161	161	160	160	160	160	160	160	160	160	160	161	161	160	160	161	162	159	162	161	162	160	161	163	165	165	165	165	165	162	162	163	164	164	164	162	162	162	161	163	163	163	164	163	163	163	164	164	163	163	163	163	166	165	165	166	166	164	163	165	165	165	165	165	163	165	166	165	165	167	168	168	166	167	167	165	164	164	166	166	166	164	164	164	164	166	165	165	165	164	163	165	164	165	165	167	167	168	167	167	169	169	166	165	166	167	168	168	171	171	167	167	166	164	164	165	166	166	166	164	166	166	167	167	167	167	167	166	168	168	167	167	166	167	167	168	167	167	167	168	168	168	168	168	169	166	164	166	167	167	169	170	168	168	168	169	168	168	168	167	168	168	168	168	166	168	167	169	169	166	166	166	168	168	166	167	169	169	168	168	167	167	168	169	170	169	169	169	170	169	169	168	169	169	169	166	167	166	167	168	169	169	172	172	171	169	167	167	166	168	168	168	169	169	170	169	170	168	168	168	168	168	167	166	168	167	168	169	170	169	166	165	165	167	166	167	167	168	168	167	168	167	166	167	167	166	166	165	166	166	167	169	168	167	169	171	170	169	170	169	166	167	169	170	170	169	167	169	169	168	167	167	168	168	167	167	166	167	167	166	168	168	170	170	169	169	169	168	168	168	169	167	167	167	170	170	168	169	168	168	169	169	169	167	169	167	167	167	168	169	169	168	168	166	165	167	166	166	167	166	164	166	167	167	168	168	167	167	168	169	169	168	168	168	168	165	166	166	166	168	169	167	167	166	166	167	169	164	166	167	166	166	166	165	167	167	167	166	165	166	167	165	166	166	166	166	165	163	163	165	165	164	165	166	165	161	161	162	163	163	161	162	162	163	163	163	166	162	164	165	166	167	167	165	161	161	160	161	163	164	166	166	164	162	161	162	162	161	161	163	164	163	163	161	162	161	161	162	163	162	160	160	160	161	160	160	160	161	162	161	161	163	163	162	158	158	158	157	157	157	158	158	158	159	158	159	161	161	161	161	161	160	159	158	158	157	157	156	158	158	157	157	157	159	157	156	157	157	158	157	157	158	156	156	156	158	156	156	156	156	155	155	156	156	156	155	155	157	158	158	158	157	156	156	155	155	155	155	153	153	153	154	154	154	156	154	155	157	156	155	153	154	154	153	153	153	153	151	148	150	155	155	155	154	154	154	152	152	150	151	152	152	153	157	154	152	153	152	152	151	151	152	0
155	156	155	156	156	154	154	154	155	155	155	153	154	154	156	156	154	153	153	154	153	154	154	154	154	154	153	157	157	157	159	156	156	156	154	155	156	156	157	157	155	157	155	157	158	158	159	160	159	158	158	157	157	159	159	160	159	158	158	159	159	159	159	158	158	158	160	161	161	159	161	161	160	160	159	160	156	158	158	159	157	159	159	159	160	160	160	160	160	160	160	160	160	161	160	160	161	161	162	160	159	160	161	159	159	161	159	159	160	160	159	160	161	161	161	161	161	161	160	161	164	165	165	162	164	164	163	163	163	163	163	162	162	162	162	163	163	163	163	164	163	162	163	164	162	164	165	165	166	165	165	165	165	165	166	165	164	165	165	165	163	165	163	163	166	164	164	164	165	164	166	166	165	165	165	165	166	165	164	164	164	164	164	164	164	166	166	166	166	165	165	165	167	167	165	165	165	165	168	165	165	165	165	165	167	166	165	163	164	163	165	165	164	164	164	164	165	166	166	167	167	168	166	166	166	168	167	166	165	165	165	166	167	169	168	169	167	167	167	167	168	167	168	166	166	166	166	167	164	168	168	166	165	165	167	167	165	166	167	167	165	168	169	169	169	168	168	167	166	165	167	167	167	169	171	169	167	167	166	166	168	167	167	167	168	168	169	166	167	167	169	168	166	166	165	168	167	168	170	170	171	170	167	167	167	166	167	166	167	168	169	169	169	167	167	168	167	167	167	167	166	166	167	168	168	170	167	166	165	166	166	167	165	165	165	166	168	168	166	166	167	167	167	167	167	166	166	167	167	168	167	169	170	171	169	169	169	170	169	170	169	169	169	167	168	168	168	167	166	167	168	167	167	167	166	167	166	166	168	168	170	169	168	167	166	167	169	167	167	167	167	166	168	169	167	166	166	165	167	166	166	167	167	167	167	169	169	169	168	167	166	167	166	165	166	167	166	167	166	166	165	165	165	166	165	167	167	167	167	167	167	165	165	165	165	167	168	167	168	167	170	169	169	167	165	164	165	164	165	165	166	167	167	167	165	165	165	164	164	163	164	166	166	165	163	164	165	165	164	165	166	166	161	164	164	163	162	161	162	162	164	161	161	164	165	162	161	162	164	166	161	160	159	163	161	164	165	165	166	164	162	162	161	160	162	164	165	164	163	162	161	161	161	161	159	161	161	160	159	160	160	160	160	162	161	160	161	163	163	160	160	158	157	157	155	157	157	157	158	158	158	158	159	159	158	161	160	158	157	156	156	157	157	156	156	156	157	157	157	157	158	156	156	155	156	157	158	158	158	157	156	156	156	155	156	155	154	155	155	156	156	156	154	154	155	158	158	158	157	155	156	154	155	155	153	154	154	153	152	153	154	155	154	156	156	154	153	152	152	152	152	153	152	153	151	151	151	152	152	152	152	153	152	152	151	152	151	151	152	152	150	152	154	153	153	153	152	151	152	0
156	156	155	153	153	153	153	153	154	154	153	153	153	152	152	153	153	153	153	152	153	154	153	153	154	154	153	157	157	158	159	155	155	156	156	156	156	156	156	155	155	155	156	155	156	157	157	157	157	158	158	157	158	158	159	159	158	157	157	157	157	158	159	158	158	158	159	160	160	160	160	161	160	161	160	160	157	157	157	157	159	159	160	160	160	160	160	160	160	160	158	157	160	160	159	160	161	161	162	162	159	159	158	158	160	160	158	158	160	162	162	160	161	161	160	161	160	161	161	161	164	163	163	163	164	163	162	163	161	162	163	163	162	162	163	163	162	162	162	162	159	161	164	162	162	161	165	166	165	166	166	164	162	164	163	161	165	165	166	165	165	162	165	164	164	162	163	163	164	166	164	164	164	159	164	165	163	163	163	163	163	164	162	161	161	162	165	166	167	166	164	165	166	167	164	163	165	165	164	165	165	165	165	165	165	165	163	163	163	165	165	165	163	163	162	163	164	166	166	167	166	167	166	166	165	165	164	165	164	164	165	166	166	166	164	166	165	165	167	167	168	168	168	167	166	165	165	165	167	166	167	165	164	165	167	167	165	168	167	167	164	165	167	167	169	167	168	166	165	165	167	168	168	168	166	169	166	164	166	166	166	166	166	166	167	167	165	166	167	167	167	165	165	166	167	166	169	168	170	169	168	167	167	167	166	168	167	167	169	166	169	170	167	166	167	167	167	167	167	166	166	167	167	167	166	167	165	166	166	165	167	166	166	167	166	166	166	166	168	167	166	167	166	167	167	165	167	166	167	166	166	166	170	167	167	169	168	166	169	169	169	169	167	166	168	165	165	166	167	167	167	168	167	166	165	165	166	167	167	169	169	168	168	166	166	167	167	166	167	168	167	167	167	168	168	169	169	167	166	166	167	168	169	168	168	167	167	168	168	168	166	167	167	166	166	166	167	165	165	165	164	164	165	165	164	165	165	168	168	169	164	167	164	163	165	167	168	167	167	166	169	167	165	166	165	165	164	164	164	164	164	165	167	164	164	166	166	165	165	164	165	165	164	165	163	163	164	163	162	164	164	165	163	163	163	161	161	159	161	161	161	161	163	164	164	162	163	162	167	165	162	160	159	163	162	163	164	165	164	163	162	161	160	162	161	163	164	164	162	162	162	160	161	160	160	160	161	161	160	160	161	162	161	163	161	159	160	160	160	158	159	157	157	156	157	156	156	157	156	157	157	159	159	159	161	158	159	158	158	157	157	157	157	156	156	155	154	155	157	157	154	155	155	155	156	156	158	159	158	157	156	156	156	155	154	153	153	154	155	155	156	154	154	153	154	156	156	156	157	155	156	156	155	156	154	154	154	153	152	153	154	155	155	155	154	153	152	152	152	152	152	154	153	153	151	152	153	153	151	152	153	152	153	151	153	151	152	151	151	152	150	151	152	152	152	153	153	153	151	0
154	154	155	153	153	153	153	152	153	154	154	153	153	151	151	153	152	153	152	152	152	154	153	153	153	152	153	157	158	158	159	156	153	154	154	156	156	156	156	156	156	155	154	153	156	157	157	157	158	158	158	158	158	158	159	158	157	157	157	157	157	157	158	158	159	159	159	160	159	159	158	157	156	157	159	157	157	157	158	158	160	159	159	159	160	160	159	159	160	158	157	159	160	160	158	158	160	162	162	161	158	158	159	158	159	158	158	158	161	162	162	161	160	161	160	160	160	161	160	161	163	163	162	160	161	161	162	161	161	162	162	162	162	162	163	162	161	161	162	163	160	162	164	162	162	163	164	167	165	165	164	164	163	163	163	163	162	165	166	164	164	165	164	164	163	162	162	163	165	165	165	162	161	159	164	165	163	163	164	163	163	162	161	160	159	159	159	160	162	163	165	165	166	166	163	162	162	162	163	163	165	165	165	165	165	165	164	164	165	165	165	165	163	162	160	161	164	164	165	165	165	166	167	166	165	165	164	165	163	164	165	166	167	167	164	165	164	165	166	165	165	172	173	167	166	165	166	166	167	164	166	166	165	165	165	165	165	165	167	165	165	164	164	164	165	165	164	165	166	166	166	166	165	166	166	166	164	164	164	165	165	167	167	167	166	165	166	167	166	167	166	164	165	167	165	170	170	171	168	169	168	167	167	167	168	166	167	167	169	169	169	169	166	165	165	165	166	166	166	167	167	168	167	166	165	166	167	166	167	165	166	166	168	167	167	167	166	166	167	167	167	165	167	166	166	167	166	166	165	164	165	166	165	165	167	167	168	166	166	166	168	167	165	167	165	163	163	166	167	166	166	165	165	165	165	165	165	165	166	168	169	169	167	166	167	167	166	166	166	167	165	168	165	163	163	165	168	168	166	166	165	167	166	168	165	168	166	167	167	166	166	165	167	165	165	165	165	165	166	167	166	165	164	163	163	164	165	166	170	170	165	163	164	163	165	165	165	166	167	166	166	165	163	163	162	162	164	164	163	163	163	163	164	164	165	165	165	166	166	166	166	164	165	163	163	163	163	163	163	165	165	165	166	164	163	161	160	159	162	162	163	161	163	164	163	163	163	163	166	166	163	161	159	161	163	162	160	160	160	162	160	162	161	161	161	161	160	160	161	162	160	162	158	158	157	158	158	160	160	161	160	160	161	161	160	160	159	159	159	158	157	156	156	155	157	156	156	157	156	156	157	159	159	158	159	160	159	158	157	156	157	156	156	156	156	156	154	154	156	155	155	155	155	155	156	157	158	157	156	156	155	154	155	155	154	154	155	154	154	155	155	155	153	152	154	155	155	155	156	156	153	153	156	155	155	154	154	152	154	154	156	156	156	154	153	152	153	153	152	152	151	151	153	153	151	152	152	152	154	153	154	153	151	152	153	153	151	152	152	152	151	149	152	152	152	153	150	153	151	0
151	153	153	153	154	153	153	151	152	154	154	152	153	153	151	151	151	153	153	153	152	153	153	152	152	150	152	156	157	157	157	156	155	154	154	154	156	156	156	154	155	155	153	153	156	157	158	158	158	158	157	158	158	159	159	158	155	156	158	157	159	158	158	158	159	158	157	157	157	156	156	156	156	156	157	157	157	158	159	159	159	159	159	159	158	157	158	158	158	158	159	160	160	159	160	160	159	162	162	161	159	158	159	159	158	158	158	158	160	161	160	160	160	160	160	160	161	161	158	157	161	161	161	161	161	161	159	160	161	161	162	162	162	163	161	161	161	161	162	162	163	162	164	164	164	163	163	163	160	160	159	160	163	163	162	162	163	164	166	166	164	163	164	164	162	162	160	165	166	165	165	163	159	160	161	164	163	166	163	163	163	162	162	161	160	159	158	160	163	163	163	164	165	165	165	164	162	162	161	162	162	163	165	165	165	162	162	162	163	166	164	163	162	162	160	160	163	163	163	164	164	164	164	164	165	166	165	164	163	163	164	166	166	167	164	164	166	165	165	166	170	167	172	169	166	166	166	166	167	165	165	164	165	164	165	165	166	166	167	165	164	165	165	166	166	166	165	165	164	165	165	165	166	166	165	163	164	165	165	165	165	166	166	166	166	164	165	166	168	168	167	166	165	166	167	167	167	167	168	167	167	167	167	166	167	167	167	168	169	169	170	167	166	165	164	162	163	164	166	166	167	167	166	166	166	166	166	166	166	167	167	167	167	166	167	166	167	166	168	168	167	165	165	167	167	166	167	169	168	166	165	163	163	166	167	166	164	164	162	163	165	165	166	165	165	162	162	167	168	167	167	167	167	167	164	163	161	166	165	167	166	164	165	166	169	172	167	167	166	167	167	163	163	164	162	164	166	165	165	164	165	167	167	167	166	166	166	167	164	165	164	164	164	165	165	165	165	164	165	167	166	164	164	163	163	164	164	165	169	164	168	163	163	163	164	165	165	166	165	164	165	164	163	163	162	162	163	164	164	163	163	164	165	164	165	164	164	166	166	163	164	163	162	162	165	165	164	162	163	165	164	164	165	165	163	161	161	163	160	161	162	164	163	161	164	163	163	165	165	164	164	161	162	159	161	161	160	160	160	160	161	162	162	161	161	161	161	159	161	161	161	162	160	159	158	159	158	158	158	159	159	160	161	161	160	159	158	157	157	157	156	156	156	156	156	156	156	156	157	157	158	158	159	158	159	158	158	157	155	155	156	157	156	154	154	156	154	154	154	154	154	155	154	155	155	156	156	156	157	157	154	154	154	154	154	154	154	154	154	155	154	154	153	153	153	154	155	155	154	153	154	156	156	156	154	155	153	153	156	154	156	155	152	153	152	152	152	152	151	152	151	151	153	153	152	150	150	151	152	151	152	152	151	150	152	153	152	151	152	151	150	150	150	150	151	150	149	150	149	149
152	153	153	152	154	154	154	150	151	151	154	154	152	153	152	152	151	152	153	153	153	153	153	151	152	152	154	155	155	156	156	156	155	155	155	154	154	157	157	156	154	154	153	156	156	157	158	158	158	157	156	157	158	159	158	158	156	155	155	157	158	160	160	160	159	158	157	157	156	155	156	156	155	156	158	157	157	158	157	158	159	159	157	157	155	155	156	157	157	158	159	160	159	158	157	157	158	159	162	161	160	159	159	156	158	158	158	159	159	158	158	159	160	160	159	160	160	160	158	156	160	160	160	161	160	160	158	158	160	161	161	162	162	162	161	161	161	161	161	160	161	162	162	162	161	161	161	158	157	158	158	160	160	162	162	161	162	163	163	162	163	163	162	162	161	161	161	162	164	165	162	162	160	159	160	161	165	163	162	159	163	162	161	161	162	162	161	162	163	163	163	164	161	161	162	163	162	162	162	162	163	163	164	165	163	162	162	161	163	165	165	162	162	160	160	160	163	163	164	164	164	163	162	159	164	166	164	164	164	163	164	166	165	164	164	164	166	166	166	167	167	166	168	165	166	166	166	166	165	165	164	163	164	164	164	163	163	164	165	164	164	166	166	166	166	165	165	165	163	164	164	164	166	166	167	165	164	165	165	165	164	164	166	165	164	165	166	166	166	166	167	165	165	166	165	165	164	165	165	164	165	166	167	167	166	167	168	169	169	167	167	167	166	165	164	163	163	164	165	165	167	168	166	166	166	166	165	167	169	166	167	166	165	165	166	167	166	166	167	167	167	165	166	167	169	169	167	165	167	167	166	162	163	165	164	165	164	164	164	164	165	165	164	165	165	165	162	165	166	167	167	166	165	163	163	160	158	165	165	165	165	164	165	169	168	169	167	167	167	167	167	162	166	163	164	165	166	164	164	164	163	164	165	166	166	167	167	167	165	164	163	163	162	162	165	165	165	167	166	163	163	165	164	163	163	162	162	161	161	164	164	163	162	162	164	165	165	165	165	164	163	164	163	162	162	163	163	163	164	163	162	163	163	163	164	166	164	164	163	162	163	162	162	162	164	163	163	164	164	165	163	163	162	163	161	160	161	163	161	162	161	162	161	161	164	164	164	162	162	163	162	161	160	159	161	162	162	161	159	159	160	162	162	162	161	161	160	160	161	161	161	161	157	159	158	158	158	158	158	160	160	160	161	161	160	158	157	157	157	156	155	156	156	156	156	156	155	155	156	156	159	157	157	157	159	158	157	155	154	156	156	156	155	153	153	154	154	154	153	154	154	154	155	155	155	155	156	155	155	154	154	155	154	153	153	153	153	152	153	154	155	153	154	154	153	155	156	155	155	155	152	153	153	155	151	151	153	154	155	154	153	151	150	151	151	151	151	150	149	150	150	152	153	151	153	153	150	149	149	149	151	150	150	151	151	152	152	151	151	149	149	151	151	150	150	150	149	150	149	149
149	152	155	155	155	154	152	152	152	151	152	152	152	152	152	153	153	154	154	155	155	153	152	151	151	151	153	154	154	155	155	155	155	154	154	154	154	155	156	156	155	153	153	156	156	157	157	158	158	157	155	156	157	158	156	156	155	155	155	155	157	159	160	160	159	158	157	157	157	156	156	157	157	158	156	157	158	158	157	156	156	156	155	156	156	156	156	156	157	159	160	159	158	158	158	158	157	158	157	160	160	160	156	158	156	158	157	159	156	156	157	158	160	160	158	158	158	158	157	158	160	160	161	159	158	158	158	158	160	161	161	161	161	160	161	160	161	161	161	159	159	159	159	158	160	161	160	158	157	158	159	159	158	160	161	161	161	162	162	161	161	161	162	163	161	159	160	161	162	162	160	160	162	162	163	162	162	159	162	162	164	160	161	161	162	163	163	163	163	164	161	161	161	160	160	160	164	164	163	163	163	163	163	162	162	161	161	163	165	164	163	161	161	161	161	161	163	165	164	163	163	162	162	159	161	164	164	164	164	164	166	165	165	164	164	164	166	166	167	167	167	164	164	164	165	166	165	166	166	164	162	161	161	161	163	163	163	164	164	165	165	164	166	165	164	164	165	163	165	165	164	166	165	167	164	165	163	164	163	164	163	164	165	164	166	164	166	165	165	164	165	164	165	165	165	164	162	165	164	164	165	166	166	166	166	165	164	165	165	166	167	167	167	168	168	167	164	164	165	163	162	163	164	164	165	165	166	165	164	165	163	165	165	163	164	163	166	166	166	166	163	166	164	164	165	168	167	168	165	165	163	165	165	165	163	164	165	167	166	166	164	164	164	165	165	164	165	165	166	166	166	163	164	161	160	160	164	163	164	164	165	165	165	168	168	167	165	166	166	166	165	165	165	165	163	165	165	164	164	163	163	163	164	164	165	166	167	167	166	164	164	163	162	162	163	164	166	165	168	166	164	163	162	161	160	160	160	160	161	162	163	163	161	163	164	165	165	165	164	164	162	163	163	161	163	163	163	164	163	162	162	161	163	163	163	163	164	164	164	162	162	162	163	163	164	161	162	162	164	165	163	162	161	160	161	160	161	163	163	162	162	160	160	161	161	161	160	159	157	160	160	160	160	159	160	163	162	162	160	160	161	161	164	162	162	162	161	161	161	160	159	158	158	159	159	158	158	159	159	162	161	160	160	160	160	157	157	157	157	156	156	156	157	156	156	156	155	155	155	156	155	155	156	156	157	157	156	155	155	154	156	155	154	153	153	154	155	154	154	153	153	154	154	155	155	156	155	154	155	156	154	155	153	152	152	152	154	153	153	152	154	155	151	154	153	154	154	155	155	155	154	154	153	152	150	149	149	154	155	155	155	154	153	152	152	151	150	148	148	151	151	153	151	151	151	151	151	151	148	147	149	149	150	150	151	151	150	151	149	149	150	150	152	150	150	150	149	148	148	147
