374	374	373	371	372	373	373	375	378	379	379	378	378	380	382	378	367	363	363	368	373	381	382	381	381	383	384	384	381	378	375	375	375	376	376	376	373	373	378	378	383	385	384	383	382	384	385	387	389	389	388	379	376	376	377	371	371	371	371	375	377	377	378	380	381	382	382	378	379	381	381	381	379	376	376	377	376	375	374	374	375	376	377	377	377	377	378	378	377	375	373	373	371	369	366	364	363	363	364	363	361	361	365	370	368	368	370	369	370	372	375	375	372	370	370	367	366	363	364	364	362	361	361	365	366	367	367	366	369	370	367	365	365	366	365	368	369	370	371	371	372	371	371	370	372	372	372	372	368	363	365	372	372	371	373	371	372	372	369	361	363	364	367	367	364	367	368	370	371	373	371	367	363	365	365	368	371	373	370	364	360	362	365	370	370	368	366	366	365	365	367	368	370	360	358	373	370	369	370	374	374	372	370	368	366	361	358	358	363	367	370	369	365	363	365	369	369	364	362	360	357	356	363	364	364	363	359	360	360	360	359	361	360	359	360	365	368	364	358	352	351	352	354	359	363	366	368	368	365	363	360	360	369	369	361	358	355	355	358	360	360	355	354	356	360	364	365	365	361	354	352	354	356	358	359	355	355	358	359	360	362	360	357	356	357	358	360	362	362	359	358	357	357	357	358	357	359	355	351	353	354	357	356	354	353	349	347	349	354	361	360	358	354	355	355	355	352	351	353	355	353	353	358	356	357	356	358	358	353	350	351	350	350	350	352	355	356	358	361	361	359	359	358	358	356	351	350	348	347	346	345	341	342	343	349	349	348	346	344	340	339	346	350	344	344	349	351	353	353	354	352	348	348	350	351	350	352	352	350	348	350	359	356	355	354	347	344	344	345	342	342	342	344	347	347	349	348	347	346	348	348	351	351	352	352	351	350	349	346	346	346	346	348	348	349	346	346	348	348	345	344	344	344	344	345	343	342	341	338	339	339	336	337	337	338	339	335	336	339	345	345	338	337	337	335	333	333	335	335	335	333	334	333	334	336	337	339	340	340	342	342	341	343	341	338	335	336	337	340	340	339	338	338	336	336	333	332	332	334	335	338	338	333	334	335	333	333	340	335	332	332	330	329	329	328	328	327	326	323	328	332	338	346	344	342	337	335	335	335	336	336	336	333	335	335	334	332	330	331	330	329	327	328	329	330	330	330	330	334	333	332	331	334	334	330	329	329	330	333	334	333	331	331	329	331	331	333	333	330	329	328	329	330	332	332	330	326	326	327	327	327	334	333	335	336	333	331	328	325	334	337	334	335	337	336	333	328	326	325	326	325	323	325	324	324	323	322	323	327	327	329	329	324	323	329	326	322	322	323	323	324	327	328	328	329	329	329	327	325	324	325	325	327	328	331	329	321	322	322	321	322	322	322	322	326	320	320	322	324	326	318	317	0	0	0	0	0	0	0	0
367	367	361	360	365	367	367	369	372	374	375	375	375	378	380	372	365	363	363	365	372	377	375	375	375	376	378	380	377	373	369	369	368	367	362	362	364	367	371	374	374	377	378	377	375	374	375	376	378	378	375	373	373	371	372	370	369	365	362	364	364	364	365	367	369	370	372	370	375	376	375	374	371	370	370	373	374	374	371	371	370	373	372	371	368	364	365	367	370	372	369	370	369	367	366	364	363	361	360	355	354	354	356	359	360	363	367	369	369	370	365	364	364	361	361	366	363	361	361	359	357	355	357	359	362	363	365	368	368	367	366	365	365	363	363	365	366	367	367	368	368	369	368	368	370	371	368	365	360	360	360	367	366	367	365	365	364	357	357	357	357	363	366	366	362	361	364	365	365	367	366	366	365	363	363	366	368	371	371	362	358	362	365	364	361	360	360	364	364	360	359	356	355	354	354	353	355	354	364	363	365	366	365	365	364	360	358	359	362	365	365	365	363	359	359	365	365	364	360	357	355	351	351	360	360	358	356	359	358	356	358	359	357	356	357	359	361	360	360	361	360	355	355	357	358	355	356	358	358	357	357	354	356	355	356	354	353	355	355	357	356	351	353	354	356	356	355	355	354	350	349	351	353	356	356	356	353	352	357	360	356	355	355	355	357	358	361	362	361	359	358	357	357	357	355	346	345	344	344	349	354	353	354	353	354	348	343	348	353	358	359	356	354	353	351	352	351	352	352	352	349	347	347	350	353	355	356	356	353	350	350	349	348	349	350	349	345	345	348	349	348	350	356	356	349	342	340	342	346	345	341	338	337	337	346	349	347	344	340	339	342	346	343	341	342	342	342	341	343	346	344	348	345	346	348	348	345	348	346	342	347	349	350	347	340	339	340	343	345	343	343	343	343	346	348	347	346	345	342	341	344	345	345	343	345	346	343	340	337	342	343	344	348	346	344	344	344	345	342	342	339	332	335	337	338	337	336	335	334	334	337	336	331	335	335	335	332	331	335	339	343	336	332	333	332	330	330	332	333	333	330	331	333	332	336	336	337	337	338	340	339	338	339	337	334	332	335	336	336	335	340	341	339	335	332	330	329	330	328	328	329	332	333	330	330	330	330	337	332	331	331	329	329	327	326	327	326	324	323	326	330	336	340	339	338	333	330	330	330	331	329	330	332	334	334	331	330	330	331	331	329	329	327	327	328	329	327	329	332	332	329	327	327	328	326	323	326	328	331	331	326	327	329	329	329	331	330	330	328	326	325	326	327	328	330	326	323	324	326	327	327	331	330	329	327	324	323	321	321	317	321	328	332	334	334	329	322	323	325	322	321	321	323	324	321	320	320	320	321	325	323	319	317	315	317	317	317	317	316	317	318	322	326	326	326	326	325	318	317	319	322	320	321	321	321	319	319	318	317	317	320	320	320	320	318	318	318	317	318	315	314	314	0	0	0	0	0	0	0	0
355	355	357	360	363	362	364	364	366	368	371	374	374	377	373	370	362	361	361	367	372	373	372	369	370	370	373	373	369	363	359	359	359	359	359	359	361	363	364	366	366	365	363	365	368	370	370	371	372	372	370	367	367	369	371	368	364	360	358	359	360	360	362	363	365	367	367	368	365	366	371	372	370	367	365	362	364	365	366	369	369	370	367	357	358	360	361	364	365	368	367	366	366	367	367	365	363	357	356	357	357	356	358	359	360	362	364	367	366	363	362	361	360	359	358	363	358	356	356	354	353	351	353	355	357	359	361	366	365	363	365	366	366	365	363	363	364	364	362	362	362	362	363	365	363	364	363	361	359	358	357	359	361	358	354	355	356	356	355	355	358	360	363	361	359	358	359	360	364	364	364	362	362	363	359	360	363	366	366	362	355	356	361	360	360	355	358	361	363	361	357	353	352	353	353	351	352	355	355	355	358	363	364	363	363	358	359	360	359	359	360	360	359	355	355	354	362	361	356	354	355	352	348	357	357	355	355	356	356	356	356	356	354	353	352	350	353	358	358	358	355	356	356	356	356	357	359	353	355	350	352	351	352	351	353	353	353	355	354	354	353	350	351	353	353	352	352	352	351	349	352	352	352	351	353	354	353	354	355	354	352	350	350	350	352	354	353	352	353	355	356	355	354	352	347	346	347	344	344	344	351	353	351	352	351	342	337	345	350	354	354	350	345	346	351	350	351	352	347	347	346	345	346	347	352	354	356	353	349	348	346	345	344	346	351	343	342	344	346	344	342	345	346	346	341	335	336	338	342	342	338	333	338	339	339	339	340	339	338	343	342	343	341	339	342	338	338	339	342	343	340	342	342	342	344	339	338	339	339	337	336	338	337	339	338	337	337	338	336	340	341	340	339	343	344	343	344	341	335	335	338	338	340	342	342	341	338	333	333	337	340	343	340	340	339	339	339	338	333	335	333	332	330	330	329	330	332	332	332	332	332	335	331	332	333	332	333	332	334	338	339	331	331	329	330	329	330	330	329	328	328	329	334	339	339	338	335	335	336	338	335	337	334	332	328	329	331	333	332	332	335	339	337	334	330	329	328	324	322	325	330	336	336	331	326	324	322	322	323	322	321	329	330	329	325	325	324	323	323	327	329	332	335	331	329	330	329	330	327	324	325	327	333	329	327	328	327	328	330	330	326	325	324	324	325	326	325	323	327	328	326	324	323	324	320	320	322	325	327	328	322	322	323	325	328	327	327	326	326	325	323	323	323	324	324	320	321	322	325	326	328	328	328	323	319	311	311	316	314	314	317	318	327	329	330	327	321	319	318	316	316	316	317	317	317	318	317	318	318	316	313	311	313	313	312	314	316	316	313	311	312	314	321	322	323	323	318	316	318	321	326	321	320	321	319	318	316	314	311	314	310	317	316	315	315	315	316	317	315	313	313	313	0	0	0	0	0	0	0	0
353	357	357	360	362	359	359	359	358	362	367	373	373	372	369	367	356	358	358	363	368	367	364	363	364	364	367	367	362	361	360	359	359	358	357	356	358	359	359	356	356	353	356	360	360	361	363	366	370	370	369	368	358	355	356	357	357	358	357	358	360	360	361	362	363	365	356	359	361	359	361	363	361	359	357	348	349	350	355	355	355	354	355	358	359	360	360	359	361	362	362	358	357	357	358	356	357	358	358	359	359	358	356	358	359	361	360	364	364	356	356	357	357	357	357	359	354	353	354	352	351	350	351	353	354	357	357	361	359	358	360	362	363	363	358	359	360	360	358	354	350	350	351	353	351	350	350	355	357	354	354	354	351	349	354	357	355	351	349	347	352	358	359	358	356	355	353	351	353	353	356	359	360	360	358	359	363	364	358	358	354	348	352	356	356	353	355	358	360	357	354	352	351	353	354	353	351	354	352	353	353	357	358	363	363	361	352	352	353	355	358	358	356	352	350	348	347	345	346	347	350	354	354	354	354	353	353	355	356	356	354	352	352	351	351	351	352	354	354	350	352	352	356	356	357	356	357	354	353	350	351	348	348	353	353	353	353	352	354	352	350	345	347	350	350	351	352	351	350	348	348	350	349	348	348	350	352	354	355	353	347	348	349	349	351	350	352	348	346	345	343	344	343	343	345	347	346	344	342	342	351	350	350	348	335	334	337	339	345	348	347	344	344	344	344	346	349	349	340	341	345	343	342	341	342	345	347	347	346	343	343	343	341	340	342	338	339	341	342	341	339	339	341	341	333	333	336	338	339	341	332	332	332	336	337	335	333	334	339	342	343	340	339	336	340	335	336	335	337	337	338	337	334	337	338	335	335	335	334	332	330	329	330	335	337	336	336	335	334	332	333	334	334	336	337	337	336	334	334	335	333	330	330	333	332	331	324	329	328	329	333	336	336	334	333	335	331	331	330	332	331	325	326	328	328	327	326	326	328	329	330	330	328	321	322	323	330	331	331	334	332	329	331	329	330	320	325	325	329	328	327	329	329	329	330	328	336	333	331	331	334	334	333	327	325	325	327	326	327	326	325	320	318	320	319	320	321	320	321	325	329	333	324	325	320	316	317	322	320	318	319	319	319	320	320	321	323	324	323	323	326	330	331	329	327	326	328	331	328	325	321	322	322	323	321	320	323	325	327	323	321	321	320	322	321	324	323	323	320	322	321	320	320	319	316	316	319	322	323	323	320	319	320	322	321	320	316	315	316	322	320	320	320	319	318	317	317	321	324	326	326	316	315	319	315	311	311	312	313	314	316	317	320	321	321	317	314	313	311	312	316	317	317	316	316	315	315	315	316	317	317	313	313	312	312	313	315	312	310	308	310	312	314	318	315	315	314	316	317	320	324	324	321	318	314	308	308	309	310	309	307	307	310	310	312	312	314	315	312	310	311	312	0	0	0	0	0	0	0	0
353	356	356	359	358	359	355	355	359	363	367	369	369	369	364	339	338	342	342	350	356	357	357	358	357	357	358	360	361	359	357	356	356	356	355	355	355	356	354	348	348	351	354	356	354	354	358	364	369	367	367	355	349	344	347	350	353	354	356	357	360	362	362	363	364	353	353	356	355	352	351	352	353	354	351	349	348	349	350	353	353	354	355	357	359	360	357	355	356	358	359	359	357	357	355	352	351	354	358	360	361	358	354	353	352	354	354	355	354	352	350	351	353	354	355	354	351	351	351	350	349	348	348	352	353	353	354	354	354	354	358	356	355	355	356	356	356	355	350	347	347	348	347	347	347	347	346	349	352	352	351	353	354	353	355	355	351	344	341	343	347	354	355	356	355	354	351	347	342	346	352	357	357	356	355	356	358	350	351	352	357	353	342	338	340	347	352	354	356	354	349	350	353	352	352	352	353	353	354	351	351	352	349	351	347	351	349	349	351	352	353	353	345	345	347	344	343	342	342	343	343	341	341	341	342	348	354	353	353	354	349	350	350	348	348	349	354	355	346	348	348	350	349	352	356	355	352	352	351	350	351	349	350	353	352	351	350	350	350	351	351	350	346	346	347	348	350	349	349	348	346	346	349	347	347	345	348	348	348	346	346	346	348	346	345	346	348	343	343	343	343	342	341	341	344	348	344	341	340	340	341	345	339	328	328	333	335	339	342	344	343	342	342	342	339	339	340	334	338	333	334	339	339	339	337	340	339	339	344	344	339	340	338	342	335	337	338	339	340	339	337	336	336	333	333	335	337	338	334	327	330	331	333	336	339	344	336	334	332	338	339	336	335	332	331	330	330	331	333	334	332	332	331	332	332	334	333	333	330	329	327	328	331	332	336	333	334	330	326	330	331	331	330	332	335	334	331	328	325	324	323	320	326	326	329	321	327	328	327	328	328	333	333	331	332	330	328	325	325	324	325	323	324	325	326	325	325	324	325	323	325	325	325	321	321	322	322	328	328	327	327	324	327	323	320	317	323	321	322	324	316	318	326	326	318	315	319	318	319	321	322	329	331	324	322	321	320	324	322	321	316	312	314	315	316	312	316	319	319	316	317	318	318	321	319	317	316	317	316	314	317	316	319	318	317	317	316	319	319	318	320	319	328	328	325	325	326	328	322	323	324	322	321	320	321	321	321	319	317	319	318	317	317	320	324	324	323	321	319	315	318	319	319	316	315	313	315	317	320	320	312	311	310	315	316	315	308	309	308	311	315	311	315	309	310	308	307	306	306	307	308	308	309	309	311	313	314	314	311	308	316	316	318	321	318	314	312	309	308	310	315	317	317	316	314	313	315	317	319	319	316	313	311	315	314	313	311	309	305	308	310	311	312	315	315	311	312	314	317	321	321	320	319	318	314	308	308	308	304	304	305	306	308	308	308	308	310	312	310	308	307	308	0	0	0	0	0	0	0	0
352	355	355	358	354	355	356	356	358	361	362	359	354	354	346	340	339	346	352	352	354	354	354	358	358	358	357	359	358	352	352	352	352	354	355	355	355	355	353	351	351	355	355	354	352	352	356	363	362	362	353	344	342	343	343	345	347	347	350	353	353	352	352	354	352	346	339	338	340	342	345	348	347	346	348	349	349	349	352	352	353	353	353	355	357	359	357	353	353	357	359	360	358	352	349	351	348	340	345	351	355	356	352	351	348	348	348	349	350	346	344	344	346	348	353	345	345	347	347	348	348	345	345	348	352	351	349	347	349	348	347	346	348	349	351	352	350	348	349	348	348	343	342	342	343	345	346	344	344	349	350	351	353	345	344	347	351	350	346	345	345	349	352	352	347	336	339	339	339	343	348	353	352	350	351	351	345	340	344	350	350	350	344	338	336	334	337	339	347	347	345	343	346	344	342	344	345	346	346	341	344	344	344	344	343	340	344	347	347	348	349	342	341	339	342	341	341	342	341	341	341	341	346	347	346	349	348	342	341	342	349	350	349	347	344	350	346	342	337	338	341	342	342	341	343	346	349	352	351	351	350	347	343	342	344	343	340	337	344	344	344	347	336	340	339	342	343	341	341	339	343	343	342	343	344	343	344	342	341	340	342	341	342	341	341	342	344	342	343	344	343	340	339	340	347	346	340	338	336	338	340	338	330	327	329	330	334	336	341	342	340	341	341	338	336	332	326	334	338	337	328	328	332	336	338	336	335	334	331	330	331	331	327	327	333	336	338	338	336	331	328	333	333	333	338	337	334	331	325	324	327	331	333	336	338	343	342	337	330	329	328	328	331	329	327	325	327	326	326	328	329	331	328	329	331	328	328	331	333	328	328	330	331	332	333	330	330	327	325	327	328	328	327	329	330	327	322	319	320	319	318	319	320	322	321	317	326	325	325	324	323	322	326	326	329	329	327	321	321	323	326	326	327	324	325	325	324	323	323	324	323	322	321	321	321	321	321	320	322	321	322	318	315	316	316	314	317	317	317	312	312	314	314	318	315	313	318	317	319	321	319	321	322	321	321	317	318	319	318	317	310	308	310	312	311	311	312	316	312	312	314	315	316	317	316	314	314	311	312	311	309	314	315	312	310	314	316	316	315	316	311	311	315	317	320	322	325	316	318	319	318	317	318	318	318	318	318	318	315	315	314	312	313	315	314	314	321	322	318	310	309	311	317	313	313	310	310	312	313	314	311	310	307	307	307	307	305	307	305	305	303	303	304	304	302	303	306	306	306	309	310	311	311	312	311	311	309	306	305	305	306	304	305	313	312	309	306	305	304	308	309	312	311	311	313	311	314	318	320	315	312	309	314	314	312	311	310	308	302	303	303	304	302	303	303	304	305	306	309	310	316	315	314	313	311	309	306	305	301	303	303	304	306	303	303	304	307	309	308	306	305	305	0	0	0	0	0	0	0	0
348	350	350	347	343	349	354	354	355	355	352	353	351	351	345	344	347	350	352	352	352	352	352	356	357	357	358	351	343	345	345	348	351	351	352	354	353	353	353	353	355	355	351	348	346	344	346	353	357	353	344	344	344	343	343	343	345	347	349	347	345	344	344	343	342	341	340	340	341	340	341	342	343	345	346	348	346	346	350	351	351	351	351	352	354	356	355	353	353	355	354	356	354	350	347	341	340	343	343	343	346	347	348	347	345	345	345	346	343	340	339	342	343	343	336	336	340	341	345	348	346	345	344	345	349	350	350	346	341	342	348	348	345	343	341	340	337	338	340	343	349	347	339	339	339	342	344	343	341	340	342	344	343	344	344	346	349	350	347	344	342	341	338	336	333	335	333	337	339	339	342	343	341	338	336	338	338	337	335	338	339	341	339	333	331	334	337	337	338	340	343	339	336	333	332	334	337	339	339	339	339	339	342	340	340	339	339	341	345	342	343	341	339	338	337	338	340	339	339	340	341	345	347	348	348	347	346	342	339	344	348	346	346	338	337	340	341	339	337	337	339	343	341	341	341	342	344	346	351	349	345	342	341	340	339	337	337	336	338	338	337	336	334	337	338	338	337	334	333	331	332	331	335	334	334	339	343	341	338	334	336	335	334	335	337	336	336	337	339	343	340	340	338	336	337	340	340	339	336	332	329	327	329	329	329	334	335	337	337	338	338	337	335	336	331	325	326	332	335	335	329	322	322	323	323	324	322	323	324	328	329	329	328	327	327	328	331	331	329	329	326	326	330	327	323	332	328	326	321	323	326	329	332	336	338	337	335	334	329	328	327	326	327	326	324	324	322	321	321	321	323	327	324	327	325	317	323	327	328	322	324	329	331	329	330	328	323	323	322	321	325	327	326	326	321	319	318	320	322	322	321	320	321	318	316	316	315	320	322	318	315	316	318	322	324	316	317	320	319	322	324	325	323	324	323	323	318	320	317	318	320	319	320	319	318	319	318	317	314	314	315	312	312	315	316	314	309	311	314	312	309	310	311	313	313	316	318	318	319	320	317	316	314	313	309	310	313	314	311	309	308	309	310	310	310	311	316	316	316	315	314	315	312	312	313	313	312	310	309	308	307	306	309	309	308	310	313	312	312	312	309	309	310	309	306	307	309	309	312	313	314	313	311	310	308	308	311	314	315	311	308	308	308	307	311	313	312	312	312	306	306	309	310	311	311	312	307	304	309	312	307	307	306	306	306	304	303	303	307	307	304	298	300	300	302	302	304	304	305	308	303	301	304	305	313	306	305	306	303	304	305	305	305	305	306	308	308	305	302	303	303	300	305	305	298	305	304	306	310	310	309	307	307	301	302	301	301	301	301	299	297	297	297	297	301	304	305	305	303	293	299	298	300	304	303	300	298	298	299	300	301	302	303	302	302	301	303	305	307	306	304	302	0	0	0	0	0	0	0	0
344	342	342	338	340	348	351	349	349	343	346	348	348	348	345	341	344	347	349	349	348	348	349	354	355	352	352	344	338	339	339	344	346	346	347	349	350	350	351	353	351	351	348	343	341	341	345	348	349	341	342	342	344	343	341	341	344	346	348	345	342	340	339	339	339	340	340	338	338	340	340	341	342	343	343	342	343	343	342	346	347	339	339	339	341	340	341	341	339	339	337	334	334	332	335	339	341	342	344	342	341	341	340	337	342	344	344	342	335	333	334	339	340	338	334	329	335	340	343	344	343	343	341	342	340	338	341	340	337	337	337	337	336	333	331	333	334	337	338	342	343	342	339	336	337	339	340	342	340	337	338	341	341	338	338	339	347	348	345	343	341	337	334	334	334	331	327	332	333	332	333	334	336	339	339	338	336	332	334	337	335	332	331	332	334	334	334	334	334	334	332	330	330	328	330	331	334	338	338	335	336	338	340	339	333	334	336	337	338	337	337	332	334	335	334	335	334	333	334	336	340	345	348	348	341	343	347	348	345	345	345	345	342	337	336	339	338	334	334	336	340	343	343	340	338	338	340	341	342	340	338	338	339	338	336	335	334	330	329	329	330	331	330	333	335	334	331	331	328	328	328	329	328	328	329	335	341	340	336	332	330	330	329	330	330	332	335	333	334	336	336	336	335	333	327	332	335	337	334	328	324	324	326	332	332	331	329	329	333	335	333	333	332	331	329	324	321	326	327	328	323	317	315	318	319	317	319	319	321	320	327	327	325	325	322	324	329	329	328	326	326	322	322	319	321	322	322	322	323	324	325	326	330	332	333	333	331	330	326	325	325	322	324	322	322	319	320	319	318	318	318	319	321	318	317	318	321	325	324	321	320	323	324	325	326	325	321	319	319	318	321	323	322	320	317	318	319	319	321	322	322	321	321	318	316	315	315	317	316	314	314	315	312	311	313	314	316	316	317	318	319	322	319	318	319	320	318	313	313	315	316	316	315	314	315	314	312	312	311	310	311	312	314	314	316	316	312	309	312	314	312	307	304	310	310	312	309	310	314	315	317	316	313	311	310	310	308	308	304	305	305	305	305	303	303	306	309	312	312	312	313	308	308	310	311	311	310	308	305	302	302	304	305	305	306	305	303	303	307	309	309	308	309	309	303	301	302	303	307	309	310	309	308	306	304	303	303	304	305	302	301	302	303	302	301	302	303	306	306	305	299	300	301	302	303	303	304	304	303	304	306	305	304	304	304	303	301	301	301	302	299	295	298	300	301	304	302	301	300	299	300	297	302	304	303	300	295	302	302	304	303	303	304	304	303	303	304	302	301	302	302	304	303	298	296	296	298	298	297	303	304	304	301	301	301	299	298	297	298	296	295	298	299	299	300	302	305	301	301	299	295	295	298	296	298	298	298	296	296	294	296	298	297	297	299	298	298	297	300	304	304	302	0	0	0	0	0	0	0	0
342	340	337	337	338	342	344	340	340	342	344	345	342	342	341	338	340	342	344	344	345	343	344	348	349	346	346	336	336	336	340	342	342	342	344	344	346	348	348	344	341	341	341	336	336	337	340	341	336	332	332	332	333	334	338	341	346	344	344	341	339	337	337	337	337	338	338	340	336	337	339	342	342	341	341	340	340	334	330	334	333	335	335	336	335	338	337	332	330	330	331	329	330	330	333	339	339	339	337	336	336	333	331	330	334	341	336	336	335	334	333	335	334	331	328	326	326	328	328	331	333	333	332	331	326	322	327	329	328	329	330	327	328	334	336	333	332	331	336	338	341	337	338	335	334	336	339	340	339	337	335	335	334	336	334	332	329	330	333	335	335	334	333	334	332	332	326	325	326	328	330	332	333	332	333	330	331	331	333	336	334	330	328	329	330	331	331	331	333	334	333	332	333	333	333	333	328	326	326	327	327	329	329	325	328	331	337	338	338	335	330	329	326	326	327	332	329	331	333	334	340	337	339	337	335	336	338	343	345	345	345	345	341	340	335	334	333	333	330	331	332	334	335	337	335	334	336	337	338	338	336	336	334	332	333	332	333	331	329	321	325	328	329	328	330	331	328	326	324	318	325	326	325	327	327	331	331	329	329	324	325	322	323	322	326	325	326	330	330	329	330	329	328	326	326	328	329	333	331	327	324	323	324	325	326	323	326	325	325	325	326	326	326	327	324	321	322	324	324	324	323	323	322	321	322	321	320	315	316	318	320	322	323	321	319	320	324	327	328	325	316	314	316	318	318	318	317	319	321	324	324	327	326	327	325	327	329	327	326	322	324	320	321	321	319	318	317	317	316	316	316	316	315	315	315	317	320	322	321	317	316	318	320	322	323	323	320	316	313	312	315	317	314	315	315	318	318	317	316	310	313	315	313	318	317	315	315	313	314	313	314	311	310	309	309	313	314	311	315	315	316	316	315	313	312	311	308	311	312	312	312	314	309	307	308	312	309	308	309	309	312	311	311	311	315	313	311	309	311	314	311	307	303	306	302	305	310	311	311	312	312	309	311	310	304	301	300	298	298	299	299	299	302	302	301	302	308	307	308	310	310	308	303	303	307	307	305	302	300	301	299	301	302	304	305	305	303	302	302	304	307	308	308	304	302	300	300	301	302	302	304	305	305	303	302	301	303	303	303	301	301	301	302	298	298	294	297	294	297	294	296	298	299	301	302	300	297	300	300	302	303	303	303	300	298	298	300	299	301	300	297	294	292	290	292	295	299	300	299	297	295	297	297	300	301	297	296	294	295	295	293	298	297	295	294	294	295	293	291	293	295	296	292	292	294	295	295	293	294	295	290	287	291	301	299	298	295	295	294	290	291	292	292	299	298	300	300	299	299	298	296	296	296	295	294	293	293	292	288	291	296	297	296	296	295	295	293	293	295	296	302	301	0	0	0	0	0	0	0	0
342	339	338	338	338	336	335	335	335	340	342	342	340	340	338	334	336	340	340	340	339	340	341	345	345	334	334	331	333	336	338	340	340	340	338	339	339	338	335	333	332	332	332	332	333	337	338	338	332	329	330	330	329	331	337	338	338	342	341	338	336	334	336	336	336	335	335	336	337	338	338	340	339	337	336	335	331	329	328	324	324	330	330	331	333	336	336	335	331	329	330	327	328	329	332	334	336	335	334	332	330	329	327	325	325	328	332	332	331	328	328	332	330	331	331	328	327	328	325	326	327	327	329	327	325	322	321	325	325	327	328	327	326	329	334	331	329	328	327	326	328	328	332	332	332	331	336	335	334	332	331	328	325	325	327	327	326	328	333	334	334	329	329	330	331	331	327	323	324	326	326	329	327	328	327	328	329	329	330	332	331	328	327	326	327	326	325	328	329	330	329	330	330	332	325	321	320	321	321	323	327	327	327	324	327	327	327	325	325	326	326	325	323	322	326	327	326	330	330	332	334	331	333	335	332	333	334	334	329	329	331	337	337	330	332	327	327	328	330	331	333	331	329	325	323	330	331	332	332	332	333	330	329	328	330	332	332	333	329	319	319	325	324	325	325	326	326	322	320	316	315	313	317	321	322	319	322	325	326	324	319	318	318	321	323	321	321	322	327	327	327	323	320	321	323	324	325	324	321	312	311	313	319	321	321	322	323	322	322	313	317	321	323	321	320	320	322	322	322	320	318	321	321	320	321	321	320	318	315	313	313	315	316	316	316	315	317	321	321	316	316	311	313	315	315	316	318	319	321	321	321	320	315	317	322	321	319	319	320	318	316	314	319	318	320	318	314	314	314	314	314	312	312	312	312	314	321	321	310	310	311	315	319	321	316	314	310	311	311	313	312	314	315	314	315	316	318	313	317	310	312	314	313	312	314	311	310	314	312	315	312	310	309	309	308	307	310	312	309	310	311	310	310	310	309	307	306	310	310	310	310	306	303	306	305	304	301	302	307	308	309	308	306	305	305	304	303	306	311	310	305	302	302	302	301	305	307	308	304	307	310	309	306	306	305	300	298	298	297	297	298	296	294	294	295	302	304	305	306	306	308	302	299	299	302	303	302	300	298	295	294	299	300	302	302	301	299	299	303	303	301	303	306	305	302	302	299	299	300	301	302	303	303	302	301	302	301	303	303	302	302	291	293	293	293	293	291	294	292	295	297	297	296	299	298	297	293	293	297	301	300	299	296	295	296	296	297	297	300	299	297	292	289	289	292	294	298	299	298	298	297	300	298	290	290	295	295	293	294	292	289	289	293	293	292	292	288	285	285	289	291	291	291	291	291	290	293	291	288	282	285	289	291	292	292	292	291	292	291	291	290	290	290	292	292	297	297	293	292	295	295	296	296	296	297	298	297	294	293	294	295	295	294	294	292	291	293	294	294	295	295	292	0	0	0	0	0	0	0	0
340	339	336	336	334	331	330	333	333	338	340	340	338	335	335	334	336	337	338	336	336	337	333	328	328	329	329	328	329	332	334	334	332	332	331	334	335	333	332	331	328	327	327	330	333	335	337	332	329	329	331	331	330	329	332	333	331	325	322	323	327	331	334	334	334	331	331	334	334	334	335	333	334	337	336	334	329	326	325	327	323	325	329	329	332	331	328	328	326	328	328	326	326	328	330	331	330	327	328	327	327	326	321	322	323	326	329	331	329	325	323	322	322	325	327	328	327	327	326	327	327	328	327	327	326	321	322	323	323	325	326	327	328	328	329	329	324	319	321	325	325	321	319	320	320	320	318	319	325	326	326	318	320	320	329	330	329	324	327	328	328	326	328	329	330	330	328	323	325	325	324	326	326	323	325	327	328	328	328	326	325	325	326	327	326	325	322	326	326	325	324	324	328	329	327	321	320	318	320	322	327	327	325	324	324	322	322	321	320	319	320	321	318	318	321	323	325	325	323	331	326	326	326	329	328	328	325	325	325	327	327	326	326	328	325	329	329	330	331	331	332	330	328	325	321	319	325	326	328	327	323	322	326	327	330	333	332	334	331	319	318	316	322	319	320	321	318	316	313	314	313	311	309	307	312	315	318	322	323	322	317	314	316	318	320	320	320	322	316	315	313	311	309	311	312	317	317	313	318	313	312	312	314	312	318	319	318	312	310	312	317	320	323	317	317	317	319	321	321	318	317	317	317	314	314	316	317	316	314	312	312	312	314	314	313	313	313	316	315	312	314	313	313	309	312	315	315	316	316	318	311	310	309	305	314	313	314	314	314	312	309	311	314	317	315	314	314	315	318	313	312	310	310	310	310	313	315	310	309	308	307	311	311	315	306	306	305	306	309	309	311	309	307	307	313	315	314	314	310	309	309	310	311	312	307	301	302	304	307	312	311	309	306	305	306	305	305	309	307	307	308	309	304	309	303	305	300	306	306	308	304	301	303	300	303	301	298	300	304	307	307	304	306	305	304	304	304	306	304	303	309	308	305	303	300	299	300	301	303	305	301	303	303	301	297	298	296	295	295	295	298	294	293	291	292	299	302	302	303	302	300	301	299	298	299	297	298	295	295	289	292	295	297	298	298	296	296	295	298	301	301	299	296	303	302	301	297	297	298	299	299	300	298	296	296	293	294	294	292	289	284	289	292	293	292	291	291	291	291	295	297	291	291	293	294	286	284	288	290	296	295	295	296	295	295	296	298	297	298	298	296	292	288	289	291	292	297	298	297	300	298	301	296	287	287	293	293	289	289	290	289	289	291	293	292	290	285	284	287	294	294	292	290	290	288	286	286	288	284	281	283	287	289	291	292	291	290	289	290	290	289	289	287	289	290	290	287	286	286	285	286	289	289	287	288	292	291	292	295	296	298	298	298	297	294	290	288	288	290	291	289	288	0	0	0	0	0	0	0	0
335	332	329	329	324	322	324	330	330	335	336	336	336	332	332	333	337	335	332	334	334	331	327	321	322	323	323	328	327	323	325	328	332	334	334	334	330	325	324	325	324	324	324	326	328	330	332	326	327	328	328	327	327	329	332	333	332	328	327	326	325	326	327	328	328	327	329	331	330	329	330	329	331	331	330	326	324	326	327	326	327	328	329	329	329	328	325	320	320	323	324	324	322	324	325	328	329	326	319	322	323	322	321	321	323	325	326	324	324	321	319	318	316	315	317	322	323	323	320	319	319	319	321	322	322	324	322	311	303	311	312	312	318	323	318	316	316	320	319	321	321	321	320	321	320	319	317	318	317	317	316	316	320	320	319	319	321	321	322	323	324	326	327	328	328	328	327	323	323	323	324	327	318	322	324	325	326	327	326	325	324	324	323	323	317	317	319	321	322	318	318	318	325	328	323	319	319	319	318	321	326	326	323	320	323	320	319	316	314	315	316	318	315	316	322	323	324	324	322	321	320	322	323	324	324	323	322	322	322	321	323	323	325	326	326	328	331	331	323	315	313	318	320	320	318	316	319	321	321	322	319	320	325	326	332	332	333	332	330	320	318	314	313	312	317	317	312	311	311	313	312	311	309	307	306	306	312	320	320	318	315	315	315	316	315	312	311	310	311	311	309	308	309	310	310	310	312	314	315	313	308	308	308	308	311	314	314	312	312	314	317	319	320	320	318	314	317	319	321	319	319	314	311	310	310	312	312	312	312	313	312	312	307	311	312	313	312	309	309	311	310	312	314	313	308	308	309	314	314	313	308	305	303	302	303	307	311	313	312	312	310	308	310	309	311	308	308	310	313	318	317	311	311	310	310	311	306	304	305	306	306	306	302	300	302	301	302	301	304	306	306	303	305	303	306	301	305	307	310	313	307	307	307	301	300	300	300	300	303	307	310	304	296	297	304	305	304	305	305	303	303	302	302	302	306	303	302	304	301	301	299	299	299	301	302	298	297	299	301	301	302	300	296	297	303	306	304	304	302	303	304	305	303	302	295	297	298	298	295	292	290	286	291	291	293	297	294	293	295	294	293	291	290	290	290	288	291	297	295	293	294	289	285	291	291	296	291	293	290	289	292	293	296	295	294	295	295	293	295	295	297	295	291	290	288	286	291	291	289	289	290	289	294	288	287	290	295	295	293	288	283	286	291	291	290	291	287	288	284	285	294	289	286	287	286	288	287	285	286	293	292	294	295	295	295	296	296	297	297	296	294	291	289	289	291	292	293	296	296	298	298	295	287	286	286	288	289	288	288	287	288	289	291	294	293	290	286	284	284	287	293	293	291	288	287	285	284	281	283	282	282	283	285	286	284	279	281	283	287	284	286	286	283	282	282	283	284	283	282	282	283	284	285	285	286	290	289	287	287	288	291	292	292	291	289	290	288	289	288	287	285	282	0	0	0	0	0	0	0	0
324	322	322	322	321	321	319	322	324	324	328	331	331	331	331	329	330	327	326	327	327	326	321	319	315	320	321	321	321	319	318	320	322	322	322	323	323	324	324	324	323	324	324	324	326	326	320	322	328	327	327	324	324	324	325	327	324	325	326	323	322	322	321	321	321	322	323	326	321	319	318	317	321	323	325	323	325	326	325	323	324	324	325	326	326	324	319	316	316	321	322	324	323	318	321	313	312	313	315	319	321	321	323	323	323	320	319	317	317	318	317	317	315	314	313	313	314	316	318	320	318	318	317	318	315	315	316	314	317	317	311	309	310	316	310	312	314	314	309	310	314	319	320	320	316	317	317	319	318	316	315	315	320	320	318	317	318	320	323	324	327	327	326	324	323	321	323	324	319	320	321	318	316	322	323	323	321	320	320	322	319	318	315	314	318	319	317	318	317	316	316	318	324	325	320	316	315	314	317	318	321	323	320	319	320	313	312	312	311	313	315	315	314	314	317	317	321	322	315	315	322	318	321	318	324	323	319	320	319	314	317	317	318	318	317	320	327	324	319	317	314	315	313	310	308	311	314	314	316	318	315	315	315	318	319	321	321	318	320	317	318	314	307	309	309	310	310	311	309	312	312	311	311	310	304	302	302	306	310	311	316	316	317	317	313	311	309	309	310	308	311	311	310	310	308	307	309	314	312	312	309	307	307	308	309	310	308	309	310	314	315	315	316	317	315	311	311	314	316	309	309	307	308	309	308	309	311	312	312	313	311	310	307	305	307	308	307	305	307	306	310	310	315	314	309	307	310	312	311	306	302	301	301	301	302	305	311	311	310	308	307	309	310	312	312	305	304	303	305	309	306	311	309	311	312	312	300	301	303	305	306	306	299	297	296	297	300	299	300	303	302	302	302	301	295	296	299	304	304	309	306	303	302	295	298	301	303	304	304	304	304	302	295	296	304	303	302	303	302	301	300	298	298	298	300	300	300	299	299	296	296	296	297	300	301	296	297	297	294	297	298	295	293	294	295	300	301	299	300	302	295	297	297	292	291	292	295	297	292	292	292	287	287	290	292	291	290	291	287	289	290	289	293	292	289	288	289	295	292	291	287	287	288	284	281	283	284	285	287	289	292	293	292	287	285	286	294	291	295	292	292	290	289	288	286	286	288	289	288	287	280	278	285	287	285	283	285	288	284	282	281	283	284	281	285	284	284	284	284	284	286	284	284	285	286	288	288	285	286	286	284	289	293	291	289	289	290	290	290	290	292	291	289	289	290	292	288	288	293	288	293	291	287	284	284	285	283	283	285	287	287	288	289	290	290	287	284	280	279	279	284	288	290	287	288	287	284	281	283	282	281	281	282	284	285	281	281	282	279	281	281	281	280	280	281	282	280	280	280	281	283	283	281	280	282	281	282	284	283	283	287	287	287	286	287	288	288	287	288	285	284	281	0	0	0	0	0	0	0	0
319	320	320	320	320	322	322	320	320	320	321	322	325	327	327	329	320	317	320	325	325	323	321	318	316	317	318	318	317	317	315	314	318	319	319	318	321	323	325	323	322	324	324	323	322	323	317	323	317	321	321	322	322	322	323	320	317	314	321	320	321	322	322	322	321	321	320	318	318	316	317	316	320	322	322	321	321	323	323	321	320	320	322	323	323	322	318	317	317	318	322	323	322	311	311	312	311	310	307	310	315	317	320	316	316	317	318	317	315	316	316	316	315	315	313	313	313	317	318	318	318	318	317	317	315	314	312	316	318	316	312	310	311	307	305	307	307	309	311	313	316	317	317	317	317	316	318	318	318	316	317	316	318	316	314	313	315	319	324	321	325	327	328	320	317	316	318	317	315	316	316	312	316	319	321	320	319	318	316	318	319	320	322	322	319	316	314	313	314	316	315	314	318	317	313	314	312	311	313	315	317	319	315	316	317	311	310	310	312	313	315	314	313	312	313	309	311	312	311	308	313	316	317	314	308	311	318	319	315	311	309	306	309	309	310	311	314	317	316	313	312	312	312	311	310	309	308	310	311	313	312	313	314	315	313	309	308	309	309	316	313	312	307	304	306	307	308	308	305	309	310	303	309	306	305	302	303	306	306	306	310	309	313	315	311	309	309	310	309	309	309	309	310	309	307	307	307	308	308	311	310	307	307	308	309	308	307	306	306	306	304	310	309	309	307	307	306	305	302	302	301	306	305	306	307	308	304	304	304	306	306	308	306	304	303	300	297	297	301	303	307	305	303	302	305	306	306	305	300	302	302	303	304	305	306	308	310	305	301	299	299	306	311	311	306	304	303	302	304	307	307	307	310	310	307	300	296	299	300	302	305	303	297	297	296	297	299	298	299	298	300	301	303	294	296	301	302	299	298	300	300	299	298	285	285	295	295	296	294	292	291	292	295	296	298	297	296	285	287	288	296	296	298	298	297	296	298	296	294	295	293	287	295	298	299	298	292	294	293	294	296	294	291	292	293	294	295	297	289	293	293	291	293	289	289	291	295	297	292	283	288	290	288	290	289	287	287	290	286	286	288	285	290	289	285	285	284	282	284	287	286	287	287	287	286	285	282	285	287	289	292	289	283	283	285	285	287	290	291	289	289	288	288	287	285	285	287	283	280	279	277	275	284	284	284	279	280	281	282	281	282	282	281	284	283	282	282	282	282	285	284	283	282	283	287	287	286	286	287	284	283	281	282	286	291	287	284	281	282	285	284	283	287	288	290	290	280	277	275	277	284	287	286	283	281	283	279	278	279	284	286	286	286	283	283	284	280	277	276	275	275	276	283	283	281	284	284	283	283	278	277	277	279	280	283	284	283	279	278	278	278	279	279	277	280	279	279	279	282	285	287	285	277	279	278	279	280	281	281	281	281	281	281	282	282	284	286	287	284	283	280	280	0	0	0	0	0	0	0	0
319	321	321	322	322	325	325	322	317	317	316	313	316	320	321	321	316	313	314	317	319	319	317	317	315	315	314	314	315	312	312	316	319	319	319	321	322	325	325	324	322	321	322	322	320	313	312	312	309	311	314	317	317	317	317	314	313	313	313	315	317	319	321	318	315	315	315	315	315	316	315	315	318	320	320	321	319	320	322	320	317	317	319	320	319	319	315	313	317	317	316	315	315	313	315	312	310	311	311	312	314	315	314	314	316	316	315	316	315	316	315	316	315	314	316	316	317	317	317	318	318	317	315	315	311	312	312	314	311	312	311	311	311	305	305	305	306	309	314	315	316	316	315	314	315	316	317	318	317	316	314	316	314	312	312	311	313	311	313	315	317	314	315	313	313	311	312	315	318	319	310	311	313	316	318	318	316	315	314	317	318	316	312	312	316	313	311	309	311	312	312	311	306	309	310	312	310	309	311	313	314	314	313	313	313	307	307	306	308	309	310	309	310	309	308	308	309	310	304	309	314	315	315	308	308	310	314	314	319	313	306	307	308	309	310	312	311	309	313	309	309	308	310	311	307	305	305	305	304	309	314	313	313	311	307	305	305	306	308	312	310	302	308	303	304	303	303	305	305	300	303	298	301	301	304	302	303	304	303	304	305	306	303	302	304	308	308	310	310	309	306	309	310	309	306	305	304	305	308	310	307	306	307	307	307	306	305	305	305	306	303	302	303	303	307	307	306	303	302	301	300	301	303	302	304	300	300	297	298	298	305	304	303	301	298	294	294	296	302	305	308	305	297	300	300	304	305	300	302	302	303	304	306	306	304	303	304	299	295	298	298	296	305	306	304	303	299	299	298	297	306	299	303	302	301	297	294	294	299	300	298	296	297	295	299	299	299	300	300	297	296	295	295	297	299	296	292	290	290	291	294	295	293	293	283	283	289	290	287	287	291	291	290	289	293	289	289	289	291	290	295	299	298	296	295	293	289	288	293	289	285	285	289	297	294	292	287	290	289	293	293	290	289	290	289	292	289	283	288	288	287	285	285	286	287	290	294	297	292	283	287	286	286	286	287	286	284	284	283	284	285	279	280	281	285	283	283	283	282	283	284	285	285	288	286	285	280	280	279	287	288	285	284	281	280	284	287	289	289	287	289	289	288	275	275	280	280	278	280	279	281	281	279	279	282	280	276	277	281	284	285	283	281	281	282	281	279	280	285	284	281	281	281	282	283	284	278	283	284	280	276	277	277	279	281	281	279	275	272	271	271	274	283	287	288	286	282	279	277	275	278	281	284	281	278	276	274	274	275	277	279	277	282	281	280	281	278	274	273	272	271	271	272	273	274	273	273	274	273	274	273	271	269	270	273	275	276	273	272	272	275	275	275	276	275	275	277	279	279	288	286	283	278	273	272	273	275	277	278	277	276	276	273	273	276	278	277	276	278	278	277	278	0	0	0	0	0	0	0	0
316	319	319	322	322	320	319	316	317	317	315	314	316	319	321	321	307	307	307	312	314	314	314	315	314	315	315	315	313	310	310	315	319	321	320	320	321	323	324	323	320	318	313	313	313	312	309	307	305	303	302	310	311	311	312	312	310	311	310	311	312	316	315	311	311	311	312	312	312	313	314	315	316	318	320	320	317	320	320	320	319	317	318	319	314	314	312	312	308	313	316	313	309	312	313	312	309	307	311	312	312	314	314	312	312	312	312	310	309	309	310	312	314	315	313	310	308	310	312	313	312	315	313	313	311	311	308	307	306	308	309	310	311	309	304	304	307	309	313	315	315	311	311	311	313	313	316	316	314	313	312	311	310	305	305	305	305	305	306	311	312	311	312	312	310	312	317	317	317	314	312	308	309	310	315	316	314	312	313	316	310	308	309	309	306	305	304	304	304	304	306	308	305	307	307	309	308	309	309	309	310	307	310	308	309	303	304	302	304	305	308	308	309	307	308	308	307	304	302	304	307	308	308	308	309	312	312	313	311	304	310	306	307	309	310	307	306	306	306	306	307	304	307	302	302	302	302	302	303	301	309	308	306	307	301	299	302	303	306	308	300	297	297	295	295	297	298	298	298	302	296	298	299	299	300	302	303	303	299	298	298	299	301	300	298	294	293	296	305	306	306	306	308	309	306	303	303	304	307	303	304	306	308	307	304	304	303	305	305	305	304	303	302	304	302	303	302	300	302	301	301	301	300	299	300	300	300	299	300	301	301	304	301	297	295	294	296	294	299	299	299	297	299	297	297	301	301	298	301	301	304	306	306	304	300	296	295	296	293	294	293	298	300	300	299	299	299	298	300	299	296	295	295	292	293	292	292	291	295	297	297	296	297	296	296	296	299	301	300	290	290	292	290	293	294	293	292	289	288	291	294	294	288	285	285	284	289	288	287	287	290	290	290	290	288	288	286	287	290	291	291	293	292	293	293	289	285	283	286	289	284	284	285	290	290	287	283	284	284	283	283	285	284	285	286	287	288	281	281	280	282	282	283	284	285	285	286	285	285	284	282	280	282	284	286	284	283	283	283	287	280	276	281	282	284	283	281	284	284	283	281	281	280	281	281	279	278	278	278	277	280	282	280	278	278	277	278	281	284	281	278	274	273	272	272	280	279	279	280	281	281	279	278	278	281	280	275	275	276	276	279	275	278	280	283	281	279	280	282	281	281	278	277	280	279	277	278	277	278	278	272	272	266	270	275	280	279	274	272	270	268	270	275	284	286	286	279	279	278	276	273	275	281	281	277	274	272	270	273	277	278	277	276	277	277	276	272	272	270	268	266	272	274	276	275	276	273	271	270	269	266	267	270	270	270	273	275	274	274	273	272	271	272	270	272	275	276	278	280	284	279	276	271	271	270	270	275	275	275	272	273	273	271	271	270	270	269	270	270	274	276	275	0	0	0	0	0	0	0	0
315	317	315	317	317	313	313	316	319	319	321	319	315	312	309	309	304	303	304	310	310	310	311	313	313	308	307	307	307	309	312	314	315	317	318	318	318	320	319	314	307	307	309	309	310	309	305	303	303	303	303	303	307	307	308	309	308	308	309	308	309	310	310	310	310	310	310	310	308	310	310	311	311	316	316	315	314	319	319	320	318	318	314	316	313	310	304	300	301	306	305	305	306	309	312	313	312	308	306	308	309	312	311	309	309	310	310	307	306	307	307	308	314	313	312	304	304	304	307	309	309	310	311	311	308	306	306	306	307	308	311	311	310	308	305	303	303	307	308	306	306	306	308	308	309	311	315	308	308	308	308	308	306	303	302	302	302	304	305	307	308	308	307	307	308	306	308	309	312	311	308	306	309	307	313	315	314	313	313	308	309	305	304	303	303	301	300	301	301	304	306	305	304	300	306	307	306	307	306	307	304	303	303	304	304	301	299	298	299	304	305	308	307	308	307	306	305	301	303	305	305	306	308	308	307	308	308	305	304	301	300	298	302	310	309	306	304	302	303	303	303	304	304	301	299	301	301	299	303	305	301	302	302	303	302	299	299	302	303	301	300	300	298	299	296	294	292	294	294	294	294	295	295	294	294	294	295	296	297	295	295	295	294	296	297	297	291	290	293	298	301	306	305	309	304	302	299	301	303	301	305	306	301	295	295	297	297	304	302	300	302	302	299	298	297	298	297	299	300	301	300	299	298	297	296	296	299	299	300	301	301	296	298	294	294	292	295	295	297	296	296	294	295	295	295	297	300	299	297	296	298	300	302	299	297	296	294	293	293	294	294	296	297	297	296	296	297	298	298	298	292	292	292	292	286	289	291	291	294	296	296	296	294	292	291	290	291	291	292	285	286	287	288	288	290	290	291	291	287	288	290	289	287	284	282	283	287	290	290	283	285	287	288	287	287	287	287	287	290	290	290	290	290	289	289	286	285	283	283	284	284	282	281	285	286	282	282	282	282	283	282	283	286	284	279	279	277	277	276	278	278	283	282	280	281	284	283	282	284	283	281	277	281	283	281	285	282	281	281	283	281	275	278	279	278	283	285	281	286	282	281	279	282	281	282	282	278	279	277	279	279	281	279	276	275	275	276	275	275	277	280	277	272	271	279	277	274	273	272	272	271	269	269	266	271	272	275	275	276	274	276	273	274	275	275	278	279	277	278	278	278	279	279	276	277	276	276	277	277	277	273	270	268	272	276	277	276	271	271	268	268	270	271	275	277	276	275	274	274	273	273	273	272	273	274	278	271	272	274	277	277	276	276	276	274	272	270	266	265	267	269	270	272	276	275	274	272	271	270	268	269	269	264	267	268	269	271	271	271	270	269	269	270	272	271	275	268	269	270	274	273	271	272	272	270	269	270	268	267	267	267	268	269	269	268	268	267	268	268	270	270	272	0	0	0	0	0	0	0	0
310	310	309	308	308	306	308	314	318	319	319	316	312	308	306	306	301	303	303	306	306	306	309	309	308	303	303	301	301	304	308	309	310	311	308	308	306	304	302	302	303	305	307	310	305	303	301	302	302	302	302	303	305	305	306	306	306	304	307	306	305	308	310	311	309	307	307	305	304	306	307	303	305	306	307	306	312	310	303	305	309	315	315	310	301	297	297	295	299	299	299	301	305	310	312	314	312	307	305	305	306	305	302	303	308	308	309	307	305	305	306	306	305	310	304	304	303	303	305	307	308	308	306	305	300	304	307	307	307	307	309	310	309	308	306	300	302	306	306	305	303	303	303	303	301	303	305	303	303	303	305	304	303	303	303	303	302	302	303	302	303	303	304	306	307	307	306	306	305	304	302	302	303	304	305	307	306	303	303	302	300	302	301	301	300	298	299	299	301	301	304	305	302	296	299	300	302	302	302	301	302	301	299	300	299	297	296	294	298	304	304	308	304	299	300	299	299	301	301	303	306	306	305	305	305	303	305	305	296	297	297	297	300	301	300	302	301	305	301	301	299	296	294	294	296	299	300	302	297	296	297	298	301	301	300	299	296	297	299	300	297	299	297	298	298	296	295	288	293	292	291	292	293	294	293	293	294	296	296	294	294	295	292	289	291	293	293	292	289	293	296	296	297	298	302	300	296	296	294	294	291	292	292	293	295	296	297	297	297	294	293	298	298	297	296	294	293	295	298	299	297	296	294	296	296	296	297	297	295	293	291	294	289	289	290	293	295	293	292	291	292	292	292	290	291	293	296	296	295	288	289	290	296	295	294	296	296	293	291	294	296	296	296	293	289	291	289	288	292	294	289	291	291	289	287	287	290	289	287	286	288	290	290	291	290	289	288	289	286	285	283	284	285	286	287	287	289	288	290	289	290	287	284	283	280	281	287	290	286	284	285	286	282	285	286	284	283	285	285	284	283	285	286	279	280	284	286	284	283	285	284	283	281	282	283	280	280	280	282	281	282	282	282	278	276	278	278	277	275	274	277	279	284	281	277	277	282	282	282	277	279	280	281	279	280	276	275	279	278	278	280	268	269	278	278	283	284	279	278	280	278	278	280	281	282	281	280	277	276	280	280	280	275	272	274	272	275	274	274	275	273	277	276	277	277	275	273	272	272	271	271	269	269	268	272	273	275	274	271	273	277	277	273	272	273	275	276	278	278	275	278	278	278	276	271	272	271	271	273	276	272	271	268	274	275	277	276	274	270	268	268	268	269	268	268	268	269	269	274	274	276	272	272	272	276	270	273	273	276	277	275	274	273	272	271	271	269	268	268	268	269	268	267	268	273	272	270	270	268	266	265	263	262	264	264	263	263	263	262	261	261	261	264	265	266	263	263	263	266	269	269	270	272	271	270	268	266	265	264	265	265	265	265	268	268	267	264	264	267	267	268	268	0	0	0	0	0	0	0	0
302	302	302	303	303	303	306	309	310	311	311	312	308	305	302	302	300	302	303	302	303	304	304	304	302	299	297	300	300	302	304	305	301	303	305	305	305	303	300	298	300	301	305	301	301	301	300	301	302	302	302	304	303	303	303	303	304	304	302	302	303	305	304	300	300	301	301	302	302	301	299	298	299	301	303	305	304	294	296	299	302	306	306	298	298	298	296	296	295	295	295	298	301	304	307	308	308	302	299	294	298	300	301	301	302	303	303	300	302	303	303	302	304	304	305	304	302	303	304	306	307	307	306	303	302	301	307	303	306	306	308	309	312	309	307	299	301	303	301	300	299	299	299	299	299	301	299	300	301	300	300	301	304	305	304	302	301	301	302	300	299	299	300	302	305	306	305	302	301	299	301	300	299	299	297	297	298	297	299	299	299	297	296	294	299	297	300	301	303	298	297	297	297	296	296	296	296	299	300	300	299	297	295	293	297	297	296	296	297	300	301	301	303	302	302	297	297	300	302	302	304	303	303	303	301	297	301	296	292	291	292	295	298	298	293	292	293	300	298	297	295	296	298	293	293	295	295	294	294	294	294	296	297	298	297	295	294	295	298	295	291	292	295	295	294	294	289	289	292	291	291	288	288	289	290	292	294	295	296	295	295	292	289	287	287	285	289	287	289	290	291	292	295	295	292	288	289	288	290	290	289	290	290	290	290	293	297	295	292	290	289	289	295	295	295	292	291	289	290	291	292	293	292	291	292	295	293	292	293	293	290	286	287	286	288	290	293	292	290	290	290	290	287	286	284	286	285	286	284	285	286	285	286	284	286	288	290	291	288	285	288	288	289	284	282	283	283	285	286	287	286	285	286	288	290	289	287	284	285	288	288	289	288	286	286	287	286	288	288	283	282	283	285	287	286	287	288	284	284	288	283	284	284	280	280	280	285	284	284	283	284	284	282	285	285	283	282	281	282	282	280	279	283	277	282	283	284	284	282	285	285	282	281	279	278	281	276	280	280	279	280	280	278	276	276	279	279	276	273	273	274	277	275	282	278	276	281	279	281	277	274	273	272	271	275	273	274	275	276	274	273	270	267	272	273	276	275	275	275	279	278	279	280	280	281	281	278	274	275	277	277	277	272	271	271	272	274	273	273	271	272	272	273	275	266	266	269	272	273	271	270	268	269	270	272	274	274	272	268	267	266	268	276	271	270	270	269	269	269	270	273	274	269	267	264	263	265	272	272	271	272	270	272	274	274	275	272	270	268	268	267	267	267	266	266	266	267	268	269	271	271	274	274	271	271	273	273	273	271	271	270	270	267	269	268	271	269	267	269	268	268	267	267	267	268	267	266	265	267	265	263	262	261	263	263	263	263	260	260	260	258	258	261	260	260	257	257	259	265	267	268	267	269	271	270	268	266	264	264	264	264	266	265	263	265	264	264	265	265	267	267	264	0	0	0	0	0	0	0	0
299	300	300	298	300	300	302	304	306	305	305	304	306	302	300	300	300	301	300	300	298	299	299	299	300	299	299	296	296	295	293	293	296	298	301	300	300	298	298	298	299	301	302	303	303	302	300	300	301	301	301	302	297	297	297	299	301	301	302	301	301	304	303	299	295	292	296	296	298	299	298	296	298	297	298	297	294	295	299	300	299	295	295	295	297	298	296	296	295	294	293	293	296	297	299	297	300	300	298	299	300	301	300	300	295	294	294	294	300	301	300	300	301	304	304	304	303	303	305	305	304	304	302	297	300	299	302	305	294	296	300	308	310	310	307	299	299	300	299	298	296	295	295	295	295	296	297	298	297	299	299	295	296	298	296	300	301	301	300	298	297	297	298	299	297	300	299	297	296	298	299	298	298	295	295	292	292	295	297	297	298	297	293	293	292	296	299	301	298	295	295	295	296	296	295	294	294	295	297	293	294	294	293	291	291	291	297	296	294	297	298	297	297	297	299	300	303	299	300	300	301	302	302	302	297	294	294	291	289	290	291	293	297	296	294	293	294	294	295	295	297	298	296	294	290	292	295	292	290	290	291	291	292	293	293	293	293	291	291	285	286	286	288	288	289	288	290	289	291	290	289	288	289	286	286	286	289	287	288	286	290	290	288	288	288	287	286	286	287	287	288	288	288	286	285	284	284	284	284	287	281	283	287	288	288	289	290	288	284	285	286	285	286	286	288	289	288	288	289	291	292	291	289	288	288	288	287	285	289	288	288	282	281	285	286	283	284	286	287	283	285	284	283	282	283	283	282	282	282	282	282	282	281	280	283	282	281	281	282	282	286	285	285	284	283	283	282	282	282	283	283	283	285	287	287	286	284	284	288	291	287	287	285	281	277	279	285	286	284	282	283	281	280	280	281	281	282	286	279	277	278	281	281	280	281	281	280	281	279	277	277	279	279	278	284	281	282	281	280	278	277	276	274	273	275	278	283	282	280	279	276	277	277	277	278	281	274	276	277	282	277	275	274	274	274	275	277	276	272	271	274	275	275	271	274	279	278	275	275	272	267	268	268	268	268	268	269	270	272	272	271	269	268	272	274	273	271	271	270	270	277	279	281	280	280	275	276	272	271	270	270	270	270	272	271	272	272	271	271	267	269	271	273	273	272	267	267	268	275	273	272	270	269	268	270	271	270	266	264	265	266	269	269	269	269	270	270	270	272	273	274	273	270	269	269	270	270	266	269	271	272	272	271	271	272	275	274	272	270	268	265	264	265	265	265	266	266	269	270	269	270	270	269	266	265	265	268	270	270	268	267	264	263	264	266	268	268	269	269	267	267	268	267	266	267	270	267	265	262	263	262	262	259	258	261	261	261	259	258	258	257	257	258	259	258	257	256	259	266	266	265	265	265	266	268	267	265	265	265	265	265	265	265	263	261	260	263	263	264	266	265	264	264	0	0	0	0	0	0	0
299	301	297	297	298	298	298	301	301	302	302	302	302	301	299	300	301	302	301	301	300	297	297	296	295	296	296	294	292	292	292	293	295	296	296	295	295	294	296	296	300	298	302	302	302	301	299	298	298	297	299	298	296	295	295	296	299	299	299	300	305	304	303	299	293	290	293	293	294	298	297	296	296	298	298	296	296	298	299	298	294	290	293	295	297	297	295	295	295	293	293	296	296	297	297	296	294	295	298	298	298	297	297	296	294	294	292	292	295	297	298	298	304	304	302	302	301	301	304	303	301	299	296	293	291	295	294	293	295	296	292	293	293	300	296	297	300	298	296	294	293	290	290	289	290	292	294	295	296	296	295	293	293	293	294	291	298	300	298	295	294	294	293	294	293	293	294	293	291	293	296	297	294	289	290	290	291	292	294	295	299	297	292	291	294	295	298	299	298	296	293	295	295	296	295	291	292	293	294	289	290	291	291	290	287	290	293	292	290	292	293	291	292	295	296	299	296	295	297	297	296	297	298	299	296	291	290	291	289	289	290	291	291	286	290	291	294	295	295	292	293	293	295	292	291	292	294	290	288	290	288	289	290	291	291	290	289	288	284	282	282	284	287	288	287	287	289	286	289	287	288	288	288	287	286	287	286	286	286	286	283	283	281	283	286	287	286	286	286	285	284	284	285	284	283	283	281	281	282	281	281	278	284	282	283	286	285	286	284	285	284	283	281	281	279	281	281	283	283	284	287	283	281	282	285	283	281	278	283	283	283	281	280	281	282	281	278	278	280	281	282	284	283	283	284	282	281	281	281	278	279	276	279	281	282	282	280	279	280	280	281	285	284	283	283	281	279	277	281	282	278	279	283	285	282	282	280	280	279	280	280	280	279	277	276	277	282	281	280	281	281	281	277	277	276	277	273	275	274	274	271	277	280	280	282	281	277	278	276	276	278	279	278	276	281	282	280	281	278	276	275	273	272	272	272	275	280	279	277	274	272	270	276	277	277	278	275	269	269	272	272	274	273	274	273	271	268	268	266	269	274	273	272	271	269	271	271	271	270	268	268	267	270	268	267	266	261	262	266	265	267	267	266	271	274	274	273	272	270	269	270	268	268	265	261	271	270	270	268	266	266	271	271	269	269	268	269	268	268	266	266	269	269	272	272	272	270	269	269	266	265	266	266	266	263	261	258	260	266	266	268	267	268	266	267	269	268	270	271	272	272	274	268	267	268	269	267	265	263	267	267	268	269	270	267	268	267	262	260	261	261	261	262	263	262	263	264	266	265	265	269	268	268	267	267	264	265	264	267	265	265	265	264	264	260	262	263	262	262	264	266	266	266	266	269	268	267	263	263	263	262	263	262	260	259	259	259	258	258	258	256	255	257	259	260	257	259	261	263	262	262	262	260	263	266	265	264	265	265	265	265	266	265	264	261	261	260	263	263	265	265	261	261	0	0	0	0	0	0	0
295	295	294	295	297	297	297	297	297	293	293	293	295	296	299	301	300	299	292	291	294	296	296	296	293	295	295	293	291	291	290	291	292	294	294	292	292	292	293	296	293	298	297	297	295	295	293	291	293	294	294	291	293	294	294	294	292	292	295	296	296	297	297	296	294	294	294	294	295	296	299	294	293	294	294	294	296	298	298	293	292	291	292	294	296	295	294	292	290	290	291	292	292	292	291	291	289	289	290	295	293	295	295	295	293	291	290	290	292	293	294	296	296	304	298	298	298	298	299	299	297	296	291	287	287	289	291	296	297	297	293	287	285	292	294	296	295	292	292	290	289	287	285	284	288	290	291	291	295	296	294	290	288	288	288	287	294	297	295	293	291	290	291	291	289	287	286	289	288	287	287	286	287	287	289	290	286	290	291	290	287	287	293	295	294	294	296	298	297	281	287	287	286	293	293	293	291	292	287	285	287	286	282	284	286	291	292	289	287	288	290	289	289	291	293	293	290	290	290	292	294	295	296	294	293	289	290	290	288	287	287	284	282	283	285	286	292	286	279	283	279	291	291	290	290	291	290	289	287	288	285	281	283	284	286	282	283	283	284	284	284	284	284	287	287	286	284	286	284	286	283	287	287	286	286	284	284	285	286	285	283	281	282	283	284	287	285	285	286	283	282	280	281	281	282	283	280	274	276	274	274	275	278	279	278	282	281	285	287	284	280	281	278	278	279	280	275	277	279	275	278	280	280	281	284	283	277	276	279	281	281	283	280	282	283	281	276	276	278	280	281	282	282	283	281	280	279	278	278	275	273	275	278	280	279	279	277	276	276	278	278	281	283	281	279	277	278	279	277	274	275	276	282	279	280	281	278	278	276	271	274	275	277	276	272	271	281	279	278	277	278	277	275	275	276	278	278	275	274	274	271	273	274	277	279	278	277	277	275	275	279	278	274	273	277	276	275	280	278	275	273	271	272	273	272	272	275	276	274	272	266	266	272	279	280	271	270	270	274	272	275	276	275	272	268	267	267	266	266	269	273	272	270	268	264	266	268	268	268	266	267	272	273	272	269	269	271	271	267	265	263	265	267	269	269	271	273	270	266	268	267	266	264	260	265	268	268	267	265	265	266	271	270	270	267	266	267	267	267	267	264	260	260	270	271	270	270	269	265	266	265	262	260	258	257	257	259	265	271	266	263	264	263	264	267	268	269	267	268	270	269	264	261	261	264	265	263	260	261	263	264	265	265	266	265	266	265	260	258	260	260	260	261	260	261	261	263	262	262	263	264	265	267	267	267	265	266	261	264	264	264	263	264	263	265	261	263	261	259	256	262	263	260	259	260	258	259	263	261	261	264	259	259	259	259	257	258	258	258	258	258	258	256	259	259	259	260	261	260	259	259	261	259	255	256	263	264	265	265	263	262	259	258	262	261	260	261	262	263	266	260	257	257	0	0	0	0	0	0	0
288	292	292	294	295	295	295	291	289	293	293	293	294	295	300	300	297	290	286	286	290	292	290	290	290	291	292	288	284	284	284	286	287	288	288	290	289	289	290	293	289	295	293	295	295	295	292	290	285	285	284	289	292	292	289	289	288	289	291	293	292	292	292	292	293	294	294	296	296	296	296	294	293	293	293	294	294	287	287	289	287	284	282	289	294	294	291	288	286	286	287	288	288	287	286	285	285	286	286	286	290	291	292	292	291	287	286	287	289	290	290	290	293	292	300	293	293	289	289	296	292	288	285	284	285	290	292	296	297	296	293	288	286	285	284	285	289	284	285	283	285	284	283	282	285	286	286	287	290	293	290	288	285	283	283	284	286	289	285	285	287	287	289	289	286	284	279	280	286	287	287	287	287	289	290	292	291	285	284	283	285	288	288	292	288	286	285	282	281	281	283	283	283	284	287	290	289	290	291	288	287	286	284	284	288	289	291	288	286	287	285	286	287	288	291	285	284	286	287	289	291	290	290	285	282	284	288	288	287	284	282	281	280	280	281	282	283	279	283	282	275	277	282	286	286	286	289	288	283	283	284	285	283	287	282	283	281	279	277	282	283	284	284	284	284	283	282	285	282	281	284	284	285	285	284	281	282	283	284	284	280	283	283	282	283	281	278	283	281	277	274	272	274	280	284	282	274	275	272	270	272	271	277	273	273	274	274	281	281	279	276	274	274	274	275	270	271	278	278	278	278	277	277	276	276	280	280	282	281	277	281	279	281	280	283	276	275	275	275	276	281	281	282	281	279	278	276	276	274	270	272	273	278	275	277	276	277	275	274	274	275	275	280	276	276	275	275	272	273	271	270	275	276	280	276	275	272	271	269	268	273	274	274	272	269	268	276	270	276	277	277	277	275	274	277	280	276	272	270	270	272	272	271	271	273	274	273	274	273	275	275	273	272	272	272	271	272	273	279	276	274	272	271	273	272	272	271	271	271	269	267	273	276	273	271	269	265	269	270	266	267	269	264	263	260	263	265	266	263	265	266	267	267	270	265	265	266	267	266	265	266	269	266	265	267	272	270	272	271	270	266	265	268	268	269	272	273	273	265	268	267	262	263	266	263	267	263	263	262	265	269	271	269	266	265	264	266	266	266	261	264	261	258	263	267	269	271	271	271	263	257	260	261	261	260	262	264	264	269	264	263	261	263	264	267	267	265	265	266	266	263	259	259	260	262	263	262	261	260	260	264	263	264	265	263	262	259	258	259	259	260	259	261	259	260	260	259	261	260	262	262	264	261	262	262	265	266	258	258	262	261	259	261	265	264	263	262	260	259	257	261	261	258	259	260	258	259	261	261	260	259	259	259	259	259	260	259	259	258	256	258	257	253	254	254	257	259	255	255	255	256	257	259	257	257	256	258	259	259	258	257	260	258	258	259	260	260	262	264	258	258	258	256	0	0	0	0	0	0	0
289	289	290	292	292	293	293	285	289	292	292	292	292	297	299	297	284	284	281	277	277	279	282	282	287	289	286	285	283	283	286	287	287	285	286	287	289	289	290	287	292	292	291	294	294	294	293	292	289	289	287	283	281	284	283	283	284	287	289	291	289	287	287	287	291	294	294	293	293	293	294	292	293	291	292	292	282	284	286	284	283	282	281	281	285	287	286	285	285	285	285	284	284	284	282	283	284	285	285	285	285	287	289	289	288	285	285	285	286	285	285	285	284	284	284	285	284	283	286	290	287	287	286	287	288	289	288	294	295	294	290	290	290	287	283	282	281	281	281	282	283	284	284	282	283	283	282	280	280	283	284	281	282	282	283	280	282	283	284	285	285	286	288	289	283	279	282	284	283	287	287	285	285	284	287	287	287	284	281	281	281	286	290	290	286	283	283	281	281	281	280	279	280	282	288	288	284	282	287	286	285	285	283	283	283	283	285	286	283	285	285	285	285	287	282	282	279	280	283	285	287	283	282	280	277	281	283	285	283	276	275	278	279	279	279	278	278	279	281	278	273	276	281	281	281	281	277	282	280	283	284	287	286	285	281	280	278	274	274	276	278	280	281	281	283	279	281	280	279	278	279	281	282	283	276	278	279	281	282	279	279	280	283	282	279	277	276	276	274	275	278	277	276	273	277	281	273	271	270	269	270	270	274	273	274	271	270	270	269	270	273	273	272	276	278	280	272	271	272	276	276	274	271	272	276	279	279	282	281	275	276	280	280	279	278	276	271	269	269	272	274	276	276	277	278	276	275	275	270	271	275	275	273	273	274	274	267	268	269	272	272	274	273	272	274	276	275	272	271	270	266	266	271	275	274	268	267	268	268	266	271	272	274	273	269	267	271	269	272	269	276	274	274	270	269	279	274	270	268	267	267	267	267	266	270	269	270	269	270	272	272	268	267	268	270	268	271	271	272	273	271	270	272	272	271	269	268	268	268	267	264	263	261	264	267	265	266	266	266	266	265	263	262	260	258	260	263	262	263	263	263	265	269	264	265	265	265	266	264	264	265	267	263	264	267	267	269	268	270	271	266	265	268	271	268	267	267	267	267	264	262	266	265	268	263	264	260	262	262	263	265	268	265	263	262	261	264	261	260	258	258	259	258	262	264	267	268	270	270	264	260	258	260	261	261	263	264	262	260	261	261	261	262	263	268	263	263	263	262	262	259	257	257	259	260	262	263	264	261	261	261	262	262	263	261	260	258	259	260	260	260	256	261	257	257	258	258	258	257	256	256	257	258	257	258	256	260	258	256	254	256	257	255	255	254	252	252	256	256	256	256	258	260	258	259	260	260	259	257	257	258	258	258	259	259	260	259	259	257	256	255	252	254	251	251	254	251	251	251	251	251	256	255	257	258	255	253	254	254	255	257	256	257	257	258	256	255	254	253	256	255	255	254	0	0	0	0	0	0	0
285	285	285	286	289	281	281	285	287	287	288	288	290	290	288	289	279	279	277	276	275	277	283	283	286	283	282	280	283	285	285	285	284	283	283	284	286	286	288	286	283	285	283	287	290	284	284	284	288	288	285	282	278	282	280	282	282	283	286	290	288	285	284	285	292	294	291	288	282	282	283	285	289	291	290	283	279	278	277	280	282	281	280	279	281	284	286	288	285	286	286	282	279	279	279	281	284	285	285	285	286	286	286	286	283	283	283	283	284	283	285	286	286	282	281	282	280	279	286	283	283	283	277	278	286	285	283	288	289	284	287	288	285	283	282	281	281	281	281	282	281	282	282	282	284	281	279	279	282	283	282	282	282	281	282	282	278	279	283	285	285	286	289	283	279	282	277	282	277	278	283	282	282	286	286	286	286	283	280	278	280	279	281	281	281	281	281	281	281	281	280	277	271	268	278	280	284	283	280	276	276	285	281	280	281	281	283	286	282	283	282	283	282	281	281	278	275	277	280	281	279	280	280	281	282	281	277	280	284	281	281	277	278	277	276	276	276	275	275	270	272	275	279	280	279	277	274	280	279	276	274	282	282	282	280	278	273	274	276	278	277	278	277	275	275	277	280	280	275	274	274	276	275	275	275	273	276	279	279	278	275	275	276	277	275	270	275	273	273	276	276	270	271	277	272	270	269	272	272	272	268	270	272	273	272	270	267	267	271	271	272	272	272	276	278	278	272	267	269	271	271	272	272	272	272	275	276	275	273	271	271	271	273	273	272	271	270	274	274	273	272	268	269	269	271	270	270	270	269	268	268	270	269	268	266	264	265	264	266	269	273	273	272	271	270	271	273	271	269	266	266	268	270	270	269	264	264	265	264	265	268	273	274	274	267	267	267	266	267	270	272	273	269	266	273	275	274	270	267	266	266	266	266	266	267	267	265	264	267	271	269	269	266	264	267	269	269	265	263	262	264	264	264	263	262	263	264	265	264	265	263	264	263	265	265	264	264	266	264	265	263	261	261	258	255	255	258	261	261	260	262	264	268	262	265	264	264	261	262	264	264	264	264	266	263	266	264	265	268	269	264	264	265	263	263	265	263	263	261	255	263	267	265	261	257	261	262	262	259	262	260	259	259	259	261	259	259	260	260	256	256	256	256	259	261	262	262	263	262	260	259	258	260	261	262	261	262	259	258	257	258	258	259	267	259	262	262	261	259	258	255	255	257	258	260	260	261	258	256	255	258	262	262	262	261	258	258	260	261	262	259	255	252	252	253	256	258	257	257	257	257	257	256	256	256	255	255	252	253	252	253	256	250	247	246	244	247	254	256	256	253	251	250	248	251	252	253	253	252	251	248	251	251	252	255	257	258	258	257	256	254	253	255	250	249	248	249	249	247	246	246	246	253	254	254	252	249	249	252	253	253	253	255	254	255	255	254	252	252	253	254	254	250	0	0	0	0	0	0	0
282	282	280	276	278	278	278	281	284	285	285	282	282	276	274	278	279	278	277	276	275	276	276	276	278	279	277	276	278	280	280	280	281	281	282	283	286	286	283	279	276	279	282	284	284	283	283	283	283	284	284	281	277	278	278	279	279	280	288	287	282	282	285	288	288	288	284	280	281	281	282	283	284	285	282	282	279	277	274	277	279	277	278	279	280	281	283	281	280	276	275	275	275	275	277	279	282	283	283	283	285	285	285	285	280	281	281	281	281	280	281	283	283	278	279	279	279	277	280	281	282	281	274	275	279	280	279	282	277	281	279	282	281	282	282	282	282	281	280	278	279	279	279	277	282	283	280	279	281	281	280	280	277	276	277	279	280	279	279	282	285	285	282	280	275	280	276	281	276	275	275	276	282	284	284	285	283	282	279	278	278	279	279	279	279	279	279	279	280	278	277	270	275	274	275	279	281	281	278	277	276	276	273	270	279	283	284	278	275	277	279	282	281	282	281	278	273	274	280	281	277	277	279	280	282	279	277	278	283	283	281	281	280	278	276	276	275	275	274	272	272	274	279	278	275	272	270	266	267	267	269	269	269	269	278	271	271	273	274	276	277	276	277	275	274	275	275	275	274	271	271	272	275	272	271	270	271	273	275	274	273	269	270	272	271	271	271	272	271	272	273	272	272	271	267	266	269	270	270	272	272	272	273	272	269	266	266	266	268	268	270	271	271	271	270	266	266	266	268	271	271	272	272	272	271	270	272	273	272	272	269	268	269	268	268	269	269	268	273	268	267	268	268	268	269	268	267	268	267	266	267	267	267	266	264	263	259	263	264	269	269	268	267	267	263	266	271	269	265	262	265	268	266	264	262	263	263	263	263	264	269	272	273	271	271	265	263	264	265	268	271	272	269	270	268	269	268	267	267	265	265	265	264	264	265	264	263	262	266	269	269	263	261	261	262	265	266	262	260	257	257	258	259	261	264	265	262	261	262	262	264	261	261	261	260	262	264	262	264	264	260	260	261	257	256	255	255	256	255	253	255	257	258	259	258	260	260	258	258	260	262	260	263	263	262	261	265	262	261	261	263	262	262	257	259	261	261	260	258	256	259	268	262	257	258	255	255	256	259	258	257	258	258	257	258	258	254	253	252	251	253	254	260	259	261	261	260	261	261	260	258	258	258	260	261	259	257	257	256	252	256	256	259	255	255	257	261	258	256	255	258	256	257	255	257	256	257	256	253	251	251	254	257	257	255	255	253	253	257	259	259	253	250	247	254	254	261	260	258	257	258	257	256	253	251	252	251	250	252	252	251	253	248	247	247	248	250	253	252	253	251	247	256	251	252	252	250	248	249	250	247	247	243	250	251	252	251	250	249	251	254	254	250	251	251	251	250	249	248	246	247	244	251	251	252	247	246	246	247	254	252	252	251	249	251	251	251	251	251	250	250	251	248	0	0	0	0	0	0	0
279	279	278	277	276	276	276	278	281	281	274	266	266	271	275	277	278	276	276	276	276	276	275	278	278	276	276	273	272	276	276	277	278	280	281	281	281	278	278	277	275	277	283	280	281	279	279	279	282	283	283	277	275	275	276	278	278	283	284	280	276	277	279	278	281	283	279	278	280	280	280	281	282	280	278	274	275	271	273	274	277	276	276	277	278	276	276	277	276	273	271	271	271	272	276	278	278	280	281	282	281	280	280	281	280	281	280	277	279	279	278	276	277	278	277	277	276	276	277	278	277	273	273	276	279	279	279	278	276	277	279	277	279	280	279	277	277	276	272	276	277	278	277	277	278	281	284	278	279	278	279	280	279	278	274	276	280	277	278	280	279	277	276	275	275	277	279	276	273	272	273	273	272	275	283	281	280	279	278	278	277	278	278	277	276	277	272	269	268	271	272	275	271	274	275	275	280	281	278	274	274	271	271	270	273	274	280	276	275	277	276	273	275	277	280	275	272	272	277	273	271	275	279	280	280	280	280	281	281	274	280	276	276	275	275	277	277	274	271	270	275	275	275	276	273	271	266	266	266	266	266	268	269	269	267	267	270	271	271	272	275	275	274	273	273	272	272	273	269	268	269	270	271	267	267	267	269	263	271	272	271	268	269	271	268	268	269	268	268	269	272	274	272	268	266	267	269	270	270	271	272	273	270	267	267	266	265	266	266	267	268	268	271	270	269	269	264	264	264	266	269	270	270	271	270	269	271	269	265	264	267	267	267	267	267	265	266	265	265	265	265	268	268	268	267	265	264	265	264	265	266	262	262	261	261	262	262	262	266	267	265	267	265	265	262	262	266	265	261	261	261	261	261	261	262	262	262	261	258	261	269	268	268	265	260	261	260	262	261	260	263	264	264	263	266	268	268	266	265	264	264	264	263	264	264	264	262	260	266	264	263	261	265	267	268	267	265	262	261	258	255	257	259	262	259	260	258	258	259	260	259	259	260	262	261	261	259	258	257	258	257	256	259	258	256	255	255	256	254	256	254	255	256	256	258	257	257	255	257	259	259	258	260	262	262	256	260	260	264	259	261	255	254	253	257	260	260	259	254	257	260	259	256	256	255	256	255	256	257	258	257	257	254	251	252	252	256	253	251	250	251	253	262	259	259	257	256	255	258	256	255	256	256	254	259	255	255	254	257	254	255	258	253	254	253	253	256	256	254	257	255	255	256	255	254	254	254	255	253	252	251	253	253	253	252	253	251	251	251	250	250	250	249	250	252	252	256	257	250	250	249	250	249	248	248	248	248	249	251	252	251	247	248	248	247	250	249	250	249	253	251	248	258	252	252	250	248	247	249	249	249	244	245	244	251	248	251	250	246	245	250	251	250	250	250	249	248	251	251	252	251	252	244	238	239	242	242	244	247	247	252	253	250	249	249	247	250	249	251	251	251	250	248	0	0	0	0	0	0	0
278	277	277	275	274	275	277	277	279	275	267	268	268	271	274	276	276	274	274	277	276	274	275	276	276	277	275	273	270	274	275	275	276	278	276	279	278	277	277	276	275	274	280	279	278	278	279	279	279	281	278	276	275	275	274	277	280	280	276	274	275	277	276	275	274	274	275	277	278	277	277	275	272	273	275	273	273	272	271	270	273	275	276	277	277	276	276	275	275	272	269	268	268	271	274	276	276	278	279	279	279	276	271	271	269	271	274	278	279	276	275	275	276	276	277	276	276	276	275	276	275	271	272	274	277	279	281	277	274	271	273	274	277	277	277	277	273	271	269	274	274	274	274	275	276	278	279	275	274	275	279	280	279	278	272	274	275	278	276	278	274	271	273	275	276	278	276	276	269	270	271	271	271	273	277	268	268	269	275	275	275	273	272	271	272	272	269	270	269	268	268	268	271	271	272	275	275	274	272	271	270	273	269	270	273	273	274	270	271	275	275	271	272	272	272	275	269	271	272	268	271	273	274	274	278	275	275	274	274	271	268	269	272	271	270	270	269	269	268	269	269	269	270	271	272	269	267	264	264	265	266	268	269	268	267	264	267	266	267	270	267	268	266	264	269	268	268	268	266	267	266	267	267	266	267	265	261	261	266	267	267	266	267	268	266	265	265	265	263	264	265	265	270	269	267	266	270	270	265	263	264	265	265	262	264	264	266	263	267	264	266	265	267	268	266	265	264	262	261	264	266	268	268	268	267	266	267	268	262	262	260	260	259	262	265	266	264	263	263	263	264	264	265	265	264	262	261	261	261	260	259	259	260	262	262	260	261	262	262	264	262	263	261	260	259	259	261	261	260	261	261	261	261	261	261	260	257	257	258	260	265	266	262	261	260	261	261	262	259	259	261	258	256	256	258	263	263	262	262	261	263	260	264	263	266	266	263	260	266	262	260	263	262	267	265	264	264	262	261	259	259	258	258	258	259	255	257	257	258	259	259	259	262	263	263	260	259	256	254	256	255	255	257	258	256	255	255	257	256	258	258	256	255	258	257	257	255	254	254	257	253	253	256	259	257	254	257	265	260	263	253	254	252	251	255	257	256	257	255	253	251	251	255	254	252	252	253	253	255	256	251	251	251	252	252	250	256	250	250	250	248	253	254	256	253	254	254	255	255	255	253	257	258	257	254	253	253	252	251	257	262	254	253	251	249	250	252	252	254	252	253	255	254	255	253	250	254	249	249	252	252	253	250	249	249	247	248	247	247	245	245	243	245	248	246	246	247	245	246	246	246	248	249	245	244	245	248	247	249	251	251	248	248	246	250	251	250	252	250	246	248	252	252	254	249	247	247	248	248	250	247	247	245	249	245	249	251	251	247	248	248	249	248	248	247	248	247	247	247	243	242	244	242	240	242	242	242	245	244	243	247	248	248	246	245	246	246	247	247	247	247	247	244	0	0	0	0	0	0	0
275	274	274	273	272	274	276	276	276	273	270	270	270	270	271	272	274	275	275	276	274	273	274	274	274	275	274	273	271	272	272	272	272	271	271	274	275	274	274	274	273	272	276	277	277	274	272	272	271	272	274	276	278	276	271	270	271	271	273	273	274	276	275	273	273	273	272	275	275	271	271	272	270	270	271	270	269	269	269	268	269	270	275	276	275	274	274	275	274	271	271	271	270	270	272	274	274	277	278	277	277	274	272	270	270	269	268	271	275	275	273	272	274	275	275	276	276	275	275	275	276	276	274	276	275	275	277	271	272	269	270	272	276	276	275	274	270	271	271	270	273	271	273	274	275	274	274	275	274	271	273	274	274	279	274	274	275	276	274	272	272	270	273	276	278	278	278	271	269	269	269	269	271	273	274	269	268	267	270	270	268	269	270	271	269	269	270	272	269	269	269	268	270	269	269	268	267	265	266	269	269	269	270	270	272	271	270	267	268	270	270	271	269	270	271	269	268	267	266	268	267	268	269	270	271	267	265	272	271	269	266	268	268	268	269	269	268	266	266	266	266	267	269	269	270	268	269	266	265	264	265	268	268	266	265	261	262	265	266	266	264	267	268	268	266	266	266	264	263	265	265	265	264	264	258	258	260	262	263	265	265	264	264	264	264	264	264	264	262	263	263	264	264	264	263	262	263	262	261	261	261	261	260	258	259	260	261	263	261	260	261	260	261	267	266	265	264	262	261	266	265	266	265	265	265	263	263	266	265	262	260	260	262	262	264	266	261	262	264	262	261	261	263	264	262	261	259	258	257	259	259	257	257	261	261	260	261	261	260	259	261	261	257	258	259	258	259	261	260	261	260	261	259	259	259	256	256	257	260	260	261	261	263	260	259	260	259	256	255	259	261	259	256	256	257	260	260	260	258	258	255	259	262	261	259	263	259	259	259	262	262	260	259	265	264	264	262	261	257	255	254	251	255	257	255	255	253	254	254	256	258	258	260	263	261	257	257	255	255	253	252	252	252	255	257	254	254	256	258	259	259	257	255	255	257	257	256	252	253	256	253	252	251	250	251	257	249	250	251	261	260	254	257	256	254	255	250	250	253	252	250	248	250	246	251	252	250	252	252	254	254	251	250	250	252	250	250	250	250	251	250	251	251	251	252	251	252	252	251	252	252	253	256	256	251	253	251	251	250	256	250	251	250	251	250	251	252	253	249	249	250	249	249	248	249	248	247	246	247	247	252	252	250	249	248	246	246	247	245	245	247	246	246	245	245	243	244	245	245	246	243	244	245	245	245	245	245	246	248	249	251	246	248	245	250	250	250	247	247	243	244	251	251	251	246	244	246	246	248	248	246	246	242	242	247	249	250	252	252	250	250	249	245	244	245	246	247	245	243	242	242	241	240	241	240	240	241	242	244	244	241	243	243	242	243	244	243	245	246	246	246	245	242	0	0	0	0	0	0	0
270	270	270	271	273	274	275	275	269	269	268	268	267	267	265	268	269	273	273	274	274	274	272	270	270	271	270	270	271	270	270	270	270	267	265	266	269	272	269	269	271	269	275	277	276	268	266	266	265	263	267	275	278	276	267	267	269	269	271	272	272	271	273	271	271	270	271	270	271	270	270	269	267	265	267	264	263	263	266	267	268	270	270	271	273	273	273	270	269	267	268	271	272	271	271	271	274	276	277	271	273	273	273	272	272	270	268	268	271	273	272	271	271	271	270	274	276	276	274	274	273	272	271	270	268	266	272	268	266	268	267	269	272	273	273	267	267	268	270	264	267	271	271	272	272	271	270	269	268	268	271	273	274	276	274	270	270	269	270	269	269	271	273	274	274	274	268	266	266	267	268	266	267	271	274	269	268	269	268	269	267	267	266	270	270	270	270	266	267	268	271	271	269	269	267	264	263	262	266	268	270	269	269	270	269	270	268	267	265	267	269	266	264	265	271	267	266	265	266	266	266	267	267	266	266	265	266	267	267	266	261	261	264	265	266	267	264	265	266	265	265	266	266	268	268	268	268	265	264	263	265	265	265	264	262	259	260	262	263	264	266	267	266	266	266	264	262	261	261	263	264	265	263	264	256	256	261	262	264	265	262	259	259	264	261	263	263	263	262	260	259	261	263	264	263	259	262	264	265	264	262	259	257	258	258	260	262	258	258	260	261	261	263	263	266	263	261	261	261	262	259	261	261	262	262	261	261	262	258	258	258	260	260	259	262	260	261	263	263	262	261	258	259	255	254	253	257	256	256	254	256	257	258	257	260	260	260	260	260	258	256	257	259	257	256	257	258	257	260	259	258	258	258	257	255	257	257	261	258	260	259	264	262	262	261	258	255	253	255	255	256	259	258	255	257	256	258	259	257	258	253	255	254	259	258	259	261	262	262	258	257	260	263	264	263	258	252	257	254	253	254	257	257	257	254	251	251	253	250	250	251	254	256	256	256	257	255	255	255	253	252	252	251	251	252	251	253	254	256	257	257	253	254	256	255	254	250	253	256	253	252	250	252	250	251	252	249	246	249	253	252	257	255	250	250	248	248	244	246	247	247	244	241	245	246	246	248	250	252	254	251	249	250	255	255	254	250	250	251	250	250	250	250	250	250	249	250	247	250	249	251	252	253	254	251	251	251	250	249	247	247	248	249	249	249	250	250	247	246	245	246	246	247	246	247	248	247	245	244	245	248	248	249	248	248	246	246	244	243	244	246	246	246	245	245	243	242	243	242	245	242	242	246	244	245	245	244	245	245	247	247	253	248	247	245	246	248	243	242	244	248	251	254	249	245	244	244	244	245	248	248	244	240	239	239	245	247	247	247	247	247	247	245	244	243	244	243	243	241	241	241	239	240	241	239	239	239	239	239	239	239	239	238	238	239	237	238	239	246	246	245	242	240	0	0	0	0	0	0	0
262	265	265	271	272	274	266	266	266	264	265	262	260	260	261	263	266	271	273	273	274	272	269	267	265	265	266	268	268	267	267	267	267	266	263	265	268	268	269	269	267	268	273	271	267	265	264	264	264	265	267	269	268	266	264	264	267	269	269	271	271	271	268	268	268	268	270	270	270	271	268	268	269	265	261	265	263	258	257	260	264	267	269	267	264	264	265	264	263	262	264	267	270	270	265	265	265	266	270	267	267	264	265	266	272	270	269	270	271	272	271	269	269	269	272	269	274	273	268	269	269	271	270	268	267	268	266	265	265	266	265	266	267	269	266	264	265	267	264	264	265	268	270	270	270	268	268	265	268	267	267	267	271	268	264	263	262	264	265	264	266	268	270	271	270	265	265	264	264	265	265	265	267	270	270	268	267	268	268	269	268	266	267	269	271	269	266	264	265	265	267	266	266	265	264	264	265	263	262	264	266	267	267	267	266	262	263	262	262	263	266	265	264	261	260	263	262	264	265	265	265	266	266	266	262	264	264	265	265	264	260	257	259	261	266	263	260	261	260	263	263	263	264	265	267	264	262	263	263	263	263	263	263	262	258	257	258	262	263	264	266	266	266	264	260	257	255	257	258	260	261	262	261	261	262	263	263	263	261	258	258	258	256	257	260	262	258	257	258	257	258	259	257	257	258	260	259	261	265	264	263	260	258	258	258	260	259	260	259	261	262	261	262	262	263	263	260	259	258	258	258	259	259	259	260	258	257	258	257	258	258	260	258	258	258	260	259	253	253	255	261	256	256	255	254	251	256	254	253	254	254	257	254	255	259	259	259	257	255	255	255	255	256	256	256	256	257	253	255	255	257	255	256	257	255	257	256	257	257	257	258	256	260	259	255	255	252	253	255	255	255	255	257	257	256	255	254	256	256	256	253	252	253	255	252	254	255	258	258	258	254	254	255	256	255	253	256	247	251	254	254	256	255	257	253	251	251	250	249	249	250	254	252	252	255	254	254	253	253	253	253	254	253	251	251	252	252	253	254	254	253	252	254	256	254	253	250	249	247	247	254	251	251	249	245	244	245	245	244	250	249	250	258	256	251	249	249	248	243	243	242	242	244	246	246	245	246	246	248	249	247	245	245	253	257	254	245	247	249	251	247	250	251	248	248	247	247	247	249	249	248	246	247	248	248	247	247	249	246	243	243	244	244	243	244	246	248	247	245	242	242	241	243	246	245	247	247	246	242	246	247	246	242	241	244	246	243	246	241	242	244	245	245	246	245	244	242	243	243	243	241	240	240	246	245	245	245	244	247	244	244	242	237	240	243	243	243	243	243	243	246	248	248	246	246	244	242	241	244	245	244	244	241	239	238	235	236	243	240	240	240	240	241	244	242	244	242	241	241	240	238	239	239	240	239	239	239	240	239	239	238	237	238	236	236	235	236	239	239	241	241	239	239	0	0	0	0	0	0	0
257	262	266	266	261	260	260	258	258	261	263	261	259	259	259	258	266	268	270	270	270	267	265	263	263	263	264	265	263	264	264	262	262	259	261	265	267	268	267	267	265	267	268	265	263	263	264	264	264	266	268	268	267	265	263	263	261	262	262	263	264	264	263	267	269	269	266	264	262	262	258	260	260	260	262	263	264	262	260	260	261	262	262	261	260	260	263	263	262	262	264	267	269	269	268	266	266	268	267	266	266	264	265	266	267	269	268	268	270	272	271	270	270	271	267	266	263	264	266	268	268	268	265	265	264	264	265	264	263	264	264	264	265	267	264	263	265	265	265	264	264	264	267	268	267	265	265	263	263	262	263	264	263	263	264	264	264	263	262	265	266	267	263	261	260	262	263	263	262	263	265	264	264	265	267	260	259	266	265	261	261	260	263	262	264	264	264	264	265	265	266	265	264	264	263	264	264	261	261	262	263	264	264	263	259	261	261	260	258	257	255	256	258	256	259	258	257	259	259	263	265	266	264	260	262	263	264	264	263	259	257	255	256	256	260	259	258	259	260	261	262	258	259	259	262	262	262	260	259	258	259	266	261	262	260	256	258	260	261	262	261	260	262	263	260	257	255	253	253	253	259	260	260	258	258	259	259	255	254	255	252	253	254	254	259	259	258	256	255	255	255	254	256	254	255	256	257	260	263	261	259	259	261	259	259	259	259	258	256	257	260	259	258	260	258	258	259	258	257	256	256	258	257	258	256	254	256	255	256	256	257	257	257	256	256	256	254	252	249	251	253	252	253	252	253	253	253	249	250	252	255	253	254	254	257	258	257	253	254	253	253	253	254	254	255	256	257	253	253	254	254	252	253	254	257	256	256	255	257	256	255	254	254	252	252	252	252	253	253	255	255	255	256	257	256	256	258	254	255	256	251	251	254	252	251	255	251	254	254	255	254	256	256	256	253	251	248	248	251	252	254	251	251	251	249	249	251	248	249	249	254	254	252	251	252	253	250	247	247	249	252	253	251	251	251	253	250	252	253	252	251	250	251	253	253	253	250	246	246	246	250	248	246	247	245	243	244	245	247	248	246	248	249	247	247	246	250	248	244	243	243	242	244	246	246	241	241	243	247	242	238	248	241	236	250	247	244	245	246	251	246	245	244	239	242	244	244	245	246	248	247	246	246	246	245	243	243	244	243	242	242	242	242	243	244	246	247	248	244	241	239	239	241	244	243	242	243	244	241	239	237	238	239	240	240	244	245	242	244	241	242	243	243	242	243	243	241	243	241	242	242	240	240	237	242	245	245	246	248	246	244	242	242	242	240	238	241	241	243	245	246	245	245	238	239	238	239	240	241	240	240	240	241	239	238	240	241	242	243	243	239	237	237	239	238	243	241	241	240	239	239	239	238	237	237	236	237	239	239	238	237	233	233	237	235	232	238	239	239	240	239	238	238	0	0	0	0	0	0	0
256	260	259	259	258	256	255	258	258	260	262	260	260	260	258	256	255	268	266	266	266	264	262	259	258	258	261	263	260	261	263	261	261	259	260	263	264	264	263	265	263	265	264	263	262	262	263	264	264	262	261	264	264	264	263	262	261	261	262	262	264	265	264	265	269	269	265	263	262	258	255	256	256	257	259	260	260	260	262	261	260	260	261	260	258	256	257	261	263	265	263	265	266	264	264	264	264	264	265	265	264	262	261	266	259	263	265	265	265	264	265	266	267	263	263	264	262	263	265	266	265	264	264	262	262	260	262	261	260	260	260	262	259	261	262	264	263	263	259	261	261	261	264	263	264	264	263	260	256	258	256	260	256	263	263	264	264	263	262	261	263	263	262	260	260	262	262	261	260	263	265	266	263	262	261	259	257	258	254	254	254	255	256	259	260	261	262	263	262	264	265	263	263	262	262	260	258	256	259	259	258	260	259	259	256	260	260	260	257	255	255	255	255	255	259	258	257	257	257	260	263	265	264	260	260	262	262	263	263	258	256	256	255	253	254	258	257	257	255	260	260	260	256	255	261	260	260	260	258	254	254	258	258	259	260	259	257	256	254	252	253	256	258	261	259	256	253	251	251	251	252	255	250	258	256	258	259	256	252	251	250	253	253	255	258	258	257	255	255	256	256	253	255	252	253	255	255	256	260	260	259	259	260	258	254	254	257	255	254	254	256	256	256	255	258	258	258	256	256	257	256	253	254	254	253	253	253	254	253	255	256	256	253	254	254	253	252	249	249	252	254	255	254	253	251	250	249	249	253	254	253	253	253	253	257	256	255	252	252	251	253	251	249	248	253	253	255	254	253	251	251	250	253	256	253	253	252	254	258	259	258	257	250	249	249	250	251	252	255	252	253	251	253	251	256	259	259	256	253	253	251	248	251	252	252	250	251	257	254	247	248	249	250	248	249	247	248	250	250	245	245	246	245	249	248	247	247	247	248	248	248	247	245	248	246	249	249	245	243	242	241	244	247	249	252	257	252	249	252	250	248	249	251	253	253	252	245	245	245	246	246	242	243	245	249	246	247	241	241	243	243	242	248	246	245	246	247	244	243	238	237	239	242	242	241	237	236	237	237	241	238	247	240	233	234	244	246	247	248	250	243	244	244	243	238	241	244	241	243	244	245	241	242	244	243	244	244	242	239	245	244	241	242	243	244	246	246	246	242	240	237	236	238	240	242	242	241	242	241	239	239	239	240	241	241	244	245	241	242	240	241	238	237	235	234	238	240	241	241	240	240	240	240	237	237	238	240	240	241	242	242	242	243	240	241	239	240	238	238	238	237	240	239	238	236	237	239	240	240	241	240	239	240	240	240	240	241	242	241	240	237	234	235	235	243	237	238	239	240	240	239	238	237	236	236	235	232	232	234	236	235	232	231	232	232	235	235	236	236	238	236	236	236	0	0	0	0	0	0	0
257	257	255	255	255	254	255	257	257	259	260	259	260	255	255	253	254	263	263	263	264	263	261	257	256	258	258	259	258	260	262	262	262	258	258	261	261	262	262	263	260	261	261	261	260	261	261	262	261	261	260	261	262	262	262	261	260	261	263	263	264	265	265	264	263	264	264	262	258	255	254	252	252	254	255	258	258	259	260	260	259	259	259	258	257	256	258	259	259	260	261	259	261	261	259	259	261	261	262	263	261	261	259	256	259	259	261	262	262	263	263	263	261	260	260	259	259	261	264	263	258	258	258	258	257	252	260	259	258	255	253	252	251	250	253	257	259	263	260	259	258	259	258	261	262	261	260	257	258	256	256	256	254	259	261	261	255	258	259	257	261	260	261	258	259	260	261	260	258	257	257	258	259	259	260	258	254	256	253	254	255	255	257	256	259	259	257	257	261	261	261	261	259	259	260	258	255	254	253	255	255	255	255	255	256	259	261	257	256	255	253	255	254	255	257	257	255	255	258	260	263	257	256	257	258	258	260	260	259	257	256	255	254	253	253	256	256	255	253	254	256	258	258	254	256	258	260	258	254	254	251	251	252	252	254	255	255	255	256	252	252	255	256	260	254	253	250	249	247	248	249	251	250	252	255	254	257	254	251	251	251	251	253	255	256	258	256	256	256	256	255	256	254	252	252	251	252	251	252	252	253	253	253	254	254	253	256	254	252	251	252	252	252	252	253	253	253	251	253	251	256	257	252	252	250	249	250	248	250	251	249	253	253	253	252	252	251	251	250	248	253	253	253	249	248	249	248	247	249	252	254	253	253	253	252	252	247	249	250	250	249	249	249	249	250	250	252	253	251	250	249	247	253	252	251	249	249	252	254	256	255	251	250	249	248	249	249	251	255	252	252	250	251	251	255	256	257	256	252	252	250	250	247	247	249	249	250	251	247	242	241	246	247	246	245	245	249	250	244	248	247	246	246	247	245	246	247	247	248	248	246	246	245	245	248	249	246	244	237	238	244	243	245	241	241	242	245	248	246	243	249	247	247	247	241	241	241	241	242	246	242	242	240	245	248	243	242	241	243	246	238	240	247	248	242	242	243	244	237	238	237	239	240	241	242	241	237	237	237	238	238	241	232	235	244	245	243	246	241	243	239	235	234	238	240	239	244	240	241	243	242	240	242	244	244	242	244	239	243	246	243	240	241	242	242	243	237	243	239	238	236	236	236	239	241	243	244	236	236	237	242	243	244	243	243	243	244	242	240	239	237	236	236	235	234	235	237	238	238	238	238	237	236	236	237	236	237	241	241	238	238	240	241	241	239	239	238	236	234	238	236	236	239	238	236	238	239	240	240	238	238	236	238	240	240	240	240	240	238	237	239	236	234	236	233	236	237	237	237	240	240	237	236	236	235	234	231	232	232	233	233	231	231	232	232	233	234	234	236	234	233	235	235	0	0	0	0	0	0	0
252	253	253	253	253	254	255	257	258	258	259	258	258	254	254	254	256	259	260	261	261	261	258	255	257	257	257	256	257	259	260	259	258	258	256	258	260	260	259	260	258	258	259	260	259	260	259	260	260	260	256	256	261	261	260	259	259	257	259	259	264	265	264	261	259	259	260	260	256	255	251	251	253	253	254	256	257	259	260	259	256	256	256	258	254	256	258	258	258	257	255	255	257	255	255	256	258	259	259	258	258	258	254	255	255	257	258	260	261	262	261	259	258	258	258	258	254	257	258	254	252	254	255	254	252	250	252	253	254	253	250	249	249	249	251	258	260	262	259	255	255	256	258	259	257	256	257	257	256	253	255	254	251	255	258	256	256	256	257	255	259	255	254	255	257	259	260	258	257	258	258	258	258	259	259	259	256	256	258	259	258	255	256	256	259	256	256	255	254	260	259	254	256	258	257	254	254	251	252	252	252	252	253	254	256	259	260	258	255	256	252	254	252	254	254	254	254	253	254	258	261	255	254	254	252	251	254	256	257	257	255	255	254	252	256	256	255	252	251	251	254	255	254	253	253	253	254	254	255	254	254	252	251	251	252	252	252	256	255	253	252	252	255	255	253	249	249	248	248	246	249	250	250	252	255	254	253	248	248	250	250	252	252	254	255	256	255	255	255	253	254	254	253	251	250	250	251	251	251	251	252	252	252	253	253	254	253	252	250	249	251	248	247	246	251	246	248	255	247	250	251	254	251	249	249	248	248	248	249	249	248	248	253	251	253	252	251	251	247	248	246	246	246	246	246	247	247	246	248	249	248	248	251	251	251	249	246	246	245	249	248	252	252	251	247	249	251	252	248	247	251	251	252	250	249	249	248	246	245	248	251	249	249	249	249	248	248	253	251	248	247	249	249	247	248	250	250	251	252	248	248	250	249	248	245	246	248	247	245	243	242	243	243	241	241	241	244	247	247	247	247	246	246	244	242	245	246	245	245	247	246	244	245	248	249	245	245	241	241	239	245	245	245	243	242	244	245	247	243	241	247	246	246	241	239	240	240	241	241	244	243	242	244	246	243	240	241	241	241	240	240	241	247	246	243	242	243	244	244	241	238	239	238	234	242	238	239	238	237	240	242	245	240	237	236	239	240	241	244	243	239	238	237	236	236	237	236	239	239	241	240	240	245	242	242	241	240	240	237	239	240	239	240	239	238	238	238	237	238	236	235	234	239	240	241	242	240	236	236	238	242	243	243	243	245	240	238	238	237	236	236	235	235	234	234	234	236	237	238	237	237	237	236	236	237	237	237	240	238	237	238	239	238	236	234	235	234	233	233	233	231	234	236	235	235	236	240	239	238	238	236	232	231	235	235	236	236	237	236	236	236	234	234	234	234	236	236	236	236	237	236	236	235	235	234	233	232	233	232	231	232	232	232	230	232	232	235	235	235	233	232	233	232	0	0	0	0	0	0	0
252	253	252	252	252	252	254	257	256	256	257	256	253	252	252	252	254	257	256	258	258	257	255	256	256	256	256	254	255	254	256	256	252	252	251	258	255	256	256	258	254	254	255	256	258	255	256	254	254	254	256	257	259	259	258	258	254	256	258	260	260	263	261	257	256	256	258	259	258	256	253	255	257	257	256	256	258	260	256	258	255	256	256	254	254	257	258	257	256	254	252	252	253	252	254	257	257	257	256	256	256	254	251	253	252	255	255	258	260	260	259	258	255	250	250	251	251	250	251	251	252	253	253	254	249	249	252	252	253	252	252	250	249	249	250	254	253	253	253	252	254	254	254	252	249	247	251	250	249	254	252	252	250	249	253	255	255	255	254	255	255	254	252	253	254	251	254	250	247	245	253	258	258	257	257	257	256	258	257	252	258	255	255	256	256	255	254	254	252	254	258	257	255	252	251	251	252	251	251	252	253	252	252	249	250	251	250	250	250	250	249	250	252	250	251	253	252	252	253	255	251	247	247	249	251	254	253	254	253	256	253	251	254	253	254	254	253	251	252	255	257	256	254	252	247	249	251	254	252	251	251	251	251	249	249	249	250	254	253	253	250	250	250	253	250	248	249	249	248	247	246	248	249	247	246	246	247	250	246	246	246	248	252	252	253	255	253	253	252	251	252	252	251	249	249	249	249	250	250	248	248	250	249	251	253	252	251	250	249	248	247	246	247	244	245	247	248	246	247	247	249	248	253	249	248	245	245	244	247	246	246	248	253	254	253	250	252	247	247	247	242	242	242	242	243	246	246	244	244	245	247	248	250	250	249	248	242	244	246	248	249	249	251	251	248	247	249	247	245	245	247	247	248	249	248	247	247	245	245	244	244	246	247	248	246	246	247	248	249	247	245	245	246	246	247	249	249	248	245	244	245	246	245	246	243	243	243	241	242	244	244	242	239	240	240	240	241	241	247	244	245	245	245	244	241	241	243	242	243	244	244	242	242	240	243	244	243	241	238	239	238	237	246	244	242	244	244	246	241	247	247	243	243	242	240	240	239	239	241	243	245	242	240	239	241	243	242	241	240	240	242	240	242	242	242	241	239	242	239	241	240	237	237	241	234	238	239	238	235	234	242	242	240	239	239	241	240	241	241	240	238	239	239	237	238	236	236	236	238	236	239	242	243	241	236	241	240	236	231	236	237	238	239	240	238	238	236	236	236	237	239	238	238	235	237	237	236	235	236	236	238	240	242	239	236	234	232	236	233	233	234	236	237	234	233	234	235	236	237	238	240	240	240	236	234	233	226	233	234	235	235	232	237	234	234	234	233	233	234	233	232	230	230	233	233	233	235	239	238	238	237	233	231	233	234	234	234	234	235	232	235	235	232	230	230	231	234	234	233	231	227	228	228	233	232	230	230	232	231	231	231	230	229	231	229	231	231	233	235	233	229	228	228	0	0	0	0	0	0	0
251	250	250	249	249	252	254	254	255	255	250	249	248	251	251	251	252	253	253	254	254	254	254	255	256	253	253	252	252	252	251	249	247	247	257	256	254	254	254	255	252	252	252	253	253	249	250	252	253	255	255	257	258	259	258	255	254	254	255	259	259	258	254	254	253	254	255	247	250	250	252	254	255	255	255	255	253	253	253	252	254	253	252	251	254	257	257	255	255	252	250	250	250	251	253	256	257	257	255	254	254	251	252	251	251	250	248	251	252	256	251	251	249	249	249	250	250	250	250	251	250	251	249	250	251	249	252	253	255	254	252	250	247	247	245	247	251	251	251	251	254	254	254	248	250	251	252	248	248	249	249	249	249	248	247	248	255	252	254	254	252	252	252	253	253	251	248	247	243	249	251	256	256	259	254	254	255	256	258	252	254	254	255	255	256	254	250	251	251	251	253	252	254	252	248	249	249	251	251	254	259	253	248	248	249	249	249	245	246	253	250	252	251	251	249	251	250	251	252	252	246	248	249	251	252	254	254	254	253	253	250	248	250	250	250	253	251	251	252	255	257	254	254	248	248	247	248	251	251	250	249	250	249	248	245	245	249	252	252	249	249	250	250	248	247	245	246	247	247	246	246	242	244	245	241	240	241	244	242	245	246	245	245	245	246	246	250	251	248	247	245	248	248	247	248	249	249	248	248	248	246	247	246	249	250	249	249	249	249	247	246	244	245	244	245	247	247	243	245	247	245	247	247	251	246	244	243	244	246	245	245	247	250	252	255	254	249	248	247	244	242	243	243	243	242	243	246	244	243	245	248	247	248	248	249	247	244	245	246	247	247	247	247	250	246	244	247	242	244	244	245	247	247	247	246	246	247	246	245	245	245	245	248	243	245	244	243	243	244	247	244	244	246	246	240	242	244	248	248	244	245	246	242	242	242	241	238	238	244	243	241	241	239	240	240	240	241	241	240	242	243	243	243	240	241	241	241	241	241	243	242	240	240	240	242	243	243	242	240	240	242	240	239	235	242	241	238	237	240	244	243	242	243	240	235	237	237	239	240	240	240	237	234	234	235	237	236	241	240	243	240	239	241	242	242	239	238	237	237	239	239	236	237	232	229	232	236	241	242	236	237	240	241	237	237	238	238	236	236	238	234	237	239	238	238	237	236	236	234	235	236	236	235	235	234	235	235	230	232	235	237	238	239	239	238	235	234	234	234	235	235	236	236	234	233	234	238	237	237	237	237	238	239	237	236	233	232	231	230	230	233	234	237	236	234	233	233	233	234	237	238	238	237	236	231	225	230	233	236	235	236	238	231	231	233	232	232	230	230	234	231	227	226	230	232	233	232	231	237	236	238	237	235	234	233	233	232	233	232	232	233	233	233	233	231	229	229	231	231	230	229	226	226	226	229	230	229	229	229	230	229	229	229	229	228	232	232	231	231	229	228	227	227	0	0	0	0	0	0	0
