285	286	290	290	295	299	294	293	293	296	295	291	290	290	292	295	297	301	295	295	293	292	296	296	296	296	298	299	300	301	298	298	298	296	299	301	301	300	295	293	290	296	299	297	295	298	299	298	298	297	292	292	293	294	295	294	293	291	288	288	289	296	297	296	295	293	292	292	293	292	291	290	290	289	290	291	292	289	284	288	292	291	288	291	291	289	289	292	295	296	296	291	290	289	289	292	292	292	299	293	289	286	288	288	287	289	288	286	286	288	290	291	289	287	286	285	286	288	290	299	293	287	287	289	290	294	295	292	289	286	286	285	287	287	289	295	294	283	283	283	282	282	280	282	284	286	286	286	281	281	283	284	284	287	283	279	280	288	290	290	287	286	286	284	284	284	286	286	289	287	289	290	287	289	290	286	284	284	282	283	284	287	286	282	282	281	279	285	291	290	289	289	289	286	286	287	288	288	287	284	284	285	285	284	284	284	289	290	290	287	285	284	286	287	289	288	288	288	285	284	287	292	293	283	286	289	289	291	290	286	284	283	281	280	281	281	281	281	284	287	285	287	287	287	287	287	291	290	287	294	283	281	280	281	280	280	281	283	283	284	285	286	284	283	283	283	283	283	283	281	288	284	283	284	281	281	284	284	284	282	279	282	282	283	284	285	285	284	286	284	283	283	284	282	284	283	285	286	288	288	288	283	286	286	285	278	283	283	285	288	288	286	286	286	288	288	287	286	284	284	284	285	283	282	286	287	288	285	285	283	279	280	281	282	281	280	280	277	279	280	280	281	281	289	286	287	286	288	288	286	284	282	281	280	282	284	282	281	283	285	284	282	281	281	280	280	282	284	287	291	286	282	282	281	290	286	283	280	284	287	287	286	284	287	284	284	286	292	290	283	282	286	286	283	284	288	291	289	288	288	290	284	286	288	283	281	284	286	284	282	281	281	281	281	283	283	282	280	284	285	283	283	284	287	287	284	282	283	282	283	283	289	287	286	284	286	284	285	285	286	285	279	278	277	278	281	284	288	287	286	279	280	281	291	295	284	289	288	284	280	278	279	280	279	279	279	277	278	285	285	285	279	280	281	287	288	279	276	277	279	282	284	284	282	279	280	280	281	280	282	283	284	281	279	280	281	279	286	288	288	284	280	278	277	277	280	277	283	283	282	281	281	278	278	278	278	276	275	271	280	281	281	281	281	284	282	280	278	266	274	273	273	270	268	266	269	266	270	268	273	271	286	281	280	278	276	275	275	273	274	277	278	277	277	276	274	272	273	282	283	278	276	275	277	280	282	283	281	279	277	275	277	279	281	281	280	282	275	275	272	271	283	283	283	283	282	278	278	277	278	281	282	279	277	275	271	267	275	281	280	280	280	283	283	280	278	278	281	280	279	279	278	279	281	281	282	286	284	281	280	281	280	279	281	284	282	281	282	282	280	283	281	280	0	0	0	0	0	0	0
284	285	288	288	293	295	290	288	288	293	292	290	289	289	289	289	291	295	289	289	288	287	290	291	291	292	292	293	294	294	293	293	293	293	293	294	292	290	290	290	291	295	296	295	295	295	295	295	292	292	289	290	292	294	292	291	289	289	288	288	289	290	292	292	290	288	291	291	287	288	287	286	286	287	288	292	291	283	286	292	292	292	291	289	290	287	287	288	290	291	288	287	287	287	289	291	291	291	290	288	287	285	284	288	286	285	282	281	289	290	291	291	289	286	285	284	284	287	289	290	288	286	285	283	283	290	290	287	284	283	282	279	278	279	281	281	278	279	280	282	281	279	279	280	283	285	284	283	281	282	281	281	280	282	284	283	281	282	281	279	283	284	284	283	280	285	286	287	289	287	287	288	285	284	284	284	283	282	279	282	284	283	283	281	281	281	276	276	277	277	281	283	282	280	280	285	284	279	279	282	281	282	282	280	280	280	285	286	286	285	285	285	287	288	286	280	281	282	281	281	280	282	282	277	286	286	287	286	288	284	281	277	277	277	280	280	280	282	280	286	282	286	285	285	284	281	283	286	286	288	280	279	277	277	278	278	281	282	282	283	283	281	281	281	280	281	281	280	277	283	277	281	282	279	277	276	278	277	278	280	279	280	281	282	280	279	281	283	285	283	283	283	282	282	282	281	281	284	287	284	282	281	280	279	280	278	279	281	283	284	286	281	282	283	285	284	286	284	283	282	281	281	279	285	284	284	284	282	281	280	277	277	279	280	280	276	275	274	275	280	279	279	286	284	280	280	279	286	287	287	281	282	281	281	283	284	281	279	280	280	279	279	279	279	280	282	283	283	285	284	279	281	281	280	280	279	276	278	280	285	286	284	283	285	282	281	281	283	287	288	287	285	285	277	283	282	284	287	286	286	283	287	286	284	277	276	274	281	282	282	275	276	278	279	280	280	280	281	281	281	283	282	284	285	285	283	283	283	282	281	283	288	286	285	283	283	281	281	282	283	281	278	278	277	277	284	285	283	276	275	277	278	279	275	278	279	282	282	281	280	279	279	285	280	278	275	274	278	285	282	279	276	275	277	284	280	278	276	277	278	278	282	281	281	279	277	279	278	280	281	283	283	281	280	272	271	274	277	279	281	276	273	271	276	278	274	277	278	278	284	282	274	275	277	276	277	277	281	281	281	282	284	284	283	277	283	282	277	266	272	270	273	270	269	266	268	265	274	269	266	267	272	275	281	277	273	273	275	272	272	274	275	274	275	273	272	272	271	275	277	275	274	271	276	278	281	281	279	278	275	275	277	277	277	279	280	280	275	272	269	273	272	275	276	280	278	279	276	274	277	282	282	282	277	275	272	272	274	279	280	279	276	275	273	272	273	281	284	282	280	279	275	274	274	274	281	280	277	275	274	276	276	275	274	274	279	279	279	282	279	278	278	283	0	0	0	0	0	0	0
282	282	284	284	288	290	287	286	289	289	290	289	288	287	287	287	287	289	285	285	285	286	288	287	287	284	284	283	288	289	291	290	289	289	290	289	277	277	281	291	286	290	293	293	293	293	292	292	287	287	286	286	287	289	290	288	286	286	287	287	289	289	289	287	287	287	288	285	284	284	286	284	285	285	287	290	290	289	290	290	290	290	289	289	289	289	291	290	291	291	286	285	287	287	292	292	290	287	287	286	286	283	283	286	285	284	281	280	280	289	288	290	287	285	284	283	277	280	281	287	285	285	283	281	279	282	284	283	281	280	279	277	277	276	276	275	276	278	278	279	279	278	277	277	277	278	281	278	278	274	272	274	276	277	282	281	279	280	280	279	279	279	280	283	284	285	286	286	286	287	286	286	284	282	281	281	279	273	281	282	282	282	283	281	280	278	275	275	276	276	274	272	270	275	275	278	282	281	278	278	280	281	279	276	276	278	282	284	280	283	282	275	275	278	274	273	273	274	275	279	280	277	276	277	279	281	282	283	282	281	277	277	278	278	280	281	281	278	279	280	280	281	281	281	279	277	281	282	281	280	281	278	276	276	277	279	278	281	284	281	279	277	276	277	278	278	280	278	276	273	279	280	279	278	277	274	272	270	273	276	278	278	277	279	279	277	276	277	279	283	283	281	282	280	280	278	278	281	282	281	281	281	280	279	277	276	279	280	282	283	285	278	277	279	283	284	282	281	281	281	277	275	281	281	281	280	281	280	281	277	275	276	280	280	274	273	271	271	274	276	279	279	279	280	278	277	278	279	280	280	281	281	281	282	285	282	282	278	276	277	276	278	279	279	281	282	279	283	283	274	277	280	282	283	284	283	276	275	279	281	281	283	283	282	282	281	280	281	286	287	280	278	276	276	282	281	281	281	282	283	284	286	285	278	276	273	274	273	279	276	276	276	275	276	278	278	278	279	278	279	280	281	281	280	278	280	279	279	281	278	279	277	277	276	279	279	278	278	278	274	275	276	279	279	277	281	281	281	279	277	273	277	275	277	278	276	277	277	277	275	277	277	273	280	281	277	277	273	277	276	275	275	276	273	277	271	272	278	275	275	275	275	279	279	275	277	276	275	274	282	283	282	279	277	273	273	273	277	280	279	274	273	272	273	273	273	276	278	278	278	277	275	274	274	276	275	275	275	277	279	281	283	283	280	274	275	281	267	269	272	272	273	269	273	272	271	265	272	270	267	267	271	274	270	275	272	270	272	269	268	269	270	270	268	272	270	267	270	274	275	272	274	272	267	275	279	279	277	274	276	276	276	275	276	276	278	276	274	269	272	268	269	274	275	274	273	273	271	272	276	277	278	277	273	271	270	271	274	277	278	277	275	275	270	268	269	270	277	277	275	275	274	271	271	275	272	273	274	273	273	274	273	273	272	274	275	270	270	270	271	273	276	277	0	0	0	0	0	0	0
283	283	283	284	284	283	286	287	287	287	287	289	289	288	288	284	283	283	287	287	287	287	284	283	281	277	277	279	283	285	287	282	281	281	281	279	280	280	281	286	283	283	284	290	293	293	292	284	282	282	281	280	281	282	283	285	284	284	285	288	288	288	288	285	284	285	286	282	281	281	282	278	277	277	281	287	287	286	284	281	282	285	284	284	282	286	287	287	288	287	287	285	284	283	283	284	288	286	283	283	284	282	282	283	284	282	279	277	277	280	286	286	284	280	281	278	277	278	284	284	284	283	282	280	279	279	276	278	273	275	277	275	274	276	277	277	277	276	277	279	280	277	274	276	276	276	274	274	271	271	272	273	274	276	277	279	274	272	271	273	271	269	274	279	278	278	278	279	274	276	277	283	280	279	281	281	273	276	280	280	276	281	282	281	278	276	275	276	274	275	274	274	272	273	272	278	283	273	274	276	277	278	277	274	274	273	275	278	277	276	275	274	274	276	276	274	271	273	273	277	278	277	275	276	277	278	277	277	274	274	275	275	276	279	277	277	279	275	275	281	283	281	281	281	277	274	277	277	276	276	278	279	276	274	275	278	280	281	283	281	275	276	274	272	272	276	278	278	273	276	274	275	275	276	275	272	271	272	273	272	276	271	281	277	277	276	275	276	281	282	282	278	280	279	278	275	276	279	283	281	280	281	280	276	277	278	278	278	278	281	279	277	274	277	280	284	283	280	280	278	273	274	278	278	282	277	276	276	279	275	272	273	280	281	278	275	272	271	272	274	273	274	276	277	277	276	277	278	279	279	280	280	280	280	280	280	278	279	275	274	274	276	277	276	281	282	278	278	273	272	275	276	275	269	275	279	280	279	275	275	275	281	280	280	272	273	275	279	280	280	277	277	276	276	276	279	278	274	276	277	279	281	280	277	279	275	274	276	275	277	277	274	274	275	277	275	276	276	277	276	276	277	278	278	277	278	275	274	279	277	277	277	276	276	276	276	274	274	274	271	274	274	278	275	276	280	280	279	276	274	276	276	275	276	276	276	271	268	271	273	275	273	272	271	273	274	275	268	267	269	275	275	274	276	273	278	272	279	273	271	270	268	268	267	268	268	267	269	270	273	282	276	277	274	275	272	271	272	275	275	270	272	272	272	273	274	275	273	275	277	278	278	273	273	272	271	272	270	273	278	279	280	281	279	276	275	273	269	274	272	272	273	268	267	269	270	265	264	264	263	264	268	268	273	270	271	267	270	267	268	267	265	267	266	267	266	267	271	273	274	272	271	262	265	266	266	264	274	274	275	274	274	276	278	278	278	274	273	272	269	267	268	273	277	273	273	271	270	271	272	274	273	267	268	268	267	266	272	276	277	277	276	272	267	268	267	267	266	270	269	266	266	266	270	269	268	268	270	270	271	271	272	271	271	270	269	269	269	269	269	270	270	273	0	0	0	0	0	0	0
275	275	275	278	278	276	277	277	282	282	283	286	287	285	285	279	276	280	282	282	282	282	280	275	274	276	276	279	282	286	283	278	279	279	279	279	280	283	284	283	278	278	279	280	281	283	281	277	277	278	278	279	282	285	286	286	284	282	279	281	281	281	282	282	282	282	283	279	277	276	277	277	278	281	281	284	280	277	277	277	278	279	279	280	279	279	279	280	281	281	280	279	277	275	273	277	282	286	284	280	280	276	281	282	278	278	278	278	277	277	275	276	275	274	276	280	278	278	283	283	283	282	280	277	277	275	275	270	271	271	274	277	278	277	274	272	271	275	278	279	280	273	271	270	271	274	270	268	270	268	271	272	273	272	272	272	270	270	273	271	273	271	268	275	276	276	274	269	270	271	275	279	279	281	280	280	274	273	271	271	277	274	275	273	275	274	275	276	274	273	273	269	273	274	274	272	271	270	272	274	275	277	275	271	272	273	273	273	273	273	272	270	272	273	272	272	272	271	270	272	273	276	276	277	277	278	277	277	275	275	277	277	276	276	276	276	275	275	275	278	281	283	280	279	274	274	275	276	276	276	276	275	273	274	275	275	278	282	279	273	275	276	274	275	274	272	273	273	272	275	270	270	270	269	269	271	269	272	273	272	273	271	272	274	272	273	275	274	274	273	274	275	275	275	274	277	279	278	280	279	278	278	278	275	275	276	276	274	273	277	277	273	274	274	278	281	282	279	276	275	273	270	275	276	270	269	273	272	270	275	272	274	279	278	277	275	272	271	271	272	272	273	272	272	275	273	274	276	278	278	276	275	278	280	279	280	276	273	273	273	274	275	273	277	278	279	274	272	270	270	273	271	268	273	275	273	270	272	272	274	275	273	279	273	271	272	274	274	275	277	275	275	275	276	274	275	273	273	274	275	277	278	270	272	276	274	274	274	274	278	267	272	273	273	275	275	275	276	274	275	271	275	274	275	279	273	273	278	272	274	276	275	275	275	274	273	271	268	267	269	271	272	272	274	279	279	274	274	276	274	273	273	274	273	271	265	265	268	271	272	272	268	269	273	273	273	270	268	271	273	274	274	269	271	277	273	271	274	275	271	267	265	266	266	267	271	271	267	268	272	273	277	276	276	272	270	265	267	268	271	271	270	269	269	272	273	271	270	271	276	274	271	271	271	269	268	268	268	270	274	274	274	274	274	269	274	273	269	266	269	269	269	267	267	266	270	266	263	261	259	263	264	271	271	269	266	265	267	266	266	265	263	264	266	267	268	268	266	265	263	261	262	262	264	265	268	269	267	269	271	266	266	269	270	270	269	264	265	265	266	266	267	269	273	274	271	269	266	271	271	270	267	267	267	266	267	266	264	264	267	274	273	268	268	267	266	265	265	265	264	264	264	264	265	268	265	265	265	269	269	269	269	267	265	266	269	269	270	269	269	268	269	267	0	0	0	0	0	0	0
271	266	268	271	271	274	275	275	275	275	277	280	281	279	279	279	279	285	282	271	271	271	271	272	271	273	277	277	278	280	281	281	279	280	280	280	280	280	280	278	276	276	275	274	275	275	276	275	275	276	276	276	278	279	282	282	280	277	279	274	276	276	277	278	278	280	278	277	277	277	277	278	278	280	280	276	271	272	278	276	276	276	278	279	279	277	278	276	277	277	277	275	275	270	268	270	277	279	280	278	277	277	275	278	278	278	276	269	268	269	271	273	270	270	271	273	272	269	269	276	276	273	276	272	270	271	271	268	268	268	270	267	265	267	271	272	271	272	273	278	278	272	270	270	269	267	267	268	269	268	268	271	271	271	270	274	270	268	266	269	273	272	266	273	273	272	270	268	269	267	273	273	272	271	269	268	268	273	271	274	274	274	269	271	269	273	275	274	274	272	266	268	271	271	274	272	271	268	270	271	271	271	273	270	269	269	270	269	270	270	270	269	270	270	270	268	267	266	267	272	276	276	275	274	273	273	275	274	276	274	275	277	274	273	270	273	272	271	272	275	278	274	272	273	272	274	274	275	273	271	274	279	274	273	273	277	278	275	272	273	273	274	273	270	274	269	269	269	271	273	269	270	269	269	268	269	269	265	271	271	274	268	269	268	271	271	267	268	268	272	274	273	272	273	274	275	276	281	276	269	272	271	272	274	274	274	275	273	271	270	272	273	274	274	277	280	276	274	272	270	271	269	268	267	270	267	268	272	272	275	274	280	271	276	275	274	272	271	273	270	268	270	270	269	274	274	274	275	277	278	274	274	275	279	276	269	268	270	271	271	271	270	274	277	277	270	270	271	272	268	269	269	269	268	272	273	269	269	269	271	272	273	273	266	265	269	273	272	272	271	267	266	267	271	274	274	273	272	271	271	271	267	269	270	274	274	272	271	273	265	268	266	271	271	273	274	272	275	271	269	267	265	268	271	269	274	272	278	272	273	272	272	272	270	272	272	272	272	267	267	271	271	271	269	269	271	269	268	272	272	271	271	272	268	266	263	265	269	271	272	268	267	267	269	272	273	271	269	270	271	270	268	267	267	267	267	265	266	267	268	271	266	263	266	268	271	272	268	268	271	272	274	274	267	267	264	268	267	269	269	270	270	269	267	266	269	270	270	269	268	269	270	268	268	267	266	265	267	267	267	263	265	267	271	271	268	269	265	264	266	270	270	269	265	263	264	266	266	266	268	260	260	264	264	264	262	263	265	264	264	266	262	266	267	268	267	267	266	263	260	256	257	257	262	270	270	272	271	270	266	262	261	259	261	259	259	262	264	264	263	262	257	267	269	268	267	266	265	266	267	267	267	266	265	265	266	261	262	263	265	265	266	269	269	266	265	264	263	265	264	262	262	263	262	265	267	263	264	264	264	263	264	265	265	265	266	267	268	268	267	266	265	264	0	0	0	0	0	0	0
272	272	268	271	273	273	275	275	273	275	275	276	275	276	278	278	282	277	274	269	269	269	269	269	268	271	272	272	273	278	279	279	280	281	281	280	278	275	277	276	275	274	274	273	274	275	274	272	271	273	273	274	275	278	280	279	276	273	272	271	273	273	276	276	278	278	275	273	274	275	277	277	276	274	271	271	270	269	271	276	277	277	277	278	277	277	275	275	274	274	274	272	271	269	269	270	269	277	278	277	277	272	272	272	276	272	268	268	269	269	269	269	268	265	268	270	269	269	278	274	274	272	262	267	267	268	267	266	265	269	265	266	265	268	270	272	273	274	276	275	275	271	269	269	268	268	267	268	268	263	267	271	271	272	268	265	269	268	266	262	263	264	268	269	270	270	269	271	266	268	270	271	270	270	268	265	265	269	273	271	273	271	268	268	266	270	272	271	271	270	272	266	268	267	267	269	262	268	267	264	267	266	270	268	268	266	267	268	269	269	269	270	267	269	269	267	267	266	268	272	274	276	274	271	269	270	272	273	273	274	273	275	274	271	269	268	270	272	273	274	271	268	267	269	271	272	272	273	267	269	268	267	269	267	266	267	266	271	269	272	271	271	271	268	267	266	266	269	270	266	264	264	267	267	269	268	268	268	263	265	265	266	268	270	269	266	265	265	267	268	271	269	268	268	272	274	274	272	272	271	272	272	269	269	268	272	271	270	270	269	269	270	270	268	269	270	271	269	270	268	270	269	269	272	270	267	268	270	272	274	267	268	277	269	271	272	272	270	269	269	270	269	271	269	273	273	271	273	270	266	268	269	272	274	274	265	266	269	269	270	271	275	277	278	275	269	270	271	271	270	270	268	268	268	272	273	270	268	268	268	267	270	266	267	264	264	265	264	265	264	263	263	266	273	272	273	273	271	269	270	269	267	269	269	270	271	270	269	265	266	261	264	272	273	273	270	269	268	268	268	267	267	268	266	263	262	272	271	271	271	269	267	267	270	273	271	271	268	265	265	265	263	266	270	271	270	267	265	265	269	270	269	267	266	266	264	264	267	268	268	271	267	264	265	268	270	268	270	269	270	267	267	265	264	265	266	268	268	266	269	269	264	265	266	268	272	271	270	271	269	265	263	264	263	263	264	265	266	269	268	266	268	266	266	264	265	266	266	265	263	264	264	267	268	268	268	269	267	266	263	265	265	266	266	268	263	266	269	265	261	264	266	264	259	258	256	259	263	262	264	263	255	258	260	261	260	262	261	259	258	260	258	260	261	264	264	266	264	260	258	260	260	267	263	264	268	268	268	262	259	258	257	258	257	258	259	261	261	262	260	257	257	256	266	265	265	264	265	265	266	261	263	263	261	260	261	264	263	263	266	267	267	269	267	266	263	264	264	265	263	262	262	263	261	263	261	264	263	264	265	264	262	264	264	264	264	266	267	266	264	264	262	263	0	0	0	0	0	0	0
272	270	269	270	273	273	275	276	273	273	273	271	271	273	278	278	276	274	271	266	265	265	265	265	265	270	270	270	270	270	270	271	275	277	277	277	273	269	270	274	273	272	272	272	273	274	273	271	271	272	273	273	273	274	275	275	272	271	270	270	273	273	275	276	276	272	271	271	271	272	271	273	274	273	271	271	268	265	268	269	269	269	274	271	273	274	274	273	272	273	273	270	267	264	265	266	274	277	277	275	268	269	270	271	269	269	268	269	270	268	267	266	264	262	262	265	268	269	270	271	271	263	264	265	265	263	263	265	264	271	264	262	262	267	269	272	275	273	272	271	269	267	269	268	269	269	268	268	264	261	261	269	272	268	268	263	263	268	265	261	261	261	259	262	264	265	267	265	265	269	269	268	269	268	266	265	267	262	264	270	272	270	268	266	267	266	263	260	262	263	262	260	262	262	263	264	266	266	263	263	264	263	263	267	267	264	266	266	267	267	269	270	269	268	269	267	267	268	269	268	270	269	274	271	267	266	269	270	269	268	271	270	269	268	268	268	269	269	272	273	275	275	273	269	267	270	269	266	262	264	267	268	267	263	263	262	265	267	266	268	266	264	265	264	264	265	265	266	270	263	263	264	266	269	269	268	263	264	266	263	263	264	266	267	266	263	263	264	266	267	268	267	267	264	266	267	267	267	273	272	270	268	268	267	269	268	270	269	268	268	271	270	268	266	266	264	269	268	267	269	270	270	271	270	270	268	266	268	266	267	268	264	274	267	269	271	272	272	268	265	265	271	272	272	272	271	272	273	271	266	268	269	271	270	269	265	268	268	270	270	263	264	273	273	269	267	269	269	270	269	267	261	266	268	270	272	269	269	269	269	266	269	263	263	263	262	263	265	267	268	268	264	266	268	268	268	272	270	268	270	272	264	266	267	269	269	269	266	261	258	260	262	267	272	273	270	268	269	269	269	268	270	270	271	265	270	263	269	270	270	267	263	264	266	270	272	268	262	260	260	262	262	264	265	268	267	266	262	260	254	259	266	266	264	267	265	265	267	268	267	265	264	264	265	265	265	267	268	267	266	265	264	263	263	263	265	267	266	266	269	270	268	267	266	266	267	269	269	268	267	264	262	261	261	261	263	262	261	265	265	264	264	263	263	263	263	264	262	262	257	258	258	260	260	262	266	266	264	262	262	264	264	263	264	264	271	271	268	264	261	261	261	260	259	258	256	253	253	258	258	255	259	253	258	259	259	263	259	257	256	256	257	257	259	260	261	265	264	260	258	260	259	266	266	261	261	260	259	255	256	256	255	255	257	258	259	261	260	258	257	254	253	253	259	260	260	258	252	256	261	256	255	256	260	259	260	261	265	266	267	266	266	266	266	264	262	262	264	264	262	262	260	258	262	263	262	261	259	260	260	260	260	261	259	259	259	259	266	266	263	259	260	262	0	0	0	0	0	0	0
272	265	266	267	272	272	275	276	275	271	271	269	270	271	271	268	268	268	265	262	263	263	263	264	262	265	268	266	266	269	271	273	275	276	274	274	272	269	267	270	270	271	271	270	272	274	272	272	272	273	273	273	273	272	273	269	268	269	271	270	272	272	272	276	274	266	264	261	264	267	268	270	274	273	271	267	267	263	262	264	266	266	266	268	268	270	267	270	271	268	266	267	262	260	257	258	261	264	266	268	267	264	267	264	262	262	265	266	259	258	258	259	260	262	264	265	268	268	269	268	262	267	266	264	263	261	260	261	264	264	265	265	265	263	265	263	263	263	260	262	264	266	268	269	270	269	268	267	260	258	259	262	268	267	267	262	261	265	260	259	260	258	258	263	262	264	264	267	270	270	267	267	266	266	267	268	270	266	262	261	261	262	261	261	262	264	261	263	262	262	261	261	261	262	262	260	264	264	261	261	263	262	262	261	261	263	262	260	264	264	268	266	267	268	266	267	262	263	264	267	268	268	266	270	267	264	262	266	267	268	268	267	266	268	267	266	265	265	265	264	266	266	266	269	267	267	266	264	263	261	263	267	267	261	261	262	263	263	263	265	265	265	261	260	262	265	266	265	261	260	262	264	265	267	266	264	258	259	259	261	256	256	264	265	263	260	261	263	266	268	271	269	264	265	263	263	264	263	264	267	268	267	266	263	264	266	267	268	267	265	267	263	263	266	266	265	264	263	265	265	264	262	270	271	271	268	266	264	261	264	267	270	268	265	264	271	271	271	263	265	268	265	265	265	266	269	270	269	269	267	266	266	267	268	267	266	268	271	268	265	268	263	267	269	265	267	267	266	266	265	265	265	259	264	268	263	268	264	263	264	266	266	266	266	265	262	262	265	265	268	265	265	267	268	267	264	264	264	268	270	265	262	260	261	262	263	266	262	261	258	258	260	263	267	265	265	265	265	266	266	269	266	271	266	265	263	265	267	269	269	260	258	261	262	263	264	262	261	259	260	259	262	264	264	264	264	265	261	258	258	254	258	260	262	264	265	266	268	266	264	263	259	260	262	263	264	265	264	266	265	265	263	263	260	262	264	263	263	263	267	269	269	266	264	263	265	264	263	260	261	263	263	261	259	254	260	260	260	260	262	261	259	262	261	261	262	263	260	257	257	257	257	257	259	258	260	259	262	261	264	263	262	261	260	263	270	266	262	260	257	256	258	259	261	260	257	255	257	256	255	257	256	251	257	255	257	259	259	256	256	256	256	256	257	258	264	262	261	259	260	259	261	258	257	258	259	259	259	253	254	253	255	255	256	257	257	257	257	256	255	252	251	250	253	259	257	260	256	250	259	257	254	253	252	253	259	262	258	261	262	265	265	254	263	262	255	261	264	261	261	258	254	257	259	256	256	258	258	259	258	257	258	257	257	257	253	254	261	263	262	261	259	258	0	0	0	0	0	0	0
265	263	265	267	271	271	275	267	267	267	267	267	268	267	262	263	263	264	264	260	259	260	260	261	261	260	262	264	264	267	270	272	275	275	272	272	269	267	266	269	262	262	263	263	265	265	261	261	262	268	269	268	268	267	267	265	266	268	270	269	269	267	267	267	267	267	265	264	261	259	260	264	266	267	269	266	266	263	261	261	263	263	262	263	266	269	267	268	268	266	265	263	263	259	259	261	264	264	266	267	263	262	262	266	265	261	263	263	262	258	260	261	259	263	263	264	265	266	267	262	262	266	266	264	261	259	259	261	261	262	263	268	266	263	262	264	263	263	260	261	260	258	258	261	264	268	263	258	257	256	262	260	262	262	262	262	260	256	257	257	257	258	261	260	260	257	260	266	266	262	271	268	264	264	265	268	270	266	264	258	260	259	259	258	259	259	262	261	262	262	263	262	263	260	261	260	262	265	264	261	264	265	267	261	261	263	262	259	262	259	262	263	270	270	264	263	262	263	263	264	262	264	264	264	263	261	259	260	262	266	268	264	265	266	264	262	263	262	263	263	263	264	264	263	262	265	265	264	261	260	261	263	264	263	261	261	263	262	261	261	265	264	258	258	261	262	261	258	257	257	256	263	265	263	261	259	257	257	260	259	257	259	262	261	261	261	262	264	267	267	267	264	262	262	260	261	261	260	261	263	267	267	265	264	266	258	259	261	263	261	263	263	263	265	266	265	263	262	260	260	265	262	259	257	257	258	260	262	263	264	265	266	264	263	262	262	268	261	261	266	268	267	266	265	265	266	268	268	266	264	265	265	266	266	266	265	264	266	266	265	266	263	264	266	265	267	267	266	266	265	264	260	260	263	260	259	257	259	259	262	266	263	264	266	267	267	261	262	263	263	263	266	269	268	266	264	263	261	261	267	265	263	259	262	262	266	263	262	260	257	258	261	262	264	263	264	263	264	262	263	263	265	266	267	264	268	263	261	262	262	259	258	261	260	262	260	260	259	259	259	259	261	262	261	263	265	263	260	258	257	255	258	258	262	264	266	265	266	266	264	263	260	259	260	261	263	263	263	263	264	263	264	263	260	259	259	259	258	261	265	268	256	258	261	261	263	263	261	258	259	261	262	259	255	258	260	259	259	258	257	256	258	261	260	260	263	263	259	256	256	256	257	257	259	259	259	257	259	257	259	261	261	259	257	259	261	261	260	259	253	254	256	258	260	257	255	254	255	255	255	255	255	252	251	255	251	256	255	257	257	256	256	254	253	253	253	258	259	258	258	257	257	254	254	256	256	256	254	250	247	246	249	255	255	255	255	254	254	252	253	251	250	249	253	250	256	259	255	250	259	257	254	253	249	252	255	259	255	253	256	258	265	260	257	251	257	256	259	259	259	254	253	253	253	254	254	256	257	257	255	254	251	251	251	251	255	255	255	257	258	258	261	259	0	0	0	0	0	0	0
263	263	263	264	266	264	264	262	261	263	264	264	265	261	260	262	262	262	261	260	256	258	258	259	260	262	263	264	264	266	267	269	272	269	266	266	265	265	264	263	261	261	261	261	260	262	260	260	264	264	263	264	264	267	267	265	263	261	261	261	264	264	267	267	265	265	265	264	264	262	262	264	265	264	265	264	263	263	260	261	262	259	260	261	264	268	266	265	265	265	264	261	263	260	260	261	263	263	263	258	259	258	255	256	260	264	263	262	260	260	260	261	261	261	263	266	260	259	259	258	264	263	265	264	264	260	259	260	259	260	260	261	262	260	262	261	263	262	260	256	254	256	255	260	261	262	257	259	257	254	258	259	259	258	259	258	256	261	260	255	254	255	255	258	258	258	258	263	266	261	272	268	264	263	263	264	263	263	262	258	258	259	258	256	256	255	260	261	261	261	261	260	261	263	262	262	259	261	262	264	265	265	268	261	261	264	262	257	255	257	258	258	259	260	263	263	262	262	263	263	261	258	258	262	258	257	255	255	257	260	260	261	262	257	258	262	263	260	257	258	258	258	260	262	259	259	262	261	262	261	262	262	263	260	261	262	263	262	260	263	260	262	257	257	257	258	257	257	259	259	259	261	263	256	255	255	255	259	261	263	263	260	262	262	261	257	256	257	258	262	262	258	260	260	260	260	259	258	260	261	265	266	265	264	260	259	260	261	260	258	258	257	260	264	262	263	261	260	254	258	259	259	257	257	257	259	261	262	262	263	261	260	258	261	261	261	261	262	261	264	262	262	266	265	265	266	266	268	266	263	265	263	265	259	261	262	264	265	262	265	260	260	264	266	266	259	259	259	261	264	255	256	259	260	256	258	256	257	257	257	257	260	259	265	264	264	257	256	256	263	263	263	263	266	266	263	263	260	257	264	267	261	262	259	259	259	264	261	257	256	258	259	262	262	262	260	260	266	265	262	261	256	255	260	262	263	261	259	261	255	255	255	256	257	257	257	258	258	258	259	260	262	262	262	262	263	260	259	257	258	259	258	259	260	264	262	258	256	257	262	263	254	255	259	265	263	260	261	260	262	262	262	261	260	260	261	258	256	256	256	256	256	257	259	261	262	260	254	254	258	258	256	255	254	255	257	258	256	254	255	256	254	254	255	256	257	259	260	254	255	256	258	259	259	259	256	255	254	255	254	253	253	256	254	257	257	258	257	256	250	255	256	256	255	255	253	254	255	255	254	253	254	254	253	250	255	252	253	257	257	256	255	255	253	252	252	257	257	257	256	254	253	252	252	255	253	251	251	255	253	252	247	254	255	255	254	250	250	249	251	256	258	249	253	247	247	248	252	256	251	250	249	248	248	249	250	255	254	252	255	257	256	255	257	254	253	255	258	258	258	253	248	251	249	252	254	254	255	255	252	250	250	249	249	250	252	255	255	252	252	250	256	261	0	0	0	0	0	0	0
261	261	258	258	258	258	258	260	260	263	262	262	264	262	260	258	257	257	256	256	254	256	256	256	259	264	264	266	266	266	266	265	264	265	263	263	263	263	262	261	261	262	259	259	259	260	261	264	264	263	262	263	263	264	263	262	261	261	260	260	260	262	264	264	261	264	264	262	261	263	263	264	263	262	262	264	265	265	262	261	262	262	259	260	261	261	261	261	263	263	263	256	256	255	257	257	255	255	256	262	258	258	254	256	264	263	263	263	257	259	259	260	260	260	261	257	257	257	259	256	255	261	263	264	262	262	258	255	250	256	257	257	257	256	257	259	256	256	254	253	253	255	258	259	259	260	260	261	252	257	257	258	257	257	256	257	256	262	260	255	255	253	257	258	253	252	253	253	260	261	261	258	259	261	260	258	257	259	259	259	257	257	257	255	254	256	258	260	260	260	261	260	260	261	262	260	257	258	256	255	258	258	259	259	258	258	254	255	255	257	258	258	256	259	259	258	262	262	260	260	251	256	256	261	260	257	254	252	255	256	258	257	254	255	256	258	257	255	255	257	258	259	260	258	257	257	259	256	259	259	260	260	260	259	257	263	262	260	258	260	259	257	257	256	257	257	256	256	256	258	258	256	259	256	255	255	255	254	256	254	256	263	261	259	257	255	256	255	256	252	252	258	255	254	260	258	259	258	261	263	260	263	264	257	259	257	258	261	260	258	258	259	259	259	260	258	257	257	255	255	257	259	261	263	261	260	260	260	261	264	265	259	261	260	259	259	262	262	262	261	262	262	260	259	265	265	264	263	263	263	263	263	257	259	261	260	260	260	263	266	264	259	258	260	259	258	254	257	259	255	254	253	255	256	255	254	252	252	254	257	257	257	256	256	255	253	251	250	252	257	257	258	261	264	262	261	258	260	257	259	263	259	259	258	255	253	253	252	250	255	260	261	260	258	256	257	255	261	262	258	258	255	259	258	260	261	262	262	256	256	255	255	256	253	252	253	256	258	259	258	260	261	262	262	261	261	259	256	253	255	258	259	258	260	259	257	257	256	252	252	254	253	254	258	263	261	259	256	258	260	262	258	256	258	262	258	257	255	257	257	255	256	256	257	259	259	253	250	253	254	255	253	252	252	253	255	256	257	253	255	255	251	252	254	256	254	254	253	251	252	250	252	256	257	257	252	251	252	252	251	252	249	251	251	256	253	252	254	255	254	252	257	257	254	251	249	253	253	252	252	253	254	254	252	254	250	251	253	254	253	255	255	255	254	252	252	254	256	255	255	252	253	252	253	250	247	248	246	247	250	252	252	248	249	253	251	250	250	250	254	254	257	256	252	245	245	245	247	251	252	251	247	243	248	251	250	249	247	246	248	250	253	259	255	252	252	253	257	257	257	252	248	250	248	252	253	254	254	252	250	249	248	249	249	250	250	253	253	252	254	250	252	258	0	0	0	0	0	0	0
260	260	258	252	254	256	256	258	259	262	262	262	262	262	262	259	257	257	255	255	254	254	255	255	257	260	261	263	264	264	262	260	262	262	262	262	262	262	260	258	254	256	256	259	259	259	260	261	262	260	261	262	262	262	262	262	261	261	262	261	259	257	258	258	258	257	257	257	258	260	263	261	260	260	260	262	263	261	261	262	263	260	259	258	259	258	257	259	261	258	257	254	255	257	258	257	255	259	260	260	255	255	254	252	256	257	262	257	256	257	259	257	259	259	256	253	253	255	256	254	257	258	255	260	259	261	257	253	256	256	257	253	254	249	256	253	253	255	248	250	251	258	257	256	254	257	258	256	256	257	257	258	258	256	255	260	261	261	260	257	253	254	254	257	253	252	254	249	255	257	255	254	256	256	259	258	259	257	260	256	255	255	254	254	252	253	257	256	257	258	258	262	261	262	264	264	250	257	256	257	254	258	257	257	256	255	255	258	259	257	256	255	255	257	258	257	256	260	259	256	253	251	254	257	258	256	252	250	255	257	256	255	255	254	255	255	255	254	256	257	259	259	259	258	256	255	253	250	252	257	256	255	253	253	258	254	254	259	259	257	258	257	257	256	256	256	255	256	253	253	255	255	258	255	254	253	253	253	254	253	251	260	259	258	256	255	255	257	255	250	252	257	255	253	252	252	255	258	259	263	261	257	261	255	254	256	257	258	258	257	258	258	257	256	258	255	257	257	256	254	255	257	259	261	259	258	258	252	251	254	256	259	258	258	256	257	255	257	257	259	258	256	257	255	254	255	254	252	249	251	251	253	254	259	260	261	257	257	259	259	258	258	258	256	251	255	255	255	253	253	253	253	254	255	255	254	252	251	252	258	257	256	254	254	254	252	252	251	251	255	257	257	257	257	257	258	257	257	257	258	258	257	252	250	253	257	255	252	249	248	254	257	256	252	250	253	254	256	255	258	258	256	256	255	253	255	258	259	261	258	259	257	255	253	256	256	258	258	258	259	257	259	260	260	261	259	254	258	258	256	258	260	260	258	256	256	255	253	251	251	250	254	253	256	256	256	255	253	256	260	261	253	252	254	255	255	255	255	254	251	253	251	251	252	253	250	249	250	250	251	253	252	252	251	251	251	253	255	254	255	249	249	251	254	255	255	252	250	249	253	250	252	255	255	255	249	251	250	251	250	252	252	253	253	253	252	252	250	251	253	255	252	253	252	249	248	249	251	248	249	252	252	253	252	253	249	248	249	250	251	253	254	251	256	256	251	252	254	255	255	254	252	253	248	249	245	247	245	244	249	252	250	247	250	250	249	246	246	252	253	255	255	257	253	245	246	246	246	249	248	251	247	243	247	250	248	250	250	248	249	251	253	252	248	249	249	249	249	245	245	246	251	249	248	249	252	252	251	249	249	247	247	247	247	248	249	248	246	254	249	252	250	248	0	0	0	0	0	0	0
256	255	255	253	253	255	257	257	257	258	261	261	261	261	263	260	257	257	258	258	254	253	254	254	257	259	261	261	259	259	255	258	259	259	257	258	258	260	257	254	254	255	253	250	250	248	249	252	260	258	260	260	261	261	262	262	262	261	261	260	261	262	260	258	258	257	255	255	256	257	259	258	258	259	260	260	258	254	262	262	261	257	257	257	258	253	254	255	257	256	253	253	253	253	252	253	253	258	257	255	253	252	251	252	254	254	256	252	253	255	256	256	258	256	247	249	252	253	252	252	255	254	251	254	257	256	258	256	252	254	253	254	248	250	248	251	251	253	251	253	254	257	256	258	257	257	257	258	257	256	256	257	258	256	256	254	253	258	258	257	253	252	251	246	248	252	256	256	256	257	256	253	255	254	259	258	259	255	251	248	251	251	250	250	253	255	254	251	252	251	255	257	256	256	257	258	259	259	257	253	257	252	255	254	254	254	256	258	257	256	253	253	253	255	255	255	254	250	246	243	249	250	253	254	256	256	251	251	254	255	255	254	254	255	253	254	253	254	256	257	258	258	259	258	254	253	252	250	251	253	255	253	252	251	250	250	253	257	255	254	255	256	251	253	254	258	257	256	253	254	253	252	251	248	246	248	250	253	251	250	249	250	256	255	255	255	256	250	250	252	252	253	251	251	251	252	255	255	259	257	253	257	254	254	253	255	255	257	258	258	258	253	252	254	254	257	258	257	253	252	254	255	260	259	257	256	251	251	249	250	254	252	254	255	253	256	259	259	256	262	261	260	255	253	252	252	253	253	254	254	254	254	251	253	254	253	255	256	256	258	258	257	261	259	254	256	251	255	255	254	251	251	254	252	255	254	252	252	255	256	256	253	254	253	252	253	250	251	252	254	255	256	256	257	256	255	255	254	257	257	257	257	255	253	256	257	257	255	255	255	253	251	250	249	249	250	255	252	253	255	253	252	252	252	254	253	253	256	257	258	259	258	257	256	257	257	257	256	256	254	254	256	258	259	260	252	254	255	254	255	256	257	256	254	254	254	252	250	248	249	249	248	252	257	254	250	248	252	251	250	249	248	252	252	254	254	254	253	251	250	251	249	248	248	248	248	249	250	249	249	250	252	251	249	249	251	249	251	255	254	251	248	248	250	252	254	252	250	248	247	256	255	254	253	251	250	250	249	249	249	250	253	253	253	251	249	249	251	252	252	251	251	248	248	250	249	248	247	247	248	249	251	252	253	251	250	249	247	247	249	249	248	248	255	255	251	251	255	255	249	249	251	248	247	247	248	245	243	241	243	249	253	246	250	244	248	246	246	246	250	252	252	252	252	248	245	244	246	247	250	251	244	242	243	246	247	245	243	242	247	251	252	252	251	247	245	245	245	245	246	245	246	248	248	249	248	249	247	246	247	247	245	245	243	243	243	244	245	251	249	250	248	246	246	0	0	0	0	0	0
252	252	252	249	249	252	255	255	256	256	258	258	258	259	261	258	256	256	256	257	254	253	254	254	255	259	259	257	253	256	256	258	258	256	255	257	260	260	258	256	254	253	251	249	247	247	249	250	254	255	256	257	254	253	253	253	256	257	259	261	258	258	258	258	256	256	255	252	252	253	254	255	256	258	258	258	257	255	255	255	257	251	250	253	252	253	254	255	255	256	255	255	254	253	252	251	251	255	255	252	250	250	248	251	251	253	250	249	253	252	254	257	254	246	245	247	248	252	252	255	254	253	251	251	251	256	255	255	254	254	255	251	249	248	249	248	249	252	249	250	251	251	253	258	258	257	255	255	256	255	255	255	253	255	255	253	250	254	259	251	257	247	251	245	245	246	254	248	255	254	251	252	253	253	254	256	253	253	250	249	249	249	250	250	253	252	251	249	250	251	254	255	256	254	255	256	254	256	253	252	253	255	255	255	254	253	252	254	249	249	251	251	252	252	252	254	254	249	247	245	244	249	252	253	254	252	250	250	251	252	252	253	253	253	256	251	252	253	253	253	254	254	253	253	252	252	252	253	250	252	253	253	252	252	250	253	249	250	250	251	256	251	252	252	254	254	254	254	253	253	252	252	250	248	245	246	247	247	249	249	249	249	253	255	254	254	252	249	248	251	250	249	249	250	250	252	253	254	256	255	252	254	254	253	251	254	256	255	256	255	256	251	249	248	248	255	258	258	250	249	248	249	250	254	253	251	250	250	250	250	251	251	252	252	253	255	258	252	252	252	257	256	252	251	251	252	252	252	254	253	254	253	252	250	251	253	254	255	256	256	256	258	259	259	258	255	255	255	255	254	251	251	254	253	253	254	254	252	254	254	253	254	256	256	253	254	250	250	249	253	254	255	254	254	253	255	249	249	255	256	256	253	252	253	255	258	259	258	255	254	253	251	245	245	247	249	252	250	254	252	253	251	251	253	250	252	251	252	253	254	255	254	254	254	257	256	256	253	252	252	249	247	249	252	248	252	253	255	253	254	254	255	255	253	252	248	250	249	248	247	247	245	247	253	253	252	246	247	248	248	247	247	249	250	253	253	253	253	251	249	249	248	247	243	243	244	248	247	248	249	249	249	246	247	246	247	248	247	247	247	245	248	247	250	247	252	250	249	248	249	250	251	250	250	247	249	250	249	249	249	246	251	252	249	247	246	248	249	247	251	248	246	246	246	247	247	248	249	248	249	248	251	253	253	249	249	249	246	247	247	246	242	242	243	242	250	249	248	254	248	249	243	245	246	247	247	248	246	244	244	249	250	245	241	242	247	247	248	249	248	247	246	245	248	248	248	243	241	241	246	251	244	243	244	245	247	246	243	242	244	249	251	250	247	245	245	245	245	245	245	245	245	248	248	249	248	245	245	244	247	247	247	245	242	242	242	242	243	244	249	247	245	244	244	0	0	0	0	0	0
249	248	248	249	246	251	253	253	255	255	255	249	249	246	248	248	250	249	249	252	254	254	255	252	252	251	248	250	254	256	256	256	256	255	253	253	260	260	262	263	254	252	249	248	247	247	249	252	252	254	254	251	250	251	251	251	255	256	256	256	256	258	258	248	252	252	251	250	250	250	251	251	254	255	259	253	251	252	253	255	255	251	249	250	251	251	253	253	254	254	253	254	254	249	249	249	249	251	250	249	249	248	247	248	249	250	251	253	249	252	249	251	248	247	244	245	249	249	250	254	253	248	248	250	251	251	251	248	248	247	247	249	251	250	249	249	248	247	248	250	250	250	252	252	253	253	252	254	254	252	252	250	250	248	253	251	248	246	248	250	252	251	244	243	243	243	245	252	253	253	251	250	250	252	253	252	253	251	251	249	250	249	250	250	253	251	250	249	248	248	254	254	253	253	250	251	248	252	253	252	253	254	254	253	253	251	249	248	249	249	248	248	249	251	251	250	253	253	249	247	244	251	252	252	251	250	248	248	251	250	251	252	253	252	254	251	253	253	252	251	250	250	251	251	252	252	252	252	250	250	252	252	252	254	254	255	250	250	250	251	248	248	252	253	254	254	252	252	250	251	248	247	245	243	248	246	249	251	250	250	249	249	250	255	252	249	250	247	247	252	250	251	247	247	250	250	250	250	249	248	250	253	253	253	250	250	253	252	254	256	254	250	248	246	246	248	253	254	249	249	251	254	256	253	252	251	251	251	248	249	246	249	251	251	247	250	251	249	249	250	255	254	254	250	250	249	249	247	247	252	252	252	249	249	250	249	250	250	251	252	253	254	247	247	251	254	255	255	251	250	250	251	248	255	253	254	252	249	251	248	253	253	253	250	247	248	248	248	249	250	253	252	253	250	249	247	249	250	253	251	252	252	250	250	255	259	254	255	253	252	252	252	253	253	253	251	248	252	248	252	253	253	250	247	247	248	248	248	248	249	246	247	249	252	252	254	253	252	250	252	249	246	247	247	248	250	254	253	250	250	254	254	254	252	251	250	248	248	249	247	245	244	247	250	249	248	247	246	248	247	247	247	249	249	251	252	250	248	247	246	246	247	244	242	243	244	245	247	247	248	247	248	246	245	243	244	246	246	247	245	245	248	248	250	247	245	244	247	249	248	248	249	249	246	246	248	249	249	247	245	244	244	248	246	244	245	245	245	246	245	243	242	243	245	246	247	244	245	246	248	247	248	250	247	246	246	246	245	247	250	245	242	242	242	245	243	248	242	242	242	245	242	243	245	247	245	247	247	244	243	245	247	247	248	247	246	245	245	248	243	242	242	242	239	237	241	242	244	243	243	243	243	243	243	244	243	243	242	243	243	245	246	249	246	245	245	244	244	241	243	244	244	244	245	245	243	245	244	245	245	244	244	243	242	241	242	242	242	241	242	241	243	243	240	0	0	0	0	0	0
246	246	247	247	241	245	248	248	251	249	245	243	244	244	245	247	249	246	246	250	252	251	252	248	248	249	251	251	251	251	251	253	254	254	252	250	251	251	251	262	249	248	247	247	247	247	250	253	253	251	249	249	249	249	249	250	252	253	255	255	250	249	248	247	246	246	244	244	245	245	246	246	250	251	252	251	251	248	246	245	245	246	246	249	247	249	251	251	251	252	252	252	245	245	247	248	248	246	246	247	248	249	244	241	241	241	247	246	246	253	252	252	248	247	248	242	247	249	252	250	251	248	245	245	250	246	246	248	249	249	250	252	251	250	249	249	248	248	248	249	249	247	249	251	252	252	252	252	250	250	249	248	246	245	246	247	250	247	248	249	250	248	247	241	241	241	242	247	249	250	250	250	250	249	250	250	253	252	249	248	251	251	247	249	250	248	249	248	245	246	255	255	256	252	247	246	246	249	252	251	250	251	252	252	251	247	245	245	245	248	247	247	248	246	247	248	250	251	250	248	249	252	253	252	249	249	249	247	246	247	251	251	251	247	247	253	254	253	252	249	249	248	249	248	251	253	252	250	250	249	247	244	247	247	255	254	251	248	247	248	244	248	251	249	248	248	250	248	248	249	250	247	246	245	245	250	249	250	250	249	248	244	246	253	249	245	250	245	246	253	250	251	247	247	250	250	250	248	244	247	250	252	253	252	254	250	249	251	254	254	250	250	248	246	244	244	248	247	247	247	249	245	254	250	251	251	251	250	248	248	246	245	247	250	246	249	250	247	248	249	252	249	247	247	246	248	247	249	247	244	243	244	244	246	246	248	249	250	250	251	252	247	245	246	248	250	252	252	251	249	248	247	252	250	248	250	250	250	246	250	251	252	251	249	246	245	247	247	246	248	250	252	249	246	245	246	242	249	251	249	248	247	246	248	248	252	255	254	251	249	252	252	254	247	248	248	247	247	246	248	252	251	248	246	246	246	247	248	250	250	247	245	246	246	251	251	248	248	249	248	247	246	246	246	249	250	253	250	247	248	252	249	248	249	248	248	248	246	246	247	246	243	245	248	247	247	245	246	247	245	243	246	247	247	248	250	248	245	245	241	241	241	242	241	242	243	244	245	247	248	247	247	246	245	243	243	246	249	250	245	241	244	243	246	248	248	243	246	246	250	246	246	246	243	242	241	244	245	243	243	244	245	245	245	243	243	243	245	244	242	242	240	241	244	245	247	243	243	244	245	243	241	242	244	244	244	243	244	247	248	248	244	243	240	241	243	243	241	240	241	245	244	249	246	248	246	244	242	241	240	239	241	245	245	245	244	242	246	246	242	241	240	239	238	237	241	242	242	241	244	243	239	239	239	240	240	240	239	238	237	242	246	246	243	242	242	241	241	241	241	242	239	242	242	241	244	242	243	243	242	242	243	244	241	240	239	241	242	241	241	241	241	241	240	0	0	0	0	0	0
241	241	241	241	241	247	249	248	248	245	243	244	243	243	243	245	246	247	247	250	251	246	247	248	248	249	250	250	250	250	250	250	251	253	251	250	248	248	248	250	244	246	247	249	249	250	250	250	247	245	246	245	247	247	249	249	251	252	250	251	249	248	248	248	248	246	246	244	242	240	241	244	244	247	248	247	249	243	247	247	244	244	246	245	247	248	248	248	247	245	244	244	244	243	242	243	241	244	247	248	250	249	246	240	238	241	240	244	246	243	245	251	253	252	245	241	248	253	253	250	247	245	244	247	242	245	247	247	247	248	249	250	249	248	248	248	248	249	249	247	246	245	244	245	248	250	250	251	246	239	239	241	245	245	246	247	247	245	247	249	249	247	247	247	240	240	241	246	250	249	251	247	245	245	246	247	249	246	246	245	241	244	245	247	250	250	241	240	245	249	250	250	249	247	246	246	246	247	248	246	245	248	250	249	246	246	244	243	244	246	245	245	245	244	246	245	245	245	245	247	249	249	252	253	251	248	245	245	246	247	248	249	248	248	248	251	252	252	250	242	242	249	249	247	247	246	243	244	243	241	239	245	246	247	248	256	250	250	249	247	245	244	244	247	248	246	241	243	245	248	248	249	248	248	247	247	250	249	246	249	247	244	243	244	243	243	242	242	244	246	247	247	247	247	248	250	247	245	244	246	248	252	251	252	252	250	249	251	250	246	247	248	247	247	247	247	249	249	247	245	251	244	244	250	246	250	250	249	248	244	243	244	245	244	244	247	248	244	245	246	248	248	248	248	250	248	248	245	245	240	240	246	243	244	244	244	246	247	248	249	250	246	246	247	248	249	250	250	246	243	246	246	247	249	247	247	248	242	244	243	251	251	251	247	244	245	246	247	246	246	245	246	246	246	246	245	241	245	248	245	245	241	241	245	246	249	251	251	249	245	243	241	244	246	245	244	246	245	244	246	248	246	242	242	244	246	247	248	247	246	246	243	243	245	245	247	247	247	247	248	249	248	248	249	249	251	248	247	246	246	244	244	245	248	248	248	247	245	246	244	244	243	244	245	246	246	245	241	240	239	241	242	245	247	245	245	247	244	241	242	241	241	242	241	242	241	239	243	245	246	246	244	244	245	245	244	245	249	249	245	241	243	245	243	244	242	240	244	244	243	241	240	240	240	239	240	241	240	242	241	244	244	244	245	244	244	243	241	240	238	238	238	239	242	244	244	241	242	243	242	242	241	241	240	239	238	241	242	241	241	243	243	242	243	241	241	243	243	241	242	247	249	249	243	251	243	241	240	240	238	242	241	241	242	243	244	242	241	243	241	241	239	238	240	239	240	242	238	238	238	239	239	238	235	235	237	236	236	235	236	237	238	246	242	242	240	238	239	241	243	244	243	241	241	241	242	241	238	240	242	242	245	244	241	239	237	237	238	239	241	241	241	240	239	0	0	0	0	0	0
239	239	241	241	244	249	249	247	247	244	245	244	243	243	244	248	249	249	249	249	245	246	246	247	248	248	247	244	243	247	249	249	249	250	249	248	245	244	244	244	243	244	243	243	243	246	246	244	245	245	246	245	243	245	248	248	249	246	243	244	245	247	248	248	247	246	246	246	246	242	240	243	244	246	246	248	245	244	248	249	244	244	246	245	244	245	245	246	244	243	244	244	245	242	242	243	240	242	247	248	249	249	243	241	239	241	245	245	244	244	239	239	251	250	243	247	252	250	249	244	241	241	239	239	245	247	247	247	247	247	248	246	246	246	246	250	249	249	247	245	244	243	241	243	246	245	247	247	246	239	240	243	243	245	247	246	246	246	244	245	245	245	244	242	242	241	243	244	245	246	246	244	243	244	246	246	247	247	247	244	240	240	243	246	247	244	242	242	243	244	244	243	245	246	246	246	247	247	241	239	242	243	241	247	244	246	244	244	244	245	243	244	242	242	240	242	244	243	244	245	245	249	249	247	243	242	243	243	244	245	246	246	247	246	248	249	249	248	247	247	246	246	247	247	247	245	243	242	240	238	240	242	242	244	243	244	244	247	249	247	245	240	238	240	241	240	241	242	243	244	246	248	246	249	248	248	247	246	243	244	244	247	248	243	243	242	240	242	246	246	247	246	246	247	247	247	245	244	245	248	250	251	251	251	250	248	246	248	246	245	246	248	251	251	242	241	245	246	244	239	244	243	244	247	244	247	247	247	246	243	244	244	244	246	245	242	242	246	243	245	246	250	249	249	251	250	246	245	245	244	241	244	244	244	244	244	245	246	246	247	249	247	245	246	246	248	249	247	246	244	243	244	246	247	247	246	244	242	244	243	245	248	248	248	245	244	245	247	246	246	245	245	246	246	247	244	241	244	242	245	241	244	244	245	243	245	246	244	243	243	240	241	245	246	246	245	245	245	244	243	242	243	241	243	245	247	244	243	244	244	244	246	242	243	243	243	244	245	247	250	245	243	245	248	250	249	245	244	243	241	242	243	244	247	245	245	245	245	242	242	243	243	242	242	245	244	244	242	239	238	239	242	243	243	241	243	243	244	242	242	242	242	242	242	241	239	238	240	245	243	243	243	243	243	243	242	239	241	242	241	240	240	243	243	237	240	240	240	244	243	242	243	242	242	242	239	239	241	240	240	243	241	240	239	240	241	242	242	239	238	238	240	242	242	240	241	239	239	240	241	241	243	243	239	239	238	235	236	236	240	241	242	242	240	239	238	236	239	241	237	243	243	237	240	247	251	241	239	237	239	238	238	237	238	238	242	241	241	236	235	235	237	235	236	239	234	233	235	236	237	237	238	237	235	233	236	236	236	234	233	232	233	235	238	238	238	239	239	241	243	244	244	243	241	241	239	236	237	240	240	245	245	244	240	238	235	234	236	235	237	237	237	237	238	0	0	0	0	0	0
240	241	245	245	247	247	247	246	246	245	246	245	244	244	244	247	248	249	248	248	244	245	241	243	244	244	244	244	241	243	246	247	247	242	241	241	242	242	243	243	245	246	245	244	242	241	243	243	245	247	247	244	241	239	247	242	242	242	241	244	245	248	246	246	245	246	247	247	246	242	240	241	242	244	243	241	240	240	241	243	241	235	235	237	239	241	243	243	244	244	244	243	242	242	243	242	242	244	248	249	249	247	247	245	243	244	244	244	244	239	238	237	239	243	242	239	238	241	243	244	246	246	247	247	248	248	247	246	247	247	242	239	241	240	241	242	246	245	243	243	243	243	239	237	242	242	243	250	245	244	244	243	245	246	247	247	246	244	240	240	240	237	236	235	240	240	240	240	239	242	240	240	240	241	241	241	240	243	245	246	245	244	239	242	243	239	240	241	242	242	242	243	243	244	245	246	243	242	242	238	240	240	243	239	238	238	244	243	243	241	241	242	242	241	241	240	241	242	243	240	242	243	244	243	243	242	242	243	242	243	245	243	239	240	247	243	242	243	245	243	245	246	246	247	241	243	245	244	239	239	239	241	243	242	243	242	243	244	248	243	245	238	240	240	244	243	243	244	244	244	240	241	242	245	245	244	240	245	245	245	244	245	247	248	247	247	242	242	242	245	245	244	245	249	249	245	243	242	244	246	250	251	251	251	247	246	246	247	244	244	246	244	247	244	241	244	246	246	244	240	238	241	242	240	245	244	244	244	244	242	242	242	241	244	243	241	241	244	240	240	241	244	250	252	249	248	243	244	244	242	245	245	244	243	244	244	243	240	240	240	246	247	245	244	245	243	244	245	245	238	241	242	246	246	245	245	244	244	244	245	246	250	245	242	244	244	244	248	247	245	245	246	246	244	243	242	242	243	242	245	246	245	245	242	242	246	243	244	243	243	243	242	245	245	245	247	244	245	244	244	244	243	242	244	243	242	243	242	242	241	244	241	241	240	242	241	241	244	244	241	242	242	244	244	244	246	244	242	242	243	241	243	244	240	239	243	242	240	239	242	241	239	242	242	245	243	243	241	238	236	237	238	242	240	245	241	243	246	242	242	241	242	243	243	239	237	238	239	239	239	239	239	239	241	242	236	238	239	245	243	240	240	240	242	239	239	237	240	241	243	242	242	242	242	237	236	234	235	239	240	239	238	237	237	238	239	240	240	237	237	238	240	240	240	241	240	238	238	237	239	241	242	242	239	238	237	236	234	236	238	237	240	241	241	240	238	234	232	235	235	238	238	237	237	241	244	236	238	237	237	237	234	236	235	239	239	241	239	234	234	235	234	235	235	239	233	233	233	235	235	235	236	235	235	235	235	235	231	232	233	232	233	234	235	237	238	238	239	238	240	243	242	241	241	236	235	232	233	235	235	239	241	239	237	236	235	234	234	235	233	233	233	233	234	0	0	0	0	0	0
242	242	243	241	241	247	245	245	244	244	245	247	245	243	243	242	242	241	242	242	243	245	238	239	243	243	243	243	244	240	235	236	236	237	236	238	241	242	244	244	240	243	244	242	241	240	241	241	244	245	245	245	245	245	244	240	240	239	241	243	244	247	243	242	241	241	237	237	239	239	239	240	241	241	237	235	237	240	243	243	238	238	239	239	241	242	243	243	243	242	241	241	241	239	240	241	241	243	244	243	242	239	241	246	244	242	238	239	239	238	236	238	240	241	239	238	239	243	243	243	243	243	244	245	244	239	239	241	242	242	238	238	240	239	240	244	245	243	242	243	243	237	236	236	240	242	242	242	241	241	244	243	243	243	239	239	239	239	239	242	242	239	236	236	236	236	238	242	242	241	242	241	241	240	240	240	240	238	239	242	241	240	239	238	242	239	239	238	240	236	241	242	242	243	243	241	239	237	240	238	239	238	240	243	243	241	244	240	240	240	238	241	241	240	239	239	239	241	240	237	235	240	243	243	244	239	238	241	238	244	245	247	247	245	240	240	239	238	239	242	243	246	245	245	244	240	241	242	240	238	239	240	243	244	243	241	244	242	241	240	237	236	238	240	243	241	243	242	238	240	240	242	243	244	244	244	240	240	239	242	244	240	245	244	242	242	242	241	241	242	242	244	244	245	243	241	239	241	242	242	246	249	247	245	242	243	246	247	245	242	243	244	244	241	241	245	245	245	243	243	236	237	241	240	244	242	242	241	242	241	241	241	242	244	245	241	245	243	239	240	241	242	243	250	247	242	242	241	240	238	243	243	244	244	243	245	244	243	242	240	241	244	245	244	244	243	241	244	246	239	241	242	240	242	244	243	244	241	245	245	240	246	239	241	237	245	247	247	245	243	244	245	246	243	240	240	241	242	242	243	244	247	245	242	241	242	245	243	247	244	243	243	243	244	244	242	244	245	245	243	244	245	243	243	243	241	241	242	242	241	241	241	239	240	241	241	240	240	241	240	242	241	242	242	241	242	240	242	241	243	243	241	238	237	234	238	237	236	236	240	242	239	238	240	243	242	241	239	239	234	236	237	237	238	240	243	241	246	242	242	241	242	242	241	242	240	238	237	238	239	238	238	237	240	238	235	236	238	242	242	238	240	240	239	237	236	239	239	239	239	241	242	241	241	236	232	232	235	239	239	239	237	236	235	234	235	235	235	236	237	238	238	238	238	239	239	237	234	237	238	236	235	235	237	237	237	236	235	236	235	234	234	235	235	235	233	229	229	231	238	237	237	237	235	237	235	235	231	233	233	233	234	233	235	235	238	238	237	235	233	232	233	234	232	233	233	234	235	237	235	235	234	234	234	235	235	234	232	234	232	233	231	231	232	232	237	238	237	237	231	232	232	234	236	235	235	232	230	230	233	234	235	236	236	235	234	234	235	232	230	230	230	231	233	0	0	0	0	0	0
241	240	239	238	238	245	239	241	242	242	242	236	236	237	237	235	235	238	239	241	241	241	240	239	243	242	242	235	240	234	239	239	239	241	241	239	236	236	237	237	238	242	242	241	241	240	240	240	242	242	242	239	242	242	242	241	239	239	239	240	243	242	241	241	241	240	240	237	237	237	238	240	240	239	236	235	237	239	242	243	242	239	241	241	242	243	243	243	241	238	240	239	238	239	240	240	240	238	234	234	233	233	235	238	239	238	238	238	238	238	238	238	239	239	239	239	239	240	242	242	242	235	236	236	236	237	239	240	241	239	237	236	238	237	238	239	239	241	240	240	241	238	238	238	238	241	242	240	239	238	236	235	237	238	237	237	237	239	241	243	241	244	242	238	238	239	240	241	242	241	241	241	241	239	239	237	237	237	238	242	243	241	240	239	239	238	239	238	238	235	239	240	240	239	238	238	240	237	239	239	237	237	241	242	240	238	242	238	235	236	237	239	238	237	238	239	238	239	237	237	239	239	241	243	244	242	240	239	238	238	243	244	243	241	239	239	238	238	238	241	242	246	243	241	240	238	238	241	240	239	238	240	243	243	242	239	239	244	244	237	237	237	238	238	240	240	241	238	237	237	239	241	242	242	241	241	241	239	238	239	236	239	240	239	240	240	242	240	239	239	241	244	245	243	240	239	240	240	241	243	241	242	241	241	241	244	245	246	245	240	239	242	242	241	241	245	245	243	243	243	236	237	236	240	242	240	236	237	238	239	240	241	242	242	245	246	243	238	237	237	239	240	240	242	242	241	240	238	240	241	240	241	241	239	240	241	242	241	243	242	240	243	246	244	244	241	243	240	242	240	242	243	241	242	240	240	240	244	244	243	239	239	239	240	238	243	246	243	243	241	243	244	246	244	240	245	245	241	246	241	244	246	242	241	240	243	242	244	245	246	243	242	241	242	240	239	237	242	240	240	238	237	237	240	243	242	240	240	238	240	238	239	240	239	241	242	242	237	238	241	239	241	241	240	242	242	243	237	237	239	240	240	238	237	236	237	236	235	235	237	242	238	238	238	240	242	238	238	237	235	236	237	237	237	238	239	244	237	241	241	241	241	243	241	239	239	239	238	236	236	236	237	238	236	235	234	234	237	236	232	232	237	239	237	233	234	234	233	236	236	240	240	235	239	234	231	231	232	233	234	234	236	236	235	236	234	231	233	235	236	237	235	235	235	237	238	237	235	236	236	235	233	233	234	234	238	236	235	234	234	234	233	234	234	234	231	228	227	228	229	237	237	238	234	234	234	233	231	233	235	233	232	233	233	235	235	237	235	234	233	231	232	231	233	234	234	231	233	235	234	234	235	234	235	235	235	233	231	229	233	234	234	233	233	235	235	238	236	231	230	231	231	232	235	234	232	230	231	231	231	228	228	232	232	232	232	232	234	233	227	232	230	230	229	0	0	0	0	0	0
238	239	237	236	236	236	239	234	231	231	229	236	238	238	235	235	232	234	239	241	241	242	240	242	240	233	233	237	231	239	239	240	239	239	235	235	234	235	236	238	239	240	242	242	240	239	238	239	239	238	236	236	237	239	241	240	237	237	238	240	242	238	237	237	237	237	235	234	234	236	237	239	239	239	239	238	237	239	240	242	237	237	236	240	240	242	242	242	238	236	238	239	239	237	239	239	236	235	235	234	235	235	235	237	238	238	238	239	238	235	236	236	236	236	238	239	239	239	239	238	237	236	233	234	235	236	238	241	240	237	237	238	237	236	236	239	239	239	240	240	239	237	238	239	239	239	242	242	240	238	235	235	238	238	237	238	241	240	241	242	242	240	241	237	237	236	238	238	240	239	238	237	236	238	237	236	236	236	237	243	244	242	241	237	237	238	237	236	236	235	236	238	237	238	235	234	235	236	238	239	237	237	241	239	238	237	235	234	238	238	235	235	237	237	239	241	241	240	239	238	238	240	237	239	240	240	239	239	239	238	238	239	239	237	238	237	237	240	237	240	240	240	241	239	238	237	236	237	238	237	239	238	240	242	239	238	238	236	236	238	238	236	237	237	239	240	240	236	236	236	239	240	242	240	240	240	240	238	236	236	237	239	237	240	238	237	237	236	237	239	239	240	239	241	239	239	239	239	240	242	242	242	242	241	239	241	242	241	242	238	235	237	240	239	238	239	241	237	237	239	240	238	236	238	238	236	236	237	237	238	238	241	238	238	237	238	236	237	240	237	238	232	234	236	239	240	237	242	233	234	234	239	239	240	240	241	241	242	242	241	237	239	243	244	239	241	241	241	241	239	240	243	243	243	239	239	238	242	239	239	238	242	243	243	243	249	245	241	240	240	240	239	238	238	237	238	244	238	245	242	239	240	239	238	238	240	241	242	244	241	240	238	238	240	240	238	236	236	235	235	237	237	241	240	240	241	240	240	238	238	238	241	239	240	240	241	241	239	237	236	236	238	240	239	239	238	237	237	237	238	238	237	235	239	240	238	238	236	237	236	240	238	237	237	236	236	233	232	232	235	236	232	234	233	233	233	234	239	238	238	240	237	237	237	238	236	238	236	236	235	235	233	233	229	233	233	234	233	229	229	230	231	234	234	234	233	233	233	234	233	231	231	232	237	234	234	236	236	235	233	233	234	233	233	232	230	230	230	234	233	236	235	236	236	236	238	235	233	235	236	234	233	233	233	234	234	234	235	233	234	232	232	231	229	233	230	228	228	228	228	228	230	231	229	230	232	231	232	232	233	234	236	235	235	236	236	235	233	232	230	230	230	230	229	233	232	231	233	231	232	232	233	233	232	228	228	231	231	232	231	234	234	236	234	232	235	237	236	234	229	231	231	233	227	225	230	230	230	227	225	226	229	227	228	228	230	230	230	229	229	227	227	226	229	0	0	0	0	0	0
234	233	235	233	232	232	233	229	228	231	231	228	231	235	233	233	232	232	239	242	242	242	242	235	236	234	233	233	236	240	240	238	236	236	235	234	233	233	236	239	239	240	241	242	237	237	237	237	237	236	235	235	237	238	240	237	237	237	237	238	241	233	234	236	236	235	235	234	236	236	237	240	240	240	237	238	243	243	240	240	234	234	234	237	240	240	240	238	237	237	238	236	237	237	239	239	235	235	233	233	236	237	241	238	238	238	240	240	237	235	235	234	235	236	237	237	237	237	238	237	234	233	233	233	234	235	239	239	238	235	235	236	235	234	235	238	238	235	236	236	236	238	236	235	236	237	239	240	236	235	234	236	237	237	236	239	239	237	236	236	236	236	235	235	236	235	234	237	237	238	238	236	236	232	234	236	235	235	237	238	241	240	237	237	235	235	235	233	234	236	238	237	235	234	234	233	233	238	238	238	237	237	239	238	238	236	234	233	237	238	235	234	237	238	241	238	239	238	236	236	236	239	237	238	238	240	240	240	239	239	237	237	235	234	233	235	235	238	239	237	239	240	240	238	237	237	236	239	238	238	237	238	240	240	239	237	237	236	236	237	239	239	238	234	234	236	237	236	236	237	238	243	240	236	237	238	237	236	234	235	237	238	238	236	238	237	235	234	233	233	235	236	236	236	236	237	238	239	240	240	241	241	240	239	240	241	238	237	233	233	232	236	236	236	238	238	238	236	237	238	238	238	236	236	236	236	236	237	238	238	237	237	237	237	237	237	237	239	236	238	232	232	232	234	234	238	241	239	238	234	234	237	237	240	240	240	239	238	241	238	237	237	237	238	240	240	239	240	239	239	239	238	242	241	238	234	240	237	239	238	238	242	242	240	240	240	238	238	237	238	236	237	236	235	234	235	235	236	235	236	239	239	238	238	238	238	239	238	238	238	235	238	237	238	238	233	233	235	234	235	234	235	236	240	239	238	241	241	241	237	238	237	237	237	237	237	239	240	239	238	237	234	236	238	238	237	237	237	237	236	235	235	235	238	240	240	237	237	237	236	238	238	236	235	237	238	238	234	232	231	232	233	234	235	235	235	235	237	238	237	237	234	234	237	236	235	234	234	235	235	234	232	229	229	229	232	232	233	231	231	229	232	234	236	235	232	232	233	233	232	230	230	229	229	232	237	237	236	234	233	233	233	227	230	230	226	226	226	226	233	233	234	235	235	236	236	231	232	234	237	236	233	231	232	232	233	233	235	231	233	231	230	230	229	230	228	227	226	227	228	227	229	226	226	227	227	229	230	232	232	231	226	226	229	235	236	236	233	230	228	228	230	230	230	232	232	232	231	230	230	231	231	232	231	229	230	231	231	231	230	230	229	229	224	230	232	232	236	231	229	226	225	225	225	226	229	227	227	226	226	222	227	226	227	228	230	229	228	225	225	226	225	225	226	0	0	0	0	0	0
231	232	232	233	231	231	233	229	227	229	229	230	231	234	228	228	233	235	236	236	238	238	237	232	233	233	233	233	232	234	236	236	236	236	235	233	233	233	236	237	240	235	240	240	236	236	236	236	236	236	236	236	237	239	237	234	232	230	230	235	235	231	230	236	238	236	233	234	240	240	239	234	233	232	234	237	240	241	236	235	233	234	234	235	237	237	239	237	236	235	234	235	235	237	237	235	235	235	233	236	236	237	238	237	236	234	233	233	233	232	235	234	235	234	235	233	230	233	236	235	234	233	233	233	234	235	237	238	236	235	233	232	232	232	232	235	232	232	233	234	234	232	233	234	234	233	232	233	234	234	232	234	236	237	235	236	235	235	234	235	235	234	234	235	235	234	234	234	234	236	236	233	232	232	234	233	233	232	236	237	237	234	234	233	231	231	231	234	234	234	236	236	234	233	233	232	233	236	234	236	233	238	237	237	238	235	234	235	234	237	237	236	235	235	237	235	235	233	233	236	235	235	236	236	238	238	238	237	237	239	236	236	233	231	230	231	233	235	236	233	234	234	234	238	236	236	236	236	238	237	237	238	239	237	238	237	236	238	235	235	237	238	239	238	235	235	235	235	235	236	241	238	237	235	237	235	235	235	235	235	235	234	237	236	236	237	237	235	233	233	234	236	238	237	237	235	235	237	239	240	239	238	238	236	238	238	235	234	233	235	234	236	235	235	237	237	236	237	237	237	236	239	239	237	235	234	234	237	236	233	232	233	238	239	240	239	235	234	236	233	230	237	235	235	237	238	238	238	237	234	233	233	236	238	239	239	235	237	238	236	236	236	235	239	239	237	239	238	238	237	238	237	237	232	232	231	239	238	238	238	235	234	239	241	232	239	237	237	237	236	236	235	234	235	233	234	236	233	232	231	231	236	236	237	233	237	237	237	238	237	237	237	233	234	234	236	233	234	234	234	235	234	231	231	236	236	238	238	233	236	236	236	237	235	233	236	236	236	233	235	232	232	234	234	236	236	236	235	235	235	237	235	235	234	235	236	236	235	235	236	236	235	235	238	237	238	235	233	233	232	231	232	234	234	234	232	231	238	238	235	235	234	234	235	233	230	231	230	232	234	233	230	231	231	231	231	231	231	230	225	231	228	233	233	234	231	233	233	232	231	231	231	229	230	235	237	237	237	233	230	229	230	232	231	230	227	228	229	231	232	232	232	234	234	234	235	229	227	230	231	231	230	229	228	229	228	229	229	231	229	228	227	229	229	229	228	228	228	226	227	227	225	226	226	228	228	227	227	226	230	229	228	232	230	230	230	229	229	227	227	228	228	230	231	231	231	230	231	231	230	230	231	230	230	230	229	229	228	230	230	230	228	227	223	225	228	232	230	227	226	225	224	224	222	225	226	226	226	225	226	226	225	225	225	227	229	228	228	228	225	224	224	224	224	0	0	0	0	0	0
230	230	230	234	234	234	232	229	233	234	234	235	236	231	231	227	227	231	233	228	226	226	226	231	231	232	230	230	232	234	235	235	234	233	233	232	232	234	235	236	235	234	235	238	235	235	235	236	235	235	234	235	234	234	233	233	229	232	233	233	234	232	233	233	234	227	228	231	233	232	232	234	232	231	230	231	233	234	236	234	233	231	234	234	236	237	233	234	235	233	233	234	233	233	233	232	233	235	234	233	234	233	230	231	233	233	234	233	233	232	234	234	233	235	231	233	230	232	234	233	231	231	231	233	235	235	234	233	233	231	230	230	228	227	228	230	231	231	230	231	231	233	233	233	232	232	230	234	233	231	230	230	234	236	234	232	233	233	231	232	232	232	231	231	235	233	234	233	232	234	234	232	231	231	231	231	232	233	231	229	230	236	233	233	232	228	235	230	236	234	233	231	233	232	231	231	233	233	234	230	236	232	231	233	237	233	230	229	234	236	237	236	235	235	234	236	234	233	232	236	235	234	235	236	235	238	238	235	236	239	235	235	230	228	225	227	231	233	236	235	235	236	236	234	234	234	236	236	236	236	237	235	237	237	237	237	236	234	234	232	232	231	237	236	234	233	233	233	233	234	237	236	236	234	235	235	235	234	234	234	235	235	236	234	233	233	234	231	231	233	234	236	237	238	237	235	233	234	235	236	237	232	230	234	235	238	235	234	232	233	233	232	231	232	233	235	236	236	237	236	236	236	236	239	237	236	236	234	237	232	231	233	239	240	239	237	236	233	233	238	229	235	235	236	233	238	236	237	234	233	233	234	235	235	234	238	236	236	235	234	235	234	238	239	237	239	233	236	234	235	237	235	235	233	231	231	232	235	235	238	232	238	240	239	232	233	233	235	236	236	234	234	234	234	233	233	235	234	232	231	232	231	233	231	231	231	238	238	238	235	236	233	232	232	235	235	234	233	232	232	233	233	232	236	235	235	237	235	235	234	235	236	236	235	234	229	229	231	232	231	232	232	232	233	231	232	232	234	235	235	234	233	237	230	230	232	233	233	234	236	236	235	234	238	238	233	232	233	233	235	231	233	232	232	233	231	230	234	234	235	235	232	231	230	226	227	228	228	228	228	230	229	230	231	228	229	229	229	228	224	228	225	233	232	231	230	232	230	229	231	231	230	232	229	232	231	231	229	227	228	227	228	228	231	229	227	227	228	230	231	231	230	232	231	231	232	228	226	226	228	227	227	226	227	227	227	229	228	227	228	227	226	228	228	228	227	228	227	225	226	225	226	227	227	226	226	226	225	226	227	226	228	225	226	229	228	228	224	222	222	226	227	229	230	231	231	228	228	226	227	228	227	229	228	229	228	228	227	227	229	228	228	226	223	224	224	227	230	226	225	225	224	222	221	223	228	228	227	226	226	225	225	224	223	224	226	225	226	226	222	221	221	219	222	0	0	0	0	0	0
231	231	235	236	235	229	229	229	225	226	229	229	232	233	231	229	229	229	229	223	223	227	227	231	230	229	229	228	228	228	230	232	232	228	228	228	228	231	232	232	234	230	232	232	230	229	231	234	233	230	230	228	229	232	232	231	232	234	232	232	237	231	232	232	227	225	226	226	232	230	232	232	232	231	230	230	228	227	227	232	231	234	233	228	227	233	230	230	236	237	232	234	232	232	232	232	231	232	231	231	231	233	230	231	233	233	235	236	237	235	235	233	233	234	236	230	229	231	227	229	229	229	230	229	233	235	233	232	232	231	231	226	230	232	232	232	231	230	230	232	231	231	232	232	231	229	228	230	231	231	230	230	232	233	234	231	231	231	230	231	233	232	227	226	230	232	232	232	231	229	231	230	229	229	229	231	231	233	235	234	234	234	230	230	228	228	228	236	234	232	230	230	232	230	229	228	231	232	230	230	230	230	229	229	230	229	230	229	233	236	232	232	233	234	232	232	232	232	232	232	235	235	234	233	232	233	232	233	235	229	229	228	227	227	226	227	230	231	234	234	235	234	232	231	230	230	233	235	234	233	232	234	235	235	232	234	234	233	232	231	232	231	230	232	233	232	232	232	232	232	232	236	232	231	232	233	233	231	232	232	232	235	235	233	233	232	232	230	232	232	233	235	235	236	235	233	231	228	230	232	233	232	232	233	234	235	234	231	229	231	233	233	234	234	232	232	235	234	237	236	236	236	234	236	240	242	241	236	232	232	232	232	233	233	234	236	236	235	233	229	229	229	233	235	238	243	237	236	229	229	229	231	237	234	233	233	230	232	233	234	233	234	237	235	235	234	233	232	232	232	234	235	233	232	232	234	229	236	229	232	233	236	235	232	232	232	233	232	233	233	232	233	232	232	232	234	234	235	234	234	234	235	237	232	231	230	230	235	237	234	229	231	234	234	234	235	234	234	231	230	232	232	232	235	234	232	234	234	234	233	235	234	232	233	231	229	228	230	229	231	232	232	232	232	231	228	225	234	234	233	233	236	236	230	229	230	230	234	235	236	235	234	234	236	236	233	232	233	236	233	231	230	229	232	231	231	230	230	231	233	232	235	234	232	228	229	228	229	228	229	230	231	230	230	227	226	227	227	226	223	221	227	233	234	232	231	231	229	229	230	230	231	231	232	232	230	230	229	228	227	227	228	232	229	228	228	227	227	230	230	231	229	231	229	228	224	225	225	226	228	227	226	226	225	226	226	226	223	226	226	227	226	228	228	227	227	228	227	226	225	224	227	228	227	227	226	225	221	222	221	220	220	223	225	225	226	226	224	222	221	223	225	227	229	229	228	228	226	226	224	224	225	225	227	226	224	224	223	223	226	227	226	226	225	224	224	226	225	224	223	223	223	222	221	224	224	223	223	224	224	224	224	223	224	223	226	225	225	224	223	222	221	220	221	0	0	0	0	0	0
232	232	232	231	230	227	227	226	225	223	227	227	232	232	229	228	228	228	228	224	226	227	227	230	231	228	228	228	228	226	227	227	227	225	222	222	225	226	229	230	230	231	231	232	229	227	229	227	228	228	228	230	227	227	227	226	227	229	230	230	230	230	231	231	226	225	226	225	224	228	229	229	228	229	229	227	226	226	227	231	230	230	225	223	223	232	233	233	231	233	231	233	230	232	230	230	229	228	230	230	230	228	229	228	230	232	235	236	237	237	234	232	234	229	223	224	226	226	229	229	229	229	231	229	229	229	228	228	228	228	228	231	233	232	231	231	230	229	230	232	230	230	229	231	230	231	228	229	230	229	231	231	232	233	232	231	229	228	230	231	234	229	225	225	227	230	229	230	232	232	232	229	228	228	227	226	227	227	227	226	229	231	231	228	228	229	229	228	228	230	230	229	230	228	227	227	229	231	231	234	232	230	230	230	228	228	230	231	231	232	231	230	233	234	231	232	233	233	233	232	231	235	234	233	232	230	231	233	232	229	227	227	228	224	225	227	228	230	231	234	235	234	230	229	229	229	227	228	229	233	232	232	231	229	230	233	232	231	232	229	229	229	229	231	232	229	231	232	231	231	231	232	224	231	230	228	228	229	229	231	232	232	232	231	232	232	231	230	232	232	231	232	232	230	230	229	228	229	231	231	229	229	228	231	233	233	233	232	230	227	225	225	226	230	231	229	232	229	229	230	232	231	232	233	233	238	236	231	229	231	231	232	231	228	228	230	234	233	232	231	233	233	233	232	234	234	234	229	228	229	231	233	233	233	232	232	231	233	232	233	236	231	232	230	231	230	230	230	230	234	234	233	235	238	238	239	234	231	232	232	232	232	231	228	229	230	230	230	231	231	233	233	231	233	231	231	233	235	235	235	234	234	232	231	231	232	231	229	229	228	229	226	230	232	231	231	230	231	232	230	230	234	235	235	228	229	229	234	233	228	228	228	229	227	225	225	229	229	230	231	231	232	232	231	229	228	230	228	227	229	230	228	227	232	231	230	232	230	232	234	234	234	235	235	234	233	233	233	232	232	231	231	228	231	231	231	228	228	228	230	232	233	233	231	230	229	227	227	228	228	229	230	230	229	226	224	224	226	225	225	224	223	230	228	227	227	229	229	229	228	228	226	229	232	232	232	228	226	226	224	224	224	227	228	227	226	226	228	227	224	223	225	224	221	223	227	228	228	228	228	228	226	227	224	225	225	223	223	225	225	226	226	225	225	226	226	227	227	226	226	225	225	226	226	226	226	223	221	221	219	219	219	221	225	224	225	225	222	220	220	223	224	222	226	226	226	226	226	223	223	223	222	223	224	222	221	221	221	221	223	223	225	225	225	223	224	220	221	223	223	222	223	222	224	223	223	224	224	223	223	224	223	223	223	222	225	223	223	222	222	224	223	220	221	0	0	0	0	0	0
228	229	229	230	229	223	223	221	221	222	226	226	231	232	230	227	226	226	227	227	225	230	230	232	225	226	226	227	227	228	228	226	224	228	229	229	232	233	233	230	228	229	229	229	224	226	227	227	225	224	224	226	228	228	227	226	225	228	228	229	229	228	228	228	230	224	223	223	228	228	228	227	227	227	228	227	226	225	226	227	228	224	219	223	227	232	233	237	237	231	228	224	229	228	227	226	226	226	227	227	228	227	228	227	230	228	224	227	228	229	229	228	227	226	225	224	226	227	229	230	230	230	230	230	227	226	226	226	228	228	230	231	232	232	230	230	228	228	229	229	230	228	228	228	228	229	228	229	228	228	226	230	231	232	230	228	224	223	223	226	226	226	226	225	228	228	226	223	229	228	228	228	228	227	225	225	225	225	225	223	225	230	230	227	227	228	228	228	231	230	229	229	228	227	224	227	229	229	230	234	231	229	231	230	227	225	224	230	227	229	229	229	229	228	230	229	231	233	233	231	231	231	232	233	233	233	230	228	230	228	227	226	227	228	228	227	226	228	230	230	233	231	233	231	230	228	228	227	227	227	231	228	229	229	230	230	231	231	231	229	228	228	230	229	230	230	231	231	228	228	228	226	226	225	225	228	226	227	227	228	230	232	232	231	231	232	227	231	228	228	228	230	229	227	225	227	226	229	231	229	229	229	229	230	231	231	229	228	227	226	224	224	225	227	227	231	230	232	232	231	231	229	229	229	228	225	227	229	229	230	231	232	231	230	229	231	230	230	229	230	231	231	231	230	230	231	231	232	231	229	227	226	224	225	230	229	229	230	229	228	228	229	229	232	229	228	229	228	228	229	230	233	229	231	231	231	231	231	226	226	228	228	227	229	229	229	228	230	231	231	231	228	227	229	228	229	231	234	235	234	233	231	229	227	229	230	230	229	230	227	225	228	228	230	230	229	230	232	233	231	229	228	229	229	229	230	231	230	229	228	226	225	226	226	227	227	228	228	228	230	229	228	228	228	228	225	229	230	226	228	230	227	226	226	230	232	232	230	230	232	232	232	234	234	233	232	231	234	235	230	228	229	230	228	229	231	227	230	230	228	229	229	232	231	229	229	228	228	228	225	225	225	226	225	224	223	223	226	226	224	225	223	228	227	227	227	227	227	227	226	227	226	225	225	226	231	226	225	226	224	223	226	223	226	226	226	226	225	222	225	226	225	227	226	229	226	221	228	228	230	229	224	222	223	222	225	223	222	221	223	224	225	225	223	225	224	225	227	226	226	224	226	225	224	223	222	222	221	220	217	219	220	220	221	225	225	224	223	221	220	224	224	222	219	218	219	220	221	224	222	221	218	219	221	221	221	221	220	218	218	218	223	225	224	220	216	216	220	221	220	220	222	222	222	222	222	222	223	223	221	221	221	220	222	222	222	222	223	221	220	221	220	219	219	0	0	0	0	0	0
227	227	227	226	224	221	221	221	221	220	220	219	219	221	221	221	221	221	222	223	225	227	225	225	225	228	227	224	225	225	227	226	225	226	228	228	228	231	228	229	229	227	228	228	228	226	218	221	223	223	226	226	228	230	228	228	225	226	227	228	228	228	227	224	222	221	219	219	225	228	226	226	226	226	226	221	220	225	224	220	221	222	221	223	227	228	228	230	226	226	221	226	225	223	221	220	223	222	222	225	226	226	228	226	227	230	225	225	223	224	226	227	228	227	228	227	225	227	229	229	229	230	225	225	225	225	225	224	227	228	229	230	229	228	225	228	228	228	228	227	227	223	225	226	226	228	229	229	226	225	225	226	226	228	228	223	223	222	221	225	226	226	227	225	228	228	228	227	223	227	226	227	225	223	223	223	225	225	226	223	227	226	227	227	227	226	227	229	228	229	230	230	229	228	224	224	224	223	229	230	231	230	227	227	230	227	225	231	224	228	228	228	229	228	228	228	230	231	231	227	227	228	227	228	229	228	228	227	229	228	227	228	227	226	225	226	226	227	229	229	228	232	230	229	227	226	228	225	224	225	227	228	226	226	228	227	229	225	224	228	227	227	227	229	229	227	227	230	226	228	226	226	226	226	226	224	224	224	226	228	230	230	231	231	229	231	229	228	227	226	226	229	229	226	224	225	226	226	229	229	229	230	229	229	229	229	228	227	224	224	224	225	225	226	227	230	232	232	228	231	224	229	229	229	227	225	224	229	229	229	229	230	228	226	228	231	231	229	228	229	226	229	230	225	225	225	230	230	231	228	227	224	224	225	225	224	226	227	228	226	226	225	228	231	228	229	227	227	226	228	225	228	227	228	227	226	225	230	230	226	226	226	227	229	228	228	228	228	230	232	229	228	227	225	227	229	230	235	234	231	232	228	226	226	227	228	228	228	229	229	228	226	225	223	226	229	231	234	233	231	228	226	223	225	227	227	231	230	232	226	224	222	225	227	226	228	227	228	227	230	229	227	226	226	224	227	224	221	229	230	233	228	227	225	227	230	227	229	228	229	231	226	230	229	226	224	222	229	233	230	224	225	226	223	228	225	227	228	229	228	227	227	227	231	229	228	227	226	225	225	224	223	226	226	222	221	219	225	226	226	226	224	224	224	225	223	224	228	227	226	226	226	223	224	225	228	224	225	224	225	222	222	225	227	227	225	228	222	219	220	226	225	222	225	224	220	223	221	217	218	217	228	223	220	220	221	223	221	220	220	221	223	220	225	225	224	224	225	226	224	225	224	221	221	223	225	223	220	219	216	220	219	221	221	222	225	224	223	220	222	223	222	220	219	218	218	220	220	222	222	221	219	219	221	221	221	219	219	218	217	217	219	218	220	215	215	215	218	217	217	219	220	221	221	221	219	220	221	222	217	220	219	219	220	220	218	218	220	220	219	218	219	217	217	0	0	0	0	0	0
224	223	223	223	222	222	218	218	219	220	219	217	217	219	220	220	222	222	222	222	224	224	227	227	229	228	227	224	225	225	228	226	225	226	227	228	228	229	230	227	227	227	227	227	222	219	220	223	219	221	221	221	221	222	223	223	222	225	226	228	228	231	225	220	219	218	219	221	220	224	227	226	226	226	224	220	219	219	220	223	220	219	219	224	223	227	228	227	224	223	223	221	222	224	221	220	224	224	222	220	224	227	228	226	229	226	226	226	226	228	224	225	229	229	229	229	226	224	226	227	226	227	227	226	226	225	225	225	225	227	227	227	226	223	224	224	226	225	223	225	225	224	222	225	225	228	227	225	225	225	225	225	226	227	225	222	223	223	224	225	227	226	225	227	227	227	225	223	223	225	224	225	223	222	222	222	224	225	226	226	227	227	228	225	227	225	225	225	225	227	230	231	231	230	225	225	225	224	227	230	223	222	223	227	228	228	223	222	221	228	227	228	229	228	228	227	227	227	229	227	228	227	227	227	226	226	225	225	227	227	227	226	228	228	225	225	227	226	227	228	228	227	227	227	226	224	222	224	222	222	221	222	224	225	225	226	225	223	223	227	226	227	227	229	226	225	225	225	225	225	225	225	226	226	224	224	223	223	225	226	226	230	230	227	226	227	228	227	225	225	225	227	227	228	225	225	222	223	227	229	229	230	230	230	230	229	228	226	224	224	226	226	225	224	224	227	232	228	231	225	228	228	227	225	228	222	227	227	228	228	229	229	226	228	228	228	226	226	225	228	229	226	225	225	225	225	229	231	230	229	226	226	224	225	225	225	228	228	229	225	225	224	226	226	229	229	226	224	225	224	224	224	226	226	226	226	226	227	229	227	225	225	227	228	228	227	226	228	228	229	230	228	225	226	227	228	234	231	227	228	225	226	226	225	226	225	225	227	228	228	226	225	225	225	226	228	230	233	230	231	231	228	225	228	227	227	226	229	230	227	226	224	225	226	228	228	228	227	227	227	225	228	227	225	228	224	222	223	224	223	231	231	226	226	227	224	227	227	226	226	226	231	229	225	223	224	226	228	227	227	219	217	218	223	224	219	218	227	229	227	226	224	226	226	229	226	225	225	224	223	222	224	224	225	223	221	218	218	223	220	220	222	220	221	223	224	224	225	225	224	221	220	221	223	222	222	222	222	222	224	222	221	221	224	223	225	220	217	216	223	221	223	223	224	223	218	216	217	213	213	217	216	220	219	219	219	220	220	219	219	219	221	225	223	219	222	222	222	223	222	221	221	220	220	222	223	221	220	219	220	220	219	220	221	220	218	221	221	221	220	221	220	220	217	218	217	219	220	219	218	220	220	219	219	219	219	218	216	216	216	212	214	214	214	215	213	213	213	215	215	218	218	216	216	216	218	219	220	217	216	215	218	218	218	215	215	217	218	218	218	217	215	217	217	0	0	0	0	0	0
223	224	224	224	224	222	220	220	219	219	219	215	215	216	218	219	220	222	222	223	223	224	226	226	229	228	229	228	229	227	227	224	223	221	225	226	226	229	229	227	226	227	221	219	219	222	223	223	224	224	222	221	221	219	220	221	220	223	225	228	231	225	219	218	218	221	221	221	224	225	225	226	228	228	228	228	225	222	219	221	223	224	224	224	223	221	224	221	221	218	218	219	222	227	225	225	224	225	222	224	227	226	225	226	226	224	224	225	223	222	222	220	222	226	230	229	224	223	225	223	226	227	227	226	222	224	222	223	224	225	225	224	224	222	223	224	223	222	222	224	224	225	222	220	220	222	224	224	226	226	224	225	226	226	225	224	220	220	224	222	222	221	221	223	223	223	222	221	222	223	223	223	222	221	221	224	223	223	223	226	226	224	225	224	222	222	225	225	223	224	225	225	227	225	224	223	225	223	225	224	223	223	223	223	223	223	221	222	226	226	227	227	228	227	227	226	227	224	222	224	226	226	225	225	226	224	223	226	226	226	226	227	226	226	225	224	226	226	227	227	227	227	227	227	227	223	224	220	220	220	221	222	224	225	225	225	223	223	223	223	223	223	223	223	224	224	225	226	225	224	224	224	222	225	224	223	223	222	222	222	224	225	225	225	224	224	225	224	227	228	225	225	224	223	226	220	222	222	226	228	228	228	228	229	229	231	229	228	227	226	226	225	223	219	222	222	225	225	224	227	225	229	227	225	228	227	223	225	227	228	228	226	226	226	228	226	225	224	224	227	228	226	226	226	224	225	227	225	229	228	225	226	225	225	226	227	228	228	226	225	224	223	224	227	227	228	226	226	227	227	225	225	224	224	225	225	227	230	228	227	224	225	225	227	226	227	227	227	227	228	228	224	224	224	225	228	230	228	228	226	224	223	223	224	223	225	224	224	224	226	227	224	225	224	226	226	227	228	228	229	230	228	226	225	228	224	225	224	228	225	222	222	224	228	227	227	226	227	226	227	224	227	225	227	227	225	226	226	220	228	225	226	229	229	227	227	226	224	224	224	224	228	224	222	220	221	224	222	222	217	220	221	222	227	225	223	222	219	225	224	224	223	223	224	223	225	225	225	224	223	224	222	221	220	220	220	216	217	221	220	220	221	216	219	221	221	222	221	221	220	219	221	221	221	221	221	221	222	221	222	222	220	218	220	221	219	219	217	217	218	221	225	217	219	215	218	221	212	212	213	216	216	215	218	217	217	215	219	219	217	217	218	219	221	218	219	219	219	221	220	219	218	218	217	218	218	218	217	217	217	215	214	214	217	216	216	216	218	220	220	218	217	213	213	215	218	218	218	219	216	216	215	216	215	215	216	217	215	215	212	213	212	213	214	214	213	212	211	214	219	215	218	218	215	215	216	217	218	217	216	218	216	216	216	214	214	216	215	216	216	217	214	214	215	0	0	0	0	0	0
218	223	225	225	225	226	222	220	220	219	219	217	216	216	216	219	221	220	220	217	217	224	225	226	226	228	228	232	229	222	222	222	218	218	220	220	218	218	225	230	224	221	226	224	224	222	223	224	224	223	223	221	221	220	222	219	226	223	224	226	225	223	223	222	220	217	219	220	224	225	227	225	226	227	227	226	226	222	221	222	222	224	224	224	220	220	220	217	217	215	219	219	220	224	228	229	227	223	223	224	225	224	224	226	224	221	223	224	224	226	219	218	220	222	225	229	222	221	219	218	218	222	224	221	220	219	220	221	220	224	222	222	223	224	224	224	222	223	221	222	221	221	223	225	225	224	224	223	223	226	226	227	225	225	225	223	218	218	221	220	220	223	222	223	224	220	220	222	222	225	225	225	225	225	219	219	220	223	223	223	225	225	225	224	222	221	222	224	221	224	224	224	220	222	219	219	222	223	223	223	224	223	221	223	224	221	220	221	221	223	226	227	221	222	224	224	225	222	222	222	225	226	225	225	226	224	223	223	223	225	225	228	226	226	224	224	223	226	226	224	226	226	225	226	223	223	222	221	219	219	223	224	224	223	222	224	222	222	223	223	223	222	221	220	221	222	227	224	224	222	221	221	224	225	224	223	223	220	219	219	220	223	225	224	223	224	225	224	225	228	222	222	221	222	219	221	221	223	224	226	225	228	223	225	224	225	229	227	226	228	228	224	223	223	222	223	223	222	221	223	224	224	228	228	226	224	225	225	225	226	228	226	225	226	222	226	227	226	225	224	224	224	224	224	221	222	223	224	225	226	224	226	226	228	228	229	229	227	224	225	225	219	222	224	225	225	226	227	228	227	226	225	224	224	223	224	227	227	228	224	224	224	222	223	229	225	225	224	224	225	221	222	222	224	223	227	226	225	227	226	223	223	222	222	224	225	224	224	225	226	228	226	222	222	222	227	227	225	227	226	226	225	224	227	220	221	222	223	224	224	225	227	229	229	224	224	225	225	226	226	225	225	225	222	225	227	226	224	222	225	223	222	225	227	229	230	227	224	222	221	220	219	222	216	215	217	221	222	221	217	218	219	222	227	223	223	223	225	224	221	220	219	222	223	223	224	224	225	224	223	224	221	221	219	219	215	215	216	216	221	218	215	218	217	220	220	220	218	218	218	220	219	221	220	223	222	219	222	221	221	219	219	217	219	216	220	215	214	216	217	217	219	215	215	216	223	217	216	212	214	218	215	218	218	216	215	214	219	216	217	216	216	217	217	217	217	218	215	218	218	217	215	216	214	215	216	217	217	216	214	213	216	213	213	211	212	215	218	217	218	218	215	214	214	214	215	217	217	216	216	213	212	213	213	212	213	214	212	213	213	213	213	214	216	214	214	213	213	214	213	216	215	215	213	213	216	215	214	214	216	217	218	218	216	216	214	216	214	214	214	216	214	214	214	214	0	0	0	0	0
219	222	224	224	224	223	222	221	221	220	217	214	214	214	212	216	221	222	222	221	219	220	221	218	218	226	220	221	218	216	216	219	220	221	222	218	218	218	221	226	226	227	227	226	226	221	221	223	222	223	223	222	221	221	218	219	219	226	227	229	228	218	218	217	217	216	217	219	221	222	222	220	218	220	222	222	222	219	219	220	222	222	223	222	223	217	216	218	216	216	219	221	221	221	225	223	222	221	225	226	226	223	223	224	221	221	222	223	224	220	219	219	220	220	223	227	222	222	219	218	220	220	218	222	218	218	220	219	222	222	222	222	223	224	224	225	221	221	219	218	220	220	222	223	225	222	222	223	221	222	223	226	224	223	222	220	218	222	221	222	221	224	225	225	221	220	220	221	225	224	223	223	222	222	222	219	219	222	223	226	225	223	223	221	221	221	221	222	222	223	223	221	221	219	221	222	221	222	222	224	225	224	221	222	224	220	221	222	222	223	222	218	221	221	223	222	223	221	221	222	224	226	225	224	222	223	222	222	222	224	226	225	225	224	224	224	223	224	224	224	225	225	224	223	223	224	224	221	225	222	224	223	223	222	222	222	222	222	222	225	223	221	219	219	221	222	223	222	223	223	224	225	222	223	223	223	221	221	219	218	220	216	219	219	221	222	223	224	225	227	221	219	219	218	218	221	221	221	223	225	222	222	223	223	225	224	225	227	227	227	227	222	223	224	223	223	221	220	215	221	223	224	225	224	226	225	226	225	226	224	224	224	224	222	223	226	226	224	225	224	224	222	222	219	223	224	225	224	223	222	225	223	223	227	228	228	228	225	224	222	221	223	218	222	224	226	227	225	225	226	225	224	223	221	224	224	223	223	224	224	224	219	219	224	224	225	223	223	224	225	224	220	221	222	222	227	227	226	224	223	223	223	223	222	223	223	223	224	224	226	226	222	222	222	222	223	223	224	222	218	219	218	220	218	218	222	222	221	223	225	223	225	223	221	222	221	219	216	215	217	224	220	220	221	222	222	225	223	222	223	219	222	225	224	220	223	223	222	221	217	216	221	222	217	215	219	220	219	221	221	220	221	221	225	223	222	221	223	217	220	217	216	217	220	223	223	223	224	224	223	223	222	218	220	218	218	218	218	216	216	215	213	213	216	218	219	219	216	216	217	218	219	221	222	221	219	221	222	222	221	218	217	215	216	218	216	217	216	213	213	214	214	219	215	216	216	217	216	215	219	216	217	215	216	216	215	217	216	217	217	217	216	216	216	216	215	214	215	213	214	214	213	211	216	217	215	217	217	216	216	215	214	213	212	211	211	211	214	216	216	216	212	214	213	214	214	216	213	211	212	211	209	209	210	210	211	210	212	210	213	213	213	214	214	214	213	213	214	215	215	213	213	213	212	212	214	212	212	212	214	214	213	213	214	214	215	214	214	214	212	214	214	213	214	214	0	0	0	0	0
217	220	222	222	222	220	216	217	217	218	217	214	212	213	213	220	221	223	221	221	221	221	220	221	220	220	215	215	216	218	220	220	219	220	221	220	221	221	222	222	222	224	219	218	216	216	218	219	221	222	222	222	223	223	221	218	219	223	224	225	224	217	217	217	216	214	216	217	217	216	216	215	216	218	220	220	220	219	219	219	222	222	223	219	215	217	216	216	215	217	218	218	221	221	223	225	225	225	221	218	221	221	222	223	222	221	222	221	222	221	219	219	220	220	221	221	222	220	218	220	223	221	223	217	217	219	220	221	225	225	221	220	220	220	220	219	223	221	217	215	214	214	221	223	218	220	221	221	219	217	218	219	219	221	221	220	220	220	220	226	225	225	223	224	223	221	222	218	218	218	222	222	220	219	220	220	219	219	217	221	224	221	222	221	220	221	221	221	220	222	221	218	217	217	218	221	216	217	217	223	224	222	222	223	221	220	217	220	219	222	217	218	217	220	218	219	220	219	220	221	223	224	219	221	222	222	222	222	222	223	221	220	220	223	220	221	222	222	224	223	223	224	223	223	222	224	219	220	222	225	224	223	223	222	221	220	220	219	219	221	222	221	219	219	219	221	221	221	223	226	226	224	222	221	221	221	221	221	220	218	219	216	219	219	219	221	222	222	221	219	220	218	218	219	218	220	221	222	223	223	221	223	223	224	221	220	219	223	225	223	219	219	222	224	224	225	225	213	221	217	217	224	224	224	224	225	225	225	224	222	220	222	222	223	219	221	220	224	225	225	222	223	220	219	221	223	225	219	220	222	223	224	224	224	225	225	225	225	223	219	217	215	220	221	222	221	221	221	224	225	225	223	220	220	221	221	223	223	223	223	221	221	221	221	224	223	222	222	222	223	224	222	221	221	221	222	225	225	224	219	220	222	223	220	220	221	222	225	225	224	223	221	221	220	220	219	218	219	217	215	215	215	217	216	217	218	219	220	219	223	225	222	222	220	219	218	220	216	213	216	222	217	220	220	221	221	222	218	218	220	218	220	220	222	219	221	222	222	219	218	215	217	221	220	217	218	218	219	219	216	216	216	216	216	217	217	217	216	219	217	216	217	216	217	219	221	220	223	223	222	223	223	224	221	218	218	219	218	217	216	215	214	216	216	218	218	217	214	213	218	219	219	219	217	215	215	218	222	221	220	218	215	215	215	215	217	218	217	217	215	216	216	215	219	216	216	210	210	216	215	215	216	214	216	214	214	216	217	217	218	217	217	216	215	214	213	212	213	213	213	211	210	211	211	216	216	215	213	216	215	213	212	213	212	211	211	210	211	214	217	214	214	213	213	214	215	214	213	211	211	210	210	210	212	212	213	212	209	210	210	212	211	211	212	210	210	213	211	211	214	214	213	211	210	210	211	212	212	212	210	211	211	212	212	213	213	212	211	212	212	211	210	208	208	213	0	0	0	0	0
214	216	217	218	218	217	214	215	216	216	215	213	212	212	212	216	218	217	218	218	219	218	218	215	215	215	215	216	218	217	217	217	216	217	218	221	220	219	219	218	217	217	219	219	219	219	219	219	218	219	219	219	219	219	219	219	219	217	217	217	217	214	213	213	213	214	217	217	217	215	214	215	215	216	219	219	219	219	219	220	220	219	220	218	218	215	215	214	215	218	217	217	218	218	219	223	223	221	216	216	219	221	220	221	221	221	221	219	220	219	220	219	219	220	220	222	215	215	216	220	221	224	219	217	218	218	218	219	224	225	222	221	219	218	217	219	220	221	219	215	215	216	215	216	217	218	216	220	217	216	217	219	222	222	222	220	220	222	222	222	225	220	218	218	221	218	216	216	216	216	217	218	218	218	219	220	216	214	216	215	217	223	221	219	219	220	218	218	218	219	218	217	216	221	220	216	218	218	220	222	222	222	219	222	220	220	219	218	218	217	218	216	218	218	217	218	218	218	218	220	220	221	221	218	222	222	220	216	221	220	219	219	223	223	223	222	221	221	222	222	222	222	222	221	221	220	218	219	220	221	224	222	220	218	219	219	219	218	218	219	216	217	217	219	220	219	220	222	222	222	222	221	221	220	219	220	220	220	219	219	220	217	217	219	219	220	221	221	219	218	217	218	220	220	222	221	221	223	223	224	224	222	224	222	218	218	217	219	219	219	219	219	219	221	223	223	220	221	221	218	220	221	221	224	224	224	222	221	220	218	219	221	224	224	219	220	219	217	222	222	222	222	222	221	219	222	220	221	220	221	222	223	224	224	223	224	223	222	221	218	216	215	216	221	221	220	220	220	220	223	223	222	222	220	221	220	220	220	221	223	222	221	221	221	221	223	221	221	221	224	224	224	221	220	221	221	224	225	223	218	216	215	216	220	220	219	222	224	224	222	220	221	220	222	219	219	218	217	217	214	216	216	219	219	218	218	220	220	218	219	222	220	220	220	217	218	217	217	217	219	218	219	219	219	220	221	217	216	217	216	217	217	220	216	217	222	221	220	220	219	218	219	218	220	218	218	218	218	220	218	216	218	217	214	213	215	216	217	216	216	216	216	216	218	217	218	219	219	219	220	219	221	218	217	216	219	219	219	217	216	216	215	215	216	216	216	216	216	216	217	216	216	215	210	213	214	217	218	218	218	215	216	217	216	215	214	217	217	217	216	217	216	213	213	218	209	209	211	213	210	212	214	214	214	212	211	212	215	216	216	216	216	216	214	213	212	211	210	214	212	210	210	212	216	213	214	214	213	216	215	212	211	211	213	212	211	211	211	212	212	211	215	213	214	214	214	214	213	213	212	212	210	211	212	214	214	213	211	210	211	211	211	210	206	207	207	211	211	210	213	213	212	210	209	209	209	210	212	209	210	209	210	210	212	211	213	209	209	209	209	206	206	206	206	207	0	0	0	0	0
214	214	214	214	214	211	210	211	216	216	215	212	210	212	212	213	211	213	215	216	216	216	213	212	214	214	217	213	215	216	216	216	216	215	214	214	216	217	217	218	218	218	216	219	219	219	219	218	216	215	214	214	215	215	215	216	213	215	215	213	212	212	213	213	213	213	215	216	216	216	214	213	214	215	217	218	218	217	219	218	220	218	218	214	218	220	214	213	214	217	216	216	216	215	215	215	214	213	214	216	218	219	217	217	218	217	215	216	218	219	220	219	220	214	213	207	215	215	216	217	219	219	219	217	217	217	217	218	219	219	219	221	218	215	218	219	213	215	217	219	215	216	216	216	217	216	215	216	215	215	216	220	222	221	221	220	220	222	220	222	222	222	219	218	218	218	214	215	215	216	216	215	217	218	219	219	219	214	214	213	216	217	218	222	220	219	217	216	216	215	216	216	215	214	218	213	222	221	220	221	215	216	218	219	219	218	218	218	217	217	217	216	217	217	217	217	217	217	218	220	219	220	219	218	220	220	219	219	216	220	217	222	223	222	221	221	221	216	217	220	221	223	221	220	221	220	220	220	217	219	221	220	218	215	214	215	214	218	218	217	219	217	217	216	219	219	220	221	221	219	221	221	218	217	219	219	217	218	217	219	219	218	216	215	218	220	220	221	220	217	216	218	219	219	219	221	220	220	224	224	224	221	221	221	221	218	216	217	218	219	219	221	217	218	219	220	220	219	219	221	225	223	223	221	223	224	220	218	218	216	219	221	223	226	224	223	217	217	220	218	221	218	218	218	221	221	222	219	220	219	221	223	221	223	222	220	221	219	220	218	217	215	218	218	221	220	221	219	220	221	221	221	221	220	221	220	219	219	222	222	221	221	221	221	220	221	221	223	221	223	223	223	222	221	219	218	219	220	221	219	216	215	215	218	219	217	221	222	221	219	219	217	217	219	218	219	218	218	215	214	216	216	219	220	219	219	220	219	217	216	220	219	219	217	216	216	219	219	218	219	218	218	220	219	220	220	220	213	214	214	213	212	213	214	215	217	219	222	220	218	217	217	218	219	217	217	218	221	216	217	214	218	216	212	210	213	212	214	214	216	215	213	215	217	215	217	218	217	218	216	218	217	218	217	215	217	218	217	217	218	216	215	215	214	214	214	215	215	215	215	214	213	210	210	210	212	215	215	215	214	214	215	217	216	214	213	215	216	215	216	215	215	211	211	210	210	210	205	207	208	210	212	213	213	212	210	211	214	215	215	215	213	214	212	211	209	208	209	213	214	211	212	212	215	212	214	213	213	213	214	213	212	211	211	211	209	209	212	212	212	211	210	212	212	212	212	212	212	213	213	213	211	212	213	213	213	213	211	212	212	210	209	208	204	206	207	211	209	210	210	212	211	207	208	207	208	208	208	208	209	209	210	210	211	212	209	208	207	207	207	209	209	209	209	209	0	0	0	0	0
