490	488	484	483	483	479	477	477	475	475	477	474	473	473	473	473	479	483	488	489	494	481	478	476	478	477	483	485	485	482	472	476	479	481	487	495	495	499	501	497	494	488	492	493	494	494	496	497	494	493	493	495	496	493	489	491	502	502	501	500	492	490	490	493	494	499	500	502	495	491	488	489	499	505	505	505	504	500	500	503	509	508	505	501	497	493	492	491	486	487	490	497	502	503	501	496	494	494	496	495	494	491	490	485	482	488	496	499	499	497	496	498	497	496	492	488	490	495	498	497	492	491	492	496	501	503	497	495	493	493	495	496	496	495	493	492	491	490	491	489	489	497	508	511	506	500	496	492	501	503	503	505	507	511	511	509	510	512	514	513	503	503	502	501	501	499	493	493	495	494	495	496	497	497	495	495	496	496	495	490	491	491	492	498	500	502	501	498	498	496	491	490	493	503	511	510	505	495	489	485	486	488	490	493	496	495	499	503	506	507	501	499	498	510	510	508	508	512	509	508	503	497	492	493	492	498	500	500	503	506	513	514	512	504	500	496	495	495	494	502	510	510	509	508	507	506	505	503	501	506	503	500	501	497	496	498	498	499	500	501	502	499	500	502	504	502	502	504	505	504	506	506	513	512	510	507	503	498	492	489	489	490	495	497	497	496	488	489	508	510	515	511	513	513	513	513	506	507	507	509	511	507	504	505	508	514	517	517	514	515	513	507	501	503	505	502	501	501	496	496	499	500	504	502	497	493	493	495	498	503	508	513	514	516	517	516	510	503	504	506	506	506	503	504	505	510	505	508	512	510	506	507	508	510	510	511	512	513	510	507	510	518	519	519	517	512	509	509	509	507	503	507	510	515	520	522	523	522	522	522	523	521	520	518	519	522	521	519	509	506	501	503	503	499	502	507	506	502	501	503	504	504	509	511	513	510	509	507	505	498	499	503	508	515	512	512	509	510	511	514	516	515	515	518	520	519	517	515	512	516	519	519	517	515	515	517	514	517	519	521	518	512	509	505	510	518	525	526	527	525	513	507	505	506	509	510	515	516	514	515	515	519	522	522	523	526	527	510	515	515	515	514	515	513	517	520	519	513	511	507	507	512	517	515	513	509	506	511	516	515	514	518	518	517	523	528	530	518	516	516	515	513	516	516	521	519	518	517	520	518	519	518	512	509	522	526	525	520	514	511	511	513	519	524	528	529	528	525	520	519	520	522	521	525	530	531	524	524	525	521	520	518	519	522	528	528	525	528	526	527	529	528	523	518	515	512	513	517	512	520	526	530	525	522	519	527	532	538	542	542	533	527	527	526	527	524	520	516	514	515	519	523	526	531	534	534	533	534	539	556	555	553	550	551	551	547	544	546	555	553	549	546	545	556	560	558	552	545	540	537	538	542	542	542	544	546	548	547	547	542	549	552	554	551	551	557	554	551	547	548	548	546	0	0	0	0	0	0	0	0
481	474	467	464	464	465	465	465	466	466	466	461	461	458	462	462	465	471	480	482	473	473	468	465	461	460	463	467	467	471	474	475	478	477	477	478	478	479	479	476	479	481	476	475	476	476	476	476	480	482	482	483	482	482	485	490	491	491	490	485	480	478	480	481	480	483	483	485	483	480	477	476	479	485	485	489	493	492	491	491	491	487	483	484	486	486	486	484	481	479	480	479	480	480	483	483	485	487	487	487	488	487	483	480	479	482	489	493	490	486	489	492	492	490	486	484	488	497	501	499	486	480	477	481	486	492	492	489	488	488	490	491	490	489	487	485	481	477	475	475	482	486	496	498	491	490	492	488	489	488	490	493	499	504	502	501	500	500	500	493	492	492	493	493	493	491	491	490	491	492	494	491	483	479	487	487	486	482	481	479	478	477	479	486	488	488	489	487	485	486	485	485	484	486	501	502	489	483	480	479	479	485	490	491	490	490	490	486	483	483	486	488	485	478	479	497	497	500	499	495	496	493	488	485	485	486	490	498	500	500	504	506	503	494	491	487	489	490	490	490	488	485	481	479	486	487	489	490	491	499	496	495	493	489	486	486	488	490	491	493	491	491	495	495	497	498	500	499	499	500	501	500	497	493	489	492	495	492	489	489	489	484	484	480	480	479	472	479	481	485	490	495	495	500	497	498	500	496	494	501	506	506	502	499	498	499	498	496	491	486	482	480	481	483	485	487	488	488	485	486	489	491	494	496	494	490	488	485	487	491	496	500	507	502	501	500	493	490	489	495	497	495	493	494	494	495	496	498	497	497	500	501	503	506	505	501	502	505	503	504	504	506	507	510	510	509	507	505	503	499	494	496	502	505	505	507	507	507	510	511	507	504	508	512	513	514	511	506	496	497	498	499	492	492	496	499	499	500	499	499	496	498	503	509	508	503	499	494	491	489	490	494	497	500	501	501	500	498	495	496	503	506	507	515	516	518	515	505	506	510	513	513	511	505	504	504	507	510	512	511	511	506	505	504	503	508	515	520	523	511	505	502	502	502	502	503	508	510	515	514	515	514	512	510	497	495	495	496	498	497	496	494	497	501	503	507	508	508	507	504	502	505	506	513	508	504	499	495	497	505	505	508	511	514	518	521	518	511	514	515	513	511	510	510	510	510	508	511	513	513	515	510	506	503	503	504	504	511	510	507	505	509	515	523	528	525	524	518	510	506	505	509	508	508	510	520	520	522	520	518	513	506	508	505	504	503	505	507	505	507	514	513	508	501	498	497	495	497	503	510	518	520	517	512	512	520	522	517	515	511	513	516	518	518	516	513	508	509	509	509	511	514	516	519	523	526	526	527	525	528	530	532	529	519	518	522	521	531	535	537	538	539	547	549	545	553	553	548	541	534	534	534	539	540	543	543	543	541	537	534	536	538	540	539	536	535	539	540	535	535	535	537	0	0	0	0	0	0	0	0
467	462	458	456	456	458	458	459	458	458	461	459	455	454	457	457	456	459	465	474	454	454	454	457	462	463	465	464	464	470	469	472	473	472	471	471	471	468	466	459	459	461	460	458	456	459	459	463	471	474	473	470	469	473	478	482	482	482	480	474	465	463	467	469	473	476	472	466	465	468	477	482	481	480	480	481	480	479	478	482	483	480	479	478	477	476	475	473	475	476	474	470	469	470	474	480	481	479	477	475	483	481	479	476	475	476	479	478	474	473	475	478	479	480	479	480	484	492	494	494	488	472	468	474	481	484	488	486	484	484	486	488	486	485	482	476	471	468	467	470	475	478	481	482	480	477	475	476	475	475	477	479	482	489	489	481	479	488	488	482	486	486	487	485	485	489	486	486	486	491	488	483	479	476	469	468	472	476	480	486	482	470	469	481	486	491	489	483	477	475	477	479	479	476	479	485	482	473	471	470	474	483	487	489	489	487	485	482	482	479	479	483	473	471	470	473	475	484	485	482	482	483	483	483	482	484	487	489	482	485	486	483	479	476	477	480	482	484	486	487	485	482	478	475	474	480	484	485	487	488	487	483	489	479	473	472	476	478	474	470	470	475	481	487	487	487	488	489	490	489	495	492	490	484	484	487	491	486	488	486	479	470	471	469	473	468	477	481	482	477	477	482	485	482	479	481	481	482	486	496	506	507	500	493	487	482	481	484	483	480	479	476	475	474	471	474	477	479	478	485	490	492	495	494	493	490	486	480	478	482	483	485	492	497	491	489	483	478	478	483	488	487	485	484	485	488	490	490	490	491	493	497	500	496	495	490	489	492	492	488	489	492	495	495	487	486	485	483	477	475	479	482	489	491	496	497	494	488	482	481	485	495	503	505	503	498	493	493	494	500	501	489	487	488	491	492	493	494	496	493	488	480	476	477	481	481	483	484	481	481	484	487	490	489	492	494	493	488	485	485	487	491	494	494	494	507	503	492	497	503	506	507	501	496	491	493	490	492	493	495	497	498	504	505	504	505	507	500	499	495	495	500	501	499	499	499	500	504	508	512	507	504	488	491	490	488	482	492	490	489	489	490	496	499	500	500	504	503	502	500	500	498	502	505	502	499	493	489	486	485	492	496	500	501	505	506	510	505	503	500	504	504	505	504	502	497	498	502	507	509	504	505	500	497	497	499	496	494	497	500	500	503	510	512	513	514	515	511	506	500	503	504	504	504	505	506	515	518	519	516	510	499	497	499	492	493	498	502	502	502	504	505	502	496	491	486	482	483	494	504	507	507	509	505	503	509	512	510	508	506	504	504	504	506	501	501	499	501	504	504	508	510	511	509	506	512	516	518	519	516	510	510	509	502	503	507	511	515	522	524	522	522	521	528	532	533	540	540	537	527	525	525	525	533	539	541	541	536	532	528	529	530	531	531	530	525	523	523	525	525	526	525	0	0	0	0	0	0	0	0
464	459	454	453	453	454	457	457	459	459	463	459	455	453	452	452	451	451	452	452	454	456	456	462	466	464	463	461	463	463	466	467	468	466	465	464	464	460	456	454	454	456	455	452	452	456	456	463	467	469	467	462	462	466	474	478	477	477	468	463	461	460	460	463	469	473	473	465	465	472	480	483	479	475	475	474	472	472	473	477	477	476	474	475	474	472	467	464	468	470	470	468	466	467	472	476	466	468	466	466	465	468	468	466	464	462	464	465	465	463	462	466	471	473	472	469	465	468	469	467	462	463	465	467	462	459	461	463	467	473	476	487	485	481	474	470	462	459	459	464	465	466	473	471	475	478	477	472	466	469	471	472	471	469	467	468	467	472	476	478	482	484	482	480	473	475	477	472	471	473	478	477	475	472	472	471	472	475	479	478	477	471	470	473	477	482	482	479	476	474	473	471	464	465	464	472	474	468	462	463	467	474	482	484	485	484	482	481	478	475	475	471	472	471	469	470	466	464	467	474	477	479	480	480	481	481	483	481	478	476	475	473	470	470	471	469	471	476	479	482	485	479	474	470	472	475	478	481	484	484	479	473	472	471	467	466	468	470	468	467	466	466	467	473	479	489	490	490	486	484	481	478	475	473	474	476	480	483	482	477	470	465	456	458	462	468	473	477	478	475	465	468	477	482	477	473	469	474	475	487	494	495	494	488	480	477	479	481	483	484	482	476	474	472	469	466	465	468	475	480	484	485	482	479	479	479	477	477	477	475	475	478	481	486	485	482	477	471	468	473	476	475	474	479	480	484	483	479	475	475	474	476	479	481	475	480	479	481	476	474	473	473	475	477	471	472	475	478	480	481	480	478	475	475	480	486	488	487	481	482	482	489	496	482	481	480	483	481	479	478	478	476	480	486	489	491	491	491	488	489	481	473	470	471	474	476	477	478	478	478	479	483	486	484	486	488	485	481	478	477	481	483	483	482	485	486	486	486	489	494	498	494	490	488	483	481	484	486	490	491	491	496	499	502	500	502	498	492	492	491	496	496	496	496	495	490	492	493	498	494	481	483	484	488	487	483	479	483	484	482	481	485	492	496	494	492	491	493	494	494	489	491	495	496	496	490	490	489	486	485	486	488	490	492	493	501	499	498	496	491	490	491	490	487	485	483	485	495	501	499	496	493	493	491	490	490	490	490	490	486	487	484	492	496	497	500	508	507	503	498	494	496	497	496	494	488	489	496	505	507	502	496	491	490	488	492	496	498	495	493	491	497	496	495	491	487	484	483	487	493	497	500	498	492	494	499	506	507	505	501	497	494	492	492	490	487	487	488	495	502	505	506	503	499	499	500	507	514	515	514	511	504	498	494	495	497	503	510	516	519	519	517	514	508	504	497	502	526	522	521	518	518	514	521	533	539	539	527	519	518	521	524	525	524	516	511	510	511	509	509	506	507	0	0	0	0	0	0	0	0
453	454	448	444	444	448	454	458	457	457	461	460	452	447	447	447	446	448	450	451	453	457	457	463	464	459	458	459	459	459	462	459	460	460	457	456	452	452	450	448	449	450	449	447	449	454	454	460	462	463	460	458	457	460	463	466	466	466	466	464	460	457	457	459	463	465	466	470	468	477	480	481	476	470	468	468	467	466	466	470	470	469	470	472	471	465	459	458	461	458	458	458	456	457	458	457	458	460	459	458	462	463	466	465	461	460	460	461	459	454	456	460	465	467	467	463	449	446	448	452	455	458	461	462	461	459	458	460	466	469	470	468	466	461	457	455	451	447	449	453	458	459	462	469	474	479	475	468	462	464	466	465	467	467	465	462	462	466	469	470	472	475	473	468	463	469	471	467	465	466	471	471	470	467	469	470	471	472	473	473	473	469	468	466	464	466	470	472	473	471	469	466	463	453	454	461	468	461	457	453	457	463	479	480	481	477	475	474	475	463	459	459	459	462	465	462	457	455	460	465	466	471	473	474	471	474	475	472	467	463	467	463	464	466	467	467	468	473	475	472	468	466	468	470	472	473	471	475	478	479	470	465	463	464	468	468	468	467	465	462	461	461	465	468	473	475	484	487	474	469	476	473	471	468	469	473	478	478	476	472	470	465	461	457	457	461	467	470	470	459	455	460	473	474	468	462	456	454	461	467	474	474	469	467	469	470	472	473	474	475	476	477	471	468	463	460	461	465	469	476	481	478	476	474	470	465	463	459	470	471	470	468	469	474	479	478	473	469	464	462	463	463	470	474	478	479	481	481	478	474	466	470	473	476	476	470	468	468	471	471	471	468	466	461	454	458	463	473	478	480	480	476	474	474	478	481	483	480	480	482	481	478	477	470	464	461	469	474	477	476	470	469	467	473	475	480	479	468	465	463	465	465	464	467	471	474	475	477	478	479	482	486	491	489	485	481	476	475	475	476	477	484	483	482	482	483	485	482	484	487	484	483	481	480	480	480	479	480	483	485	486	487	491	496	492	485	484	486	488	488	488	482	485	488	488	482	482	486	479	479	479	474	476	481	482	479	477	478	479	477	476	479	486	478	476	474	476	477	477	478	482	484	487	487	484	483	484	480	478	479	480	482	485	487	492	490	489	481	483	483	482	484	486	482	477	476	475	478	478	476	476	488	489	485	485	484	482	483	479	475	475	479	483	484	483	483	494	497	493	488	476	473	476	483	484	484	485	489	494	502	495	488	484	483	484	486	491	490	488	483	479	481	483	491	488	484	483	484	486	485	487	486	479	466	468	480	485	489	501	496	491	491	489	488	483	478	476	481	487	493	502	501	498	492	488	485	490	491	493	493	492	492	488	486	487	491	497	501	505	505	507	502	499	494	490	491	489	491	494	487	489	505	506	513	524	534	531	507	499	504	507	509	506	500	492	495	498	504	503	503	497	493	0	0	0	0	0	0	0	0
439	438	435	435	435	437	442	446	446	441	441	443	440	436	434	434	440	444	443	447	449	451	451	454	455	454	453	454	457	457	457	456	452	452	450	448	445	445	442	442	445	449	450	450	451	450	450	455	460	461	455	452	451	451	451	458	462	464	464	462	460	455	454	454	457	459	462	462	462	465	468	474	469	466	463	463	462	459	460	462	465	466	467	465	445	443	442	442	441	443	443	445	448	447	446	450	454	456	456	453	450	450	452	459	460	458	456	455	454	450	453	456	458	459	459	453	450	453	454	451	452	453	455	455	456	454	449	451	457	459	462	461	457	455	454	453	450	442	443	449	454	456	454	459	461	461	465	461	460	461	461	461	460	461	462	462	460	458	459	458	457	461	461	458	459	458	466	463	459	461	465	466	464	465	465	465	469	468	466	466	465	462	459	455	456	459	461	466	468	463	461	458	455	448	447	450	457	458	453	449	450	454	464	470	465	464	464	461	456	451	449	450	451	453	453	449	447	448	453	453	450	453	457	457	457	451	453	455	455	456	454	457	459	460	463	465	465	471	472	468	463	462	462	466	472	470	468	471	473	472	468	460	458	460	459	455	459	463	465	461	457	458	462	465	468	467	467	468	466	465	465	463	460	457	456	459	467	469	467	465	464	464	459	456	455	457	462	463	457	453	453	457	459	450	449	446	447	450	455	460	462	460	461	454	454	461	466	466	468	468	466	463	456	453	455	456	462	463	465	468	461	460	464	462	461	462	463	460	457	464	465	461	459	462	472	474	471	466	461	455	455	459	469	470	465	472	474	475	469	469	468	468	472	476	476	472	467	466	464	468	468	465	462	455	454	455	459	466	476	477	479	475	472	474	475	477	477	476	464	468	467	467	467	464	462	460	464	470	471	471	466	464	467	468	470	469	461	456	454	458	459	457	457	450	454	467	474	476	478	480	484	484	484	484	483	479	476	471	472	479	481	484	482	480	478	479	473	473	472	472	477	478	480	482	481	477	471	471	476	479	481	485	486	484	483	483	482	483	484	481	479	478	479	479	477	474	468	469	472	472	471	469	469	471	475	476	476	478	472	468	470	474	477	475	474	470	468	466	467	468	467	467	476	478	475	472	472	472	470	469	470	473	480	480	479	477	475	472	472	474	475	477	477	477	476	473	475	474	473	472	473	481	483	481	481	480	478	476	473	471	468	468	472	476	475	471	469	473	476	472	467	466	470	478	480	482	482	482	483	481	488	482	475	476	479	481	483	485	480	475	470	472	475	480	482	481	482	482	482	480	475	470	463	464	467	473	470	469	479	480	483	486	486	484	482	479	472	478	486	495	499	497	493	487	484	484	486	486	485	484	481	480	481	479	482	483	491	491	493	492	485	487	483	478	483	488	489	488	487	485	485	486	492	490	507	505	498	495	491	486	485	485	484	479	477	480	482	490	489	489	484	488	0	0	0	0	0	0	0	0
440	438	434	434	434	434	436	437	434	433	433	428	428	428	430	434	434	439	439	441	442	443	443	444	447	450	451	449	448	448	449	450	452	447	445	438	430	430	431	436	443	451	455	453	451	447	447	445	447	449	449	445	445	444	447	453	458	461	461	460	458	454	452	451	453	456	456	458	454	455	456	460	459	457	456	456	454	452	451	450	450	449	448	447	443	441	441	442	439	441	446	451	448	445	443	443	449	451	450	449	445	445	445	447	451	452	452	451	450	449	448	447	449	456	454	450	448	450	448	446	444	444	448	451	448	447	444	442	443	448	452	453	449	450	451	452	444	440	439	443	450	453	455	455	454	455	452	447	440	444	446	447	456	459	462	459	456	450	449	448	448	450	453	456	457	457	457	455	454	454	458	459	460	461	462	461	460	458	458	456	455	456	449	447	447	450	454	456	458	455	452	449	447	445	445	447	447	442	444	441	440	444	446	449	455	459	458	452	444	441	445	446	446	448	446	443	447	450	454	450	447	445	443	445	443	440	447	450	452	453	447	451	457	457	459	461	461	466	466	463	458	455	447	450	455	462	463	463	466	464	463	459	457	448	447	456	459	462	463	459	454	456	460	460	458	460	455	459	461	459	456	453	448	444	443	446	450	454	456	449	447	448	450	457	458	459	460	455	449	450	446	448	442	444	445	443	443	446	445	450	454	456	453	453	450	455	458	460	462	462	458	452	452	449	449	450	454	459	459	458	456	454	453	454	458	460	461	460	456	455	456	449	446	449	453	451	450	450	450	451	451	456	463	461	459	456	454	459	463	462	463	467	470	474	475	472	465	462	462	467	464	460	456	451	451	453	455	459	464	473	475	471	469	470	472	460	457	455	457	459	458	459	461	460	458	456	458	465	463	463	464	466	467	467	470	465	460	457	456	456	460	463	461	455	459	461	471	475	477	479	476	472	474	477	476	475	471	468	465	470	475	478	479	476	472	464	460	468	465	467	469	477	482	483	479	473	469	469	469	471	474	476	476	475	474	474	472	468	463	466	477	477	474	469	462	461	459	468	471	472	472	469	469	470	472	474	475	471	465	460	456	458	465	473	470	467	463	461	461	463	463	463	466	464	462	464	463	467	468	467	469	473	471	470	470	469	466	466	469	471	471	470	468	467	470	472	472	472	469	467	468	472	470	465	468	473	474	469	467	467	466	457	458	464	464	466	466	463	462	459	458	458	465	472	475	475	476	478	476	470	458	451	450	459	472	475	478	478	477	471	468	466	467	467	472	475	477	479	478	474	468	461	459	462	467	468	469	466	465	472	477	474	467	466	465	465	472	477	481	492	493	486	480	475	480	481	482	483	479	478	473	472	471	470	471	473	476	479	475	478	481	479	476	472	472	473	478	480	481	478	478	479	481	478	479	484	480	486	482	481	480	479	479	475	472	470	473	479	481	481	479	479	0	0	0	0	0	0	0	0
434	440	441	438	438	435	434	431	428	424	424	422	427	427	427	428	428	433	434	432	430	426	426	430	432	433	435	432	431	431	435	449	451	447	440	430	423	423	424	433	444	448	451	445	443	442	442	443	444	441	439	438	437	438	443	445	450	452	452	454	453	452	447	449	450	452	451	450	449	451	454	455	450	448	444	444	440	433	433	440	447	450	448	445	441	439	442	441	441	441	446	450	446	442	439	438	443	446	446	444	442	443	441	444	444	443	441	441	444	444	442	440	444	447	450	447	443	442	440	437	438	440	441	445	445	443	439	436	437	435	428	432	441	446	449	448	437	435	433	436	440	442	446	449	445	448	446	441	437	435	435	436	434	433	433	432	446	446	445	445	444	446	450	453	454	454	454	450	445	443	447	450	451	445	444	446	449	450	451	449	448	446	441	440	438	441	443	445	445	440	439	439	439	439	438	439	441	435	434	433	434	437	434	432	434	439	442	440	439	439	440	441	442	442	437	436	442	449	450	446	441	437	436	436	436	437	438	440	450	450	449	447	455	456	453	453	453	456	458	456	451	446	442	444	449	455	460	461	455	443	440	440	442	441	444	452	452	453	452	450	449	447	445	445	448	445	439	434	436	437	438	441	441	440	439	442	447	451	450	447	446	446	446	452	460	460	457	449	444	442	440	441	438	434	437	439	439	439	439	442	446	450	450	448	445	442	442	442	452	453	449	446	446	444	443	445	448	452	452	454	451	448	448	448	454	456	455	451	453	451	446	446	444	443	442	448	450	451	452	448	449	453	455	455	453	451	450	450	450	450	448	447	449	458	465	465	459	456	456	454	451	450	450	448	448	451	456	456	460	460	464	466	448	450	455	456	453	451	446	442	447	453	456	456	454	451	448	451	449	449	454	459	462	462	456	456	457	458	459	459	458	458	456	456	457	459	460	457	458	460	462	467	471	471	471	468	464	463	460	460	465	469	467	462	456	452	456	459	461	460	459	463	474	475	474	470	466	466	464	465	463	463	469	471	470	467	465	461	457	458	458	464	458	460	460	457	452	452	464	468	467	468	466	467	464	459	457	455	456	455	450	449	457	458	465	463	450	451	454	454	456	457	458	458	456	454	454	453	451	461	466	462	461	460	458	458	462	462	464	452	456	459	456	455	457	467	470	469	466	463	456	463	463	461	457	458	457	460	449	452	455	455	456	454	457	462	463	459	454	448	450	452	457	464	468	468	467	466	462	449	443	442	444	447	460	467	469	471	471	469	465	461	459	459	459	456	463	471	469	468	461	459	460	462	464	464	462	462	459	460	461	460	461	460	460	461	464	465	458	457	457	462	464	466	463	461	459	463	463	465	463	464	461	461	463	465	469	469	471	470	472	473	472	468	466	466	466	468	468	467	467	470	472	473	475	473	467	465	467	470	475	474	475	472	467	466	467	474	474	473	472	471	0	0	0	0	0	0	0	0
426	426	428	433	433	433	430	427	422	416	416	418	423	425	426	427	427	431	423	423	419	421	421	421	425	427	430	429	427	427	426	432	436	440	434	423	417	417	420	431	438	441	436	431	431	435	437	437	433	434	430	431	432	434	436	438	443	445	445	446	444	442	438	435	438	440	442	439	441	445	452	452	448	444	434	431	431	428	428	429	433	435	437	440	437	439	439	435	433	434	439	443	443	440	432	430	434	438	441	439	440	440	437	436	438	439	439	439	437	434	433	435	438	440	439	434	433	432	430	432	431	433	436	439	441	440	437	427	425	424	424	426	433	440	439	434	431	427	429	430	431	433	434	437	442	442	441	438	435	432	431	429	427	417	421	423	425	427	430	431	432	442	444	444	445	450	443	438	434	434	431	430	436	439	442	443	445	447	448	445	443	439	433	432	432	432	433	437	442	433	429	430	430	429	432	435	435	439	437	434	437	437	434	429	426	431	434	433	437	435	436	434	436	436	431	430	436	442	442	437	431	430	431	430	433	436	440	443	443	432	446	444	449	455	448	443	442	439	443	446	443	439	439	441	449	455	458	457	443	438	438	437	439	440	443	445	444	446	444	443	440	439	438	438	435	431	430	430	434	435	439	437	434	434	436	439	438	438	444	444	442	445	444	445	447	447	448	444	441	439	438	435	436	431	433	434	433	435	428	432	439	446	445	443	439	437	437	436	435	434	431	430	437	438	437	437	442	445	449	448	447	443	445	444	445	444	440	439	444	445	445	443	441	439	436	443	448	451	450	449	447	449	448	447	446	449	449	444	444	444	445	447	448	451	454	451	447	448	450	448	444	439	443	445	445	449	453	456	455	448	443	437	435	436	442	441	439	435	432	436	442	451	453	454	444	444	444	442	442	444	449	455	458	457	452	451	451	443	443	446	448	449	448	448	454	455	449	446	444	446	449	453	456	457	455	458	458	458	459	459	457	453	454	455	451	448	454	458	461	459	456	455	455	456	459	462	465	465	462	458	457	457	459	463	464	462	457	456	455	448	447	450	452	455	454	450	448	446	448	451	452	444	442	439	437	446	449	449	450	447	446	446	447	447	444	442	439	438	442	449	450	452	452	451	448	447	444	443	445	445	448	452	450	448	447	448	450	453	451	448	446	449	449	447	450	453	456	455	452	452	450	446	453	453	446	446	446	447	447	447	446	449	454	455	457	457	447	447	444	441	441	447	451	457	458	458	456	451	445	448	449	450	446	445	446	455	458	460	461	462	460	456	444	441	444	449	456	463	463	458	459	462	463	462	459	455	456	454	452	444	448	452	455	455	455	458	457	456	452	450	453	455	456	455	453	450	449	448	451	454	456	451	450	453	462	464	463	457	456	459	462	462	462	462	460	458	459	460	456	457	457	460	468	469	468	466	465	464	463	462	462	462	470	465	463	458	456	467	467	469	466	463	0	0	0	0	0	0	0	0
411	412	419	423	426	426	421	413	411	412	412	415	418	418	419	422	422	417	416	416	416	418	418	420	422	425	426	425	424	424	420	422	421	423	424	421	420	420	426	429	432	432	428	426	427	428	422	422	424	424	424	423	426	428	429	434	437	439	439	438	434	430	430	430	430	432	434	434	435	439	442	432	435	431	429	426	426	422	422	425	421	420	423	424	426	430	433	426	421	422	424	426	426	426	426	424	424	426	427	433	437	434	431	430	429	429	429	428	425	425	428	431	435	435	430	425	424	425	425	426	426	428	429	434	435	435	432	421	417	418	418	419	423	417	417	420	418	420	422	423	424	424	422	422	427	436	435	432	431	428	427	419	416	414	414	419	423	420	420	420	424	426	428	425	425	432	430	423	424	425	426	428	430	433	437	441	443	442	443	439	430	424	421	421	425	424	422	420	420	420	423	425	426	431	429	428	430	436	435	431	435	435	433	424	424	428	427	426	430	430	430	429	425	424	420	425	430	435	437	433	428	427	425	425	422	429	435	437	428	421	417	416	441	442	436	428	425	426	429	430	430	428	432	438	439	435	438	438	436	438	437	439	439	436	440	440	439	436	435	435	436	435	433	431	426	426	427	428	435	437	435	431	430	431	434	433	433	430	428	424	427	438	437	439	440	441	435	434	438	438	430	431	431	429	428	427	426	423	425	430	434	436	439	437	433	429	431	433	433	423	418	417	421	425	429	432	437	442	446	444	442	439	442	445	445	441	436	435	438	441	442	438	433	431	431	438	446	449	447	446	445	446	445	441	440	443	444	442	440	441	441	443	444	445	446	443	442	441	444	442	437	435	435	439	440	438	444	447	444	434	431	429	428	427	428	426	425	425	428	431	436	442	446	442	439	439	440	438	436	438	442	449	452	452	450	448	440	438	439	442	444	441	438	438	446	452	454	449	442	442	443	444	448	448	445	443	445	448	454	454	452	448	450	451	444	446	452	456	458	455	451	449	444	442	447	459	461	460	459	453	451	452	455	457	455	454	452	450	447	447	448	448	445	446	444	444	441	441	442	442	441	435	432	431	431	435	441	443	445	443	442	441	442	439	440	440	440	442	441	442	440	433	431	433	437	439	440	440	443	440	440	439	438	437	436	435	440	447	447	444	442	442	443	442	442	444	443	442	447	439	435	435	435	438	446	443	442	441	440	437	442	438	439	440	444	443	442	442	441	440	439	439	445	452	455	452	450	444	442	445	450	453	445	439	432	427	427	433	440	445	442	441	443	443	444	447	451	453	452	442	443	446	450	453	453	452	446	445	446	444	442	446	449	451	453	455	457	454	448	448	451	452	450	447	441	441	442	442	440	438	439	442	447	453	457	454	451	444	444	444	445	442	441	443	450	454	453	446	448	448	452	454	456	456	458	459	461	457	455	457	462	462	458	455	455	450	450	454	454	460	459	455	0	0	0	0	0	0	0	0
405	406	408	415	416	416	411	411	410	408	408	407	411	415	414	417	417	413	412	411	411	415	417	417	418	421	423	422	418	415	415	412	413	417	420	421	423	424	424	426	430	429	426	423	420	415	415	415	418	419	418	418	420	422	426	431	434	434	432	432	426	422	422	423	424	427	427	428	429	420	422	423	426	425	422	421	421	421	419	417	414	412	411	412	413	420	424	423	418	418	417	412	412	413	419	419	418	418	418	419	425	426	425	424	425	426	425	413	414	419	423	427	426	423	416	412	409	413	418	418	416	421	424	427	424	423	420	419	415	412	413	414	413	414	414	414	414	414	414	417	415	412	412	414	419	424	424	427	427	421	419	415	414	413	416	421	422	418	416	418	421	422	421	421	420	421	421	420	420	422	424	425	426	425	423	423	426	429	425	415	416	417	420	419	418	415	411	410	409	418	423	426	427	428	425	424	426	432	429	427	426	430	426	423	425	425	421	418	419	424	425	425	427	428	428	422	423	423	425	426	422	424	423	418	421	423	423	423	420	418	418	414	415	425	423	423	426	428	428	422	422	425	431	432	430	430	432	431	434	432	436	435	435	431	426	432	432	433	422	421	428	430	428	416	416	420	424	428	433	435	433	429	427	429	430	430	430	428	426	422	422	423	425	427	431	426	422	422	422	424	424	428	428	429	426	425	424	422	423	427	428	427	430	429	423	421	429	432	430	420	421	420	424	425	425	424	425	424	424	424	428	433	436	433	431	428	432	432	432	436	432	426	424	423	423	425	429	430	428	429	438	437	438	432	431	435	436	436	437	436	437	439	440	439	439	435	434	437	439	434	431	428	429	430	433	438	443	441	433	428	422	422	423	424	423	424	426	427	427	425	428	434	433	436	436	433	432	431	434	435	435	437	436	435	437	436	434	434	435	435	435	435	433	435	436	441	442	445	442	439	440	440	442	443	439	436	433	442	448	451	450	448	447	446	440	441	444	450	452	449	445	441	438	436	448	444	443	449	452	446	444	447	446	447	447	444	437	440	441	441	446	446	441	437	432	431	435	435	439	440	437	433	429	427	425	428	436	442	444	442	440	436	436	432	437	441	443	442	441	439	429	426	423	420	424	432	434	436	436	434	434	431	430	432	434	431	437	442	442	439	437	435	433	435	437	439	436	431	431	425	428	429	431	433	434	434	439	439	436	432	430	425	424	425	429	438	439	437	437	438	437	440	444	449	448	442	438	440	440	441	445	448	436	427	424	419	420	423	426	425	427	429	432	438	441	440	435	432	429	427	428	432	439	445	447	442	435	440	443	443	440	439	441	445	441	440	440	442	442	441	445	446	446	439	434	434	435	436	436	436	438	438	441	445	447	447	441	437	438	436	438	438	437	437	437	438	440	441	443	443	446	449	449	448	447	445	450	448	446	449	453	461	458	453	443	441	446	443	443	440	441	445	0	0	0	0	0	0	0	0
401	399	397	402	403	403	407	407	412	410	410	408	410	414	413	413	413	409	408	406	408	413	415	415	409	411	412	412	409	407	407	407	410	413	415	412	414	417	417	419	421	420	418	415	411	409	407	407	407	412	412	414	415	417	424	429	430	426	423	423	422	416	414	419	421	421	421	413	413	412	414	413	413	413	411	411	411	407	403	404	405	404	402	404	410	407	408	410	414	412	409	407	409	411	413	415	417	416	417	417	417	419	418	419	421	420	411	413	415	415	414	413	415	413	410	409	408	407	407	411	417	419	418	417	415	414	414	410	410	410	410	413	414	414	414	411	407	404	407	412	413	410	411	413	415	416	416	416	413	410	410	410	414	414	417	420	419	415	412	413	418	419	416	417	416	419	420	419	419	420	423	421	422	420	420	422	424	426	421	416	409	411	414	415	415	414	410	409	413	418	417	417	420	421	422	423	424	427	425	422	421	420	422	421	423	424	420	415	417	419	418	418	419	423	426	428	424	420	417	416	412	414	414	417	418	421	419	420	416	414	418	414	406	421	425	424	425	426	426	426	425	427	426	426	426	424	426	428	428	428	430	434	432	427	421	418	424	421	422	421	421	418	418	416	415	412	416	425	429	434	430	429	427	428	428	430	429	425	419	418	417	417	415	415	418	419	417	416	417	416	419	421	421	420	420	422	422	423	420	420	421	422	423	419	415	421	418	418	419	418	420	422	423	423	421	422	421	423	424	422	421	420	422	426	426	426	420	424	426	418	414	414	412	414	418	422	425	427	423	422	420	429	428	426	425	426	417	420	426	429	430	435	436	433	431	425	425	422	420	421	423	427	428	427	426	428	431	417	419	423	421	420	419	419	419	424	427	429	425	421	420	422	429	431	431	430	422	417	421	424	424	425	425	424	431	430	430	428	429	429	427	426	426	428	428	430	432	437	435	433	433	435	433	434	434	432	430	428	431	445	438	441	445	440	437	434	436	432	430	429	436	436	434	433	436	435	432	433	438	436	435	433	434	437	424	427	433	426	426	425	419	414	415	418	419	418	424	429	433	434	433	430	426	422	419	425	433	439	441	439	437	431	427	429	434	441	442	442	439	439	417	411	417	419	418	428	431	428	426	423	422	423	429	432	432	430	433	433	434	438	434	425	421	420	413	418	420	423	422	420	423	425	425	426	428	430	432	434	434	427	419	419	422	426	426	424	428	430	430	431	435	436	437	435	434	424	425	428	433	436	439	439	428	424	424	421	422	420	419	419	419	420	420	422	425	424	421	421	423	424	425	425	426	432	436	427	432	434	441	442	439	437	436	434	432	433	432	432	434	435	437	434	435	434	432	430	430	432	434	436	437	434	436	435	435	436	436	435	435	434	435	435	436	433	433	436	436	437	438	438	442	441	440	440	439	441	439	441	442	445	445	441	438	437	436	434	436	439	439	438	439	441	0	0	0	0	0	0	0	0
394	390	391	393	398	398	403	412	410	409	407	407	409	412	412	411	411	405	402	399	402	406	403	403	400	400	401	404	405	404	404	404	407	407	404	406	408	410	410	412	413	410	406	406	406	405	403	403	402	404	408	411	411	416	422	425	420	421	419	419	417	414	411	410	418	413	412	412	411	408	405	402	403	405	404	404	402	402	401	403	403	401	400	400	403	408	411	413	410	407	405	406	407	406	405	405	409	413	414	416	416	413	409	407	407	408	412	413	413	413	411	409	409	409	407	407	409	409	406	404	407	409	412	408	408	409	408	404	408	412	415	416	416	414	413	409	407	409	410	410	410	412	413	414	414	413	412	411	409	405	407	410	413	413	409	408	405	404	406	408	414	417	408	409	407	412	415	411	411	414	416	414	410	408	410	416	417	416	414	411	405	407	408	405	406	410	412	416	417	415	413	415	415	416	417	419	421	424	422	421	424	425	425	424	421	420	421	420	420	419	416	417	417	419	421	421	419	417	415	413	413	411	411	409	401	415	416	414	409	408	411	409	404	404	423	422	418	419	420	425	424	423	422	423	421	420	419	424	425	424	425	429	430	421	411	412	413	417	415	415	416	416	414	412	407	406	408	412	413	414	413	411	412	414	413	415	418	416	415	415	414	413	410	410	412	410	413	413	413	413	414	416	413	411	409	409	410	419	418	413	411	411	411	411	411	415	417	416	415	414	416	419	420	419	417	418	419	421	420	419	412	412	411	412	415	421	419	415	415	414	416	413	414	410	414	419	422	422	419	418	417	418	421	420	415	410	411	414	420	419	417	415	416	419	420	420	420	418	414	414	423	423	418	416	422	421	413	414	417	420	421	420	413	412	415	415	419	419	419	414	413	415	421	426	426	419	414	412	415	420	421	421	421	420	420	421	423	424	425	423	423	421	423	426	426	428	428	430	429	422	417	417	419	415	419	423	425	428	430	433	428	431	438	432	426	422	421	424	421	421	421	425	427	429	427	427	426	424	422	427	424	428	420	420	419	419	418	419	420	419	412	418	418	417	417	418	419	417	419	428	425	425	421	419	417	421	427	428	426	424	421	418	414	415	417	419	418	419	427	426	415	410	412	417	420	420	418	417	416	414	407	411	414	426	425	423	425	421	421	421	419	409	409	412	415	418	416	409	403	421	422	424	422	422	421	422	420	419	415	412	411	413	417	418	418	416	419	420	420	425	426	427	431	426	415	413	416	419	428	430	429	428	424	425	426	422	417	416	415	415	418	418	418	418	418	417	416	419	420	421	421	422	419	414	421	423	427	427	432	436	432	422	420	422	425	427	428	426	427	427	427	426	423	429	427	427	431	434	437	436	430	428	429	428	425	420	421	428	436	434	434	433	433	431	431	431	432	433	433	434	434	434	434	436	436	434	431	429	438	439	439	437	432	430	430	430	431	431	431	433	435	436	0	0	0	0	0	0	0	0
386	384	385	387	391	391	403	407	408	404	401	401	400	401	407	408	391	391	391	392	394	394	392	392	394	394	396	395	396	397	397	398	400	402	402	401	402	405	405	404	401	399	401	399	398	398	397	397	396	401	402	405	409	414	415	414	413	409	411	411	408	406	404	394	397	400	404	404	402	400	399	395	399	404	403	403	400	400	401	402	397	397	398	397	398	397	397	407	407	403	402	402	401	400	398	398	401	403	405	407	411	412	412	412	411	411	411	412	408	405	404	403	401	401	403	406	407	407	405	402	402	404	402	402	401	403	405	401	403	406	407	405	402	401	403	405	410	411	409	408	407	406	412	413	412	410	406	404	403	401	401	406	409	409	407	404	400	402	404	407	407	404	402	400	405	408	412	407	401	401	407	406	406	404	403	403	406	408	409	408	404	403	400	402	404	404	404	406	409	407	406	411	413	414	415	416	416	417	417	418	422	423	422	421	418	412	407	404	407	410	413	414	414	412	413	411	409	406	403	404	409	409	404	402	400	399	401	402	403	401	401	400	400	402	404	415	414	413	410	404	406	408	415	419	418	418	418	421	423	424	418	418	416	410	406	408	411	409	400	399	404	406	407	407	403	393	395	398	400	396	386	387	401	406	401	402	403	405	407	407	406	405	409	409	407	408	409	410	410	409	409	409	405	403	405	406	407	409	414	408	408	408	408	404	405	410	411	411	410	410	411	412	412	413	412	416	417	416	416	414	412	411	410	411	414	413	415	414	414	414	413	410	411	413	415	420	420	412	407	402	401	401	403	406	409	409	409	413	412	411	410	409	417	419	418	417	415	409	408	408	410	412	410	410	409	409	412	413	409	408	409	408	404	402	404	405	411	408	412	411	411	408	409	415	416	408	410	411	408	410	414	415	418	416	418	419	421	422	419	420	418	418	420	423	427	427	426	419	412	412	415	411	407	407	410	414	415	421	421	420	416	414	412	414	414	418	417	417	418	416	415	418	422	422	421	422	421	420	418	418	415	412	415	414	412	411	412	412	411	407	409	409	417	417	416	416	415	414	414	414	414	411	407	406	414	417	418	419	417	416	416	416	414	413	413	412	413	413	414	414	417	421	421	418	413	409	410	414	417	416	411	403	404	408	413	415	416	416	411	410	409	405	403	404	407	409	409	406	401	413	423	423	418	417	416	415	410	408	409	409	413	413	412	417	416	416	414	413	419	417	419	419	419	413	412	413	416	417	414	413	409	417	419	422	423	421	414	410	409	412	415	417	414	413	415	413	416	417	417	416	421	419	417	412	411	418	418	419	418	420	420	417	414	418	419	421	420	417	420	424	421	418	419	419	418	423	423	426	426	419	413	416	420	420	419	417	417	417	428	436	436	433	425	424	426	427	429	427	427	426	427	427	427	430	430	427	423	423	425	430	433	432	427	425	426	427	426	426	426	427	426	430	0	0	0	0	0	0	0	0
374	377	382	387	391	391	397	400	401	397	392	392	391	391	392	393	381	381	382	385	388	386	387	387	387	387	387	386	387	388	388	394	398	400	400	398	397	396	396	396	392	392	390	388	390	390	388	388	388	394	400	403	408	413	409	402	396	396	400	400	406	401	391	388	391	398	401	395	393	392	393	396	400	403	402	399	396	396	390	388	389	395	396	394	392	391	389	390	390	391	392	396	399	399	398	397	397	396	394	391	399	405	408	406	399	397	399	400	397	401	401	400	397	397	400	403	403	401	400	401	399	397	396	395	396	399	399	400	399	400	396	396	393	396	402	406	408	408	405	402	401	401	405	405	402	400	400	399	397	394	398	403	410	408	405	397	391	390	402	403	402	395	388	391	399	405	404	400	397	394	394	393	400	402	401	400	400	401	401	404	402	401	399	399	400	401	399	401	401	401	403	404	410	414	415	414	414	413	410	410	412	415	417	416	413	406	399	395	395	399	407	403	405	408	409	409	404	404	405	409	424	421	409	401	399	399	398	396	396	396	396	398	399	399	399	398	395	392	394	395	394	396	408	406	405	402	402	405	402	403	413	409	403	400	401	401	403	401	394	394	396	398	401	399	394	392	391	394	395	379	372	373	395	401	390	393	396	401	403	401	400	401	402	405	404	405	405	402	404	408	407	397	398	401	403	403	404	405	407	408	405	407	403	399	400	401	405	401	402	401	401	404	406	407	407	408	411	412	412	412	408	401	399	399	403	409	415	414	411	410	405	399	397	407	415	417	408	407	405	402	396	392	396	401	406	406	404	408	407	407	407	410	413	415	418	417	413	406	403	401	399	401	402	407	409	410	410	407	404	403	404	405	401	399	401	399	400	405	407	407	406	404	403	402	401	404	409	410	407	406	408	411	414	414	416	419	420	417	415	410	409	409	409	409	406	414	412	400	399	398	404	404	403	404	406	409	411	412	413	413	413	411	406	407	409	407	408	409	407	405	403	402	405	407	411	417	417	414	406	407	410	412	412	410	406	403	406	405	404	403	404	412	414	414	412	412	410	410	410	409	409	403	399	405	411	411	410	412	413	413	415	417	415	414	413	413	410	406	402	404	409	414	416	408	405	405	405	403	410	414	415	411	406	397	406	399	406	409	410	409	406	402	401	401	403	404	408	405	399	403	410	413	415	413	409	404	403	402	403	405	413	408	407	409	411	413	415	411	411	411	414	414	413	412	413	414	415	412	409	406	403	411	414	416	418	415	410	409	409	409	409	411	409	408	411	410	413	413	414	418	420	418	414	412	410	417	416	414	413	415	418	416	415	417	419	419	414	415	414	415	416	416	416	415	412	412	413	410	411	409	408	408	411	414	414	415	415	413	413	421	421	419	416	414	415	418	413	418	418	421	420	419	419	421	422	419	417	417	420	424	424	425	422	420	421	423	422	422	423	424	423	422	0	0	0	0	0	0	0	0
371	376	380	383	386	390	390	392	390	387	383	383	382	383	382	379	372	372	376	381	382	382	381	381	384	383	383	380	378	382	382	388	394	397	396	390	385	381	380	380	382	384	383	386	391	389	387	388	388	390	395	399	400	401	397	395	394	395	395	395	380	381	383	385	388	389	393	390	389	390	392	395	398	400	398	392	387	384	384	382	387	392	392	390	390	387	386	385	385	384	388	392	393	391	391	392	394	394	394	393	394	395	394	392	392	394	393	392	390	390	394	397	396	396	397	398	398	397	398	398	394	391	393	392	391	392	393	395	397	394	390	389	393	401	406	405	404	403	397	395	396	396	399	401	402	403	402	398	394	389	393	400	403	405	401	389	387	385	387	391	392	389	385	386	389	393	398	402	400	392	391	389	389	395	400	400	398	397	397	400	400	399	396	396	398	396	395	395	396	395	396	395	395	394	393	393	395	397	398	399	400	402	407	405	404	404	397	392	392	392	394	399	401	395	393	393	391	394	397	407	406	405	401	393	389	389	388	388	389	391	392	394	395	395	395	396	394	389	388	387	391	394	388	391	400	397	397	397	398	398	399	395	394	395	396	396	394	390	392	393	394	397	398	397	390	389	390	390	379	371	376	377	379	385	391	381	380	380	382	386	391	389	388	396	401	392	393	394	394	393	393	391	392	394	393	393	397	398	398	400	402	400	395	393	396	399	403	399	400	398	398	398	398	398	398	399	402	404	405	410	404	396	394	395	398	403	414	413	409	401	397	394	393	397	399	400	399	400	403	403	400	393	392	395	402	405	403	399	401	404	404	405	411	414	413	411	409	403	398	395	395	394	397	399	406	409	406	400	398	398	399	399	400	399	397	394	397	400	400	399	399	397	399	396	398	403	407	407	403	400	404	408	408	404	401	406	404	400	402	399	401	405	407	406	405	404	399	399	399	396	394	395	397	398	403	401	399	407	409	411	411	408	405	402	401	401	401	405	405	403	401	401	397	396	395	399	400	402	400	401	405	408	407	405	397	391	398	398	398	398	401	403	410	410	407	404	405	406	405	403	400	397	393	402	403	403	403	404	405	406	408	412	409	409	410	410	405	401	399	396	394	394	396	393	401	400	399	401	402	408	407	404	402	394	391	392	391	398	406	406	403	399	397	397	399	401	401	398	395	394	394	395	397	400	397	396	399	398	398	398	400	405	405	405	405	405	410	405	406	406	409	407	403	402	407	408	410	410	410	402	395	399	406	408	410	411	411	409	409	409	409	406	406	406	405	407	407	407	407	414	418	417	415	412	415	416	413	415	415	415	413	413	413	411	414	414	414	413	413	411	409	408	407	407	409	413	414	411	408	405	403	405	408	411	412	413	414	411	406	403	403	411	409	407	403	400	404	404	411	416	415	412	405	405	407	411	411	410	411	417	418	416	413	413	412	415	419	419	420	419	419	415	0	0	0	0	0	0	0	0
374	374	378	380	381	383	383	384	383	382	378	378	375	374	371	369	367	367	373	377	379	380	381	382	382	381	378	375	372	374	381	381	389	390	389	383	381	378	378	378	378	378	380	382	388	387	384	383	383	388	392	394	392	392	392	393	392	389	383	381	381	381	382	385	388	388	383	383	382	384	385	384	386	385	384	384	386	386	386	387	384	388	392	391	388	384	380	375	377	377	382	389	390	389	388	387	390	391	395	396	398	395	390	386	387	387	386	384	386	387	389	389	393	393	394	395	394	390	390	392	391	389	390	390	389	390	386	387	389	388	387	388	393	398	401	399	396	393	389	389	390	389	391	395	398	400	400	393	391	390	390	394	397	393	388	385	384	383	383	386	389	388	385	384	386	388	391	395	392	393	392	392	387	384	385	387	391	392	394	397	398	395	394	391	391	390	387	390	391	387	393	390	387	388	387	387	388	390	392	393	395	393	396	390	386	384	383	380	380	391	395	398	395	383	382	383	387	391	390	392	400	399	391	389	386	383	383	381	378	385	388	391	391	391	394	398	392	388	386	386	386	387	387	387	388	388	390	389	394	393	391	392	388	390	384	385	387	388	389	391	392	395	398	395	388	385	387	387	379	371	376	376	377	382	378	378	377	377	379	382	383	381	384	392	394	393	392	390	391	389	388	387	387	386	387	391	393	394	393	390	391	390	389	391	395	395	397	394	394	396	396	395	393	393	393	395	397	398	400	402	402	395	392	391	394	398	401	403	400	396	392	393	394	395	395	391	389	386	383	382	387	389	392	391	394	398	401	396	396	399	398	391	395	399	402	404	405	401	393	387	387	393	392	393	395	397	395	393	393	395	398	396	394	390	389	388	391	395	396	396	395	393	394	392	394	396	396	394	393	394	396	396	395	396	396	395	399	398	397	396	396	398	403	406	403	401	400	397	395	394	393	393	397	399	397	394	395	397	398	401	400	402	404	402	398	398	399	400	399	400	399	397	392	389	388	391	397	396	395	396	399	403	403	399	391	392	393	394	395	395	399	401	407	394	389	389	394	403	400	398	396	395	395	390	389	390	393	396	398	401	402	401	404	405	405	403	398	397	395	392	393	396	395	390	388	394	394	397	401	404	405	398	393	390	391	389	388	389	391	390	390	391	394	395	395	393	390	393	390	392	389	390	391	390	387	389	386	386	388	393	401	402	401	399	394	395	394	401	402	405	402	400	396	394	396	401	401	404	401	392	388	388	389	391	395	397	399	404	405	393	393	397	397	395	395	396	396	395	396	402	410	412	410	406	405	408	407	403	405	408	411	409	408	407	408	409	411	414	413	408	405	403	402	403	405	410	412	412	405	400	397	399	401	406	410	411	414	411	406	400	397	399	404	407	403	395	393	393	396	398	398	399	406	408	408	410	410	408	409	409	411	417	411	410	409	409	409	411	412	411	417	415	0	0	0	0	0	0	0	0
375	375	378	378	376	375	375	375	376	375	371	371	370	369	367	365	364	364	365	371	375	377	379	380	380	379	377	373	369	374	378	378	380	381	379	379	377	375	374	374	375	375	377	381	384	383	380	378	378	382	386	388	388	387	390	389	387	384	382	383	383	383	383	383	388	389	384	375	373	374	376	378	381	381	381	379	384	386	386	386	384	385	387	389	385	377	372	369	369	372	378	384	384	385	384	383	384	384	386	389	394	392	388	385	381	377	378	380	383	386	386	386	388	394	395	392	390	388	385	383	380	378	377	384	389	383	383	386	387	386	385	386	391	393	390	389	387	384	383	384	384	386	387	388	388	384	383	385	388	389	385	386	385	384	383	382	382	382	383	385	387	387	383	380	379	382	387	388	384	383	386	385	386	380	379	383	388	390	388	386	386	385	386	382	384	384	381	378	376	380	394	390	385	385	384	384	387	390	390	391	391	388	386	382	379	378	377	377	380	388	392	392	387	382	380	379	379	383	385	382	384	387	385	384	381	379	379	378	376	377	386	388	389	389	394	396	391	386	383	380	374	375	386	385	385	374	377	374	389	387	387	381	381	377	372	376	378	384	387	388	390	391	391	389	385	382	385	376	376	370	369	379	379	386	377	376	376	377	379	381	383	384	387	388	390	388	387	389	387	385	385	382	380	378	383	389	390	392	388	387	385	385	383	377	377	390	393	392	393	394	396	392	391	389	390	393	394	395	395	389	386	382	388	385	383	385	388	391	394	393	388	390	393	398	395	389	384	380	380	382	383	384	384	385	384	384	383	378	378	375	376	380	383	383	384	386	387	390	391	386	384	386	389	391	390	390	390	388	385	387	390	390	391	392	392	391	388	387	390	389	388	387	386	388	389	391	391	390	389	389	386	386	386	392	395	394	394	392	388	384	384	386	393	395	394	390	389	392	393	394	393	393	390	389	386	384	387	390	394	397	392	393	397	399	399	397	397	395	391	390	393	392	385	385	387	387	390	391	389	391	393	395	395	394	386	383	383	385	387	389	387	387	386	373	372	376	383	387	396	393	393	392	389	385	382	383	381	381	381	383	389	395	399	401	400	396	394	392	392	390	390	390	393	387	387	387	388	385	391	392	392	393	388	385	387	386	385	385	387	388	388	389	390	391	392	390	386	389	391	388	388	389	391	390	386	383	380	379	383	392	396	398	398	395	390	390	390	387	387	388	393	395	393	392	392	394	395	399	394	385	385	383	387	389	391	394	397	397	392	391	391	391	390	389	389	389	392	389	390	392	395	399	399	400	398	396	396	396	398	403	405	407	405	403	402	401	403	404	405	403	400	400	400	400	404	407	411	411	406	399	395	394	396	398	402	403	405	410	405	401	394	396	399	402	396	394	392	392	393	394	396	398	404	406	406	402	398	402	403	401	402	406	403	398	394	398	398	400	401	406	406	404	0	0	0	0	0	0	0	0
372	372	374	371	370	368	368	369	368	366	367	368	368	367	365	364	358	358	361	366	372	375	377	376	376	373	371	372	372	375	375	375	375	375	374	373	372	373	373	373	373	374	376	379	381	380	377	374	377	377	383	386	386	385	386	385	383	380	382	384	384	384	383	383	386	387	385	375	370	369	372	375	377	378	377	378	380	382	383	383	382	381	382	383	382	375	372	368	371	370	375	379	377	377	377	376	378	380	380	380	386	386	384	380	377	375	375	376	379	382	382	384	387	389	392	390	378	379	381	381	380	379	378	377	379	380	381	384	384	382	381	380	379	384	382	381	378	375	373	376	381	383	384	382	381	379	380	383	385	386	386	375	374	380	378	379	380	382	382	385	383	381	378	373	373	379	383	383	378	379	380	379	376	378	377	377	377	381	379	373	372	374	373	375	377	377	376	373	372	373	375	378	380	384	381	383	386	388	388	386	386	385	382	379	375	373	372	373	376	380	384	386	383	379	375	375	374	380	381	379	380	378	378	378	377	376	376	377	377	377	378	382	381	379	378	379	381	380	372	368	366	374	374	377	376	374	377	376	375	376	383	379	370	368	368	372	374	377	379	380	386	387	382	381	380	379	378	373	372	365	380	382	384	380	372	372	374	375	377	379	382	383	382	385	386	386	383	383	381	371	369	368	370	380	382	384	388	390	385	385	386	385	379	376	379	380	382	389	388	384	380	378	379	380	382	383	384	389	390	382	377	375	380	383	384	384	385	384	383	385	384	383	379	382	380	381	380	379	379	380	383	382	383	382	378	379	377	377	375	374	373	378	379	380	382	380	381	388	392	389	385	383	384	388	385	383	384	383	383	385	385	386	387	388	389	389	387	386	385	386	384	383	383	385	388	389	386	386	386	389	386	384	383	386	389	393	393	391	389	387	386	382	382	377	375	380	385	388	390	391	389	388	388	383	385	385	382	383	390	388	389	389	386	381	389	392	389	386	385	386	381	379	381	383	381	378	376	374	379	386	389	390	388	386	378	378	379	380	381	382	374	370	369	370	372	371	375	378	384	389	390	388	383	379	379	379	383	386	385	383	385	391	394	395	393	389	386	385	387	386	386	386	387	386	385	381	380	381	386	385	386	385	384	379	378	383	383	383	383	385	385	385	386	390	390	390	387	387	388	387	386	389	391	389	386	383	377	377	381	387	387	388	386	390	388	389	389	387	384	382	387	391	391	387	388	389	389	389	385	387	384	385	385	386	388	389	391	392	392	391	390	387	385	386	386	385	384	384	385	389	391	395	398	397	390	391	390	391	391	398	401	401	397	398	399	397	397	400	402	401	395	394	395	397	399	401	405	405	402	396	391	391	391	391	393	389	389	397	399	395	389	392	393	397	397	392	392	390	390	392	395	396	397	400	402	398	395	393	390	389	390	391	392	396	394	395	395	392	391	388	391	393	0	0	0	0	0	0	0	0
362	362	364	363	364	363	363	363	364	362	364	364	364	364	363	360	358	359	359	364	368	367	368	367	367	369	371	374	374	375	375	375	374	374	373	373	373	372	375	375	375	374	374	374	377	378	375	374	375	375	380	381	382	382	382	372	373	375	374	380	383	383	381	379	379	381	377	373	366	365	369	372	374	371	371	373	374	377	378	378	377	377	377	377	376	375	375	373	372	372	372	375	371	372	371	370	368	372	373	376	377	378	375	374	374	373	373	373	375	376	379	381	378	375	373	372	375	376	379	380	380	378	378	377	377	377	380	379	379	379	379	379	377	373	371	371	370	369	371	375	378	381	381	378	375	373	375	378	378	380	379	375	373	371	371	371	372	370	370	373	377	377	372	370	368	374	378	381	374	376	376	375	373	370	372	373	373	372	369	370	370	370	372	373	375	374	374	370	369	369	370	371	373	368	372	382	384	386	386	382	375	379	378	376	373	371	369	370	370	375	376	376	376	375	372	370	369	376	375	371	371	373	373	371	371	373	374	375	377	378	376	374	372	371	369	370	369	370	369	365	366	366	368	375	370	376	377	378	372	371	369	369	368	366	365	366	373	373	373	374	384	374	373	375	375	376	369	368	365	365	366	372	370	372	372	372	373	373	373	375	378	377	376	378	379	381	381	379	372	372	376	375	376	383	382	380	379	380	385	381	381	380	373	375	375	376	377	379	379	375	372	370	371	374	378	378	374	373	374	375	374	374	374	374	377	377	381	381	379	378	377	375	372	375	377	375	374	373	374	379	382	384	381	377	375	374	374	374	373	372	370	377	378	378	377	377	378	383	387	385	382	379	377	382	382	380	380	381	381	382	383	383	384	383	382	382	381	383	382	382	381	378	379	383	380	371	373	382	383	380	380	379	379	379	385	389	392	391	388	385	383	381	374	372	373	373	373	378	387	387	386	386	383	383	385	385	384	383	385	385	384	382	377	380	382	386	386	384	379	379	378	376	377	377	375	375	371	370	369	374	375	374	375	379	377	374	376	378	378	373	373	369	368	371	373	372	374	374	373	375	378	378	376	376	376	377	382	384	383	383	371	376	382	382	380	381	379	378	380	381	381	382	378	373	375	378	380	380	380	380	382	382	381	377	376	377	383	382	380	382	383	382	380	377	378	378	380	379	384	385	384	386	388	387	380	377	376	377	380	383	384	384	384	386	386	383	381	380	380	381	382	381	381	381	381	384	385	385	382	384	384	385	386	383	384	383	386	387	385	386	383	382	381	381	384	382	381	380	381	383	387	388	385	386	387	387	388	388	388	390	393	386	391	394	394	393	393	395	389	389	388	388	388	384	382	381	384	392	396	391	381	383	385	389	387	384	384	385	386	387	388	391	391	392	394	390	390	387	385	389	392	393	394	397	400	394	393	392	388	385	386	386	391	393	393	392	392	389	386	385	381	380	0	0	0	0	0	0	0	0
353	353	356	356	357	358	358	360	360	360	361	361	361	361	360	357	355	358	358	361	362	364	364	364	364	364	367	371	373	373	374	374	373	373	372	372	369	369	370	370	370	368	365	367	370	368	367	367	367	367	370	373	373	372	368	364	365	367	368	371	370	370	366	367	370	372	366	365	366	366	368	369	370	369	368	368	370	371	373	373	373	373	371	371	371	371	368	370	371	372	372	372	371	369	367	365	369	371	374	374	372	368	368	368	369	371	371	370	369	371	373	375	375	372	371	371	370	374	376	377	375	375	376	378	380	383	383	377	375	374	376	377	376	372	368	367	366	365	366	371	375	377	377	374	372	371	370	372	373	373	372	372	371	370	367	366	363	364	367	369	368	371	365	362	363	366	373	373	373	372	371	373	372	369	367	368	369	371	369	367	365	364	367	371	370	367	366	368	367	366	364	362	363	365	368	369	372	377	385	380	375	375	375	374	371	366	363	367	370	372	372	371	371	371	369	368	366	371	371	367	366	367	368	367	367	371	371	373	375	376	375	372	372	372	371	368	363	362	363	365	367	367	367	366	372	377	378	374	370	367	365	366	365	366	366	370	370	371	371	368	360	365	368	369	369	366	365	363	363	363	366	370	371	371	370	370	370	368	366	369	373	375	376	376	372	374	372	367	362	370	372	372	375	377	377	377	375	372	373	378	378	379	370	372	373	372	370	372	374	375	371	365	362	364	365	368	369	366	363	363	365	369	371	373	373	371	371	374	374	374	373	371	370	365	371	370	367	363	368	374	379	379	380	377	375	374	372	370	370	371	371	375	368	366	367	373	375	378	380	378	376	374	370	375	379	379	378	377	376	371	370	372	377	379	379	378	375	375	374	372	373	369	370	370	369	370	370	372	379	377	376	375	373	372	370	365	371	375	376	371	373	374	371	370	371	371	370	370	383	383	382	383	381	378	380	377	380	382	381	382	379	378	377	378	379	381	378	379	377	375	374	374	366	364	362	364	370	370	371	369	364	363	364	375	374	372	367	365	366	367	371	369	371	372	374	370	367	367	366	366	368	370	372	374	375	375	377	368	368	362	381	368	377	378	376	375	374	374	375	378	377	375	374	373	373	372	373	373	374	377	377	378	381	375	370	370	372	373	375	377	375	375	375	375	376	378	379	380	383	385	384	381	381	380	377	376	375	375	378	379	379	379	379	381	380	377	377	377	376	378	378	377	376	374	374	376	377	380	382	380	372	373	373	376	378	382	381	381	375	375	378	378	378	376	380	383	381	377	374	378	379	380	382	382	382	378	377	378	384	384	383	383	380	379	383	389	389	384	384	383	381	381	380	380	379	380	381	385	386	382	377	379	380	382	381	382	384	382	382	385	385	387	387	388	388	388	387	384	381	382	382	384	389	393	396	393	389	386	383	381	380	379	378	387	390	390	388	383	379	379	377	376	0	0	0	0	0	0	0	0
346	346	348	352	354	354	355	355	356	357	356	353	353	353	354	353	353	356	356	360	362	362	363	361	359	359	364	368	371	372	374	373	373	370	368	367	365	363	363	363	363	362	362	363	366	366	365	364	363	363	363	367	369	369	366	358	357	362	367	368	365	365	363	362	363	361	362	363	365	366	367	366	361	360	359	362	364	365	365	363	363	365	365	362	361	362	363	366	368	368	367	365	367	367	365	366	368	370	372	374	370	367	366	365	366	367	368	368	365	367	370	369	368	367	363	361	361	365	372	373	371	371	373	374	373	373	373	374	370	370	371	373	373	371	369	365	364	362	362	365	370	372	372	367	366	367	368	368	368	368	368	369	368	367	362	361	361	361	364	368	367	362	358	359	362	363	366	371	372	370	371	371	370	368	366	365	365	367	369	366	361	357	359	360	366	362	363	367	364	362	359	357	359	364	367	366	361	360	360	362	371	368	371	372	370	362	361	359	366	370	371	369	369	367	366	368	367	367	360	359	361	365	365	365	364	366	370	370	368	367	371	375	375	374	371	364	361	361	364	366	368	369	366	364	361	361	360	358	358	363	363	363	363	363	354	358	366	366	363	359	360	362	363	361	360	359	359	356	357	359	361	370	370	370	370	369	368	366	367	368	369	369	370	370	369	371	369	365	360	359	368	369	362	366	368	371	369	364	362	363	373	373	367	365	366	365	368	371	373	372	368	364	362	362	364	364	367	367	359	356	357	363	364	369	369	368	365	366	369	369	368	368	366	362	362	361	360	362	367	368	368	374	375	375	375	373	366	358	359	368	371	365	364	366	366	367	366	366	367	370	369	367	363	360	372	373	374	373	374	369	369	370	372	371	369	373	374	373	371	366	367	367	365	366	366	367	369	369	371	373	371	368	365	364	362	363	367	369	364	362	365	367	368	368	366	365	364	367	370	376	378	377	375	375	374	373	375	375	370	375	374	374	374	374	371	372	374	377	375	373	370	365	362	361	361	361	365	368	369	370	368	362	363	366	368	365	364	367	365	365	367	368	366	368	365	365	362	359	361	363	365	369	371	373	372	370	370	367	369	365	358	360	373	366	366	371	371	371	362	365	375	374	373	371	373	370	371	371	370	372	374	376	376	374	365	362	363	366	369	372	371	368	369	368	372	375	377	378	381	382	381	379	378	375	373	372	372	372	371	371	372	371	372	374	370	371	372	374	374	374	375	373	371	368	368	370	373	376	377	375	371	372	374	375	376	373	371	372	373	374	375	376	375	373	374	372	371	370	370	371	371	376	376	376	376	372	373	376	375	378	379	377	373	375	376	383	382	371	371	376	376	377	377	376	379	378	380	380	380	377	375	377	378	376	378	380	380	379	379	381	383	382	381	381	383	383	384	380	377	373	374	379	384	389	389	386	381	376	374	374	369	370	371	378	385	385	383	381	376	372	372	372	0	0	0	0	0	0	0	0
340	344	344	349	353	350	350	350	350	350	346	346	346	346	349	351	350	353	353	357	360	361	360	360	356	356	359	362	366	370	372	370	370	367	365	362	361	359	357	357	357	358	358	362	363	364	361	362	360	360	361	363	368	366	361	357	354	355	362	366	366	366	360	357	354	355	357	357	356	356	356	359	358	358	359	357	354	353	355	358	358	357	357	358	354	355	356	356	357	359	360	360	359	357	360	362	366	368	368	367	365	362	360	360	361	365	367	366	363	362	361	356	357	357	354	351	348	357	363	367	367	367	370	368	369	370	370	369	364	363	364	366	367	364	366	366	366	364	361	361	362	360	360	363	363	363	363	365	362	361	361	365	364	361	361	360	356	356	358	361	359	358	356	358	361	364	366	364	366	370	371	366	365	365	363	361	362	363	362	363	362	361	359	357	359	361	361	362	364	360	356	357	363	366	357	361	359	356	355	357	357	360	360	369	367	364	362	361	358	359	361	363	363	360	361	362	365	365	362	360	365	365	359	357	362	360	357	355	356	366	368	366	363	362	360	354	358	357	363	364	365	365	362	359	355	353	356	357	356	352	354	359	359	359	347	351	353	354	358	356	357	359	360	360	358	354	355	357	356	356	358	363	366	368	364	364	363	364	366	362	361	362	364	365	366	365	357	356	358	357	358	358	359	360	362	364	364	359	355	355	359	360	361	360	362	364	367	368	369	367	364	362	361	361	361	362	358	357	357	356	354	356	361	360	359	357	356	356	362	365	362	360	360	360	360	360	358	363	366	364	361	362	370	371	371	366	359	353	354	358	362	360	359	359	360	364	363	363	362	361	361	359	356	352	351	360	363	365	367	371	372	372	364	359	358	359	361	362	364	365	364	364	363	364	364	365	368	365	363	368	366	363	358	355	354	359	365	365	362	364	365	366	365	363	363	364	364	366	370	370	371	372	371	370	370	369	364	359	361	369	369	365	362	367	366	361	360	354	355	365	364	361	358	356	358	360	362	364	366	365	364	363	364	364	364	360	362	363	363	360	359	361	359	363	365	364	357	356	357	360	363	370	371	367	365	368	368	361	368	355	355	350	358	360	360	356	349	352	356	358	358	359	359	359	367	367	367	368	367	364	363	365	361	362	360	357	358	360	360	361	362	364	366	366	368	371	374	375	376	377	375	373	370	368	366	365	367	366	365	363	363	360	359	368	368	367	370	374	374	372	372	370	366	364	365	367	372	375	373	372	369	372	372	372	369	367	366	367	368	372	372	372	372	371	369	367	368	370	368	367	366	366	370	371	372	370	369	369	369	373	376	371	369	370	370	369	367	364	368	371	373	373	375	378	376	370	373	375	375	374	375	376	374	373	372	374	370	367	367	368	367	365	365	367	373	373	376	377	371	369	372	377	382	381	378	371	372	370	368	366	366	366	365	367	376	376	380	377	373	369	369	368	0	0	0	0	0	0	0	0
336	339	339	344	348	347	348	348	350	349	343	341	341	342	345	344	346	347	347	350	353	355	354	354	352	352	353	354	360	366	364	365	365	364	360	359	358	357	354	352	352	353	357	356	354	357	359	361	361	361	361	355	356	353	354	353	355	353	352	353	354	355	355	355	355	355	355	355	355	354	351	350	353	357	359	358	355	354	353	354	354	355	355	355	355	357	359	355	354	355	357	357	357	356	356	353	350	352	357	360	363	361	359	357	359	362	366	364	361	358	353	353	357	359	358	354	351	349	352	355	358	361	363	359	364	364	366	364	358	357	355	354	355	356	356	357	361	362	356	351	351	356	358	360	361	361	360	355	352	354	359	361	358	358	359	357	354	352	353	354	350	352	356	359	362	358	351	354	357	359	361	367	362	360	357	356	354	354	358	358	361	360	356	355	357	360	362	359	358	356	350	347	344	345	352	356	357	353	353	351	354	356	358	357	359	362	360	357	355	355	356	357	356	356	357	357	358	358	358	356	361	365	360	356	352	353	354	355	362	367	366	364	359	357	353	351	350	351	351	354	358	359	357	355	347	349	351	352	347	347	349	350	354	353	344	346	348	349	349	352	353	357	358	356	354	350	354	355	355	355	357	361	365	366	365	362	362	362	358	359	360	362	365	366	362	352	349	351	354	356	357	356	357	358	358	357	355	358	354	352	352	356	356	356	358	357	356	362	364	363	359	356	357	355	355	354	354	356	355	357	358	352	352	352	348	352	352	352	356	359	359	358	358	358	350	351	353	355	357	360	359	359	360	360	363	360	356	353	349	350	358	357	353	353	353	354	358	364	365	360	353	350	352	350	349	352	358	362	365	366	366	364	361	358	355	352	349	351	357	366	366	364	359	359	360	361	367	361	359	360	359	355	351	348	350	355	363	364	361	362	363	363	362	360	361	360	362	362	367	370	370	368	361	360	361	359	353	355	363	361	359	353	359	360	361	357	351	350	352	354	356	356	355	354	355	357	358	358	356	356	356	357	357	359	358	358	357	356	357	358	358	358	357	359	360	351	356	355	355	360	363	367	366	363	362	362	362	362	358	353	349	341	344	346	349	351	351	348	351	354	356	356	354	352	357	363	363	364	364	359	353	354	357	357	356	353	352	355	357	356	359	359	362	366	368	369	368	360	366	369	371	369	366	363	361	360	362	362	359	357	355	355	360	368	366	365	369	373	371	367	366	359	358	359	362	366	371	373	373	369	368	368	368	367	363	361	362	364	368	372	372	369	368	364	366	366	363	361	359	358	357	357	359	361	365	367	366	364	363	363	367	366	366	367	365	364	363	362	363	367	369	371	373	373	367	363	363	361	367	368	368	364	364	366	366	362	362	363	366	366	364	360	360	360	360	358	362	365	365	365	367	367	365	364	363	363	367	366	365	364	363	363	362	364	364	366	372	375	372	369	367	370	0	0	0	0	0	0	0	0
334	335	335	339	346	348	349	349	351	348	345	342	341	341	343	343	343	344	344	344	346	348	349	349	352	352	352	353	353	354	358	358	358	358	355	356	355	354	350	352	352	358	358	351	351	354	357	360	358	356	347	346	344	346	349	353	353	352	351	352	353	354	354	355	355	353	353	353	353	352	351	350	349	351	351	351	351	350	354	352	353	353	354	356	358	359	359	356	355	353	355	357	356	354	353	352	345	344	346	350	352	353	356	358	360	363	363	361	356	351	350	352	356	357	354	351	348	347	347	348	350	352	353	353	354	352	352	349	350	349	351	350	352	354	352	351	354	356	357	352	350	352	359	358	354	353	353	353	353	352	353	351	352	356	355	353	351	349	345	347	346	346	347	350	352	350	349	349	350	349	350	350	351	356	350	350	353	352	354	353	352	351	350	350	352	351	347	348	349	348	347	346	343	342	347	348	351	348	346	345	347	347	348	346	343	345	347	350	352	351	350	351	354	354	355	355	352	352	351	357	353	358	354	353	350	349	356	354	355	353	355	356	357	355	350	349	347	346	348	348	354	351	343	343	345	347	345	346	346	347	347	345	343	340	342	345	346	346	344	347	351	349	342	354	349	349	352	352	354	352	358	360	362	363	361	361	362	359	356	356	358	361	364	358	352	346	346	347	353	353	353	352	351	351	351	349	349	350	352	354	349	351	353	354	355	354	352	350	350	356	352	350	348	350	348	349	350	353	354	357	353	350	349	348	348	347	344	344	343	345	348	346	348	347	347	348	349	349	350	351	353	357	360	355	358	355	352	348	348	350	351	350	350	349	348	350	353	351	352	349	349	346	345	346	346	348	350	352	358	358	358	361	361	358	356	355	355	356	358	361	361	359	357	356	355	357	354	348	349	354	355	354	351	347	349	351	353	356	357	359	360	360	358	356	357	358	359	357	356	359	360	357	358	355	353	351	350	348	350	349	347	348	353	357	359	354	347	346	344	351	350	349	351	353	354	355	354	351	350	352	352	351	351	350	349	347	347	352	352	351	352	355	355	355	355	353	356	354	349	349	351	358	361	359	358	356	356	354	352	350	348	342	341	345	346	346	344	346	348	348	347	352	351	351	354	352	355	355	353	354	349	351	354	352	349	349	350	353	354	353	353	356	358	361	362	364	360	354	361	362	364	363	361	355	354	355	359	359	356	352	352	351	361	365	365	364	363	370	368	357	354	354	354	353	358	363	364	367	367	367	364	365	353	351	352	351	349	350	353	366	364	359	357	352	354	354	357	355	350	354	355	355	356	358	362	362	362	360	361	361	362	362	362	361	360	361	358	355	352	360	361	363	366	365	359	360	360	360	361	363	362	361	362	362	362	360	359	361	362	364	363	359	357	358	358	358	360	361	361	361	361	360	361	361	361	362	365	365	365	366	363	360	361	361	361	362	364	369	372	367	366	368	0	0	0	0	0	0	0	0
334	333	333	339	344	349	350	350	350	348	345	342	341	341	343	342	342	341	341	341	341	343	344	346	348	348	347	345	341	344	347	349	349	349	352	354	352	351	353	356	357	357	352	346	346	349	351	356	352	347	343	339	338	341	347	350	349	346	345	353	351	352	352	351	354	353	349	346	347	347	350	349	349	350	351	349	347	346	345	347	350	350	355	357	356	355	355	355	353	349	343	341	342	347	347	349	348	346	344	340	340	340	346	351	352	350	351	352	349	348	347	350	351	351	349	345	345	345	347	348	346	351	353	351	350	348	348	345	341	342	351	353	355	357	351	349	347	348	349	350	354	356	357	350	345	343	345	347	344	343	343	344	349	351	355	354	352	349	350	350	348	349	349	350	349	347	342	343	343	343	341	340	337	340	341	346	350	350	351	349	345	341	339	338	340	346	346	344	345	343	340	338	340	339	339	339	341	342	343	342	341	339	340	340	342	344	346	347	347	346	346	346	347	349	351	352	349	346	344	350	349	345	348	349	346	347	350	350	349	347	349	350	354	357	353	349	344	344	343	344	339	339	339	342	343	343	346	343	346	349	346	347	341	339	339	342	345	345	345	344	343	343	342	341	344	346	351	350	352	352	356	358	355	358	356	360	355	354	349	345	348	351	345	348	348	344	343	345	346	351	348	346	347	345	344	349	348	349	346	345	344	342	340	346	350	352	350	348	347	345	345	344	344	343	344	345	345	347	349	351	350	348	343	342	340	340	341	342	341	343	347	347	348	349	348	348	348	346	343	344	344	344	351	352	351	349	345	348	348	350	353	354	347	346	346	346	345	343	345	342	344	344	343	344	341	344	347	349	350	348	349	351	353	353	352	352	352	352	352	358	356	350	354	353	353	347	342	337	337	343	347	348	348	347	346	344	342	340	339	340	354	358	357	356	355	356	353	346	343	343	345	349	352	350	349	345	342	344	343	343	343	345	347	354	356	351	347	346	346	347	347	345	345	342	341	343	343	344	346	346	345	351	352	351	347	345	341	343	346	347	350	350	351	352	348	349	352	354	348	349	347	348	350	351	351	352	353	353	344	342	339	337	338	339	341	341	339	341	341	342	342	346	345	345	342	342	338	339	341	342	339	346	351	350	345	345	348	351	352	352	351	352	354	358	352	355	351	337	342	350	358	360	352	348	347	348	351	358	354	350	348	349	355	351	349	349	353	354	356	352	350	348	354	352	352	356	354	349	349	348	347	346	345	347	345	343	345	348	351	357	358	353	350	350	349	348	348	348	345	347	349	352	351	352	355	353	353	354	349	351	357	357	354	353	353	358	354	349	346	346	345	348	351	349	347	355	357	358	358	358	360	360	361	361	361	358	356	353	356	360	360	356	356	356	356	357	358	359	358	358	356	357	357	357	356	357	355	357	361	364	364	359	360	361	361	360	358	359	366	364	364	365	0	0	0	0	0	0	0	0
335	335	335	337	342	348	350	348	348	345	344	343	342	342	342	341	340	339	338	338	335	337	339	342	343	341	341	338	333	335	336	339	342	342	346	347	348	348	349	350	350	350	346	343	342	342	349	351	347	340	338	338	339	340	346	347	344	341	343	342	343	347	347	347	347	345	343	342	345	346	346	345	344	348	351	352	351	350	348	348	350	351	351	349	348	342	342	342	341	342	342	338	339	341	344	346	346	345	343	339	336	339	342	347	347	346	345	344	345	345	346	350	351	348	346	344	344	343	344	346	345	347	351	349	345	344	344	337	346	351	354	355	354	349	346	345	345	346	345	347	351	350	348	347	343	344	344	345	345	335	334	342	344	348	350	346	345	344	346	352	351	348	348	346	344	338	336	340	341	343	341	339	339	340	340	344	348	347	347	343	342	342	336	340	342	344	343	341	340	337	333	336	337	336	338	338	342	344	345	343	341	340	337	339	340	341	341	343	342	342	342	342	341	345	348	347	344	342	341	342	346	342	337	341	342	343	347	348	344	343	343	346	349	350	350	349	345	341	342	340	340	338	337	336	343	343	343	344	344	336	337	339	347	343	341	341	344	345	344	342	341	343	343	340	340	340	338	338	339	342	341	341	339	337	344	347	349	347	343	340	340	341	341	343	345	343	343	340	342	342	339	340	342	340	336	338	341	343	343	345	346	343	338	336	334	337	347	347	345	343	339	340	341	340	341	340	341	344	346	349	348	343	343	338	339	340	341	341	342	341	342	341	340	341	342	344	342	338	335	334	336	335	334	332	335	341	345	345	347	351	353	354	356	353	351	345	337	339	338	342	341	340	341	340	340	340	340	346	347	347	347	347	346	349	350	347	345	343	342	344	344	342	343	345	348	349	346	344	343	342	338	337	341	342	342	342	340	333	334	342	343	347	350	355	354	351	346	341	340	342	345	345	347	343	345	345	342	343	340	340	338	340	339	343	348	348	346	345	345	347	348	345	343	340	339	338	339	342	342	343	341	345	348	349	344	336	336	338	343	344	346	347	348	349	347	349	351	346	344	342	344	344	344	345	345	347	341	342	342	340	338	336	335	336	337	339	336	336	339	339	339	340	341	342	340	341	337	338	336	338	335	337	338	346	344	345	346	348	336	334	334	345	347	346	342	341	340	335	338	344	349	346	346	343	341	343	345	350	351	347	342	346	350	346	345	345	350	352	352	349	345	345	343	346	352	353	347	344	344	346	342	339	340	342	341	340	339	342	347	352	347	346	346	348	346	347	347	348	347	344	345	347	348	348	347	345	344	345	345	347	347	349	348	349	346	347	350	346	343	341	337	337	346	347	347	347	350	351	352	354	357	359	360	361	358	355	346	347	349	353	353	350	352	352	352	355	356	356	355	352	354	354	353	350	345	343	340	339	340	354	354	352	351	351	349	349	349	350	357	360	361	359	0	0	0	0	0	0	0	0
337	336	337	337	340	343	345	345	345	344	342	340	340	340	341	339	333	330	329	329	331	332	334	337	338	337	337	336	333	334	336	339	341	341	345	345	345	345	346	346	344	344	342	341	343	342	343	345	337	338	338	338	339	340	343	341	340	337	338	339	338	337	336	336	334	334	335	338	340	345	344	337	338	342	349	345	347	348	346	347	350	349	349	348	344	343	343	342	343	343	340	336	337	340	344	344	344	342	340	336	334	336	341	343	342	341	342	342	343	345	347	346	344	341	336	337	338	337	339	343	346	341	340	338	337	335	331	333	336	338	340	341	340	338	338	337	337	337	342	344	347	347	346	348	346	344	344	344	339	335	334	335	341	342	333	332	332	336	342	350	349	348	346	340	334	332	333	336	339	342	339	339	338	339	339	340	343	344	342	343	338	340	342	338	336	336	341	341	338	337	335	333	333	337	336	339	342	340	340	342	342	340	339	338	338	338	332	331	337	335	339	340	339	339	339	343	342	340	339	341	341	339	335	338	340	342	344	340	340	338	338	339	343	344	344	344	343	340	339	340	339	337	334	336	340	341	342	341	337	332	332	337	337	336	338	337	339	338	337	336	329	340	342	341	333	335	330	332	334	333	340	340	331	331	331	338	346	349	346	338	335	337	336	341	342	341	340	339	337	339	337	339	337	335	335	334	337	337	337	340	338	339	338	332	330	335	335	338	338	338	338	339	337	337	338	334	334	337	339	345	341	341	338	338	337	339	340	341	337	333	333	334	337	338	340	340	341	341	339	337	337	337	335	334	333	335	339	342	341	341	340	344	345	344	341	336	335	335	340	340	340	339	339	340	349	348	342	341	346	347	346	342	340	341	341	341	338	336	342	343	343	342	342	342	343	343	342	340	337	335	334	336	336	336	339	340	336	337	333	339	341	342	342	345	348	346	342	338	337	341	340	340	337	340	341	342	340	337	333	328	331	333	335	332	336	346	341	343	343	344	344	341	342	342	335	336	337	338	338	337	334	342	344	347	336	325	325	328	332	333	343	345	345	345	346	345	341	341	340	339	345	344	341	341	335	335	338	338	339	338	336	335	335	332	333	336	337	335	333	334	334	335	337	340	341	338	342	339	336	333	333	339	340	340	342	345	346	346	334	332	332	339	339	339	342	343	341	338	337	337	339	339	344	345	343	344	344	345	345	342	342	342	345	343	340	333	335	343	347	345	345	344	342	340	340	338	338	339	342	343	340	339	336	338	341	340	339	339	338	340	340	336	337	339	345	344	344	344	344	340	339	342	343	345	343	341	343	344	342	341	340	343	344	343	340	335	337	343	340	338	341	339	339	337	336	341	344	351	347	344	345	346	358	359	354	348	341	341	343	346	349	348	348	351	349	351	351	348	350	350	349	348	347	343	340	336	340	341	343	344	343	342	343	343	343	344	347	348	350	356	358	356	0	0	0	0	0	0	0	0
336	335	335	335	336	337	341	341	341	341	340	339	338	338	338	331	328	327	326	326	328	329	330	332	334	333	333	333	334	335	337	339	341	341	342	342	342	341	342	344	341	341	342	343	343	343	341	341	335	335	336	336	339	340	337	338	337	338	338	338	337	337	336	336	335	334	334	336	336	335	334	336	337	339	339	340	340	342	342	344	343	349	349	348	345	344	343	344	346	341	338	335	336	338	339	339	341	340	339	336	333	336	338	341	339	338	338	331	330	330	332	332	333	335	334	333	333	336	339	341	341	340	337	336	336	334	332	332	332	333	335	338	334	334	335	335	334	334	336	338	334	333	334	337	338	337	343	340	335	334	336	335	338	330	325	326	332	335	339	341	341	341	338	336	331	330	331	334	337	339	337	337	338	338	337	337	335	338	338	336	335	338	338	336	334	335	331	335	336	336	334	333	331	331	327	330	332	335	334	334	337	340	341	337	331	325	326	325	326	324	333	332	333	330	331	331	332	339	338	339	334	333	334	337	338	336	335	337	335	335	334	334	337	339	331	331	332	337	335	335	335	335	331	330	329	336	339	338	334	330	332	333	335	334	333	335	335	335	332	326	323	324	326	330	326	328	328	330	330	330	328	327	329	327	329	332	337	338	336	331	327	326	328	332	339	340	338	337	336	336	334	337	335	334	331	330	332	333	334	334	336	336	334	329	331	333	332	330	331	335	336	336	335	329	330	331	331	330	333	337	338	337	337	336	335	338	339	335	332	328	329	331	333	336	336	337	338	338	337	336	333	326	327	326	325	327	332	337	337	338	338	338	340	339	336	335	333	332	333	341	340	335	338	339	336	334	335	332	336	341	341	331	331	332	333	333	334	337	340	342	342	343	342	341	342	342	340	338	333	333	333	335	336	334	332	334	335	331	331	336	340	338	334	334	341	340	338	337	335	338	338	336	333	334	338	340	340	336	329	328	328	330	330	331	332	331	339	342	338	336	337	336	337	339	336	334	333	334	337	336	336	335	334	334	331	327	326	329	328	331	330	341	342	344	340	337	336	337	334	337	340	341	333	328	332	337	336	337	336	335	330	334	335	326	328	335	337	335	335	334	333	332	331	336	337	339	334	333	331	330	331	340	340	340	340	340	331	327	332	333	333	336	336	339	343	342	336	334	336	336	335	335	337	338	338	346	349	349	347	343	343	339	335	330	332	332	333	340	342	344	344	342	338	336	333	334	334	337	339	341	338	336	334	334	338	338	337	338	338	338	337	332	332	330	330	334	342	341	339	339	339	337	341	343	342	339	341	342	342	340	336	338	339	338	332	331	331	334	337	344	344	341	336	330	328	328	329	331	335	335	331	337	340	342	343	344	340	340	340	343	346	346	346	346	344	343	343	342	342	342	341	342	342	340	338	340	339	338	339	345	343	339	339	339	340	341	342	350	351	348	346	351	0	0	0	0	0	0	0	0
331	331	333	333	336	339	339	338	338	338	337	336	336	336	336	328	326	324	327	327	327	327	327	327	329	330	330	331	332	333	335	337	338	338	339	339	337	338	340	341	342	343	343	343	340	337	337	334	333	332	334	334	336	336	335	333	335	335	336	336	337	337	337	337	337	333	333	332	333	330	335	342	341	338	336	335	335	336	336	339	340	339	337	337	339	344	345	335	333	334	334	332	332	333	332	334	337	337	335	335	335	334	333	328	330	333	331	329	328	327	328	329	330	331	331	328	324	324	325	325	324	324	325	330	331	330	328	329	329	329	333	332	331	331	330	332	331	330	332	332	331	329	332	332	333	333	334	332	332	333	331	333	328	325	324	326	330	333	336	337	337	336	336	335	335	332	331	332	335	335	335	335	336	334	330	330	330	331	330	332	332	333	336	335	336	331	328	334	335	333	328	325	323	322	327	327	327	330	330	328	329	330	338	328	328	327	323	324	323	326	320	324	330	332	335	333	334	334	330	338	330	330	332	333	333	332	332	332	332	333	333	332	334	331	330	331	332	336	335	333	333	330	325	327	328	330	334	338	331	330	331	330	333	335	336	336	334	333	332	331	321	320	322	321	324	327	326	328	327	324	326	327	327	327	327	330	333	334	331	328	326	325	327	326	328	333	331	333	335	335	333	336	332	332	329	329	328	330	332	332	332	332	330	328	330	330	330	328	327	326	327	328	328	328	327	326	328	329	330	332	334	328	336	334	333	334	335	327	326	325	326	328	331	333	334	337	337	337	337	329	327	326	327	327	325	323	326	332	335	337	337	336	334	337	335	330	331	331	331	337	335	331	332	333	332	331	329	330	326	326	327	328	331	332	332	333	331	332	330	330	327	325	328	330	331	334	337	334	333	330	330	336	334	331	329	330	327	327	328	333	336	333	328	327	331	334	325	333	335	335	335	332	330	330	334	342	341	333	330	329	331	331	329	327	328	331	330	332	332	333	334	331	331	329	325	326	325	333	334	334	334	333	332	331	330	328	328	330	328	328	328	328	336	338	336	335	333	327	333	334	324	326	327	328	330	331	330	333	330	324	331	331	332	322	324	332	336	335	335	334	332	330	329	334	332	336	333	333	330	329	332	331	326	325	328	330	328	327	330	332	335	336	337	337	338	340	336	334	334	333	333	332	333	334	333	333	332	330	331	334	333	332	324	324	324	325	330	334	339	339	339	337	333	332	332	332	332	334	335	338	336	334	333	331	334	336	337	336	336	335	335	330	328	326	326	328	331	333	332	335	336	336	339	336	335	336	337	337	340	337	334	334	335	334	328	328	328	333	337	341	347	344	337	331	328	329	329	329	335	334	330	325	323	331	334	338	337	334	334	334	340	340	343	342	339	337	334	335	334	335	335	335	333	336	338	337	338	339	342	344	343	339	339	337	337	338	338	338	339	336	333	339	0	0	0	0	0	0	0	0
328	330	331	331	335	332	332	333	333	333	331	328	325	328	328	326	325	324	325	327	327	325	323	323	323	325	325	327	327	322	323	323	323	330	330	330	332	335	337	339	337	333	333	332	331	328	333	333	332	332	333	333	333	331	329	321	333	335	336	336	336	337	335	333	333	329	328	327	325	331	341	341	343	338	333	330	331	332	335	335	333	328	330	330	332	334	333	328	329	331	331	330	328	326	325	328	330	332	326	328	328	324	323	323	326	327	328	328	328	326	326	327	328	328	326	323	322	321	323	321	320	320	322	324	319	320	326	324	322	323	326	327	327	328	327	327	327	326	324	322	326	330	329	327	327	328	331	332	332	330	331	332	329	328	329	326	326	327	328	328	328	328	327	326	328	328	330	333	328	325	326	326	325	326	325	324	321	321	322	328	329	329	325	330	328	323	326	327	327	320	320	321	321	324	328	329	329	328	327	326	323	323	323	322	327	326	322	321	320	315	317	325	330	332	334	332	333	330	327	325	325	326	328	329	328	327	319	319	327	330	331	331	330	329	329	329	333	337	337	334	329	328	325	328	327	327	327	325	324	327	330	333	337	328	329	328	328	326	325	325	321	318	317	318	321	325	323	323	320	324	325	326	326	325	323	321	322	327	327	325	324	326	325	322	322	321	322	322	330	330	327	328	328	326	326	326	325	328	332	332	331	330	329	329	331	329	328	327	323	325	326	326	327	327	326	324	327	329	331	333	326	324	324	331	330	329	328	327	326	324	325	325	327	328	332	336	336	337	325	322	324	325	328	328	325	325	325	326	328	328	332	333	332	328	328	328	329	329	330	329	327	327	327	329	329	328	325	324	324	324	321	320	327	331	332	329	328	325	323	321	318	322	322	322	325	327	327	326	327	327	326	329	331	327	326	322	323	325	327	330	332	330	325	317	317	319	324	330	333	334	333	331	328	328	331	337	337	334	330	327	327	327	321	320	326	330	330	330	329	329	327	326	325	323	322	324	321	326	329	331	333	329	325	325	325	327	331	330	329	327	327	327	326	332	332	334	324	319	319	319	320	322	324	325	325	331	329	326	321	321	322	327	329	323	319	330	330	330	332	333	331	329	327	324	330	330	329	328	326	329	333	330	325	325	325	327	325	325	327	330	334	337	336	337	338	338	336	336	332	331	330	327	324	320	321	322	323	327	330	333	330	324	323	322	321	322	326	330	330	333	333	331	328	328	330	331	332	333	332	336	334	334	334	332	329	329	329	331	330	329	329	329	327	325	323	327	328	330	331	330	331	331	329	330	333	336	334	333	332	329	330	329	331	331	326	326	326	332	334	339	344	344	341	336	333	329	330	331	328	327	330	323	322	330	333	334	334	326	324	322	321	321	334	338	333	330	327	326	326	330	330	329	328	333	335	337	336	337	341	341	343	339	339	336	334	335	335	334	329	327	328	330	0	0	0	0	0	0	0	0
325	327	327	327	327	327	323	325	324	324	323	319	325	327	327	322	322	322	324	322	322	319	316	314	315	318	318	318	320	317	316	317	318	319	319	323	327	331	334	333	332	331	331	329	325	327	325	326	330	329	331	331	331	325	324	322	322	325	329	334	335	330	327	322	322	324	325	324	323	327	330	332	338	334	332	328	330	331	332	330	326	327	329	331	331	331	327	323	324	329	330	329	326	322	321	324	319	320	321	322	323	323	321	321	322	321	322	322	326	327	325	323	323	322	322	321	320	320	321	322	319	318	318	318	317	318	320	320	314	315	318	321	324	325	325	326	324	324	323	323	326	325	326	325	326	326	329	331	331	328	324	323	328	329	327	324	322	319	318	318	319	318	321	324	326	327	329	329	329	327	324	314	315	318	321	323	323	321	322	324	325	325	322	322	322	322	323	320	317	318	319	324	326	326	328	330	331	330	326	317	316	315	320	321	324	323	319	317	313	313	316	318	328	328	328	326	327	326	326	325	324	322	322	323	327	322	319	319	321	323	324	324	327	328	327	328	336	337	337	327	323	322	324	324	318	318	316	318	320	321	320	321	329	319	319	320	321	320	321	320	320	318	318	318	323	323	320	319	318	321	324	323	324	321	316	313	312	318	328	331	324	325	322	322	320	323	323	324	325	325	324	325	326	325	325	323	318	325	330	329	329	327	327	327	329	322	321	322	322	322	323	322	317	321	324	327	329	332	334	324	323	321	320	319	326	326	327	327	327	325	321	321	320	315	314	326	325	319	321	318	321	325	326	323	320	317	323	322	322	321	323	324	324	324	323	324	327	327	324	320	321	321	322	321	321	325	323	322	324	325	323	320	320	324	332	325	324	323	322	320	318	318	317	318	319	323	326	326	327	326	322	325	327	321	320	319	322	323	324	325	323	322	319	315	315	317	318	327	333	332	331	327	323	322	324	328	328	328	322	323	323	321	322	319	325	325	326	331	329	327	326	325	322	320	319	321	321	323	327	328	325	321	321	322	322	328	330	330	328	326	326	326	324	322	323	320	316	315	320	320	320	318	320	320	320	317	318	318	320	320	321	322	323	326	321	328	323	320	319	321	319	319	318	319	320	318	316	316	322	327	333	331	322	322	321	315	320	322	325	327	332	333	321	320	317	321	325	328	330	328	324	320	318	321	321	320	318	319	322	332	329	322	321	319	320	321	327	328	328	327	326	325	324	325	328	331	333	333	332	334	330	329	329	327	325	323	325	323	325	326	327	327	324	323	324	325	327	328	325	322	321	322	324	327	331	329	328	326	325	324	323	327	328	329	326	326	327	326	331	337	339	341	332	318	316	318	320	329	325	325	322	327	328	329	327	326	325	326	323	323	323	320	318	327	330	327	323	323	323	326	328	325	323	326	331	332	332	332	334	339	341	339	339	333	329	331	330	331	328	328	326	323	0	0	0	0	0	0	0	0
315	322	322	321	321	318	319	319	320	320	319	318	323	325	325	322	312	310	310	312	312	314	314	314	314	315	320	320	318	317	318	318	320	318	318	318	323	324	326	329	330	329	329	319	319	323	326	325	321	323	326	328	328	328	324	321	320	321	325	328	328	326	324	325	326	326	328	327	326	326	329	329	331	332	329	326	326	329	329	327	325	326	329	330	330	329	324	320	323	323	322	323	323	324	324	324	324	323	323	323	322	320	317	317	318	318	321	321	321	323	322	322	322	321	320	319	319	318	322	322	321	320	319	320	321	321	320	319	314	315	317	319	322	323	322	326	328	325	324	321	321	323	324	324	324	324	326	328	328	325	325	323	323	328	323	319	316	316	317	319	319	316	317	318	324	324	326	327	326	327	323	314	315	317	321	324	323	323	324	324	325	323	321	319	317	316	317	314	314	317	319	321	324	325	323	322	316	314	315	318	317	315	315	318	322	319	317	315	315	312	307	308	320	321	320	318	315	316	317	317	318	318	318	317	315	314	317	318	319	321	321	321	324	324	324	325	333	328	326	318	316	320	320	320	317	316	317	317	318	318	317	317	317	316	311	316	321	318	318	318	317	316	317	320	323	322	320	316	314	315	314	315	320	317	312	313	315	316	317	321	322	316	324	325	321	316	318	321	323	324	323	319	317	319	320	320	322	323	325	324	319	317	317	316	319	317	317	317	316	315	316	314	314	318	321	326	326	323	320	319	320	319	318	317	316	320	322	321	319	320	319	316	313	316	320	323	321	316	315	317	319	321	323	321	317	316	319	318	317	318	317	321	321	321	317	320	322	321	321	318	316	317	318	319	318	318	319	321	321	324	321	320	320	320	319	320	319	321	318	319	319	319	318	317	318	324	327	327	324	321	322	322	324	322	321	320	321	321	317	320	319	317	315	314	314	313	314	321	322	322	323	324	321	315	321	323	323	322	321	317	318	318	323	318	322	320	323	324	325	325	326	323	320	317	317	318	317	321	320	324	322	319	317	318	320	321	323	323	324	325	321	321	319	314	316	313	314	318	319	319	318	316	317	322	320	320	320	320	321	322	322	324	326	323	319	317	318	317	316	315	316	315	314	316	320	321	317	316	319	322	324	322	321	321	321	320	319	319	319	319	319	318	315	314	315	320	321	319	319	320	316	317	321	322	321	318	317	315	317	318	319	318	317	314	309	310	314	314	314	321	320	321	322	322	325	330	333	332	330	328	325	323	322	319	318	318	321	321	321	320	319	320	321	321	321	323	323	322	320	320	318	320	321	324	320	320	323	321	318	318	319	320	327	328	330	326	322	320	319	324	327	326	318	311	310	312	316	322	321	323	313	317	322	322	321	321	312	317	320	318	318	317	315	315	326	326	323	324	327	329	327	324	320	321	313	313	316	323	326	327	329	329	327	323	322	323	325	326	327	326	324	322	0	0	0	0	0	0	0	0
305	309	311	313	313	313	314	313	312	312	313	318	320	319	317	317	310	305	308	311	315	315	316	313	312	317	319	319	320	318	319	321	322	321	321	320	320	316	316	318	318	319	319	319	319	322	322	321	321	323	324	323	323	323	321	319	320	324	327	327	326	325	324	325	327	327	327	328	326	325	324	326	330	329	328	328	325	326	326	325	324	324	328	329	319	319	314	316	319	321	320	321	324	325	322	321	322	323	322	322	320	317	314	314	315	316	319	316	319	317	318	319	320	320	317	316	315	315	315	320	321	319	320	321	319	320	317	314	314	314	316	317	320	322	324	323	318	315	315	313	313	318	321	321	323	323	324	326	322	323	323	323	321	317	314	313	313	315	317	319	321	316	315	309	308	309	315	318	318	320	322	314	316	319	321	324	323	321	321	323	325	322	320	318	316	313	312	311	313	313	317	321	323	321	321	319	315	313	313	315	315	312	313	316	316	313	310	312	313	311	308	307	307	314	316	317	316	316	315	314	316	319	314	311	310	311	311	309	311	312	313	313	314	314	314	321	321	321	316	314	315	316	318	316	312	313	314	315	314	313	315	312	309	311	310	313	311	314	316	316	316	316	318	319	316	320	322	314	312	309	312	309	312	312	312	312	314	314	312	312	314	316	314	313	312	314	316	320	322	323	322	318	317	316	316	315	313	312	312	312	313	314	317	318	316	317	315	316	315	315	313	312	313	314	317	322	321	321	315	315	316	317	316	315	315	315	316	318	316	313	314	315	315	316	317	317	314	313	312	315	320	318	318	320	317	316	316	316	316	317	319	319	319	318	318	318	319	313	311	315	315	314	315	315	316	317	317	315	315	316	318	318	316	315	314	316	318	319	316	317	316	317	316	315	317	325	327	328	321	318	319	321	323	320	317	312	313	313	315	313	312	310	310	312	311	314	315	318	317	316	316	316	316	315	317	320	321	321	314	311	314	315	316	311	315	315	313	315	313	316	321	319	318	315	317	317	319	316	308	320	320	316	314	315	318	317	318	318	320	322	320	311	313	312	313	313	314	318	318	315	314	313	318	320	323	322	319	320	321	323	322	325	324	323	317	314	317	317	317	317	315	315	308	313	316	315	313	314	317	322	322	321	319	318	319	321	320	319	320	322	319	318	313	313	313	312	311	310	312	313	317	319	318	316	318	318	316	309	307	310	312	317	315	311	310	310	314	314	315	315	316	315	316	320	318	323	324	325	327	323	321	318	311	309	311	313	315	318	317	317	312	312	314	319	321	323	324	319	319	319	319	316	314	315	316	315	317	318	318	324	321	323	327	328	324	322	318	314	311	315	319	319	311	312	312	311	313	320	319	316	310	312	314	315	317	319	313	310	310	310	315	315	312	313	313	308	319	318	318	327	328	321	318	316	311	310	316	319	322	318	317	317	314	317	319	319	321	323	323	323	321	320	0	0	0	0	0	0	0	0
304	305	309	313	313	312	313	313	315	315	315	315	316	315	313	313	310	306	305	307	307	307	311	310	311	316	319	319	317	317	318	321	324	322	319	319	316	313	315	316	316	317	320	320	321	323	321	321	321	323	323	322	321	321	317	318	320	323	324	326	324	323	324	324	325	325	326	327	325	322	322	327	327	327	325	325	322	326	325	324	316	316	319	317	312	312	313	315	320	322	320	317	314	312	311	312	317	319	320	319	317	315	313	312	313	316	313	312	310	310	310	310	311	314	315	313	312	307	308	312	314	317	319	320	321	317	313	312	311	312	311	310	313	316	317	312	311	311	311	312	310	311	313	320	322	319	319	317	317	318	315	314	307	309	311	311	310	308	315	319	320	316	308	308	304	304	307	313	315	316	316	317	315	310	313	311	311	316	318	316	317	317	316	316	314	311	310	309	309	307	308	308	311	313	314	315	313	314	313	313	314	313	313	309	313	313	307	305	309	309	309	308	309	314	317	317	316	313	311	311	314	317	312	309	309	311	312	309	308	307	308	308	307	308	311	309	309	307	309	311	314	315	314	312	308	309	308	310	311	309	311	309	308	304	306	305	307	310	312	315	313	313	313	310	312	315	319	311	308	305	306	308	308	307	310	309	308	312	312	311	311	312	309	311	312	312	312	312	318	317	316	317	315	316	314	312	311	310	311	307	311	314	312	315	314	316	313	311	309	309	312	310	309	308	314	319	319	315	313	312	314	313	313	311	313	315	316	318	313	312	314	314	313	312	311	311	309	309	313	313	309	308	308	308	307	313	313	313	313	315	318	321	321	319	317	319	317	312	310	313	313	313	313	314	314	313	313	311	312	313	312	315	315	314	312	312	316	312	313	314	316	315	314	314	318	318	321	324	317	315	316	319	309	311	314	312	311	312	312	309	308	312	310	311	312	313	317	318	315	311	311	311	312	313	315	316	316	317	310	309	309	310	309	307	307	309	317	313	310	314	312	312	313	314	315	316	313	308	307	319	313	310	310	314	314	314	314	316	316	311	309	310	312	311	311	310	313	315	308	307	310	313	316	320	307	306	307	316	319	319	319	321	317	314	313	313	312	311	312	314	315	314	308	306	309	309	309	310	312	321	321	321	317	312	312	314	316	316	320	319	303	309	309	309	309	305	304	307	308	310	308	307	306	313	316	316	316	314	311	309	306	305	307	310	312	313	316	316	316	314	315	311	311	311	310	312	317	319	319	317	315	313	306	306	307	311	313	315	316	313	310	310	310	316	320	323	321	320	318	318	317	315	313	313	313	313	316	316	322	318	317	314	319	322	320	317	316	314	311	309	309	309	310	311	312	310	311	308	304	307	308	311	312	315	315	315	315	311	311	307	307	308	310	310	311	308	314	317	321	319	320	315	316	315	312	310	311	320	320	318	314	314	313	312	314	316	318	319	318	318	318	317	0	0	0	0	0	0	0	0
304	305	307	310	310	307	306	308	308	308	309	310	311	313	313	313	310	305	303	305	305	305	307	306	300	302	306	309	309	315	319	321	319	315	314	314	315	310	309	307	313	318	321	321	323	323	320	319	318	320	320	320	318	318	316	317	319	320	322	319	317	317	318	324	325	324	324	319	319	318	320	322	321	318	320	320	321	323	323	316	315	315	313	313	311	315	314	315	321	323	316	312	308	307	305	306	309	311	312	316	315	313	312	313	314	314	309	307	307	309	309	310	310	310	312	311	309	304	303	305	307	310	314	315	315	314	311	310	312	311	305	306	307	309	308	308	310	309	309	308	307	305	310	312	314	316	317	310	309	311	312	309	306	304	306	304	304	309	311	312	311	309	307	306	306	304	306	306	314	314	312	309	311	309	307	303	302	305	308	312	316	313	311	311	311	309	309	309	308	307	307	308	311	313	314	314	313	312	310	311	310	309	312	308	310	307	305	304	305	308	307	308	308	310	315	315	314	308	303	307	308	308	308	308	309	310	304	302	303	304	305	304	304	306	306	305	305	304	307	308	309	311	312	308	306	306	306	306	309	309	309	308	303	305	305	303	305	309	312	312	314	312	307	308	309	308	307	313	302	303	303	304	305	305	303	303	303	304	313	311	305	307	310	310	312	312	309	309	308	308	308	312	313	313	313	312	308	308	309	305	309	310	314	312	312	312	312	311	309	310	307	309	307	309	314	315	313	309	308	310	310	311	311	310	310	313	316	312	312	312	314	313	311	309	307	306	308	310	310	308	305	307	307	306	307	313	312	312	310	310	311	312	319	316	316	317	313	311	310	312	311	309	310	311	313	312	309	308	309	310	311	315	315	313	311	307	310	308	308	309	311	313	313	313	311	313	313	312	314	306	304	303	301	306	309	313	311	309	309	308	308	310	310	307	310	311	311	312	310	309	309	309	312	313	313	312	312	313	311	308	309	308	306	305	304	305	307	311	310	311	308	308	309	312	314	310	310	310	309	311	312	309	309	311	309	310	308	304	300	296	301	305	308	311	311	310	309	312	308	305	307	299	312	306	308	304	303	303	308	316	315	314	310	306	310	311	310	310	309	309	310	308	306	305	305	305	308	310	310	313	314	313	311	305	304	307	307	303	304	304	303	305	303	307	305	305	305	307	307	307	304	304	304	303	307	307	305	311	310	306	303	303	305	307	309	310	311	315	317	312	311	308	308	308	307	309	311	318	317	316	312	309	307	305	309	306	310	312	310	309	308	308	308	310	313	314	320	320	316	316	309	311	311	310	310	311	314	314	316	320	315	311	309	309	311	312	310	310	308	307	307	308	308	310	310	309	305	303	302	303	309	307	311	313	314	314	313	311	311	313	307	307	307	309	303	306	314	314	310	315	310	312	314	314	309	309	310	310	316	316	316	312	311	313	309	312	315	315	313	311	312	313	0	0	0	0	0	0	0	0
303	304	304	304	304	302	304	306	305	303	303	305	308	311	312	312	310	306	304	305	304	304	306	304	307	301	302	304	304	307	307	308	308	309	311	311	312	306	304	301	302	312	316	323	310	312	315	319	318	316	316	317	314	314	313	315	317	316	320	320	318	317	316	318	323	321	321	317	315	315	315	314	314	315	316	316	317	317	312	312	314	315	316	315	313	303	303	304	307	311	312	310	309	307	306	307	309	310	311	309	306	304	304	307	308	305	305	309	308	309	309	308	306	310	311	312	310	309	307	303	306	310	313	312	312	309	309	312	311	307	304	302	305	307	307	306	306	307	305	303	295	294	297	300	304	307	310	304	305	308	309	309	306	303	303	304	306	308	309	304	305	306	305	304	305	305	305	306	306	307	306	305	307	306	302	299	302	301	302	304	307	311	306	307	309	309	308	308	308	311	312	313	313	314	313	312	310	310	309	310	307	306	305	305	307	307	305	302	305	305	307	305	305	300	301	300	299	297	300	305	307	308	311	310	310	310	308	305	301	301	301	302	303	303	303	304	303	302	302	304	305	303	302	305	304	305	305	308	307	306	305	309	310	308	300	300	307	307	310	307	304	304	305	298	296	296	296	301	300	301	302	302	304	304	301	301	301	303	304	314	304	306	309	311	311	310	306	303	304	304	305	304	305	305	306	302	300	300	303	305	304	305	306	305	303	306	311	305	305	308	309	306	306	309	311	314	308	305	303	303	307	306	306	308	309	304	305	307	307	309	307	310	309	305	300	308	308	307	306	305	304	306	305	304	304	305	305	308	307	307	307	307	305	304	303	310	310	308	308	310	311	310	311	308	307	307	307	306	306	306	308	312	306	307	307	305	303	306	305	306	306	308	309	311	309	308	305	303	302	302	299	300	301	298	307	309	309	306	306	306	306	308	307	305	307	307	305	308	304	304	305	308	308	311	311	310	310	310	306	307	307	305	303	302	304	305	306	308	307	305	306	306	306	307	312	309	307	306	306	306	307	308	306	306	301	305	305	297	294	295	297	305	306	309	309	306	304	305	304	300	298	308	300	308	309	310	306	308	309	305	311	307	304	303	304	309	308	306	305	307	307	307	305	305	306	307	307	308	308	306	307	309	308	306	305	305	304	302	300	300	302	304	303	306	303	305	306	307	307	303	298	298	296	297	299	301	303	308	307	305	299	301	304	304	304	306	307	310	315	314	311	303	303	303	304	308	313	312	313	317	315	311	305	303	306	310	309	302	304	299	304	305	308	310	310	304	311	319	317	314	307	308	307	308	308	308	310	311	312	311	310	308	305	301	302	302	301	299	299	300	308	308	308	308	309	308	306	305	304	311	309	304	303	303	305	309	310	310	310	311	304	301	302	301	295	298	305	303	302	301	300	310	314	309	306	306	305	305	307	305	305	303	301	302	306	308	308	308	307	307	308	309	0	0	0	0	0	0	0	0
