379	381	381	379	377	378	378	378	378	375	372	373	373	372	374	369	373	376	376	378	374	372	372	375	373	373	379	383	384	384	384	382	382	383	385	388	390	388	380	376	376	380	385	387	387	387	388	389	390	389	389	371	373	377	374	373	377	380	386	384	384	383	383	379	378	376	375	374	376	376	376	377	377	375	376	376	373	371	373	376	376	377	376	376	382	384	386	388	386	385	384	382	379	381	384	385	385	384	382	379	380	379	380	381	392	392	390	390	389	387	384	382	381	380	380	380	379	382	383	382	382	382	383	383	383	382	382	382	379	376	374	374	374	375	375	373	372	371	370	369	371	376	377	376	375	375	375	374	374	377	378	385	380	374	372	370	370	370	369	372	375	376	373	371	373	373	372	372	372	373	375	377	373	371	372	371	372	373	373	373	376	374	374	374	376	372	370	366	365	366	368	368	366	365	365	367	368	367	368	366	367	368	369	369	370	372	371	368	368	367	366	366	367	367	369	372	374	374	374	373	369	371	369	367	367	369	370	370	371	373	371	366	367	367	363	357	356	358	364	365	365	365	366	365	364	361	359	359	360	363	367	368	371	372	371	370	363	360	363	362	360	366	365	374	358	357	361	364	366	365	366	366	366	365	365	363	362	363	365	365	367	365	364	360	359	357	357	358	358	360	363	368	369	368	363	364	367	369	369	368	365	360	358	359	360	361	361	367	367	369	367	368	367	366	363	360	367	369	367	363	363	361	361	362	359	364	366	360	361	359	351	350	352	355	355	361	363	363	361	361	360	361	367	365	363	363	363	364	365	355	359	354	352	354	354	354	351	354	357	360	363	362	361	362	363	362	361	359	359	361	360	359	357	355	356	360	363	365	365	364	357	358	361	362	360	357	356	355	354	354	355	362	360	362	365	366	364	363	363	363	361	361	360	360	363	360	359	358	358	360	359	358	360	361	363	364	362	363	362	350	359	357	358	357	357	357	358	357	351	353	354	365	364	355	352	350	351	353	354	352	348	345	345	351	356	356	362	356	354	353	353	350	351	353	357	360	359	352	351	353	363	363	363	362	361	361	358	358	358	355	350	347	346	345	350	351	352	354	354	356	357	358	359	360	358	358	355	353	352	349	352	354	357	351	352	354	356	357	355	347	349	347	349	360	361	362	364	363	361	354	351	351	352	354	358	358	359	358	357	354	352	352	352	353	357	363	361	361	358	355	355	357	358	356	356	358	360	362	361	358	353	358	359	358	357	357	354	353	352	356	356	359	363	350	350	351	348	348	350	350	348	347	349	349	353	354	354	348	345	346	356	357	359	361	357	356	353	353	352	357	358	353	353	345	350	353	354	354	356	360	359	358	357	357	359	360	359	344	343	345	350	351	354	355	355	349	352	351	352	352	355	356	352	349	347	353	355	352	350	353	353	350	355	358	358	359	360	360	358	353	352	351	0	0	0	0	0	0	0	0
380	382	382	381	378	377	377	377	375	372	373	370	370	370	369	370	372	375	374	374	370	363	363	366	369	369	374	378	381	383	382	381	381	380	381	383	383	381	377	369	369	375	380	384	384	379	375	377	373	370	366	365	366	367	368	371	373	376	379	379	380	379	379	378	377	375	374	372	374	374	375	375	377	377	369	368	371	381	381	377	374	374	369	374	377	383	385	385	386	384	382	380	377	375	375	379	380	378	376	376	378	376	377	380	391	392	391	390	389	386	383	382	379	377	376	373	373	375	376	378	375	373	375	381	381	378	377	377	371	372	372	370	372	372	369	368	366	366	366	365	368	371	372	374	372	373	369	370	369	371	366	373	375	371	366	367	369	371	368	368	367	364	366	369	371	369	371	367	362	367	368	370	368	367	367	369	371	370	368	372	371	374	372	372	372	370	366	365	362	361	363	365	362	361	363	367	368	367	368	361	359	360	366	367	369	370	364	367	363	365	367	367	365	365	366	368	371	372	370	367	369	368	367	365	364	369	370	368	369	363	364	364	364	364	359	357	356	355	360	361	361	362	363	363	362	361	359	357	357	353	357	364	365	361	362	352	359	354	350	350	351	353	355	359	353	354	356	359	363	366	363	360	358	357	361	360	361	359	360	360	360	360	352	354	353	352	354	355	356	356	359	358	358	357	354	351	356	362	364	364	361	358	359	358	358	356	354	361	364	366	364	366	365	363	359	355	354	359	359	361	359	358	358	357	356	357	360	359	352	349	349	350	351	352	352	351	353	356	359	358	356	354	354	354	361	360	359	355	349	349	346	350	350	348	348	348	345	346	348	352	352	354	357	359	360	360	358	354	354	353	355	355	355	355	356	358	361	362	360	356	355	355	358	357	356	353	354	354	353	353	352	353	358	360	363	362	357	354	352	350	357	358	358	358	358	359	357	354	354	354	355	354	352	352	358	358	356	356	356	355	348	348	349	350	352	356	357	347	350	353	353	355	364	362	358	350	350	352	352	346	344	344	344	352	352	347	351	350	351	350	350	347	346	349	353	355	351	348	347	348	358	358	359	358	357	355	355	355	355	353	350	341	341	342	344	348	350	351	352	352	354	358	355	353	353	352	350	347	343	342	344	347	352	349	346	348	353	353	350	345	343	344	346	350	351	353	350	342	342	344	347	348	349	353	354	350	350	350	349	351	352	350	351	351	353	353	353	353	353	349	353	351	348	349	354	355	358	357	357	354	345	342	338	341	342	341	339	339	341	343	342	343	346	347	347	347	346	344	344	347	347	345	346	348	351	352	353	345	346	346	346	347	346	339	339	341	345	348	345	348	346	348	350	347	342	345	346	346	347	350	351	352	351	354	355	358	357	354	349	346	346	348	348	348	348	347	345	348	349	349	351	344	349	349	345	344	346	345	345	349	349	349	346	345	345	346	349	352	350	348	346	346	0	0	0	0	0	0	0	0
377	379	379	377	376	375	372	372	369	369	370	369	368	368	368	368	372	373	372	372	365	361	361	363	367	367	369	365	366	372	373	372	370	370	371	376	376	371	368	372	373	373	373	375	374	373	372	376	370	366	362	361	363	366	366	366	366	372	374	374	376	377	377	376	375	373	370	370	373	372	373	373	376	374	371	371	373	374	373	364	363	363	365	367	372	374	374	373	373	375	373	374	373	372	373	378	380	379	377	376	376	374	374	374	373	373	379	383	382	380	378	377	376	375	372	369	369	373	374	371	369	367	369	369	371	370	368	366	369	369	369	368	368	368	366	363	362	361	361	365	368	370	371	371	370	363	365	363	363	359	362	366	364	362	362	365	367	367	365	364	362	360	360	363	367	367	364	364	361	361	364	367	364	363	357	358	358	357	357	360	358	359	358	357	356	360	362	361	361	360	361	363	361	357	359	362	366	368	359	356	356	352	357	364	364	358	362	361	362	364	368	368	366	364	364	365	361	365	364	364	363	362	361	364	364	362	361	354	357	359	361	363	363	358	358	357	353	352	354	357	358	359	361	361	360	359	357	355	351	352	353	354	350	348	348	348	349	352	349	350	351	353	357	353	352	350	350	349	355	354	356	352	355	354	355	359	358	359	355	352	355	346	341	345	347	349	351	351	351	353	354	358	356	355	352	351	349	354	357	357	357	357	359	357	354	353	349	352	357	359	359	360	360	359	357	354	352	352	354	357	356	355	353	352	351	350	350	352	348	346	346	349	348	349	347	345	348	352	354	354	353	356	360	360	354	347	346	352	350	349	345	343	343	350	349	346	345	345	343	343	347	350	350	353	357	355	351	351	350	346	347	350	352	355	354	356	356	355	354	351	349	350	351	350	349	346	349	352	354	351	350	350	352	357	356	351	342	342	343	346	344	355	354	355	356	358	355	350	350	352	354	351	350	350	351	351	349	354	354	349	347	346	345	348	350	349	347	345	345	350	353	355	357	355	344	343	343	343	344	344	344	345	352	351	349	349	343	345	346	347	348	346	347	349	351	353	346	341	341	343	353	352	352	354	352	353	352	351	337	337	337	338	340	342	343	345	352	353	353	354	356	354	352	348	348	345	344	342	338	336	339	341	348	347	344	345	348	347	343	339	339	341	344	348	351	350	348	338	339	340	342	343	343	346	344	345	340	340	340	349	350	350	351	352	352	352	344	344	345	344	343	342	341	341	343	349	342	341	341	344	339	336	338	339	337	338	336	340	341	342	343	343	345	345	345	343	341	342	342	345	344	343	343	345	348	350	339	341	342	344	344	345	340	339	341	342	352	345	345	341	339	338	337	335	338	342	344	345	345	345	342	339	340	344	346	349	349	347	345	339	341	343	345	345	344	345	344	343	348	349	345	345	346	348	347	343	340	340	344	348	349	349	349	347	347	344	345	347	340	346	344	344	0	0	0	0	0	0	0	0
370	371	371	370	370	370	366	365	365	364	367	368	365	365	365	364	367	367	368	368	364	358	359	363	366	362	362	361	362	365	366	367	366	366	370	370	369	367	367	368	368	368	368	368	369	370	371	370	365	358	358	358	360	362	363	359	360	363	369	372	373	373	371	371	370	370	367	368	371	373	373	374	373	372	371	370	369	368	367	365	359	361	361	363	366	365	368	369	367	366	364	365	370	368	370	374	374	373	375	373	371	371	370	368	370	371	370	370	371	371	372	375	375	373	370	367	370	372	369	366	364	362	362	363	364	361	362	360	366	367	364	365	363	362	361	359	358	360	363	366	368	367	359	356	358	359	358	358	353	355	360	365	364	359	359	360	362	362	361	360	360	358	358	357	357	359	360	361	361	361	364	360	356	353	352	355	358	358	358	353	350	350	351	352	353	356	359	359	360	359	359	358	357	355	357	360	359	357	355	354	347	346	351	352	352	354	357	359	362	365	365	363	368	366	359	359	359	356	357	349	354	356	358	361	360	356	352	353	353	357	359	360	358	355	355	353	351	349	350	351	357	358	357	358	358	356	354	351	348	351	350	350	351	349	348	347	349	350	349	349	348	345	347	344	346	346	346	349	348	350	348	347	349	353	353	357	358	355	344	342	343	343	340	339	343	344	340	341	349	351	352	354	349	347	349	350	350	351	350	349	350	352	358	356	352	349	348	349	353	352	351	352	355	355	353	351	348	348	352	356	354	347	346	345	343	344	346	346	346	345	343	342	345	345	344	343	344	348	343	343	351	352	354	354	354	349	348	347	348	347	347	342	343	345	346	343	341	337	334	338	338	339	342	341	349	350	349	348	345	343	344	347	348	351	351	351	351	351	349	348	348	348	350	349	346	344	346	351	352	351	348	348	348	351	350	346	347	343	343	342	343	344	353	347	347	353	353	349	348	350	351	349	348	346	343	342	343	346	346	346	345	344	342	342	344	343	343	341	342	346	344	345	345	344	345	339	338	337	334	333	335	343	342	343	342	345	340	342	344	344	347	349	348	349	348	347	341	338	337	336	346	346	344	343	346	349	335	336	337	336	335	337	337	338	337	340	344	345	346	348	351	348	342	344	343	341	339	337	334	334	335	337	338	338	335	338	341	340	335	333	334	339	341	347	349	345	335	334	336	336	338	339	340	337	338	337	338	335	341	340	342	346	350	348	344	341	341	342	343	342	340	340	340	340	340	340	339	336	335	334	336	336	339	339	337	335	335	335	340	342	342	341	340	342	342	342	341	342	341	339	335	330	331	338	345	337	337	340	342	343	343	339	337	339	338	341	349	341	343	339	337	336	335	335	336	338	340	341	339	339	340	340	340	342	344	342	340	338	336	336	339	341	341	341	343	342	342	342	341	338	339	339	342	342	342	341	340	339	339	343	343	345	346	346	343	342	340	341	343	340	336	341	0	0	0	0	0	0	0	0
362	364	363	363	363	360	359	361	361	363	363	364	362	362	360	361	362	360	358	358	356	354	355	361	363	361	361	359	362	363	364	364	364	364	367	366	366	365	364	363	363	363	362	363	365	366	366	366	356	356	356	356	360	361	361	358	359	361	366	366	355	356	357	357	360	360	359	358	357	361	369	371	372	371	368	366	365	366	359	360	358	358	358	359	359	363	365	366	365	364	364	364	366	366	368	368	367	366	364	364	365	365	365	365	366	369	369	369	370	371	372	375	375	370	355	352	352	355	357	359	359	357	357	355	356	352	351	353	352	357	357	356	352	348	350	354	359	360	360	363	367	369	365	362	354	353	352	352	353	354	357	360	362	358	355	355	356	355	355	359	358	358	358	355	352	353	355	358	361	362	356	348	346	349	351	356	359	358	355	352	349	347	347	348	347	345	357	358	358	356	355	351	349	350	352	347	345	344	344	345	345	344	343	349	351	353	351	348	347	351	355	353	353	352	348	344	351	343	350	347	353	357	358	355	349	347	348	351	354	356	355	353	353	352	351	346	348	347	346	347	352	353	352	353	342	341	348	348	350	350	348	348	349	349	346	344	345	345	341	339	333	336	338	340	342	341	342	343	341	340	340	345	344	344	344	345	344	343	342	340	342	345	345	338	336	336	336	338	342	345	348	345	340	338	336	341	345	350	350	348	348	347	348	350	350	347	344	342	342	343	345	348	344	346	349	348	343	345	344	346	346	342	339	341	342	340	340	344	343	344	342	337	337	340	341	342	343	338	339	341	340	339	341	350	349	345	344	345	345	345	344	345	344	342	341	337	335	334	333	333	335	335	335	336	338	346	347	346	344	342	342	343	343	344	341	343	345	347	346	346	346	347	350	349	346	343	342	347	346	340	342	345	344	347	347	346	346	342	340	341	340	342	343	343	346	343	341	339	341	343	341	342	341	340	339	338	343	340	345	345	344	343	341	339	337	339	338	339	338	340	343	344	343	342	340	338	335	331	330	331	334	335	338	340	340	337	336	339	343	345	345	342	339	340	341	334	335	336	335	342	344	343	341	338	333	329	332	332	336	336	335	335	333	332	331	332	338	337	333	336	342	345	341	337	335	336	336	333	332	334	334	334	335	330	331	335	337	337	331	329	330	335	339	340	343	343	334	333	333	333	334	336	334	330	324	331	334	335	338	339	341	337	338	339	339	338	336	336	337	335	339	340	340	340	339	336	333	332	331	332	332	331	335	334	335	334	334	335	336	337	335	338	333	336	339	339	338	336	334	329	326	329	330	333	336	335	335	337	339	341	336	335	334	336	336	337	336	334	339	337	334	332	331	330	330	335	337	335	333	334	334	334	335	342	338	337	336	337	335	332	333	334	334	338	339	339	340	339	340	335	333	333	334	337	337	336	337	336	332	334	337	340	342	342	339	339	337	335	339	339	338	333	0	0	0	0	0	0	0	0
357	357	357	357	354	353	356	357	357	357	357	358	359	359	359	357	353	356	354	354	353	353	351	357	359	356	356	354	358	359	359	361	361	361	362	361	359	359	359	358	356	356	356	358	356	358	360	361	355	351	353	353	357	360	359	361	358	353	351	350	352	354	359	359	357	356	352	351	352	356	364	369	369	367	364	362	357	355	353	354	356	359	359	360	359	363	363	364	366	365	366	367	368	364	364	363	362	360	361	364	364	363	363	363	363	360	361	350	350	352	356	356	354	353	351	349	350	352	353	354	354	356	355	351	349	348	349	350	350	349	348	348	346	346	342	348	351	354	354	351	345	342	344	348	349	348	356	357	355	353	355	356	358	357	352	351	353	353	352	353	357	359	356	352	341	342	346	348	347	346	345	346	347	349	350	354	359	355	351	348	345	345	347	344	344	344	345	357	354	354	347	346	343	340	339	338	338	341	342	343	342	341	341	343	346	346	345	344	342	346	351	351	351	347	347	349	348	343	343	344	348	350	350	348	347	346	345	345	343	345	347	347	348	348	345	345	346	348	346	343	346	346	343	341	340	342	345	345	344	343	342	346	346	341	339	339	340	339	338	334	334	330	334	336	338	338	336	337	335	336	339	338	336	334	339	340	341	341	340	338	334	336	342	339	336	335	335	338	339	341	338	337	339	337	333	332	335	341	351	347	343	339	336	339	341	341	340	336	335	341	342	342	337	333	337	338	339	334	335	337	337	337	338	337	331	332	334	331	333	340	340	338	336	334	335	341	340	337	335	333	335	331	332	337	338	341	342	342	341	342	343	343	343	341	335	331	331	333	333	330	332	330	332	333	336	338	341	341	343	341	340	339	337	333	334	336	339	338	336	333	330	339	340	338	336	336	330	333	334	337	341	342	346	347	346	344	337	335	331	335	335	339	339	336	332	331	329	331	334	337	337	335	327	330	334	338	332	339	338	337	334	332	330	326	326	325	324	325	333	338	341	343	341	338	337	335	332	329	331	332	335	334	336	337	333	329	331	336	338	340	339	336	338	336	336	335	331	328	328	335	339	340	334	332	330	329	326	326	332	334	335	334	332	327	326	330	331	331	334	334	335	336	333	330	328	328	329	330	330	330	331	331	325	325	327	329	330	335	331	325	325	332	326	332	336	335	331	331	330	331	332	333	330	324	322	323	331	336	337	338	337	328	328	331	335	338	334	332	332	331	330	333	331	331	330	328	328	327	328	332	332	327	328	330	330	331	332	332	335	333	329	326	325	331	336	336	335	331	328	327	326	327	329	329	332	333	333	336	340	336	331	330	330	332	333	331	330	334	335	334	333	332	329	326	322	325	330	332	330	330	331	329	330	332	334	336	333	336	333	330	331	332	332	333	335	336	333	335	336	331	330	330	331	332	331	333	330	329	329	331	333	335	336	336	334	333	333	334	335	336	335	333	0	0	0	0	0	0	0	0
349	351	350	350	349	351	352	351	351	351	350	352	355	357	357	353	352	354	355	354	354	352	351	352	355	352	352	350	347	346	348	350	352	352	356	354	355	353	353	353	352	352	352	353	353	352	353	353	351	350	350	350	351	353	349	346	345	345	347	349	352	355	358	355	355	350	347	346	346	350	358	363	365	365	362	358	355	350	349	352	353	354	355	355	359	362	364	365	363	362	357	360	360	361	360	358	357	354	354	357	362	360	347	347	349	351	351	351	346	348	351	351	350	348	345	347	344	344	343	343	346	351	349	346	345	344	342	340	340	337	338	340	340	341	343	342	348	350	350	350	340	337	340	340	342	342	344	346	347	345	344	343	338	351	350	348	348	348	349	347	351	350	349	346	344	343	346	348	346	343	345	345	348	350	352	354	355	351	348	345	345	345	347	345	344	343	340	340	342	341	342	341	342	340	338	338	338	339	339	341	338	339	339	337	340	342	342	341	341	342	342	342	342	343	345	343	343	340	335	343	342	346	346	345	344	344	344	342	340	339	340	341	341	342	343	345	347	347	345	342	334	333	336	336	339	342	342	342	338	334	331	330	333	335	336	338	337	337	337	334	330	330	330	333	335	336	333	331	331	334	337	335	330	327	332	336	337	337	338	336	333	334	337	337	335	335	336	334	331	332	334	338	339	338	336	336	338	340	342	344	342	335	335	334	334	340	340	334	333	333	334	333	332	331	330	331	332	332	331	332	334	337	336	327	330	329	331	330	331	329	328	329	330	331	335	337	337	331	331	329	328	327	327	325	330	333	334	335	334	338	338	336	339	336	329	327	327	327	332	329	331	329	329	331	329	331	331	334	339	340	339	336	334	328	327	330	331	338	335	332	330	328	327	328	328	328	329	330	332	336	340	341	341	346	346	343	336	333	330	334	333	335	333	332	332	330	327	331	332	331	328	322	322	328	333	336	331	332	329	327	329	330	329	329	329	327	325	326	328	331	336	335	336	333	333	333	329	328	329	334	333	334	332	330	329	327	323	320	330	333	333	331	332	334	333	333	331	329	327	329	324	327	328	330	329	326	324	320	321	323	328	331	329	324	319	325	330	329	329	332	333	331	325	323	322	317	323	325	327	327	328	326	321	324	326	328	329	328	330	326	323	318	317	323	327	333	331	330	330	331	332	330	329	324	321	320	322	329	324	322	320	320	323	325	327	329	327	326	325	324	325	327	328	327	325	325	324	325	327	328	329	327	323	323	326	326	327	328	329	328	325	323	322	322	325	331	333	331	329	330	332	335	333	327	325	327	327	327	326	327	327	326	328	329	328	326	326	329	331	332	330	330	327	321	321	324	327	328	328	327	323	325	327	330	329	327	329	330	330	328	326	326	328	328	327	326	326	327	328	328	328	328	330	329	328	329	328	328	329	330	330	330	330	331	330	330	330	332	335	336	331	331	0	0	0	0	0	0	0	0
339	343	346	346	348	345	343	342	342	342	347	349	352	356	356	349	350	354	356	357	357	354	349	349	347	347	347	346	343	342	342	343	346	348	348	348	348	349	350	350	350	349	349	350	349	348	351	345	347	348	350	347	347	343	342	343	343	344	347	348	352	354	350	345	345	342	342	341	341	345	351	356	360	362	360	354	347	347	350	350	348	347	346	346	347	349	351	352	347	342	339	349	355	356	353	351	350	349	346	343	342	342	344	345	349	349	346	343	343	342	347	349	346	343	342	341	339	336	335	334	340	344	345	343	338	337	333	332	333	334	337	340	341	343	342	340	343	346	347	339	337	336	336	335	336	335	336	340	344	344	343	339	342	342	339	336	336	338	342	343	341	342	341	341	341	343	343	346	344	343	343	344	342	348	350	350	350	348	346	342	342	346	346	345	342	341	339	332	334	336	337	339	339	340	342	343	344	341	339	336	336	339	341	341	340	342	343	342	338	335	334	337	338	339	340	338	339	339	332	333	335	343	343	341	340	342	341	335	333	332	335	335	336	338	338	336	337	342	341	336	327	329	333	336	337	333	329	326	325	327	326	326	328	333	332	329	331	331	333	331	330	330	331	330	333	334	329	327	326	331	334	331	322	325	328	328	329	334	334	333	331	330	334	333	332	331	331	331	332	332	334	336	337	336	334	331	337	337	339	340	339	333	333	334	335	335	332	331	325	322	321	320	320	320	323	327	329	329	331	332	333	332	326	326	328	326	328	330	331	330	328	325	326	327	332	334	328	327	327	326	328	328	326	325	325	329	330	330	333	328	328	332	331	325	323	327	325	323	321	327	322	320	321	320	329	329	329	331	333	336	333	334	331	327	326	325	336	334	335	335	336	331	329	328	329	327	323	320	320	323	326	331	337	334	330	327	326	331	331	329	329	329	330	327	328	327	326	327	327	326	323	318	319	321	325	334	331	327	323	326	326	328	329	329	326	326	325	323	328	330	330	330	332	331	327	323	323	327	325	330	331	330	321	326	325	324	318	320	322	326	326	326	325	333	333	334	333	321	318	317	318	321	324	324	324	321	319	318	316	321	325	328	328	322	318	324	327	326	326	326	330	325	318	318	315	321	317	319	322	324	314	316	320	324	325	327	327	326	326	325	319	316	315	317	320	324	325	329	330	329	325	322	320	319	322	322	324	323	322	319	318	318	318	319	326	326	325	323	321	321	325	326	326	325	323	321	322	325	326	326	324	323	323	320	319	322	325	325	323	324	323	322	320	323	331	331	326	323	321	322	324	324	322	320	317	323	323	321	322	323	324	323	325	325	324	323	323	324	326	328	330	329	322	320	319	321	325	326	325	324	323	323	325	328	327	325	326	328	328	328	326	326	325	324	325	324	322	324	325	327	327	328	328	328	326	325	326	326	326	328	330	330	330	329	324	327	328	329	325	323	322	323	0	0	0	0	0	0	0	0
333	340	343	343	343	338	334	336	339	339	343	347	351	351	351	343	344	342	344	345	345	346	340	338	338	344	344	344	341	339	339	340	342	342	342	343	345	346	345	346	349	352	352	350	346	344	343	342	343	341	344	342	342	342	341	342	342	343	344	347	349	347	343	339	339	339	338	338	333	332	333	332	336	340	347	345	341	343	345	348	347	346	344	340	340	341	341	341	340	340	336	343	347	343	342	340	345	344	343	342	339	339	339	340	340	336	336	336	337	339	339	339	338	338	335	334	331	329	332	334	333	336	337	338	336	332	331	331	334	338	339	341	344	343	340	341	342	343	342	336	334	335	334	331	331	331	333	336	339	340	339	338	339	338	333	332	333	334	336	334	336	336	339	339	340	340	342	340	340	340	339	342	340	340	343	343	343	343	342	341	339	340	344	342	340	339	337	329	329	332	333	335	334	335	336	339	342	342	338	331	331	334	342	343	339	339	336	333	331	332	335	335	337	339	340	333	333	335	332	334	336	336	334	333	338	333	331	330	330	328	330	331	333	331	330	333	334	338	338	334	330	330	330	329	327	328	324	323	325	325	325	323	325	324	324	325	328	328	329	331	328	326	324	328	327	330	330	327	325	330	327	321	322	323	324	324	326	326	326	324	328	329	331	331	330	330	328	330	331	330	330	333	330	332	327	327	329	334	334	331	332	332	332	332	333	333	332	330	327	324	321	316	317	319	320	322	324	325	326	326	326	324	321	317	318	319	324	330	331	331	326	324	323	324	325	325	323	321	325	325	328	329	328	326	323	324	327	327	326	322	318	319	321	321	321	321	321	319	318	320	320	321	323	330	328	328	327	328	330	331	328	326	324	326	327	325	329	335	336	336	336	336	334	332	327	324	321	319	318	319	322	325	327	323	326	325	326	326	325	321	320	318	324	324	326	326	324	324	325	323	318	316	317	319	326	328	326	326	324	324	327	325	323	324	325	323	322	321	322	326	329	325	325	318	317	319	321	324	321	324	324	323	323	320	320	319	319	320	321	324	325	324	326	325	325	325	324	322	317	318	319	320	324	324	323	320	317	316	316	320	326	328	328	322	321	323	323	323	321	321	319	316	314	314	314	315	313	315	318	319	315	316	318	321	320	323	324	323	319	318	315	314	312	313	313	317	317	319	321	323	316	318	318	319	320	321	315	314	315	316	316	316	315	322	323	317	316	320	320	319	323	323	323	321	318	318	319	325	324	321	317	320	320	318	318	317	317	316	317	317	317	317	321	326	329	326	322	320	319	318	319	320	321	319	318	322	323	321	319	319	318	321	322	322	322	320	319	318	320	323	326	324	320	317	316	319	322	323	323	321	320	321	322	322	324	323	324	325	323	324	324	321	322	324	324	323	320	318	319	324	325	325	324	322	323	320	319	321	318	325	329	323	323	318	317	316	316	315	315	316	312	313	0	0	0	0	0	0	0	0
332	337	338	335	335	333	332	333	336	336	342	346	348	345	345	343	338	339	340	340	340	337	335	335	334	337	341	341	340	336	335	339	343	343	343	341	342	342	342	344	345	346	346	345	345	344	342	340	338	341	342	340	340	341	340	340	340	341	342	343	345	345	342	340	337	337	336	333	336	336	336	334	337	339	341	337	335	337	337	339	340	339	338	340	340	340	341	342	341	337	338	337	337	334	335	337	337	336	334	335	335	336	336	336	336	334	335	336	336	336	337	337	337	337	334	330	327	328	330	332	332	333	335	334	334	333	331	333	336	337	338	339	340	341	337	338	339	337	335	332	333	334	334	329	327	326	329	334	337	337	335	335	335	327	326	325	329	332	333	330	334	334	334	333	333	332	336	334	335	337	336	338	339	337	335	331	335	341	337	336	332	330	334	336	337	336	334	333	327	330	331	331	329	327	331	333	336	335	330	330	329	327	326	328	333	333	334	332	332	333	333	335	335	332	330	330	330	327	330	334	332	329	322	322	319	318	320	328	327	325	324	323	326	325	325	328	330	335	336	333	332	328	327	325	326	325	320	323	321	324	324	324	322	322	322	323	324	326	326	322	323	323	321	322	325	324	321	322	322	324	324	322	322	326	324	322	323	324	325	324	324	322	323	327	327	327	328	328	330	329	328	327	327	324	325	324	324	325	328	329	328	327	329	330	331	330	330	324	321	318	317	314	315	319	321	323	323	323	321	324	322	320	317	317	316	318	319	324	326	329	321	319	319	324	323	322	318	317	320	314	319	326	326	325	323	323	324	324	322	319	316	318	320	321	321	321	320	318	318	320	321	324	332	332	328	322	323	321	321	326	324	324	324	323	324	326	322	323	324	328	327	324	323	324	322	321	321	320	318	320	322	324	324	323	322	324	325	323	321	323	319	315	316	317	317	314	314	317	319	319	316	315	316	318	324	324	325	326	322	321	324	316	322	320	320	321	319	319	321	320	324	325	320	314	316	319	319	320	319	319	322	323	321	320	319	319	319	320	321	321	321	321	322	317	320	322	323	317	316	318	319	318	317	319	321	320	316	312	312	318	321	322	319	319	319	320	321	321	317	318	315	314	313	313	313	312	311	312	313	316	320	316	312	312	318	319	319	320	318	318	315	313	312	314	315	317	316	315	313	312	310	310	313	316	318	312	312	314	315	316	315	312	312	313	313	312	312	312	314	316	318	319	319	318	316	316	319	325	322	316	314	313	313	316	317	315	316	315	314	312	310	310	315	319	321	323	321	319	314	312	317	318	318	317	317	314	314	316	313	314	315	317	318	316	315	318	318	318	316	315	314	311	311	311	311	308	307	316	321	319	318	319	319	318	318	319	319	322	321	318	318	315	315	317	321	320	314	312	315	318	319	321	320	318	316	317	316	316	315	317	318	318	317	314	313	312	312	310	310	308	311	311	0	0	0	0	0	0	0	0
332	335	334	331	331	330	329	331	334	334	342	344	341	337	337	337	336	336	335	334	334	334	332	330	329	333	335	335	338	340	341	341	341	342	342	344	343	343	343	343	343	344	344	344	342	340	339	337	339	342	340	339	339	337	337	336	337	340	340	341	341	341	338	337	336	336	336	337	335	336	336	338	337	339	340	340	335	333	337	337	336	334	336	339	343	343	341	340	338	339	335	334	332	333	333	332	332	331	330	327	330	335	335	335	334	334	334	334	333	335	336	336	336	335	332	328	327	328	329	331	330	334	336	336	333	333	332	334	329	331	334	333	334	333	331	330	328	329	331	331	332	332	331	328	326	325	329	331	333	332	331	329	326	321	321	320	324	329	332	332	327	327	326	321	322	322	323	324	324	323	333	336	335	329	329	329	328	330	330	331	328	328	329	331	330	333	333	331	327	326	327	327	327	325	323	327	323	325	328	329	329	325	326	327	328	329	329	326	328	330	328	325	326	327	326	326	329	330	330	330	328	325	321	320	319	316	317	320	324	324	318	318	319	320	321	321	322	329	327	329	324	322	322	321	317	316	320	315	317	318	322	323	322	322	323	322	321	322	322	320	318	319	319	320	320	322	324	319	316	315	316	316	321	323	322	319	321	316	321	322	323	324	324	324	324	325	326	327	327	326	325	321	321	322	323	323	320	319	320	323	323	325	327	327	327	329	321	318	317	316	316	314	315	318	321	317	318	321	319	320	319	317	315	315	316	317	319	320	319	314	314	316	318	319	323	320	316	314	313	312	314	314	315	318	317	320	322	321	320	318	319	320	323	324	322	320	315	312	314	320	323	330	334	331	322	318	320	319	318	321	323	324	324	323	321	318	321	321	322	324	319	319	318	317	319	320	320	320	315	315	318	324	323	321	317	313	316	317	316	316	318	314	313	312	311	313	315	314	317	316	316	314	317	321	321	318	325	323	320	317	311	313	314	316	316	317	317	317	318	320	318	316	315	317	317	319	321	319	319	317	317	318	317	314	316	318	318	318	321	321	320	308	304	304	312	315	315	314	314	314	314	313	315	315	314	314	313	315	314	316	317	317	317	316	316	317	317	318	317	315	311	308	313	312	311	305	305	307	310	311	309	309	310	315	316	315	311	306	314	314	316	315	313	312	312	315	311	311	314	313	311	311	309	308	307	307	309	310	314	316	314	310	311	310	310	310	308	307	308	307	312	312	310	307	309	313	319	316	315	311	310	311	308	307	313	313	308	313	311	308	308	310	312	315	320	320	320	316	313	312	315	312	313	312	315	309	311	310	308	309	313	316	317	316	316	317	318	316	314	311	312	309	310	310	309	306	306	307	309	311	313	314	314	314	313	314	315	316	316	316	316	312	312	313	313	312	312	311	309	313	314	316	317	311	310	311	313	313	313	310	312	312	312	311	309	308	308	307	306	311	314	312	0	0	0	0	0	0	0	0
330	330	330	330	330	327	327	329	337	337	341	341	340	336	334	334	335	333	331	332	331	331	331	325	332	334	335	335	337	338	339	338	341	342	343	343	343	341	340	340	339	338	338	338	339	339	337	337	338	339	339	336	334	334	334	336	337	334	334	334	333	332	332	333	332	332	331	331	332	328	329	332	335	336	340	340	337	334	332	333	333	332	334	336	333	333	336	336	336	334	330	330	331	332	331	327	327	326	321	322	326	331	334	334	333	332	332	333	332	332	334	337	337	334	330	328	326	327	327	330	325	325	324	323	324	332	332	329	324	326	327	329	327	326	325	325	326	325	327	328	324	329	329	326	325	324	326	329	328	325	324	324	321	316	316	316	319	321	324	330	325	320	322	322	320	319	320	320	321	323	324	320	324	324	327	328	325	326	329	328	325	318	320	323	327	330	331	328	325	324	323	324	325	323	319	317	318	324	322	319	319	322	321	318	319	320	321	319	324	324	325	321	326	329	328	326	327	319	318	318	322	320	319	319	317	315	318	321	322	321	323	316	314	313	315	316	315	316	318	318	319	318	317	311	311	314	314	315	315	318	322	323	320	323	324	322	318	316	315	318	315	316	317	316	319	321	321	311	309	309	310	312	316	321	319	316	313	311	312	317	319	322	319	322	323	322	317	316	321	321	320	320	319	320	320	320	318	316	318	319	320	323	318	313	315	317	317	316	315	315	314	314	314	316	315	316	316	315	315	316	316	317	316	318	319	318	314	314	314	314	314	315	315	313	313	316	316	314	313	312	311	310	311	312	313	313	315	317	318	321	322	327	323	322	319	318	315	312	310	316	320	324	324	322	318	316	318	319	319	320	321	322	324	319	315	315	316	318	321	320	319	318	317	316	318	320	320	313	313	312	312	318	315	315	314	313	314	314	313	314	313	313	312	311	310	311	313	315	312	315	314	314	320	312	315	322	323	318	315	310	310	311	311	312	312	312	315	314	316	315	312	311	309	311	314	312	317	319	316	313	312	311	310	308	306	312	314	321	310	302	301	300	304	305	306	309	315	312	312	313	313	311	311	310	310	309	309	315	311	310	312	313	313	312	309	306	314	316	316	309	306	306	305	303	303	303	304	305	305	305	306	308	309	313	314	306	304	303	305	310	304	305	308	309	310	309	309	304	304	308	304	311	309	307	305	305	306	308	313	312	304	306	308	309	309	307	306	305	306	305	305	304	304	304	303	306	312	311	309	306	305	306	301	303	307	310	307	310	305	304	307	310	312	313	312	313	310	313	312	313	310	310	309	307	308	308	309	308	308	309	311	316	315	315	312	316	311	308	305	305	305	306	307	309	308	306	306	308	309	313	315	316	315	313	312	311	313	314	314	313	312	309	308	307	307	308	309	308	308	309	311	313	310	308	307	308	310	310	311	311	310	310	312	311	309	307	306	305	309	311	311	314	0	0	0	0	0	0	0	0
327	329	327	327	327	325	328	333	336	336	339	340	337	336	336	336	331	328	328	330	327	327	327	322	331	332	333	330	330	337	337	333	333	337	336	336	340	331	331	337	334	333	333	333	332	333	333	335	337	338	335	333	333	333	334	333	329	330	332	330	330	330	328	324	324	325	325	326	326	323	319	318	320	330	331	334	334	334	321	324	325	328	326	330	328	328	328	328	328	326	325	323	323	320	323	323	320	319	315	314	321	326	329	329	326	325	325	322	322	320	319	322	326	328	328	325	324	324	321	318	317	317	316	315	313	312	325	322	321	323	324	323	320	322	322	322	321	322	322	320	319	319	319	324	322	322	322	321	321	321	321	322	321	316	316	315	317	318	321	325	324	320	320	322	321	318	319	319	320	323	325	327	323	316	312	308	309	316	320	321	319	316	319	317	321	319	313	313	310	321	321	319	321	321	319	322	325	321	314	312	312	312	314	313	314	320	316	315	314	315	320	320	323	325	327	326	318	316	312	314	319	318	316	316	316	314	317	315	316	307	309	307	308	314	315	313	312	312	312	314	315	315	314	308	312	313	314	312	314	315	320	321	321	321	321	319	315	314	313	314	318	315	312	310	310	311	310	312	308	309	309	311	316	310	314	311	310	307	306	307	306	310	311	308	309	309	305	303	305	308	316	317	318	318	318	316	314	313	315	316	316	315	310	312	313	313	312	312	312	313	314	313	313	315	315	314	314	313	313	315	312	312	313	312	312	311	311	311	312	313	314	313	311	307	307	307	312	316	315	313	310	308	311	311	310	311	315	316	315	315	316	315	312	310	309	317	315	313	311	312	315	315	314	313	311	311	311	312	313	313	316	317	317	314	311	309	312	310	314	317	316	316	315	314	315	317	315	312	312	309	308	310	309	309	312	313	313	313	312	310	310	310	310	309	309	309	311	311	311	311	312	315	312	310	310	308	307	310	309	310	310	309	309	308	310	310	311	313	312	311	309	308	307	309	312	308	306	313	312	309	307	307	306	305	303	303	300	299	297	297	297	299	302	304	305	309	312	310	312	312	310	306	304	300	298	301	304	305	302	304	306	308	309	307	303	304	304	306	307	306	305	303	303	303	301	302	303	306	305	306	303	304	305	306	312	306	304	301	304	306	303	301	302	308	308	309	308	304	302	305	301	298	300	298	299	303	304	304	305	300	299	300	309	307	306	305	304	304	302	302	303	303	303	303	304	306	309	309	306	303	303	301	302	303	305	303	301	299	300	302	305	309	310	303	303	304	304	307	307	308	307	307	305	304	305	308	309	308	308	307	312	314	313	313	310	308	308	306	301	301	302	302	304	307	307	307	308	307	307	312	314	314	310	312	310	308	308	308	308	309	307	304	302	303	304	306	309	308	307	308	307	306	305	303	302	301	301	306	310	310	310	310	312	308	305	304	303	306	307	308	309	303	0	0	0	0	0	0	0	0
318	322	324	324	324	326	329	332	335	336	336	338	336	333	333	333	327	327	324	324	321	321	321	318	322	329	329	327	327	325	326	327	332	333	333	333	329	327	325	328	326	327	329	332	324	324	326	328	329	332	332	331	330	330	322	323	323	322	327	330	329	329	321	315	316	318	318	322	323	324	321	318	317	322	325	325	328	325	327	318	319	322	324	326	318	319	319	325	328	326	323	317	315	317	318	317	317	316	318	318	318	320	321	322	320	315	319	322	319	316	315	315	318	321	322	321	320	318	316	316	314	314	314	313	311	310	313	313	316	317	319	314	313	311	310	312	314	316	315	314	313	314	315	315	317	318	321	319	318	319	318	318	316	317	317	316	315	317	318	320	320	319	319	321	321	319	320	320	321	319	321	324	322	319	308	306	306	313	315	314	316	317	312	312	312	312	312	311	309	311	318	319	320	319	318	323	322	318	313	312	311	311	312	313	313	315	314	313	313	315	314	317	320	317	320	315	315	309	306	306	309	310	310	309	310	315	314	309	306	308	308	307	308	308	310	312	310	310	310	311	311	311	308	301	302	304	306	309	311	313	314	311	316	318	318	315	315	314	314	311	314	313	311	307	308	309	312	312	308	309	307	306	308	313	310	308	307	306	305	306	313	311	310	308	306	306	305	303	302	304	306	312	312	311	314	312	311	311	312	313	310	306	307	312	313	313	312	311	310	306	312	312	310	309	309	311	313	313	313	313	311	310	309	310	311	308	308	309	312	313	311	310	311	307	305	307	308	309	309	309	310	309	305	303	302	305	308	312	310	308	308	307	308	306	304	306	307	310	310	308	312	311	312	310	308	309	309	309	306	306	308	311	311	308	308	307	303	307	305	310	315	313	312	312	313	314	312	310	309	307	304	306	305	305	308	310	312	311	310	310	309	307	308	307	307	307	308	311	309	310	308	307	305	305	307	306	306	307	309	310	310	309	308	311	312	310	309	308	307	307	306	302	303	307	310	306	304	301	300	299	303	303	303	303	298	296	294	297	295	295	298	305	302	302	303	312	310	308	309	310	308	305	296	294	295	296	297	299	299	300	303	302	306	304	304	302	301	299	301	302	302	303	301	300	301	304	304	303	301	302	305	303	302	300	300	300	300	303	302	301	300	301	299	300	303	303	304	304	304	301	298	298	299	299	296	299	303	302	303	296	297	305	308	304	304	303	303	305	301	299	300	299	299	300	301	301	302	305	302	300	299	299	299	304	303	301	298	296	296	298	300	299	298	298	298	298	298	298	304	306	306	304	302	302	304	306	306	305	307	308	309	310	309	309	307	305	301	301	300	300	301	301	301	302	309	310	303	303	301	305	307	305	304	302	302	305	305	305	303	302	297	298	302	303	305	304	302	298	297	298	298	303	303	303	301	299	297	298	299	304	304	304	308	308	305	302	300	303	303	301	299	301	0	0	0	0	0	0	0	0
321	321	321	323	325	325	326	324	323	324	324	326	328	330	328	328	325	325	323	319	319	317	317	314	318	323	322	322	322	321	322	323	328	329	329	329	328	324	323	321	322	325	325	318	318	319	322	325	327	325	323	322	320	319	319	317	318	320	323	322	323	322	313	309	309	314	314	317	320	322	322	320	317	317	319	319	319	312	314	317	316	318	320	317	316	315	317	317	323	323	319	314	313	317	317	313	314	316	318	319	320	319	318	318	314	313	314	316	317	317	314	312	311	318	318	319	316	315	315	314	314	313	312	312	310	311	313	313	314	314	316	321	320	316	310	307	310	313	313	310	303	301	301	304	309	311	314	315	317	318	318	317	315	315	316	316	315	314	315	311	311	310	309	314	315	314	318	320	317	311	314	320	322	317	314	306	308	309	313	310	308	307	301	304	309	310	310	309	309	310	315	318	320	319	319	318	318	312	312	313	312	310	309	308	311	312	311	309	307	308	311	310	310	311	313	314	311	309	306	305	308	311	309	306	306	310	307	306	309	305	304	306	308	309	308	310	311	312	311	310	309	308	308	302	304	305	307	307	308	310	310	308	304	303	307	313	311	309	310	310	312	313	308	307	308	308	308	305	306	304	305	305	307	305	305	304	303	304	304	304	313	312	310	307	307	305	303	302	304	305	301	306	307	311	310	309	306	306	304	306	306	305	308	310	312	312	312	310	309	307	302	302	305	307	309	311	313	313	311	310	310	310	308	306	307	306	304	304	309	311	310	307	307	306	306	307	307	307	308	307	307	304	300	300	303	300	300	301	303	303	304	306	306	304	299	304	304	307	307	308	309	309	307	304	301	305	306	305	304	304	306	304	304	303	300	299	302	300	300	303	309	309	304	305	309	310	310	307	305	304	300	302	302	304	303	306	309	310	304	307	306	307	307	307	306	307	306	307	306	306	304	303	302	302	306	306	306	305	304	305	305	307	307	306	309	309	307	303	304	303	301	300	302	304	307	307	298	297	296	296	299	300	293	295	294	295	297	295	294	293	298	302	301	300	301	306	305	305	306	299	296	293	294	295	295	294	295	298	298	297	298	299	297	302	299	295	294	296	298	300	300	300	300	300	301	303	303	301	300	303	302	302	300	290	288	287	297	299	300	296	294	299	301	302	303	303	305	305	305	300	296	298	300	300	296	296	299	300	298	295	293	297	302	299	297	301	301	305	298	296	296	295	296	297	298	298	295	294	295	295	295	296	297	297	299	299	295	293	292	296	298	297	295	295	295	297	297	297	297	299	302	300	300	299	301	302	304	302	301	306	306	307	306	303	301	301	297	296	299	297	298	299	300	300	301	302	302	302	301	301	299	296	296	297	297	302	302	302	302	297	296	297	301	303	303	302	300	295	294	295	295	296	299	302	299	297	295	295	299	301	301	304	307	307	305	302	298	295	300	297	294	294	0	0	0	0	0	0	0	0
321	319	317	316	316	316	317	316	317	317	317	321	325	323	324	325	320	319	318	316	312	309	309	310	315	319	319	318	318	318	317	318	322	322	324	323	323	322	321	320	322	323	318	315	315	316	319	321	322	322	324	324	321	316	316	312	313	315	315	318	320	320	314	311	309	310	313	313	317	318	319	319	318	316	317	314	312	310	312	313	315	313	314	313	314	311	312	312	319	318	315	310	310	315	309	311	312	313	316	317	316	316	314	313	311	311	313	314	314	314	313	312	309	312	312	312	313	314	315	313	311	311	311	311	313	315	315	315	316	316	315	314	316	314	311	310	311	314	317	312	307	309	311	313	311	310	311	313	314	315	316	315	313	309	309	314	312	310	309	308	307	307	306	306	305	305	304	308	309	309	311	312	315	314	312	306	304	307	309	304	304	306	306	302	301	297	298	298	298	309	314	320	321	316	310	307	308	309	310	312	313	311	308	306	307	307	311	307	307	307	306	306	305	305	309	311	311	308	305	307	310	310	308	306	303	304	305	305	304	298	301	304	305	306	307	308	308	308	301	301	307	308	308	306	308	308	307	305	306	308	308	306	301	300	300	299	297	304	309	311	310	310	309	308	308	307	304	301	301	303	304	306	308	305	304	302	302	303	304	300	303	310	308	307	307	307	308	302	300	300	300	299	301	302	308	309	305	303	304	306	306	304	305	301	302	310	310	305	306	305	301	298	301	306	308	310	310	310	309	306	308	303	307	306	305	304	302	303	309	308	304	303	304	305	308	306	305	305	306	307	306	303	301	300	300	300	300	300	302	302	303	304	304	299	297	303	301	304	307	307	305	302	306	307	303	303	305	305	304	302	302	304	300	299	299	298	298	299	297	298	303	305	304	300	305	307	306	304	299	297	297	297	299	301	301	302	303	302	302	307	309	309	310	307	306	302	302	301	304	301	300	301	300	299	302	304	306	305	305	302	302	301	302	300	301	306	304	302	301	300	298	295	294	298	298	302	298	297	296	294	295	294	289	290	294	296	297	297	295	295	298	300	299	296	299	305	303	302	298	293	292	292	295	296	295	295	294	296	298	297	296	296	301	300	299	293	292	294	295	295	296	299	300	299	299	300	297	298	299	300	296	295	296	293	288	287	292	296	293	290	293	294	300	299	299	300	304	304	297	293	294	294	303	304	300	294	292	297	296	296	294	294	294	295	293	301	302	297	295	288	289	289	293	296	298	296	294	291	292	293	294	296	297	296	294	293	291	291	291	294	295	295	292	292	292	294	295	295	294	293	293	298	297	297	297	298	296	299	300	299	300	299	297	299	299	299	295	295	297	296	294	298	298	296	299	299	300	299	300	298	299	297	294	294	295	297	297	299	295	294	294	295	295	296	295	297	297	294	293	293	294	295	296	298	301	297	295	294	296	296	297	300	302	306	305	298	294	292	289	290	289	293	293	0	0	0	0	0	0	0
316	313	310	311	312	312	313	313	313	315	315	318	311	315	320	320	315	314	312	307	306	305	305	311	314	317	317	316	314	314	312	313	315	318	319	318	318	319	321	321	320	317	315	313	313	315	315	312	312	313	311	311	310	310	310	309	309	308	312	314	316	314	313	312	309	310	311	311	312	314	315	317	317	316	315	314	313	311	312	311	309	308	311	311	311	309	307	309	309	310	312	306	308	306	307	307	309	309	315	315	313	314	312	310	308	309	310	310	311	311	310	304	304	304	306	309	308	312	314	313	310	309	309	309	311	310	311	313	315	315	314	312	310	309	308	306	309	310	309	308	308	309	311	314	314	313	312	311	311	310	310	312	311	307	304	307	307	305	305	303	304	305	307	306	304	303	302	302	303	308	309	311	310	313	310	306	302	302	300	301	307	308	306	305	298	296	301	302	301	302	302	309	310	307	300	299	302	305	307	308	308	301	304	304	304	304	307	304	306	305	304	302	301	301	302	306	305	303	303	308	308	308	305	305	301	302	300	301	294	294	297	307	300	300	298	298	299	305	300	298	299	302	309	309	308	308	307	307	306	308	308	304	300	295	294	296	297	305	309	309	309	307	304	308	308	305	301	299	300	302	304	306	308	305	304	303	304	298	298	298	304	307	305	302	304	309	305	303	302	301	301	300	300	300	303	302	300	298	300	304	304	301	297	298	296	297	299	299	301	300	299	299	299	299	301	302	302	306	301	301	298	292	295	296	298	297	296	295	297	300	300	300	303	302	302	301	297	299	303	304	303	303	303	307	306	303	301	300	300	300	300	302	298	295	297	297	296	295	293	293	296	300	304	305	306	306	304	308	307	302	302	300	298	299	298	298	298	297	295	294	296	302	303	298	297	304	301	298	299	298	298	296	292	297	298	297	293	295	297	301	307	311	309	301	298	298	294	296	294	299	297	299	299	297	296	295	298	303	302	302	299	299	298	299	299	301	300	299	298	297	294	294	294	296	298	301	297	292	290	293	293	293	289	289	292	294	295	295	294	294	293	295	293	294	296	298	295	293	292	289	290	290	290	289	292	292	293	295	295	296	295	295	297	297	297	293	293	287	285	287	294	296	298	297	298	298	289	292	302	300	289	292	290	289	287	289	287	291	292	291	288	288	293	296	297	300	302	304	298	297	297	295	294	294	294	293	288	297	296	293	289	291	291	292	296	296	294	295	297	296	294	294	291	289	289	288	288	287	288	288	291	294	296	295	293	293	290	289	291	292	292	291	290	289	285	288	289	288	288	290	293	293	293	293	293	294	296	295	295	297	300	300	298	298	297	300	295	294	295	293	293	296	296	294	296	296	297	294	293	295	295	297	294	294	293	293	292	289	286	292	292	289	291	296	295	294	293	293	292	292	294	294	295	295	299	297	295	293	293	293	295	298	299	302	298	295	295	293	293	292	291	285	285	0	0	0	0	0	0	0
305	302	303	306	308	308	307	307	307	307	304	304	302	309	314	315	298	298	303	302	304	308	308	312	311	315	315	311	306	306	302	300	303	305	311	313	313	313	311	312	312	312	308	309	310	310	305	305	306	308	307	307	307	306	307	307	307	304	306	308	310	310	309	308	307	307	308	308	306	303	305	306	307	308	308	309	313	313	313	308	308	307	310	310	309	306	304	303	303	303	302	304	302	304	305	305	304	304	303	303	303	304	307	305	305	307	308	309	308	307	300	300	302	302	303	303	304	308	312	309	304	304	305	306	307	309	311	313	313	314	312	310	308	305	303	303	304	304	302	301	301	301	301	302	307	311	309	308	306	306	306	305	303	301	298	297	300	302	303	302	301	303	305	307	306	298	297	293	293	297	299	300	302	301	295	293	293	297	298	303	305	305	304	301	298	296	300	301	300	299	298	297	295	299	299	298	300	303	305	306	307	297	297	299	300	300	298	298	295	300	302	301	299	298	300	300	301	299	302	302	305	304	304	302	299	297	297	296	291	293	294	307	299	299	298	298	299	299	296	296	292	295	300	301	308	298	300	300	300	298	303	305	300	294	292	295	300	305	307	307	306	303	302	304	307	305	298	297	297	300	302	298	296	296	293	293	292	292	291	291	295	296	296	299	300	302	301	302	297	300	300	299	300	294	295	298	297	294	297	297	297	294	295	294	299	300	300	303	299	292	292	298	296	296	298	297	295	292	292	290	289	293	294	294	295	292	293	294	295	293	294	296	299	300	301	299	296	298	301	302	302	301	302	303	303	301	298	297	296	298	296	293	293	295	296	297	296	294	291	289	289	292	297	301	303	303	303	304	305	295	293	298	300	299	296	298	298	296	295	295	295	296	294	300	301	297	298	296	297	299	297	293	290	286	286	292	292	292	291	291	293	293	296	296	298	296	295	294	291	289	293	293	297	296	295	293	295	301	294	299	298	297	297	297	295	293	289	290	297	295	294	292	292	293	294	295	293	290	287	284	292	291	285	288	291	291	292	291	289	290	291	290	290	291	296	295	294	291	290	286	287	288	289	288	286	288	289	292	295	295	295	297	295	296	294	294	292	285	284	287	289	293	293	292	286	286	288	292	299	293	286	288	286	285	283	288	286	284	284	287	284	283	284	293	293	288	291	300	300	300	297	293	290	290	293	287	287	286	287	289	289	290	290	291	291	291	292	290	292	293	289	286	289	288	290	291	290	286	285	285	286	290	290	287	287	290	288	288	287	288	289	287	281	283	284	286	288	287	287	288	289	289	291	291	290	292	293	293	292	294	296	295	297	295	299	294	294	294	294	292	292	297	293	290	282	285	287	288	288	291	293	295	295	290	290	286	288	288	285	285	288	286	287	295	290	291	289	287	289	289	291	293	289	289	289	292	290	290	290	291	294	294	291	291	293	294	294	294	294	293	285	283	283	0	0	0	0	0	0	0
296	296	297	299	303	303	304	305	302	304	299	299	299	302	306	298	294	295	297	303	304	307	306	306	307	309	311	311	304	304	298	298	296	298	301	305	303	303	306	308	308	308	304	306	304	304	301	301	302	303	303	304	303	301	297	297	299	301	302	303	306	306	305	305	303	304	305	304	304	303	304	305	306	306	307	309	311	305	304	296	295	296	296	297	298	299	300	302	301	301	297	295	295	301	301	302	299	300	300	297	294	299	300	301	299	302	303	302	300	296	295	297	299	301	302	301	300	305	303	303	296	296	299	302	305	308	311	309	305	305	305	306	305	303	300	300	300	300	300	298	297	294	297	299	301	305	306	305	303	303	303	302	301	298	296	296	296	299	300	299	299	300	299	297	297	294	292	285	294	296	298	300	300	297	294	291	291	294	296	295	294	297	298	300	297	295	293	292	292	295	296	293	292	295	294	297	297	298	298	297	296	294	293	295	297	297	293	295	293	292	296	296	297	297	299	298	296	293	292	292	296	298	299	296	293	293	294	294	296	294	292	291	295	294	294	294	293	295	292	289	289	292	294	296	299	296	297	297	291	293	302	304	304	304	299	298	293	298	300	304	303	298	301	299	303	298	295	295	294	295	297	294	292	292	292	290	287	286	287	294	294	294	295	298	298	298	301	302	294	291	298	297	294	293	293	293	293	298	295	295	298	297	295	297	299	300	299	298	297	296	296	296	296	293	294	293	294	293	291	290	291	294	296	296	292	291	292	292	292	290	293	296	298	298	298	295	293	294	291	291	292	297	297	298	297	297	297	295	292	292	293	293	293	295	296	297	295	293	290	289	288	291	296	294	295	294	294	290	288	287	288	293	299	297	296	293	290	295	293	291	291	294	298	290	289	289	292	292	289	288	287	288	285	286	286	290	291	291	290	287	281	284	294	293	290	288	290	294	293	286	291	288	292	292	292	289	292	293	291	289	286	286	294	295	293	291	285	286	294	293	293	292	292	288	287	289	290	289	289	283	284	284	286	286	288	288	288	288	286	285	285	288	288	288	294	293	291	290	288	286	286	286	286	285	285	288	288	290	293	297	299	298	294	294	294	294	293	291	287	288	290	286	288	289	286	288	288	295	292	285	287	286	285	284	281	281	288	287	290	279	280	283	283	287	286	286	284	293	294	296	291	287	283	281	276	280	283	286	288	288	287	287	288	289	289	289	289	287	290	289	285	284	283	283	283	290	290	288	282	281	281	286	286	286	286	284	286	285	286	286	285	286	283	282	285	287	288	287	288	288	289	291	290	289	289	289	290	291	290	292	293	292	289	289	291	288	290	290	291	291	291	290	288	281	281	283	285	286	288	289	290	289	286	286	289	291	289	284	284	283	284	283	284	285	280	283	283	286	287	290	291	290	283	283	281	280	288	288	288	289	288	288	285	285	287	292	293	293	291	284	281	281	281	0	0	0	0	0	0	0
294	294	295	302	304	304	304	302	301	299	297	297	296	296	295	294	298	298	298	298	298	297	299	299	304	309	310	309	303	303	300	300	299	299	300	301	300	300	305	304	304	304	303	303	300	300	300	300	299	299	299	298	298	297	294	294	295	299	300	303	302	302	301	302	300	299	299	302	302	304	304	302	301	303	306	309	294	295	295	295	289	289	288	288	291	290	292	293	294	295	295	294	292	293	292	296	297	294	292	291	295	294	298	299	300	292	293	293	293	294	293	294	296	299	296	298	297	295	295	295	298	295	295	294	296	298	297	291	296	298	299	295	298	297	295	295	298	299	298	294	291	293	296	299	300	298	301	301	300	299	297	297	295	292	296	295	295	295	295	296	295	295	299	299	299	298	290	286	287	289	294	297	298	297	294	295	296	298	301	292	288	288	289	292	296	294	293	285	290	291	285	285	287	287	288	291	289	291	294	292	293	291	291	288	288	289	289	290	290	291	294	295	295	295	297	298	290	286	288	290	291	292	295	291	289	287	291	293	290	290	289	291	291	290	288	289	290	289	291	289	291	292	292	294	291	292	289	293	290	291	301	301	299	294	293	289	290	290	289	290	295	295	293	292	294	298	295	292	288	288	289	291	291	292	291	289	287	289	292	295	293	292	295	296	296	297	295	292	290	287	292	293	295	290	289	288	291	291	295	295	297	296	297	298	298	288	285	281	286	290	292	293	294	292	290	285	283	283	285	287	289	289	291	290	292	290	291	293	291	292	288	293	295	296	295	292	290	290	291	292	292	291	295	294	292	292	293	292	291	289	290	291	293	293	294	293	286	287	289	291	290	290	292	286	286	288	288	286	287	288	285	288	295	295	292	287	287	288	288	288	289	291	292	292	289	289	288	288	289	291	290	287	285	285	286	288	288	289	286	281	281	283	283	284	286	286	290	290	289	287	288	290	290	292	289	285	289	290	291	290	289	291	292	292	290	287	285	287	293	294	292	290	286	285	281	284	288	289	289	288	283	284	284	281	285	284	283	284	285	285	285	285	284	284	286	286	286	286	284	284	284	283	284	283	283	285	287	291	292	292	291	297	293	290	290	292	292	291	289	282	282	286	285	286	286	286	286	287	291	286	284	285	284	281	280	285	285	285	287	284	283	282	285	285	283	280	284	289	290	288	286	278	277	278	279	281	282	284	282	283	284	285	286	286	287	287	288	284	285	279	277	274	278	281	281	284	285	286	275	276	276	282	284	283	281	281	283	284	284	286	287	285	281	282	285	287	289	288	291	294	290	283	284	287	285	286	288	289	288	287	289	287	286	286	283	283	285	287	288	288	287	286	283	282	282	284	284	285	287	287	287	286	286	282	285	284	282	282	282	281	279	278	281	278	277	278	280	285	284	283	283	283	282	281	280	279	278	281	281	281	283	284	283	282	283	286	288	291	287	282	280	280	280	0	0	0	0	0	0	0
294	294	297	299	298	299	299	301	298	296	294	294	292	292	294	296	300	300	298	297	295	293	297	297	299	303	305	303	303	302	302	301	300	299	298	297	295	295	295	298	295	299	300	302	302	299	299	299	296	295	296	296	295	293	292	293	293	296	299	299	300	299	299	299	299	298	297	297	297	297	298	294	289	293	297	293	291	285	288	291	295	290	288	289	289	285	287	288	291	293	293	291	288	288	291	291	296	293	288	287	292	295	296	296	295	297	296	294	292	290	290	292	296	295	296	296	287	285	293	296	297	296	295	294	296	297	297	291	294	297	298	298	295	293	289	287	293	293	294	293	293	292	297	297	298	296	295	296	293	289	289	292	290	288	291	293	293	296	289	290	294	297	300	300	297	293	289	286	288	289	288	289	291	293	296	295	294	293	292	287	287	283	285	287	291	291	289	285	287	288	288	284	281	284	286	285	285	285	283	282	287	288	288	287	284	287	288	288	290	291	292	294	294	295	296	288	287	286	284	286	288	289	289	289	289	288	289	289	287	283	284	286	282	280	281	282	282	281	284	285	287	289	287	289	291	290	288	287	285	285	284	287	288	287	288	289	287	287	286	285	285	287	287	287	291	293	291	289	289	289	289	291	290	287	288	288	286	285	285	287	287	292	293	295	293	294	293	290	285	285	288	292	290	287	287	286	287	288	289	291	293	294	290	290	284	283	283	280	281	284	288	286	290	289	284	284	282	284	286	288	288	289	289	290	291	289	285	283	284	285	285	290	288	288	286	283	285	289	291	290	289	286	290	291	286	286	288	288	286	285	286	287	288	288	286	284	285	287	291	293	292	289	286	284	285	284	286	285	285	286	285	285	291	292	289	281	284	285	285	286	287	288	290	290	289	288	289	290	292	292	290	287	287	285	286	286	286	286	283	282	282	282	283	283	283	283	287	290	293	293	291	290	292	288	285	286	287	286	285	290	290	290	289	289	277	278	286	285	281	282	287	290	286	284	280	283	284	288	289	289	282	283	281	280	277	277	277	281	282	284	284	284	282	281	281	282	281	280	281	282	281	283	284	285	283	285	288	285	286	292	289	290	288	284	282	280	278	277	281	280	282	285	286	283	283	284	284	283	283	281	279	276	277	281	281	282	284	286	286	282	282	281	283	282	281	278	285	287	287	286	286	284	280	281	279	279	281	281	280	282	283	284	284	284	283	284	285	284	282	276	274	275	274	276	279	283	282	280	275	273	275	280	282	282	281	279	279	278	280	282	283	281	279	282	282	284	287	287	288	293	287	285	283	283	282	283	285	278	278	281	282	283	286	285	283	282	284	286	287	286	286	284	284	283	281	282	283	284	284	284	284	281	281	279	281	281	281	281	281	281	277	275	277	277	278	278	282	283	279	278	278	281	279	278	278	277	277	277	276	275	277	279	282	283	281	284	286	285	282	279	279	279	279	0	0	0	0	0	0	0
290	290	294	288	292	294	294	294	294	291	289	288	288	288	294	300	300	299	296	291	291	293	294	294	296	297	298	297	297	301	301	302	301	300	297	294	294	294	292	291	292	296	297	295	298	296	296	291	290	293	293	293	292	290	291	293	293	296	297	294	295	294	294	297	299	297	294	296	296	296	295	293	291	293	292	290	288	285	287	292	293	291	288	288	288	285	288	288	291	293	289	289	287	286	288	291	290	287	286	286	289	290	293	293	292	295	296	293	294	292	293	295	294	294	292	289	289	290	291	290	291	293	294	295	293	291	291	290	293	297	296	295	292	289	287	287	286	286	290	291	292	291	292	292	294	291	291	288	288	289	291	290	289	288	287	289	289	290	289	286	291	295	297	295	292	287	288	288	288	287	286	286	287	291	295	294	290	288	287	287	287	287	282	285	286	284	282	284	285	285	285	281	281	281	284	285	285	284	283	285	286	288	290	289	283	287	287	285	288	287	290	293	294	291	288	289	288	288	284	287	287	285	283	287	287	287	290	290	285	282	283	284	282	281	280	279	282	279	282	283	283	285	285	288	287	288	285	284	284	284	283	281	281	282	287	288	287	285	283	284	284	285	286	284	287	288	287	287	290	289	288	285	285	286	285	282	284	283	283	285	276	278	278	280	281	286	288	287	285	283	286	288	288	283	284	281	283	285	283	282	282	288	287	284	281	281	281	281	283	285	286	285	285	281	283	284	283	284	287	286	286	286	287	287	289	284	282	280	277	280	280	285	285	284	282	281	285	287	289	286	281	279	279	281	281	282	285	286	285	283	283	283	281	282	283	286	281	287	290	290	285	287	285	285	283	282	283	281	282	285	282	281	287	287	280	280	281	281	281	282	283	285	286	287	286	286	287	289	290	289	286	286	286	284	282	283	284	284	282	281	280	282	282	280	283	284	282	284	293	294	289	288	284	287	287	283	284	284	283	283	289	287	287	286	287	280	281	279	281	281	281	282	283	283	279	281	286	286	288	280	280	285	280	278	278	277	277	279	282	275	274	276	280	277	277	278	279	278	278	278	280	282	283	282	284	282	281	282	284	285	287	284	283	276	281	278	277	275	274	275	277	279	279	283	282	282	273	273	273	274	277	282	277	278	279	283	282	284	284	281	279	279	279	273	279	280	280	278	281	283	284	282	278	276	277	276	278	280	277	279	280	282	282	281	281	284	284	283	281	281	276	276	275	277	276	278	280	276	275	273	275	278	281	281	279	273	271	274	274	277	277	278	278	279	279	280	283	284	283	282	280	281	281	276	275	276	276	276	273	277	280	281	284	283	276	277	283	284	284	283	283	282	282	281	282	280	279	279	281	281	281	281	278	277	277	276	278	280	281	279	275	274	275	278	279	279	280	278	278	277	276	274	276	275	274	275	276	276	276	275	272	275	279	282	281	277	279	279	276	274	274	276	276	0	0	0	0	0	0	0
288	288	288	287	288	289	289	288	284	282	282	282	282	288	293	298	299	290	291	293	294	294	294	296	296	295	293	292	291	295	295	297	297	297	295	293	292	290	290	290	291	289	292	290	292	288	288	286	287	288	287	286	285	284	287	289	289	292	292	291	289	287	289	289	291	290	290	289	291	291	292	291	290	291	288	288	287	280	280	287	294	290	288	285	284	283	284	288	288	286	292	288	288	286	282	285	284	284	285	286	286	283	284	287	287	287	287	290	288	288	288	289	289	289	290	291	291	290	289	289	289	292	287	287	289	291	290	287	290	291	294	288	287	287	288	287	286	284	283	289	290	293	288	288	288	290	289	286	287	288	288	290	289	287	286	290	290	289	288	287	286	288	289	291	287	286	284	285	285	284	282	285	286	289	293	292	289	288	288	284	286	282	284	282	281	279	278	280	283	284	284	285	281	280	277	284	281	282	284	285	284	284	281	279	270	286	287	282	282	286	288	290	286	284	285	281	279	279	283	285	285	285	281	282	282	283	281	290	282	280	278	279	280	280	280	281	282	282	276	276	282	282	284	283	285	286	282	270	273	273	276	277	280	281	283	285	287	285	280	280	283	285	281	281	283	284	284	285	288	289	287	285	284	280	280	281	281	277	279	276	278	274	276	278	277	282	284	284	282	281	281	281	281	279	274	281	284	284	280	277	278	280	280	280	280	279	280	281	284	286	287	281	281	281	282	282	284	286	285	287	284	284	285	286	284	280	280	279	279	278	277	277	280	280	279	280	284	285	284	284	282	278	278	274	272	275	273	271	273	277	278	280	280	278	275	277	278	280	282	283	284	284	283	284	282	282	282	279	279	281	281	277	281	281	278	277	278	276	283	283	280	282	281	276	282	285	285	285	284	285	283	284	282	279	277	277	278	281	281	281	280	281	279	283	284	283	281	283	284	283	283	277	286	284	281	279	277	282	281	282	282	285	287	280	281	282	279	276	279	279	281	283	283	281	280	281	279	276	275	277	276	277	284	283	275	276	276	279	274	274	275	275	275	280	272	272	275	276	278	280	281	280	283	289	286	285	281	280	279	279	272	272	267	268	271	272	273	273	271	273	275	276	273	276	277	282	277	272	273	275	277	273	276	276	276	283	285	284	281	279	281	280	280	276	278	279	279	275	278	279	280	279	277	275	275	273	274	276	280	279	281	280	280	278	278	278	278	280	281	279	277	277	274	273	272	276	275	272	274	273	274	278	278	276	280	273	271	273	273	274	275	275	275	272	275	279	280	280	279	276	276	277	278	274	273	274	276	276	274	273	279	278	279	274	278	277	274	274	274	280	279	280	281	279	279	278	277	278	279	279	279	280	278	275	273	272	278	277	273	272	272	271	270	269	271	274	276	276	275	274	275	274	271	269	270	271	271	275	276	272	272	275	276	275	275	275	274	273	272	272	272	273	275	0	0	0	0	0	0	0
287	287	287	286	282	283	279	279	277	277	282	285	285	289	289	290	290	289	289	291	293	293	294	295	295	295	292	290	286	294	298	298	298	295	291	289	292	289	289	288	288	282	283	285	289	284	284	284	286	285	285	285	285	284	285	287	289	289	285	285	284	283	280	279	279	280	280	285	289	286	286	289	288	289	288	286	286	284	283	280	286	288	287	285	282	282	280	281	285	282	281	280	280	280	282	282	282	283	284	284	285	280	277	275	278	284	286	286	286	283	284	285	286	286	287	287	287	289	288	281	282	281	283	287	286	287	287	284	283	288	289	288	285	285	289	289	287	285	281	285	290	284	283	285	280	283	287	285	284	285	287	288	288	288	287	287	290	290	287	286	283	282	284	287	283	283	282	282	283	281	280	279	282	286	290	290	287	285	284	282	281	286	280	277	279	277	277	279	281	283	283	284	278	277	275	275	276	277	277	279	278	277	275	274	274	271	277	279	280	285	286	282	278	279	278	280	280	277	279	281	283	284	284	281	280	279	277	281	287	277	274	276	274	278	277	277	279	275	277	280	282	281	280	284	283	283	282	271	273	272	275	276	280	280	280	276	275	273	273	275	279	277	280	279	278	279	281	285	280	284	284	284	283	281	276	276	277	276	277	274	275	275	272	277	278	281	281	280	279	272	276	275	273	276	278	277	280	280	279	279	274	277	277	277	277	277	279	280	280	280	281	277	278	279	279	279	280	281	284	284	284	289	285	284	281	280	279	281	279	277	277	278	274	276	278	286	286	287	285	282	278	274	275	274	271	270	269	269	271	274	275	275	280	278	274	273	274	277	277	279	280	281	279	274	276	278	280	277	275	276	277	274	279	278	277	275	273	273	276	282	276	277	273	275	278	283	281	281	282	280	280	281	278	276	274	271	272	279	278	276	276	279	278	282	283	283	281	276	274	275	274	276	283	284	280	277	277	275	282	280	283	277	274	274	275	278	276	275	276	278	279	278	282	282	278	280	278	276	276	275	275	274	274	272	270	273	274	274	278	277	275	277	274	278	278	278	277	278	279	277	278	279	278	274	275	276	275	275	275	275	270	271	266	267	269	271	273	271	270	270	271	272	271	268	273	275	267	265	274	275	276	275	275	275	272	272	273	273	273	273	273	273	272	269	272	276	275	276	275	276	275	280	276	275	274	273	273	274	280	280	279	276	279	277	277	274	277	277	278	277	278	278	272	271	274	272	272	272	272	272	268	271	269	270	273	271	271	270	273	273	275	274	270	267	269	275	277	276	277	275	273	271	272	273	275	273	269	274	273	273	274	274	272	273	279	277	275	272	270	271	275	277	278	278	277	275	275	276	276	276	278	278	279	273	271	272	272	273	272	270	269	268	268	270	269	270	274	274	274	271	273	271	270	270	270	268	268	276	277	274	272	272	273	275	274	272	272	270	269	271	271	272	272	0	0	0	0	0	0	0
284	283	283	280	279	278	276	276	277	282	283	285	285	288	287	287	288	283	283	285	286	288	291	294	294	293	290	288	288	287	287	287	292	293	286	283	281	280	280	281	282	282	281	280	277	279	282	282	284	284	284	284	284	284	284	283	284	284	283	284	284	281	278	277	278	279	280	281	281	277	277	277	277	275	275	278	285	283	282	283	282	284	285	283	281	281	274	277	279	279	279	279	279	279	279	281	280	282	283	282	283	278	276	274	274	276	280	281	282	284	283	283	282	282	282	282	284	287	281	278	279	280	282	282	283	284	281	278	278	278	279	280	279	279	279	287	288	281	280	280	284	282	280	279	278	276	274	276	276	278	280	281	280	280	277	283	284	284	284	279	278	279	281	283	283	282	281	280	275	277	278	278	279	279	276	275	276	276	277	278	277	276	275	271	272	273	275	277	277	278	279	278	278	277	274	274	273	277	278	277	277	275	274	274	273	269	276	277	281	278	277	278	281	280	279	278	275	277	277	276	272	269	273	272	269	273	274	276	274	279	269	272	270	276	278	272	275	279	277	277	281	280	279	282	283	281	282	278	273	274	273	277	279	275	274	272	272	273	274	273	273	274	273	273	278	279	278	278	279	272	275	277	278	277	272	272	274	274	275	275	275	273	273	273	280	279	280	276	272	275	274	273	273	272	273	276	275	276	277	277	278	273	275	272	272	272	273	275	275	274	274	274	277	277	277	276	277	279	281	282	287	286	284	280	278	277	278	280	277	275	278	276	276	275	278	283	284	284	281	275	275	274	272	274	272	269	268	268	273	274	273	273	272	275	274	274	272	272	273	275	276	278	274	273	274	275	277	277	274	274	275	272	274	277	275	273	277	278	277	277	275	272	274	273	274	275	278	279	280	276	275	273	273	274	273	271	273	275	276	275	275	278	278	278	280	282	279	276	273	273	273	274	274	277	278	276	274	275	275	279	277	271	274	275	275	274	274	274	273	268	275	274	279	278	274	273	272	272	272	273	273	271	270	270	269	267	272	278	278	274	276	276	275	278	277	275	274	274	276	275	276	275	274	275	272	273	272	272	272	273	276	271	266	267	270	273	272	269	269	270	269	265	268	267	266	271	268	266	267	275	275	273	271	271	269	268	269	267	266	268	273	274	275	275	275	272	271	272	277	275	273	272	275	278	275	273	273	273	279	271	276	277	277	273	274	274	274	274	272	268	265	267	269	268	270	270	270	270	266	265	267	270	267	268	267	269	269	269	269	272	272	271	273	271	270	269	268	268	268	270	273	274	272	273	273	271	266	267	270	269	275	275	272	272	267	274	272	270	269	269	269	270	273	274	275	274	273	273	273	273	274	278	279	275	272	272	271	269	268	267	267	268	268	268	269	268	266	273	266	270	270	270	270	270	268	268	268	270	268	270	270	269	269	274	270	273	272	268	268	268	268	271	272	0	0	0	0	0	0	0
277	277	277	276	277	276	277	277	280	281	281	281	282	282	280	281	282	281	281	282	282	285	286	288	288	286	288	283	281	281	284	284	283	274	274	273	275	277	279	279	282	283	281	279	277	278	281	281	282	283	284	283	283	283	282	280	280	280	281	282	282	277	276	276	277	278	276	274	274	275	277	277	276	276	276	274	276	280	280	280	282	282	283	282	279	275	274	275	276	275	275	275	273	273	273	277	279	278	278	277	278	275	273	274	274	276	279	281	283	283	281	280	278	279	278	279	279	282	279	277	278	279	280	281	281	282	278	275	274	276	277	279	278	276	275	268	274	275	273	274	278	281	279	272	272	275	275	275	276	278	279	279	278	277	276	276	276	276	275	274	275	277	281	282	282	281	277	275	273	273	276	275	276	272	272	272	272	275	277	277	277	279	273	274	273	275	276	276	275	269	269	271	278	280	278	276	276	277	276	277	277	276	274	274	271	269	270	276	274	274	275	277	271	269	276	278	275	275	273	273	269	270	273	272	269	271	271	273	270	277	268	267	271	272	275	273	271	276	280	277	276	273	276	280	282	279	276	272	275	272	272	273	272	272	271	272	270	270	270	271	272	271	271	272	271	274	277	277	279	270	274	276	278	277	271	270	270	271	273	274	273	271	271	272	273	278	274	272	272	271	272	269	270	271	272	274	275	279	280	281	280	271	269	272	272	273	274	273	275	277	275	275	275	275	273	272	269	271	273	272	272	274	274	276	276	276	275	275	273	272	274	276	275	274	274	275	273	273	272	274	274	274	273	274	273	271	271	273	274	271	273	270	270	273	274	273	271	271	275	276	277	276	273	271	270	273	278	276	275	273	270	269	270	270	268	274	276	280	276	277	271	271	271	274	274	274	273	277	273	273	272	272	272	272	273	272	273	275	276	276	276	277	276	277	278	279	278	277	272	272	272	271	270	271	273	273	268	268	275	276	271	271	274	274	274	274	273	271	269	266	267	273	280	277	276	271	269	270	271	272	272	269	269	269	273	271	266	267	265	270	273	270	273	275	276	275	273	273	273	274	274	273	273	272	269	271	270	267	269	277	275	271	272	267	267	271	271	268	267	266	266	265	267	267	267	266	269	272	272	271	274	273	271	267	267	267	266	263	263	267	271	276	273	274	274	269	272	269	272	269	267	269	274	276	276	265	271	270	267	273	276	276	275	272	271	268	267	267	267	263	264	266	267	267	267	271	270	268	266	264	268	267	268	267	267	267	267	267	268	270	272	272	270	266	267	267	265	266	270	268	270	270	271	271	271	270	265	264	264	263	269	274	272	270	265	265	266	267	267	268	268	269	271	271	272	271	271	273	272	272	270	276	273	270	269	268	269	268	266	266	266	267	270	270	264	263	262	264	263	266	268	268	269	265	265	265	268	268	265	265	268	268	275	275	274	266	264	263	267	267	270	270	270	0	0	0	0	0	0	0
271	272	272	273	274	275	278	278	281	281	279	276	274	274	276	277	280	280	281	281	282	283	283	283	285	285	283	281	277	276	279	279	275	272	272	273	276	278	278	278	279	277	281	279	277	277	280	281	281	286	285	285	284	282	279	277	278	279	279	281	279	273	273	274	274	277	276	274	275	274	276	276	276	276	275	274	275	276	276	278	280	281	281	280	275	274	275	275	273	272	271	271	272	273	274	274	276	274	275	274	278	276	274	273	274	278	276	275	274	277	279	278	276	276	276	275	274	272	278	276	277	279	280	281	280	280	277	273	274	275	276	277	276	275	271	269	268	272	274	275	273	271	271	270	270	271	273	273	277	277	277	276	277	273	274	274	272	272	273	273	275	277	280	280	280	279	277	273	272	273	273	274	273	270	270	271	270	273	279	279	281	281	275	273	273	276	276	266	268	267	268	269	282	280	276	276	272	271	269	278	281	274	272	271	271	270	270	272	275	273	271	272	271	266	267	268	275	276	276	267	270	270	272	272	270	266	270	270	268	274	265	267	269	269	269	269	274	271	272	272	271	269	272	274	271	270	270	269	275	270	270	268	270	270	268	267	267	266	268	269	270	270	271	271	269	269	270	271	271	267	267	274	275	265	274	269	269	268	270	271	270	270	270	269	271	274	273	272	270	267	268	267	270	270	270	274	274	277	280	280	273	270	270	272	272	273	274	274	275	275	274	274	275	269	269	269	273	268	270	271	270	271	272	274	274	273	274	273	271	270	274	273	272	270	271	272	271	271	271	272	271	271	272	274	273	270	270	270	268	267	269	269	271	274	273	275	275	275	275	274	273	274	272	271	272	277	275	274	274	273	270	268	268	266	269	270	272	275	274	272	271	271	273	275	271	272	270	268	269	271	272	273	273	273	275	273	273	273	272	274	274	274	273	273	275	269	272	276	270	269	270	273	269	270	272	267	265	266	269	270	269	270	266	265	266	271	269	267	266	265	265	269	272	276	273	273	276	270	270	270	269	270	270	266	267	267	267	272	270	264	266	271	271	267	269	268	268	267	268	271	274	270	268	267	269	268	263	264	267	272	272	271	269	267	266	265	266	263	265	266	266	269	267	268	265	258	264	268	269	269	271	268	267	264	268	267	265	262	262	267	269	271	270	272	269	266	266	266	266	268	270	270	269	268	270	270	267	262	270	274	269	266	266	265	262	261	262	265	268	267	269	266	266	264	263	266	267	265	264	261	260	262	262	264	266	267	265	267	267	266	271	268	266	264	264	260	262	264	263	264	266	268	270	271	268	267	267	264	263	262	268	262	266	268	267	265	264	266	267	267	267	267	266	267	267	269	270	271	271	269	268	268	267	271	267	267	266	267	268	268	265	268	268	267	265	263	261	262	263	265	266	268	266	263	265	265	259	263	265	265	266	266	268	264	263	261	261	260	260	264	265	268	267	0	0	0	0	0	0	0
270	270	269	269	269	270	275	279	279	280	278	271	270	270	272	277	279	278	279	279	278	277	279	280	279	279	280	279	276	276	277	273	273	272	271	275	275	276	274	274	271	273	275	276	276	274	275	276	276	280	285	285	283	280	275	275	276	278	278	278	277	271	268	268	273	278	275	275	274	273	275	275	275	274	276	274	275	275	274	274	275	279	279	275	274	275	274	270	270	268	269	271	272	273	272	273	273	272	275	276	278	276	273	271	271	276	276	274	272	272	271	274	274	274	273	273	272	271	271	276	276	276	277	276	276	276	276	275	273	274	274	273	274	276	273	270	271	273	274	274	273	270	269	268	269	271	272	273	273	275	273	272	270	270	272	272	271	272	270	268	269	272	275	272	272	276	275	273	271	271	271	268	267	272	273	268	271	275	278	277	277	277	274	271	273	274	272	271	267	268	269	269	277	274	275	272	272	271	272	274	271	267	268	270	268	267	269	275	274	271	268	268	271	266	266	267	267	267	268	267	268	268	271	271	269	272	272	272	271	269	268	267	267	268	267	267	266	273	276	267	267	267	270	272	269	268	267	265	262	269	268	267	267	268	266	264	264	266	263	263	266	268	269	269	264	269	268	267	268	266	267	268	271	277	273	267	268	267	266	267	268	268	266	267	269	272	272	270	267	267	268	266	268	268	268	268	271	270	277	271	272	272	270	270	271	273	273	275	275	275	274	271	266	266	269	267	272	272	267	268	268	271	270	273	272	270	271	270	268	268	270	272	273	273	271	271	271	268	267	269	269	271	272	273	272	272	268	267	267	267	269	266	267	271	276	273	268	270	272	274	272	272	266	268	269	270	269	270	271	273	274	271	267	268	269	268	267	268	270	271	271	271	272	268	273	268	266	267	269	270	273	271	269	268	268	274	274	271	269	267	270	267	264	264	265	267	269	268	266	268	264	264	264	269	269	266	264	266	266	267	268	267	267	268	264	263	263	265	266	262	265	268	268	269	270	270	267	272	267	268	269	265	265	265	266	274	271	273	271	264	264	270	272	266	267	268	266	265	266	266	266	268	266	264	262	263	268	264	264	271	271	269	266	265	264	263	265	265	263	263	264	268	265	267	264	260	261	266	268	260	260	266	263	259	260	261	261	260	262	264	266	266	266	263	263	263	263	262	264	265	265	267	271	267	264	262	261	259	261	264	263	263	263	264	265	267	267	262	262	265	266	262	260	258	258	259	263	264	262	261	260	257	258	259	264	265	265	266	266	265	266	263	263	261	262	258	261	263	258	261	265	267	268	270	268	269	269	266	263	259	260	263	265	263	260	264	261	263	266	264	265	262	262	263	264	266	265	262	261	259	262	265	264	263	265	265	266	264	262	261	268	268	267	266	265	262	261	262	264	262	266	264	265	261	261	262	260	259	267	267	265	262	261	264	264	261	261	262	262	262	262	252	255	0	0	0	0	0	0	0
267	266	265	265	265	265	270	275	275	273	274	267	266	266	269	273	276	278	270	270	269	269	272	271	271	271	277	274	273	274	276	274	274	273	275	274	272	271	271	271	270	272	274	276	276	273	271	271	271	273	274	274	274	273	273	274	275	277	277	277	277	270	265	269	275	279	280	274	274	274	274	274	274	272	271	268	267	266	270	272	272	270	274	274	273	272	270	270	270	269	267	269	273	273	271	272	272	272	274	275	276	275	274	267	266	267	271	271	269	268	268	269	268	269	270	271	271	270	268	268	269	276	269	267	270	267	270	264	265	268	268	269	270	271	271	270	268	267	266	266	268	267	263	263	264	264	267	266	266	265	265	265	264	266	267	270	272	272	269	267	268	270	271	271	270	275	274	272	271	269	271	268	267	272	272	270	274	272	269	268	270	270	270	268	270	269	266	266	267	268	270	272	271	269	271	273	272	271	268	268	268	270	267	256	264	268	270	270	274	268	265	269	263	268	268	266	266	266	262	263	269	266	268	266	264	266	273	273	272	269	268	266	266	268	269	265	263	260	261	266	267	268	272	270	268	265	267	265	262	262	266	265	266	267	265	265	264	263	262	263	263	265	266	265	268	261	261	264	266	261	266	263	268	274	268	262	265	266	262	261	266	264	264	266	267	272	271	271	269	268	265	266	266	266	266	266	268	270	270	270	271	270	268	269	268	268	269	270	274	277	273	269	267	262	269	269	270	269	267	267	268	268	270	269	270	269	268	270	269	267	268	272	272	272	271	268	267	266	267	268	270	271	271	272	271	270	267	266	264	265	265	266	266	265	267	267	266	268	272	273	270	267	264	260	261	264	267	268	268	270	270	275	271	270	268	266	265	265	267	270	270	267	269	269	264	265	265	267	268	273	269	268	267	266	273	271	270	265	265	266	268	265	259	262	263	265	268	267	270	263	264	262	264	265	266	264	263	264	264	264	262	263	264	266	265	264	265	266	264	263	262	263	265	266	266	266	266	263	264	265	267	265	263	262	263	268	269	265	266	266	266	266	270	268	269	267	260	259	258	261	265	264	261	260	259	257	257	258	262	268	263	263	262	264	263	262	261	257	260	260	262	266	263	262	258	260	260	260	260	259	260	265	261	257	255	258	260	260	261	263	266	265	262	264	262	263	261	263	259	259	261	263	264	264	261	261	261	261	261	263	263	262	262	264	264	266	267	264	261	259	259	258	260	262	260	260	261	263	262	262	261	261	261	260	259	264	265	263	265	264	262	261	261	260	260	261	259	257	258	261	263	265	267	262	258	261	262	261	259	259	261	262	262	261	260	256	258	258	258	259	260	261	260	258	260	264	265	264	262	259	258	260	263	263	262	260	263	261	260	260	260	259	260	265	264	261	260	261	263	265	265	263	262	260	260	259	259	257	262	263	263	257	256	253	254	255	255	261	261	261	262	251	252	0	0	0	0	0	0	0
270	266	261	261	261	263	269	272	272	270	269	267	268	268	268	268	270	270	263	263	263	264	265	266	269	268	268	270	271	272	274	274	274	273	272	272	270	269	269	270	270	272	273	275	275	271	270	270	270	270	272	270	270	273	272	273	273	275	275	275	272	270	268	271	277	279	280	273	272	274	275	275	275	271	269	267	267	266	268	267	269	267	272	271	270	269	269	268	268	268	267	270	272	272	271	271	271	271	271	273	274	274	273	271	266	267	267	267	267	267	268	267	266	266	267	267	267	271	274	272	264	267	267	266	265	265	262	264	265	267	268	268	268	271	269	267	266	268	267	267	267	264	263	262	262	264	264	265	266	266	264	264	263	262	264	265	265	267	271	269	269	269	269	268	268	268	271	272	272	273	271	267	267	263	265	266	269	270	266	267	270	269	268	268	267	262	260	261	264	267	270	269	266	269	270	272	270	271	266	266	266	265	261	262	263	263	264	269	271	267	263	268	264	266	267	260	263	259	259	261	262	262	262	265	268	271	271	270	272	267	265	263	262	263	262	260	259	259	258	261	258	260	260	264	265	263	267	265	262	262	266	261	263	260	265	264	264	262	264	262	263	262	264	264	264	267	266	265	258	259	262	261	262	261	265	264	263	263	261	260	266	263	264	266	266	272	269	269	266	266	266	265	266	266	266	266	267	268	266	268	270	267	266	266	266	262	263	264	264	270	269	267	264	262	267	266	267	267	266	266	267	264	266	267	267	267	267	268	267	268	268	266	270	270	270	263	260	264	264	267	267	269	271	271	270	264	260	259	261	264	264	265	265	265	265	265	266	268	269	269	265	263	260	261	261	262	265	265	267	268	266	269	270	269	267	264	265	265	265	266	265	265	266	266	265	264	263	262	263	266	267	269	265	265	267	267	263	262	262	265	265	257	256	257	262	262	262	267	265	263	264	259	263	264	264	262	262	263	262	263	263	264	264	265	265	264	264	264	263	260	257	263	267	266	266	266	263	261	260	264	262	261	260	260	263	267	268	265	263	262	267	265	264	259	258	260	258	256	256	259	258	261	260	259	257	254	255	261	264	266	257	258	259	261	262	260	259	257	256	258	258	260	261	260	259	262	261	260	261	260	260	259	257	257	259	259	260	261	261	263	266	265	262	262	262	263	262	262	261	262	262	262	263	263	263	261	260	259	261	261	261	260	261	263	264	263	262	261	257	257	255	258	260	261	263	261	259	259	261	261	263	262	257	256	259	260	258	261	260	260	260	259	259	258	257	254	250	250	256	260	261	259	260	255	252	253	262	262	261	261	261	261	259	259	258	259	261	257	257	258	259	259	255	258	259	260	259	263	263	260	258	258	260	261	262	260	261	259	258	258	257	257	257	259	260	257	257	258	260	262	264	263	259	259	258	259	254	255	255	255	256	257	257	260	252	258	256	256	253	252	255	254	250	0	0	0	0	0	0	0
260	260	261	261	260	263	267	268	268	268	269	268	268	267	267	266	265	264	261	256	256	260	266	265	264	265	265	267	269	271	270	271	269	269	269	269	268	265	264	270	265	272	272	274	275	272	270	270	269	269	268	270	271	270	272	273	274	275	276	276	274	273	272	272	270	270	270	271	266	273	273	274	272	272	269	268	264	265	266	267	265	265	268	269	267	266	267	266	264	266	264	266	269	268	271	271	271	270	270	269	268	267	268	266	264	260	262	267	267	268	268	268	268	266	266	265	267	267	264	266	263	267	266	266	263	261	261	265	266	269	266	266	268	266	263	263	264	266	263	263	263	264	261	261	262	263	265	265	265	266	265	263	257	257	260	261	259	259	262	260	260	264	264	265	259	270	271	272	273	273	270	265	264	265	264	265	270	266	267	267	267	268	269	266	264	263	260	260	261	262	261	262	263	263	266	271	271	264	265	265	264	261	261	262	263	263	264	268	266	266	264	259	263	266	260	257	261	260	255	255	256	255	252	254	257	257	257	271	269	268	264	264	264	264	264	263	263	258	257	257	256	259	259	259	252	260	261	264	264	258	261	261	259	254	261	265	261	262	261	262	259	256	260	262	264	262	263	263	258	255	259	259	261	262	264	263	263	259	257	259	261	263	267	266	264	268	267	266	265	262	264	266	265	266	266	264	262	260	263	260	267	263	264	262	263	262	263	264	264	266	267	266	262	260	262	264	265	265	265	265	262	260	262	261	260	260	264	263	263	262	260	264	267	267	263	263	262	259	261	265	265	266	263	264	265	260	258	258	260	263	263	262	265	265	266	265	265	263	262	263	263	264	262	259	262	262	265	266	266	264	265	262	261	260	261	263	263	262	262	257	257	256	263	265	265	262	260	260	259	259	262	262	264	262	265	263	262	263	263	266	264	263	258	262	262	262	264	264	263	263	259	262	262	261	262	263	260	262	263	263	262	262	263	264	264	263	263	261	261	260	260	258	263	267	264	262	262	260	260	260	259	258	259	258	257	257	258	261	261	260	262	259	261	257	256	260	259	257	256	257	258	258	259	258	256	253	254	260	263	263	262	259	258	257	257	258	258	254	253	254	254	256	258	259	261	261	261	260	260	260	262	260	261	260	260	261	260	261	260	263	265	258	258	258	259	259	261	262	261	263	263	261	261	262	263	260	258	255	256	258	259	259	259	259	261	261	261	254	251	254	255	257	258	258	259	258	258	258	260	256	255	261	259	256	256	258	261	261	261	258	257	257	258	258	255	253	250	249	250	254	256	258	258	252	252	252	261	263	261	262	262	257	257	258	258	259	258	253	250	251	251	252	252	254	255	257	259	260	262	259	257	254	258	258	258	258	258	258	258	254	255	256	260	259	258	254	253	254	255	257	257	255	255	255	254	253	250	249	249	251	256	253	253	255	259	254	256	256	255	248	248	251	253	0	0	0	0	0	0	0
256	258	258	259	259	261	262	263	265	265	267	268	266	266	266	265	264	263	253	258	258	261	266	264	262	260	260	260	263	265	267	267	267	267	265	265	263	263	262	265	266	266	269	270	272	270	267	266	266	266	267	269	270	269	267	268	266	267	268	268	268	267	266	267	263	264	265	263	264	265	271	272	271	271	270	267	264	264	265	264	263	267	266	266	265	266	266	264	262	262	261	263	264	261	261	263	264	263	262	262	263	262	263	262	260	258	259	264	267	273	272	272	268	267	267	267	266	265	266	263	261	260	261	263	260	260	261	265	265	262	259	260	262	261	260	259	259	262	261	261	262	262	261	261	261	263	263	264	262	262	263	262	260	257	258	259	258	257	255	255	257	257	260	265	260	260	260	256	256	258	263	263	262	261	260	262	270	268	264	263	265	265	265	265	263	262	261	260	260	262	262	262	261	262	264	262	265	265	264	261	260	260	261	262	262	263	263	263	267	266	260	257	260	255	257	261	258	258	255	255	257	256	255	256	257	257	259	260	260	263	265	265	263	262	267	267	260	258	256	261	261	256	254	253	253	260	258	261	258	262	261	259	254	253	253	256	259	259	259	259	259	255	256	259	263	263	260	258	255	256	256	260	260	261	264	259	261	256	255	253	255	253	264	263	260	259	259	259	260	260	261	261	263	267	268	265	262	262	259	259	260	260	260	263	263	262	264	264	264	265	264	262	262	260	260	262	264	263	263	262	259	259	260	259	260	259	260	263	261	259	260	263	265	265	262	261	261	258	257	260	261	262	261	260	260	259	260	259	259	261	262	259	261	262	260	258	257	257	258	259	264	263	262	262	261	263	263	263	265	262	259	259	259	259	258	260	262	260	259	256	252	254	258	259	262	260	259	259	259	258	257	257	258	258	261	263	263	262	263	264	264	263	262	263	264	263	262	262	260	260	257	259	259	258	257	257	262	257	262	261	261	259	260	261	260	260	259	257	256	258	260	260	262	265	263	261	259	261	262	262	256	256	257	256	256	255	253	255	256	256	257	254	255	260	261	258	256	256	256	257	258	255	256	255	256	255	254	260	264	262	262	262	259	255	256	258	257	255	253	252	253	255	257	254	255	258	258	258	259	256	261	257	260	260	261	260	259	260	259	262	255	257	255	252	254	260	259	259	260	261	258	259	259	261	260	258	257	254	254	256	257	258	259	257	255	258	258	251	250	254	256	256	256	255	253	253	256	256	254	256	254	258	257	256	256	258	261	258	256	253	253	253	256	255	254	251	249	249	250	248	248	252	259	253	251	252	260	255	255	254	251	259	255	255	258	257	256	251	250	251	249	250	251	251	252	252	252	256	257	254	251	250	249	252	255	257	258	256	253	254	254	256	256	255	255	253	251	251	254	255	252	253	253	252	251	247	246	250	246	246	250	248	249	249	251	252	252	254	255	255	248	248	247	0	0	0	0	0	0	0
252	255	257	259	259	259	260	260	263	263	261	261	262	264	264	263	258	256	255	256	256	261	263	262	261	260	260	263	264	263	264	265	261	261	263	263	263	263	263	265	265	265	266	267	268	264	264	263	259	260	260	260	267	266	265	265	266	265	267	267	267	265	263	261	260	263	263	263	262	261	266	268	269	266	266	264	262	263	263	263	262	262	265	265	262	264	266	264	262	260	260	261	259	260	263	260	260	260	261	260	260	260	259	260	263	263	262	263	265	265	262	264	262	261	261	262	263	260	262	257	256	255	257	259	261	260	260	255	258	258	257	258	259	260	258	255	254	256	258	260	256	255	257	262	261	263	262	259	259	259	260	258	257	256	254	255	255	255	255	255	256	259	262	264	262	257	252	257	255	256	260	260	261	262	261	260	265	266	263	258	258	257	256	259	263	260	260	259	259	259	258	260	260	258	260	258	258	262	261	255	256	260	260	256	255	257	261	256	256	256	259	257	256	253	253	255	257	256	255	255	255	255	256	257	258	259	259	257	258	256	256	253	259	260	259	259	261	261	258	265	257	257	254	254	254	258	264	262	256	261	259	258	254	253	254	256	256	259	259	259	255	254	257	258	259	262	257	256	256	257	262	263	261	259	259	259	261	257	249	250	251	261	257	259	257	256	258	257	256	255	264	265	266	265	266	267	265	263	262	260	258	256	258	260	259	261	263	263	261	260	260	261	258	258	260	260	261	262	259	262	260	259	258	255	257	257	258	258	259	257	257	262	263	263	262	262	259	257	254	258	260	263	263	261	260	260	258	259	260	260	259	256	259	260	256	255	253	256	257	260	261	263	263	263	260	262	260	258	258	255	256	256	255	254	254	255	257	261	258	258	252	255	263	266	257	256	255	256	258	257	257	256	256	254	257	258	257	257	255	257	258	259	258	262	262	258	258	256	255	256	255	258	258	257	256	256	254	259	255	259	260	258	258	258	259	258	255	254	256	259	260	259	258	260	261	260	259	259	260	261	258	255	256	256	255	255	253	253	254	256	254	254	253	253	253	256	253	254	255	255	254	251	253	254	256	256	256	258	257	261	260	257	256	255	256	257	257	258	253	251	250	252	257	253	255	258	258	258	257	254	254	254	254	258	260	253	253	246	255	253	253	253	249	253	255	255	258	257	259	257	255	257	257	258	257	257	255	253	254	255	256	256	258	254	254	252	253	252	252	253	254	255	254	253	253	255	256	254	252	252	254	255	256	256	255	254	254	252	252	251	249	250	252	250	249	250	249	249	247	247	247	247	247	259	251	249	251	255	256	255	251	251	251	249	251	249	248	249	249	252	247	246	245	247	250	252	253	250	253	252	253	251	250	252	252	251	249	250	251	253	251	253	254	253	252	248	248	250	251	253	252	249	249	248	248	245	245	248	246	249	246	247	247	247	251	251	251	251	248	248	249	248	246	0	0	0	0	0	0	0
248	252	254	257	257	258	258	259	259	259	259	258	256	257	258	258	257	257	255	256	259	259	260	262	258	259	261	261	260	260	259	260	261	263	263	263	261	262	263	264	263	263	261	262	260	261	260	257	256	257	257	258	259	264	262	264	262	261	264	265	262	262	259	258	260	261	260	262	262	260	260	263	263	263	263	262	261	261	260	256	255	254	256	260	262	263	264	262	261	260	260	256	258	262	259	258	260	260	260	258	257	257	259	259	262	263	262	262	265	256	254	260	260	259	256	257	257	258	257	253	255	254	256	257	262	258	254	252	255	257	258	256	257	257	256	251	256	257	258	255	255	254	254	255	256	257	257	257	258	259	259	258	257	255	253	254	255	255	254	255	255	257	263	265	262	257	251	256	254	255	255	256	258	259	261	260	254	256	255	253	254	255	256	256	256	258	259	254	253	254	257	259	264	260	259	258	257	258	253	255	256	257	257	256	256	255	257	256	256	256	255	255	256	256	257	256	256	257	255	255	254	254	253	254	255	255	256	257	255	253	251	252	250	250	249	252	251	260	260	262	264	257	253	253	254	259	253	264	254	260	256	256	256	255	254	255	258	259	259	258	258	259	261	260	258	254	255	253	253	254	259	259	257	257	255	256	256	255	244	249	250	254	255	258	256	254	255	256	258	256	260	259	258	258	258	265	265	265	261	260	259	254	253	257	256	258	261	259	261	260	258	256	257	256	257	259	258	259	261	262	257	257	255	255	256	255	255	258	258	256	257	261	262	258	258	259	259	255	254	257	257	257	258	257	260	260	259	258	257	256	255	256	257	256	256	252	252	255	255	254	256	259	260	262	262	259	258	256	252	253	254	253	253	252	250	252	254	257	253	258	260	262	264	256	253	255	254	255	254	256	255	255	256	257	257	259	256	254	254	254	254	253	256	256	258	256	255	254	253	252	250	250	259	258	257	255	252	253	256	253	254	255	257	258	258	254	253	252	257	257	259	259	258	257	257	252	250	248	256	256	258	255	257	257	257	256	251	254	253	252	253	253	254	252	251	251	252	253	253	251	249	247	247	254	257	257	257	258	256	255	254	255	253	254	254	255	255	254	256	248	247	247	250	253	254	257	257	257	257	254	254	253	253	251	252	253	249	249	251	252	246	245	248	250	255	260	257	256	256	251	254	254	257	257	250	248	255	249	249	249	249	250	257	253	251	251	253	251	252	252	254	256	255	254	254	254	255	253	251	251	253	253	256	255	251	250	253	249	250	252	250	249	248	247	248	249	248	246	246	246	246	246	246	248	249	248	247	253	254	253	250	249	250	247	246	247	247	249	245	246	251	251	250	253	248	253	250	248	245	251	253	252	249	250	249	247	246	243	243	245	247	250	251	250	253	247	246	249	251	252	250	250	247	246	245	245	243	243	244	244	246	246	246	248	248	249	250	249	247	246	243	248	244	0	0	0	0	0	0	0
250	250	251	255	257	257	258	257	258	257	257	257	257	258	259	259	258	256	257	253	256	256	258	260	257	257	257	257	257	257	256	254	258	261	261	262	258	258	260	262	259	260	260	258	258	256	255	256	257	255	255	256	258	259	265	261	260	261	264	262	259	259	257	256	257	258	260	261	255	255	256	257	259	257	256	256	253	253	256	255	254	249	251	254	260	261	260	259	260	260	259	258	262	267	258	258	258	259	259	257	256	257	260	260	258	256	254	256	257	250	254	256	261	260	256	255	257	257	254	251	253	254	251	251	255	254	253	254	255	256	255	255	254	254	255	257	256	258	257	255	254	253	254	254	257	258	258	256	256	258	257	257	254	254	254	255	254	255	255	254	254	253	251	250	249	253	253	255	252	251	249	251	254	255	256	256	254	253	254	254	256	257	256	256	257	255	253	252	251	251	253	256	256	253	256	259	258	256	253	255	255	257	257	256	255	254	252	256	253	254	253	256	254	255	254	255	257	257	257	254	253	253	251	250	252	253	255	254	255	258	257	250	249	248	248	252	252	255	256	258	260	258	254	253	255	260	258	250	253	255	254	255	254	252	253	251	258	259	258	256	257	259	258	257	256	255	253	253	254	258	257	256	256	253	253	257	254	248	251	255	256	257	254	254	253	250	250	255	256	257	257	256	256	256	257	258	259	260	261	261	259	255	252	252	253	254	255	258	255	258	254	252	254	254	255	255	255	255	254	255	257	258	256	255	255	253	253	253	257	257	258	259	254	254	253	256	256	253	251	252	253	254	252	255	258	259	258	254	253	255	255	255	255	255	256	254	253	251	250	250	253	253	258	257	259	257	254	252	253	254	254	252	253	253	251	251	252	248	253	254	257	260	261	258	254	251	250	253	252	254	254	255	255	257	259	258	258	255	253	254	254	253	251	252	252	254	253	251	250	251	250	250	258	258	258	252	252	252	253	253	252	251	251	251	254	252	251	252	252	251	249	256	258	257	255	251	248	250	248	253	253	253	255	260	258	256	253	254	252	253	251	251	252	252	252	251	250	252	252	250	248	251	250	251	253	254	254	254	252	253	249	249	249	250	252	252	252	253	251	252	248	245	250	253	254	255	257	257	255	252	249	250	244	248	246	253	249	248	251	252	245	243	248	247	249	252	254	254	251	248	248	252	247	250	249	246	249	253	247	247	248	248	250	251	250	249	251	250	251	254	247	248	250	253	252	248	250	250	246	249	249	254	252	252	247	246	246	248	247	249	251	246	246	248	246	246	246	246	246	246	246	246	246	247	247	247	247	247	247	247	247	245	245	244	245	245	247	247	245	249	246	248	250	250	250	249	245	243	247	250	247	247	248	246	247	247	245	244	243	244	246	247	248	250	247	247	247	247	249	249	248	248	246	244	243	242	243	246	245	244	245	246	245	246	246	246	249	249	248	246	246	244	242	0	0	0	0	0	0	0
250	249	250	253	254	254	256	256	256	257	257	257	257	258	258	258	256	255	254	252	254	254	255	255	255	254	254	254	255	254	253	251	251	255	255	256	255	253	252	257	256	252	252	251	252	253	254	252	252	253	253	253	253	257	258	257	257	259	261	259	257	257	256	255	256	254	254	252	253	254	255	254	256	252	251	251	249	249	253	256	256	254	255	253	255	257	256	256	258	261	261	264	263	259	254	254	255	257	256	254	255	255	257	257	248	249	250	258	261	256	248	250	261	262	256	256	255	256	253	250	250	253	253	249	248	247	248	251	253	254	255	250	247	250	250	257	256	255	255	255	254	253	253	253	255	257	258	255	255	254	254	254	254	255	253	250	249	249	251	251	253	251	248	249	251	255	256	255	252	254	253	252	253	254	253	255	254	254	254	254	255	256	256	255	254	253	253	252	250	251	254	255	251	262	256	257	256	253	253	254	257	259	257	255	245	248	254	254	252	248	253	250	251	252	253	256	256	254	254	256	251	251	251	252	251	251	251	256	255	254	255	254	247	247	249	250	253	253	252	251	255	256	252	254	257	255	248	251	254	253	254	254	255	250	251	250	249	250	251	256	255	257	255	254	255	253	253	253	256	255	253	256	256	255	253	253	247	248	252	254	254	254	257	253	252	249	249	255	256	256	253	249	250	251	253	253	253	253	259	258	257	252	252	250	250	250	255	254	255	254	252	251	252	252	252	252	251	251	250	249	252	252	256	253	252	251	252	252	253	254	253	254	253	251	254	253	252	253	249	251	250	251	252	253	255	256	256	253	254	254	255	254	255	254	255	253	250	247	247	249	250	252	253	255	255	251	250	248	252	254	254	254	256	257	254	250	251	252	255	255	258	258	252	252	253	251	250	248	253	254	254	254	254	256	256	257	256	255	253	253	254	252	251	251	252	250	251	251	250	249	251	252	253	257	256	253	253	251	252	252	252	250	250	250	249	248	247	250	252	251	248	255	257	257	254	250	249	249	247	250	254	253	253	254	253	250	249	254	255	253	251	252	252	252	252	252	250	251	251	252	250	250	251	251	248	249	254	252	250	248	246	247	247	247	247	247	250	249	249	249	251	246	249	248	251	249	249	249	247	250	250	242	243	248	248	249	246	245	246	247	246	245	239	239	247	249	249	249	249	248	245	249	247	247	247	244	245	242	241	243	243	248	250	247	249	252	253	250	251	247	247	247	246	245	246	243	248	247	246	246	247	248	250	247	243	245	244	244	245	245	246	244	245	243	245	245	246	247	247	248	246	245	245	247	248	247	242	241	241	241	243	242	244	245	243	245	245	249	243	244	246	248	247	246	245	242	243	244	244	243	243	246	247	245	243	243	244	242	243	244	245	246	246	246	245	246	246	246	247	247	247	246	245	241	241	242	242	245	243	243	244	244	244	244	244	244	245	247	246	242	244	245	243	0	0	0	0	0	0	0
249	249	248	249	252	252	253	256	257	258	258	258	257	257	257	256	256	254	250	252	255	255	254	254	251	249	249	250	250	252	251	250	251	253	254	254	254	251	252	254	250	249	249	250	251	254	251	251	251	250	250	250	253	254	255	255	254	256	258	257	256	255	255	255	254	252	250	250	247	253	254	251	254	256	253	251	251	252	253	252	253	252	255	256	256	258	258	260	259	259	257	257	256	255	254	253	250	256	255	253	253	248	250	254	251	251	252	258	261	256	248	249	253	246	246	250	252	249	243	247	253	254	252	249	248	247	247	247	249	251	252	251	247	244	245	254	254	254	254	252	249	252	253	252	253	257	257	254	252	250	251	253	253	253	253	249	249	247	250	249	251	250	248	248	248	252	254	253	253	254	253	252	253	253	250	251	251	252	251	248	253	255	252	247	246	245	248	252	253	252	253	249	247	255	254	255	254	251	254	254	254	254	254	248	244	248	249	252	249	246	247	250	250	250	251	251	249	248	247	250	254	250	251	252	252	251	249	250	252	254	253	252	245	244	247	251	253	253	253	250	250	253	253	252	249	250	253	253	251	253	250	251	253	249	249	248	248	252	252	252	255	254	253	255	254	253	253	253	250	248	248	253	253	252	252	248	247	247	248	254	252	252	255	252	251	249	247	252	255	256	253	248	247	248	250	250	251	251	252	253	252	251	250	250	247	249	250	257	253	252	249	249	251	251	251	251	248	247	247	248	250	252	251	251	251	249	251	252	252	252	253	251	251	251	252	252	252	251	251	248	252	251	252	253	254	254	253	251	250	249	249	253	253	252	252	249	249	247	246	246	249	250	253	253	251	251	251	248	249	247	251	250	251	250	251	251	252	250	249	246	252	253	252	252	253	251	249	248	253	254	254	254	253	254	252	251	252	257	257	253	250	250	249	250	251	251	250	251	250	249	246	248	252	252	255	253	252	249	250	252	249	250	248	249	249	249	247	248	248	249	246	245	249	252	251	250	250	246	246	245	247	245	244	243	243	245	246	249	247	247	248	250	252	251	249	251	249	249	247	245	248	247	248	246	247	248	251	252	253	248	247	247	248	245	246	247	247	245	248	249	249	251	248	248	242	243	248	245	247	244	244	240	239	244	246	246	246	242	246	247	247	245	244	244	244	242	249	247	247	245	249	244	242	241	244	244	244	243	242	242	244	245	247	244	244	247	250	249	244	244	245	244	244	242	243	242	245	246	246	246	249	248	245	243	241	242	243	243	244	245	244	244	243	242	244	245	245	247	247	247	246	246	245	247	247	245	242	239	240	239	238	240	240	241	242	240	243	242	242	242	244	239	240	242	240	243	243	243	243	241	242	242	244	244	242	242	242	241	244	244	244	243	242	243	243	243	245	245	246	246	246	246	240	241	242	240	241	241	242	242	241	242	243	241	241	241	244	246	246	246	244	240	243	0	0	0	0	0	0	0
