0	0	0	0	0	0	0	0	0	0	0	0	0	0	0	0	0	0	0	0	0	0	0	0	0	0	0	0	0	0	0	0	0	0	0	0	0	0	0	0	0	0	0	0	0	0	0	0	0	0	0	0	0	0	0	0	0	0	0	0	0	0	0	0	0	0	0	0	0	0	0	0	0	0	0	0	0	0	0	0	0	0	0	0	0	0	0	0	0	0	0	0	0	0	0	0	0	0	0	0	0	0	0	0	0	0	0	0	0	0	0	0	0	0	0	0	0	0	0	0	0	0	0	0	0	0	0	0	0	0	0	0	0	0	0	0	0	0	0	0	0	0	0	0	1242	1259	1277	1279	1270	1274	1286	1304	1330	1338	1331	1323	1307	1300	1298	1312	1298	1286	1281	1267	1272	1278	1281	1301	1331	1341	1328	1307	1295	1294	1296	1295	1304	1320	1333	1331	1324	1324	1335	1358	1385	1379	1373	1346	1319	1352	1345	1328	1312	0	0	0	0	0	0	0	0	0	0	0	0	0	0	0	0	0	0	0	0	0	0	0	0	0	0	0	0	0	0	0	0	0	0	0	0	0	0	0	0	0	0	0	0	1459	1599	1667	1662	1610	1494	0	0	0	0	0	0	0	0	0	0	0	0	0	0	0	0	0	0	0	0	0	0	0	0	0	0	0	0	0	0	0	0	0	0	0	0	0	0	0	0	1273	1296	1316	1319	1320	1318	1323	1327	1328	1332	1324	1316	1309	1305	1309	1316	1317	1315	1322	1327	1330	1317	1306	1311	1319	1324	1324	1322	1320	1328	1335	1333	1330	1328	1331	1332	1322	1319	1318	1321	1327	1327	1326	1320	1316	1319	1320	1335	1345	1351	1338	1326	1314	1318	1328	1338	1349	1359	1352	1347	1350	1360	1369	1365	1348	1352	1355	1345	1328	1323	1331	1343	1358	1353	1345	1341	1337	1336	1335	1330	1326	1314	1296	1284	1287	1294	1280	1278	0	0	0	0	0	0	0	0	0	0	0	0	0	0	0	0	0	0	0	0	0	0	0	0	0	0	0	0	0	0	0	0	0	0	0	0	0	0	0	0	0	0	0	0	0	0	0	0	0	0	0	0	0	0	0	0	0	0	0	0	0	0	0	0	0	0	0	0	0	0	0	0	0	0	0	0	0	0	0	0	1452	1599	1627	1626	1551	1500	0	0	0	0	0	0	0	0	0	0	0	0	1200	1246	1283	1299	1309	1326	1321	1317	1297	1268	1270	1276	1276	1279	1274	1272	1275	1270	1263	1251	1254	1250	1246	1255	1265	1274	1272	1268	1271	1280	1284	1278	1269	1265	1260	1258	1250	1243	1230	1226	1221	1221	1223	1225	1233	1246	1253	1254	1247	1240	1226	1218	1216	1214	1214	1202	1198	0	0	0	0	0	0	0	0	0	0	0	0	0	0	0	0	0	0	0	0	0	0	0	0	0	0	0	0	0	0	0	0	0	0	0	0	0	0	0	0	0	0	0	0	0	0	0	0	0	0	0	0	0	0	0	0	0	0	0	0	0	0	0	0	0	0	0	0	0	0	0	0	0	0	0	0	0	0	0	0	0	0	0	0	0	0	0	0	0	0	0	0	0	0	0	0	0	0	0	0	0	0	0	0	0	0	0	0	0	0	0	0	0	0
0	0	0	0	0	0	0	0	0	0	0	0	0	0	0	0	0	0	0	0	0	0	0	0	0	0	0	0	0	0	0	0	0	0	0	0	0	0	0	0	0	0	0	0	0	0	0	0	0	0	0	0	0	0	0	0	0	0	0	0	0	0	0	0	0	0	0	0	0	0	0	0	0	0	0	0	0	0	0	0	0	0	0	0	0	0	0	0	0	0	0	0	0	0	0	0	0	0	0	0	0	0	0	0	0	0	0	0	0	0	0	0	0	0	0	0	0	0	0	0	0	0	0	0	0	0	0	0	0	0	0	0	0	0	0	0	0	0	0	0	0	0	0	0	1243	1253	1264	1268	1254	1254	1266	1289	1306	1327	1322	1316	1303	1292	1298	1331	1319	1300	1282	1271	1272	1279	1299	1322	1354	1359	1334	1306	1294	1291	1310	1308	1311	1313	1325	1323	1318	1323	1331	1360	1392	1402	1392	1362	1327	1349	1353	1331	0	0	0	0	0	0	0	0	0	0	0	0	0	0	0	0	0	0	0	0	0	0	0	0	0	0	0	0	0	0	0	0	0	0	0	0	0	0	0	0	0	0	0	0	0	1473	1601	1665	1660	1606	1528	0	0	0	0	0	0	0	0	0	0	0	0	0	0	0	0	0	0	0	0	0	0	0	0	0	0	0	0	0	0	0	0	0	0	0	0	0	0	0	0	1259	1296	1315	1314	1309	1309	1322	1332	1338	1341	1335	1321	1318	1315	1315	1323	1322	1325	1324	1326	1323	1316	1311	1314	1323	1321	1321	1317	1315	1321	1330	1329	1324	1318	1323	1323	1328	1330	1330	1328	1327	1326	1328	1324	1319	1317	1323	1345	1360	1360	1337	1314	1305	1305	1317	1336	1344	1356	1364	1355	1356	1362	1373	1369	1357	1345	1342	1333	1323	1324	1341	1359	1378	1365	1352	1342	1341	1341	1336	1331	1328	1329	1313	1301	1305	1301	1293	0	0	0	0	0	0	0	0	0	0	0	0	0	0	0	0	0	0	0	0	0	0	0	0	0	0	0	0	0	0	0	0	0	0	0	0	0	0	0	0	0	0	0	0	0	0	0	0	0	0	0	0	0	0	0	0	0	0	0	0	0	0	0	0	0	0	0	0	0	0	0	0	0	0	0	0	0	0	0	0	0	1449	1603	1632	1634	1582	1513	0	0	0	0	0	0	0	0	0	0	0	0	0	1250	1275	1279	1283	1316	1308	1307	1307	1272	1271	1272	1271	1267	1267	1263	1269	1270	1256	1253	1254	1253	1251	1258	1269	1281	1283	1280	1272	1276	1282	1274	1271	1269	1262	1252	1235	1227	1224	1222	1223	1223	1225	1225	1226	1233	1241	1243	1235	1222	1217	1225	1231	1237	1238	1230	1222	0	0	0	0	0	0	0	0	0	0	0	0	0	0	0	0	0	0	0	0	0	0	0	0	0	0	0	0	0	0	0	0	0	0	0	0	0	0	0	0	0	0	0	0	0	0	0	0	0	0	0	0	0	0	0	0	0	0	0	0	0	0	0	0	0	0	0	0	0	0	0	0	0	0	0	0	0	0	0	0	0	0	0	0	0	0	0	0	0	0	0	0	0	0	0	0	0	0	0	0	0	0	0	0	0	0	0	0	0	0	0	0	0	0
0	0	0	0	0	0	0	0	0	0	0	0	0	0	0	0	0	0	0	0	0	0	0	0	0	0	0	0	0	0	0	0	0	0	0	0	0	0	0	0	0	0	0	0	0	0	0	0	0	0	0	0	0	0	0	0	0	0	0	0	0	0	0	0	0	0	0	0	0	0	0	0	0	0	0	0	0	0	0	0	0	0	0	0	0	0	0	0	0	0	0	0	0	0	0	0	0	0	0	0	0	0	0	0	0	0	0	0	0	0	0	0	0	0	0	0	0	0	0	0	0	0	0	0	0	0	0	0	0	0	0	0	0	0	0	0	0	0	0	0	0	0	0	0	1258	1256	1251	1258	1243	1239	1251	1269	1289	1307	1319	1311	1297	1292	1295	1326	1328	1312	1287	1273	1273	1284	1306	1329	1354	1352	1335	1300	1283	1290	1317	1314	1305	1301	1306	1301	1307	1310	1327	1340	1386	1414	1413	1386	1319	1339	1347	1329	0	0	0	0	0	0	0	0	0	0	0	0	0	0	0	0	0	0	0	0	0	0	0	0	0	0	0	0	0	0	0	0	0	0	0	0	0	0	0	0	0	0	0	0	0	1503	1584	1632	1634	1590	1530	0	0	0	0	0	0	0	0	0	0	0	0	0	0	0	0	0	0	0	0	0	0	0	0	0	0	0	0	0	0	0	0	0	0	0	0	0	0	0	0	1253	1296	1319	1313	1300	1304	1315	1322	1330	1324	1324	1321	1327	1332	1328	1324	1326	1322	1327	1327	1319	1322	1318	1317	1319	1316	1312	1307	1310	1316	1321	1318	1315	1317	1318	1318	1320	1335	1340	1336	1330	1328	1322	1321	1313	1317	1328	1348	1365	1365	1334	1319	1310	1308	1314	1321	1336	1357	1366	1365	1365	1367	1376	1376	1364	1348	1336	1334	1332	1335	1344	1361	1385	1376	1357	1351	1348	1349	1347	1347	1335	1328	1315	1314	1316	1309	1281	0	0	0	0	0	0	0	0	0	0	0	0	0	0	0	0	0	0	0	0	0	0	0	0	0	0	0	0	0	0	0	0	0	0	0	0	0	0	0	0	0	0	0	0	0	0	0	0	0	0	0	0	0	0	0	0	0	0	0	0	0	0	0	0	0	0	0	0	0	0	0	0	0	0	0	0	0	0	0	0	0	1464	1595	1645	1638	1584	1505	1448	0	0	0	0	0	0	0	0	0	0	0	0	1255	1261	1269	1269	1311	1305	1312	1312	1276	1273	1268	1267	1268	1268	1268	1264	1268	1260	1256	1260	1262	1263	1267	1272	1275	1283	1282	1279	1276	1277	1269	1264	1260	1258	1240	1221	1215	1217	1223	1230	1236	1236	1236	1231	1226	1225	1236	1224	1211	1211	1225	1237	1249	1249	1243	1239	0	0	0	0	0	0	0	0	0	0	0	0	0	0	0	0	0	0	0	0	0	0	0	0	0	0	0	0	0	0	0	0	0	0	0	0	0	0	0	0	0	0	0	0	0	0	0	0	0	0	0	0	0	0	0	0	0	0	0	0	0	0	0	0	0	0	0	0	0	0	0	0	0	0	0	0	0	0	0	0	0	0	0	0	0	0	0	0	0	0	0	0	0	0	0	0	0	0	0	0	0	0	0	0	0	0	0	0	0	0	0	0	0	0
0	0	0	0	0	0	0	0	0	0	0	0	0	0	0	0	0	0	0	0	0	0	0	0	0	0	0	0	0	0	0	0	0	0	0	0	0	0	0	0	0	0	0	0	0	0	0	0	0	0	0	0	0	0	0	0	0	0	0	0	0	0	0	0	0	0	0	0	0	0	0	0	0	0	0	0	0	0	0	0	0	0	0	0	0	0	0	0	0	0	0	0	0	0	0	0	0	0	0	0	0	0	0	0	0	0	0	0	0	0	0	0	0	0	0	0	0	0	0	0	0	0	0	0	0	0	0	0	0	0	0	0	0	0	0	0	0	0	0	0	0	0	0	0	1272	1260	1256	1261	1262	1244	1251	1267	1295	1303	1310	1306	1300	1295	1291	1319	1316	1315	1299	1286	1284	1295	1303	1311	1325	1321	1307	1287	1277	1279	1299	1298	1281	1291	1294	1290	1289	1296	1304	1319	1363	1394	1399	1369	1313	1323	1341	1325	0	0	0	0	0	0	0	0	0	0	0	0	0	0	0	0	0	0	0	0	0	0	0	0	0	0	0	0	0	0	0	0	0	0	0	0	0	0	0	0	0	0	0	0	0	1537	1577	1595	1590	1571	1501	0	0	0	0	0	0	0	0	0	0	0	0	0	0	0	0	0	0	0	0	0	0	0	0	0	0	0	0	0	0	0	0	0	0	0	0	0	0	0	0	1243	1297	1324	1313	1307	1309	1317	1313	1315	1308	1305	1318	1327	1338	1335	1329	1318	1315	1316	1317	1322	1327	1320	1318	1313	1305	1296	1291	1297	1302	1308	1315	1316	1320	1323	1319	1323	1323	1331	1327	1322	1315	1313	1308	1298	1302	1320	1344	1359	1368	1354	1325	1318	1321	1321	1328	1342	1359	1367	1366	1370	1367	1377	1377	1367	1350	1339	1338	1334	1341	1347	1362	1379	1373	1362	1353	1353	1356	1365	1366	1362	1325	1295	1321	1324	1310	1249	0	0	0	0	0	0	0	0	0	0	0	0	0	0	0	0	0	0	0	0	0	0	0	0	0	0	0	0	0	0	0	0	0	0	0	0	0	0	0	0	0	0	0	0	0	0	0	0	0	0	0	0	0	0	0	0	0	0	0	0	0	0	0	0	0	0	0	0	0	0	0	0	0	0	0	0	0	0	0	0	0	1457	1587	1642	1644	1590	1512	1476	0	0	0	0	0	0	0	0	0	0	0	0	1262	1262	1268	1273	1315	1313	1313	1315	1289	1279	1270	1270	1273	1269	1275	1280	1279	1270	1261	1258	1257	1260	1267	1265	1271	1274	1276	1279	1280	1269	1261	1252	1245	1251	1237	1214	1207	1214	1222	1237	1247	1249	1247	1232	1217	1217	1223	1223	1213	1209	1219	1230	1239	1238	1232	1226	0	0	0	0	0	0	0	0	0	0	0	0	0	0	0	0	0	0	0	0	0	0	0	0	0	0	0	0	0	0	0	0	0	0	0	0	0	0	0	0	0	0	0	0	0	0	0	0	0	0	0	0	0	0	0	0	0	0	0	0	0	0	0	0	0	0	0	0	0	0	0	0	0	0	0	0	0	0	0	0	0	0	0	0	0	0	0	0	0	0	0	0	0	0	0	0	0	0	0	0	0	0	0	0	0	0	0	0	0	0	0	0	0	0
0	0	0	0	0	0	0	0	0	0	0	0	0	0	0	0	0	0	0	0	0	0	0	0	0	0	0	0	0	0	0	0	0	0	0	0	0	0	0	0	0	0	0	0	0	0	0	0	0	0	0	0	0	0	0	0	0	0	0	0	0	0	0	0	0	0	0	0	0	0	0	0	0	0	0	0	0	0	0	0	0	0	0	0	0	0	0	0	0	0	0	0	0	0	0	0	0	0	0	0	0	0	0	0	0	0	0	0	0	0	0	0	0	0	0	0	0	0	0	0	0	0	0	0	0	0	0	0	0	0	0	0	0	0	0	0	0	0	0	0	0	0	0	1253	1269	1259	1258	1270	1291	1284	1268	1298	1312	1311	1308	1305	1296	1292	1292	1301	1311	1312	1304	1304	1299	1302	1302	1303	1299	1299	1284	1266	1271	1276	1285	1284	1281	1283	1297	1293	1287	1294	1301	1313	1344	1387	1391	1369	1307	1319	1323	1308	0	0	0	0	0	0	0	0	0	0	0	0	0	0	0	0	0	0	0	0	0	0	0	0	0	0	0	0	0	0	0	0	0	0	0	0	0	0	0	0	0	0	0	0	0	1553	1586	1571	1558	1549	1466	0	0	0	0	0	0	0	0	0	0	0	0	0	0	0	0	0	0	0	0	0	0	0	0	0	0	0	0	0	0	0	0	0	0	0	0	0	0	0	0	0	1285	1312	1310	1307	1307	1309	1314	1309	1307	1304	1309	1323	1330	1329	1323	1314	1305	1305	1313	1322	1329	1323	1313	1301	1293	1294	1294	1294	1292	1296	1291	1306	1322	1324	1327	1330	1323	1320	1319	1313	1307	1305	1299	1289	1289	1312	1339	1354	1356	1362	1341	1323	1330	1335	1343	1353	1359	1357	1361	1365	1366	1361	1363	1363	1345	1335	1335	1334	1341	1349	1358	1371	1368	1359	1352	1351	1337	1364	1365	1367	1319	1282	1305	1313	1275	1229	0	0	0	0	0	0	0	0	0	0	0	0	0	0	0	0	0	0	0	0	0	0	0	0	0	0	0	0	0	0	0	0	0	0	0	0	0	0	0	0	0	0	0	0	0	0	0	0	0	0	0	0	0	0	0	0	0	0	0	0	0	0	0	0	0	0	0	0	0	0	0	0	0	0	0	0	0	0	0	0	0	1461	1576	1633	1633	1602	1537	1516	0	0	0	0	0	0	0	0	0	0	0	0	1258	1261	1272	1286	1314	1310	1309	1308	1300	1279	1276	1277	1281	1284	1286	1287	1291	1287	1268	1254	1250	1250	1254	1254	1258	1263	1266	1274	1287	1292	1275	1243	1240	1241	1230	1214	1209	1217	1226	1240	1250	1254	1251	1236	1226	1220	1226	1244	1238	1228	1220	1226	1229	1220	1211	1199	1179	0	0	0	0	0	0	0	0	0	0	0	0	0	0	0	0	0	0	0	0	0	0	0	0	0	0	0	0	0	0	0	0	0	0	0	0	0	0	0	0	0	0	0	0	0	0	0	0	0	0	0	0	0	0	0	0	0	0	0	0	0	0	0	0	0	0	0	0	0	0	0	0	0	0	0	0	0	0	0	0	0	0	0	0	0	0	0	0	0	0	0	0	0	0	0	0	0	0	0	0	0	0	0	0	0	0	0	0	0	0	0	0	0
0	0	0	0	0	0	0	0	0	0	0	0	0	0	0	0	0	0	0	0	0	0	0	0	0	0	0	0	0	0	0	0	0	0	0	0	0	0	0	0	0	0	0	0	0	0	0	0	0	0	0	0	0	0	0	0	0	0	0	0	0	0	0	0	0	0	0	0	0	0	0	0	0	0	0	0	0	0	0	0	0	0	0	0	0	0	0	0	0	0	0	0	0	0	0	0	0	0	0	0	0	0	0	0	0	0	0	0	0	0	0	0	0	0	0	0	0	0	0	0	0	0	0	0	0	0	0	0	0	0	0	0	0	0	0	0	0	0	0	0	0	0	0	1223	1250	1250	1259	1271	1290	1309	1282	1298	1306	1312	1304	1293	1289	1282	1289	1300	1304	1307	1312	1310	1312	1315	1319	1317	1307	1288	1272	1261	1266	1277	1289	1286	1291	1301	1310	1305	1288	1293	1299	1310	1339	1383	1389	1388	1328	1308	1298	1295	0	0	0	0	0	0	0	0	0	0	0	0	0	0	0	0	0	0	0	0	0	0	0	0	0	0	0	0	0	0	0	0	0	0	0	0	0	0	0	0	0	0	0	0	0	0	1556	1563	1558	1536	1455	0	0	0	0	0	0	0	0	0	0	0	0	0	0	0	0	0	0	0	0	0	0	0	0	0	0	0	0	0	0	0	0	0	0	0	0	0	0	0	0	0	1279	1295	1303	1304	1305	1305	1311	1319	1315	1309	1310	1324	1331	1331	1325	1315	1304	1296	1302	1314	1321	1317	1306	1297	1295	1295	1298	1296	1287	1280	1282	1304	1320	1330	1336	1331	1321	1316	1314	1315	1315	1309	1302	1293	1292	1308	1325	1340	1344	1352	1348	1341	1340	1342	1349	1354	1354	1353	1351	1357	1354	1354	1353	1352	1342	1329	1327	1325	1335	1349	1358	1359	1356	1350	1344	1340	1337	1359	1361	1370	1335	1292	1293	1296	1260	1212	0	0	0	0	0	0	0	0	0	0	0	0	0	0	0	0	0	0	0	0	0	0	0	0	0	0	0	0	0	0	0	0	0	0	0	0	0	0	0	0	0	0	0	0	0	0	0	0	0	0	0	0	0	0	0	0	0	0	0	0	0	0	0	0	0	0	0	0	0	0	0	0	0	0	0	0	0	0	0	0	0	1464	1557	1612	1616	1603	1549	1520	0	0	0	0	0	0	0	0	0	0	0	0	1241	1252	1263	1279	1312	1318	1308	1302	1297	1289	1279	1277	1282	1282	1279	1276	1278	1275	1268	1254	1249	1248	1246	1245	1238	1241	1255	1274	1289	1299	1294	1264	1246	1233	1224	1215	1212	1218	1229	1241	1249	1254	1247	1244	1234	1233	1235	1264	1265	1250	1236	1236	1239	1223	1213	1192	1166	0	0	0	0	0	0	0	0	0	0	0	0	0	0	0	0	0	0	0	0	0	0	0	0	0	0	0	0	0	0	0	0	0	0	0	0	0	0	0	0	0	0	0	0	0	0	0	0	0	0	0	0	0	0	0	0	0	0	0	0	0	0	0	0	0	0	0	0	0	0	0	0	0	0	0	0	0	0	0	0	0	0	0	0	0	0	0	0	0	0	0	0	0	0	0	0	0	0	0	0	0	0	0	0	0	0	0	0	0	0	0	0	0
0	0	0	0	0	0	0	0	0	0	0	0	0	0	0	0	0	0	0	0	0	0	0	0	0	0	0	0	0	0	0	0	0	0	0	0	0	0	0	0	0	0	0	0	0	0	0	0	0	0	0	0	0	0	0	0	0	0	0	0	0	0	0	0	0	0	0	0	0	0	0	0	0	0	0	0	0	0	0	0	0	0	0	0	0	0	0	0	0	0	0	0	0	0	0	0	0	0	0	0	0	0	0	0	0	0	0	0	0	0	0	0	0	0	0	0	0	0	0	0	0	0	0	0	0	0	0	0	0	0	0	0	0	0	0	0	0	0	0	0	0	0	0	0	1228	1241	1253	1272	1285	1291	1283	1283	1291	1298	1296	1293	1286	1287	1302	1306	1304	1312	1304	1314	1318	1317	1326	1338	1321	1289	1266	1261	1258	1284	1307	1299	1303	1316	1317	1289	1275	1276	1288	1297	1370	1404	1403	1399	1369	1297	1280	1276	0	0	0	0	0	0	0	0	0	0	0	0	0	0	0	0	0	0	0	0	0	0	0	0	0	0	0	0	0	0	0	0	0	0	0	0	0	0	0	0	0	0	0	0	0	1531	1543	1565	1565	1543	1462	0	0	0	0	0	0	0	0	0	0	0	0	0	0	0	0	0	0	0	0	0	0	0	0	0	0	0	0	0	0	0	0	0	0	0	0	0	0	0	0	0	1286	1296	1306	1307	1308	1312	1321	1327	1324	1316	1312	1323	1328	1327	1327	1319	1308	1299	1301	1304	1313	1307	1298	1293	1289	1297	1302	1298	1286	1282	1287	1310	1321	1331	1335	1330	1318	1310	1316	1325	1330	1327	1318	1307	1302	1306	1313	1324	1340	1344	1352	1345	1343	1349	1354	1353	1354	1351	1346	1346	1351	1352	1347	1350	1341	1332	1320	1315	1322	1336	1342	1348	1343	1345	1341	1342	1344	1356	1356	1372	1361	1317	1295	1279	1252	1212	0	0	0	0	0	0	0	0	0	0	0	0	0	0	0	0	0	0	0	0	0	0	0	0	0	0	0	0	0	0	0	0	0	0	0	0	0	0	0	0	0	0	0	0	0	0	0	0	0	0	0	0	0	0	0	0	0	0	0	0	0	0	0	0	0	0	0	0	0	0	0	0	0	0	0	0	0	0	0	0	0	1497	1566	1611	1614	1600	1549	1528	0	0	0	0	0	0	0	0	0	0	0	0	1226	1234	1244	1265	1300	1306	1301	1294	1279	1274	1275	1271	1271	1262	1255	1255	1261	1269	1266	1263	1264	1264	1255	1243	1237	1239	1250	1263	1292	1308	1311	1286	1262	1228	1217	1210	1210	1220	1233	1243	1249	1253	1247	1246	1243	1243	1245	1278	1283	1268	1254	1252	1259	1261	1224	1200	1164	0	0	0	0	0	0	0	0	0	0	0	0	0	0	0	0	0	0	0	0	0	0	0	0	0	0	0	0	0	0	0	0	0	0	0	0	0	0	0	0	0	0	0	0	0	0	0	0	0	0	0	0	0	0	0	0	0	0	0	0	0	0	0	0	0	0	0	0	0	0	0	0	0	0	0	0	0	0	0	0	0	0	0	0	0	0	0	0	0	0	0	0	0	0	0	0	0	0	0	0	0	0	0	0	0	0	0	0	0	0	0	0	0
0	0	0	0	0	0	0	0	0	0	0	0	0	0	0	0	0	0	0	0	0	0	0	0	0	0	0	0	0	0	0	0	0	0	0	0	0	0	0	0	0	0	0	0	0	0	0	0	0	0	0	0	0	0	0	0	0	0	0	0	0	0	0	0	0	0	0	0	0	0	0	0	0	0	0	0	0	0	0	0	0	0	0	0	0	0	0	0	0	0	0	0	0	0	0	0	0	0	0	0	0	0	0	0	0	0	0	0	0	0	0	0	0	0	0	0	0	0	0	0	0	0	0	0	0	0	0	0	0	0	0	0	0	0	0	0	0	0	0	0	0	0	0	0	1220	1241	1255	1277	1283	1286	1280	1277	1285	1289	1295	1298	1305	1304	1307	1321	1312	1317	1310	1317	1312	1310	1323	1331	1320	1283	1259	1262	1273	1299	1322	1317	1322	1323	1310	1286	1270	1275	1276	1285	1356	1411	1418	1397	1393	1307	1260	1260	0	0	0	0	0	0	0	0	0	0	0	0	0	0	0	0	0	0	0	0	0	0	0	0	0	0	0	0	0	0	0	0	0	0	0	0	0	0	0	0	0	0	0	0	0	1547	1566	1588	1587	1561	1472	0	0	0	0	0	0	0	0	0	0	0	0	0	0	0	0	0	0	0	0	0	0	0	0	0	0	0	0	0	0	0	0	0	0	0	0	0	0	0	0	0	1308	1308	1307	1305	1309	1312	1323	1329	1334	1329	1323	1326	1327	1329	1331	1333	1316	1304	1300	1305	1308	1309	1301	1290	1281	1290	1297	1307	1306	1303	1306	1311	1316	1323	1325	1321	1310	1309	1316	1330	1340	1344	1335	1321	1306	1308	1308	1326	1328	1342	1345	1346	1350	1352	1358	1359	1355	1352	1352	1346	1349	1348	1347	1348	1345	1343	1328	1316	1316	1325	1334	1344	1342	1342	1345	1349	1348	1344	1348	1380	1386	1337	1305	1269	1244	1206	0	0	0	0	0	0	0	0	0	0	0	0	0	0	0	0	0	0	0	0	0	0	0	0	0	0	0	0	0	0	0	0	0	0	0	0	0	0	0	0	0	0	0	0	0	0	0	0	0	0	0	0	0	0	0	0	0	0	0	0	0	0	0	0	0	0	0	0	0	0	0	0	0	0	0	0	0	0	0	0	0	1517	1586	1624	1618	1599	1569	1539	0	0	0	0	0	0	0	0	0	0	0	0	1211	1222	1232	1238	1279	1298	1297	1298	1276	1270	1270	1268	1262	1255	1239	1245	1252	1259	1265	1275	1279	1275	1267	1255	1239	1240	1243	1254	1286	1304	1312	1294	1269	1228	1211	1202	1207	1218	1229	1241	1250	1255	1255	1253	1248	1250	1252	1271	1272	1266	1257	1257	1266	1277	1257	1218	0	0	0	0	0	0	0	0	0	0	0	0	0	0	0	0	0	0	0	0	0	0	0	0	0	0	0	0	0	0	0	0	0	0	0	0	0	0	0	0	0	0	0	0	0	0	0	0	0	0	0	0	0	0	0	0	0	0	0	0	0	0	0	0	0	0	0	0	0	0	0	0	0	0	0	0	0	0	0	0	0	0	0	0	0	0	0	0	0	0	0	0	0	0	0	0	0	0	0	0	0	0	0	0	0	0	0	0	0	0	0	0	0	0
0	0	0	0	0	0	0	0	0	0	0	0	0	0	0	0	0	0	0	0	0	0	0	0	0	0	0	0	0	0	0	0	0	0	0	0	0	0	0	0	0	0	0	0	0	0	0	0	0	0	0	0	0	0	0	0	0	0	0	0	0	0	0	0	0	0	0	0	0	0	0	0	0	0	0	0	0	0	0	0	0	0	0	0	0	0	0	0	0	0	0	0	0	0	0	0	0	0	0	0	0	0	0	0	0	0	0	0	0	0	0	0	0	0	0	0	0	0	0	0	0	0	0	0	0	0	0	0	0	0	0	0	0	0	0	0	0	0	0	0	0	0	0	0	1225	1241	1266	1275	1278	1278	1276	1279	1275	1277	1295	1308	1312	1311	1312	1325	1319	1316	1317	1307	1304	1300	1306	1307	1294	1271	1262	1272	1289	1303	1311	1310	1310	1308	1298	1286	1279	1280	1288	1294	1350	1420	1426	1393	1391	1313	1260	1258	0	0	0	0	0	0	0	0	0	0	0	0	0	0	0	0	0	0	0	0	0	0	0	0	0	0	0	0	0	0	0	0	0	0	0	0	0	0	0	0	0	0	0	0	0	1558	1583	1606	1605	1587	1489	0	0	0	0	0	0	0	0	0	0	0	0	0	0	0	0	0	0	0	0	0	0	0	0	0	0	0	0	0	0	0	0	0	0	0	0	0	0	0	0	0	1309	1320	1300	1298	1297	1301	1312	1328	1341	1343	1347	1337	1331	1328	1334	1332	1318	1310	1302	1309	1314	1317	1307	1290	1276	1281	1296	1312	1314	1311	1308	1306	1306	1311	1316	1313	1303	1310	1320	1334	1349	1351	1345	1329	1316	1314	1318	1324	1333	1340	1347	1349	1350	1355	1357	1359	1357	1355	1343	1342	1347	1344	1346	1348	1352	1346	1337	1322	1321	1328	1335	1341	1340	1340	1349	1356	1350	1341	1342	1354	1372	1337	1303	1276	1238	1214	0	0	0	0	0	0	0	0	0	0	0	0	0	0	0	0	0	0	0	0	0	0	0	0	0	0	0	0	0	0	0	0	0	0	0	0	0	0	0	0	0	0	0	0	0	0	0	0	0	0	0	0	0	0	0	0	0	0	0	0	0	0	0	0	0	0	0	0	1533	0	0	0	0	0	0	0	0	0	0	0	0	1513	1595	1634	1628	1604	1555	1543	0	0	0	0	0	0	0	0	0	0	0	1166	1209	1223	1236	1241	1274	1307	1308	1308	1282	1274	1271	1263	1246	1242	1240	1251	1255	1255	1258	1273	1278	1277	1275	1260	1249	1241	1239	1247	1272	1300	1308	1300	1266	1228	1216	1203	1208	1221	1233	1246	1258	1263	1258	1255	1253	1249	1250	1258	1259	1256	1254	1254	1267	1276	1263	1229	0	0	0	0	0	0	0	0	0	0	0	0	0	0	0	0	0	0	0	0	0	0	0	0	0	0	0	0	0	0	0	0	0	0	0	0	0	0	0	0	0	0	0	0	0	0	0	0	0	0	0	0	0	0	0	0	0	0	0	0	0	0	0	0	0	0	0	0	0	0	0	0	0	0	0	0	0	0	0	0	0	0	0	0	0	0	0	0	0	0	0	0	0	0	0	0	0	0	0	0	0	0	0	0	0	0	0	0	0	0	0	0	0	0
0	0	0	0	0	0	0	0	0	0	0	0	0	0	0	0	0	0	0	0	0	0	0	0	0	0	0	0	0	0	0	0	0	0	0	0	0	0	0	0	0	0	0	0	0	0	0	0	0	0	0	0	0	0	0	0	0	0	0	0	0	0	0	0	0	0	0	0	0	0	0	0	0	0	0	0	0	0	0	0	0	0	0	0	0	0	0	0	0	0	0	0	0	0	0	0	0	0	0	0	0	0	0	0	0	0	0	0	0	0	0	0	0	0	0	0	0	0	0	0	0	0	0	0	0	0	0	0	0	0	0	0	0	0	0	0	0	0	0	0	0	0	0	0	0	1252	1267	1272	1266	1272	1273	1270	1260	1268	1294	1319	1329	1309	1307	1312	1314	1316	1314	1300	1296	1284	1281	1280	1268	1259	1261	1274	1287	1288	1292	1304	1309	1311	1300	1289	1293	1302	1309	1310	1361	1421	1427	1389	1370	1320	1279	1259	0	0	0	0	0	0	0	0	0	0	0	0	0	0	0	0	0	0	0	0	0	0	0	0	0	0	0	0	0	0	0	0	0	0	0	0	0	0	0	0	0	0	1432	1456	1508	1542	1597	1621	1612	1602	1518	0	0	0	0	0	0	0	0	0	0	0	0	0	0	0	0	0	0	0	0	0	0	0	0	0	0	0	0	0	0	0	0	0	0	0	0	0	0	0	0	1267	1306	1325	1294	1283	1277	1280	1303	1322	1340	1348	1349	1344	1335	1330	1336	1341	1328	1314	1309	1310	1325	1332	1325	1301	1289	1284	1297	1316	1316	1312	1307	1301	1303	1307	1318	1313	1308	1313	1320	1337	1353	1357	1350	1335	1328	1330	1331	1332	1341	1347	1352	1359	1359	1359	1357	1347	1338	1345	1352	1352	1340	1336	1339	1345	1348	1339	1332	1331	1330	1335	1337	1343	1341	1348	1349	1349	1347	1334	1340	1356	1339	1317	1287	1268	1245	1227	0	0	0	0	0	0	0	0	0	0	0	0	0	0	0	0	0	0	0	0	0	0	0	0	0	0	0	0	0	0	0	0	0	0	0	0	0	0	0	0	0	0	0	0	0	0	0	0	0	0	0	0	0	0	0	0	0	0	0	0	0	0	0	0	0	0	0	1542	1555	0	0	0	0	0	0	0	0	0	0	0	0	1493	1580	1640	1628	1586	1529	1514	0	0	0	0	0	0	0	0	0	0	0	1179	1212	1232	1246	1251	1283	1322	1317	1313	1283	1273	1261	1246	1238	1240	1250	1264	1258	1251	1248	1266	1271	1276	1273	1263	1248	1242	1235	1242	1255	1282	1288	1283	1263	1232	1215	1216	1218	1225	1238	1246	1256	1257	1261	1254	1245	1237	1238	1252	1253	1253	1245	1249	1262	1274	1260	1213	1181	0	0	0	0	0	0	0	0	0	0	0	0	0	0	0	0	0	0	0	0	0	0	0	0	0	0	0	0	0	0	0	0	0	0	0	0	0	0	0	0	0	0	0	0	0	0	0	0	0	0	0	0	0	0	0	0	0	0	0	0	0	0	0	0	0	0	0	0	0	0	0	0	0	0	0	0	0	0	0	0	0	0	0	0	0	0	0	0	0	0	0	0	0	0	0	0	0	0	0	0	0	0	0	0	0	0	0	0	0	0	0	0	0
0	0	0	0	0	0	0	0	0	0	0	0	0	0	0	0	0	0	0	0	0	0	0	0	0	0	0	0	0	0	0	0	0	0	0	0	0	0	0	0	0	0	0	0	0	0	0	0	0	0	0	0	0	0	0	0	0	0	0	0	0	0	0	0	0	0	0	0	0	0	0	0	0	0	0	0	0	0	0	0	0	0	0	0	0	0	0	0	0	0	0	0	0	0	0	0	0	0	0	0	0	0	0	0	0	0	0	0	0	0	0	0	0	0	0	0	0	0	0	0	0	0	0	0	0	0	0	0	0	0	0	0	0	0	0	0	0	0	0	0	0	0	0	0	0	0	1263	1261	1269	1273	1272	1258	1247	1260	1291	1321	1326	1313	1292	1289	1304	1301	1298	1288	1291	1285	1283	1267	1252	1248	1258	1272	1284	1289	1287	1308	1320	1315	1299	1294	1304	1319	1320	1327	1362	1408	1416	1380	1342	1317	1294	1271	0	0	0	0	0	0	0	0	0	0	0	0	0	0	0	0	0	0	0	0	0	0	0	0	0	0	0	0	0	0	0	0	1410	1435	0	0	0	0	0	0	0	0	1399	1425	1468	1516	1571	1614	1614	1615	1535	0	0	0	0	0	0	0	0	0	0	0	0	0	0	0	0	0	0	0	0	0	0	0	0	0	0	0	0	0	0	0	0	0	0	0	0	0	0	0	0	1253	1300	1325	1307	1281	1271	1279	1297	1315	1333	1341	1335	1333	1322	1330	1335	1344	1340	1327	1312	1316	1325	1332	1324	1309	1300	1311	1317	1328	1323	1319	1311	1307	1302	1311	1321	1326	1329	1326	1330	1338	1348	1352	1348	1334	1332	1333	1340	1345	1350	1357	1362	1367	1360	1362	1349	1337	1334	1339	1343	1348	1337	1333	1334	1342	1341	1332	1325	1332	1335	1338	1342	1338	1348	1349	1344	1340	1347	1352	1367	1355	1364	1304	1272	1268	1262	1249	0	0	0	0	0	0	0	0	0	0	0	0	0	0	0	0	0	0	0	0	0	0	0	0	0	0	0	0	0	0	0	0	0	0	0	0	0	0	0	0	0	0	0	0	0	0	0	0	0	0	0	0	0	0	0	0	0	0	0	0	0	0	0	0	0	0	0	1506	1515	0	0	0	0	0	0	0	0	0	0	0	0	1461	1547	1619	1611	1574	1507	1486	0	0	0	0	0	0	0	0	0	0	0	1203	1227	1245	1264	1269	1290	1324	1319	1309	1277	1259	1250	1241	1226	1230	1243	1259	1256	1247	1248	1262	1273	1278	1273	1262	1253	1242	1239	1236	1247	1264	1275	1269	1256	1229	1222	1228	1233	1237	1237	1244	1253	1252	1249	1243	1231	1231	1231	1257	1258	1254	1246	1247	1253	1263	1249	1208	1175	0	0	0	0	0	0	0	0	0	0	0	0	0	0	0	0	0	0	0	0	0	0	0	0	0	0	0	0	0	0	0	0	0	0	0	0	0	0	0	0	0	0	0	0	0	0	0	0	0	0	0	0	0	0	0	0	0	0	0	0	0	0	0	0	0	0	0	0	0	0	0	0	0	0	0	0	0	0	0	0	0	0	0	0	0	0	0	0	0	0	0	0	0	0	0	0	0	0	0	0	0	0	0	0	0	0	0	0	0	0	0	0	0
0	0	0	0	0	0	0	0	0	0	0	0	0	0	0	0	0	0	0	0	0	0	0	0	0	0	0	0	0	0	0	0	0	0	0	0	0	0	0	0	0	0	0	0	0	0	0	0	0	0	0	0	0	0	0	0	0	0	0	0	0	0	0	0	0	0	0	0	0	0	0	0	0	0	0	0	0	0	0	0	0	0	0	0	0	0	0	0	0	0	0	0	0	0	0	0	0	0	0	0	0	0	0	0	0	0	0	0	0	0	0	0	0	0	0	0	0	0	0	0	0	0	0	0	0	0	0	0	0	0	0	0	0	0	0	0	0	0	0	0	0	0	0	0	0	1277	1258	1263	1273	1289	1282	1269	1255	1251	1271	1301	1309	1297	1285	1280	1287	1283	1283	1293	1303	1307	1303	1278	1259	1251	1254	1270	1278	1294	1296	1325	1339	1345	1320	1294	1307	1323	1329	1335	1369	1402	1403	1367	1324	1311	1298	1279	0	0	0	0	0	0	0	0	0	0	0	0	0	0	0	0	0	0	0	0	0	0	0	0	0	0	0	0	0	0	0	0	1421	1448	1458	1462	1459	0	0	0	0	0	1387	1406	1447	1498	1545	1598	1615	1607	1562	0	0	0	0	0	0	0	0	0	0	0	0	0	0	0	0	0	0	0	0	0	0	0	0	0	0	0	0	0	0	0	0	0	0	0	0	0	0	0	0	1268	1308	1332	1316	1300	1288	1292	1298	1313	1324	1327	1322	1313	1315	1329	1347	1354	1344	1328	1312	1311	1321	1332	1330	1324	1326	1331	1340	1340	1332	1327	1319	1312	1314	1321	1334	1343	1342	1340	1335	1338	1328	1329	1332	1327	1326	1327	1332	1338	1350	1361	1368	1373	1359	1341	1335	1345	1339	1343	1345	1338	1336	1329	1334	1333	1339	1334	1327	1320	1326	1328	1323	1321	1352	1354	1351	1340	1354	1374	1395	1373	1376	1308	1277	1282	1284	1282	1257	0	0	0	0	0	0	0	0	0	0	0	0	0	0	0	0	0	0	0	0	0	0	0	0	0	0	0	0	0	0	0	0	0	0	0	0	0	0	0	0	0	0	0	0	0	0	0	0	0	0	0	0	0	0	0	0	0	0	0	0	0	0	0	0	0	0	0	0	0	0	0	0	0	0	0	0	0	0	0	0	1439	1529	1594	1588	1577	1521	1495	0	0	0	0	0	0	0	0	0	0	0	1210	1238	1253	1275	1282	1291	1306	1312	1307	1267	1252	1241	1228	1222	1226	1231	1246	1247	1247	1247	1265	1279	1283	1277	1268	1265	1260	1256	1246	1247	1261	1265	1260	1250	1232	1224	1234	1241	1242	1240	1244	1253	1255	1245	1230	1224	1219	1228	1251	1259	1262	1255	1255	1251	1253	1230	1192	0	0	0	0	0	0	0	0	0	0	0	0	0	0	0	0	0	0	0	0	0	0	0	0	0	0	0	0	0	0	0	0	0	0	0	0	0	0	0	0	0	0	0	0	0	0	0	0	0	0	0	0	0	0	0	0	0	0	0	0	0	0	0	0	0	0	0	0	0	0	0	0	0	0	0	0	0	0	0	0	0	0	0	0	0	0	0	0	0	0	0	0	0	0	0	0	0	0	0	0	0	0	0	0	0	0	0	0	0	0	0	0	0	0
0	0	0	0	0	0	0	0	0	0	0	0	0	0	0	0	0	0	0	0	0	0	0	0	0	0	0	0	0	0	0	0	0	0	0	0	0	0	0	0	0	0	0	0	0	0	0	0	0	0	0	0	0	0	0	0	0	0	0	0	0	0	0	0	0	0	0	0	0	0	0	0	0	0	0	0	0	0	0	0	0	0	0	0	0	0	0	0	0	0	0	0	0	0	0	0	0	0	0	0	0	0	0	0	0	0	0	0	0	0	0	0	0	0	0	0	0	0	0	0	0	0	0	0	0	0	0	0	0	0	0	0	0	0	0	0	0	0	0	0	0	0	0	0	1251	1258	1250	1265	1289	1306	1305	1288	1271	1262	1257	1266	1278	1278	1273	1275	1273	1273	1287	1312	1336	1341	1336	1306	1284	1268	1262	1263	1280	1296	1302	1337	1358	1361	1326	1294	1304	1316	1329	1339	1365	1385	1386	1370	1329	1314	1285	1279	1241	0	0	0	0	0	0	0	0	0	0	0	0	0	0	0	0	0	0	0	0	0	0	0	0	0	0	0	0	0	0	0	1435	1447	0	0	0	0	0	0	0	0	0	1415	1448	1483	1539	1573	1594	1617	1566	0	0	0	0	0	0	0	0	0	0	0	0	0	0	0	0	0	0	0	0	0	0	0	0	0	0	0	0	0	0	0	0	0	0	0	0	0	0	0	0	1280	1320	1341	1340	1321	1309	1307	1308	1319	1320	1322	1310	1306	1313	1328	1347	1354	1344	1324	1295	1296	1306	1321	1331	1330	1332	1336	1340	1330	1331	1322	1316	1316	1324	1334	1341	1350	1348	1340	1331	1316	1311	1319	1324	1332	1334	1326	1329	1330	1343	1354	1363	1370	1361	1336	1336	1349	1353	1351	1348	1347	1337	1338	1335	1329	1324	1326	1323	1315	1314	1315	1313	1311	1355	1357	1356	1347	1363	1390	1391	1395	1370	1307	1286	1287	1291	1283	1252	0	0	0	0	0	0	0	0	0	0	0	0	0	0	0	0	0	0	0	0	0	0	0	0	0	0	0	0	0	0	0	0	0	0	0	0	0	0	0	0	0	0	0	0	0	0	0	0	0	0	0	0	0	0	0	0	0	0	0	0	0	0	0	0	0	0	0	0	0	0	0	0	0	0	0	0	0	0	0	0	1435	1520	1577	1579	1575	1561	0	0	0	0	0	0	0	0	0	0	0	0	0	1242	1254	1273	1295	1296	1304	1305	1301	1267	1248	1239	1229	1224	1220	1230	1240	1247	1250	1253	1271	1283	1284	1278	1276	1273	1274	1278	1259	1257	1256	1258	1252	1238	1234	1232	1235	1237	1241	1243	1246	1252	1260	1248	1232	1223	1221	1233	1253	1263	1275	1279	1270	1246	1246	1223	1192	0	0	0	0	0	0	0	0	0	0	0	0	0	0	0	0	0	0	0	0	0	0	0	0	0	0	0	0	0	0	0	0	0	0	0	0	0	0	0	0	0	0	0	0	0	0	0	0	0	0	0	0	0	0	0	0	0	0	0	0	0	0	0	0	0	0	0	0	0	0	0	0	0	0	0	0	0	0	0	0	0	0	0	0	0	0	0	0	0	0	0	0	0	0	0	0	0	0	0	0	0	0	0	0	0	0	0	0	0	0	0	0	0	0
0	0	0	0	0	0	0	0	0	0	0	0	0	0	0	0	0	0	0	0	0	0	0	0	0	0	0	0	0	0	0	0	0	0	0	0	0	0	0	0	0	0	0	0	0	0	0	0	0	0	0	0	0	0	0	0	0	0	0	0	0	0	0	0	0	0	0	0	0	0	0	0	0	0	0	0	0	0	0	0	0	0	0	0	0	0	0	0	0	0	0	0	0	0	0	0	0	0	0	0	0	0	0	0	0	0	0	0	0	0	0	0	0	0	0	0	0	0	0	0	0	0	0	0	0	0	0	0	0	0	0	0	0	0	0	0	0	0	0	0	0	0	0	0	1237	1257	1259	1271	1297	1309	1319	1330	1310	1298	1260	1255	1256	1255	1267	1272	1266	1274	1304	1338	1361	1363	1353	1336	1308	1294	1279	1279	1287	1303	1305	1330	1358	1352	1312	1293	1306	1331	1343	1352	1358	1383	1384	1377	1345	1325	1283	1270	1230	0	0	0	0	0	0	0	0	0	0	0	0	0	0	0	0	0	0	0	0	0	0	0	0	0	0	0	0	0	0	0	0	0	0	0	0	0	0	0	0	0	0	0	1452	1486	1527	1569	1584	1599	1592	0	0	0	0	0	0	0	0	0	0	0	0	0	0	0	0	0	0	0	0	0	0	0	0	0	0	0	0	0	0	0	0	0	0	0	0	0	0	0	0	0	1318	1338	1345	1328	1322	1313	1315	1318	1320	1314	1301	1303	1309	1327	1345	1354	1335	1299	1281	1281	1286	1303	1314	1330	1328	1329	1336	1336	1323	1316	1314	1317	1327	1342	1345	1342	1341	1335	1325	1318	1313	1320	1334	1348	1355	1354	1340	1332	1339	1346	1356	1352	1352	1343	1346	1353	1359	1360	1363	1354	1346	1338	1332	1324	1310	1302	1305	1312	1315	1320	1317	1319	1329	1360	1368	1358	1373	1400	1399	1378	1353	1310	1285	1291	1289	1263	1216	0	0	0	0	0	0	0	0	0	0	0	0	0	0	0	0	0	0	0	0	0	0	0	0	0	0	0	0	0	0	0	0	0	0	0	0	0	0	0	0	0	0	0	0	0	0	0	0	0	0	0	0	0	0	0	0	0	0	0	0	0	0	0	0	0	0	0	0	0	0	0	0	0	0	0	0	0	0	0	0	1429	1499	1580	1580	1591	1589	0	0	0	0	0	0	0	0	0	0	0	0	0	1222	1245	1273	1295	1306	1301	1300	1295	1267	1259	1248	1240	1233	1233	1241	1250	1256	1259	1262	1273	1282	1276	1273	1271	1284	1300	1296	1275	1260	1251	1247	1240	1236	1236	1231	1228	1229	1224	1228	1239	1251	1257	1256	1236	1224	1227	1247	1257	1263	1270	1277	1270	1247	1231	1222	1196	0	0	0	0	0	0	0	0	0	0	0	0	0	0	0	0	0	0	0	0	0	0	0	0	0	0	0	0	0	0	0	0	0	0	0	0	0	0	0	0	0	0	0	0	0	0	0	0	0	0	0	0	0	0	0	0	0	0	0	0	0	0	0	0	0	0	0	0	0	0	0	0	0	0	0	0	0	0	0	0	0	0	0	0	0	0	0	0	0	0	0	0	0	0	0	0	0	0	0	0	0	0	0	0	0	0	0	0	0	0	0	0	0	0
0	0	0	0	0	0	0	0	0	0	0	0	0	0	0	0	0	0	0	0	0	0	0	0	0	0	0	0	0	0	0	0	0	0	0	0	0	0	0	0	0	0	0	0	0	0	0	0	0	0	0	0	0	0	0	0	0	0	0	0	0	0	0	0	0	0	0	0	0	0	0	0	0	0	0	0	0	0	0	0	0	0	0	0	0	0	0	0	0	0	0	0	0	0	0	0	0	0	0	0	0	0	0	0	0	0	0	0	0	0	0	0	0	0	0	0	0	0	0	0	0	0	0	0	0	0	0	0	0	0	0	0	0	0	0	0	0	0	0	0	0	0	0	0	0	1270	1270	1283	1292	1299	1313	1312	1313	1303	1290	1278	1264	1265	1272	1283	1282	1297	1322	1342	1350	1346	1349	1342	1322	1315	1306	1299	1302	1301	1290	1297	1318	1322	1302	1297	1311	1341	1362	1361	1343	1376	1378	1373	1346	1333	1294	1274	1217	0	0	0	0	0	0	0	0	0	0	0	0	0	0	0	0	0	0	0	0	0	0	0	0	0	0	0	0	0	0	0	0	0	0	0	0	0	0	0	0	0	0	0	1466	1498	1529	1570	1573	1578	1589	0	0	0	0	0	0	0	0	0	0	0	0	0	0	0	0	0	0	0	0	0	0	0	0	0	0	0	0	0	0	0	0	0	0	0	0	0	0	0	0	0	1313	1312	1328	1329	1315	1312	1301	1301	1302	1296	1299	1299	1307	1322	1342	1347	1320	1289	1275	1275	1283	1291	1304	1310	1320	1323	1323	1326	1319	1315	1313	1319	1328	1340	1342	1333	1328	1322	1321	1324	1323	1326	1340	1355	1371	1375	1368	1351	1345	1348	1343	1347	1347	1328	1323	1344	1347	1357	1358	1353	1345	1334	1328	1322	1314	1305	1310	1319	1328	1330	1325	1327	1335	1359	1368	1367	1393	1382	1387	1386	1348	1308	1285	1290	1293	1248	1189	0	0	0	0	0	0	0	0	0	0	0	0	0	0	0	0	0	0	0	0	0	0	0	0	0	0	0	0	0	0	0	0	0	0	0	0	0	0	0	0	0	0	0	0	0	0	0	0	0	0	0	0	0	0	0	0	0	0	0	0	0	0	0	0	0	0	0	0	0	0	0	0	0	0	0	0	0	0	0	0	1457	1494	1564	1576	1588	1597	0	0	0	0	0	0	0	0	0	0	0	0	0	1229	1248	1269	1289	1307	1295	1294	1290	1274	1272	1265	1256	1252	1254	1264	1267	1266	1266	1273	1282	1280	1267	1257	1266	1275	1302	1305	1287	1258	1240	1233	1222	1229	1233	1228	1221	1221	1208	1211	1228	1238	1260	1259	1243	1219	1220	1251	1255	1241	1233	1231	1234	1239	1232	1221	1189	0	0	0	0	0	0	0	0	0	0	0	0	0	0	0	0	0	0	0	0	0	0	0	0	0	0	0	0	0	0	0	0	0	0	0	0	0	0	0	0	0	0	0	0	0	0	0	0	0	0	0	0	0	0	0	0	0	0	0	0	0	0	0	0	0	0	0	0	0	0	0	0	0	0	0	0	0	0	0	0	0	0	0	0	0	0	0	0	0	0	0	0	0	0	0	0	0	0	0	0	0	0	0	0	0	0	0	0	0	0	0	0	0	0
0	0	0	0	0	0	0	0	0	0	0	0	0	0	0	0	0	0	0	0	0	0	0	0	0	0	0	0	0	0	0	0	0	0	0	0	0	0	0	0	0	0	0	0	0	0	0	0	0	0	0	0	0	0	0	0	0	0	0	0	0	0	0	0	0	0	0	0	0	0	0	0	0	0	0	0	0	0	0	0	0	0	0	0	0	0	0	0	0	0	0	0	0	0	0	0	0	0	0	0	0	0	0	0	0	0	0	0	0	0	0	0	0	0	0	0	0	0	0	0	0	0	0	0	0	0	0	0	0	0	0	0	0	0	0	0	0	0	0	0	0	0	0	0	0	1279	1282	1292	1294	1284	1278	1289	1298	1293	1292	1275	1267	1261	1273	1286	1286	1295	1296	1296	1302	1320	1323	1316	1304	1302	1309	1317	1314	1298	1286	1283	1305	1311	1312	1311	1321	1341	1356	1353	1326	1378	1376	1372	1338	1331	1302	1279	1224	0	0	0	0	0	0	0	0	0	0	0	0	0	0	0	0	0	0	0	0	0	0	0	0	0	0	0	0	0	0	0	0	0	0	0	0	0	0	0	0	0	0	0	0	1507	1537	1564	1556	1552	1544	0	0	0	0	0	0	0	0	0	0	0	0	0	0	0	0	0	0	0	0	0	0	0	0	0	0	0	0	0	0	0	0	0	0	0	0	0	0	0	0	0	1289	1303	1313	1326	1312	1303	1294	1289	1292	1295	1292	1294	1299	1310	1327	1338	1323	1291	1278	1278	1287	1297	1308	1316	1316	1318	1324	1321	1318	1319	1321	1321	1327	1330	1331	1322	1315	1315	1326	1328	1327	1333	1339	1354	1372	1374	1373	1351	1338	1331	1328	1334	1329	1318	1313	1317	1327	1341	1353	1353	1346	1341	1336	1330	1323	1322	1317	1328	1339	1339	1336	1333	1336	1358	1363	1364	1379	1387	1390	1384	1350	1314	1294	1295	1276	1219	1173	0	0	0	0	0	0	0	0	0	0	0	0	0	0	0	0	0	0	0	0	0	0	0	0	0	0	0	0	0	0	0	0	0	0	0	0	0	0	0	0	0	0	0	0	0	0	0	0	0	0	0	0	0	0	0	0	0	0	0	0	0	0	0	0	0	0	0	0	0	0	0	0	0	0	0	0	0	0	0	0	1467	1485	1535	1549	1565	1588	0	0	0	0	0	0	0	0	0	0	0	0	0	1251	1269	1283	1288	1301	1288	1289	1285	1283	1280	1267	1257	1261	1277	1276	1274	1267	1259	1265	1283	1277	1258	1243	1245	1263	1285	1297	1281	1257	1235	1218	1218	1227	1245	1231	1216	1212	1211	1214	1225	1244	1264	1268	1257	1221	1208	1214	1248	1248	1239	1231	1245	1246	1239	1220	1178	0	0	0	0	0	0	0	0	0	0	0	0	0	0	0	0	0	0	0	0	0	0	0	0	0	0	0	0	0	0	0	0	0	0	0	0	0	0	0	0	0	0	0	0	0	0	0	0	0	0	0	0	0	0	0	0	0	0	0	0	0	0	0	0	0	0	0	0	0	0	0	0	0	0	0	0	0	0	0	0	0	0	0	0	0	0	0	0	0	0	0	0	0	0	0	0	0	0	0	0	0	0	0	0	0	0	0	0	0	0	0	0	0	0
0	0	0	0	0	0	0	0	0	0	0	0	0	0	0	0	0	0	0	0	0	0	0	0	0	0	0	0	0	0	0	0	0	0	0	0	0	0	0	0	0	0	0	0	0	0	0	0	0	0	0	0	0	0	0	0	0	0	0	0	0	0	0	0	0	0	0	0	0	0	0	0	0	0	0	0	0	0	0	0	0	0	0	0	0	0	0	0	0	0	0	0	0	0	0	0	0	0	0	0	0	0	0	0	0	0	0	0	0	0	0	0	0	0	0	0	0	0	0	0	0	0	0	0	0	0	0	0	0	0	0	0	0	0	0	0	0	0	0	0	0	0	0	0	0	1286	1289	1300	1291	1262	1251	1261	1262	1280	1284	1276	1262	1259	1277	1292	1290	1281	1283	1285	1297	1313	1319	1310	1295	1292	1299	1317	1318	1316	1299	1279	1288	1315	1323	1323	1319	1330	1331	1333	1330	1386	1385	1372	1332	1341	1312	1280	1236	0	0	0	0	0	0	0	0	0	0	0	0	0	0	0	0	0	0	0	0	0	0	0	0	0	0	0	0	0	0	0	0	0	0	0	0	0	0	0	0	0	1397	1422	1463	1502	1536	1544	1542	1527	1505	0	0	0	0	0	0	0	0	0	0	0	0	0	0	0	0	0	0	0	0	0	0	0	0	0	0	0	0	0	0	0	0	0	0	0	0	0	0	0	0	0	1286	1309	1314	1322	1315	1304	1298	1297	1297	1298	1291	1287	1288	1302	1315	1318	1319	1312	1296	1301	1312	1312	1312	1314	1314	1318	1318	1315	1314	1323	1332	1334	1330	1329	1321	1314	1308	1308	1317	1332	1333	1335	1342	1351	1348	1347	1357	1355	1348	1332	1316	1322	1320	1319	1315	1316	1323	1333	1342	1348	1352	1351	1348	1343	1339	1342	1339	1342	1346	1345	1341	1333	1341	1355	1358	1363	1368	1381	1388	1378	1341	1317	1301	1292	1263	1206	1180	0	0	0	0	0	0	0	0	0	0	0	0	0	0	0	0	0	0	0	0	0	0	0	0	0	0	0	0	0	0	0	0	0	0	0	0	0	0	0	0	0	0	0	0	0	0	0	0	0	0	0	0	0	0	0	0	0	0	0	0	0	0	0	0	0	0	0	0	0	0	0	0	0	0	0	0	0	0	0	0	1453	1465	1509	1527	1543	1565	0	0	0	0	0	0	0	0	0	0	0	0	0	1257	1272	1275	1274	1290	1284	1282	1281	1285	1282	1266	1256	1258	1272	1278	1279	1258	1254	1260	1266	1260	1246	1235	1235	1248	1265	1277	1273	1253	1235	1219	1224	1243	1258	1248	1240	1238	1241	1245	1248	1257	1264	1264	1255	1224	1208	1205	1245	1254	1261	1263	1264	1255	1235	1210	1185	1148	0	0	0	0	0	0	0	0	0	0	0	0	0	0	0	0	0	0	0	0	0	0	0	0	0	0	0	0	0	0	0	0	0	0	0	0	0	0	0	0	0	0	0	0	0	0	0	0	0	0	0	0	0	0	0	0	0	0	0	0	0	0	0	0	0	0	0	0	0	0	0	0	0	0	0	0	0	0	0	0	0	0	0	0	0	0	0	0	0	0	0	0	0	0	0	0	0	0	0	0	0	0	0	0	0	0	0	0	0	0	0	0	0
0	0	0	0	0	0	0	0	0	0	0	0	0	0	0	0	0	0	0	0	0	0	0	0	0	0	0	0	0	0	0	0	0	0	0	0	0	0	0	0	0	0	0	0	0	0	0	0	0	0	0	0	0	0	0	0	0	0	0	0	0	0	0	0	0	0	0	0	0	0	0	0	0	0	0	0	0	0	0	0	0	0	0	0	0	0	0	0	0	0	0	0	0	0	0	0	0	0	0	0	0	0	0	0	0	0	0	0	0	0	0	0	0	0	0	0	0	0	0	0	0	0	0	0	0	0	0	0	0	0	0	0	0	0	0	0	0	0	0	0	0	0	0	0	1251	1267	1290	1307	1294	1258	1245	1246	1254	1271	1280	1282	1257	1255	1265	1283	1287	1283	1284	1293	1314	1324	1326	1307	1284	1277	1297	1310	1317	1324	1306	1267	1273	1297	1318	1310	1295	1279	1281	1296	1372	1398	1393	1374	1328	1350	1323	1291	0	0	0	0	0	0	0	0	0	0	0	0	0	0	0	0	0	0	0	0	0	0	0	0	0	0	0	0	0	0	0	0	0	0	0	0	0	0	0	0	0	0	1405	1431	1470	1500	1538	1550	1548	1523	1486	0	0	0	0	0	0	0	0	0	0	0	0	0	0	0	0	0	0	0	0	0	0	0	0	0	0	0	0	0	0	0	0	0	0	0	0	0	0	0	0	1264	1277	1299	1318	1319	1317	1310	1314	1310	1304	1304	1303	1294	1287	1283	1291	1305	1320	1321	1308	1309	1327	1327	1309	1307	1307	1320	1325	1315	1316	1327	1341	1345	1339	1331	1321	1315	1309	1303	1315	1319	1322	1327	1333	1332	1337	1337	1340	1338	1336	1322	1316	1311	1315	1318	1322	1324	1326	1330	1336	1342	1338	1349	1344	1341	1343	1353	1355	1354	1352	1346	1342	1340	1345	1349	1353	1361	1363	1378	1379	1370	1341	1315	1310	1299	1262	1206	0	0	0	0	0	0	0	0	0	0	0	0	0	0	0	0	0	0	0	0	0	0	0	0	0	0	0	0	0	0	0	0	0	0	0	0	0	0	0	0	0	0	0	0	0	0	0	0	0	0	0	0	0	0	0	0	0	0	0	0	0	0	0	0	0	0	0	0	0	0	0	0	0	0	0	0	0	0	0	0	0	1447	1460	1496	1522	1534	1534	0	0	0	0	0	0	0	0	0	0	0	0	0	1242	1248	1252	1253	1270	1280	1277	1277	1289	1282	1269	1256	1246	1252	1265	1260	1259	1253	1245	1247	1245	1241	1230	1234	1238	1252	1256	1268	1259	1250	1238	1233	1256	1261	1251	1248	1244	1243	1243	1238	1246	1261	1262	1251	1232	1214	1233	1243	1249	1252	1257	1253	1239	1221	1208	1189	1168	0	0	0	0	0	0	0	0	0	0	0	0	0	0	0	0	0	0	0	0	0	0	0	0	0	0	0	0	0	0	0	0	0	0	0	0	0	0	0	0	0	0	0	0	0	0	0	0	0	0	0	0	0	0	0	0	0	0	0	0	0	0	0	0	0	0	0	0	0	0	0	0	0	0	0	0	0	0	0	0	0	0	0	0	0	0	0	0	0	0	0	0	0	0	0	0	0	0	0	0	0	0	0	0	0	0	0	0	0	0	0	0	0
0	0	0	0	0	0	0	0	0	0	0	0	0	0	0	0	0	0	0	0	0	0	0	0	0	0	0	0	0	0	0	0	0	0	0	0	0	0	0	0	0	0	0	0	0	0	0	0	0	0	0	0	0	0	0	0	0	0	0	0	0	0	0	0	0	0	0	0	0	0	0	0	0	0	0	0	0	0	0	0	0	0	0	0	0	0	0	0	0	0	0	0	0	0	0	0	0	0	0	0	0	0	0	0	0	0	0	0	0	0	0	0	0	0	0	0	0	0	0	0	0	0	0	0	0	0	0	0	0	0	0	0	0	0	0	0	0	0	0	0	0	0	0	0	1246	1269	1291	1301	1295	1273	1254	1245	1253	1269	1279	1289	1281	1268	1262	1270	1283	1286	1285	1296	1315	1328	1319	1304	1289	1287	1290	1303	1310	1306	1292	1254	1259	1282	1298	1298	1285	1283	1279	1293	1372	1387	1384	1346	1337	1348	1308	1301	0	0	0	0	0	0	0	0	0	0	0	0	0	0	0	0	0	0	0	0	0	0	0	0	0	0	0	0	0	0	0	0	0	0	0	0	0	0	0	0	0	1430	1438	1457	1476	1487	1539	1573	1571	1547	1496	0	0	0	0	0	0	0	0	0	0	0	0	0	0	0	0	0	0	0	0	0	0	0	0	0	0	0	0	0	0	0	0	0	0	0	0	0	0	0	0	0	1268	1289	1303	1305	1301	1315	1322	1318	1310	1310	1320	1307	1293	1280	1284	1300	1315	1325	1318	1314	1316	1307	1293	1286	1292	1310	1324	1322	1318	1328	1347	1355	1349	1336	1325	1321	1317	1321	1320	1314	1315	1321	1321	1329	1338	1333	1320	1320	1322	1316	1315	1314	1314	1316	1326	1325	1330	1336	1342	1344	1341	1331	1330	1329	1341	1350	1360	1361	1345	1349	1348	1345	1344	1347	1352	1356	1356	1356	1360	1355	1341	1318	1307	1290	1255	1211	0	0	0	0	0	0	0	0	0	0	0	0	0	0	0	0	0	0	0	0	0	0	0	0	0	0	0	0	0	0	0	0	0	0	0	0	0	0	0	0	0	0	0	0	0	0	0	0	0	0	0	0	0	0	0	0	0	0	0	0	0	0	0	0	0	0	0	0	0	0	0	0	0	0	0	0	0	0	0	0	0	1430	1462	1504	1520	1526	1507	1512	0	0	0	0	0	0	0	0	0	0	0	0	1212	1210	1214	1228	1263	1279	1278	1277	1294	1291	1278	1260	1247	1232	1232	1238	1243	1247	1245	1247	1249	1259	1266	1251	1243	1242	1247	1259	1261	1252	1232	1234	1246	1261	1254	1248	1242	1239	1226	1226	1240	1248	1254	1251	1239	1232	1234	1238	1236	1233	1233	1225	1213	1191	1189	1188	1177	0	0	0	0	0	0	0	0	0	0	0	0	0	0	0	0	0	0	0	0	0	0	0	0	0	0	0	0	0	0	0	0	0	0	0	0	0	0	0	0	0	0	0	0	0	0	0	0	0	0	0	0	0	0	0	0	0	0	0	0	0	0	0	0	0	0	0	0	0	0	0	0	0	0	0	0	0	0	0	0	0	0	0	0	0	0	0	0	0	0	0	0	0	0	0	0	0	0	0	0	0	0	0	0	0	0	0	0	0	0	0	0	0
0	0	0	0	0	0	0	0	0	0	0	0	0	0	0	0	0	0	0	0	0	0	0	0	0	0	0	0	0	0	0	0	0	0	0	0	0	0	0	0	0	0	0	0	0	0	0	0	0	0	0	0	0	0	0	0	0	0	0	0	0	0	0	0	0	0	0	0	0	0	0	0	0	0	0	0	0	0	0	0	0	0	0	0	0	0	0	0	0	0	0	0	0	0	0	0	0	0	0	0	0	0	0	0	0	0	0	0	0	0	0	0	0	0	0	0	0	0	0	0	0	0	0	0	0	0	0	0	0	0	0	0	0	0	0	0	0	0	0	0	0	0	0	0	1256	1279	1288	1297	1286	1273	1260	1250	1256	1264	1287	1299	1291	1285	1275	1283	1284	1274	1274	1284	1296	1308	1314	1304	1287	1284	1291	1302	1299	1280	1264	1247	1255	1267	1288	1298	1298	1297	1302	1296	1350	1345	1347	1338	1351	1343	1297	1285	0	0	0	0	0	0	0	0	0	0	0	0	0	0	0	0	0	0	0	0	0	0	0	0	0	0	0	0	0	0	0	0	0	0	0	0	0	0	0	0	0	1451	1469	1486	1479	1474	1523	1587	1593	1582	1510	0	0	0	0	0	0	0	0	0	0	0	0	0	0	0	0	0	0	0	0	0	0	0	0	0	0	0	0	0	0	0	0	0	0	0	0	0	0	0	0	1218	1258	1277	1292	1293	1297	1314	1318	1318	1310	1312	1320	1311	1292	1279	1278	1290	1310	1323	1325	1317	1310	1294	1282	1278	1289	1311	1330	1326	1319	1331	1343	1347	1345	1341	1335	1325	1323	1322	1325	1321	1314	1318	1324	1333	1333	1323	1316	1310	1309	1314	1312	1313	1314	1317	1320	1321	1326	1335	1344	1342	1331	1319	1316	1320	1334	1348	1355	1352	1348	1351	1351	1344	1347	1348	1347	1348	1348	1351	1354	1358	1345	1322	1290	1260	1245	1219	0	0	0	0	0	0	0	0	0	0	0	0	0	0	0	0	0	0	0	0	0	0	0	0	0	0	0	0	0	0	0	0	0	0	0	0	0	0	0	0	0	0	0	0	0	0	0	0	0	0	0	0	0	0	0	0	0	0	0	0	0	0	0	0	0	0	0	0	0	0	0	0	0	0	0	0	0	0	0	0	0	1429	1469	1490	1502	1485	1477	1508	0	0	0	0	0	0	0	0	0	0	0	0	1180	1182	1188	1209	1268	1286	1281	1283	1289	1297	1292	1271	1248	1232	1230	1231	1237	1251	1273	1266	1267	1264	1269	1247	1238	1240	1239	1247	1251	1239	1230	1232	1244	1251	1250	1248	1243	1230	1229	1232	1235	1244	1248	1253	1251	1239	1232	1234	1231	1227	1224	1213	1197	1186	1186	1196	1187	0	0	0	0	0	0	0	0	0	0	0	0	0	0	0	0	0	0	0	0	0	0	0	0	0	0	0	0	0	0	0	0	0	0	0	0	0	0	0	0	0	0	0	0	0	0	0	0	0	0	0	0	0	0	0	0	0	0	0	0	0	0	0	0	0	0	0	0	0	0	0	0	0	0	0	0	0	0	0	0	0	0	0	0	0	0	0	0	0	0	0	0	0	0	0	0	0	0	0	0	0	0	0	0	0	0	0	0	0	0	0	0	0
0	0	0	0	0	0	0	0	0	0	0	0	0	0	0	0	0	0	0	0	0	0	0	0	0	0	0	0	0	0	0	0	0	0	0	0	0	0	0	0	0	0	0	0	0	0	0	0	0	0	0	0	0	0	0	0	0	0	0	0	0	0	0	0	0	0	0	0	0	0	0	0	0	0	0	0	0	0	0	0	0	0	0	0	0	0	0	0	0	0	0	0	0	0	0	0	0	0	0	0	0	0	0	0	0	0	0	0	0	0	0	0	0	0	0	0	0	0	0	0	0	0	0	0	0	0	0	0	0	0	0	0	0	0	0	0	0	0	0	0	0	0	0	0	1267	1282	1280	1277	1261	1265	1253	1250	1254	1264	1278	1298	1300	1302	1294	1300	1291	1271	1260	1266	1270	1288	1304	1299	1289	1287	1287	1291	1286	1267	1254	1247	1252	1265	1279	1296	1322	1342	1345	1317	1339	1337	1335	1346	1353	1343	1291	1274	0	0	0	0	0	0	0	0	0	0	0	0	0	0	0	0	0	0	0	0	0	0	0	0	0	0	0	0	0	0	0	0	0	0	0	0	0	0	0	0	0	1461	1488	1496	1482	1481	1516	1605	1614	1604	1541	0	0	0	0	0	0	0	0	0	0	0	0	0	0	0	0	0	0	0	0	0	0	0	0	0	0	0	0	0	0	0	0	0	0	0	0	0	0	0	0	1216	1260	1279	1290	1292	1297	1305	1310	1310	1304	1303	1302	1304	1293	1274	1269	1280	1302	1317	1322	1313	1304	1297	1295	1306	1322	1329	1332	1335	1330	1335	1340	1345	1346	1346	1340	1328	1322	1323	1328	1323	1318	1321	1320	1321	1319	1317	1315	1307	1307	1316	1320	1318	1316	1314	1307	1310	1316	1328	1335	1330	1318	1310	1307	1317	1331	1344	1352	1353	1350	1354	1361	1357	1348	1350	1347	1360	1346	1353	1357	1359	1352	1322	1276	1246	1226	1216	0	0	0	0	0	0	0	0	0	0	0	0	0	0	0	0	0	0	0	0	0	0	0	0	0	0	0	0	0	0	0	0	0	0	0	0	0	0	0	0	0	0	0	0	0	0	0	0	0	0	0	0	0	0	0	0	0	0	0	0	0	0	0	0	0	0	0	0	0	0	0	0	0	0	0	0	0	0	0	0	0	1425	1471	1482	1477	1452	1449	1496	0	0	0	0	0	0	0	0	0	0	0	0	1167	1173	1177	1198	1281	1288	1282	1276	1272	1283	1287	1277	1253	1241	1234	1242	1247	1262	1275	1274	1270	1266	1250	1235	1229	1234	1247	1249	1252	1242	1237	1236	1232	1237	1242	1243	1245	1234	1225	1227	1229	1242	1250	1259	1253	1244	1226	1227	1226	1231	1228	1219	1214	1209	1213	1214	1194	0	0	0	0	0	0	0	0	0	0	0	0	0	0	0	0	0	0	0	0	0	0	0	0	0	0	0	0	0	0	0	0	0	0	0	0	0	0	0	0	0	0	0	0	0	0	0	0	0	0	0	0	0	0	0	0	0	0	0	0	0	0	0	0	0	0	0	0	0	0	0	0	0	0	0	0	0	0	0	0	0	0	0	0	0	0	0	0	0	0	0	0	0	0	0	0	0	0	0	0	0	0	0	0	0	0	0	0	0	0	0	0	0
0	0	0	0	0	0	0	0	0	0	0	0	0	0	0	0	0	0	0	0	0	0	0	0	0	0	0	0	0	0	0	0	0	0	0	0	0	0	0	0	0	0	0	0	0	0	0	0	0	0	0	0	0	0	0	0	0	0	0	0	0	0	0	0	0	0	0	0	0	0	0	0	0	0	0	0	0	0	0	0	0	0	0	0	0	0	0	0	0	0	0	0	0	0	0	0	0	0	0	0	0	0	0	0	0	0	0	0	0	0	0	0	0	0	0	0	0	0	0	0	0	0	0	0	0	0	0	0	0	0	0	0	0	0	0	0	0	0	0	0	0	0	0	0	1269	1276	1275	1271	1254	1244	1250	1244	1254	1263	1275	1283	1293	1293	1298	1302	1293	1275	1266	1262	1264	1280	1293	1300	1293	1281	1280	1281	1272	1268	1259	1253	1255	1266	1278	1303	1333	1361	1365	1340	1345	1339	1340	1344	1341	1327	1301	1283	0	0	0	0	0	0	0	0	0	0	0	0	0	0	0	0	0	0	0	0	0	0	0	0	0	0	0	0	0	0	0	0	0	0	0	0	0	0	0	0	0	1459	1486	1494	1493	1497	1517	1596	1610	1613	1562	0	0	0	0	0	0	0	0	0	0	0	0	0	0	0	0	0	0	0	0	0	0	0	0	0	0	0	0	0	0	0	0	0	0	0	0	0	0	0	0	1218	1254	1280	1282	1285	1289	1302	1302	1302	1304	1304	1301	1301	1292	1282	1274	1278	1289	1307	1312	1302	1299	1303	1314	1328	1340	1341	1343	1344	1339	1336	1340	1337	1336	1344	1335	1323	1319	1325	1327	1326	1322	1310	1314	1304	1304	1303	1308	1309	1303	1312	1317	1317	1314	1306	1300	1303	1308	1316	1327	1323	1313	1304	1307	1315	1323	1332	1326	1325	1331	1345	1356	1364	1351	1348	1350	1357	1354	1351	1360	1357	1352	1314	1271	1250	1237	1227	1215	0	0	0	0	0	0	0	0	0	0	0	0	0	0	0	0	0	0	0	0	0	0	0	0	0	0	0	0	0	0	0	0	0	0	0	0	0	0	0	0	0	0	0	0	0	0	0	0	0	0	0	0	0	0	0	0	0	0	0	0	0	0	0	0	0	0	0	0	0	0	0	0	0	0	0	0	0	0	0	0	0	1466	1481	1470	1449	1434	1479	0	0	0	0	0	0	0	0	0	0	0	0	1168	1173	1177	1247	1288	1300	1276	1263	1252	1265	1276	1265	1245	1241	1241	1248	1260	1266	1267	1263	1255	1248	1244	1239	1239	1245	1256	1264	1257	1257	1257	1245	1223	1222	1234	1241	1246	1234	1225	1221	1226	1237	1251	1253	1248	1238	1222	1225	1230	1238	1241	1240	1232	1237	1233	1232	1202	0	0	0	0	0	0	0	0	0	0	0	0	0	0	0	0	0	0	0	0	0	0	0	0	0	0	0	0	0	0	0	0	0	0	0	0	0	0	0	0	0	0	0	0	0	0	0	0	0	0	0	0	0	0	0	0	0	0	0	0	0	0	0	0	0	0	0	0	0	0	0	0	0	0	0	0	0	0	0	0	0	0	0	0	0	0	0	0	0	0	0	0	0	0	0	0	0	0	0	0	0	0	0	0	0	0	0	0	0	0	0	0	0
0	0	0	0	0	0	0	0	0	0	0	0	0	0	0	0	0	0	0	0	0	0	0	0	0	0	0	0	0	0	0	0	0	0	0	0	0	0	0	0	0	0	0	0	0	0	0	0	0	0	0	0	0	0	0	0	0	0	0	0	0	0	0	0	0	0	0	0	0	0	0	0	0	0	0	0	0	0	0	0	0	0	0	0	0	0	0	0	0	0	0	0	0	0	0	0	0	0	0	0	0	0	0	0	0	0	0	0	0	0	0	0	0	0	0	0	0	0	0	0	0	0	0	0	0	0	0	0	0	0	0	0	0	0	0	0	0	0	0	0	0	0	0	0	1259	1271	1279	1286	1277	1277	1267	1260	1267	1274	1275	1279	1288	1292	1279	1277	1287	1284	1272	1271	1283	1295	1313	1306	1297	1284	1278	1281	1280	1283	1272	1269	1269	1278	1284	1303	1319	1341	1348	1344	1349	1342	1336	1335	1324	1311	1307	1289	0	0	0	0	0	0	0	0	0	0	0	0	0	0	0	0	0	0	0	0	0	0	0	0	0	0	0	0	0	0	0	0	0	0	0	0	0	0	0	0	0	0	0	0	0	1503	1519	1575	1601	1586	0	0	0	0	0	0	0	0	0	0	0	0	0	0	0	0	0	0	0	0	0	0	0	0	0	0	0	0	0	0	0	0	0	0	0	0	0	0	0	0	0	1222	1254	1280	1280	1281	1283	1288	1298	1309	1315	1317	1315	1311	1308	1294	1286	1288	1293	1298	1301	1297	1297	1307	1313	1326	1329	1335	1338	1336	1334	1338	1335	1336	1334	1338	1328	1316	1313	1320	1327	1330	1324	1314	1320	1298	1286	1290	1301	1309	1305	1306	1309	1312	1309	1301	1300	1301	1312	1323	1324	1321	1311	1300	1301	1306	1307	1305	1304	1307	1308	1321	1340	1350	1350	1349	1347	1339	1333	1328	1344	1345	1339	1305	1280	1272	1267	1246	1223	0	0	0	0	0	0	0	0	0	0	0	0	0	0	0	0	0	0	0	0	0	0	0	0	0	0	0	0	0	0	0	0	0	0	0	0	0	0	0	0	0	0	0	0	0	0	0	0	0	0	0	0	0	0	0	0	0	0	0	0	0	0	0	0	0	0	0	0	0	0	0	0	0	0	0	0	0	0	0	0	0	0	1466	1449	1441	1431	0	0	0	0	0	0	0	0	0	0	0	0	0	1215	1206	1208	1265	1293	1296	1273	1256	1251	1253	1262	1262	1254	1250	1251	1255	1256	1252	1252	1250	1241	1243	1242	1240	1248	1258	1264	1268	1267	1271	1264	1249	1215	1217	1225	1236	1240	1235	1223	1215	1218	1230	1245	1247	1241	1233	1215	1214	1223	1234	1247	1252	1252	1248	1243	1232	1205	0	0	0	0	0	0	0	0	0	0	0	0	0	0	0	0	0	0	0	0	0	0	0	0	0	0	0	0	0	0	0	0	0	0	0	0	0	0	0	0	0	0	0	0	0	0	0	0	0	0	0	0	0	0	0	0	0	0	0	0	0	0	0	0	0	0	0	0	0	0	0	0	0	0	0	0	0	0	0	0	0	0	0	0	0	0	0	0	0	0	0	0	0	0	0	0	0	0	0	0	0	0	0	0	0	0	0	0	0	0	0	0	0
0	0	0	0	0	0	0	0	0	0	0	0	0	0	0	0	0	0	0	0	0	0	0	0	0	0	0	0	0	0	0	0	0	0	0	0	0	0	0	0	0	0	0	0	0	0	0	0	0	0	0	0	0	0	0	0	0	0	0	0	0	0	0	0	0	0	0	0	0	0	0	0	0	0	0	0	0	0	0	0	0	0	0	0	0	0	0	0	0	0	0	0	0	0	0	0	0	0	0	0	0	0	0	0	0	0	0	0	0	0	0	0	0	0	0	0	0	0	0	0	0	0	0	0	0	0	0	0	0	0	0	0	0	0	0	0	0	0	0	0	0	0	0	0	1262	1284	1297	1314	1315	1316	1302	1288	1289	1298	1296	1293	1297	1295	1273	1263	1275	1279	1280	1281	1296	1320	1330	1307	1295	1280	1282	1283	1298	1303	1294	1293	1293	1293	1293	1295	1308	1316	1323	1336	1354	1342	1338	1333	1312	1298	1283	1283	0	0	0	0	0	0	0	0	0	0	0	0	0	0	0	0	0	0	0	0	0	0	0	0	0	0	0	0	0	0	0	0	0	0	0	0	0	0	0	0	0	0	0	0	0	0	1478	1501	1538	1529	0	0	0	0	0	0	0	0	0	0	0	0	0	0	0	0	0	0	0	0	0	0	0	0	0	0	0	0	0	0	0	0	0	0	0	0	0	0	0	0	0	1218	1256	1276	1277	1277	1271	1279	1298	1318	1332	1337	1330	1331	1332	1341	1311	1301	1297	1296	1290	1290	1298	1300	1305	1307	1310	1311	1317	1314	1325	1325	1324	1327	1329	1334	1329	1317	1306	1311	1319	1321	1318	1319	1316	1296	1285	1289	1298	1303	1305	1301	1305	1319	1314	1302	1300	1310	1315	1318	1320	1313	1301	1293	1288	1290	1290	1289	1284	1286	1296	1308	1321	1333	1340	1339	1332	1323	1316	1314	1324	1325	1309	1294	1292	1303	1297	1276	1236	0	0	0	0	0	0	0	0	0	0	0	0	0	0	0	0	0	0	0	0	0	0	0	0	0	0	0	0	0	0	0	0	0	0	0	0	0	0	0	0	0	0	0	0	0	0	0	0	0	0	0	0	0	0	0	0	0	0	0	0	0	0	0	0	0	0	0	0	0	0	0	0	0	0	0	0	0	0	0	0	0	0	0	0	0	0	0	0	0	0	0	0	0	0	0	0	0	0	0	1228	1219	1234	1267	1279	1279	1262	1253	1245	1245	1253	1259	1261	1260	1257	1251	1238	1238	1247	1246	1241	1243	1246	1250	1254	1260	1265	1264	1257	1262	1259	1251	1224	1220	1221	1234	1235	1229	1220	1214	1218	1228	1231	1239	1234	1231	1207	1204	1211	1224	1245	1253	1260	1252	1242	1227	1187	0	0	0	0	0	0	0	0	0	0	0	0	0	0	0	0	0	0	0	0	0	0	0	0	0	0	0	0	0	0	0	0	0	0	0	0	0	0	0	0	0	0	0	0	0	0	0	0	0	0	0	0	0	0	0	0	0	0	0	0	0	0	0	0	0	0	0	0	0	0	0	0	0	0	0	0	0	0	0	0	0	0	0	0	0	0	0	0	0	0	0	0	0	0	0	0	0	0	0	0	0	0	0	0	0	0	0	0	0	0	0	0	0
0	0	0	0	0	0	0	0	0	0	0	0	0	0	0	0	0	0	0	0	0	0	0	0	0	0	0	0	0	0	0	0	0	0	0	0	0	0	0	0	0	0	0	0	0	0	0	0	0	0	0	0	0	0	0	0	0	0	0	0	0	0	0	0	0	0	0	0	0	0	0	0	0	0	0	0	0	0	0	0	0	0	0	0	0	0	0	0	0	0	0	0	0	0	0	0	0	0	0	0	0	0	0	0	0	0	0	0	0	0	0	0	0	0	0	0	0	0	0	0	0	0	0	0	0	0	0	0	0	0	0	0	0	0	0	0	0	0	0	0	0	0	0	0	1275	1287	1310	1324	1330	1335	1322	1313	1313	1322	1321	1319	1314	1309	1293	1263	1258	1276	1282	1291	1306	1328	1330	1305	1287	1280	1284	1297	1309	1315	1314	1312	1306	1293	1287	1280	1286	1295	1299	1317	1345	1340	1334	1331	1299	1284	1264	1246	1230	0	0	0	0	0	0	0	0	0	0	0	0	0	0	0	0	0	0	0	0	0	0	0	0	0	0	0	0	0	0	0	0	0	0	0	0	0	0	0	0	0	0	0	0	0	1458	1463	1472	1479	0	0	0	0	0	0	0	0	0	0	0	0	0	0	0	0	0	0	0	0	0	0	0	0	0	0	0	0	0	0	0	0	0	0	0	0	0	0	0	0	0	1240	1264	1278	1285	1262	1255	1268	1290	1315	1334	1340	1340	1335	1335	1347	1319	1303	1300	1293	1297	1293	1295	1299	1300	1305	1295	1297	1294	1301	1307	1311	1318	1324	1331	1335	1329	1314	1302	1303	1314	1317	1314	1313	1309	1300	1284	1279	1283	1298	1297	1296	1299	1304	1307	1303	1301	1305	1305	1305	1298	1294	1285	1275	1273	1279	1279	1279	1280	1289	1302	1313	1319	1319	1322	1325	1320	1314	1316	1311	1309	1305	1305	1300	1299	1310	1312	1298	1261	1230	1223	0	0	0	0	0	0	0	0	0	0	0	0	0	0	0	0	0	0	0	1289	1277	0	0	0	0	0	0	0	0	0	0	0	0	0	0	0	0	0	0	0	0	0	0	0	0	0	0	0	0	0	0	0	0	0	0	0	0	0	0	0	0	0	0	0	0	0	0	0	0	0	0	0	0	0	0	0	0	0	0	0	0	0	0	0	0	0	0	0	0	0	0	0	0	0	0	0	0	1228	1236	1243	1257	1265	1261	1254	1248	1239	1238	1245	1254	1265	1271	1260	1246	1230	1225	1239	1234	1235	1240	1251	1259	1259	1256	1256	1246	1237	1231	1241	1244	1233	1228	1225	1231	1228	1223	1221	1211	1217	1224	1226	1227	1232	1229	1211	1202	1202	1218	1243	1257	1255	1248	1239	1214	1168	1152	0	0	0	0	0	0	0	0	0	0	0	0	0	0	0	0	0	0	0	0	0	0	0	0	0	0	0	0	0	0	0	0	0	0	0	0	0	0	0	0	0	0	0	0	0	0	0	0	0	0	0	0	0	0	0	0	0	0	0	0	0	0	0	0	0	0	0	0	0	0	0	0	0	0	0	0	0	0	0	0	0	0	0	0	0	0	0	0	0	0	0	0	0	0	0	0	0	0	0	0	0	0	0	0	0	0	0	0	0	0	0	0
1323	1323	1317	1320	1326	1323	1318	1318	1325	1331	1331	1327	1291	1291	1269	1264	1282	1299	1301	1301	1296	1302	1301	1289	1282	1283	1283	1278	1269	1261	1253	1256	1256	1266	1266	1268	1279	1289	1276	1272	0	0	0	0	0	1223	0	0	0	0	0	0	0	0	0	0	0	0	0	0	0	0	0	0	0	0	0	0	0	0	0	0	0	0	0	0	0	0	0	0	0	0	0	0	0	0	0	0	0	0	0	0	0	0	0	0	0	0	0	0	0	0	0	0	0	0	0	0	0	0	0	0	0	0	0	0	0	0	0	0	0	0	0	0	0	0	0	0	0	0	0	0	0	0	0	0	0	0	0	0	0	0	0	0	1271	1281	1295	1308	1320	1312	1309	1311	1317	1328	1325	1324	1316	1315	1303	1283	1275	1281	1283	1285	1302	1320	1315	1303	1291	1285	1294	1305	1315	1322	1326	1318	1297	1278	1272	1268	1268	1265	1278	1296	1334	1334	1336	1329	1296	1273	1241	1222	0	0	0	0	0	0	0	0	0	0	0	0	0	0	0	0	0	0	0	0	0	0	0	0	0	0	0	0	0	0	0	0	0	0	0	0	0	0	0	0	0	0	0	0	0	0	1460	1449	1450	1453	0	0	0	0	0	0	0	0	0	0	0	0	0	0	0	0	0	0	0	0	0	0	0	0	0	0	0	0	0	0	0	0	0	0	0	0	0	0	0	0	0	1258	1267	1281	1292	1250	1248	1257	1279	1302	1319	1327	1326	1324	1322	1320	1309	1300	1299	1306	1309	1309	1301	1303	1303	1303	1299	1294	1291	1297	1307	1307	1311	1318	1332	1334	1327	1310	1299	1303	1301	1303	1307	1307	1305	1297	1281	1271	1268	1275	1286	1289	1298	1308	1311	1310	1306	1303	1299	1289	1284	1269	1252	1249	1261	1269	1278	1281	1284	1295	1303	1314	1325	1323	1315	1316	1315	1314	1313	1307	1302	1297	1300	1301	1289	1304	1317	1315	1275	1242	1231	1261	1302	0	0	0	0	0	1339	1344	0	0	0	0	0	0	0	1336	1339	1319	1290	1282	1293	0	0	0	0	1385	1373	0	0	0	0	0	0	0	0	0	0	0	0	0	0	0	0	0	0	0	0	0	0	0	0	1264	1265	1286	1320	1328	1336	1343	0	0	0	0	0	0	0	0	0	0	0	0	0	0	0	0	1354	1337	1345	1342	1337	1322	0	0	0	0	0	0	0	0	0	0	0	0	0	0	0	0	1251	1257	1241	1243	1251	1253	1247	1235	1217	1213	1216	1239	1254	1268	1260	1240	1223	1219	1232	1232	1231	1238	1253	1246	1242	1238	1241	1230	1215	1212	1218	1230	1243	1238	1236	1231	1223	1219	1212	1205	1209	1215	1220	1229	1228	1224	1211	1202	1201	1216	1239	1245	1246	1235	1224	1199	1171	1154	1146	0	0	0	0	0	0	0	0	0	1176	1175	1178	1189	1201	0	0	0	1187	1183	1175	1166	1186	1211	1229	1240	0	0	0	0	0	0	0	0	0	0	0	0	0	0	0	0	0	0	0	0	0	0	0	0	0	0	0	1165	1197	0	0	0	0	0	0	0	0	0	0	0	0	0	0	0	0	0	0	0	0	0	1181	1192	0	0	0	0	0	0	0	0	0	0	0	0	0	0	0	0	0	0	0	0	0	0	0	0	0	0	0	0	0	0	0	0	0	0
1302	1302	1303	1319	1328	1329	1325	1325	1329	1343	1344	1324	1297	1297	1270	1264	1287	1298	1297	1297	1292	1292	1296	1285	1287	1278	1278	1282	1274	1268	1260	1271	1267	1255	1255	1253	1255	1249	1242	1239	1253	1271	1272	1272	1265	1248	1229	1215	0	0	0	0	0	0	0	0	0	0	0	0	0	0	0	0	0	0	0	0	0	0	0	0	0	0	0	0	0	0	0	0	0	0	0	0	0	0	0	0	0	0	0	0	0	0	0	0	0	0	0	0	0	0	0	0	0	0	0	0	0	0	0	0	0	0	0	0	0	0	0	0	0	0	0	0	0	0	0	0	0	0	0	0	0	0	0	0	0	0	0	0	0	0	0	0	1265	1270	1271	1281	1288	1287	1279	1282	1292	1305	1309	1305	1299	1294	1291	1292	1289	1287	1290	1289	1298	1319	1321	1307	1316	1309	1306	1312	1323	1328	1319	1313	1271	1251	1240	1248	1248	1241	1251	1270	1291	1319	1325	1311	1294	1258	1238	1200	0	0	0	0	0	0	0	0	0	0	0	0	0	0	0	0	0	0	0	0	0	0	0	0	0	0	0	1320	1343	1358	1360	1351	1355	1399	1390	1394	1401	0	0	1422	0	0	0	0	0	0	1446	1432	1421	1412	1406	0	1371	1369	1375	0	0	1362	1340	1313	1307	1318	1335	1343	1354	1347	1332	1314	1302	0	0	0	0	1332	1337	1342	1362	0	0	0	1369	1361	1347	1344	1342	1357	1374	0	0	0	1273	1259	1270	1288	1297	1272	1244	1252	1266	1285	1297	1307	1309	1312	1318	1314	1302	1292	1295	1308	1318	1313	1310	1311	1307	1308	1300	1291	1290	1295	1299	1302	1309	1316	1323	1323	1314	1298	1290	1290	1302	1305	1304	1302	1303	1297	1274	1252	1251	1256	1274	1290	1292	1295	1295	1307	1307	1306	1301	1291	1284	1263	1236	1235	1251	1262	1280	1288	1292	1291	1287	1289	1305	1303	1303	1304	1306	1308	1306	1306	1301	1293	1295	1286	1275	1289	1312	1306	1282	1248	1241	1260	1300	1337	1352	1348	1347	1319	1279	1271	1285	1347	1367	1354	1331	1303	1296	1306	1331	1314	1293	1281	1298	1350	1385	1395	1391	1370	1357	1325	1308	1328	1334	1322	1307	1293	1279	1265	1248	1265	0	0	0	0	0	1348	0	0	1324	1325	1325	1314	1291	1260	1255	1269	1287	1285	1277	1266	1288	1296	1306	1324	1316	1315	1321	1327	1327	1317	1298	1287	1303	0	0	1329	1324	1325	1332	1334	1323	1306	1303	1294	1259	1258	1261	1263	1266	1262	1250	1241	1225	0	0	0	0	1232	1261	1255	1241	1227	1231	1242	1237	1224	1213	1209	1214	1215	1233	1261	1276	1253	1230	1219	1211	1206	1204	1223	1225	1224	1211	1205	1208	1211	1203	1197	1200	1218	1233	1236	1224	1218	1205	1199	1200	1205	1202	1201	1212	1217	1218	1221	1212	1206	1208	1221	1231	1232	1225	1212	1200	1182	1168	1153	1162	1180	1254	1279	1268	1237	1212	1190	1179	1174	1172	1166	1165	1171	1182	1167	0	1174	1156	1145	1143	1152	1165	1184	1202	1206	1192	1182	0	0	0	0	0	0	0	0	0	0	0	0	0	0	1173	1182	0	0	0	0	0	0	0	1167	1156	1161	1183	0	0	0	0	1212	1227	0	0	1215	1194	1192	1199	1216	1235	1242	1248	1242	0	0	1190	1187	1187	1205	1209	1204	0	0	0	0	0	0	0	0	0	0	0	0	1213	1209	1189	1181	1175	1161	1154	1170	1206	1228	1226	0	0	0	0	0	0	0	0	0
1272	1272	1285	1302	1317	1324	1326	1326	1328	1336	1324	1302	1276	1276	1249	1248	1274	1305	1307	1307	1295	1289	1280	1286	1282	1287	1287	1293	1294	1278	1302	1292	1261	1246	1246	1232	1234	1222	1215	1220	1239	1271	1288	1288	1291	1276	1249	1233	0	0	0	0	0	0	0	0	0	0	0	0	0	0	0	0	0	0	0	0	0	0	0	0	0	0	0	0	0	0	0	0	0	0	0	0	0	0	0	0	0	0	0	0	0	0	0	0	0	0	0	0	0	0	0	0	0	0	0	0	0	0	0	0	0	0	0	0	0	0	0	0	0	0	0	0	0	0	0	0	0	0	0	0	0	0	0	0	0	0	0	0	0	0	0	0	1242	1242	1249	1261	1268	1263	1261	1258	1267	1284	1299	1288	1271	1265	1270	1265	1278	1279	1281	1288	1309	1309	1310	1303	1303	1307	1297	1305	1306	1310	1296	1286	1243	1239	1227	1225	1227	1229	1245	1264	1276	1301	1307	1304	1279	1264	1242	1201	0	0	0	0	0	0	0	0	0	0	0	0	0	0	1255	1263	1266	1259	1259	1240	1231	1233	1250	1276	1277	1273	1271	1293	1307	1325	1328	1317	1304	1319	1341	1351	1380	1369	1371	1390	1397	0	0	0	1428	1440	1413	1397	1380	1378	1352	1349	1345	1346	1354	1374	1378	1357	1325	1296	1293	1309	1322	1339	1345	1343	1327	1317	1314	1310	1309	1322	1327	1329	1311	1314	1323	1345	1362	1365	1345	1321	1314	1326	1328	1346	1351	1349	0	1296	1278	1264	1264	1273	1284	1281	1255	1247	1258	1272	1276	1278	1274	1273	1269	1273	1275	1262	1272	1290	1306	1306	1300	1303	1303	1297	1282	1277	1272	1290	1302	1297	1300	1297	1298	1299	1286	1275	1263	1266	1266	1259	1267	1280	1288	1289	1277	1252	1248	1248	1256	1246	1234	1247	1272	1289	1296	1303	1301	1281	1277	1263	1235	1226	1224	1237	1245	1258	1262	1258	1261	1268	1272	1264	1265	1254	1253	1256	1268	1278	1284	1272	1261	1245	1245	1269	1288	1286	1262	1234	1231	1265	1314	1335	1328	1312	1292	1273	1262	1260	1261	1276	1314	1315	1286	1259	1255	1271	1296	1303	1281	1266	1284	1324	1373	1370	1342	1274	1266	1263	1260	1268	1281	1279	1272	1265	1254	1230	1213	1208	1210	1249	1305	1336	1343	1322	1305	1301	1299	1300	1303	1298	1279	1264	1255	1256	1255	1250	1240	1239	1254	1266	1279	1251	1249	1270	1288	1302	1297	1289	1259	1234	1236	1254	1263	1278	1297	1313	1331	1335	1321	1314	1298	1275	1247	1255	1257	1249	1242	1244	1248	1236	1223	1237	1250	1242	1236	1239	1237	1233	1220	1201	1204	1214	1216	1218	1212	1215	1214	1218	1239	1257	1260	1233	1209	1199	1189	1185	1188	1197	1202	1206	1196	1188	1190	1201	1204	1215	1214	1199	1191	1190	1192	1184	1174	1171	1182	1184	1187	1190	1193	1195	1198	1201	1212	1217	1222	1227	1228	1212	1191	1184	1177	1168	1163	1166	1178	1198	1233	1244	1241	1215	1191	1172	1169	1168	1167	1160	1159	1164	1155	1143	1133	1141	1140	1138	1137	1147	1156	1169	1182	1172	1154	1144	1150	1171	1179	0	1187	1191	0	0	0	1206	1191	1193	1196	1183	1170	1176	1178	1186	1177	1144	1126	1120	1140	1157	1154	1160	1178	1213	0	0	1190	1194	1212	1220	1202	1182	1173	1178	1186	1203	1215	1220	1219	1213	1209	1199	1188	1190	1204	1215	1223	1212	1195	1186	1190	1202	1201	1191	1190	1190	1182	1185	1179	1185	1167	1153	1150	1141	1146	1140	1143	1154	1186	1211	1223	0	0	0	0	0	0	0	0	0
1255	1255	1258	1272	1290	1300	1300	1300	1292	1290	1276	1254	1235	1235	1232	1242	1264	1300	1302	1302	1297	1290	1290	1270	1274	1280	1280	1287	1301	1316	1333	1319	1263	1231	1231	1226	1217	1214	1207	1221	1234	1274	1301	1301	1305	1288	1265	1246	1235	0	0	0	0	0	0	0	0	0	1190	1190	0	0	0	0	0	0	0	0	0	0	0	0	0	0	0	0	0	0	0	0	0	0	0	0	0	0	0	0	0	0	0	0	0	0	0	0	0	0	0	0	0	0	0	0	0	0	0	0	0	0	0	0	0	0	0	0	0	0	0	0	0	0	0	0	0	0	0	0	0	0	0	0	0	0	0	0	0	0	0	0	0	0	0	0	0	1222	1228	1246	1255	1259	1253	1252	1265	1279	1300	1284	1259	1238	1226	1236	1248	1260	1264	1270	1281	1287	1281	1273	1278	1280	1281	1285	1286	1284	1271	1252	1231	1230	1231	1225	1227	1237	1240	1255	1267	1274	1283	1278	1274	1266	1249	1209	1197	1189	1201	1210	1226	1240	1250	1254	1254	1241	1239	1251	0	1268	1253	1257	1258	1257	1247	1238	1221	1209	1224	1253	1253	1262	1266	1277	1287	1287	1288	1257	1245	1261	1267	1278	1301	1310	1310	1349	1346	1381	1374	1344	1361	1368	1340	1321	1315	1297	1286	1277	1294	1315	1320	1327	1332	1322	1298	1280	1282	1298	1300	1299	1306	1302	1311	1313	1311	1302	1311	1313	1323	1315	1285	1273	1275	1301	1318	1321	1302	1288	1290	1303	1310	1326	1322	1292	1271	1269	1267	1262	1254	1255	1252	1244	1238	1242	1256	1268	1267	1255	1248	1231	1227	1220	1229	1236	1254	1270	1279	1276	1260	1242	1241	1244	1238	1244	1245	1259	1250	1261	1260	1258	1261	1249	1239	1231	1230	1230	1229	1223	1222	1235	1248	1255	1250	1235	1216	1215	1218	1214	1214	1219	1233	1248	1258	1254	1241	1236	1237	1230	1217	1208	1207	1214	1222	1225	1229	1228	1237	1243	1234	1220	1219	1214	1213	1220	1218	1221	1223	1222	1221	1212	1219	1231	1237	1222	1201	1194	1208	1241	1293	1308	1292	1270	1244	1234	1238	1239	1231	1223	1215	1223	1223	1221	1230	1231	1234	1233	1230	1239	1250	1264	1296	1284	1244	1219	1228	1242	1238	1224	1226	1227	1233	1233	1216	1201	1201	1197	1195	1209	1240	1267	1285	1290	1276	1259	1242	1243	1263	1265	1267	1250	1253	1248	1247	1234	1222	1221	1222	1224	1224	1198	1206	1242	1263	1267	1267	1248	1222	1215	1215	1222	1230	1239	1262	1271	1285	1285	1285	1261	1249	1221	1224	1236	1245	1224	1195	1203	1217	1217	1211	1202	1199	1186	1168	1166	1175	1185	1178	1169	1177	1180	1194	1199	1197	1200	1193	1206	1221	1244	1237	1209	1187	1176	1171	1169	1176	1180	1182	1187	1178	1179	1183	1186	1189	1205	1193	1188	1169	1164	1156	1146	1141	1148	1168	1170	1175	1172	1172	1182	1183	1184	1194	1203	1204	1201	1197	1185	1177	1162	1153	1159	1163	1172	1186	1187	1197	1205	1205	1190	1171	1160	1156	1151	1145	1148	1156	1156	1146	1128	1119	1120	1131	1138	1141	1145	1151	1165	1166	1151	1137	1120	1120	1132	1144	1147	1152	1173	1197	1222	1212	1176	1160	1153	1176	1178	1184	1172	1158	1146	1143	1126	1119	1125	1141	1148	1148	1151	1159	1179	1195	1176	1153	1165	1187	1190	1187	1166	1155	1159	1167	1182	1194	1197	1190	1179	1183	1188	1185	1187	1196	1214	1216	1207	1191	1179	1171	1172	1157	1145	1148	1148	1161	1172	1170	1166	1144	1130	1128	1137	1145	1135	1129	1143	1159	1189	1195	0	0	0	0	0	0	0	0	0
1239	1233	1233	1234	1240	1262	1260	1260	0	0	1224	1214	1215	1215	1212	1225	1254	1279	1284	1284	1281	1278	1271	1257	1256	1264	1264	1277	1292	1307	1310	1285	1247	1220	1220	1205	1202	1205	1210	1218	1234	1256	1287	1287	1293	1284	1271	1251	1235	1238	1265	1281	1286	0	0	1262	1246	1218	1187	1187	1216	1240	1266	1267	1277	0	0	0	0	0	0	0	0	0	0	0	0	0	0	0	1260	0	0	0	0	0	0	0	1236	1261	1273	0	1276	1271	1272	1265	0	0	0	0	1232	1211	1210	1216	1234	1235	1227	0	0	0	0	0	0	0	0	0	0	0	0	0	0	1180	1216	0	0	0	0	0	0	0	0	0	0	0	0	0	0	0	0	0	0	0	0	0	0	1222	1220	1228	1246	1262	1268	1268	1271	1281	1307	1284	1254	1223	1211	1217	1239	1256	1252	1244	1244	1244	1239	1228	1233	1250	1262	1270	1268	1258	1243	1233	1234	1235	1233	1222	1218	1220	1224	1238	1253	1267	1264	1266	1265	1261	1242	1215	1202	1202	1181	1170	1177	1175	1197	1224	1234	1214	1196	1196	1224	1250	1247	1199	1209	1227	1228	1215	1205	1197	1190	1201	1233	1253	1266	1263	1258	1224	1213	1209	1218	1226	1228	1212	1206	1209	1247	1248	1245	1248	1290	1282	1291	1290	1279	1250	1247	1242	1231	1237	1255	1281	1285	1285	1287	1270	1254	1245	1255	1279	1277	1268	1253	1262	1261	1264	1259	1265	1267	1279	1271	1259	1224	1209	1215	1245	1255	1262	1250	1246	1243	1272	1279	1271	1226	1206	1201	1228	1246	1241	1238	1234	1223	1204	1207	1223	1244	1256	1250	1240	1223	1205	1193	1191	1189	1197	1224	1240	1242	1235	1221	1207	1203	1207	1208	1212	1213	1210	1215	1221	1221	1223	1216	1209	1208	1207	1206	1204	1197	1192	1190	1188	1199	1210	1209	1199	1190	1176	1189	1185	1177	1182	1195	1211	1210	1204	1197	1185	1187	1174	1175	1175	1178	1180	1184	1177	1175	1196	1206	1210	1210	1207	1189	1192	1196	1198	1199	1202	1200	1191	1177	1173	1182	1185	1182	1164	1141	1128	1140	1163	1184	1190	1145	1142	1175	1178	1170	1164	1176	1183	1167	1170	1176	1182	1180	1180	1180	1186	1204	1216	1217	1214	1191	1178	1178	1193	1205	1217	1222	1207	1204	1195	1197	1201	1190	1177	1172	1185	1190	1196	1213	1237	1259	1260	1247	1229	1207	1184	1184	1197	1228	1234	1233	1230	1222	1217	1197	1198	1191	1190	1189	1170	1177	1207	1234	1235	1228	1211	1198	1199	1205	1209	1210	1205	1210	1210	1197	1187	1181	1178	1172	1175	1183	1185	1181	1164	1152	1145	1173	1186	1186	1192	1186	1171	1150	1130	1129	1138	1141	1110	1127	1148	1162	1170	1166	1166	1169	1169	1176	1204	1199	1178	1167	1151	1150	1149	1145	1146	1145	1150	1154	1158	1172	1171	1162	1155	1147	1140	1140	1133	1125	1124	1126	1140	1151	1155	1152	1148	1153	1160	1162	1170	1175	1177	1157	1134	1143	1153	1151	1137	1130	1130	1145	1163	1169	1164	1147	1156	1168	1169	1159	1152	1138	1128	1125	1128	1143	1151	1142	1125	1115	1114	1128	1138	1149	1155	1154	1152	1147	1148	1132	1119	1113	1121	1120	1115	1117	1132	1148	1135	1148	1142	1129	1134	1151	1167	1172	1145	1118	1120	1120	1122	1117	1128	1137	1142	1136	1121	1126	1126	1116	1098	1096	1095	1107	1149	1157	1156	1148	1146	1150	1158	1167	1160	1154	1147	1152	1163	1165	1164	1176	1188	1201	1194	1179	1168	1155	1130	1117	1109	1120	1120	1145	1162	1162	1146	1126	1109	1116	1127	1136	1125	1118	1109	1123	1136	1145	0	0	0	0	0	0	0	0	0
1192	1191	1191	1187	1208	0	0	0	0	0	0	1197	1200	1200	1213	1220	1242	1251	1245	1245	0	0	0	0	0	1261	1261	1261	1261	1263	0	1251	1224	1196	1196	1181	1189	1195	1201	1208	1217	1229	1253	1253	1273	1268	1263	1245	1231	1236	1250	1264	1267	1271	1271	1262	1241	1218	1193	1188	1208	1230	1248	1238	1254	1263	1254	1248	1250	1239	1222	1222	1202	1210	1238	1246	1245	1259	1272	1262	1243	1231	1230	0	0	0	0	1218	1246	1270	1275	1260	1240	1233	1231	1226	1231	1245	1250	1240	1220	1199	1190	1197	1208	1201	1191	1191	0	0	0	0	0	0	0	0	0	0	1168	1163	1172	1185	1201	1220	0	0	0	0	0	0	1209	1225	1234	1233	0	0	0	0	0	0	0	0	0	0	1236	1220	1213	1224	1242	1253	1271	1269	1266	1269	1278	1273	1233	1208	1190	1201	1218	1255	1249	1233	1219	1210	1192	1180	1197	1222	1246	1252	1249	1233	1222	1220	1227	1234	1225	1203	1189	1183	1187	1208	1233	1240	1243	1249	1252	1239	1229	1212	1202	1165	1152	1151	1139	1144	1153	1171	1173	1169	1151	1149	1160	1171	1166	1170	1176	1183	1186	1181	1179	1173	1173	1168	1184	1215	1250	1247	1177	1147	1141	1154	1191	1196	1179	1168	1167	1151	1148	1155	1169	1205	1228	1229	1222	1235	1213	1196	1203	1206	1208	1199	1186	1219	1208	1209	1217	1208	1201	1198	1198	1202	1232	1226	1211	1209	1200	1181	1188	1219	1233	1237	1219	1203	1180	1168	1162	1152	1158	1181	1176	1177	1179	1219	1239	1222	1170	1152	1155	1170	1187	1201	1206	1196	1185	1170	1177	1187	1216	1226	1225	1207	1191	1170	1158	1153	1151	1153	1159	1183	1188	1179	1159	1167	1167	1165	1169	1171	1168	1165	1165	1172	1178	1180	1183	1179	1161	1171	1164	1161	1152	1141	1140	1138	1146	1156	1159	1160	1146	1133	1123	1135	1144	1147	1142	1146	1164	1160	1145	1124	1114	1106	1110	1117	1129	1124	1118	1116	1122	1127	1124	1139	1164	1162	1164	1165	1169	1162	1166	1177	1168	1155	1136	1126	1148	1160	1157	1135	1099	1092	1093	1106	1100	1108	1112	1114	1117	1120	1123	1125	1121	1129	1132	1135	1140	1143	1141	1134	1136	1128	1148	1172	1185	1169	1146	1134	1147	1164	1177	1183	1184	1178	1174	1161	1167	1170	1161	1149	1139	1137	1147	1163	1175	1192	1194	1205	1213	1199	1172	1134	1134	1147	1186	1205	1198	1190	1179	1176	1167	1168	1168	1161	1159	1142	1145	1174	1194	1190	1191	1159	1159	1187	1145	1174	1178	1171	1166	1160	1154	1148	1140	1128	1129	1124	1124	1113	1099	1096	1086	1080	1109	1137	1155	1172	1170	1152	1128	1112	1110	1112	1096	1093	1103	1123	1126	1113	1116	1116	1111	1111	1101	1111	1154	1152	1137	1118	1121	1118	1102	1098	1108	1114	1123	1136	1143	1136	1132	1123	1112	1108	1109	1114	1110	1110	1116	1133	1137	1127	1122	1119	1125	1130	1139	1147	1139	1123	1106	1102	1111	1112	1115	1112	1107	1111	1117	1118	1121	1117	1103	1110	1132	1141	1143	1139	1127	1109	1105	1108	1127	1138	1132	1115	1103	1099	1116	1123	1134	1143	1146	1140	1125	1116	1111	1110	1107	1108	1105	1104	1098	1094	1091	1106	1117	1117	1114	1099	1113	1130	1126	1092	1087	1093	1107	1111	1107	1120	1125	1126	1110	1099	1091	1075	1065	1061	1064	1068	1067	1083	1106	1121	1126	1126	1129	1135	1141	1135	1123	1110	1099	1098	1122	1132	1141	1153	1167	1163	1147	1126	1099	1088	1082	1089	1104	1104	1126	1142	1130	1106	1085	1088	1098	1105	1103	1082	1059	1070	1086	1096	1103	0	0	0	0	0	0	0	0	0
0	0	0	0	0	0	0	0	0	0	0	0	0	0	0	0	0	0	0	0	0	0	0	0	0	0	0	0	0	0	0	1219	1198	1174	1174	1164	1173	1178	1196	1193	1197	1202	1222	1222	1237	1251	1253	1242	1224	1226	1226	1236	1237	1239	1239	1243	1235	1225	1197	1191	1195	1201	1207	1205	1210	1228	1232	1234	1226	1211	1193	1193	1181	1181	1187	1200	1216	1233	1239	1236	1215	1204	1201	1203	1197	1182	1182	1204	1242	1266	1270	1231	1210	1204	1202	1199	1202	1215	1220	1207	1194	1186	1180	1186	1184	1176	1158	1161	1175	1204	1204	1199	1192	1175	1153	1137	1139	1141	1152	1163	1181	1190	1195	1193	1184	1181	1189	1191	1195	1193	1202	1204	1214	1213	1211	1224	0	0	0	1223	1225	1217	1232	1239	1233	1197	1199	1203	1214	1230	1238	1237	1228	1239	1238	1234	1216	1187	1166	1169	1198	1249	1240	1219	1202	1186	1164	1158	1160	1188	1218	1226	1225	1214	1188	1181	1198	1207	1196	1177	1152	1142	1145	1175	1200	1212	1192	1187	1184	1159	1152	1167	1155	1128	1130	1135	1139	1141	1143	1148	1153	1146	1126	1125	1131	1137	1141	1144	1147	1152	1157	1155	1155	1143	1141	1139	1142	1154	1168	1159	1118	1105	1101	1104	1114	1126	1138	1135	1125	1112	1088	1096	1123	1146	1183	1173	1109	1104	1111	1149	1169	1185	1174	1156	1137	1160	1166	1165	1161	1154	1144	1143	1139	1141	1137	1152	1156	1139	1132	1131	1151	1167	1169	1164	1171	1165	1149	1134	1124	1113	1113	1117	1132	1130	1144	1155	1135	1144	1117	1106	1103	1133	1154	1172	1167	1160	1157	1141	1144	1149	1174	1187	1184	1174	1156	1142	1126	1116	1109	1111	1111	1109	1101	1070	1088	1107	1117	1116	1117	1119	1114	1117	1121	1128	1135	1109	1117	1110	1109	1104	1104	1111	1109	1104	1108	1100	1098	1102	1111	1110	1105	1101	1101	1110	1120	1116	1097	1078	1073	1084	1092	1094	1091	1084	1079	1066	1067	1077	1071	1077	1085	1089	1086	1089	1103	1115	1130	1113	1107	1103	1110	1122	1135	1117	1096	1097	1114	1126	1111	1078	1064	1067	1065	1060	1061	1065	1078	1085	1081	1082	1083	1088	1081	1076	1078	1090	1098	1103	1092	1081	1072	1065	1073	1107	1145	1135	1123	1112	1115	1123	1132	1128	1127	1131	1130	1131	1136	1133	1129	1119	1101	1100	1109	1127	1135	1137	1129	1133	1156	1145	1118	1111	1098	1098	1119	1132	1130	1123	1125	1123	1126	1136	1139	1136	1112	1113	1113	1124	1149	1154	1137	1069	1060	1059	1079	1093	1098	1097	1097	1094	1107	1098	1090	1086	1094	1090	1089	1082	1073	1062	1047	1038	1036	1048	1070	1120	1127	1102	1063	1052	1049	1053	1073	1077	1088	1086	1082	1077	1066	1062	1056	1062	1066	1073	1081	1079	1089	1079	1073	1067	1053	1051	1067	1083	1088	1098	1091	1089	1097	1101	1095	1085	1084	1093	1089	1089	1093	1101	1110	1110	1095	1079	1076	1088	1101	1111	1101	1079	1072	1065	1071	1079	1086	1083	1083	1080	1076	1076	1070	1062	1052	1079	1099	1110	1110	1114	1108	1094	1083	1091	1096	1114	1107	1084	1074	1071	1082	1085	1086	1108	1122	1121	1105	1094	1096	1097	1094	1087	1087	1087	1077	1051	1047	1054	1078	1090	1083	1068	1079	1096	1072	1060	1057	1066	1077	1087	1085	1080	1090	1098	1092	1076	1064	1054	1044	1039	1041	1045	1049	1062	1068	1095	1096	1101	1103	1111	1112	1115	1092	1071	1064	1066	1068	1089	1095	1097	1096	1091	1080	1066	1057	1061	1060	1064	1080	1080	1097	1099	1078	1042	1025	1035	1069	1074	1070	1042	1031	1044	1057	1069	1069	0	0	0	0	0	0	0	0	0
0	0	0	0	0	0	0	0	0	0	0	0	0	0	0	0	0	0	0	0	0	0	0	0	0	0	0	0	0	0	0	1193	1173	1161	1161	1152	1156	1159	1177	1187	1184	1182	1191	1191	1203	1211	1220	1228	1214	1211	1201	1203	1193	1198	1198	1205	1220	1210	1197	1195	1194	1189	1181	1174	1171	1181	1197	1211	1205	1196	1187	1187	1175	1175	1171	1179	1192	1200	1209	1210	1194	1175	1174	1167	1149	1145	1153	1176	1209	1227	1203	1189	1173	1169	1171	1175	1178	1193	1192	1178	1167	1158	1161	1169	1160	1152	1143	1142	1147	1162	1167	1181	1178	1160	1128	1113	1109	1116	1130	1154	1175	1189	1189	1175	1157	1155	1165	1170	1171	1173	1166	1164	1162	1163	1157	1170	1175	1182	1178	1173	1172	1187	1202	1215	1200	1158	1147	1156	1150	1158	1164	1154	1126	1161	1178	1187	1187	1160	1136	1127	1147	1202	1190	1181	1165	1142	1128	1125	1115	1121	1145	1171	1164	1126	1108	1109	1106	1147	1149	1134	1125	1115	1121	1145	1166	1159	1146	1116	1096	1104	1103	1096	1087	1078	1081	1100	1117	1122	1130	1133	1132	1095	1087	1090	1104	1112	1108	1115	1116	1109	1093	1091	1087	1091	1098	1101	1093	1102	1107	1108	1068	1058	1068	1069	1064	1081	1099	1108	1092	1062	1058	1068	1080	1087	1095	1084	1060	1057	1057	1068	1054	1056	1136	1108	1097	1095	1127	1128	1105	1080	1092	1111	1119	1117	1111	1107	1103	1086	1080	1100	1109	1105	1115	1105	1102	1106	1112	1111	1098	1084	1084	1094	1099	1100	1085	1058	1061	1072	1077	1062	1073	1104	1132	1145	1132	1126	1122	1117	1107	1085	1088	1104	1119	1104	1068	1059	1050	1053	1065	1073	1080	1071	1060	1051	1050	1060	1069	1069	1068	1068	1053	1050	1073	1082	1087	1073	1073	1086	1081	1066	1070	1071	1075	1075	1071	1067	1056	1052	1045	1054	1073	1077	1073	1086	1095	1085	1059	1036	1033	1049	1058	1065	1063	1056	1054	1050	1040	1037	1045	1051	1057	1063	1059	1051	1049	1062	1060	1049	1046	1040	1027	1010	1006	1025	1068	1073	1087	1088	1061	1055	1047	1045	1034	1027	1024	1036	1049	1059	1060	1055	1058	1055	1049	1043	1050	1064	1077	1076	1064	1049	1035	1033	1040	1058	1081	1067	1058	1056	1061	1068	1073	1080	1099	1088	1083	1078	1079	1096	1100	1073	1064	1069	1065	1074	1080	1085	1091	1103	1119	1117	1107	1091	1088	1061	1040	1029	1027	1036	1039	1037	1025	1037	1089	1086	1078	1081	1077	1073	1081	1050	1046	1028	1018	1023	1031	1033	1038	1039	1030	1032	1030	1042	1051	1045	1056	1063	1057	1049	1043	1035	1023	1009	1005	1017	1034	1050	1041	1029	1019	1012	1020	1036	1042	1041	1038	1044	1042	1043	1042	1032	1035	1042	1044	1042	1045	1054	1057	1040	1029	1022	1014	1017	1030	1046	1054	1067	1055	1042	1043	1060	1068	1060	1058	1061	1064	1063	1060	1059	1051	1052	1056	1050	1048	1050	1060	1072	1060	1050	1036	1034	1041	1042	1049	1053	1053	1051	1048	1041	1033	1022	1012	1044	1067	1075	1069	1070	1069	1064	1061	1064	1074	1072	1072	1062	1053	1053	1055	1049	1050	1067	1084	1085	1076	1066	1066	1073	1068	1060	1059	1066	1045	1022	1011	1008	1014	1016	1022	1049	1053	1050	1026	1019	1022	1035	1041	1046	1046	1029	1031	1041	1046	1046	1039	1031	1026	1018	1015	1019	1035	1017	1014	1000	993	971	973	982	998	1009	1013	1011	1005	997	995	996	1003	1011	1048	1050	1043	1033	1028	1034	1031	1022	1036	1036	1056	1058	1035	1013	1007	1013	1029	1035	1031	1020	1019	1026	1038	1041	1040	0	0	0	0	0	0	0	0	0
0	0	0	0	0	0	0	0	0	0	0	0	0	0	0	0	0	0	0	0	0	0	0	0	0	1165	1165	1138	1109	1104	1131	1150	1157	1150	1150	1139	1131	1133	1143	1155	1150	1143	1137	1137	1144	1164	1179	1187	1188	1189	1179	1161	1152	1163	1163	1171	1177	1174	1176	1184	1178	1172	1151	1132	1133	1149	1169	1189	1186	1178	1166	1166	1165	1160	1155	1154	1164	1167	1165	1158	1150	1141	1139	1129	1124	1133	1149	1161	1159	1159	1162	1160	1150	1144	1143	1146	1148	1148	1143	1135	1114	1112	1126	1138	1140	1131	1122	1122	1126	1130	1132	1148	1146	1139	1118	1105	1098	1099	1104	1117	1139	1163	1171	1145	1131	1126	1118	1117	1114	1114	1092	1088	1086	1089	1094	1113	1117	1117	1106	1103	1117	1142	1175	1180	1138	1103	1092	1093	1083	1089	1092	1096	1085	1077	1107	1123	1113	1102	1087	1080	1063	1078	1073	1073	1091	1082	1069	1070	1076	1061	1058	1077	1079	1073	1067	1053	1043	1077	1079	1061	1054	1069	1078	1076	1058	1048	1038	1036	1046	1061	1068	1063	1034	1019	1012	1007	1015	1030	1024	1030	1024	1023	1033	1051	1080	1084	1075	1035	1036	1028	1010	1003	1005	1017	1036	1032	1028	1045	1049	1027	1021	1022	1024	1025	1012	1023	1047	1051	1040	1007	1008	1024	1044	1046	1051	1040	1025	1000	995	1004	1008	991	991	997	1066	1071	1065	1052	1030	1041	1057	1083	1095	1098	1084	1073	1051	1041	1046	1054	1064	1073	1076	1073	1059	1064	1069	1072	1071	1067	1059	1055	1063	1063	1050	1043	1036	1031	1025	1017	1026	1041	1055	1068	1059	1059	1057	1049	1037	1040	1038	1055	1053	1041	1040	1042	1029	1016	1015	1029	1041	1047	1038	1033	1034	1041	1051	1053	1051	1030	1022	1021	1022	1027	1032	1024	1011	1008	1028	1025	1017	1013	1014	1024	1029	1022	1007	991	995	1021	1037	1037	1043	1052	1053	1014	1003	1004	1017	1026	1024	1015	1016	1029	1031	1024	1016	1013	1028	1036	1035	1038	1030	1019	1005	991	999	1002	1008	1010	998	989	979	972	987	994	997	1007	1016	1029	1034	1019	1000	989	996	1009	1017	1017	1009	1012	1024	1021	1016	994	999	1019	1030	1039	1030	1017	1004	1001	1015	1023	1023	1018	1021	1027	1028	1017	1010	1012	1030	1040	1043	1040	1041	1040	1036	1028	1025	1034	1034	1030	1034	1040	1044	1040	1057	1072	1074	1074	1043	1011	1012	1016	1017	1015	1014	1003	998	1004	1034	1048	1050	1048	1040	991	995	1002	1001	990	984	989	996	993	994	1004	1006	1002	1000	1004	1001	1012	1028	1021	1020	1019	1014	1002	996	996	993	995	1005	1016	1008	1001	996	994	999	1011	1005	998	994	995	1000	1006	1009	1012	1019	1030	1032	1022	1014	1021	1019	1008	992	993	995	996	1006	1013	1018	1022	1026	1025	1022	1022	1019	1003	1002	1006	1003	1017	1014	1012	1012	1016	1021	1021	1026	1024	1026	1019	1010	1008	1008	1007	1010	1011	1016	1020	1023	1024	1023	1021	1013	989	996	1017	1042	1041	1029	1014	1008	1003	1007	1028	1038	1045	1052	1039	1034	1035	1037	1026	1021	1028	1035	1034	1014	993	997	1024	1029	1017	1008	1013	994	983	978	976	978	986	1000	1032	1023	1015	991	972	977	981	987	981	982	993	1011	1028	1027	1013	994	978	972	967	964	980	987	992	983	963	950	943	949	960	974	990	999	998	982	976	976	982	990	990	984	984	987	989	976	976	977	983	992	992	999	992	986	993	996	992	983	982	1004	1002	1001	1008	1017	1021	1020	0	0	0	0	0	0	0	0	0
0	0	0	0	0	0	0	0	0	0	0	0	0	0	0	0	1112	1101	1090	1090	1098	1106	1102	1096	1101	1089	1089	1086	1062	1051	1072	1102	1128	1131	1131	1120	1104	1096	1102	1112	1104	1095	1099	1099	1111	1115	1137	1137	1145	1149	1149	1132	1129	1138	1138	1145	1141	1137	1137	1150	1146	1147	1106	1101	1098	1108	1133	1160	1157	1151	1147	1147	1137	1134	1081	1054	1054	1064	1087	1094	1087	1086	1094	1095	1084	1083	1085	1075	1084	1094	1095	1083	1073	1060	1033	1035	1081	1076	1071	1064	1052	1045	1023	1027	1039	1053	1052	1052	1055	1106	1100	1091	1081	1093	1106	1108	1098	1076	1049	1047	1079	1081	1090	1069	1054	1058	1064	1069	1069	1058	1050	1040	1037	1041	1053	1070	1071	1045	1044	1052	1064	1072	1081	1083	1062	1030	1028	1043	1048	1045	1056	1052	1041	1022	1009	1025	1027	1009	1011	1016	1020	1028	1023	1014	1003	992	989	994	1021	1021	1013	1014	1044	1046	1029	1004	1001	1023	1026	1026	1020	1013	996	982	991	997	997	1001	1002	1004	998	999	980	973	966	961	964	974	984	994	996	1001	1008	1020	1029	1023	1011	1003	1000	989	976	974	976	986	996	1005	999	988	967	963	968	976	980	976	968	968	974	981	983	983	982	978	984	996	992	985	966	952	953	970	968	968	963	951	953	962	1011	1006	1003	1013	1018	1025	1032	1033	1020	1003	993	999	1001	1003	1008	1039	1037	1002	999	1012	1036	1031	1029	1013	997	999	1004	1035	1037	1027	1012	999	976	986	999	1010	1024	1026	1029	1026	1023	1018	1003	1004	1005	1007	1009	998	1000	1005	998	987	985	992	1003	1015	1016	1011	1007	1014	1034	1041	1027	1009	1001	998	997	1000	998	982	969	966	970	982	986	978	970	986	999	995	977	963	961	960	964	975	986	1003	1005	975	975	982	995	1005	1000	989	987	996	1001	1002	988	970	961	985	1006	1008	998	991	975	975	973	973	968	979	980	976	965	963	961	971	979	989	994	992	983	979	972	973	978	994	988	982	974	960	962	968	965	960	961	972	974	985	975	959	957	965	975	987	990	995	1000	1002	998	983	985	971	964	968	979	994	998	993	980	977	980	986	986	981	1002	1013	995	980	963	968	968	977	987	990	994	995	1005	1009	1006	994	986	987	993	987	962	952	954	961	970	972	970	955	955	962	970	972	966	968	969	971	969	967	978	979	990	979	974	973	972	964	954	959	975	979	984	984	978	966	964	964	980	989	977	970	969	971	972	982	991	993	998	1003	1010	997	979	968	967	976	967	973	975	974	977	980	983	996	1000	998	995	986	978	965	970	966	968	972	978	977	982	988	993	1002	1004	1003	1002	979	982	985	985	983	986	993	1003	1006	1001	999	992	990	983	976	986	999	1016	1014	999	986	975	968	976	991	1005	1014	1014	1012	1006	1009	1001	995	996	1003	1006	993	972	955	957	966	969	935	925	917	922	933	943	947	948	956	966	981	982	968	961	956	957	957	957	956	943	953	966	982	983	968	945	929	931	933	938	948	956	964	954	940	926	921	929	941	957	974	990	984	967	962	964	971	973	964	955	945	947	951	957	964	963	963	955	955	955	950	954	972	984	967	941	939	935	944	952	963	974	990	992	0	0	0	0	0	0	0	0	0
0	0	0	0	0	0	0	0	0	0	0	0	0	0	0	1095	1078	1067	1067	1067	1067	1073	1074	1064	1071	1078	1078	1075	1049	1035	1038	1058	1088	1096	1096	1096	1081	1066	1058	1056	1058	1056	1060	1060	1068	1081	1085	1087	1086	1104	1108	1098	1102	1106	1106	1115	1103	1095	1096	1103	1115	1093	1076	1028	1029	1034	1032	1022	1036	1034	1019	1019	1021	1031	1036	1035	1034	1033	1037	1046	1050	1043	1043	1063	1060	1050	1038	1032	1025	1028	1018	1015	1016	995	965	972	995	1020	1013	987	984	977	965	958	967	1008	1022	1017	1010	999	986	978	977	966	963	960	954	959	958	960	961	963	975	1016	1015	1029	1032	1034	1015	1023	1023	1017	1011	999	1001	1005	1001	997	1001	1006	1007	998	981	974	979	981	972	966	975	969	975	987	986	980	978	970	960	957	962	971	975	984	977	966	961	958	961	976	984	983	970	965	961	981	978	977	975	979	980	977	977	967	946	956	955	962	967	962	962	962	967	972	946	939	939	933	933	940	950	960	961	968	977	991	993	990	986	988	986	976	963	952	946	957	965	977	974	943	935	938	945	954	953	947	946	947	955	962	966	965	964	959	954	951	943	932	920	916	930	947	946	940	929	920	927	927	926	935	980	983	977	978	977	986	975	962	962	975	976	982	983	983	962	960	968	980	993	1009	1000	993	980	979	974	976	973	963	957	953	955	951	974	987	999	1001	1002	988	983	978	982	975	973	972	962	963	950	951	950	955	969	984	993	994	994	984	972	947	948	958	965	967	965	967	973	969	963	960	944	939	945	957	956	945	936	937	960	964	946	922	919	926	941	954	955	955	945	932	929	940	949	956	970	963	964	953	958	961	955	925	919	938	950	951	955	956	949	950	941	927	924	947	953	950	944	943	944	946	962	964	963	956	954	945	938	943	951	963	952	947	936	927	927	939	945	941	938	944	944	943	936	935	932	936	941	952	961	968	973	967	969	967	964	954	950	949	959	972	976	962	945	933	925	918	920	924	935	956	961	932	929	937	941	949	947	942	936	933	931	942	957	966	965	958	923	935	935	921	907	902	911	925	935	934	940	938	938	931	919	919	928	932	931	918	913	917	921	935	935	938	932	922	929	935	941	949	954	950	934	924	901	901	922	953	959	952	950	947	941	946	958	971	975	970	958	953	941	937	934	932	949	958	958	960	955	958	964	962	962	965	954	940	940	940	937	948	956	960	956	959	965	960	963	964	965	960	959	945	942	952	952	954	959	971	977	972	960	959	964	966	958	949	962	972	959	948	942	953	953	956	964	967	973	980	978	972	967	966	961	955	920	919	932	935	933	917	914	922	924	913	904	897	902	916	926	917	910	907	918	931	920	924	934	930	928	931	923	925	923	930	943	954	957	941	917	904	900	905	910	919	929	936	932	922	905	903	908	919	940	957	945	941	940	939	946	951	942	928	915	910	919	936	945	946	943	935	920	920	920	925	935	933	935	919	903	914	926	934	940	940	939	937	932	0	0	0	0	0	0	0	0	0
0	0	0	0	0	0	0	0	0	0	0	0	0	0	1040	1037	1036	1032	1030	1030	1027	1026	1026	1025	1045	1065	1065	1057	1043	1018	1010	1019	1046	1061	1061	1069	1055	1036	1027	1025	1029	1026	1028	1028	1038	1039	1029	1039	1050	1060	1059	1061	1068	1068	1068	1059	1015	1006	999	998	1001	992	980	969	960	955	954	956	964	964	960	960	964	976	995	998	1011	1014	1006	1011	1012	1001	1003	1014	1034	1020	987	961	961	973	979	977	966	952	946	942	934	933	934	944	950	948	934	919	917	951	977	977	966	958	938	934	935	939	938	933	923	920	924	925	933	936	939	946	939	927	915	911	915	919	933	941	929	964	965	970	980	974	975	969	961	957	944	946	950	953	940	930	928	923	928	932	941	947	956	950	933	940	942	943	942	939	934	932	926	932	939	955	953	948	940	934	932	933	927	926	934	948	944	931	918	914	922	926	939	934	936	925	922	931	946	950	922	911	911	910	909	915	921	920	917	925	936	942	954	955	957	956	973	961	947	927	898	892	899	908	913	920	926	928	934	940	939	938	934	933	934	940	949	952	944	943	941	934	931	913	907	910	914	913	910	908	897	885	886	886	889	901	918	923	949	951	943	938	938	931	928	930	951	959	958	958	952	943	939	938	932	945	955	966	962	947	945	937	931	923	925	933	940	937	920	936	941	949	956	951	955	954	950	943	940	939	936	936	939	938	934	935	953	968	976	978	966	954	936	922	911	916	921	919	931	936	943	944	946	934	922	920	924	934	934	926	920	918	913	912	893	883	882	891	903	920	919	913	913	916	920	917	917	915	918	924	918	918	912	907	897	894	897	906	915	916	923	935	937	932	921	909	911	920	922	921	917	922	925	918	913	925	924	920	908	905	903	906	912	927	926	924	913	904	903	900	904	905	904	898	895	909	913	912	911	917	923	931	936	944	946	937	932	931	925	941	936	934	938	951	948	939	922	901	886	880	887	902	920	925	922	914	900	918	923	930	929	919	908	896	894	900	905	900	895	895	900	905	909	892	876	878	885	893	900	906	906	900	898	894	895	887	883	881	879	877	879	887	891	894	897	900	906	901	906	915	914	912	916	911	897	891	882	881	889	910	943	943	934	925	923	922	923	920	917	911	910	905	904	907	909	921	930	933	934	934	938	943	944	938	931	923	909	896	896	908	912	925	937	935	926	921	920	919	917	922	916	918	934	920	913	907	918	928	941	947	946	931	929	928	938	943	933	921	925	923	915	906	907	918	925	937	939	939	893	888	895	890	888	894	898	900	894	886	887	880	882	882	896	897	900	894	884	885	882	876	878	880	885	894	904	905	890	886	889	899	895	891	895	905	911	914	920	927	927	906	897	888	889	894	903	910	914	912	901	889	885	881	885	898	901	909	917	918	918	915	927	927	914	898	889	888	889	905	911	904	892	884	882	882	877	873	889	897	890	882	882	891	903	917	916	907	895	888	885	0	0	0	0	0	0	0	0	0
977	975	975	989	1004	1016	1003	1003	999	994	987	974	971	971	983	1000	1003	993	989	989	980	975	965	980	1009	1038	1038	1032	989	973	951	975	986	1004	1004	1013	1013	1000	986	985	985	984	990	990	996	990	1000	1014	1021	998	992	953	986	998	998	991	968	976	978	983	982	971	947	937	927	923	929	930	931	936	928	928	938	945	955	955	976	969	972	957	940	937	940	949	958	942	927	922	928	939	953	946	931	921	919	914	912	897	906	910	919	917	907	895	894	905	909	904	904	907	910	912	920	928	925	916	902	897	893	889	885	881	891	912	923	915	906	903	903	894	887	894	897	905	914	914	908	896	877	867	870	909	912	918	922	916	906	895	894	893	898	901	904	909	901	903	909	923	925	917	910	909	910	899	898	907	910	917	927	918	914	910	912	915	913	911	913	928	923	908	892	888	894	904	911	909	896	892	890	893	911	924	906	895	893	892	892	893	889	893	891	896	898	898	903	912	923	927	915	915	913	905	892	885	886	881	892	904	911	919	920	920	923	922	918	904	909	916	924	926	917	918	921	926	911	897	892	895	898	894	887	880	873	867	861	862	868	884	888	881	871	862	907	906	906	907	899	892	893	908	912	922	914	904	891	888	899	919	926	929	906	899	910	920	914	908	907	917	929	925	893	881	881	894	900	908	917	925	918	905	906	913	920	929	932	927	917	917	929	937	940	938	934	923	909	899	890	890	893	891	898	904	918	925	921	914	902	892	901	912	922	914	904	900	896	889	876	868	861	856	853	865	879	877	883	895	903	902	900	898	894	898	893	898	896	891	888	882	874	878	886	889	885	883	887	893	898	901	901	900	900	889	872	873	883	887	887	886	881	880	884	889	891	895	897	900	902	899	885	875	868	876	882	885	886	887	888	895	900	899	884	878	887	891	893	898	898	900	885	867	866	895	897	894	895	905	906	881	867	849	837	845	863	888	906	911	903	883	881	887	900	903	901	893	875	871	877	881	860	861	869	871	873	872	867	860	857	859	868	870	872	868	864	869	880	878	875	866	857	849	843	839	843	852	871	878	880	882	888	882	889	896	897	892	880	870	872	871	870	868	872	904	916	917	923	911	907	900	892	897	894	890	884	878	874	877	900	911	922	915	901	895	897	906	917	912	907	902	886	873	863	872	876	879	886	895	898	897	899	897	882	873	874	876	901	902	887	888	898	907	917	928	920	913	906	900	894	882	880	890	895	896	893	891	871	874	880	882	874	868	861	864	865	871	874	871	874	877	868	862	851	851	857	857	857	854	855	863	871	873	868	863	861	864	874	885	893	880	869	866	866	860	854	848	856	867	883	896	894	892	881	873	874	874	878	881	891	895	894	889	882	873	871	871	876	866	874	887	897	902	900	899	901	898	885	876	868	866	864	859	869	870	868	871	872	872	867	864	860	874	872	872	866	865	870	874	870	875	881	878	875	0	0	0	0	0	0	0	0	0
945	953	953	947	928	921	933	933	951	953	951	940	946	946	960	971	958	948	941	941	923	918	916	929	945	955	955	959	931	925	920	921	926	945	945	953	953	930	923	913	909	906	908	908	917	939	958	887	886	894	904	910	915	905	905	909	913	932	950	959	951	921	909	891	889	894	902	906	898	895	904	904	914	919	929	933	940	932	926	909	898	898	900	905	905	898	891	888	895	905	915	896	879	876	901	894	883	873	869	863	863	866	876	878	882	878	869	871	866	867	876	888	906	910	905	891	884	875	872	866	862	863	868	882	905	889	885	877	875	864	856	851	854	861	877	887	889	871	854	846	852	866	874	873	861	849	854	870	871	876	876	880	886	887	880	876	876	881	884	886	881	886	893	887	885	880	866	865	882	884	884	883	892	897	898	895	897	908	897	881	878	876	875	886	887	876	876	882	882	886	894	902	894	886	882	879	878	880	879	880	877	876	878	875	870	862	868	874	890	890	894	896	893	881	867	866	873	882	887	889	884	888	891	893	887	892	892	901	906	902	895	891	890	880	883	875	871	867	869	865	864	861	859	857	857	860	864	867	869	859	851	844	846	850	870	871	871	870	869	874	878	880	878	873	875	874	879	889	899	890	882	883	887	883	883	885	882	894	904	912	876	859	863	873	879	876	862	862	868	873	877	889	885	893	914	915	902	896	896	884	879	879	891	896	888	875	872	870	871	874	875	881	889	896	900	892	875	870	879	890	892	889	881	882	880	874	865	846	831	822	824	830	838	851	861	873	888	893	889	882	878	876	868	875	878	880	878	869	857	853	852	856	855	853	859	869	875	879	880	870	863	857	854	849	852	857	860	853	853	860	869	872	874	875	877	880	877	871	864	859	846	841	854	865	879	884	883	883	877	870	860	847	843	861	864	858	854	855	855	853	852	860	869	871	865	860	874	864	857	844	836	836	847	850	858	874	871	863	859	857	857	855	856	851	845	843	827	832	834	834	833	836	836	846	843	838	842	853	852	856	853	843	840	843	854	854	850	842	829	826	821	817	808	809	836	848	856	864	871	871	874	863	859	860	857	846	839	840	844	851	857	857	861	865	873	878	875	872	866	868	869	864	861	854	855	858	881	887	881	877	874	865	859	867	879	889	888	882	867	857	850	849	854	860	863	868	880	884	877	869	861	851	849	847	878	881	875	870	872	881	882	886	889	890	888	878	859	854	832	853	858	863	861	855	850	852	853	854	840	832	827	837	841	849	857	854	856	857	850	841	831	830	829	831	832	837	844	854	859	859	857	849	849	856	869	878	882	847	847	849	852	853	851	845	852	860	864	859	852	843	840	842	849	852	856	862	864	859	848	840	849	860	861	863	860	852	853	861	869	883	883	882	885	882	870	856	849	844	842	840	841	851	861	865	862	862	858	851	848	848	857	856	855	853	858	859	860	862	866	865	860	0	0	0	0	0	0	0	0	0
891	899	899	893	891	893	904	904	905	920	914	908	913	913	927	927	906	897	889	889	883	878	886	889	881	885	885	888	888	887	889	890	898	902	902	905	904	889	875	878	866	856	838	823	840	852	863	870	874	877	863	853	853	838	837	837	836	882	901	903	879	862	855	861	869	878	880	861	841	832	833	833	850	862	874	857	855	859	865	863	868	875	885	886	879	874	868	860	854	851	846	845	846	848	845	859	862	848	835	832	840	851	862	874	871	864	851	843	836	839	847	849	858	871	869	856	846	847	848	849	856	856	857	862	872	862	848	847	846	842	833	823	824	825	832	837	829	818	821	828	833	837	840	833	826	821	826	836	835	841	842	846	854	872	872	867	858	854	858	863	862	865	863	874	872	862	855	852	850	855	863	873	874	881	881	882	883	876	868	862	866	862	865	867	865	861	864	870	876	878	872	873	872	871	866	864	863	859	858	860	863	866	866	860	854	854	853	857	869	871	873	876	883	871	859	852	852	856	853	854	865	873	882	878	869	852	849	876	878	877	875	875	869	861	858	854	850	840	834	839	837	844	847	850	853	856	841	841	849	843	829	828	829	834	840	844	856	854	851	858	862	860	862	857	854	861	864	866	866	858	856	860	864	864	864	858	854	854	858	862	852	848	851	854	853	848	837	833	824	815	824	836	848	854	862	864	858	853	852	846	844	844	846	851	856	855	853	850	855	865	865	866	870	860	851	830	822	827	825	834	838	843	840	838	839	843	842	829	824	823	826	826	830	828	832	852	869	876	871	856	847	825	820	825	850	859	862	854	846	839	833	827	837	837	841	851	855	857	856	848	842	839	836	839	840	839	838	833	832	840	848	855	859	856	854	854	851	846	849	844	830	823	822	836	851	854	865	860	856	848	837	825	821	835	846	845	843	843	845	839	840	844	849	849	849	840	843	842	841	833	830	826	823	828	819	810	809	811	832	834	828	817	815	812	800	803	803	802	806	808	812	813	811	815	813	807	808	810	810	808	808	814	814	803	805	817	820	819	809	798	795	787	782	784	808	801	804	816	822	821	819	824	827	841	844	843	832	828	824	818	827	837	843	842	841	833	825	826	829	837	843	834	828	827	827	828	842	846	849	838	842	840	835	843	848	857	857	858	851	845	835	835	843	844	844	842	846	853	856	839	835	830	820	818	819	823	835	846	852	858	858	861	871	852	848	838	825	807	800	810	824	833	843	832	823	817	820	825	813	813	813	812	803	811	817	830	835	835	837	826	810	808	809	812	821	822	823	839	849	850	848	843	843	849	851	842	843	838	839	838	842	842	838	843	851	850	848	840	831	813	817	822	818	818	826	827	834	832	828	824	824	837	848	854	836	831	831	838	840	847	860	866	860	858	853	848	841	836	832	829	830	841	848	853	844	844	838	832	829	829	829	831	832	835	843	849	848	851	848	850	844	0	0	0	0	0	0	0	0	0
852	853	853	846	843	858	868	868	864	843	842	854	850	850	849	840	838	841	861	861	864	863	858	853	856	864	864	862	856	851	850	863	878	887	887	889	886	872	854	846	810	804	810	810	820	829	834	844	841	819	812	809	816	824	827	827	829	827	821	813	809	816	828	834	838	841	840	815	818	820	819	819	820	828	824	820	821	823	829	832	841	852	855	843	846	852	839	827	820	816	812	816	824	828	825	829	823	817	811	815	820	831	841	846	858	846	820	804	798	810	816	815	819	820	817	815	812	818	822	824	834	841	838	833	825	828	832	829	827	825	813	802	802	811	813	814	804	803	810	812	811	808	803	808	803	804	819	826	829	828	830	830	831	822	805	797	795	806	834	839	844	845	845	851	850	849	840	839	837	844	851	859	861	865	863	862	855	850	841	848	847	844	845	848	843	846	853	862	870	866	857	850	843	843	844	840	837	830	831	837	843	849	852	852	846	844	837	838	842	833	832	827	833	838	841	833	828	818	815	830	844	856	862	856	838	828	821	824	849	852	853	851	845	838	829	823	827	821	818	819	824	823	824	821	821	822	816	823	825	823	816	816	818	822	825	824	824	818	838	836	842	839	839	838	835	817	807	810	825	826	828	829	837	847	848	833	823	828	831	829	828	839	843	831	820	819	814	804	788	789	800	820	825	829	833	835	835	838	831	829	827	829	830	824	820	806	795	794	816	817	812	806	798	797	798	796	794	798	806	810	812	826	824	817	814	816	809	811	818	819	821	820	799	792	794	800	807	817	820	819	817	807	807	808	817	821	830	828	815	814	810	803	805	809	819	833	838	828	826	829	827	826	828	828	826	828	824	821	811	805	805	828	833	826	819	817	815	809	809	818	808	802	801	805	802	810	823	822	826	829	822	814	811	812	817	823	827	827	832	823	816	818	829	830	831	826	817	805	796	797	801	808	807	803	793	786	790	791	798	805	808	802	784	785	787	786	778	778	785	803	805	806	804	798	797	791	790	792	787	788	787	787	789	782	788	797	806	801	794	786	780	776	773	776	785	788	787	789	778	789	796	804	811	816	827	823	802	792	785	778	776	806	824	828	825	820	809	803	802	812	821	817	813	809	808	801	811	815	814	804	799	798	805	798	805	811	811	809	805	801	803	809	813	809	804	802	803	818	822	824	823	821	811	806	801	808	815	825	812	817	816	821	823	820	812	803	797	785	784	796	802	810	808	794	792	791	792	792	799	797	797	796	789	795	799	809	811	808	811	801	799	798	802	813	814	820	819	819	825	833	827	817	808	801	797	803	821	820	821	812	805	803	805	813	828	834	833	823	808	799	789	795	800	796	793	797	805	811	813	815	820	832	841	836	823	812	815	820	824	824	819	824	827	830	831	833	832	826	823	822	827	834	835	832	832	826	819	817	816	816	820	817	818	822	827	829	831	826	825	827	824	0	0	0	0	0	0	0	0	0
831	820	820	798	791	800	803	803	795	796	803	813	817	817	813	807	810	803	823	826	826	827	824	824	835	846	846	846	843	841	835	841	849	867	867	878	874	860	791	784	793	793	795	795	802	803	805	803	796	794	799	799	804	813	823	823	823	814	806	796	791	797	806	808	801	802	797	795	796	804	806	806	806	806	806	810	814	817	813	813	810	818	817	815	820	821	815	806	805	798	799	800	805	808	808	805	804	799	797	800	808	816	816	809	805	800	791	786	781	784	784	790	792	796	797	798	798	794	796	797	806	813	815	810	807	808	811	807	805	807	799	789	782	786	793	788	786	794	798	801	799	796	793	793	794	797	815	813	815	808	806	793	784	783	780	781	777	775	771	772	780	796	807	836	839	836	830	830	833	836	834	833	834	846	837	827	819	816	817	817	814	821	818	818	824	823	833	843	851	850	835	829	822	820	809	803	807	810	813	818	822	821	818	807	808	805	804	805	815	813	809	810	810	801	797	789	777	780	792	808	819	821	809	806	810	811	812	808	808	817	824	826	818	814	806	802	800	803	799	803	806	802	800	802	808	806	803	803	808	804	803	808	810	804	787	779	775	774	784	792	810	808	805	796	798	792	790	782	788	791	800	812	821	825	812	810	810	810	804	797	807	817	820	817	804	795	788	779	772	775	783	797	807	808	799	800	799	798	798	803	802	806	812	808	794	783	771	773	784	789	786	778	773	775	775	775	782	785	796	786	779	777	792	797	793	789	777	785	785	789	782	772	773	776	778	781	781	786	781	781	779	779	775	774	780	778	778	775	772	783	791	788	780	778	783	785	795	794	789	790	787	798	803	794	796	796	790	782	773	768	770	779	786	797	793	780	776	778	771	772	769	769	768	774	782	781	775	775	787	799	807	802	796	794	787	781	796	794	789	786	791	794	795	816	817	807	787	774	772	768	772	780	787	781	770	763	763	769	772	785	766	766	767	779	782	776	765	764	766	770	772	773	777	788	787	781	777	774	771	771	768	774	763	764	769	782	790	788	778	771	771	767	767	769	772	773	771	766	767	770	775	791	797	800	799	777	776	775	773	768	761	754	782	811	817	808	795	779	776	804	816	817	809	801	794	792	793	797	792	784	785	783	775	774	780	786	791	789	788	788	794	794	794	789	785	782	785	790	803	808	810	811	805	796	785	785	787	789	792	794	793	796	802	795	789	791	787	781	776	772	786	785	786	783	783	779	780	780	783	785	785	780	784	785	786	789	783	788	781	790	793	790	800	803	804	807	803	804	802	807	800	792	788	786	785	784	795	800	799	794	793	788	784	783	785	791	789	800	795	790	776	772	769	771	780	782	784	790	799	806	815	819	818	814	806	801	801	805	808	804	799	798	802	804	804	809	815	812	810	813	818	821	813	809	809	809	809	803	803	805	806	807	804	804	811	813	813	813	812	811	811	0	0	0	0	0	0	0	0	0
