318	314	310	311	311	311	311	312	312	312	312	312	308	309	312	312	312	314	316	304	306	306	314	318	317	320	324	324	320	318	317	317	319	319	319	316	313	313	313	315	316	317	317	314	311	313	312	310	309	308	308	308	310	312	315	314	312	313	315	316	316	316	314	310	310	311	308	309	313	312	310	311	311	302	303	303	302	303	304	305	310	311	317	317	317	316	314	313	312	310	311	313	313	312	305	305	307	309	307	306	312	315	307	307	302	303	301	305	304	304	305	306	305	303	304	311	312	310	308	302	303	306	309	305	309	310	305	303	305	306	307	307	307	308	307	309	309	308	306	304	310	310	308	308	306	305	305	305	306	305	305	303	299	301	302	303	309	311	310	305	303	302	303	302	307	308	308	310	307	305	303	304	305	306	307	306	305	305	307	308	307	306	305	306	303	304	306	308	309	308	307	307	307	307	308	300	300	300	301	304	305	303	299	298	299	304	305	305	304	302	302	303	304	306	303	303	306	306	302	300	301	303	302	300	300	301	304	307	307	307	301	300	301	302	302	302	305	311	311	310	309	307	307	307	306	306	306	304	303	305	305	306	305	301	300	300	303	306	307	304	304	303	304	303	302	302	300	298	297	297	298	303	304	302	300	302	302	305	299	300	301	301	300	299	299	300	301	300	300	299	299	299	302	307	307	306	302	301	301	301	301	312	306	305	302	304	303	305	303	303	304	301	302	299	299	299	299	298	300	301	301	301	301	303	307	305	303	303	306	305	304	299	295	299	305	304	304	303	301	302	301	300	298	298	309	309	304	300	297	294	298	299	298	298	303	302	304	306	311	313	314	311	308	305	302	302	304	307	307	304	307	303	301	301	303	296	303	303	304	304	306	305	304	303	301	301	304	303	306	299	299	305	299	298	299	299	297	298	300	302	304	304	300	300	300	302	301	299	299	299	299	305	305	304	302	302	304	299	299	299	298	302	305	306	301	299	303	302	306	305	306	307	305	304	302	301	302	303	302	302	303	299	301	301	306	302	303	304	302	300	299	298	297	297	297	296	295	299	300	297	296	296	301	303	305	301	303	302	298	297	294	293	289	294	300	305	305	302	301	299	303	301	304	304	302	301	300	299	300	297	293	292	293	293	296	297	293	292	293	294	295	297	298	296	300	298	297	296	297	299	299	297	294	296	300	303	297	295	302	302	298	297	296	295	294	291	297	298	298	298	299	299	296	296	296	296	299	299	296	298	300	302	303	301	293	292	294	303	302	302	300	299	299	301	300	297	295	294	294	297	298	297	300	303	298	295	294	295	297	298	298	298	297	298	299	300	299	299	298	296	294	296	298	297	298	302	302	302	300	298	293	306	300	298	295	291	291	293	291	293	296	298	299	303	304	304	299	299	300	299	296	296	296	299	302	302	299	298	298	301	299	299	298	294	293	293	300	301	299	295	295	299	300	0	0	0	0	0	0	0
318	314	311	309	308	308	308	310	311	308	308	304	304	306	310	310	314	315	313	300	303	303	306	309	309	311	313	313	312	304	306	309	311	313	313	311	311	309	310	316	313	311	311	307	308	310	309	307	306	305	305	305	306	309	310	311	308	310	313	315	311	311	309	307	308	306	306	306	308	308	308	307	308	301	301	301	300	301	302	305	306	307	313	312	312	311	301	300	300	304	305	307	310	310	306	305	309	309	308	309	310	307	304	301	301	300	300	303	303	302	300	300	302	304	302	306	306	306	300	299	301	303	297	295	296	301	304	304	304	304	303	303	302	304	303	305	306	306	306	305	304	302	306	304	303	302	302	303	305	304	303	297	299	299	299	300	305	312	309	304	300	301	301	302	303	304	302	301	304	306	303	301	301	300	301	304	304	302	302	302	307	304	304	298	298	298	302	304	305	303	302	302	304	306	307	300	298	297	299	299	302	298	297	296	297	302	304	304	302	300	299	298	299	302	301	300	300	300	300	300	297	296	296	296	294	298	303	305	305	303	300	299	298	297	296	294	295	299	302	299	307	306	307	307	307	305	303	301	302	304	305	306	305	298	297	297	299	304	302	298	301	301	298	301	300	301	298	298	296	292	298	300	302	301	298	302	294	293	293	303	304	301	300	295	291	295	298	297	297	297	295	292	297	295	298	299	297	297	300	301	300	308	304	302	299	300	300	301	301	299	301	298	299	297	296	297	298	296	296	304	303	292	297	298	302	304	302	303	305	305	304	297	294	298	298	302	303	302	297	293	290	299	298	302	303	302	300	300	298	296	297	298	298	297	302	300	299	300	302	310	308	306	306	303	300	294	293	302	302	300	297	298	299	296	295	298	291	298	301	298	304	303	297	301	299	299	300	295	300	294	294	298	294	295	294	294	297	297	296	301	303	300	299	296	300	298	297	299	300	298	298	298	298	297	303	303	299	298	298	298	299	298	301	299	299	298	294	299	303	304	304	305	304	304	304	302	302	300	294	296	296	297	297	297	295	294	302	302	300	296	296	296	296	295	296	297	297	299	297	296	293	296	300	302	301	300	300	297	293	290	287	291	290	289	288	289	292	298	299	299	299	296	299	294	295	297	299	298	298	294	293	289	290	292	293	293	291	290	292	293	293	294	293	294	292	296	296	296	295	293	294	294	290	291	293	294	294	293	295	298	297	296	295	292	291	293	299	301	299	297	294	291	291	291	293	294	296	295	292	293	298	294	292	292	294	296	295	297	297	296	288	287	287	290	295	294	293	293	292	294	297	297	298	301	296	295	293	294	295	296	292	291	293	289	290	296	297	297	296	293	290	289	290	295	298	300	299	297	291	290	287	290	296	297	292	289	289	292	293	295	294	298	299	299	297	296	296	291	294	295	295	295	294	293	293	293	290	290	292	294	291	290	295	296	294	294	293	294	295	293	292	296	297	0	0	0	0	0	0	0
315	311	308	302	304	304	307	309	308	305	305	301	301	304	306	307	307	304	301	302	303	303	301	301	300	303	304	300	300	302	303	305	306	308	309	309	309	310	313	313	308	305	305	302	306	306	304	304	303	303	302	302	302	304	306	306	305	308	313	308	306	305	305	307	306	304	304	303	303	306	306	305	303	300	300	299	299	294	296	298	304	302	304	303	301	299	298	299	299	300	302	306	305	303	298	301	309	310	310	309	306	302	299	301	298	298	299	300	301	303	300	297	296	298	301	304	304	304	296	294	293	303	303	302	300	301	302	302	303	303	302	302	302	299	299	302	304	306	305	304	303	300	297	297	298	300	300	300	302	303	303	300	299	297	298	298	299	300	302	302	303	302	300	300	298	300	300	301	306	307	299	297	297	296	297	299	302	301	301	301	302	303	301	295	295	296	296	296	296	293	298	300	302	306	308	298	295	295	295	296	297	298	296	295	295	296	301	301	300	298	298	298	299	298	298	297	298	298	298	296	296	297	299	300	301	300	299	303	302	300	299	299	295	293	294	292	293	293	293	296	296	299	292	302	301	290	290	296	296	303	303	302	303	298	296	294	299	285	288	293	292	294	294	293	293	297	298	296	292	291	296	298	300	298	296	295	295	297	292	300	298	297	295	293	290	288	292	293	294	295	293	291	293	293	289	286	294	294	293	290	292	292	292	295	294	297	298	298	297	297	296	296	297	297	295	296	296	296	295	299	293	292	296	298	297	298	302	303	301	300	298	295	294	297	300	298	302	300	295	291	291	291	293	295	301	302	302	299	296	295	297	297	298	297	294	295	299	298	297	299	302	303	303	301	298	294	293	293	294	294	295	293	294	294	294	289	294	295	295	295	293	293	294	297	296	298	297	293	301	291	291	293	293	293	294	293	294	295	295	297	303	297	293	292	296	294	294	298	298	297	297	296	295	296	302	302	303	298	298	298	297	297	298	297	298	294	293	297	300	301	296	294	296	296	297	299	297	297	293	292	295	298	298	295	294	289	290	295	296	292	291	292	294	293	296	296	297	294	288	286	287	288	292	294	297	292	292	292	293	290	289	291	291	288	288	289	290	289	296	296	296	296	292	292	289	292	295	297	296	293	289	288	287	286	289	292	289	289	292	292	292	289	288	289	292	294	292	292	292	293	292	290	290	290	291	291	291	293	294	297	295	294	293	289	289	294	295	297	303	295	287	290	290	286	291	292	295	296	293	291	296	294	292	291	290	292	293	293	290	289	288	290	287	288	285	292	293	293	291	289	289	290	289	290	291	296	295	292	289	286	281	283	285	286	288	291	294	295	293	290	288	288	290	290	290	292	292	289	287	286	286	287	294	292	293	290	290	290	293	293	292	294	292	294	295	293	291	291	294	294	294	292	291	291	291	290	289	289	291	288	279	285	285	288	288	296	292	293	292	292	293	292	291	0	0	0	0	0	0	0
311	304	299	297	303	303	306	306	305	300	300	299	301	304	304	302	302	301	299	299	300	302	302	300	300	300	301	300	300	299	300	301	303	304	306	306	307	308	308	307	304	301	300	300	303	303	301	300	300	300	300	299	299	301	301	302	302	303	303	301	303	304	304	306	298	299	301	301	300	298	298	296	293	288	294	296	296	296	299	300	301	299	297	293	297	299	298	296	297	298	300	302	300	298	296	294	297	300	302	300	299	298	300	301	296	298	299	299	303	301	299	296	297	298	299	299	299	298	297	295	297	301	303	303	302	299	298	297	300	301	301	298	295	296	299	301	303	304	305	304	301	298	293	290	292	299	298	298	299	298	300	298	296	296	294	297	298	299	299	300	299	297	296	295	294	294	298	303	303	296	294	295	295	294	294	298	300	292	293	294	297	299	298	296	293	296	294	290	287	287	288	290	290	296	303	297	293	294	295	295	299	300	299	295	295	294	293	292	292	294	298	301	299	299	295	295	293	294	296	294	294	296	298	300	300	300	298	296	297	297	298	294	292	291	289	289	290	289	289	288	290	290	293	290	288	289	289	289	293	293	297	301	304	303	291	293	291	287	285	288	287	288	289	290	292	297	294	293	289	286	288	290	293	293	295	293	292	298	293	299	303	293	292	293	290	291	288	291	291	292	292	291	292	292	290	290	290	288	289	289	290	291	289	287	286	288	293	291	293	289	292	296	295	295	295	295	294	296	297	290	288	291	292	292	292	298	299	301	301	300	296	295	295	297	296	297	297	295	295	297	291	291	292	293	291	297	299	299	295	294	296	298	298	293	292	292	292	297	296	294	296	296	294	294	291	292	295	292	292	293	293	292	291	293	289	288	290	293	293	293	292	290	292	293	294	294	292	294	292	293	296	296	293	290	291	291	291	293	294	298	290	286	286	292	290	290	292	292	293	293	291	289	291	292	296	300	297	295	294	294	294	294	294	294	293	292	293	294	297	299	294	289	287	289	290	295	296	292	290	291	292	297	296	295	294	289	291	296	297	295	292	291	293	295	295	294	292	287	281	279	286	287	291	293	293	291	291	292	292	287	288	291	291	289	288	289	290	290	289	294	293	286	286	282	288	289	288	286	286	289	292	288	286	287	289	290	287	288	291	290	289	287	287	289	293	292	291	289	289	288	290	291	290	290	290	291	290	291	290	287	288	291	288	285	287	290	293	295	295	295	291	284	288	282	283	290	296	296	299	299	297	293	292	288	287	286	287	286	288	286	287	288	289	292	285	283	292	289	289	288	288	288	289	291	292	293	296	295	293	289	286	284	283	285	287	290	293	294	293	289	287	287	289	289	289	290	289	287	286	287	286	289	288	288	287	290	288	289	290	290	288	290	290	291	291	291	292	292	292	292	291	289	289	288	288	288	286	286	284	280	278	281	281	282	282	283	286	290	289	290	290	289	290	0	0	0	0	0	0	0
304	304	292	299	299	299	299	299	298	297	297	297	299	300	300	300	300	300	301	299	291	298	298	300	301	300	298	298	298	298	297	299	301	302	304	304	305	304	304	302	297	298	299	299	299	297	298	298	298	298	297	297	297	301	301	299	296	298	297	297	299	301	303	303	296	297	298	298	298	293	295	291	287	288	285	287	291	291	298	299	297	295	291	293	295	299	297	296	296	297	296	297	295	297	295	295	297	300	300	298	298	297	294	293	296	296	296	298	299	299	298	296	292	294	296	297	297	295	292	292	292	292	295	296	299	295	290	291	292	296	299	297	295	297	300	301	301	301	301	297	296	295	291	288	290	292	296	295	294	294	298	296	294	293	292	294	295	295	295	298	296	295	295	292	292	289	296	299	297	292	292	294	294	293	292	290	290	289	289	289	292	294	295	296	293	293	292	288	285	284	287	289	289	289	289	288	288	292	293	294	297	300	298	294	294	293	294	292	292	293	295	298	298	294	290	289	292	292	291	293	293	292	290	293	298	296	296	295	295	294	294	292	290	289	288	288	287	288	288	289	290	292	288	288	286	285	285	288	293	291	296	300	304	298	286	287	291	286	284	281	280	284	286	288	289	291	292	291	289	291	292	294	296	293	289	286	290	292	291	290	288	289	297	297	294	289	286	286	288	288	288	290	291	290	287	289	290	290	289	289	291	288	288	284	281	283	284	288	290	288	288	287	290	290	290	291	290	291	288	289	288	290	289	289	291	295	295	295	293	289	291	293	291	291	296	297	297	295	296	298	290	289	290	288	289	298	295	295	293	292	292	293	295	293	289	289	290	292	291	289	290	292	289	288	290	287	288	288	285	288	283	285	290	291	292	291	287	285	288	289	287	287	289	291	293	294	293	288	288	294	294	294	292	290	291	290	290	292	292	291	289	287	284	285	286	287	289	290	291	293	291	288	289	291	295	296	295	292	291	291	292	291	291	290	290	291	292	291	292	289	286	283	283	286	289	293	293	284	284	286	288	288	291	291	290	289	292	295	295	295	293	291	295	294	294	292	288	286	281	281	283	288	291	294	292	288	289	291	291	290	289	291	291	291	292	291	290	288	285	283	280	286	282	279	287	289	288	285	285	285	286	286	285	285	290	288	287	284	286	287	289	287	291	291	289	286	286	285	283	287	285	288	289	288	285	285	286	290	289	285	286	284	286	287	282	284	288	290	290	288	286	283	278	277	278	281	294	295	293	293	292	293	291	290	288	283	280	281	281	281	285	293	290	293	284	281	282	286	291	288	287	287	291	288	288	290	286	285	287	291	292	289	283	283	286	291	294	294	293	292	291	289	286	285	284	286	286	285	286	286	286	286	281	283	286	284	286	288	287	288	288	289	289	288	290	290	291	289	289	286	283	285	287	287	289	287	283	284	282	279	279	280	280	280	281	280	280	286	286	287	286	287	289	0	0	0	0	0	0	0
295	295	294	295	292	292	292	296	296	296	296	296	297	295	288	291	292	292	292	293	291	293	293	295	297	299	295	295	294	294	295	296	298	298	300	301	301	301	301	299	296	295	294	294	293	296	297	298	298	296	298	306	306	306	306	299	293	293	295	295	295	295	295	295	296	297	299	294	291	291	293	291	287	289	286	289	293	293	295	296	295	295	291	293	296	297	291	293	293	292	292	294	294	296	295	293	294	297	294	295	297	296	293	284	288	291	292	296	294	296	290	286	290	290	292	294	293	292	291	291	291	292	293	292	295	291	288	288	289	292	293	293	294	294	295	295	294	294	293	293	293	293	290	289	289	290	291	289	291	293	290	293	293	292	290	291	292	293	294	294	292	293	290	290	290	289	286	292	294	290	289	290	290	291	292	288	288	288	287	287	289	293	294	293	291	289	288	285	284	284	286	288	288	288	288	287	284	284	286	284	290	294	294	294	291	291	291	291	290	292	293	296	297	291	285	289	289	292	289	288	289	288	287	285	286	289	288	288	292	292	292	289	288	288	286	286	285	285	286	287	289	289	284	282	281	285	286	288	290	290	291	298	302	302	290	285	284	284	285	285	284	287	284	287	287	288	288	288	288	287	287	288	286	284	282	282	286	283	282	283	282	286	287	290	291	291	291	290	290	284	288	289	286	283	283	284	290	289	289	292	288	287	286	281	279	280	283	286	288	287	283	286	287	289	285	285	286	287	288	287	293	288	286	287	288	287	290	287	288	292	292	293	289	291	292	292	291	288	287	286	290	290	287	284	284	284	283	284	288	287	291	292	292	293	289	289	287	287	286	287	285	286	285	286	286	284	286	286	285	284	284	281	284	291	289	289	288	283	287	287	286	286	285	285	285	287	287	286	287	287	294	295	292	289	288	288	290	289	292	293	290	288	287	286	286	286	288	289	288	289	288	286	286	287	294	293	293	290	287	286	286	289	289	286	288	290	290	291	287	286	282	281	283	286	286	288	283	282	283	283	280	282	284	286	285	285	290	292	291	288	289	285	286	287	290	290	287	284	283	281	284	287	284	286	288	287	286	288	288	290	292	290	290	291	292	288	288	287	286	283	282	285	283	279	276	283	284	282	284	285	285	286	285	285	290	287	287	281	281	286	287	288	290	289	286	284	282	282	281	280	282	282	285	286	284	283	284	286	289	288	285	283	282	286	281	282	283	286	287	284	283	281	278	275	277	278	280	281	289	289	292	296	294	293	287	283	279	278	278	278	279	287	294	291	280	281	279	286	280	280	287	286	290	287	285	284	285	285	286	288	283	281	281	281	283	285	285	282	280	281	281	286	286	284	284	283	283	282	277	283	283	279	281	286	287	286	281	281	284	285	287	287	284	284	286	290	289	288	288	286	284	283	285	287	288	284	280	281	280	280	281	282	282	282	280	278	277	279	283	283	284	287	287	0	0	0	0	0	0	0
290	290	294	292	290	290	290	294	295	294	295	295	294	288	289	289	290	290	291	291	292	293	295	295	295	296	295	292	292	292	293	293	293	293	290	290	290	289	291	297	296	296	294	293	293	294	297	296	294	286	287	292	294	294	296	291	291	291	293	293	292	293	294	296	296	299	292	289	289	287	287	286	286	286	288	287	291	294	294	293	289	286	285	287	292	294	289	288	290	288	287	287	289	290	289	289	287	289	291	291	290	290	288	286	280	281	285	289	292	289	286	282	287	289	291	293	293	292	290	290	290	291	289	287	289	288	287	285	287	288	290	290	289	289	287	285	285	287	291	293	292	291	290	289	289	290	292	291	286	283	291	289	288	287	287	288	289	290	285	282	282	284	286	288	289	286	284	285	289	289	290	290	291	287	287	287	286	289	287	286	288	289	289	289	287	285	284	284	284	283	283	285	284	282	284	281	283	283	283	285	285	286	285	287	286	288	289	286	287	288	288	287	287	287	284	284	285	292	288	286	285	282	283	284	286	287	288	285	288	289	287	287	287	284	284	286	285	284	282	285	288	286	285	282	280	282	287	285	286	285	289	284	282	282	285	280	285	284	283	283	282	282	283	285	284	283	284	286	285	286	287	288	282	279	276	272	282	282	283	283	281	284	284	285	286	288	291	293	282	281	280	282	284	281	281	283	284	286	282	287	285	285	281	285	275	275	280	282	286	282	282	282	284	287	283	284	284	282	289	289	289	288	287	288	288	286	281	280	282	279	284	279	284	287	280	284	283	283	288	287	288	285	287	283	283	284	285	282	283	281	280	290	290	284	285	286	287	287	287	285	285	286	284	282	279	279	281	276	285	286	282	282	282	282	293	292	285	282	280	283	286	286	284	283	282	281	284	285	287	288	289	289	288	289	287	287	287	283	290	291	289	288	287	284	284	286	286	284	286	286	286	286	285	283	282	282	289	287	285	283	285	287	287	285	284	284	287	287	285	276	278	279	284	287	281	281	280	278	274	277	276	283	286	282	281	281	284	287	286	285	280	282	283	285	287	288	287	284	281	280	282	282	282	283	286	285	284	284	285	285	287	288	281	286	286	286	285	286	284	284	283	282	283	281	280	280	287	288	284	281	276	275	275	275	281	283	282	280	281	286	282	280	281	283	285	281	281	281	280	279	280	280	281	280	280	279	283	285	285	285	285	281	281	282	282	280	281	284	285	282	281	279	278	277	276	276	280	280	278	285	291	280	288	285	283	275	275	275	276	276	278	279	280	280	275	276	277	276	277	279	283	285	284	284	284	282	279	276	284	287	280	280	279	279	280	281	281	278	278	279	281	286	283	283	283	284	282	277	276	278	280	279	281	284	287	285	283	280	278	281	283	281	278	277	279	286	289	289	288	283	283	282	280	277	278	279	276	273	276	280	280	281	281	280	279	278	273	273	280	279	277	274	277	0	0	0	0	0	0	0
287	294	294	294	291	291	290	290	290	292	293	291	291	289	289	292	290	290	291	291	290	290	293	293	294	291	291	294	292	292	291	289	289	288	287	289	289	287	291	291	292	295	291	289	289	288	289	290	282	280	285	282	285	285	292	290	289	291	291	293	292	294	295	291	291	289	285	283	286	286	285	285	281	284	285	284	286	286	284	284	285	283	284	287	289	291	290	288	287	285	285	287	289	287	287	282	284	286	287	283	284	283	284	283	281	281	288	290	285	283	280	282	282	285	287	289	291	290	288	287	286	287	283	284	285	287	287	287	285	284	284	286	285	284	283	284	283	285	287	290	291	292	291	290	289	292	291	290	287	286	286	286	285	283	284	286	287	287	283	281	282	283	286	285	284	287	284	285	286	287	288	286	285	284	285	284	281	284	285	285	282	285	286	285	284	279	281	282	282	283	282	282	281	280	282	281	279	283	283	284	284	283	281	279	275	277	280	277	280	278	281	282	284	285	284	283	282	283	283	279	276	280	279	277	276	275	277	279	281	285	284	285	286	286	283	284	285	281	282	283	285	285	285	283	284	282	288	288	278	279	281	281	280	281	281	279	279	283	283	283	281	281	282	281	280	279	280	282	283	283	281	279	275	270	269	275	280	282	279	275	276	278	283	282	282	280	286	284	282	280	279	281	283	281	282	282	284	282	283	282	282	282	279	284	274	273	279	285	283	283	275	273	279	279	280	279	280	282	285	287	286	288	283	281	287	287	283	278	277	276	274	276	279	284	282	282	278	280	286	287	286	285	283	284	281	279	281	279	281	281	280	278	278	278	285	291	292	283	282	284	286	285	284	277	276	276	275	281	282	285	279	281	281	279	282	278	281	285	276	277	284	284	286	282	278	281	279	282	284	286	288	280	281	287	286	286	287	280	278	283	283	284	282	283	282	284	284	283	284	286	285	284	281	281	281	284	283	285	281	281	281	285	285	285	283	284	284	285	284	272	275	277	282	281	288	283	281	278	274	277	275	281	285	276	278	281	285	284	284	282	283	279	281	284	286	286	284	282	278	279	280	279	281	285	285	283	283	282	281	278	276	277	276	275	278	278	278	280	281	281	284	280	280	281	276	274	279	283	282	280	280	275	275	276	280	281	278	278	278	276	276	278	276	276	279	277	275	274	274	274	277	277	278	279	278	277	277	279	281	282	279	279	279	278	279	279	280	281	282	280	280	279	278	278	278	277	279	279	280	284	284	278	286	284	281	275	275	273	275	276	277	279	280	280	280	279	280	279	276	276	282	285	284	282	281	278	272	271	272	275	277	276	276	277	276	275	276	278	278	278	280	282	282	281	281	277	279	275	275	277	279	277	275	274	281	282	280	278	276	281	281	277	277	275	275	279	282	282	281	280	278	278	278	280	281	280	276	274	274	278	279	277	277	277	278	278	274	273	274	273	273	271	270	270	0	0	0	0	0	0
287	295	295	294	289	288	286	286	284	285	289	289	289	285	291	290	288	288	288	289	290	287	290	290	288	288	290	287	287	286	286	285	282	286	286	289	286	286	289	291	289	288	287	288	286	286	288	288	282	278	280	282	284	288	288	287	286	288	284	292	294	295	292	286	284	284	284	282	283	285	284	283	280	280	283	283	284	283	283	283	286	284	282	285	288	289	286	286	285	283	284	287	288	287	280	281	281	283	282	282	282	283	281	280	280	284	286	284	280	276	276	280	281	282	281	283	285	284	283	282	281	280	282	284	285	285	285	283	284	283	283	284	284	283	280	280	280	281	282	284	284	290	287	288	290	292	291	289	286	284	287	286	285	281	282	283	284	286	278	282	281	277	280	282	280	279	279	281	284	285	286	284	281	279	282	283	277	277	282	278	280	284	281	276	271	280	276	278	280	281	281	280	278	277	276	276	280	278	284	285	285	283	280	281	281	280	280	277	274	274	277	281	282	284	284	282	281	281	278	276	276	275	276	276	276	275	277	278	281	283	284	286	287	287	279	279	280	282	282	282	282	282	281	281	289	289	292	282	272	280	280	281	281	279	278	279	276	281	282	283	277	275	273	274	275	277	277	277	279	279	278	281	277	277	276	276	279	280	279	276	276	277	283	280	279	282	277	280	277	277	278	280	281	282	283	281	280	277	276	275	277	277	278	278	278	274	277	281	280	280	278	278	276	277	277	282	282	284	278	275	275	277	279	279	277	277	277	278	277	276	274	275	280	280	278	277	276	283	283	285	284	282	278	277	277	278	279	279	281	277	276	276	275	280	283	283	285	277	277	281	279	281	281	281	279	279	279	280	283	284	278	278	276	279	277	283	285	283	280	275	276	282	284	280	276	278	277	279	281	287	282	282	281	280	281	285	276	278	277	276	280	279	280	281	282	282	281	283	283	284	284	282	281	279	280	283	282	281	277	275	275	281	276	285	284	281	281	281	273	272	274	275	282	281	286	283	274	272	274	271	273	272	276	274	277	280	277	282	283	281	278	277	278	280	283	282	282	280	279	277	277	277	278	281	282	280	281	278	278	276	274	275	274	272	270	271	274	278	280	279	282	277	281	271	268	269	273	278	281	280	278	276	275	276	279	280	277	276	275	276	276	274	277	276	276	276	274	274	274	275	275	275	276	276	277	275	276	277	279	279	279	277	276	274	273	277	278	280	279	278	277	277	279	279	278	279	277	279	280	281	284	282	279	279	278	275	270	271	273	274	274	276	279	280	279	279	280	278	278	275	281	280	279	280	281	277	271	271	272	273	274	272	273	273	273	275	276	277	280	279	277	277	281	282	275	272	273	273	275	277	278	273	272	269	270	276	277	276	274	272	277	276	277	276	275	274	274	277	280	278	277	275	273	273	275	277	277	275	274	276	277	277	276	274	274	275	274	274	273	272	270	269	268	268	0	0	0	0	0	0
287	291	291	294	287	286	284	284	282	282	283	286	286	285	284	284	285	284	284	286	289	280	280	282	282	284	286	287	287	285	285	281	281	286	285	285	287	287	288	289	286	285	284	284	283	283	283	279	280	280	277	277	281	285	285	285	285	284	280	290	293	288	285	283	284	284	282	281	283	282	283	282	281	281	284	285	277	276	276	278	278	279	277	280	283	284	285	284	282	280	281	284	286	280	273	272	273	272	277	273	272	271	276	277	279	282	281	281	279	275	275	278	278	279	278	276	278	280	279	276	274	275	278	279	279	278	279	280	275	274	276	278	280	281	281	281	281	280	279	281	284	285	282	282	283	285	289	287	285	285	285	281	279	277	279	279	277	276	276	281	281	275	274	275	276	274	276	277	283	284	281	281	279	278	277	276	275	276	275	275	278	278	273	273	271	267	270	277	280	281	281	278	275	274	275	279	279	276	282	283	286	286	286	284	281	282	279	274	274	272	275	279	281	284	281	280	279	280	278	276	274	275	275	274	273	273	277	277	278	279	282	285	285	279	278	281	282	281	279	278	280	278	277	280	280	282	278	277	274	275	275	278	277	277	278	281	280	277	278	281	280	276	274	272	278	278	277	276	276	276	278	278	278	275	275	278	276	280	279	278	276	275	278	277	275	276	276	277	277	277	278	279	280	281	281	280	278	276	276	273	275	277	278	278	277	275	277	276	279	277	277	278	277	276	276	276	281	281	276	277	274	278	278	277	276	276	275	273	273	275	276	278	279	279	273	271	275	277	277	279	280	279	278	275	276	276	275	278	279	277	276	276	274	276	275	273	271	271	276	276	275	278	282	281	278	278	279	280	284	278	275	276	276	279	279	279	281	279	277	275	274	272	277	275	276	278	278	277	277	281	281	281	279	274	275	274	272	277	277	275	277	276	276	279	279	280	278	281	281	281	281	280	279	277	279	280	279	279	276	275	276	277	283	277	278	277	274	275	283	272	272	274	273	273	273	277	275	274	272	271	272	269	268	271	274	277	273	273	278	281	276	277	273	276	279	281	280	279	279	274	272	272	280	281	276	275	275	278	279	273	271	270	272	271	270	272	274	277	277	277	275	273	270	268	267	268	270	274	278	278	278	275	275	275	274	276	276	274	271	272	270	273	276	275	276	273	274	274	275	274	274	275	274	275	274	273	277	274	276	277	277	275	274	273	272	271	270	271	275	275	275	273	275	278	277	277	276	279	279	278	279	282	280	280	278	276	274	272	272	273	273	275	277	278	278	272	271	271	272	277	278	277	271	276	276	274	269	268	268	268	270	271	269	270	272	272	274	276	278	278	276	275	275	274	273	271	270	267	267	267	268	272	268	266	268	268	274	275	273	272	271	275	275	274	273	273	273	275	277	276	274	271	271	270	271	272	276	276	277	275	271	271	270	271	270	272	275	276	275	272	270	267	267	264	0	0	0	0	0	0
283	284	284	284	283	283	282	282	281	282	285	285	284	284	282	282	283	282	282	283	278	276	278	279	279	280	281	284	279	279	279	279	278	277	275	277	280	283	283	285	280	280	280	280	280	280	281	275	277	279	276	276	279	280	280	282	283	282	278	278	280	278	277	280	281	281	280	276	279	278	278	273	279	280	276	276	274	270	272	273	273	274	274	273	274	278	280	281	279	277	277	280	277	277	272	272	272	270	272	272	273	271	268	271	275	278	280	279	277	276	275	278	279	278	276	272	272	274	274	272	273	274	276	275	278	278	279	280	280	280	281	283	282	281	280	280	280	280	280	281	281	281	281	279	279	280	283	285	285	280	278	279	277	279	278	279	275	276	276	276	275	274	274	275	273	271	270	270	273	280	279	279	277	275	274	276	277	277	277	273	274	275	272	272	272	267	271	276	280	277	274	271	270	272	274	276	281	273	272	273	279	280	281	282	282	275	275	275	273	275	276	278	281	281	276	281	274	275	278	275	274	272	273	267	270	270	271	276	276	278	279	277	277	277	275	275	274	272	273	273	276	277	275	277	273	276	272	271	274	273	272	272	272	272	276	279	279	274	273	278	277	276	275	273	267	273	276	274	275	276	276	278	275	275	275	277	275	275	277	276	276	275	275	274	273	272	275	276	276	275	275	277	277	277	279	278	277	277	275	276	275	275	278	279	278	276	275	276	277	277	274	277	275	274	274	274	277	275	275	273	274	274	277	276	274	272	273	274	273	276	277	278	278	276	274	271	274	275	277	276	278	277	274	273	274	274	274	272	274	276	276	274	273	272	271	272	269	270	271	271	269	273	282	280	276	277	277	281	277	273	273	274	274	275	277	277	280	278	277	276	275	274	273	272	275	276	277	272	270	273	279	280	274	274	273	275	273	274	274	275	275	275	276	276	279	280	281	275	279	278	281	279	278	274	276	275	275	276	275	274	275	275	264	272	276	276	267	268	270	269	268	273	273	273	270	266	266	266	272	272	270	267	265	266	273	277	274	272	273	276	274	273	272	271	272	274	274	273	273	273	273	272	267	269	269	269	274	275	274	273	273	272	273	274	278	276	268	266	267	273	273	270	266	265	267	267	268	271	272	272	269	271	275	277	269	268	273	272	269	267	268	268	273	276	266	269	268	269	271	269	269	270	268	265	269	270	273	270	270	273	273	273	268	266	266	268	269	269	268	272	272	271	273	275	276	274	270	271	273	272	272	276	275	272	271	271	272	272	273	272	273	274	276	277	276	270	267	267	262	273	275	274	273	273	273	274	268	269	268	267	266	268	269	272	272	271	272	274	274	277	275	275	274	272	272	268	267	266	266	265	267	266	268	267	268	269	270	270	271	272	271	272	273	273	272	272	271	272	273	273	273	272	270	269	269	270	273	271	270	270	270	270	269	269	268	268	273	274	274	271	271	271	271	269	0	0	0	0	0	0
272	277	281	281	283	280	280	280	280	278	282	284	283	283	282	276	273	272	272	273	274	276	275	274	274	275	273	275	277	278	275	275	272	272	273	275	277	280	280	280	274	277	278	279	273	270	270	271	276	278	278	278	278	277	281	281	281	279	274	273	274	276	277	278	277	278	278	275	278	276	274	271	271	277	275	275	273	271	276	274	275	275	274	272	273	272	271	275	276	277	277	276	273	272	273	274	270	269	271	272	274	269	265	266	268	271	268	268	270	274	272	276	277	276	274	270	272	273	274	274	273	274	275	275	272	273	274	278	279	280	282	283	281	280	279	279	279	280	280	281	281	280	279	278	278	277	277	277	279	278	278	278	277	276	277	277	278	270	270	270	273	278	276	276	273	272	269	272	269	270	273	275	276	274	275	275	274	276	275	273	272	273	274	272	270	270	272	275	272	272	273	272	271	274	275	274	275	277	274	274	274	273	272	273	275	275	272	272	273	271	272	275	276	276	275	271	267	267	272	273	271	269	271	267	269	267	269	270	274	276	270	270	277	276	275	274	277	273	269	269	273	275	273	273	272	272	271	271	269	271	271	271	273	272	273	272	269	272	274	275	276	276	274	275	272	267	273	270	270	274	274	273	270	272	273	276	276	274	275	276	278	273	271	270	272	270	268	271	271	272	273	274	273	270	275	278	277	275	275	278	277	277	277	279	279	274	275	274	275	273	273	270	269	273	273	272	270	272	273	273	273	277	273	275	276	271	271	273	276	271	268	268	270	275	274	273	274	271	274	274	278	277	275	272	272	273	272	270	271	271	270	270	272	272	269	268	269	270	269	270	267	271	274	271	271	270	269	271	271	270	270	270	273	274	275	276	276	276	276	278	277	277	275	272	270	270	271	268	269	272	274	276	274	274	273	274	274	273	271	273	273	274	274	276	276	279	279	275	273	274	274	265	264	268	273	276	271	269	268	268	267	265	273	272	269	270	264	266	263	264	264	273	271	270	268	265	272	280	280	267	268	264	261	271	264	264	270	271	268	273	267	265	270	270	270	273	272	270	272	267	266	265	268	268	268	269	273	271	270	270	269	269	272	275	271	267	267	266	267	265	263	264	265	265	265	264	265	268	271	271	269	269	268	271	266	265	270	270	270	266	266	267	270	273	268	267	269	265	263	265	268	269	269	268	263	265	266	267	268	268	267	266	266	265	266	267	270	268	269	267	269	269	272	274	274	273	270	271	273	277	273	271	269	267	269	271	271	271	271	273	274	275	275	277	270	268	269	262	261	270	270	271	271	270	265	273	273	270	270	271	269	268	263	263	268	272	272	273	273	272	271	270	264	266	266	264	265	265	263	263	265	267	266	266	267	270	271	270	270	271	271	272	272	272	272	268	267	266	271	272	271	270	269	270	268	267	268	267	266	262	262	263	268	267	269	269	268	268	269	270	272	272	270	270	0	0	0	0	0	0
270	275	280	280	281	278	278	272	272	277	282	282	278	278	276	275	273	273	273	273	274	276	274	272	270	270	269	270	274	275	272	272	270	272	273	273	276	278	278	277	272	275	274	271	272	273	273	274	274	276	272	270	271	275	280	280	279	272	273	274	276	278	276	266	270	267	267	267	265	265	264	270	271	274	274	272	273	276	278	277	275	275	274	272	272	269	271	272	270	268	269	264	265	269	270	272	270	271	270	273	270	264	264	266	268	269	267	268	269	273	271	273	274	274	270	272	269	271	272	272	271	272	274	273	271	272	273	274	275	278	281	281	276	273	275	276	278	279	280	277	279	280	279	276	276	274	274	275	276	276	277	277	277	277	274	273	271	268	270	270	272	274	274	275	273	272	271	270	269	270	274	274	277	275	273	271	271	274	276	273	270	271	271	272	270	267	267	268	270	271	272	271	275	275	275	271	270	270	271	272	268	267	267	268	270	270	272	272	270	270	269	271	268	269	271	267	266	265	266	269	269	271	271	271	265	267	270	271	271	273	268	269	270	272	274	274	277	276	270	269	270	273	274	272	273	271	269	268	267	268	269	271	271	268	270	268	268	268	272	272	273	274	271	275	274	268	267	271	270	270	270	269	267	272	272	272	274	272	275	275	273	272	271	271	271	272	266	265	266	275	272	269	267	266	266	273	273	272	280	278	276	275	272	276	271	272	272	273	271	271	270	269	268	269	269	269	269	272	272	273	273	271	271	268	271	276	275	271	274	270	268	268	269	270	270	271	268	269	270	273	274	272	273	271	271	270	270	269	269	269	269	273	271	270	269	269	270	270	267	266	267	269	269	269	270	269	270	272	271	267	265	264	265	266	266	269	270	273	275	274	276	276	275	271	270	269	270	267	270	272	272	272	273	267	270	271	272	272	269	270	269	269	270	273	276	276	271	271	270	271	266	263	265	264	266	271	267	267	266	267	267	266	266	268	270	267	267	263	264	262	265	268	269	269	266	266	266	265	269	270	263	259	263	265	266	262	269	271	269	263	263	261	261	264	263	265	262	266	263	262	260	256	255	266	268	269	270	270	267	267	268	267	266	271	274	271	267	268	266	261	262	264	265	265	264	265	264	264	269	271	270	269	268	268	266	264	267	268	266	267	267	267	263	263	265	268	270	265	263	266	268	269	269	268	265	264	265	267	267	265	264	264	264	266	266	266	266	265	268	268	269	269	268	266	266	271	266	263	262	264	267	269	270	269	266	265	268	267	265	269	270	271	274	276	267	266	259	259	258	262	267	269	268	265	263	266	269	273	273	269	268	264	266	262	265	265	268	268	268	267	264	266	266	262	262	263	263	263	263	264	265	265	267	266	266	270	271	270	267	264	261	262	265	271	267	267	264	265	265	268	268	268	268	267	266	264	266	265	267	267	267	266	263	266	266	269	266	265	265	268	269	269	270	268	0	0	0	0	0	0
269	273	277	277	277	275	270	271	271	276	274	276	274	274	274	273	273	274	274	274	274	274	271	269	268	268	269	270	270	268	271	270	270	271	271	271	276	274	274	274	272	271	269	264	265	272	275	275	274	273	267	263	265	268	272	270	270	271	274	277	276	275	266	265	267	266	267	267	265	265	268	272	270	271	268	270	272	275	278	278	274	266	266	266	269	268	269	270	269	266	265	262	262	264	268	269	269	269	269	267	264	264	267	266	266	270	270	270	268	268	272	275	274	272	270	269	268	270	268	269	270	269	269	268	269	270	271	272	271	274	276	277	270	268	268	270	272	276	277	274	273	271	271	272	272	268	265	264	273	271	267	269	269	266	265	265	264	265	266	267	269	270	270	271	273	273	273	271	270	271	272	274	273	272	271	271	269	270	272	271	271	272	271	269	268	268	266	266	266	268	268	272	271	272	273	273	267	267	267	268	267	263	264	269	271	272	270	270	268	268	267	268	266	265	267	265	264	264	267	268	269	270	270	270	270	269	269	271	273	272	269	269	269	270	271	272	267	274	269	268	270	272	273	269	268	270	267	266	266	266	269	270	273	268	268	268	267	266	271	272	271	270	269	266	267	267	269	270	271	270	270	267	268	268	267	267	267	267	268	266	267	268	271	271	271	271	267	265	266	272	271	267	265	265	264	266	268	278	277	275	274	273	271	270	269	272	271	271	269	270	269	267	266	266	267	268	269	271	270	265	266	267	265	267	269	270	269	270	268	268	269	269	267	269	269	269	266	264	270	271	271	272	271	270	270	269	268	267	265	266	270	269	268	270	269	269	266	265	263	265	266	268	270	271	269	270	269	269	267	264	263	265	265	264	267	267	267	269	262	264	266	269	271	269	273	275	269	269	269	269	270	271	271	265	266	270	273	267	265	262	267	268	266	269	270	270	270	268	268	267	263	262	263	264	264	266	268	265	266	268	266	265	265	265	267	264	263	263	264	263	269	269	271	270	267	265	266	265	266	265	267	267	266	263	261	261	257	265	269	262	261	262	260	261	264	264	261	262	262	257	256	258	261	255	262	265	269	267	265	264	263	264	265	263	268	268	266	266	261	260	264	264	265	265	261	259	259	262	268	268	266	265	266	265	262	262	264	265	266	266	267	266	264	264	261	259	262	262	260	263	266	267	268	267	260	260	261	261	264	264	264	263	262	262	264	265	264	262	264	266	268	268	266	264	264	265	264	263	262	262	265	264	262	262	261	260	260	263	265	259	258	260	263	262	262	261	260	259	260	262	262	266	266	262	264	266	265	267	268	267	265	265	263	265	264	263	266	265	264	263	263	260	263	262	262	261	262	263	261	260	262	263	264	264	265	264	264	263	261	261	261	263	263	265	265	264	264	266	267	264	265	264	266	266	263	262	262	262	262	262	266	264	262	262	266	266	263	260	260	265	266	266	264	264	0	0	0	0	0	0
268	271	274	276	276	275	259	260	263	263	267	270	272	272	272	271	270	271	271	271	274	272	268	268	268	268	268	267	267	269	270	272	272	273	272	269	269	273	270	270	267	268	268	265	263	263	267	267	269	270	271	270	268	267	270	270	270	270	275	278	276	275	267	268	269	271	267	267	265	264	265	266	267	267	264	263	264	270	278	279	272	265	265	265	267	267	268	269	268	267	265	262	261	262	263	267	268	264	263	264	264	265	267	269	270	271	265	265	265	268	269	268	268	268	271	271	270	269	268	267	267	267	266	266	266	263	265	267	269	270	273	269	266	265	264	265	267	272	272	272	269	269	270	270	269	267	264	263	263	262	264	265	263	261	265	264	264	264	266	266	267	268	268	267	272	273	271	272	271	272	274	272	271	269	267	266	265	264	261	263	268	269	269	267	266	266	267	265	265	265	270	269	269	271	271	265	265	264	264	267	267	263	262	269	267	273	271	270	265	267	267	267	265	265	265	265	264	262	266	266	267	267	268	265	262	260	259	268	270	269	268	274	270	269	270	271	271	267	269	269	267	268	268	266	267	263	266	267	265	267	267	269	274	270	270	270	266	267	267	268	269	266	265	264	266	265	267	269	269	270	267	266	267	267	267	267	267	265	263	267	265	266	269	268	268	267	266	265	268	272	270	267	265	263	261	263	265	271	265	263	269	269	269	268	271	270	270	266	268	269	268	266	264	264	267	267	265	270	263	264	265	266	263	264	268	268	267	270	268	268	268	268	267	268	264	263	264	265	263	262	269	269	270	269	270	270	266	264	264	262	264	266	267	268	268	269	265	264	263	262	264	265	269	269	269	269	267	263	261	263	265	264	263	264	264	265	260	269	259	263	264	267	267	267	269	267	268	267	266	270	271	270	266	264	262	266	263	262	263	266	266	265	267	265	267	266	267	267	267	262	263	263	264	264	266	266	260	259	260	267	267	267	266	265	264	264	264	263	264	264	264	269	268	259	258	262	265	262	260	264	264	265	265	265	263	261	258	260	266	268	268	261	261	259	258	258	258	256	262	257	256	259	259	265	262	264	264	261	263	262	260	260	260	262	258	259	263	266	260	261	260	263	264	263	260	260	259	260	267	267	263	262	262	265	263	261	261	264	264	263	263	263	262	262	261	261	264	262	261	262	262	261	261	260	258	254	254	254	261	264	264	261	261	261	263	264	263	261	260	263	265	265	263	260	263	263	256	258	259	259	259	261	260	259	259	259	258	255	255	258	260	262	261	261	258	258	255	256	264	261	262	264	262	263	265	265	265	264	266	265	263	261	263	263	263	262	255	264	262	262	260	259	260	261	262	260	260	258	259	261	262	263	264	264	264	263	262	262	258	258	259	261	261	259	262	263	261	260	260	261	261	264	265	265	261	260	261	261	261	261	260	261	261	262	262	261	261	262	259	261	261	259	259	258	0	0	0	0	0	0
268	271	272	271	271	263	255	256	260	260	263	265	270	270	270	270	267	268	268	269	269	269	264	265	266	267	267	264	266	271	271	271	271	271	269	265	263	261	263	263	265	263	262	265	265	265	267	267	265	264	264	268	269	269	270	268	271	271	271	271	271	265	265	266	268	269	269	266	266	264	264	265	267	265	264	264	266	266	264	265	269	267	266	266	266	266	266	269	268	265	265	267	266	264	261	259	258	259	261	262	259	261	261	264	266	267	265	266	265	267	266	267	268	268	269	268	266	268	267	266	265	263	264	263	264	262	263	266	268	270	270	266	265	264	263	262	263	268	269	269	267	268	269	270	268	265	261	260	260	261	264	264	263	261	266	266	266	263	265	266	267	267	266	267	264	266	267	268	276	276	276	267	265	262	259	256	256	256	257	258	264	269	269	268	266	266	266	266	265	266	265	264	268	267	263	265	264	263	260	256	257	258	263	266	268	270	269	267	264	261	258	260	262	264	268	267	266	265	264	264	265	266	267	266	262	255	259	261	262	261	266	265	271	270	270	270	268	265	267	267	265	265	263	264	265	266	262	265	264	264	265	266	268	274	270	270	265	265	264	265	265	265	263	264	264	265	265	266	266	259	260	262	265	266	266	266	265	265	263	263	264	261	260	259	259	265	264	267	272	270	267	268	265	261	260	258	264	265	265	262	264	265	266	268	266	262	264	268	261	263	262	265	261	262	262	262	261	254	257	260	264	263	262	263	265	265	270	270	266	265	264	269	267	266	266	264	265	261	260	261	262	265	267	267	268	267	265	262	262	263	263	264	264	265	265	266	264	263	262	263	265	267	268	265	268	267	264	262	262	264	266	266	264	265	260	264	259	260	259	259	263	264	268	267	266	266	260	262	265	268	271	267	265	269	263	263	260	262	262	265	265	265	266	266	265	264	266	267	264	261	262	263	264	265	264	260	259	259	259	260	265	263	265	266	265	265	265	261	265	264	269	261	257	252	256	259	259	255	251	249	251	253	258	259	259	259	260	261	260	260	263	263	258	254	253	255	257	260	254	253	259	259	259	259	265	265	262	259	257	253	257	259	257	260	257	256	254	259	263	261	261	262	262	262	259	260	260	264	264	263	261	259	262	264	265	262	262	259	257	256	256	259	259	257	257	257	260	260	258	259	256	257	261	260	259	258	256	260	262	262	262	260	259	259	258	258	259	262	261	260	259	259	257	259	257	259	253	254	255	258	259	261	260	259	257	257	254	254	257	259	262	263	258	258	255	253	253	255	255	255	256	258	261	261	262	263	262	260	259	259	259	262	262	262	262	255	252	257	256	255	259	260	260	260	259	254	255	254	258	259	260	265	260	261	262	260	258	258	255	255	257	257	257	258	259	259	259	258	258	258	258	260	264	259	258	258	259	259	259	259	258	261	258	260	257	262	258	262	259	257	257	255	253	252	0	0	0	0	0	0
265	264	263	260	260	257	255	258	259	259	260	262	267	271	270	270	268	267	268	266	266	264	264	264	266	265	265	263	266	269	270	268	270	270	266	265	264	268	265	265	262	261	262	262	264	267	268	265	265	264	263	263	265	263	264	262	266	266	267	267	266	264	263	263	265	265	266	264	264	262	264	265	266	264	263	264	265	266	266	262	260	263	264	264	264	265	265	268	262	259	261	263	269	263	258	257	254	254	255	256	261	262	262	263	264	265	265	265	264	264	264	263	268	269	268	268	266	264	266	266	262	262	261	260	260	263	265	266	267	268	266	263	263	263	261	257	256	258	264	262	264	265	268	267	266	263	263	262	264	264	263	265	266	264	264	265	265	263	264	266	264	265	265	262	263	262	264	263	266	268	268	267	266	264	256	254	253	253	257	266	262	263	265	265	266	265	265	265	264	266	259	260	262	262	261	262	262	261	256	257	257	260	258	266	267	268	266	261	261	260	262	261	262	262	262	262	262	261	258	260	262	268	266	262	262	260	259	260	261	261	261	265	268	270	269	267	266	264	262	265	263	257	259	264	265	265	257	258	262	260	261	261	263	268	268	263	263	264	264	265	265	265	266	261	260	263	261	259	257	258	256	255	257	258	262	266	262	258	262	262	261	261	260	259	259	263	263	262	265	265	267	268	264	262	262	258	261	260	262	262	261	265	266	259	263	261	263	265	260	262	262	263	257	256	258	262	257	258	258	262	262	260	261	262	263	269	268	269	266	265	263	268	264	261	260	266	261	261	262	261	261	261	261	264	262	262	264	263	262	262	263	264	264	266	266	264	263	259	263	262	264	263	267	267	267	266	266	263	263	263	264	264	263	262	259	257	262	262	263	259	263	265	268	267	266	259	260	261	259	269	262	263	264	264	264	263	264	262	262	263	259	262	263	263	263	263	264	262	261	260	262	263	264	265	259	259	259	260	262	261	263	263	257	255	259	261	260	259	259	259	256	254	252	252	258	259	259	255	251	248	249	255	258	258	260	261	261	258	258	257	259	262	251	254	253	257	257	253	254	254	259	259	258	258	258	260	258	258	256	252	254	257	254	256	256	253	253	253	259	262	265	263	261	259	260	260	262	264	258	255	256	258	258	257	259	262	261	258	255	256	258	258	259	259	256	255	254	254	254	256	255	256	254	259	255	253	252	254	254	254	260	256	254	253	254	253	261	262	262	257	253	253	255	255	255	259	253	251	251	257	259	259	259	259	259	258	255	253	258	262	261	260	259	254	253	252	252	252	252	253	253	254	258	258	258	258	258	258	256	257	259	260	259	259	259	258	254	256	258	257	256	255	255	256	254	252	251	253	258	254	251	255	257	259	259	259	254	256	253	253	254	254	254	255	255	255	257	257	257	257	257	255	255	254	254	254	254	254	258	258	257	256	257	255	253	254	256	257	259	259	257	255	254	253	0	0	0	0	0	0
262	261	260	259	255	255	253	256	258	259	259	262	265	270	267	267	266	265	262	262	258	258	261	266	266	264	261	261	266	266	267	271	269	269	264	260	260	266	266	262	262	261	261	263	265	267	269	269	269	261	259	259	259	260	258	262	258	258	258	261	262	263	263	262	265	264	261	261	261	261	263	265	266	263	263	261	261	265	265	263	262	260	262	263	264	264	263	262	263	262	261	260	259	263	265	258	255	254	253	257	260	262	263	264	265	265	264	266	265	264	261	259	262	267	267	266	264	263	265	264	263	259	258	257	259	262	265	265	266	265	265	263	263	263	257	256	255	254	255	257	262	260	259	261	264	266	265	262	261	261	260	262	260	260	258	261	261	261	265	263	259	259	257	261	262	260	258	260	259	259	258	256	254	252	257	257	257	256	258	258	259	261	262	262	264	262	263	261	260	264	259	260	258	261	260	259	259	259	256	255	260	260	259	264	266	263	261	259	259	260	262	260	261	262	260	260	260	260	257	258	261	260	261	259	257	257	257	257	259	259	261	265	266	264	260	260	264	263	258	259	260	258	254	257	258	259	258	257	260	257	261	265	268	269	264	263	261	261	260	256	266	267	263	255	259	259	260	257	257	257	254	255	257	260	263	259	264	259	257	257	261	261	259	258	258	263	263	260	263	263	262	261	261	259	262	258	262	261	261	258	258	259	258	259	261	261	259	255	254	252	252	254	255	256	259	261	263	258	259	259	257	258	255	258	259	259	259	257	257	261	261	262	259	252	253	260	259	259	260	261	260	260	262	261	262	260	260	258	261	262	262	262	263	264	261	262	261	260	260	260	260	262	266	265	264	262	260	261	263	263	262	262	262	261	257	256	257	258	261	261	258	258	258	258	265	258	257	260	260	259	259	262	263	264	263	263	263	259	260	256	255	255	258	259	260	263	263	261	260	260	261	262	262	260	258	257	256	256	256	256	252	253	252	258	255	255	255	258	258	258	255	252	253	257	257	259	261	262	257	252	254	253	252	251	257	257	257	252	250	253	254	254	250	253	254	258	259	258	255	255	257	261	255	254	253	252	251	251	252	253	252	254	254	256	254	253	254	255	257	260	261	259	256	254	255	256	260	260	255	258	256	256	256	256	256	255	255	256	256	255	255	257	259	259	256	254	253	253	253	252	253	253	252	259	250	249	251	251	253	253	252	253	252	254	253	252	252	254	255	256	251	251	252	255	256	257	252	252	252	253	253	259	259	253	249	250	251	252	252	259	259	259	257	254	252	251	250	248	249	251	250	250	251	256	255	254	255	253	253	255	256	256	258	257	258	257	254	253	257	252	252	252	253	254	253	253	252	254	256	255	250	250	251	252	259	257	256	251	252	251	251	252	252	251	254	254	254	254	255	254	254	252	252	251	251	251	254	254	256	256	255	254	253	251	250	253	253	256	254	254	257	256	255	252	0	0	0	0	0	0
259	259	259	258	255	255	255	254	254	259	259	257	259	265	265	265	262	260	254	254	256	256	259	263	266	264	261	261	261	265	268	267	261	261	261	259	259	259	261	261	261	261	262	262	259	259	259	259	257	257	256	256	257	257	261	259	257	258	258	260	262	255	253	255	256	258	261	259	262	262	263	264	261	260	261	258	257	259	264	260	260	260	260	264	264	264	263	263	261	259	258	260	261	264	262	255	255	255	255	254	258	259	261	263	263	262	263	265	264	261	260	259	259	259	265	262	260	263	264	264	262	260	256	256	257	259	261	265	265	261	260	260	263	259	255	254	252	254	257	259	261	260	259	259	257	264	263	260	259	257	256	257	258	255	259	260	261	260	259	255	256	256	256	260	260	260	259	258	258	257	257	254	253	251	254	255	262	257	259	258	258	256	259	259	262	259	258	260	261	261	262	263	263	261	257	258	259	257	256	256	258	259	260	260	261	262	258	258	257	258	258	259	260	259	258	258	258	258	258	259	257	258	257	260	256	256	256	257	258	258	261	265	262	261	256	257	257	257	257	257	258	257	258	260	256	257	259	258	257	258	258	260	259	255	256	254	256	257	255	255	257	264	260	253	258	256	253	256	255	256	254	256	257	256	257	258	259	257	257	258	258	257	256	252	252	254	258	261	259	263	261	260	261	264	264	262	264	258	257	255	256	257	258	258	256	259	261	257	255	256	254	255	253	255	260	262	261	257	257	262	256	254	255	251	255	256	256	257	255	257	257	254	254	252	256	255	254	253	252	254	259	255	256	258	259	257	258	257	257	258	255	255	256	257	258	260	259	257	255	257	257	263	264	263	260	257	256	261	261	257	258	259	257	257	256	256	257	257	257	256	254	254	255	256	255	256	257	258	258	258	258	260	261	262	263	262	262	256	256	254	253	253	251	252	259	260	259	258	259	259	260	261	259	257	258	256	256	257	257	252	254	254	253	256	257	256	256	256	256	256	255	253	252	252	258	258	262	265	253	251	258	255	252	255	254	255	253	250	254	257	254	254	250	252	251	250	253	257	257	250	251	253	249	250	251	248	242	252	252	252	254	253	255	257	254	254	254	253	261	261	262	262	258	259	257	251	254	254	253	255	256	252	253	251	253	253	253	254	254	250	250	253	253	254	254	253	254	254	252	252	251	252	252	250	248	247	248	251	252	252	252	252	253	253	253	252	251	251	252	253	249	249	251	251	251	257	255	251	252	254	254	255	254	250	248	247	251	252	255	256	256	255	254	255	253	250	250	248	247	249	249	248	245	244	244	244	246	248	250	251	252	252	254	254	254	254	254	253	252	252	251	251	252	252	255	253	253	252	251	251	251	251	251	252	254	252	249	251	250	250	250	251	251	252	252	251	251	251	251	252	250	248	247	246	248	249	249	253	254	254	254	252	251	250	253	253	253	251	251	251	254	255	253	250	0	0	0	0	0	0
257	257	257	259	257	257	254	254	252	254	254	255	255	254	252	254	254	257	257	257	259	259	262	261	259	258	258	258	260	262	264	258	257	258	258	257	257	257	259	260	261	260	262	258	255	254	254	253	254	254	255	255	254	258	261	260	256	256	260	260	257	258	255	254	252	251	250	253	250	251	251	257	260	259	260	256	255	255	258	257	259	258	259	262	263	265	263	262	261	258	259	259	259	258	257	254	255	257	257	257	257	258	258	258	258	259	258	259	259	260	259	258	257	257	262	259	261	262	263	263	262	259	256	253	253	254	255	254	255	257	258	258	256	256	254	254	253	254	256	259	258	257	257	256	255	257	257	259	257	256	255	255	253	256	254	253	259	260	257	254	250	253	256	255	256	252	251	254	255	256	256	255	253	252	253	256	257	259	258	256	257	255	256	257	258	260	258	258	260	261	261	262	264	262	256	257	258	258	256	255	256	257	260	259	259	257	258	255	256	255	254	254	256	260	258	257	257	257	257	258	255	256	255	256	254	253	255	256	257	259	257	252	256	253	250	252	252	252	257	259	256	256	258	259	255	257	256	256	255	255	255	254	255	255	260	255	257	256	254	254	258	256	255	251	254	256	258	252	254	255	256	258	257	259	258	257	255	256	256	255	255	255	255	254	254	254	257	259	261	260	261	261	261	258	258	259	261	258	259	258	257	254	257	253	253	255	258	258	256	255	255	252	253	252	254	258	256	255	252	259	256	247	248	250	253	255	256	255	258	257	257	256	255	254	253	255	255	253	252	251	250	252	256	256	256	255	257	256	256	255	253	252	251	254	256	258	258	258	255	254	260	261	261	259	255	254	251	256	257	259	257	256	256	255	253	254	256	255	254	255	252	253	255	256	256	256	257	256	257	257	258	260	260	261	259	256	255	254	250	249	252	252	252	256	254	255	255	255	257	259	259	259	257	257	257	257	256	255	254	253	253	254	255	256	258	256	255	255	255	254	253	255	253	252	249	252	251	245	248	250	250	253	252	251	255	251	248	250	254	256	253	253	249	250	249	249	253	256	251	252	249	251	252	253	255	250	245	249	253	253	254	253	255	254	256	254	251	253	253	257	259	259	258	259	258	253	253	254	250	249	250	251	250	251	250	250	249	251	253	249	249	250	253	254	253	252	250	248	247	249	248	248	246	247	243	246	246	247	252	251	251	251	252	253	253	252	251	249	249	250	248	250	249	249	249	250	256	253	252	253	253	254	251	248	247	248	249	251	254	255	253	252	252	252	254	253	246	246	245	245	245	246	245	245	246	246	247	247	247	248	246	251	251	254	254	253	252	252	250	249	251	249	248	249	252	254	252	248	248	249	249	247	247	247	249	252	251	250	250	249	248	247	247	246	250	249	248	248	252	249	248	245	246	245	247	248	248	249	249	252	253	250	250	249	248	251	250	250	250	250	252	251	250	246	0	0	0	0	0	0
253	253	258	261	260	256	256	253	251	251	252	252	252	252	257	259	259	256	253	255	256	258	258	261	255	252	255	257	257	259	255	255	256	257	257	256	258	257	256	258	260	258	260	256	257	252	254	254	253	253	253	252	253	253	254	256	256	255	257	257	258	257	256	254	251	248	247	248	251	254	258	258	257	257	258	259	255	254	254	259	259	259	259	259	261	263	255	255	258	258	258	256	255	253	256	255	254	256	259	258	256	255	255	255	257	258	257	252	252	258	259	256	253	254	256	259	258	260	256	255	254	252	252	254	254	253	253	254	255	254	253	253	254	256	255	254	253	253	254	255	255	255	255	254	254	255	256	256	252	250	250	250	254	257	258	255	254	258	254	253	252	251	252	252	251	249	249	251	255	254	255	254	254	252	255	255	252	259	255	252	256	255	257	256	256	254	256	257	259	261	262	263	262	258	256	256	257	257	254	253	252	257	257	257	258	258	257	259	259	257	254	254	255	258	258	256	252	255	259	260	257	254	256	256	254	253	253	253	255	256	258	255	250	250	250	251	250	254	254	255	255	255	253	250	249	250	256	254	255	255	255	254	255	255	259	258	261	258	253	252	254	253	253	251	250	251	251	254	256	255	258	257	257	259	255	253	253	253	253	254	253	253	253	254	253	253	253	253	253	253	262	260	255	253	252	258	257	255	257	259	258	254	253	255	253	254	252	253	254	253	253	254	254	251	247	250	251	249	248	249	252	248	248	250	253	254	254	254	258	254	257	256	254	253	254	255	255	255	253	252	251	255	255	255	256	254	254	255	255	253	253	252	249	252	255	256	257	256	254	250	250	255	256	254	254	249	248	251	251	256	256	252	251	252	253	251	248	249	250	252	252	254	255	256	256	256	256	256	256	252	255	256	257	257	257	254	249	251	249	246	252	252	254	254	254	254	254	255	254	254	254	254	254	255	254	253	254	253	252	251	252	251	252	256	257	256	256	254	251	253	253	251	248	247	248	248	248	249	249	251	254	253	252	251	251	250	248	248	249	253	253	249	247	248	249	248	248	255	250	249	251	253	252	252	249	250	252	252	252	250	252	245	248	257	254	255	253	253	252	252	253	254	253	251	245	250	252	252	249	249	250	251	249	248	249	242	240	240	247	248	249	248	253	253	253	252	249	247	246	247	249	248	247	243	248	244	244	245	245	250	251	251	251	252	253	253	251	244	248	248	250	250	249	248	248	248	245	244	243	252	248	249	248	244	247	249	248	249	252	255	251	250	249	246	247	247	247	246	246	244	245	246	246	246	246	245	245	244	248	248	249	250	251	252	252	250	249	250	248	247	249	247	249	247	246	247	249	247	248	248	247	245	244	245	248	249	250	251	251	250	246	245	248	246	249	244	245	245	245	248	246	245	245	245	248	248	248	247	247	248	250	248	247	247	248	248	250	250	250	251	250	248	246	244	0	0	0	0	0	0
250	250	255	259	259	256	256	252	251	248	248	248	249	254	255	253	253	251	251	248	248	251	251	255	252	252	252	254	254	252	251	254	255	255	255	255	253	252	252	253	258	251	251	256	254	255	257	255	255	252	252	252	254	254	251	252	253	256	255	255	257	254	255	255	253	252	254	254	257	258	257	257	256	254	254	254	255	254	253	252	251	253	254	255	256	248	251	251	253	256	258	257	253	248	250	252	254	255	257	257	255	255	254	253	253	253	249	250	250	250	248	252	251	251	251	253	253	255	254	254	254	252	252	254	253	253	247	248	248	248	253	253	254	254	250	248	251	250	250	250	251	249	249	252	253	251	251	250	250	249	248	252	255	256	255	254	253	252	255	255	253	251	249	251	250	247	246	248	254	255	254	253	245	250	253	253	252	251	253	251	255	255	252	249	249	248	253	253	245	251	258	259	259	258	257	256	250	248	251	251	251	252	253	255	254	254	257	260	261	255	254	254	256	254	255	255	255	256	254	253	252	254	253	257	251	251	252	255	256	250	250	250	250	249	250	250	248	250	250	253	252	251	251	249	249	250	250	253	250	255	252	249	253	253	254	259	259	255	252	252	252	251	251	250	249	248	251	252	253	252	257	254	256	254	252	252	251	250	252	252	251	251	251	251	252	252	252	253	249	252	254	254	251	250	251	252	250	248	252	252	249	251	254	252	251	249	247	246	245	245	247	249	250	252	249	248	248	248	248	250	249	252	254	252	253	253	254	256	254	253	253	254	253	253	253	255	256	256	254	253	255	255	255	254	255	253	253	249	252	252	252	249	249	252	253	255	255	254	254	253	252	251	251	250	248	248	248	248	249	252	251	251	254	252	251	250	249	249	251	252	251	249	248	248	249	253	254	254	250	248	249	249	248	251	251	247	249	247	246	251	252	252	253	253	253	253	253	253	253	253	253	249	250	250	250	250	249	249	250	250	249	251	252	252	253	249	249	249	250	250	250	248	246	244	245	247	247	248	250	253	254	254	249	249	250	249	248	250	251	249	247	244	244	246	247	248	249	254	251	249	251	253	253	252	252	247	246	245	245	250	250	249	245	243	249	251	252	253	252	252	249	248	249	246	244	249	250	248	247	246	246	244	245	247	246	243	244	244	248	249	248	245	246	248	248	249	247	245	245	246	250	248	246	241	241	247	243	243	246	245	247	249	250	251	252	252	250	244	241	245	250	249	248	245	246	246	244	244	243	243	246	245	242	241	245	247	247	246	245	250	247	243	245	245	246	246	246	245	242	242	243	246	246	246	246	245	243	243	243	243	242	242	242	245	244	250	247	248	246	245	242	249	241	240	245	246	251	246	246	246	245	244	242	244	247	248	250	250	250	248	245	246	246	249	246	247	243	245	248	250	248	242	244	244	246	246	247	246	246	246	246	245	246	244	247	246	245	245	244	244	249	248	245	244	0	0	0	0	0	0
249	252	252	257	259	255	255	253	250	245	246	246	249	252	251	253	250	250	250	249	249	249	249	252	253	251	250	250	250	249	249	252	254	254	252	252	250	250	250	251	253	249	249	247	250	253	258	258	256	254	254	253	253	253	254	254	254	254	250	247	247	253	255	253	250	249	249	251	251	252	251	249	249	248	248	251	253	252	250	247	246	245	247	249	250	249	250	252	252	254	255	257	253	249	246	249	250	254	254	253	253	252	250	251	252	251	249	249	248	249	248	247	250	250	250	250	249	250	250	253	252	252	250	252	248	247	248	247	248	247	249	254	255	252	246	247	249	248	247	249	246	247	247	246	248	249	250	251	251	250	249	250	249	247	247	246	251	248	253	252	252	248	250	248	248	247	246	250	253	253	253	252	253	245	247	250	250	251	252	249	251	252	248	246	244	249	245	245	250	250	250	253	253	253	251	251	250	247	248	250	250	249	250	251	252	253	253	255	252	253	256	257	253	252	254	253	254	253	252	248	250	252	255	252	249	249	252	254	255	249	248	248	248	248	248	249	248	249	251	251	250	250	250	250	250	255	250	249	249	248	250	253	249	254	252	252	254	254	253	253	251	251	249	248	249	248	251	252	253	250	250	251	253	250	250	249	249	249	247	249	248	249	250	251	251	252	251	252	249	248	250	251	249	247	246	248	248	249	244	242	244	247	250	252	251	249	248	247	247	245	247	246	245	245	250	250	251	250	251	247	250	253	255	254	249	251	253	252	253	253	253	250	249	248	249	252	253	254	254	251	248	248	249	248	245	246	250	250	251	248	247	247	247	251	252	251	254	252	251	247	250	252	252	249	249	246	247	247	246	247	250	254	254	251	250	249	249	249	251	252	250	249	250	248	248	248	248	248	250	251	249	247	248	250	249	250	248	247	247	250	252	250	251	252	252	252	253	252	252	252	249	248	245	246	248	246	246	248	248	248	248	248	251	251	249	249	246	247	248	248	248	247	245	243	244	244	246	247	245	253	251	253	247	247	246	243	247	247	243	248	245	243	243	244	244	245	248	248	247	246	249	252	255	254	251	246	245	244	244	246	249	245	242	243	244	247	251	246	247	249	247	247	247	246	247	247	253	252	251	248	247	246	247	243	245	251	251	247	246	246	246	248	246	244	246	245	245	244	247	248	249	246	246	240	240	240	246	241	243	244	245	248	246	247	249	249	245	242	241	244	244	247	247	245	244	244	244	244	243	242	243	243	241	240	245	246	246	242	242	245	245	241	242	241	243	243	243	244	241	241	241	240	238	239	244	238	238	243	241	241	240	239	239	242	245	249	247	245	245	244	241	244	241	240	239	240	246	243	243	243	243	243	243	244	246	247	247	249	249	249	246	244	248	246	246	245	243	246	248	250	247	242	242	242	242	246	245	246	244	243	244	244	241	244	242	240	240	240	241	243	244	243	244	242	0	0	0	0	0	0
246	251	251	256	251	246	244	244	244	242	244	246	246	247	250	252	249	249	250	250	250	252	252	252	253	251	249	247	247	247	247	251	253	255	252	252	251	249	248	249	250	246	246	246	246	249	250	249	248	248	251	251	250	250	249	248	247	248	247	252	252	253	252	249	247	248	248	250	251	251	250	248	248	248	247	246	245	246	249	247	245	245	245	245	249	247	249	249	249	249	251	255	251	248	246	248	250	251	250	249	251	248	249	250	250	250	249	246	246	248	247	246	247	248	248	248	248	247	247	248	248	247	247	247	248	249	249	249	251	250	249	250	252	249	246	246	248	247	246	246	244	243	242	244	246	246	246	248	250	247	247	252	251	248	246	245	245	251	247	247	247	249	251	250	249	250	251	252	252	249	247	247	247	246	245	250	251	250	251	245	247	249	242	243	244	245	246	246	247	249	250	250	251	250	247	246	247	249	248	251	251	247	248	253	254	248	248	246	245	251	251	247	249	251	251	251	251	250	244	247	247	250	251	249	245	246	249	252	247	249	247	247	248	248	246	247	248	247	251	250	250	246	245	246	246	248	249	249	248	248	243	250	245	247	247	246	251	252	251	252	248	251	249	246	250	251	252	251	250	250	251	250	250	249	248	248	248	245	245	246	246	246	249	250	249	251	248	249	250	248	249	249	248	245	244	246	247	245	244	245	246	251	248	252	251	250	248	247	247	247	247	246	244	243	242	247	251	250	250	249	248	249	248	248	248	250	252	253	251	250	250	248	249	248	249	249	252	252	252	247	245	246	246	245	243	244	249	250	251	249	248	246	246	251	249	249	248	248	249	245	245	247	250	251	251	248	247	247	244	246	251	253	250	246	247	248	248	248	249	251	251	247	248	248	248	248	247	247	249	250	248	248	246	247	247	247	247	246	248	248	249	249	249	250	251	251	251	251	251	250	248	246	245	244	243	246	245	247	247	250	249	247	247	250	247	248	245	247	246	245	245	243	243	243	244	245	247	248	247	244	250	246	244	244	242	241	243	242	242	241	243	243	242	243	242	245	248	249	248	246	249	251	255	255	248	242	241	243	244	246	244	240	239	241	245	244	244	245	246	246	245	243	245	244	242	245	247	245	246	246	244	243	246	241	242	244	244	251	250	247	246	244	245	246	244	243	243	245	248	250	250	247	245	242	239	239	240	240	243	244	245	245	245	245	246	245	244	242	240	239	242	243	242	245	244	243	243	240	237	241	243	240	238	238	242	245	245	240	239	241	237	239	239	238	241	240	240	241	238	238	238	237	236	239	238	237	235	236	238	238	238	237	239	242	242	243	242	240	239	242	243	241	242	242	238	238	242	244	243	241	238	239	241	244	245	245	246	247	243	240	238	238	238	244	245	243	237	242	239	238	239	240	238	238	238	244	244	242	242	243	243	240	242	241	239	240	240	240	241	242	244	241	240	241	0	0	0	0	0	0
244	247	247	248	247	243	240	240	239	242	241	243	243	244	248	250	250	250	249	249	250	250	251	251	251	249	248	247	246	246	248	249	249	248	247	250	250	249	249	249	248	246	244	244	245	246	248	247	245	246	247	247	244	244	244	244	247	247	246	250	253	250	251	248	248	247	249	250	249	249	249	247	247	247	246	245	243	243	243	244	244	247	247	246	249	249	249	248	248	247	247	250	247	247	246	248	249	249	248	248	247	246	247	245	242	242	244	243	243	245	246	247	246	247	248	248	245	244	245	246	247	249	249	249	250	247	246	246	247	248	248	246	247	246	246	244	246	243	243	244	244	243	242	243	246	246	245	246	246	247	247	247	249	248	246	246	246	246	245	245	245	246	246	251	252	252	249	247	247	248	246	248	247	244	243	242	249	251	244	245	246	246	248	243	244	249	243	249	246	246	246	250	251	247	245	243	246	244	248	244	245	244	248	249	249	250	246	246	244	244	244	243	245	249	250	250	250	249	242	244	242	247	248	244	245	247	245	245	247	246	245	246	247	246	245	247	246	247	246	249	249	246	246	246	246	245	248	248	247	244	245	246	245	248	249	248	248	249	252	248	248	248	247	246	249	244	246	248	251	249	248	249	250	248	249	245	244	243	244	243	244	246	248	248	248	250	247	248	246	245	244	244	247	246	243	244	246	246	243	246	249	250	249	248	250	250	249	248	248	248	247	246	244	241	241	245	248	248	248	247	247	246	247	246	248	244	247	251	247	247	247	247	248	249	248	247	248	250	250	247	246	245	244	246	244	243	244	247	250	250	248	243	247	248	248	247	248	247	246	245	244	245	249	249	248	246	243	240	242	246	247	245	242	247	247	248	247	247	243	247	248	246	245	244	245	246	246	246	247	249	248	245	245	247	242	246	244	248	247	251	248	247	243	242	244	249	249	252	249	247	247	247	246	247	245	243	244	245	247	246	245	246	246	249	247	247	245	245	244	244	243	241	240	241	242	245	247	250	242	249	248	246	244	242	240	239	239	242	242	249	243	243	241	241	240	240	248	248	249	249	247	245	249	248	249	246	241	241	244	241	233	238	239	244	243	242	240	239	243	242	241	240	240	242	246	250	248	243	244	244	241	243	243	241	243	244	243	250	247	244	245	244	242	245	240	242	243	245	248	250	250	249	244	239	238	238	239	239	240	239	240	242	243	245	244	243	241	241	240	239	236	238	242	243	242	241	239	242	243	243	243	239	237	238	241	239	241	238	238	235	241	240	238	238	238	237	238	239	238	238	238	237	234	237	238	238	236	240	239	237	237	237	238	238	242	236	236	239	237	237	236	237	237	236	236	237	241	240	236	234	237	239	241	244	244	243	240	236	236	235	232	235	237	244	243	243	237	238	238	239	240	239	236	236	237	241	240	241	241	242	240	236	236	237	236	236	236	236	238	238	238	239	238	238	0	0	0	0	0	0
244	247	248	248	248	245	241	241	239	239	242	241	241	242	245	247	247	247	247	249	250	249	250	250	250	246	247	247	246	248	248	249	249	247	247	249	249	249	248	248	247	245	241	246	246	246	246	245	246	247	246	243	243	244	245	245	244	243	245	247	250	246	246	245	241	246	248	250	248	247	247	246	246	246	246	244	243	243	243	243	244	245	247	247	247	248	247	241	240	244	244	244	244	244	246	246	245	247	246	247	246	245	245	242	240	240	241	241	243	246	244	245	243	243	245	244	245	244	245	242	244	244	246	248	248	248	247	247	247	247	247	245	244	245	245	245	243	243	241	243	243	242	242	243	246	245	245	246	246	245	245	246	247	247	245	244	245	245	242	242	243	243	245	245	240	239	240	243	247	247	247	245	244	244	244	245	243	243	246	247	248	246	247	243	243	243	245	243	242	242	241	242	245	244	243	243	243	244	247	244	244	243	247	247	249	247	246	245	245	244	245	246	247	246	246	247	246	244	244	240	244	241	243	244	245	247	244	244	243	242	246	247	248	247	246	245	244	244	245	244	246	246	246	245	246	246	244	245	245	242	244	243	247	247	247	244	244	245	245	245	243	244	245	245	244	245	244	244	246	248	248	250	250	249	247	246	242	240	239	242	245	247	246	245	246	248	250	248	245	247	244	244	243	243	242	243	244	246	246	248	248	247	244	247	248	248	248	247	247	247	248	247	244	242	242	247	248	248	247	247	245	245	244	244	243	244	246	242	245	246	247	243	245	245	245	244	245	244	244	245	244	243	245	246	242	242	243	241	247	245	242	242	244	244	244	246	247	245	244	244	243	243	246	249	248	246	241	239	243	244	243	245	247	245	241	242	244	244	244	246	247	247	242	246	248	245	245	244	244	247	244	244	243	242	241	243	243	247	248	250	244	247	244	244	243	246	248	250	247	242	243	246	246	244	243	240	246	246	245	241	240	238	240	243	249	244	245	244	243	241	241	240	239	241	241	241	244	237	244	245	244	243	243	239	237	236	239	245	246	246	241	239	241	239	240	240	242	248	242	242	246	245	242	244	250	247	245	244	240	235	238	239	239	239	239	238	239	238	238	238	238	239	239	241	244	240	246	237	235	237	236	236	236	239	240	236	236	232	239	241	243	244	242	242	241	241	241	241	245	241	243	244	239	239	238	238	238	239	240	239	239	239	238	240	242	241	239	240	240	236	236	234	235	234	234	234	234	240	243	242	239	238	237	241	240	235	236	237	238	238	238	235	234	233	233	235	238	239	236	233	233	232	232	235	237	237	239	238	237	237	235	236	234	236	236	235	234	235	235	235	235	235	237	235	232	231	233	237	236	234	235	239	242	239	239	234	234	233	233	233	235	232	231	237	240	234	233	234	237	238	239	238	238	238	237	237	240	238	235	234	232	232	229	227	226	226	226	231	235	236	236	236	237	237	0	0	0	0	0	0
248	247	249	249	248	245	242	239	239	239	242	241	241	241	243	244	244	245	245	248	248	247	244	246	246	246	243	247	248	248	248	248	243	245	248	249	247	247	247	247	246	241	243	244	244	240	241	245	246	246	246	241	241	244	244	244	244	242	244	245	246	246	246	245	244	249	251	252	251	248	245	244	246	246	246	246	245	245	245	245	243	243	246	246	245	245	242	240	240	241	241	241	241	241	243	247	243	245	247	248	248	247	245	244	242	242	242	242	241	243	243	243	243	243	245	245	243	242	239	240	240	240	240	242	246	245	245	241	240	240	240	241	242	243	244	244	242	243	243	243	243	246	246	244	243	243	244	245	242	243	244	244	245	245	245	242	242	242	240	240	242	243	245	241	239	238	239	242	245	246	246	244	242	242	246	243	243	243	245	246	248	248	246	245	243	241	241	244	242	243	242	242	243	243	243	244	243	244	245	244	244	243	244	243	242	240	245	243	243	244	244	245	245	246	242	241	242	240	240	240	240	241	243	244	244	241	244	243	244	243	245	245	247	248	247	244	244	242	243	244	246	244	244	244	244	246	246	246	244	242	242	243	246	244	244	244	243	244	245	242	241	241	242	242	241	244	245	242	241	245	245	246	246	247	246	239	245	247	241	239	240	242	245	245	246	248	245	243	243	243	243	243	243	243	242	245	246	247	246	245	245	245	244	246	244	244	244	243	244	246	246	247	243	242	245	246	246	247	247	245	244	243	243	244	244	246	240	243	244	246	242	243	242	244	243	243	244	243	243	242	241	242	241	244	244	243	243	240	240	242	241	239	238	240	241	240	244	244	242	242	242	242	241	239	244	242	238	238	237	238	241	245	243	242	240	240	240	241	244	245	247	245	246	248	248	248	244	243	244	240	243	242	240	242	242	243	243	243	248	245	245	245	243	243	243	246	247	244	243	242	240	240	240	240	239	242	245	245	245	241	239	238	234	236	240	242	244	241	241	241	239	240	238	239	239	243	241	240	236	243	242	240	234	234	233	236	238	245	244	245	239	239	238	240	241	242	244	238	238	233	230	239	236	236	234	236	232	232	234	238	235	235	236	238	240	238	239	237	236	236	238	238	240	244	241	243	233	232	231	237	238	239	240	236	236	234	235	234	243	248	246	234	237	239	239	236	235	235	236	237	238	238	239	239	239	238	237	239	238	238	238	237	237	237	238	239	238	238	238	235	235	235	234	233	233	234	237	238	243	239	236	236	238	238	236	235	235	237	237	239	237	233	234	234	234	234	239	239	236	236	232	230	230	233	235	235	237	238	237	236	233	236	235	235	235	234	233	235	235	234	234	235	232	230	230	232	232	237	239	236	235	234	234	234	235	234	234	233	232	233	235	231	231	236	238	231	233	233	234	236	238	237	237	236	237	237	237	234	232	232	234	232	229	229	229	226	226	230	235	236	236	235	235	231	231	0	0	0	0	0
243	246	248	248	247	245	241	240	240	244	243	241	241	241	245	246	246	245	245	243	242	242	241	240	240	243	240	240	242	245	245	246	246	244	245	247	248	248	247	246	243	244	242	238	238	237	239	244	245	244	242	241	241	241	244	244	243	243	246	247	250	246	246	247	246	245	246	240	238	239	240	239	240	241	242	242	243	244	245	241	243	241	239	238	242	239	239	239	240	240	241	240	240	240	243	242	242	243	246	246	245	246	245	244	242	242	238	240	240	239	239	241	243	243	243	243	242	239	239	240	239	239	238	238	244	241	240	240	240	239	239	237	238	239	243	241	241	242	242	241	239	239	237	243	243	242	242	240	239	241	243	243	244	244	244	244	239	237	243	239	241	244	244	244	242	239	238	240	246	246	244	242	240	241	243	241	241	242	244	246	246	246	245	239	238	239	239	242	241	241	241	242	243	242	243	243	241	239	242	243	245	243	243	241	240	240	242	243	243	243	242	242	243	243	243	241	240	238	237	239	240	241	242	244	245	242	243	244	243	243	244	245	245	246	244	244	243	244	244	244	244	245	242	243	243	244	245	244	243	241	243	243	240	241	242	243	242	243	244	243	240	243	243	242	239	242	246	245	245	244	245	245	246	246	244	242	243	243	241	238	239	240	241	243	245	243	242	242	241	240	241	241	241	238	241	243	243	244	244	243	244	244	244	242	243	242	242	241	240	241	246	244	242	242	242	244	246	246	244	241	241	241	241	241	243	242	241	243	245	240	242	242	242	242	243	242	241	242	241	241	241	240	240	241	243	240	241	241	240	238	237	237	236	235	236	238	243	243	242	242	241	238	237	243	242	241	240	236	237	237	240	241	242	241	240	239	239	239	243	242	244	244	242	245	247	247	243	243	241	239	239	242	241	241	241	244	244	243	241	240	240	241	240	239	242	245	244	240	239	239	238	239	239	239	238	241	242	242	244	242	239	238	236	236	236	239	239	239	238	240	239	239	239	238	240	240	237	234	240	243	241	243	242	240	239	236	241	240	241	239	241	237	236	237	238	239	241	236	233	231	238	236	236	234	236	235	234	232	234	233	235	233	233	236	239	238	242	238	238	239	241	242	242	242	244	241	239	231	228	231	240	240	241	237	236	235	236	237	239	239	237	234	235	235	236	235	238	238	237	237	237	237	237	235	234	234	237	237	237	238	236	236	236	236	237	237	236	236	235	237	235	235	234	233	234	239	238	237	234	233	235	235	235	236	235	236	237	239	240	240	238	238	237	233	234	238	236	235	235	235	233	230	230	234	236	235	237	237	234	233	233	231	234	235	233	233	233	233	235	234	233	233	231	230	231	232	234	234	234	232	234	233	233	234	235	234	233	232	231	230	228	233	234	235	234	230	233	226	233	234	232	232	235	235	235	236	234	234	232	231	231	234	235	234	234	231	230	229	229	231	235	233	234	235	235	0	0	0	0	0
243	244	245	243	243	241	240	242	242	245	242	241	242	245	245	245	240	238	236	236	241	242	240	238	240	240	236	238	242	243	244	244	245	244	247	248	249	249	247	244	244	242	238	237	235	235	236	237	244	243	241	241	243	243	244	244	242	241	242	245	246	245	245	245	246	243	245	239	237	237	238	238	238	240	241	241	242	243	244	240	242	238	238	235	237	236	238	239	239	240	238	238	240	240	240	240	239	237	234	237	244	243	243	244	241	239	237	237	239	238	238	238	239	240	242	240	239	238	236	239	241	240	238	236	236	240	240	240	239	239	236	234	237	237	238	239	240	241	240	239	239	238	237	235	235	236	238	237	238	237	238	240	240	241	240	238	238	238	240	243	242	242	245	243	239	239	236	237	239	239	241	240	240	241	240	240	236	240	243	243	245	242	245	237	236	236	240	239	240	241	241	238	238	237	238	238	237	238	240	241	242	241	241	242	240	242	242	242	240	242	241	240	238	236	234	235	236	238	237	236	239	239	242	241	244	244	243	242	242	241	241	242	244	242	241	243	243	242	241	240	242	239	242	243	244	245	242	241	238	236	238	242	241	239	241	240	243	243	242	241	239	243	241	244	242	245	246	241	240	241	244	243	240	240	239	240	240	243	239	236	237	238	235	237	238	237	240	239	237	238	240	237	237	238	241	243	241	242	242	243	243	244	243	243	242	241	240	237	240	238	237	243	241	242	243	241	241	241	241	243	242	244	244	240	240	239	239	241	239	238	241	241	241	241	241	241	242	241	242	241	240	240	241	239	242	239	239	237	236	235	234	233	239	235	234	237	237	241	242	240	237	238	236	236	238	238	238	237	235	237	239	239	236	239	239	241	238	241	242	243	244	242	240	241	243	241	244	241	239	239	239	241	240	241	242	244	245	244	243	240	239	238	239	237	241	242	241	240	239	239	239	239	237	236	237	239	240	240	240	239	237	237	236	236	234	235	239	237	238	237	239	240	239	240	239	238	233	232	238	246	244	242	242	239	239	239	236	242	241	236	241	235	235	235	237	238	236	237	232	233	232	238	233	232	231	230	230	231	232	235	232	232	232	234	238	238	236	231	231	235	236	237	237	236	237	238	230	230	230	230	240	239	238	237	237	236	236	236	235	234	232	232	234	234	234	234	238	238	238	237	238	237	233	231	230	231	236	234	233	232	231	231	234	234	235	234	238	237	234	234	230	232	232	233	234	234	238	239	237	231	228	227	230	231	231	235	236	239	240	242	240	238	234	233	233	232	233	235	235	234	232	230	231	235	235	236	235	235	235	234	233	232	235	234	233	232	231	231	233	236	235	233	232	228	228	233	235	235	234	231	234	234	234	233	234	233	231	229	228	228	230	230	231	225	227	227	227	233	230	231	231	231	230	230	230	232	233	230	232	231	229	227	231	231	233	232	233	229	229	227	232	233	232	232	233	0	0	0	0	0
239	240	240	240	240	238	237	241	240	240	241	241	239	248	248	243	239	237	235	235	236	239	239	237	234	234	236	235	241	242	243	243	243	243	242	241	245	241	241	239	237	237	238	239	239	239	235	236	237	239	240	240	240	241	241	241	240	240	242	243	244	239	236	235	235	237	238	237	236	236	240	239	235	238	240	241	241	241	242	240	241	239	236	236	234	236	237	238	240	241	238	238	239	239	240	240	239	236	233	234	237	241	239	238	239	236	236	237	237	238	239	238	238	239	236	230	232	232	233	239	239	240	236	236	236	236	240	238	238	239	237	237	237	237	238	237	237	237	237	237	237	237	235	234	234	236	237	238	236	237	238	240	236	237	234	236	237	238	242	242	241	241	239	242	241	237	235	235	233	233	235	236	238	239	239	238	236	234	239	241	238	238	239	238	237	235	232	233	238	238	237	237	237	238	236	236	237	238	237	238	239	241	241	241	240	239	241	240	239	239	238	236	236	235	234	234	236	236	236	235	234	236	236	240	241	242	239	240	240	239	239	240	241	240	240	242	242	240	238	240	237	238	240	243	239	241	240	240	237	236	236	239	236	238	241	240	240	241	241	238	237	239	240	241	241	241	240	238	238	238	239	240	236	237	238	239	239	242	238	237	234	233	234	237	234	236	236	238	237	237	238	237	238	239	241	242	241	240	240	240	241	242	238	243	236	240	239	235	236	235	235	236	240	240	239	239	238	239	240	242	242	243	244	241	241	241	241	241	237	236	238	241	239	242	240	241	239	240	241	238	239	238	240	240	239	238	238	236	234	234	236	238	238	240	238	238	235	240	237	239	236	237	236	237	237	236	235	235	234	236	236	236	234	236	238	240	240	241	241	241	241	237	236	238	237	238	241	239	238	239	239	239	240	241	240	244	244	245	242	239	237	237	236	238	235	236	240	240	240	239	236	236	235	234	237	239	240	238	235	233	235	235	235	234	234	234	235	236	236	235	235	236	239	239	238	236	233	232	236	244	246	237	238	241	238	238	235	236	236	234	232	234	234	238	235	232	235	230	235	230	231	231	234	235	237	232	231	231	236	231	228	235	235	233	232	228	234	231	232	235	237	237	237	235	236	236	237	229	229	232	233	236	237	238	237	236	235	236	235	233	232	232	234	234	234	235	238	236	236	236	237	237	230	227	231	232	232	232	230	230	230	231	233	234	234	237	236	237	237	237	233	234	232	233	233	233	233	230	232	230	229	231	232	231	230	230	232	231	234	234	235	235	232	231	230	231	232	234	234	232	229	229	230	229	232	229	231	233	235	234	232	233	230	234	232	231	229	229	228	235	235	233	231	231	230	229	232	233	236	235	235	231	228	230	230	231	230	229	232	232	231	231	228	226	222	222	226	226	227	229	229	229	227	228	227	226	227	227	228	229	227	227	227	231	231	233	232	229	228	226	226	229	230	230	231	0	0	0	0	0
237	237	238	236	236	235	235	237	239	239	240	238	232	235	235	240	237	235	232	234	234	235	233	233	232	232	231	232	237	241	242	240	240	239	235	234	237	239	239	235	234	234	237	237	239	239	239	237	238	238	238	237	238	239	239	239	238	238	237	241	241	235	234	234	234	234	234	234	235	237	238	237	235	233	235	240	240	239	240	240	241	240	239	234	236	235	236	237	238	240	239	239	240	243	243	242	240	232	234	236	238	239	239	235	235	234	232	235	236	237	238	238	238	236	232	235	235	234	232	234	236	236	235	235	235	235	236	237	238	238	236	236	236	236	237	237	229	230	232	235	235	235	233	231	233	234	235	236	236	236	238	236	235	234	233	236	235	236	240	239	239	239	238	238	240	239	232	232	232	235	232	236	238	238	237	237	235	235	234	236	239	239	240	237	235	233	231	233	231	233	233	236	237	238	236	236	236	237	236	237	234	234	235	244	243	241	241	239	239	238	238	236	236	235	233	233	235	237	234	233	232	229	230	232	240	240	237	240	239	238	236	237	238	238	238	238	238	236	236	235	236	237	241	240	238	240	239	239	236	234	235	235	236	238	240	241	241	239	238	237	238	238	236	238	240	239	238	237	236	236	238	238	234	233	235	237	237	239	237	239	238	233	229	231	234	238	236	236	235	234	236	240	238	239	240	240	237	239	239	241	238	239	238	236	237	238	235	232	233	233	234	236	235	237	240	237	237	238	234	234	236	236	236	236	238	237	238	238	236	233	237	238	240	240	240	241	238	239	238	237	239	237	238	237	237	238	237	235	235	234	237	237	238	231	236	238	235	235	236	236	236	235	235	237	237	234	233	232	232	234	234	232	232	233	236	240	240	239	237	234	241	236	235	237	236	238	240	238	238	238	237	233	233	240	237	238	241	240	240	237	235	235	235	233	235	233	236	238	238	235	235	235	235	234	234	237	238	238	234	231	234	235	237	237	235	235	235	234	235	235	232	235	237	238	237	236	235	235	236	238	245	243	236	234	234	235	231	232	233	235	238	236	239	235	238	232	234	232	231	231	230	230	233	232	232	233	230	231	230	229	234	229	232	233	230	227	227	231	235	238	238	235	237	237	236	237	233	227	229	229	229	231	234	236	235	234	233	233	233	232	231	231	232	232	232	234	235	235	235	235	235	233	230	227	232	232	234	232	231	230	228	229	229	233	233	233	234	235	236	235	233	234	234	234	232	230	231	232	231	230	230	229	233	234	228	228	232	232	232	231	231	229	229	228	228	231	232	233	233	231	230	229	227	227	230	229	230	230	228	227	232	232	229	232	232	231	230	226	225	225	224	228	231	231	232	231	232	228	231	231	232	228	228	228	228	228	229	233	233	232	229	228	229	225	222	221	226	225	225	227	229	232	226	225	225	224	223	224	227	226	226	228	228	227	230	230	231	229	228	225	226	226	226	229	225	0	0	0	0	0
234	236	236	234	234	234	236	238	240	239	239	235	232	233	234	234	233	231	231	233	233	233	232	231	231	229	229	231	236	240	242	237	237	234	233	233	237	234	233	233	233	234	236	236	240	241	241	235	235	238	237	237	236	237	238	238	237	236	232	232	234	234	234	234	233	233	234	234	235	238	236	232	231	234	235	233	237	237	237	234	235	238	235	234	236	235	234	234	235	236	238	241	243	242	242	242	238	235	236	236	237	238	236	234	233	231	231	233	235	237	237	236	235	232	235	237	237	233	234	229	230	235	235	233	233	233	236	239	238	237	234	234	235	235	235	228	228	229	229	230	232	233	230	230	233	233	234	235	238	233	233	235	237	234	232	234	234	232	234	237	237	236	236	237	233	231	229	231	232	237	238	238	238	238	237	236	235	233	234	234	236	238	240	239	233	233	231	232	233	233	235	236	237	236	237	235	237	236	233	232	232	232	233	235	243	242	236	236	238	237	235	235	234	234	235	236	236	236	234	233	233	232	230	234	237	239	241	243	241	237	236	235	237	236	238	236	236	237	234	233	238	234	237	242	237	237	237	234	234	233	233	235	236	235	238	239	239	237	236	238	239	240	235	235	237	239	236	237	236	235	237	238	237	232	237	237	238	236	232	236	235	232	230	232	234	236	236	236	236	235	231	236	240	238	238	237	236	236	238	239	238	237	235	236	236	235	233	230	231	232	232	235	237	235	229	236	236	232	232	233	236	234	233	236	236	235	236	236	236	234	235	239	237	238	236	236	233	233	232	234	235	234	235	232	235	236	236	235	233	234	240	236	238	231	234	235	238	232	236	237	236	235	236	235	235	236	235	234	234	234	234	233	231	232	233	232	237	233	232	230	230	230	235	235	235	235	238	238	237	236	236	234	233	235	235	234	237	237	239	237	234	234	234	232	234	235	232	234	235	234	235	235	235	235	234	235	239	236	232	231	232	234	235	233	233	234	232	232	232	234	231	231	235	236	236	235	236	234	233	231	235	245	240	234	232	234	231	229	231	233	232	238	236	232	235	233	232	231	230	230	229	228	229	231	227	230	229	231	232	230	228	228	231	231	231	230	228	230	235	234	234	233	235	235	233	232	231	230	229	230	229	228	227	228	231	231	231	232	231	232	230	231	232	232	233	234	234	234	234	233	233	230	230	232	232	233	233	232	231	230	227	228	230	231	232	233	232	232	231	229	227	230	232	230	229	232	230	231	230	229	228	230	233	235	229	229	231	231	230	228	228	228	227	227	227	227	229	231	232	231	229	226	226	226	226	227	226	227	226	225	226	231	232	232	232	231	226	226	226	226	225	225	230	229	231	228	228	227	227	227	227	227	226	226	227	227	230	229	230	229	230	228	227	227	227	226	222	222	222	225	227	228	229	223	222	221	222	224	226	225	224	224	224	225	227	227	224	225	227	225	225	226	226	226	225	0	0	0	0	0
234	234	234	233	236	236	237	239	239	238	238	232	231	229	233	233	232	230	230	229	229	229	230	230	230	228	228	231	238	240	236	235	235	234	234	233	231	236	233	233	232	233	237	240	238	238	236	236	231	232	232	233	235	236	236	236	235	234	232	232	234	233	234	232	231	231	230	236	238	236	235	231	230	230	233	232	236	233	233	233	236	238	234	232	231	231	231	230	232	235	238	241	241	241	237	236	236	235	236	236	237	234	233	231	231	230	230	233	235	237	237	233	232	232	235	235	235	233	234	230	229	235	233	234	232	231	233	235	238	236	233	233	233	231	228	228	228	229	229	231	231	231	230	230	232	233	235	237	235	233	234	235	235	235	237	235	234	231	230	228	233	234	234	234	232	230	230	230	231	237	233	239	236	237	236	235	232	232	233	231	234	238	240	230	229	232	233	234	234	234	236	236	237	235	235	235	235	235	235	232	233	233	232	235	242	241	238	236	237	232	231	229	232	230	231	236	237	237	235	234	233	233	233	232	233	237	240	243	239	240	233	234	234	234	235	236	236	235	231	233	233	235	235	236	236	236	236	234	230	230	232	233	233	235	229	231	233	231	231	231	231	233	231	230	234	238	235	236	238	236	238	239	236	241	236	237	236	231	231	232	232	232	233	234	235	235	235	237	234	232	230	232	234	233	237	238	236	235	235	236	235	235	234	234	236	232	231	231	231	229	228	233	234	230	229	234	234	235	232	234	234	233	232	234	236	232	231	233	233	234	237	236	235	236	234	234	233	231	230	230	232	231	231	231	234	235	234	232	231	233	232	236	230	233	232	233	230	234	235	236	235	235	235	237	237	237	236	234	234	233	233	233	233	231	231	232	231	228	231	230	230	233	233	235	230	231	232	234	234	234	231	232	228	234	233	234	236	237	235	232	234	233	230	230	231	235	232	233	233	234	234	234	235	235	234	235	235	235	230	229	231	232	232	231	231	231	229	230	233	231	229	231	233	234	233	231	232	232	231	230	231	232	230	226	227	229	228	228	229	229	226	226	233	231	233	232	231	231	230	229	230	230	233	231	226	227	228	231	233	232	229	228	228	231	230	230	229	229	229	227	227	228	227	228	227	225	225	228	229	229	230	227	227	228	229	231	230	230	231	231	230	231	232	232	234	231	230	230	227	226	231	231	232	230	230	230	228	231	229	229	228	228	229	231	232	232	232	229	228	227	228	226	227	230	229	231	230	230	231	229	229	230	233	232	230	231	232	230	230	226	226	224	226	227	226	226	227	226	224	226	226	225	225	226	225	224	228	226	226	225	225	226	231	231	230	227	224	226	225	226	227	226	225	227	227	226	227	227	227	224	223	225	224	225	226	226	225	225	228	228	226	225	225	225	221	223	223	223	223	223	224	226	227	223	222	221	223	225	225	222	221	221	224	220	226	227	226	223	228	226	222	222	224	224	227	0	0	0	0	0
234	227	231	232	236	236	239	240	238	237	237	229	229	229	231	231	231	232	230	229	230	230	230	230	227	227	230	230	233	237	234	233	233	233	233	232	227	228	229	235	235	234	236	240	233	234	232	232	231	232	231	232	233	234	230	230	230	233	233	232	233	234	233	231	231	233	233	236	237	236	233	227	225	230	232	232	232	231	231	228	228	231	230	230	231	233	232	231	230	231	235	236	235	235	236	233	233	233	232	232	232	233	230	228	229	227	234	236	236	236	232	231	231	230	233	234	234	233	232	231	229	228	230	225	230	230	229	231	234	231	231	230	230	229	228	228	229	230	230	229	231	230	228	229	229	230	229	232	234	236	235	235	235	235	236	235	233	230	231	231	232	233	234	233	232	229	229	230	231	233	233	231	232	234	235	232	231	230	230	230	232	238	239	230	229	228	231	234	234	238	239	237	232	232	232	234	233	233	234	234	236	236	237	237	239	240	248	241	232	230	231	230	229	229	231	235	236	236	237	235	233	233	231	231	234	234	234	238	239	233	232	232	233	231	230	234	235	235	235	234	233	233	234	234	234	234	233	229	227	228	229	231	231	230	231	230	230	230	230	230	230	229	229	229	232	233	234	235	233	233	233	234	236	236	237	235	231	230	230	232	233	233	233	234	232	228	231	232	232	232	230	228	228	233	232	231	230	230	228	233	232	235	233	234	231	232	233	232	232	231	230	234	232	230	230	231	232	231	231	232	231	229	228	234	235	232	229	229	229	233	235	236	233	231	233	233	232	231	229	230	230	230	230	231	232	234	234	232	231	233	234	233	232	231	231	232	230	231	232	232	233	234	235	235	237	233	231	234	231	232	233	233	233	233	230	231	231	230	229	230	236	236	234	234	230	231	231	232	232	232	231	229	229	228	228	230	232	233	234	233	231	230	230	230	229	231	231	232	233	233	233	234	234	235	234	234	234	232	231	229	231	231	230	230	230	228	228	232	231	233	227	230	230	230	228	229	230	229	230	230	229	229	227	225	225	226	230	228	229	227	228	227	231	233	228	228	227	226	226	228	231	231	227	226	226	226	228	231	231	232	231	229	228	228	229	229	228	230	229	228	227	226	229	229	227	227	225	226	229	230	230	232	231	231	229	230	230	229	229	229	229	228	226	229	230	228	221	223	231	227	230	230	231	230	229	229	227	227	224	225	223	225	228	229	229	231	227	226	225	227	227	227	224	226	226	229	230	229	230	229	228	229	229	230	229	229	230	231	230	227	224	224	225	225	227	227	226	225	222	224	226	225	226	224	223	223	222	222	226	224	222	222	223	223	223	224	225	226	225	224	223	221	223	223	225	224	224	223	222	222	221	223	224	224	226	225	222	221	222	224	224	224	224	222	221	221	220	220	219	220	224	222	224	223	222	222	222	223	222	221	221	219	219	221	224	223	227	231	228	226	222	222	224	225	225	0	0	0	0	0
227	222	227	231	232	237	237	237	237	235	229	229	228	228	224	225	225	230	231	231	232	232	232	229	228	232	234	234	227	231	231	231	232	232	232	232	229	225	227	230	230	235	236	234	230	230	231	232	232	231	231	232	234	232	232	230	230	229	230	233	234	229	228	229	231	233	233	235	232	229	226	225	229	230	232	229	228	228	230	230	229	231	227	229	231	233	232	230	232	235	233	234	233	232	234	233	232	232	232	232	232	232	229	227	226	229	228	228	230	233	227	227	229	230	231	233	232	231	231	230	229	228	229	228	227	227	226	224	227	228	231	231	231	230	229	228	229	229	229	228	229	230	230	229	228	229	228	229	230	230	235	235	234	233	232	234	233	229	230	229	230	233	233	232	232	229	230	230	231	232	230	231	230	231	231	229	229	228	229	231	233	235	236	229	229	229	228	229	230	231	231	231	229	230	230	233	234	235	235	234	234	232	231	229	236	238	239	232	228	232	233	233	231	231	232	233	233	233	233	234	232	232	231	228	231	234	235	234	232	231	231	230	232	232	231	234	228	229	229	230	231	232	232	233	234	233	233	230	225	225	226	231	230	229	230	229	227	228	230	233	233	233	230	229	232	233	234	227	228	231	231	232	234	235	234	231	231	229	230	233	233	232	233	233	232	227	230	231	231	230	229	228	228	230	230	229	231	230	229	231	231	231	231	229	231	230	230	233	234	233	234	232	232	231	231	231	231	230	230	230	228	227	229	233	231	229	228	228	229	230	232	234	234	232	232	232	232	231	229	228	230	230	230	229	230	229	229	231	232	233	233	233	230	231	230	228	228	230	231	228	228	231	234	234	237	232	231	231	231	231	230	232	232	232	231	228	230	231	230	229	231	233	233	231	233	230	231	231	229	230	230	227	225	228	229	231	233	235	234	233	232	231	231	229	230	230	229	231	231	234	232	232	232	233	233	233	234	231	230	229	230	231	231	230	228	226	226	231	232	231	231	227	227	227	225	227	224	229	231	232	225	223	221	221	224	225	226	227	229	228	226	231	230	228	227	226	225	226	227	225	226	226	226	225	230	225	228	227	231	231	231	228	228	232	229	231	227	229	229	228	227	226	227	229	227	227	226	225	227	229	230	230	229	226	230	227	228	227	228	229	228	228	225	227	231	227	224	223	226	225	225	228	228	226	226	225	224	222	221	222	223	226	225	225	225	225	225	224	224	224	227	229	229	226	225	225	228	229	228	229	227	226	226	227	227	233	232	231	228	224	224	224	225	225	225	226	224	222	220	224	225	226	227	223	223	222	222	222	222	223	224	224	222	220	219	219	223	223	223	222	221	221	221	221	223	223	222	223	222	222	221	222	222	223	223	223	220	220	220	220	222	224	222	221	221	220	220	220	220	219	221	221	222	222	222	221	222	222	220	219	219	219	217	220	222	222	223	223	223	225	225	222	224	223	223	0	0	0	0	0
222	227	229	230	229	231	231	232	230	229	230	230	228	227	224	222	222	228	230	233	235	233	233	230	230	229	227	227	227	227	229	228	229	231	231	231	229	227	226	230	231	231	234	230	228	230	232	233	233	234	234	234	232	233	230	230	231	231	230	230	230	228	228	227	233	234	235	235	232	232	231	230	229	230	226	226	225	229	230	230	230	229	225	227	230	233	233	233	234	232	231	231	231	232	233	233	233	231	229	229	231	232	230	226	228	227	227	227	227	225	224	226	227	230	229	229	227	228	228	229	227	225	226	228	227	225	223	225	226	227	228	230	229	228	228	227	229	229	226	226	227	228	229	228	228	226	229	228	229	230	231	234	233	233	232	229	228	230	228	229	227	229	231	231	231	228	227	228	227	229	229	230	229	229	229	228	227	227	228	228	233	234	234	232	228	229	227	229	230	231	231	230	229	228	230	233	233	233	232	230	230	227	224	225	226	229	230	229	227	232	232	231	230	229	229	229	229	227	231	230	235	231	229	233	234	232	233	234	234	231	230	231	234	231	232	231	229	228	227	227	228	226	231	233	233	232	231	230	225	225	227	230	230	228	228	228	227	226	229	231	233	233	230	232	232	232	231	229	225	226	228	229	231	231	231	231	231	228	232	233	233	232	231	229	232	225	230	226	232	229	230	229	227	229	229	231	231	231	231	232	231	231	230	229	228	228	229	231	231	230	231	231	231	231	230	229	228	228	230	230	228	227	228	229	228	227	226	228	228	229	231	233	233	231	231	231	231	232	229	228	229	230	228	228	229	224	228	231	234	231	229	229	230	229	230	231	230	231	229	228	228	229	232	233	234	232	231	231	231	231	231	230	232	231	230	228	229	228	228	229	230	230	230	231	228	233	227	229	228	228	228	226	224	224	227	229	230	229	228	232	231	229	229	229	231	229	228	227	226	227	227	225	229	230	231	231	230	228	228	228	230	231	231	230	228	228	226	225	229	231	225	224	223	220	220	220	220	219	220	225	226	226	223	219	222	227	227	225	229	232	229	231	231	230	228	227	225	225	227	227	227	226	226	225	225	224	225	228	228	229	229	226	230	225	225	228	226	226	226	228	228	227	227	227	227	226	226	227	226	227	228	228	227	225	225	226	225	226	228	227	225	226	225	224	224	225	226	225	225	225	226	228	226	225	228	224	224	220	221	220	224	223	222	223	223	224	225	225	225	224	226	223	226	223	223	224	222	227	227	223	223	225	225	225	227	227	225	224	225	223	222	221	222	223	223	221	219	219	217	219	223	225	225	225	223	222	222	224	224	222	224	222	221	218	220	220	220	220	222	222	221	219	219	219	219	221	221	221	223	222	222	222	222	222	222	221	219	219	219	219	222	221	217	218	221	221	221	220	219	219	219	220	221	220	222	219	219	219	220	220	218	218	218	217	219	220	220	218	218	222	222	220	223	219	218	0	0	0	0	0
223	229	229	229	228	228	229	229	228	228	223	223	223	223	222	220	226	226	230	234	232	228	228	226	226	225	225	226	226	227	225	224	225	227	227	226	228	227	225	229	230	230	231	228	227	229	231	234	235	235	233	232	231	231	230	232	230	230	231	230	230	226	227	227	227	228	229	229	231	230	230	229	227	225	226	226	228	229	228	226	226	225	224	226	229	231	233	234	233	234	228	228	230	232	233	232	232	229	228	229	229	230	230	228	228	227	226	226	225	223	224	225	228	230	230	227	227	227	228	228	227	226	225	226	225	223	220	222	224	226	228	229	228	228	227	228	228	228	227	225	225	226	225	225	226	226	228	228	229	229	230	231	232	232	230	229	227	225	225	226	227	226	226	226	226	226	226	224	227	227	228	228	229	229	228	228	228	227	227	230	232	234	232	231	227	228	229	229	231	230	231	230	228	227	228	226	230	227	227	231	229	227	225	225	226	227	229	229	227	232	232	231	230	227	226	227	229	226	226	227	231	230	232	233	233	231	230	231	232	232	232	230	229	227	229	229	229	227	227	228	228	226	228	231	227	227	226	229	227	229	227	230	228	229	230	229	227	226	225	226	227	226	229	230	231	230	230	228	225	225	229	228	228	228	230	230	230	228	228	228	232	230	229	228	228	228	225	224	229	230	225	220	223	226	230	229	230	230	232	232	230	230	229	228	228	228	229	229	228	230	230	231	230	231	230	229	228	227	226	229	230	229	227	227	226	225	227	230	231	232	232	231	231	226	226	227	230	230	231	230	230	231	230	229	227	224	225	225	226	227	230	231	230	230	229	230	230	227	225	227	228	229	230	230	230	230	229	228	227	227	230	230	230	229	230	229	228	228	228	228	227	226	226	222	222	228	227	226	227	228	225	226	225	226	227	228	228	228	225	226	230	228	228	230	230	228	227	226	224	226	225	224	226	227	228	228	228	227	228	229	230	230	231	228	227	227	227	228	227	224	223	224	223	225	223	220	219	222	222	226	227	226	223	223	222	223	224	226	227	230	229	228	230	232	229	227	225	225	227	227	227	229	229	229	224	225	231	226	225	226	224	225	229	224	224	222	221	220	220	225	227	228	228	228	226	226	227	227	227	227	227	227	225	226	224	223	223	222	223	223	222	222	222	222	225	225	224	224	225	224	226	227	226	225	225	225	224	222	219	223	222	221	220	219	220	222	224	225	222	222	222	221	222	222	224	223	222	222	221	221	218	223	224	224	222	224	224	222	222	222	222	221	220	220	220	218	217	218	219	219	218	222	224	223	221	220	220	221	225	226	222	222	221	220	220	219	218	219	221	223	221	221	221	219	217	217	217	221	223	221	222	224	224	221	222	220	220	218	219	220	219	220	216	213	217	217	217	216	219	219	218	219	219	220	221	219	219	217	217	220	218	218	217	218	218	218	217	217	218	218	217	217	218	217	214	0	0	0	0	0
