336	334	335	335	334	336	339	340	340	339	340	335	332	332	333	336	336	341	341	341	343	346	348	347	344	344	342	338	338	341	344	346	346	346	346	344	342	341	339	339	338	338	342	343	342	341	341	341	341	341	339	334	332	337	340	342	342	339	337	337	335	336	334	332	334	334	335	335	334	327	329	330	330	329	330	331	331	329	330	330	331	330	329	327	326	325	323	328	329	331	333	335	335	330	327	331	331	333	334	332	331	331	333	334	334	330	330	331	332	331	332	334	334	334	333	333	332	331	332	334	330	324	323	322	322	322	328	329	324	323	320	322	324	325	324	322	323	324	326	326	326	327	325	326	326	327	325	321	319	317	320	328	325	332	330	329	325	333	332	328	330	329	328	325	324	320	322	326	329	327	329	333	328	326	327	325	322	323	321	320	324	326	326	326	326	325	325	326	327	326	326	328	328	328	329	330	331	325	326	325	323	324	323	323	323	324	327	327	325	323	324	319	321	323	326	327	327	321	319	319	320	321	325	323	321	322	324	329	330	338	336	331	324	324	325	323	320	320	322	326	328	327	327	326	328	327	328	324	321	321	321	321	321	320	319	320	321	322	321	322	324	320	317	316	315	318	318	317	316	315	319	323	325	328	328	327	327	324	319	317	315	313	315	319	323	323	322	322	323	323	323	319	320	316	319	320	321	323	326	327	324	321	320	317	314	313	316	317	319	321	321	318	318	318	319	323	322	321	318	320	323	326	325	319	313	316	321	324	325	324	323	319	319	316	317	316	317	312	312	316	318	322	317	318	318	318	317	317	318	318	316	323	320	314	313	315	315	318	317	318	309	314	314	313	313	316	317	324	326	330	321	319	325	326	324	322	324	319	328	329	328	322	321	320	321	320	318	319	320	319	317	317	319	314	314	318	321	321	321	322	325	322	320	321	321	324	327	325	326	321	321	319	319	319	320	319	322	321	318	318	322	321	321	322	321	324	323	324	321	322	323	323	322	322	322	320	318	314	312	313	315	315	310	308	309	313	316	321	318	317	326	327	326	328	329	322	315	322	321	320	317	315	316	312	309	311	310	311	318	319	320	316	316	321	323	322	320	320	319	316	315	314	320	325	321	319	320	319	318	315	310	313	312	309	316	319	322	321	320	316	313	311	317	320	320	321	322	322	321	323	326	321	319	316	312	309	310	311	311	312	314	318	319	318	316	317	315	315	314	314	315	316	316	316	316	316	319	316	312	313	318	321	326	321	318	318	320	320	320	318	321	323	321	320	321	325	324	322	320	322	322	315	312	308	305	306	309	315	318	321	320	323	323	322	316	313	313	314	314	318	318	323	324	323	326	323	321	321	321	322	324	326	324	322	319	314	315	321	323	326	328	323	322	324	322	321	320	318	317	320	320	318	316	314	314	312	313	323	323	324	322	319	320	323	324	327	328	327	327	325	324	320	323	0	0	0	0	0	0	0
331	332	331	331	330	331	334	333	333	332	332	332	332	331	331	331	334	339	333	333	335	339	341	340	335	334	334	334	334	338	341	342	342	339	337	337	340	340	338	338	331	332	336	339	340	339	339	337	336	336	333	332	330	329	329	332	336	337	337	337	336	335	334	333	332	332	334	333	326	329	329	325	325	324	325	324	322	322	323	325	329	330	328	328	330	329	327	327	328	328	327	330	331	327	325	324	321	321	320	323	323	320	320	321	319	323	325	328	329	328	330	332	334	334	329	325	326	326	326	326	321	324	325	325	322	323	326	326	318	317	314	320	320	320	321	322	322	322	323	326	326	328	328	325	326	321	321	321	320	314	316	319	315	322	322	321	319	321	319	316	318	325	325	323	319	319	319	321	325	325	324	321	321	320	321	323	321	321	321	321	322	321	321	318	315	315	325	328	325	322	320	319	319	318	320	320	320	322	322	322	321	320	320	320	320	320	321	321	321	320	318	317	320	320	322	321	319	319	319	317	317	318	318	317	317	319	322	327	327	321	319	316	317	320	320	318	316	316	317	321	321	323	320	314	314	313	325	322	321	321	321	320	318	318	316	316	317	315	319	318	319	317	316	315	315	317	317	315	311	313	316	323	317	312	313	313	320	318	316	312	312	315	318	319	320	318	321	322	322	323	323	322	320	315	316	317	317	318	321	323	324	320	316	316	314	313	316	316	316	318	318	319	316	317	318	322	321	313	310	315	317	322	323	316	313	311	312	314	317	318	319	317	317	316	316	316	313	310	309	311	313	314	315	315	315	314	314	314	317	319	319	317	315	309	307	314	314	312	306	306	311	312	314	313	310	310	316	319	318	318	324	327	325	325	323	320	314	315	318	321	320	321	319	319	316	316	316	316	315	319	317	315	313	313	315	316	318	319	318	316	319	319	317	315	316	319	319	320	319	318	314	311	313	318	318	317	317	315	313	315	317	318	320	320	320	320	321	319	320	322	319	318	317	318	320	319	315	311	312	312	315	318	317	313	311	313	315	314	314	317	324	327	326	326	312	312	316	314	313	314	313	313	312	310	308	305	307	313	316	317	313	312	315	318	319	313	312	312	312	312	310	310	311	312	316	317	317	314	312	311	309	312	311	310	312	315	315	317	317	314	313	309	311	314	318	319	319	319	318	318	320	318	315	314	310	309	309	309	309	309	310	313	313	312	312	313	314	314	311	312	311	313	313	314	313	307	309	312	310	313	317	319	319	320	318	317	317	316	315	314	317	321	316	314	312	310	309	307	312	315	315	314	312	310	305	304	304	318	318	317	314	312	308	303	304	309	308	307	306	307	315	316	314	314	318	317	317	315	316	320	324	323	322	320	317	311	311	315	316	319	318	316	316	317	322	322	320	315	312	317	318	317	315	315	313	313	313	316	318	318	319	317	318	319	321	320	325	325	322	322	321	317	314	0	0	0	0	0	0	0
323	324	325	325	322	321	319	323	327	327	329	328	327	328	328	330	333	334	325	325	325	329	331	331	331	329	329	325	326	329	331	331	329	329	325	323	326	330	329	331	323	328	331	332	333	334	333	333	330	330	328	327	327	326	325	325	325	331	336	336	336	335	334	331	331	331	332	330	325	325	324	321	319	319	317	317	317	319	322	323	324	327	331	331	329	329	329	323	323	323	326	326	327	324	324	320	319	320	320	322	321	318	320	321	321	322	324	325	327	325	328	329	327	319	319	320	319	319	318	319	321	322	325	326	322	322	322	316	309	312	314	319	320	320	321	321	320	321	321	322	323	326	326	322	318	318	319	320	313	311	310	311	313	313	314	320	319	319	317	316	314	314	316	320	318	318	320	321	325	321	318	318	317	317	317	316	320	323	324	323	319	318	317	313	319	322	320	318	316	317	315	314	312	313	317	317	318	319	320	318	318	316	316	316	317	317	318	320	317	318	316	312	318	319	316	315	315	315	316	317	315	314	315	315	315	313	314	325	324	323	318	316	315	318	318	316	316	313	314	316	318	320	313	309	308	306	310	312	318	320	321	319	317	315	314	314	314	313	315	315	315	313	313	313	313	313	307	311	311	310	313	312	312	312	310	309	309	311	312	311	313	315	318	318	316	316	316	319	320	322	322	322	316	316	314	312	313	314	318	320	322	321	317	314	313	314	314	311	313	316	318	317	316	315	317	315	310	309	310	312	313	313	311	311	312	311	311	311	310	309	309	310	315	317	321	315	313	310	306	311	310	314	314	312	311	310	312	311	311	310	310	310	310	308	312	313	312	309	305	306	309	311	311	309	306	307	307	318	315	319	323	312	325	323	319	315	313	311	312	314	315	316	318	317	317	316	315	314	312	312	316	315	313	313	314	318	317	317	314	314	312	310	309	309	313	316	317	317	317	314	310	309	309	313	314	311	312	313	312	312	314	317	319	317	318	319	318	311	316	315	311	311	311	314	313	315	311	311	311	313	314	315	317	315	315	315	315	314	315	316	317	316	313	311	309	312	314	313	311	311	312	312	311	308	309	306	308	312	316	315	311	312	315	310	311	309	303	303	307	308	306	307	309	311	311	311	309	310	309	310	310	310	312	309	308	311	314	316	315	313	312	310	310	310	309	310	312	313	315	317	312	310	312	312	312	309	306	304	308	308	308	308	310	309	309	311	312	312	310	309	309	310	310	306	304	305	307	303	310	312	308	315	315	316	316	316	317	319	315	313	310	310	310	309	309	309	308	304	304	308	310	311	312	310	307	303	303	309	309	308	309	307	305	307	307	307	307	304	303	305	312	310	312	314	313	310	311	312	310	316	318	321	320	318	315	308	309	311	316	318	315	314	315	316	318	316	315	311	310	311	316	315	311	311	309	310	309	312	313	313	314	317	317	317	319	319	318	318	317	318	316	314	313	0	0	0	0	0	0	0
319	321	318	313	313	313	317	320	324	324	327	326	325	325	325	326	326	328	324	325	325	325	326	327	328	325	325	324	325	326	326	321	316	316	316	318	318	320	320	323	328	328	329	329	330	330	331	326	323	323	323	321	321	323	324	324	322	323	326	333	333	333	331	324	322	324	327	322	322	318	320	319	319	319	318	316	317	317	318	319	320	321	321	321	321	320	319	317	316	318	320	323	324	324	322	321	319	321	320	320	318	315	316	319	320	321	322	322	323	323	326	326	323	317	316	316	315	315	316	312	318	322	321	315	313	313	310	308	309	313	314	313	313	317	317	314	314	312	314	314	316	319	322	320	317	316	318	319	309	308	309	310	310	311	311	312	319	318	317	314	308	308	310	320	325	323	320	319	315	313	316	315	314	314	313	312	317	320	321	321	316	313	312	313	317	320	319	316	313	312	313	314	312	310	314	313	315	316	315	314	312	311	313	313	314	314	316	316	317	317	314	310	315	307	309	309	312	314	315	313	311	310	311	312	313	310	309	310	309	318	316	315	316	315	315	315	313	312	313	318	319	316	314	308	305	304	307	310	310	307	319	318	315	311	308	310	311	312	314	313	312	309	309	308	311	306	305	306	305	307	309	310	310	309	306	308	308	310	309	309	312	314	318	316	314	313	312	311	313	319	322	320	316	316	313	309	308	310	309	309	313	316	317	316	315	313	310	309	310	315	315	315	315	314	315	314	311	309	310	309	310	308	309	310	310	309	309	308	307	304	302	299	306	315	317	316	312	307	307	310	311	314	313	311	311	310	312	312	310	306	306	307	309	310	309	306	305	307	305	303	310	311	310	306	305	306	306	309	310	312	313	309	315	317	317	314	310	308	308	309	309	310	314	315	315	316	316	314	312	313	312	314	314	312	315	317	317	315	312	310	309	309	309	309	313	314	315	315	308	307	309	307	306	307	309	310	313	313	312	309	309	314	316	315	317	317	316	306	309	306	307	307	307	309	308	311	311	311	311	311	311	311	311	310	315	316	314	314	311	311	313	313	311	309	306	309	309	309	311	309	311	311	309	309	309	309	308	311	314	313	312	309	313	308	307	305	304	303	305	305	307	307	309	307	304	302	303	307	306	304	306	306	310	308	306	308	310	312	310	310	306	307	309	309	309	310	311	311	312	312	310	309	307	307	305	305	307	307	307	307	306	306	306	305	307	309	311	311	310	308	308	304	303	306	306	307	302	307	309	311	310	305	309	310	314	315	317	318	316	312	308	305	304	300	300	301	307	304	304	302	308	308	311	309	306	300	303	306	307	306	305	305	306	307	307	308	306	306	308	305	306	308	308	312	313	306	305	309	311	310	316	318	318	313	309	308	307	309	315	315	313	313	313	314	314	313	311	309	308	308	311	310	310	307	305	300	303	307	309	309	309	307	307	306	307	317	317	316	314	314	313	313	311	0	0	0	0	0	0	0
316	317	314	313	313	312	316	318	323	323	322	322	322	324	324	321	318	321	323	324	324	324	324	325	325	323	323	323	325	323	321	317	314	314	314	314	320	323	325	327	325	325	326	326	326	327	323	319	319	318	318	313	314	315	321	322	321	322	323	323	323	321	317	315	315	316	320	313	312	313	316	317	317	317	317	316	314	315	315	315	316	316	317	317	316	319	318	316	314	315	317	320	318	322	319	321	319	318	314	314	314	312	312	316	318	318	316	318	308	312	308	310	310	311	314	313	311	311	309	306	309	318	316	311	313	312	312	312	311	315	313	310	310	311	313	311	311	309	312	314	316	317	312	314	317	318	318	307	305	312	317	316	311	307	306	304	309	308	307	311	308	310	312	318	317	316	317	315	311	308	310	312	311	311	309	310	314	313	313	317	314	310	307	310	319	319	318	314	311	310	311	312	312	311	315	312	311	308	310	310	311	313	309	309	311	313	314	314	314	311	309	307	310	306	303	303	305	312	313	308	307	306	306	311	310	310	309	307	305	305	307	309	313	313	313	312	310	307	305	308	317	314	311	309	307	308	309	307	307	307	306	318	314	311	310	306	308	309	312	310	305	305	304	303	304	304	303	301	300	305	305	307	310	306	305	308	309	309	310	302	305	306	313	313	310	307	309	309	305	307	308	310	310	311	309	309	307	309	307	310	307	307	307	309	310	310	310	308	309	312	310	314	313	311	312	312	307	306	303	303	308	307	308	308	308	307	306	306	305	302	299	301	303	305	316	316	312	309	307	310	311	311	311	306	307	313	314	322	312	309	301	302	307	310	311	309	306	306	305	306	306	307	307	309	309	312	310	309	305	305	306	310	310	311	312	313	309	309	308	308	308	307	308	313	318	317	315	312	311	309	313	312	313	312	307	309	310	312	307	308	309	311	308	311	312	312	311	301	301	302	303	303	303	306	309	313	314	317	308	305	303	301	310	312	306	305	311	310	300	301	305	305	306	305	306	308	311	311	311	308	307	307	308	308	310	315	307	308	308	303	310	312	308	305	302	304	304	300	301	304	307	307	307	306	308	308	310	309	311	310	309	305	308	307	305	304	303	303	306	309	310	311	310	303	300	298	297	303	303	303	303	304	306	307	308	308	309	303	306	304	303	305	307	307	309	307	303	302	308	307	300	305	308	305	305	301	296	305	306	304	302	303	301	301	303	305	307	310	310	308	297	301	301	304	305	307	306	303	308	307	306	305	305	306	308	311	313	313	313	309	305	301	301	299	298	298	303	302	302	302	303	308	309	308	297	299	302	305	304	304	305	305	306	307	307	304	304	307	305	305	302	302	305	309	307	305	304	304	307	310	311	312	311	307	304	303	306	307	311	311	308	308	308	310	308	305	304	304	307	306	309	304	304	302	301	297	299	303	305	301	301	303	303	304	307	311	311	311	307	305	304	304	302	0	0	0	0	0	0	0
312	313	311	310	310	313	314	318	319	319	320	319	318	317	315	315	314	319	323	323	321	321	322	321	320	315	316	316	319	322	318	312	311	312	312	316	319	322	323	324	313	313	315	316	315	315	315	316	314	311	311	311	312	315	316	315	316	316	319	318	316	316	315	313	313	314	307	308	309	309	312	315	315	313	313	313	311	312	312	311	312	312	312	312	314	316	317	314	312	312	313	314	315	314	310	312	317	313	311	309	307	307	309	311	314	316	317	312	309	307	307	306	303	304	308	308	306	302	300	301	309	313	312	311	309	309	305	305	304	308	305	305	308	309	311	311	311	310	309	310	311	312	310	301	301	303	304	305	307	311	309	308	305	302	302	310	310	309	307	307	314	316	315	309	309	314	316	312	309	307	306	308	311	308	307	307	305	304	302	307	313	309	306	311	315	317	317	312	310	308	309	310	310	310	306	304	310	310	310	310	308	308	308	307	307	308	310	310	311	309	308	305	302	301	302	301	302	305	305	303	304	303	305	308	306	307	308	308	305	304	304	304	306	309	307	309	308	307	306	305	305	308	308	308	307	307	310	311	309	308	307	307	315	311	306	305	308	308	307	300	303	304	303	303	303	303	303	300	298	302	304	306	307	306	306	307	308	308	305	303	304	306	308	310	311	307	302	302	303	305	308	307	307	307	308	307	305	307	306	308	305	305	304	306	306	304	301	299	301	305	306	305	310	309	307	304	298	300	303	302	301	308	306	307	306	305	303	303	303	304	299	300	299	301	305	310	310	309	307	307	308	307	303	302	303	303	306	308	321	312	299	300	303	310	310	311	305	305	305	307	305	307	307	309	310	311	309	309	303	305	308	307	307	307	306	307	309	308	308	309	305	306	303	303	302	311	309	308	309	306	300	306	307	305	300	299	306	302	303	310	311	311	303	302	308	307	298	297	298	298	299	305	305	306	307	307	307	304	301	301	301	300	299	299	298	301	301	300	302	301	301	303	303	302	302	300	301	302	309	305	304	305	307	306	306	307	308	309	306	303	307	310	305	302	297	297	297	298	298	302	305	297	299	303	306	306	309	308	308	305	304	301	303	304	304	302	299	297	297	300	303	304	303	303	298	297	296	297	302	302	303	303	303	302	309	307	306	303	299	303	303	304	305	306	306	303	299	297	299	295	295	296	302	303	297	294	298	300	303	302	299	301	300	299	303	304	307	308	309	300	297	301	301	304	306	306	306	302	303	303	303	301	304	304	302	304	307	310	309	303	300	297	296	295	296	295	298	300	300	299	301	296	294	295	295	298	299	302	303	304	303	302	304	304	300	300	303	303	305	303	302	298	302	305	306	304	304	303	303	302	306	305	303	301	301	301	302	306	303	305	303	302	302	307	305	303	302	303	305	306	298	298	293	292	294	296	297	297	298	301	302	300	302	305	306	305	308	308	306	304	304	304	303	0	0	0	0	0	0	0
307	305	306	311	315	315	317	319	319	318	318	317	313	311	311	311	312	316	320	318	319	319	318	317	307	305	307	307	308	309	309	311	314	316	316	316	313	310	307	310	314	315	315	315	315	313	312	311	309	310	310	310	311	314	314	309	307	310	312	313	314	314	313	311	311	309	304	303	303	305	308	310	312	310	309	309	308	308	306	306	305	303	306	308	307	307	308	309	309	308	304	307	309	308	307	311	313	313	311	309	307	307	310	310	312	308	307	306	304	304	305	304	301	302	299	303	305	307	309	306	309	311	309	305	304	303	302	301	302	303	304	303	303	305	305	303	303	300	297	301	301	301	302	301	299	306	308	308	308	307	307	306	305	303	300	304	310	309	305	306	305	309	304	304	307	306	311	312	309	306	305	306	308	307	306	298	298	301	301	303	304	304	301	308	309	309	310	310	309	308	307	301	300	298	299	302	306	309	308	306	307	304	304	304	304	304	308	309	308	306	304	303	302	300	299	300	302	303	304	302	301	303	304	305	301	302	305	306	306	303	301	302	303	303	303	301	303	305	305	304	304	303	306	308	311	309	304	300	299	300	307	307	305	301	300	301	308	303	299	299	303	303	303	303	302	301	302	300	298	301	301	304	304	302	303	303	303	305	304	305	304	305	306	307	308	306	304	302	301	304	304	300	300	304	306	305	304	305	306	304	303	303	301	302	303	300	298	297	301	304	304	302	300	298	298	299	295	296	298	299	306	306	304	303	297	296	301	301	303	304	298	298	296	298	298	302	307	307	305	306	307	303	300	296	295	295	296	299	301	306	298	300	303	305	307	305	305	305	311	309	309	307	305	302	300	298	296	295	296	301	301	301	302	303	298	299	300	301	303	301	301	302	300	300	300	301	300	299	297	294	295	298	301	294	298	297	304	301	301	303	303	297	299	302	296	294	295	296	297	302	302	305	305	302	298	300	300	299	298	298	298	298	298	298	297	297	298	301	301	299	300	301	300	299	299	298	297	299	301	304	305	299	298	299	303	303	306	300	301	298	296	303	301	297	296	296	295	297	296	296	293	294	298	302	304	303	305	305	299	298	297	294	294	294	295	299	300	299	298	299	302	300	302	302	302	301	302	298	300	303	297	297	300	300	303	305	304	304	298	303	305	303	301	302	299	298	298	295	292	291	293	291	291	293	292	294	297	299	299	298	300	298	298	300	299	297	295	300	301	297	297	299	299	300	301	301	298	303	301	305	302	300	301	300	299	297	299	300	300	298	296	293	292	295	295	294	292	290	291	294	292	291	292	292	293	295	297	299	299	300	297	298	300	299	297	299	298	301	299	298	298	296	297	299	298	295	296	302	302	300	293	294	297	297	299	300	299	298	300	300	299	299	299	303	302	301	301	301	301	298	295	295	292	292	293	295	297	300	303	301	301	300	302	304	305	305	305	305	303	301	299	304	304	0	0	0	0	0	0	0
307	301	308	310	312	312	316	319	320	318	318	314	311	307	308	308	310	314	317	309	307	307	307	307	308	307	307	307	304	307	308	308	308	309	309	306	303	301	304	309	304	303	303	304	304	303	302	302	305	308	309	309	311	312	310	307	306	308	309	310	309	309	310	309	306	302	301	301	301	302	303	304	307	306	306	306	302	300	297	299	300	301	302	302	303	303	303	306	307	303	303	304	305	307	301	302	308	310	309	307	304	308	309	312	302	304	304	303	301	299	299	300	298	295	292	300	302	304	302	302	308	308	304	299	303	301	300	301	302	303	301	298	295	299	300	300	300	300	302	303	302	301	302	302	304	307	311	310	309	307	307	306	303	303	302	305	307	307	305	303	302	301	300	299	301	302	301	300	299	300	300	302	302	301	298	299	300	299	300	301	301	301	295	296	297	299	306	308	309	307	305	301	300	299	298	304	305	306	305	306	306	302	303	298	299	301	305	304	303	302	301	300	300	299	299	299	300	300	300	300	300	302	305	299	296	297	300	302	301	302	300	296	296	301	298	300	302	300	299	303	304	305	306	309	308	306	303	300	299	299	300	300	300	296	300	302	305	307	300	299	289	290	297	298	298	299	299	299	299	299	299	303	302	303	300	298	294	299	300	303	297	293	294	302	305	297	297	298	300	302	302	297	297	294	297	298	300	300	301	301	301	301	297	295	296	294	295	295	300	302	302	301	299	297	297	295	295	294	296	299	304	302	301	295	296	295	297	299	299	298	298	295	295	295	296	299	305	302	299	298	301	297	297	297	296	295	297	300	300	296	296	298	301	302	303	297	290	293	294	296	299	302	302	303	301	299	296	294	294	299	300	298	299	295	295	298	296	296	295	294	294	296	293	296	296	291	290	295	294	293	292	292	291	295	296	294	299	297	296	297	293	296	296	296	294	292	298	300	298	300	299	300	296	293	296	298	299	299	296	295	293	294	295	296	295	295	296	299	301	302	295	294	297	298	297	297	297	297	297	299	297	295	292	293	294	299	300	295	294	298	294	294	298	297	297	296	294	295	296	296	294	294	296	300	298	300	300	299	296	291	292	293	293	292	293	295	299	296	297	299	299	297	298	298	300	301	301	295	294	293	290	288	290	291	301	303	301	299	299	301	301	300	298	292	293	292	294	294	294	293	291	288	289	288	288	290	297	296	297	296	294	293	297	297	298	297	296	300	301	292	286	289	291	290	290	288	290	294	301	301	302	295	298	296	294	294	293	293	293	295	292	290	290	289	294	291	291	291	290	291	291	291	290	291	293	295	297	298	298	294	293	294	294	297	296	295	296	293	294	295	292	291	291	292	298	297	293	298	298	297	290	290	291	295	296	295	289	289	295	299	298	298	297	300	299	299	298	299	299	294	294	293	293	292	293	293	297	301	302	297	297	300	300	302	296	296	293	302	301	298	297	295	293	0	0	0	0	0	0	0
299	300	306	308	311	311	313	315	316	314	314	310	306	304	302	304	304	307	307	302	301	301	303	306	308	309	303	301	301	304	305	303	302	302	303	303	303	302	304	306	302	301	301	299	298	299	298	299	303	305	306	306	308	307	306	305	304	308	308	305	306	307	307	307	304	303	302	299	300	299	300	301	303	304	302	299	299	296	297	297	300	301	300	298	297	299	302	305	305	302	301	304	304	304	302	301	303	303	302	302	302	300	297	299	300	300	298	297	296	295	297	298	296	295	296	299	301	301	297	295	301	302	299	297	295	300	299	300	301	304	305	304	300	296	297	298	303	306	305	304	301	301	300	302	304	308	310	310	308	305	303	303	301	300	300	301	302	305	303	302	302	299	295	295	294	295	293	293	294	294	294	294	297	300	298	297	298	301	300	297	295	291	290	290	293	297	300	301	302	301	302	300	299	300	298	296	299	298	302	303	302	301	297	294	296	297	297	299	301	299	296	295	297	299	298	295	293	294	296	296	299	300	301	299	296	292	292	294	298	299	296	294	291	291	296	298	298	298	298	298	296	295	294	302	301	303	302	296	299	298	299	298	299	297	296	298	302	305	301	291	292	291	288	293	293	298	300	298	290	289	296	296	300	300	300	299	298	293	292	292	289	291	293	296	290	294	294	296	298	300	294	293	286	294	291	297	299	300	297	293	293	290	288	290	292	294	294	297	295	295	300	299	298	297	296	296	294	295	297	299	302	300	298	295	295	294	295	297	295	293	295	295	294	295	296	298	295	299	298	294	303	296	297	296	296	296	298	299	298	292	295	299	294	299	297	295	292	294	295	293	295	297	299	301	299	298	296	294	293	296	296	297	295	295	294	295	295	294	288	289	284	290	292	295	295	291	291	294	294	294	293	293	293	294	295	294	296	294	294	294	296	293	292	287	292	287	292	294	295	297	294	292	292	292	292	294	298	296	292	292	291	292	294	294	293	295	297	299	300	299	291	291	292	295	296	297	293	294	296	297	295	292	289	291	289	289	297	295	295	294	293	294	294	294	294	293	290	289	289	291	289	292	291	293	296	299	297	296	292	291	293	294	292	290	291	292	294	295	297	297	297	297	296	292	292	294	293	293	292	292	290	289	287	287	289	293	293	294	289	288	288	287	287	289	292	293	292	290	289	286	291	286	286	288	287	288	295	295	291	289	288	288	291	295	296	292	293	291	291	287	284	286	288	289	288	287	290	292	293	297	298	291	288	289	289	289	286	289	292	293	290	287	287	288	289	291	290	290	290	291	292	291	291	292	293	294	296	295	285	283	280	284	287	289	291	296	292	293	291	291	288	288	288	290	295	289	292	285	287	290	291	290	290	291	291	288	289	290	292	298	300	299	298	296	296	295	295	295	294	294	293	293	292	291	291	291	292	300	300	297	294	292	290	290	290	291	290	291	291	292	292	291	290	0	0	0	0	0	0	0
300	300	303	307	307	307	308	309	311	308	308	305	303	301	299	302	302	305	306	298	300	301	301	302	305	306	301	301	301	299	299	299	299	298	300	300	302	303	303	301	302	300	298	298	297	296	294	297	300	302	303	302	302	303	303	304	304	306	306	304	304	306	306	306	295	292	291	293	296	297	298	298	293	293	293	295	295	295	294	297	299	299	298	297	296	296	299	301	302	303	303	302	304	304	304	304	303	304	303	301	296	295	294	293	291	291	292	292	292	291	293	294	292	293	294	296	296	296	294	290	297	300	296	294	291	298	296	297	298	304	296	296	295	293	295	297	293	293	296	295	300	299	298	298	299	302	302	303	303	302	300	296	293	293	291	297	298	295	294	295	295	292	290	290	288	286	289	291	293	294	294	294	296	295	296	294	295	298	298	296	294	292	288	287	287	296	298	297	298	298	299	296	295	298	298	297	295	296	297	300	297	297	296	294	293	296	297	297	296	292	294	291	292	291	296	296	292	293	293	294	296	296	296	296	294	290	289	288	288	292	293	292	290	291	290	289	294	295	295	296	289	291	293	293	292	295	299	293	294	295	295	295	296	297	296	295	300	299	298	293	291	291	286	289	292	293	300	296	288	286	292	297	296	300	300	301	295	288	286	290	287	288	286	285	287	288	291	293	295	292	290	289	290	294	291	297	297	295	292	289	287	290	287	287	292	295	294	292	293	290	291	295	294	297	295	293	290	290	293	292	297	299	295	294	292	288	294	294	290	290	293	294	294	294	295	295	295	296	297	296	295	296	296	298	292	293	291	295	292	289	292	287	292	292	290	293	294	295	295	292	290	289	289	291	298	296	295	294	293	294	292	289	288	290	290	291	291	292	288	289	283	289	283	289	294	291	293	294	294	293	293	293	293	293	293	293	294	296	293	294	288	287	286	289	287	285	289	292	289	290	285	284	286	290	291	291	291	286	285	284	288	291	292	291	293	293	296	298	296	291	291	289	290	288	287	290	291	292	295	295	294	290	288	288	287	288	297	297	296	289	291	291	289	294	294	292	288	285	285	286	288	288	289	289	292	297	296	293	291	290	292	294	292	290	290	293	294	297	295	295	295	290	287	285	286	292	291	290	291	294	293	289	287	288	288	288	288	287	287	286	285	285	284	286	287	291	290	289	288	284	283	282	285	287	287	287	287	288	289	288	288	288	290	290	290	290	291	292	290	284	283	284	287	291	290	289	290	291	292	290	287	288	287	285	284	283	283	286	290	291	287	287	286	286	288	288	288	292	291	291	291	291	290	291	292	293	290	288	285	287	285	283	283	283	284	287	289	291	289	287	287	287	287	290	289	291	286	281	283	289	289	289	289	287	288	289	288	288	291	291	293	296	290	289	288	294	295	293	292	292	289	285	284	284	283	288	290	291	293	295	292	289	289	288	288	291	291	289	291	290	290	289	289	0	0	0	0	0	0	0
300	300	301	301	300	302	302	306	306	303	301	301	299	297	299	302	302	301	295	298	297	296	296	295	296	298	298	298	298	298	298	299	298	296	297	297	297	298	300	301	302	300	298	298	296	294	293	293	297	300	299	298	298	301	302	302	303	305	306	304	302	303	298	298	295	292	289	290	293	287	288	291	292	290	290	289	291	291	294	298	298	299	298	296	296	296	297	298	301	302	302	299	302	304	305	304	303	302	300	298	298	295	295	295	295	291	292	291	291	291	291	291	291	290	291	293	292	290	289	286	290	298	298	293	291	295	294	293	294	293	289	289	291	292	294	295	291	292	295	291	291	295	295	296	298	299	300	302	301	300	298	293	291	289	289	290	291	291	291	290	289	286	286	287	287	286	285	288	292	293	293	292	294	293	294	292	292	293	295	293	293	291	286	287	287	288	296	295	295	293	295	295	294	290	292	290	292	295	295	295	297	297	295	294	294	294	293	293	292	292	290	290	289	289	287	295	292	292	292	293	292	292	292	293	292	292	290	288	288	292	292	291	289	286	285	287	288	291	287	287	288	290	291	292	290	288	289	290	292	293	293	295	296	295	293	293	294	294	295	291	286	286	286	287	291	293	297	291	289	288	289	290	298	295	293	290	290	287	286	287	286	286	283	283	285	285	284	282	285	291	289	288	286	287	291	292	289	286	284	284	283	285	284	287	287	287	292	292	289	287	289	290	293	286	285	287	286	291	291	289	288	292	294	291	289	290	290	286	286	291	293	294	291	290	291	294	293	292	293	294	295	295	299	297	290	290	290	290	289	287	286	291	291	289	288	291	290	293	292	291	290	290	287	294	296	294	294	291	286	291	288	289	288	287	288	289	289	288	288	283	283	279	286	288	289	289	293	290	290	293	292	291	290	291	291	292	293	294	294	286	286	286	283	282	284	285	284	285	285	286	283	283	286	288	289	289	284	281	282	281	286	289	291	288	288	293	297	296	294	289	286	284	284	284	284	284	286	288	289	292	292	291	288	287	287	287	291	292	288	294	295	295	290	286	288	288	287	285	285	286	286	287	287	288	294	294	293	291	288	292	289	290	291	290	290	293	291	286	287	288	290	290	288	285	285	290	290	289	288	290	292	287	286	287	287	286	285	283	282	285	286	283	284	285	284	284	285	284	282	276	278	281	285	285	285	286	286	286	286	285	285	286	290	289	288	287	287	288	288	286	283	284	281	279	281	282	288	290	290	286	285	286	286	285	284	281	283	284	289	289	286	286	286	285	281	285	286	285	291	291	290	290	290	290	285	287	285	285	287	288	287	287	286	283	284	285	293	291	288	286	284	284	286	286	284	285	285	284	285	284	281	278	278	283	286	285	287	287	287	290	290	287	287	285	284	285	285	285	285	283	280	280	281	280	282	283	284	289	290	290	289	288	285	285	286	281	281	289	289	287	287	286	287	0	0	0	0	0	0	0
298	298	294	296	294	294	294	296	297	293	290	290	292	294	296	294	293	293	296	297	293	291	291	290	291	294	297	298	297	297	297	298	297	295	294	295	295	295	298	300	295	297	297	297	295	293	294	293	293	298	298	299	299	299	300	301	301	298	297	294	293	297	297	297	293	295	295	290	286	285	288	290	288	289	291	289	287	287	288	294	297	299	298	294	294	295	291	294	292	291	300	296	290	286	291	290	295	296	286	286	289	293	293	294	294	292	290	291	290	291	291	289	287	287	288	288	287	285	283	284	288	291	292	294	293	292	290	289	289	290	291	290	290	291	291	289	287	288	287	287	288	288	289	294	294	293	295	295	293	293	293	292	291	290	290	291	290	288	288	287	285	282	281	282	282	284	282	284	286	290	290	288	288	290	290	288	290	290	292	290	292	291	288	288	289	288	288	288	285	287	290	290	285	285	290	288	289	290	289	289	296	293	292	291	289	290	289	286	285	292	291	288	289	289	288	287	292	292	291	291	290	290	289	292	292	292	292	297	297	296	288	284	282	281	284	285	285	285	285	286	289	289	290	289	288	286	288	289	289	290	290	292	292	292	281	292	292	292	294	291	288	285	287	290	292	292	289	290	288	285	290	292	291	289	287	285	284	283	285	285	288	283	283	282	282	282	282	284	289	290	291	288	284	282	282	282	282	284	283	282	285	283	286	286	284	284	285	284	284	285	284	285	287	286	286	285	285	283	283	287	286	282	282	286	289	291	290	286	285	286	288	292	289	289	289	292	291	288	288	289	292	292	294	292	288	291	291	289	288	285	280	282	289	289	287	285	286	289	289	289	289	289	287	288	292	293	291	287	285	284	282	280	284	287	283	283	285	285	285	284	285	284	281	286	280	282	289	289	290	287	290	288	286	281	281	285	292	293	290	284	284	284	283	280	280	283	283	283	284	283	282	285	286	288	285	284	281	281	283	282	281	283	290	284	289	291	294	294	283	282	283	282	280	280	279	281	282	285	287	288	289	285	284	284	286	287	288	286	283	286	291	292	289	286	288	288	287	286	282	281	283	285	287	289	292	289	288	286	284	288	288	287	288	289	291	283	285	286	289	290	289	285	286	285	286	286	283	280	282	286	288	287	286	286	285	284	282	282	281	283	283	286	286	285	283	283	282	282	280	279	276	276	285	285	285	284	284	284	283	283	283	283	283	283	281	281	283	284	282	278	280	280	280	277	279	281	283	283	281	283	283	285	285	283	283	281	282	283	285	283	284	283	279	282	283	281	280	283	282	287	286	284	282	281	282	280	280	276	276	285	287	285	282	281	279	283	289	285	284	286	286	286	284	283	284	284	285	284	282	279	276	276	277	280	286	285	280	281	285	287	284	284	284	283	284	285	282	283	283	281	280	280	281	282	283	284	285	283	281	285	285	285	285	285	282	278	277	278	287	283	283	283	286	0	0	0	0	0	0	0
293	293	294	288	287	288	288	289	288	286	287	287	287	288	290	287	287	287	291	293	290	288	288	288	288	294	297	297	296	296	295	295	291	289	290	290	290	291	292	294	294	297	295	286	286	285	284	284	285	291	293	293	291	291	288	288	289	292	295	295	291	289	291	291	291	293	293	290	286	284	285	285	285	287	291	289	286	287	287	293	295	297	296	289	285	286	288	289	289	284	287	286	286	284	288	283	284	283	283	283	286	289	289	287	289	290	289	290	289	289	287	286	286	287	287	287	286	284	281	286	287	282	283	285	290	293	291	289	289	290	291	290	289	288	287	283	282	283	285	285	285	286	287	290	292	291	290	287	281	282	284	287	290	292	293	293	291	284	283	282	283	285	284	283	281	280	281	280	283	288	288	285	287	286	286	284	286	289	290	290	291	291	289	289	289	283	281	281	282	283	284	285	284	287	287	287	287	289	288	288	286	288	286	287	287	288	288	284	284	285	290	290	291	288	286	284	285	289	288	286	288	290	291	292	295	286	285	288	288	288	285	285	285	281	282	283	283	284	283	286	286	286	286	284	282	283	287	287	286	282	284	289	287	286	283	285	290	286	287	289	288	284	284	285	286	285	286	283	283	285	286	286	283	281	285	283	282	279	280	281	284	282	282	281	281	281	282	285	289	289	284	279	276	277	279	280	281	283	282	281	281	283	282	280	282	282	282	283	283	284	284	284	282	286	287	284	285	284	284	286	280	279	279	282	283	283	279	279	284	284	286	284	282	284	285	283	281	285	283	283	281	279	280	282	282	280	280	275	273	279	281	282	281	282	283	286	284	283	287	288	287	286	278	284	286	292	290	283	281	281	282	281	285	287	285	284	286	283	282	284	285	286	284	280	275	277	281	288	288	285	286	286	283	281	281	284	292	293	285	283	283	282	281	279	279	282	280	281	282	283	283	286	287	285	283	281	278	281	284	284	283	282	283	283	285	283	282	280	281	283	285	282	278	279	279	280	282	282	283	284	283	285	282	279	277	286	284	284	283	284	288	286	286	284	288	288	285	284	280	273	273	281	286	287	289	289	288	285	284	285	287	285	281	286	285	283	286	289	291	289	286	281	281	281	283	281	279	278	278	282	282	282	284	285	282	281	279	279	280	282	282	286	285	286	284	283	281	281	279	278	278	280	281	284	285	283	283	283	282	280	281	281	281	279	278	279	279	280	277	276	277	277	278	277	277	278	280	280	277	279	280	283	281	282	281	279	280	277	279	280	280	277	277	275	275	276	276	282	281	282	282	283	282	283	283	280	273	273	274	277	280	280	280	283	281	279	276	275	280	281	282	283	280	279	278	278	277	274	273	274	276	276	277	280	283	279	278	277	278	277	279	279	279	281	282	282	281	281	280	280	279	280	281	281	282	280	280	277	276	283	281	279	279	276	275	276	275	275	278	279	280	283	282	0	0	0	0	0	0	0
294	295	295	286	288	290	289	289	288	288	290	289	289	287	287	286	285	285	288	289	287	288	289	289	292	294	296	296	293	293	292	290	289	286	286	285	285	287	289	291	295	292	285	286	286	285	287	287	285	287	291	290	289	289	286	285	287	289	293	290	289	289	289	286	286	285	285	286	286	284	280	281	279	282	284	288	288	288	289	289	291	292	285	276	278	284	289	290	288	284	286	284	283	281	279	276	279	279	277	276	276	276	278	281	283	285	285	284	281	282	284	283	283	284	286	286	286	283	281	283	286	279	281	285	286	287	287	286	288	288	288	288	285	283	283	280	282	282	284	285	285	285	287	289	289	287	284	283	281	278	278	279	279	281	284	286	289	282	282	284	286	286	286	285	284	280	278	280	283	286	290	286	286	284	284	283	283	284	287	284	287	289	289	290	279	278	278	279	278	280	280	282	282	284	285	285	284	287	287	286	286	283	283	283	284	284	283	283	283	285	285	287	284	283	283	282	281	285	284	281	281	284	288	285	285	279	281	280	281	281	284	285	285	282	281	281	281	282	282	284	285	285	286	285	282	284	285	283	279	279	281	281	280	279	281	281	281	286	283	283	285	284	283	285	283	283	280	282	283	285	284	282	280	279	280	281	279	277	278	279	283	275	280	281	282	282	277	280	281	281	276	275	275	277	279	278	276	276	277	278	281	281	280	278	277	280	281	283	283	283	284	284	279	281	284	286	284	283	282	281	279	278	277	277	277	275	275	276	277	278	281	281	281	282	279	280	282	281	282	280	279	280	278	277	276	278	273	275	277	277	278	281	282	282	282	286	286	286	278	276	285	285	282	276	282	291	281	286	284	285	285	284	279	279	285	284	286	285	282	282	283	283	283	280	276	275	282	281	284	283	284	285	284	283	281	281	285	283	282	282	281	281	279	280	279	281	279	278	279	281	283	286	286	283	280	278	278	279	281	282	282	280	277	286	285	281	281	279	281	284	283	281	279	279	279	279	282	281	281	282	283	281	280	277	277	277	282	281	281	282	278	275	275	277	277	280	280	280	280	277	277	285	285	283	283	288	285	284	283	283	282	279	278	278	278	282	281	281	287	289	285	280	279	279	281	277	278	279	277	278	281	278	277	279	280	278	278	277	276	276	276	279	286	286	284	281	277	277	278	277	278	280	281	284	285	281	280	278	276	279	279	279	277	277	278	277	277	276	276	274	274	274	275	275	276	274	276	273	277	279	279	276	278	279	278	277	274	274	277	272	274	274	275	273	272	272	279	280	281	279	280	278	285	285	286	284	278	271	274	277	280	280	280	280	278	276	272	274	276	271	278	277	276	277	277	276	275	273	272	275	279	280	279	280	280	278	274	272	272	272	275	275	278	279	279	280	280	280	278	277	278	278	279	279	279	278	277	275	275	278	279	277	277	274	275	275	274	272	275	277	280	280	279	279	0	0	0	0	0	0
289	287	287	281	280	281	285	285	288	288	289	286	286	282	283	283	283	283	284	286	287	288	289	289	291	293	296	295	290	286	286	286	287	287	286	287	286	286	286	290	286	283	285	285	285	285	288	288	285	283	286	285	283	283	283	284	285	284	290	287	287	288	287	280	282	282	285	286	286	285	280	281	280	277	280	284	286	287	288	288	290	282	272	275	281	283	283	286	287	287	286	283	282	280	277	274	277	278	276	275	276	276	276	278	278	281	284	283	278	277	277	281	280	281	278	280	278	276	274	281	279	277	279	280	281	282	284	285	286	288	285	283	283	282	282	283	283	283	283	287	285	283	282	282	282	283	288	287	286	281	279	278	277	279	281	283	285	282	281	282	284	286	287	288	280	281	279	280	283	282	281	287	284	284	283	280	280	282	286	281	284	286	281	280	281	280	276	277	276	276	277	278	279	277	278	278	282	285	284	284	286	286	283	281	280	283	279	279	278	280	284	282	283	282	279	278	278	278	277	273	271	272	279	273	278	278	278	279	280	280	283	280	279	281	279	282	282	282	281	282	280	278	278	279	281	279	282	278	275	276	277	278	278	276	277	278	279	281	279	276	281	283	285	284	281	281	280	278	282	282	282	281	278	277	277	279	277	278	277	273	272	271	276	281	281	275	276	279	276	276	277	280	277	279	281	280	277	276	277	275	277	276	276	274	274	274	275	280	280	281	278	279	277	275	275	280	280	280	280	278	271	270	271	273	274	274	270	273	275	275	277	275	277	276	273	272	274	278	277	278	280	279	278	276	280	281	279	274	275	275	276	278	279	279	280	280	285	283	281	281	284	285	283	278	275	278	286	287	292	286	282	282	283	279	282	283	282	283	283	282	284	285	283	280	275	276	280	281	278	281	283	283	282	280	280	277	278	283	280	281	279	277	277	277	283	279	280	273	274	274	283	283	284	280	276	275	277	278	280	280	280	278	278	283	281	280	280	278	278	280	276	274	274	275	280	279	280	280	280	281	280	279	280	276	274	275	278	281	269	271	270	268	274	274	276	279	280	286	284	282	272	274	278	279	280	277	277	277	277	277	277	277	278	277	276	276	277	281	280	283	284	282	277	277	278	276	277	276	276	276	275	275	276	276	277	276	275	275	275	273	273	274	277	278	279	278	275	281	282	275	270	268	267	273	277	279	281	279	277	277	278	278	276	274	277	279	280	277	276	276	272	273	274	274	276	275	271	272	274	276	275	274	276	277	276	274	272	275	278	273	272	273	274	270	268	270	278	275	276	279	278	276	286	278	278	272	271	271	277	277	280	280	280	279	277	278	274	274	272	278	276	276	275	273	273	274	273	272	272	276	278	278	274	275	276	274	273	272	270	271	276	277	277	278	278	277	277	278	278	277	276	274	272	271	275	276	275	274	273	277	278	278	277	273	272	272	273	272	271	274	277	279	275	275	0	0	0	0	0	0
275	278	278	281	277	279	282	282	285	287	287	284	284	280	279	279	280	282	282	284	286	286	288	289	289	291	292	290	284	286	286	287	290	291	290	289	284	284	285	287	281	281	283	285	286	286	287	285	279	277	278	278	283	276	276	280	280	282	284	284	286	282	278	278	282	282	283	281	284	286	284	280	275	276	280	282	285	283	286	284	284	277	277	280	282	281	286	285	284	282	283	282	281	275	275	273	272	272	273	274	274	273	274	274	274	273	274	275	280	273	274	278	278	276	276	276	275	273	273	276	277	275	276	278	279	281	282	283	283	281	282	281	281	280	281	282	281	281	281	283	284	281	282	282	285	285	285	281	282	281	279	276	275	274	272	279	279	276	278	283	283	284	285	286	280	279	278	280	281	279	278	280	284	283	283	277	277	278	282	281	279	278	278	278	279	278	274	275	274	273	275	276	278	278	277	278	275	281	279	279	283	286	283	282	279	272	270	270	269	269	272	274	276	277	278	278	276	276	273	273	274	276	277	274	278	277	277	277	278	278	274	273	273	279	280	279	278	279	279	277	276	277	279	281	281	278	277	273	278	277	279	281	273	274	277	278	278	278	278	275	278	276	281	282	282	280	276	279	281	281	280	278	277	274	274	276	277	277	276	273	271	270	270	273	272	275	272	276	276	276	276	277	281	281	284	283	283	277	279	271	274	270	271	273	274	274	274	275	277	277	279	279	274	271	271	274	275	276	269	269	271	271	273	276	274	273	277	276	274	274	274	276	277	276	271	271	272	271	274	275	278	277	276	275	273	273	273	273	275	273	273	273	269	268	276	279	280	274	277	276	274	276	280	275	273	275	280	284	286	282	278	279	276	281	283	279	279	278	278	276	279	275	275	273	274	274	276	277	278	277	280	281	280	279	278	276	273	276	279	277	276	275	276	276	276	281	273	274	281	278	278	282	281	277	275	274	272	278	271	274	275	276	277	280	279	279	278	277	275	275	271	272	273	275	276	279	279	277	276	280	279	278	278	274	270	271	274	274	271	270	269	278	275	276	281	281	280	285	275	273	270	270	274	275	271	273	274	274	275	276	277	278	277	276	275	275	274	274	275	278	278	279	276	275	277	275	273	276	275	275	275	271	271	271	271	275	276	270	269	271	273	273	272	270	276	273	273	272	275	276	273	272	270	274	278	276	277	274	274	271	273	273	272	272	271	268	271	271	267	266	268	272	273	274	274	273	269	271	273	273	273	273	271	273	275	275	275	277	278	277	272	272	273	272	272	272	272	272	274	275	276	274	273	274	275	272	271	271	276	274	279	278	277	277	275	273	273	273	273	273	275	275	272	272	271	272	272	272	273	274	277	274	273	274	272	273	271	270	267	268	268	274	276	278	277	277	277	275	272	270	269	270	271	270	270	274	274	273	274	273	274	274	273	271	269	269	269	268	267	273	277	274	274	271	0	0	0	0	0	0
269	271	278	278	275	278	280	280	282	284	284	281	276	276	276	276	277	277	277	283	284	280	282	282	282	283	284	284	281	282	282	285	285	282	280	277	280	281	281	280	277	277	278	279	279	279	280	278	274	277	278	277	282	276	276	280	280	280	282	279	276	275	277	282	282	282	279	276	278	280	281	273	275	277	277	280	281	281	279	279	279	275	275	275	274	279	285	283	283	280	280	279	274	274	275	273	272	272	273	274	273	272	271	270	270	269	270	273	273	271	270	272	274	276	272	266	274	274	268	272	275	277	274	274	267	270	274	282	279	278	280	280	279	281	280	279	277	277	276	278	279	279	282	283	285	285	283	280	279	278	278	276	275	274	275	276	276	275	272	279	279	281	281	280	275	274	275	278	279	278	278	277	279	279	277	274	277	276	276	273	274	276	276	276	274	273	273	273	273	272	275	277	277	277	278	273	274	273	278	274	273	277	278	277	272	270	271	271	269	270	274	277	276	274	272	279	275	276	276	275	278	278	277	275	276	277	276	275	276	276	270	267	268	274	278	279	277	274	275	275	273	277	279	281	280	279	276	272	272	273	272	271	271	272	275	276	276	274	276	277	281	283	285	285	283	281	275	274	274	275	276	275	274	274	275	275	276	275	273	273	272	267	270	269	269	271	273	275	275	275	275	276	281	281	281	280	277	273	269	269	270	270	271	275	275	273	273	275	276	275	277	278	272	269	270	270	270	272	267	271	271	272	273	277	275	274	273	276	275	275	274	272	276	276	272	269	272	270	275	274	275	273	270	273	272	272	274	274	273	274	274	269	267	267	268	275	276	273	276	275	271	270	274	272	271	271	272	269	269	268	268	273	277	277	277	272	272	273	277	276	277	277	273	273	271	272	274	274	268	269	279	280	280	276	277	276	272	274	276	273	274	272	273	274	277	275	277	280	281	279	278	278	278	275	277	272	272	272	271	274	274	275	274	274	280	280	280	276	273	271	269	272	274	273	276	278	279	276	275	278	279	276	272	271	272	273	269	273	272	275	280	277	281	282	274	274	273	278	279	267	269	263	268	268	267	269	274	267	274	276	276	275	275	272	269	268	271	270	271	276	277	276	275	275	276	272	270	272	274	275	273	271	269	268	270	272	272	271	268	267	269	271	270	272	269	273	274	274	272	274	271	268	268	269	274	274	273	271	271	275	269	269	266	266	267	266	266	265	266	266	268	268	273	273	273	271	267	266	271	270	268	268	269	270	273	273	275	276	277	276	272	271	272	272	271	270	268	268	270	272	273	271	273	270	270	270	270	269	273	277	275	274	273	271	270	271	272	273	273	272	274	270	270	269	269	270	270	270	271	272	270	271	269	271	271	272	269	266	267	266	267	270	274	275	275	275	272	268	267	268	267	268	270	269	273	272	273	272	273	271	271	270	270	269	268	268	269	268	267	266	270	271	271	270	0	0	0	0	0	0
266	267	268	268	275	277	279	280	280	281	280	278	275	275	273	274	275	275	275	275	277	274	277	278	278	280	281	279	280	282	282	282	281	279	276	276	276	279	279	279	277	276	278	279	278	275	275	275	274	276	278	281	280	280	278	278	277	277	279	282	277	275	275	273	274	271	271	272	272	271	270	274	284	284	284	280	279	277	272	273	272	272	271	272	270	273	272	276	277	277	278	277	274	274	276	278	265	265	268	273	273	273	270	268	268	267	267	266	266	266	268	269	271	272	265	267	263	267	270	274	277	276	275	276	268	270	272	281	277	276	272	275	276	279	278	275	275	275	276	277	277	279	281	282	283	283	280	279	278	277	275	273	274	274	275	275	274	276	272	278	276	276	276	276	272	272	274	276	277	274	277	278	277	277	273	274	275	275	274	273	270	271	273	276	276	271	273	273	275	273	273	274	275	275	271	271	272	273	272	272	275	271	272	272	272	272	271	272	273	276	272	271	271	273	272	270	265	269	274	274	273	272	276	275	274	278	274	274	276	276	273	270	270	275	277	277	274	273	273	273	273	276	279	281	280	276	273	268	267	272	270	269	271	272	273	275	273	274	276	273	278	281	276	276	275	278	273	268	267	267	267	272	272	275	276	275	273	274	273	273	269	268	269	272	267	266	267	270	273	275	274	270	270	281	280	279	269	272	272	273	269	269	273	274	277	273	273	274	274	273	274	275	275	275	273	269	268	268	269	272	273	271	272	276	269	269	268	275	274	274	270	273	275	275	276	270	274	271	275	274	275	275	274	270	274	276	276	274	270	270	274	270	266	268	268	269	271	271	269	269	267	270	272	270	270	270	268	268	268	269	270	269	269	272	271	269	268	270	273	275	275	278	274	271	270	271	269	267	268	268	266	272	270	273	273	274	274	274	274	273	272	272	271	272	268	270	274	276	279	272	273	270	272	270	274	274	274	271	271	273	273	272	274	271	270	279	277	275	273	270	263	266	270	270	273	275	276	277	276	277	277	273	271	277	274	274	268	268	274	273	277	278	274	274	275	275	273	277	257	258	261	264	267	266	265	265	267	271	270	267	269	270	273	272	270	267	269	266	267	270	268	269	271	273	274	271	270	267	269	270	269	269	266	265	268	270	271	269	267	267	268	271	271	268	269	274	273	272	271	274	271	267	270	271	271	272	273	272	268	270	270	270	267	266	265	263	263	266	265	265	265	270	269	271	270	271	264	270	271	270	270	269	269	271	271	272	271	268	268	267	270	270	271	272	270	268	267	266	267	268	267	269	268	265	264	268	268	268	268	270	270	269	267	268	266	269	268	268	268	266	266	264	267	268	269	270	271	270	269	266	266	265	268	269	270	265	266	264	265	265	266	267	272	272	272	271	269	265	266	265	266	267	269	269	269	268	269	269	271	270	270	270	269	269	268	267	267	266	266	265	266	266	269	270	0	0	0	0	0	0
267	267	266	266	271	275	277	277	277	276	276	275	274	274	273	275	273	268	264	264	271	274	269	268	272	272	276	276	274	275	276	276	276	275	274	275	276	277	277	278	276	276	277	275	274	272	272	272	273	274	274	272	273	276	278	278	278	277	278	280	282	280	275	269	265	265	265	265	269	268	266	269	275	276	272	276	276	277	273	274	272	272	271	270	267	269	268	269	274	276	275	266	265	268	269	268	262	263	266	268	270	270	270	272	267	266	265	264	265	266	266	268	268	268	265	262	265	267	270	276	273	275	274	276	275	267	266	265	270	272	270	271	273	275	273	274	271	273	275	275	276	272	272	272	272	279	278	273	273	272	273	273	273	274	274	273	272	272	274	274	274	274	274	271	270	270	272	274	269	267	273	273	275	273	273	274	275	274	272	269	268	267	269	271	270	271	273	275	275	275	272	273	275	275	276	270	273	272	271	266	267	269	270	272	273	273	272	270	271	268	270	269	270	271	271	269	268	270	267	266	261	270	270	275	275	271	272	272	270	272	271	275	277	277	277	273	272	272	272	270	270	272	277	278	278	273	274	266	265	269	269	269	269	271	272	272	272	274	274	269	274	274	274	275	270	274	267	264	267	271	271	267	267	271	268	274	273	272	272	271	268	269	270	272	269	268	268	268	272	273	269	266	267	268	267	272	272	271	272	272	271	271	270	270	274	273	273	273	273	272	272	274	275	275	273	269	272	274	270	262	270	269	270	273	267	267	266	273	270	270	271	273	273	275	275	271	271	267	272	271	270	272	270	274	275	274	274	273	270	267	268	267	265	265	269	269	270	271	269	267	263	269	269	269	270	269	269	269	269	263	263	264	268	270	271	270	268	268	272	272	273	274	273	273	273	270	268	266	266	267	266	270	265	267	271	272	272	274	273	274	272	270	269	269	268	270	270	274	267	268	268	270	268	267	267	268	267	267	273	271	269	269	272	267	268	268	277	277	268	261	262	269	270	271	268	264	270	270	266	276	269	268	265	268	264	266	271	272	270	269	270	272	271	269	273	272	271	279	268	256	259	261	261	262	263	263	263	270	265	261	262	266	266	270	267	265	262	262	262	265	267	264	266	267	267	269	268	268	267	268	267	268	265	261	263	266	265	265	267	270	272	273	267	268	267	268	268	268	267	267	271	270	267	265	267	267	267	267	267	266	266	269	267	263	266	265	262	263	259	261	264	266	268	264	268	271	261	262	266	268	266	263	268	268	268	265	262	262	263	266	266	270	269	270	267	267	265	265	266	266	268	267	265	267	268	269	269	267	268	267	268	268	265	265	267	268	268	267	267	263	261	263	264	268	269	269	266	263	266	263	262	262	266	266	260	264	265	265	262	260	259	265	265	266	266	267	265	265	265	264	265	267	269	269	265	262	263	263	267	267	269	269	267	265	264	265	266	266	265	265	265	265	266	267	0	0	0	0	0	0
268	266	268	268	270	271	273	274	274	274	271	272	272	273	273	274	270	267	265	265	267	269	265	266	272	272	274	273	269	270	272	273	273	273	274	273	273	278	277	277	268	267	272	273	272	271	270	270	271	272	270	268	270	273	276	275	275	275	276	280	282	280	267	264	263	263	264	264	264	266	267	268	274	276	273	272	273	273	273	273	272	267	267	264	264	263	262	264	276	275	268	264	265	265	266	266	266	265	264	267	266	269	270	270	267	266	263	263	264	265	266	266	267	267	265	264	261	264	271	273	272	273	273	270	268	264	262	262	263	264	267	266	269	272	266	265	267	269	273	270	271	270	270	270	270	270	267	267	270	271	269	270	271	272	272	271	272	271	271	272	272	273	272	269	267	268	271	267	268	267	269	270	271	270	271	273	273	270	269	268	266	264	260	263	264	272	273	274	273	270	270	271	275	277	272	269	274	274	273	264	268	266	269	270	270	270	268	264	263	266	266	267	264	262	267	266	267	269	266	265	259	270	268	266	266	265	267	267	269	270	267	272	276	279	277	272	270	270	265	266	269	270	272	270	272	272	266	266	265	267	271	270	271	269	271	271	268	267	276	270	272	265	272	270	267	266	264	263	267	272	273	268	265	265	267	268	270	272	271	269	267	265	271	270	272	272	267	268	269	266	265	265	267	267	271	273	274	273	273	273	269	268	268	269	268	271	272	272	272	272	270	271	273	274	270	269	264	263	263	259	262	269	265	266	264	264	265	268	270	268	269	272	273	272	271	270	267	265	267	265	262	266	267	266	270	272	271	270	265	267	267	267	265	268	269	270	269	268	266	262	263	265	269	269	269	269	270	270	265	263	262	264	266	268	268	267	266	267	267	267	269	270	269	267	274	272	270	270	266	266	263	263	265	268	269	268	268	268	265	266	271	269	267	267	269	270	274	266	264	264	266	266	265	267	264	262	261	261	266	266	265	265	267	264	265	265	264	267	263	263	268	268	270	269	268	263	263	262	262	264	266	265	264	263	263	264	267	271	270	266	267	268	270	265	266	265	271	262	259	258	255	258	258	258	264	264	262	262	261	259	257	262	263	261	263	262	260	260	264	266	263	263	263	266	269	267	265	262	264	265	265	264	264	261	261	262	264	264	264	263	266	266	266	266	267	268	266	268	266	267	266	264	263	263	261	261	261	261	263	264	264	267	264	261	263	257	261	262	259	260	264	265	267	263	265	262	261	261	263	264	263	261	264	265	265	262	260	260	262	263	263	262	264	266	265	265	264	264	264	264	259	261	264	265	269	270	269	268	268	266	265	265	266	266	266	266	266	265	263	262	261	262	264	265	266	265	264	262	257	263	261	261	261	261	259	261	263	259	258	260	259	262	257	265	265	265	265	261	263	262	261	261	268	266	263	262	260	263	264	264	266	267	267	266	264	265	265	266	262	263	267	267	269	268	0	0	0	0	0	0
268	269	268	271	271	271	265	269	270	270	266	269	270	272	272	270	268	265	264	264	264	265	266	267	271	271	268	267	267	268	268	270	270	273	273	272	272	277	277	277	264	266	268	272	271	269	269	269	269	269	268	265	267	268	270	270	270	271	267	265	267	269	268	268	266	265	264	264	264	265	265	269	272	271	271	271	270	272	273	271	269	266	269	269	271	268	260	259	262	264	263	262	263	266	266	267	266	265	263	261	266	269	267	269	269	267	264	260	259	264	263	263	264	268	264	261	261	264	270	269	270	271	268	268	267	267	264	263	263	263	266	266	265	263	260	263	264	265	267	272	270	268	265	262	267	267	265	265	266	263	266	268	268	264	261	262	263	268	267	267	271	272	272	266	264	264	265	267	268	268	269	268	268	267	268	271	269	267	266	266	263	261	260	259	263	267	267	263	263	265	266	268	267	265	265	266	268	268	267	258	264	263	261	262	266	267	263	263	263	264	263	262	259	260	260	265	265	265	265	266	268	268	268	267	266	264	260	266	267	269	270	269	273	275	273	271	270	262	262	261	268	268	268	265	263	263	266	267	265	265	267	270	269	269	269	269	267	266	267	264	268	263	263	266	258	259	263	266	268	269	264	264	263	264	263	265	265	265	263	267	265	264	266	268	269	269	269	269	267	265	270	264	267	267	269	271	272	272	272	270	269	267	267	266	269	269	270	270	269	270	269	268	270	271	267	265	266	264	263	263	261	264	266	265	262	262	261	263	267	267	267	266	265	266	269	269	263	260	263	260	258	259	264	266	267	268	267	265	264	267	267	264	265	268	268	268	269	265	266	265	263	265	264	262	264	267	269	268	265	264	263	263	265	265	266	263	263	262	262	263	264	265	265	265	266	267	266	266	265	266	269	269	266	266	260	263	263	261	262	261	264	264	262	263	265	266	267	266	264	264	261	266	262	262	262	261	262	263	261	260	262	266	267	268	262	262	260	260	261	262	268	268	269	268	262	262	264	261	260	260	261	262	265	263	265	264	266	264	262	261	263	262	263	265	264	264	258	259	253	252	253	260	261	261	261	261	260	258	259	259	260	262	262	261	258	261	258	260	257	257	262	263	264	265	266	266	263	262	264	266	263	262	262	262	263	266	266	264	261	260	261	263	263	266	264	263	261	261	262	263	263	262	260	259	259	258	259	259	259	261	262	263	262	260	259	261	256	261	264	265	264	263	260	262	264	260	260	257	262	262	260	259	260	261	259	260	259	258	259	261	261	263	263	257	257	260	261	262	262	259	259	261	264	267	267	267	267	267	267	266	262	263	265	264	265	262	262	263	261	261	262	266	266	265	264	260	261	260	261	256	258	258	258	256	257	258	257	256	258	256	259	258	258	256	255	260	261	260	258	257	257	265	262	264	262	259	259	263	263	264	264	266	267	267	266	263	259	256	256	262	262	264	264	263	0	0	0	0	0	0
265	268	270	266	266	263	263	264	267	267	266	265	268	261	261	267	264	265	264	265	265	266	265	267	265	266	266	265	265	266	267	269	269	272	273	270	271	272	264	264	263	264	266	269	268	266	264	264	265	264	262	265	263	264	266	270	271	271	265	264	264	268	267	268	268	265	264	263	263	260	262	267	269	271	270	266	269	266	271	271	268	269	272	272	268	266	265	258	261	260	261	263	266	269	269	268	264	262	260	260	260	261	262	260	261	262	261	259	259	261	261	261	262	267	265	264	260	264	266	263	264	266	267	264	266	266	265	263	261	261	260	264	264	264	264	260	260	263	270	271	270	268	262	260	262	261	262	260	259	263	264	267	267	264	261	261	262	263	266	266	266	266	266	266	264	262	263	264	267	264	261	259	258	262	262	265	263	263	263	264	265	263	260	259	261	262	263	260	262	262	264	264	259	261	263	266	266	266	265	264	264	262	262	261	266	263	264	264	263	262	261	262	259	258	264	264	262	261	262	264	267	266	269	270	268	263	262	261	260	262	267	271	272	269	268	268	267	259	263	265	266	265	265	266	267	263	262	265	265	266	267	269	266	267	261	260	260	261	266	265	266	267	265	265	259	259	262	266	268	268	264	262	262	262	262	263	264	264	259	259	258	264	261	261	259	268	264	263	262	270	267	267	263	261	266	270	270	269	269	267	266	268	268	269	268	270	269	267	266	268	267	265	266	268	264	263	266	264	263	269	265	259	257	257	258	265	266	264	266	268	269	268	267	259	261	263	262	262	257	260	255	256	258	262	267	267	267	263	261	268	267	262	263	263	263	261	269	264	263	264	264	263	261	262	263	264	267	266	267	265	264	264	264	263	260	259	259	262	262	262	264	266	269	268	267	264	266	265	263	263	265	267	264	261	260	263	263	264	265	262	264	263	264	264	265	266	268	268	266	262	261	261	260	259	260	261	260	260	260	264	260	260	261	263	265	264	262	260	260	263	267	263	263	263	262	264	263	262	261	260	259	261	269	265	264	263	261	261	259	263	260	256	260	264	258	256	254	252	251	252	259	261	261	261	259	259	259	259	257	262	260	258	257	258	258	259	260	259	259	263	263	265	266	266	266	264	260	257	260	263	260	259	259	261	263	263	263	261	259	258	260	260	260	263	255	254	254	258	259	261	261	260	260	257	255	254	256	257	257	260	260	262	262	259	258	258	258	259	261	266	266	261	261	262	261	259	256	254	254	259	259	256	255	256	258	260	258	255	256	259	261	260	259	257	257	256	259	261	260	259	261	261	265	266	266	265	265	264	264	265	264	264	265	265	262	259	259	258	258	260	261	262	258	261	261	259	259	258	259	261	261	260	259	257	258	257	257	257	255	255	256	256	258	256	256	256	259	256	255	255	254	258	260	261	260	261	258	259	259	263	263	264	263	258	257	256	255	255	255	258	261	263	260	261	0	0	0	0	0	0
266	269	266	263	263	262	263	267	266	266	264	260	259	261	261	261	261	263	264	266	266	266	265	262	264	265	265	263	265	266	266	268	268	268	267	267	267	267	265	263	265	270	266	265	267	266	265	263	263	261	261	258	257	260	263	266	265	265	265	265	266	265	266	266	262	257	257	257	257	257	253	265	266	264	267	262	266	265	266	267	268	269	272	268	268	266	256	255	259	257	261	264	266	268	269	267	265	261	261	260	261	261	262	261	261	261	261	259	258	256	257	258	257	258	259	259	258	257	259	260	262	262	263	262	263	265	264	263	261	259	259	262	264	265	265	260	260	263	267	270	269	267	260	260	260	260	260	260	263	263	264	265	265	264	261	261	260	262	264	264	263	263	261	262	259	259	260	263	265	261	259	255	255	256	255	257	258	260	260	263	263	261	261	258	258	257	257	260	262	262	263	263	263	264	264	265	265	264	259	263	262	265	265	265	265	263	262	261	261	262	261	258	259	260	261	262	261	259	258	261	262	268	267	269	268	266	265	262	263	262	263	263	263	265	266	266	263	260	261	264	263	262	261	264	262	261	259	262	260	260	264	261	261	263	260	259	259	257	259	264	265	266	263	263	261	259	259	264	266	266	263	261	262	259	260	262	262	261	259	257	261	258	262	260	259	259	258	255	255	262	265	265	262	261	264	268	266	264	267	265	265	266	267	267	267	266	265	264	265	264	265	265	264	263	261	262	262	263	270	268	257	255	256	257	257	265	265	253	253	263	263	265	263	258	252	259	259	262	261	259	255	257	260	262	267	267	268	263	260	257	266	264	263	262	263	262	263	259	262	262	259	260	260	261	263	264	267	266	266	263	264	265	263	263	259	259	259	260	262	263	265	263	263	263	263	263	262	263	262	263	257	257	260	259	259	260	262	265	261	265	262	264	261	265	265	264	265	268	266	263	261	261	260	259	258	259	257	258	259	260	259	259	259	260	264	263	259	258	260	260	261	263	263	263	262	262	262	262	261	258	259	260	263	261	261	261	261	260	262	262	263	262	259	254	255	253	251	251	252	253	253	255	256	257	257	258	257	257	259	258	257	255	254	254	257	258	258	255	263	262	265	262	266	268	258	257	257	262	255	258	256	254	257	260	263	263	261	259	257	253	254	254	259	256	252	254	254	256	259	259	259	258	258	257	251	253	257	258	257	254	254	259	259	257	255	253	254	255	255	253	254	256	256	257	258	258	257	255	256	256	256	255	255	258	259	259	256	255	256	259	257	255	257	255	254	256	258	260	259	258	259	257	255	252	263	263	263	261	258	257	258	259	262	262	263	258	256	255	257	258	260	261	257	254	257	256	255	257	256	256	258	257	255	256	257	252	254	255	255	256	256	256	256	255	254	255	258	255	255	255	257	257	260	259	257	258	258	258	258	258	261	261	257	257	256	253	253	253	253	253	258	258	258	258	0	0	0	0	0	0
264	265	266	261	260	260	263	263	264	263	263	260	259	259	258	258	260	261	262	264	265	265	264	260	260	260	261	261	264	265	262	263	264	264	265	263	261	263	264	265	265	267	266	259	261	263	264	262	262	261	258	257	258	260	268	269	269	267	267	263	263	263	263	264	262	257	258	260	258	258	258	260	261	261	266	264	261	264	266	267	265	262	259	258	257	257	255	256	254	253	254	256	260	260	260	257	259	260	259	259	261	262	263	264	262	261	257	256	256	256	256	256	253	254	257	258	259	258	258	258	258	262	258	259	260	262	263	262	261	259	261	262	264	263	260	259	258	260	258	259	267	261	260	259	260	259	260	260	263	263	259	260	261	262	260	260	261	260	261	259	259	256	257	256	256	258	257	259	260	261	260	255	256	256	256	256	256	258	260	262	258	263	260	258	256	256	259	260	261	263	263	262	263	265	264	264	264	259	255	259	263	262	262	266	264	263	261	259	261	261	262	259	257	258	259	257	258	258	255	255	256	263	263	263	267	264	262	256	256	257	263	261	261	261	260	261	262	259	261	260	261	259	260	262	260	259	258	257	258	259	260	262	261	262	260	258	258	258	257	258	261	260	262	260	259	259	257	258	261	266	264	263	260	260	259	258	257	257	259	257	261	260	259	258	259	260	255	256	254	253	254	260	261	262	262	262	264	260	264	262	263	264	264	264	263	264	265	263	263	262	263	265	265	262	260	261	263	263	268	255	254	254	256	256	252	259	259	256	253	262	262	263	260	258	256	260	260	262	261	257	262	262	260	261	263	267	267	263	262	264	256	256	259	258	258	258	260	260	260	260	254	260	257	259	261	264	265	259	259	263	264	263	265	261	259	258	258	259	261	260	259	258	258	259	261	261	259	258	257	257	256	257	257	260	259	255	255	255	256	257	261	262	259	265	261	259	259	261	262	261	260	260	261	261	259	257	256	255	258	260	258	257	257	254	253	257	256	255	258	260	260	257	259	259	259	261	262	263	259	258	260	261	261	260	260	259	261	259	264	251	261	258	256	257	256	254	252	252	252	253	253	254	256	257	257	257	255	256	259	255	254	250	252	252	252	254	253	254	259	262	264	259	259	263	255	255	255	262	259	256	251	253	256	259	261	263	261	258	254	253	253	254	257	255	253	253	254	255	255	259	258	259	258	256	251	251	253	253	253	253	253	255	251	253	253	251	252	254	254	254	254	253	253	253	251	252	256	256	256	256	256	256	255	255	257	253	252	251	251	250	253	253	254	256	253	252	252	250	250	252	254	250	249	250	249	252	254	255	256	254	254	256	257	261	262	257	254	254	251	253	252	248	251	252	254	255	253	255	253	252	253	254	255	256	255	252	253	254	254	255	255	254	253	251	252	252	252	256	256	256	255	257	258	258	257	257	257	257	257	255	254	254	255	257	256	253	253	253	252	252	256	256	256	256	0	0	0	0	0	0
263	263	264	260	258	258	263	260	261	261	261	260	256	257	257	257	256	257	257	257	262	262	261	260	259	259	259	259	260	260	261	261	262	262	264	260	258	258	261	264	267	258	260	262	262	262	263	261	259	259	259	258	256	260	269	270	270	267	267	264	263	259	259	258	262	259	260	262	259	259	259	259	259	259	257	257	257	266	267	262	259	259	259	258	258	258	257	251	251	252	257	259	260	257	257	253	251	252	254	255	257	261	264	263	263	258	254	255	253	256	257	258	258	256	256	257	257	259	259	257	257	253	255	258	260	260	257	258	258	259	260	260	260	258	258	258	254	253	254	255	258	257	257	257	258	257	258	259	262	259	255	257	260	261	261	261	260	262	260	257	257	255	253	255	257	255	256	255	251	255	256	257	256	255	255	254	255	257	261	261	259	257	261	261	257	257	257	260	264	258	257	256	255	256	261	262	259	256	255	258	259	260	261	261	258	255	256	258	260	261	259	256	257	258	256	255	255	256	255	253	254	258	260	259	260	259	258	258	256	255	261	262	264	264	259	258	260	262	264	260	261	256	256	257	258	259	258	257	256	258	258	263	262	262	260	259	258	256	256	258	261	259	260	259	255	256	256	256	255	258	259	260	260	260	259	259	257	256	252	258	260	260	256	258	259	259	258	254	254	252	256	258	261	261	257	258	257	259	261	263	262	262	261	257	262	263	264	261	260	259	261	263	261	261	256	256	259	259	254	254	252	251	252	254	253	254	254	249	248	255	255	253	253	252	257	260	261	261	259	257	255	256	254	255	259	261	258	257	256	256	255	255	256	255	257	258	258	260	260	253	256	258	259	257	259	259	254	256	258	258	258	259	263	262	258	256	256	259	259	259	257	259	259	258	257	256	257	257	256	256	256	256	257	259	259	258	258	258	258	257	256	260	259	260	255	253	252	256	259	259	258	259	259	260	259	257	255	253	255	258	258	258	254	253	251	250	253	255	256	258	258	257	257	258	257	257	259	261	259	257	255	257	259	254	250	249	247	247	253	257	256	254	255	255	249	250	249	246	255	260	259	259	257	251	252	253	254	246	251	254	246	249	252	252	254	251	250	253	258	255	255	254	256	255	252	253	254	254	253	256	250	248	250	254	248	251	255	257	255	251	253	254	256	253	253	253	254	255	255	256	256	259	258	256	250	250	252	252	250	248	247	250	250	253	251	248	248	251	254	253	252	252	251	251	250	250	251	254	257	259	252	248	247	250	250	248	245	246	247	247	247	248	250	252	250	251	250	251	251	249	250	252	249	248	248	250	251	252	253	252	250	249	250	254	251	256	252	251	253	252	251	248	249	250	253	255	254	254	253	253	251	252	254	253	252	250	249	251	253	253	254	252	251	250	249	249	250	252	253	254	254	257	256	255	250	247	247	251	252	255	253	252	252	251	256	258	253	251	251	252	254	255	254	252	0	0	0	0	0	0
259	259	260	257	255	255	259	260	253	258	258	258	256	255	255	253	253	254	255	255	256	256	259	260	259	258	258	258	259	259	259	258	258	260	260	259	256	257	257	257	258	255	258	257	257	255	257	259	259	259	258	259	256	257	261	264	266	267	264	264	261	256	256	256	256	261	263	263	260	257	257	256	258	257	257	256	257	258	262	255	254	254	256	257	256	255	251	251	252	252	251	252	253	254	253	251	252	252	253	257	258	259	261	262	261	258	252	256	257	260	259	258	255	254	255	253	255	256	257	255	253	254	253	257	259	256	255	253	256	257	257	258	257	257	257	256	253	251	252	256	257	257	256	256	255	253	254	257	256	253	252	255	255	258	261	261	259	259	258	257	256	255	255	252	253	251	253	254	255	253	250	252	255	257	257	258	260	261	256	255	253	256	256	256	260	256	258	257	257	255	254	254	253	252	251	256	257	254	255	253	257	258	260	259	254	253	256	259	262	258	255	256	255	256	256	255	254	254	256	253	251	256	256	258	253	253	256	257	257	256	263	261	257	256	254	254	256	258	260	264	262	261	255	255	256	259	258	256	255	257	260	262	256	256	259	259	258	255	255	258	257	261	261	259	255	256	256	253	256	257	258	259	257	258	258	257	256	256	255	257	256	255	255	260	260	260	259	253	251	254	257	258	259	261	256	255	255	254	253	256	254	253	252	254	256	258	264	260	258	255	261	261	260	260	256	253	255	252	253	253	254	254	250	250	252	253	251	250	248	248	253	253	250	253	259	259	257	259	258	254	254	255	256	258	258	259	256	256	257	256	256	255	255	254	254	256	258	258	256	252	256	257	256	257	255	255	254	252	253	255	256	253	253	259	255	256	256	255	254	254	256	257	259	258	257	254	256	256	255	255	255	255	257	258	257	258	258	256	257	256	256	258	254	253	252	252	252	255	254	256	256	257	259	261	258	253	251	251	256	258	258	258	258	257	250	252	250	252	253	257	257	258	258	256	256	255	254	254	257	251	253	251	254	252	251	251	249	249	249	251	255	255	250	255	249	253	258	249	252	253	253	255	254	254	252	251	255	256	252	249	247	250	252	253	250	247	247	248	249	254	251	254	248	249	251	251	252	252	251	251	250	245	247	248	248	249	248	255	251	250	250	249	250	254	253	252	253	257	257	256	254	252	251	250	251	250	251	250	250	249	246	249	247	249	247	245	245	247	253	251	252	251	249	248	247	248	254	251	251	251	251	251	250	247	246	244	244	245	245	245	246	246	249	249	250	251	244	246	249	246	245	248	247	247	248	248	248	245	246	248	252	249	250	251	250	251	251	251	250	249	249	248	246	249	252	253	253	250	250	251	251	250	252	251	251	249	250	252	252	251	250	250	251	249	249	247	248	253	252	253	253	254	254	244	244	247	247	247	246	246	248	250	250	252	256	258	253	252	252	250	252	252	250	247	0	0	0	0	0	0
259	259	258	256	251	252	252	252	249	251	255	255	254	252	252	252	252	252	253	253	256	258	258	260	260	258	256	257	257	255	255	253	256	256	256	256	254	255	255	254	255	253	254	251	252	253	255	257	257	257	257	257	258	254	254	255	257	259	259	259	258	256	254	253	253	253	251	251	251	252	254	254	254	252	253	254	257	257	257	253	253	253	253	253	252	251	249	249	249	249	248	248	247	251	252	253	252	252	252	252	253	259	259	255	256	250	250	255	258	259	258	257	253	252	253	252	254	256	254	255	253	252	252	256	255	256	253	252	255	256	256	256	255	257	256	254	251	252	251	254	257	255	256	254	254	254	256	255	251	249	249	250	254	257	257	255	255	254	256	255	255	254	254	248	250	250	251	250	250	250	252	254	256	257	252	256	259	255	252	252	254	253	248	248	248	249	251	253	254	253	254	254	252	251	253	254	252	252	253	253	254	257	257	256	253	252	256	252	252	254	254	254	253	254	254	255	251	253	253	252	252	256	257	256	252	251	255	256	259	255	254	253	252	253	254	251	251	253	254	256	258	251	251	253	255	253	257	252	255	257	257	252	252	253	253	253	257	255	251	254	252	257	252	251	250	247	246	253	258	258	258	255	246	251	251	252	252	252	253	256	252	255	251	254	254	256	254	252	250	250	253	254	257	254	254	251	249	251	251	251	249	250	251	253	254	253	255	258	257	252	251	255	256	258	254	252	253	251	252	253	253	252	252	252	251	253	252	249	249	247	247	252	253	255	257	255	255	257	255	255	255	255	256	258	257	256	256	255	255	256	256	255	255	254	254	255	254	255	255	254	255	256	256	254	254	252	252	255	254	253	253	251	251	251	251	252	250	251	251	253	255	256	257	258	256	251	252	255	255	254	253	252	256	257	258	258	257	256	255	254	253	252	252	252	252	251	250	252	251	254	253	253	254	255	254	254	251	251	254	255	256	254	254	253	252	251	249	247	251	253	255	258	253	252	251	253	252	253	252	252	251	254	254	252	252	251	251	250	249	247	252	255	251	253	250	245	253	253	250	251	252	252	252	254	253	244	246	247	247	250	248	245	242	253	248	250	243	244	247	244	244	242	242	243	241	241	244	254	251	249	247	245	247	247	247	250	243	246	246	245	247	246	247	253	255	251	250	251	253	252	252	251	249	250	250	250	246	250	249	248	247	245	245	244	242	244	244	245	248	249	250	250	247	246	247	246	250	249	249	249	248	249	250	248	247	245	244	242	243	242	242	243	244	246	247	245	247	247	247	249	245	245	249	251	248	248	245	242	244	246	246	246	247	250	247	244	243	244	243	245	246	247	246	245	248	251	248	248	250	250	250	248	247	249	250	251	252	252	252	248	248	246	248	248	248	245	245	249	253	253	253	252	249	244	245	245	247	246	247	249	250	251	250	250	250	251	251	251	248	248	250	249	246	245	0	0	0	0	0	0
259	259	258	257	253	248	248	247	249	251	253	253	252	250	250	252	252	251	251	253	257	259	259	260	252	256	258	256	256	255	254	255	254	254	251	251	250	250	251	253	253	251	251	251	251	252	255	256	256	256	256	255	256	257	252	253	255	256	257	257	257	253	252	251	249	247	246	248	251	252	252	252	253	252	252	252	254	254	255	248	249	251	252	250	248	247	247	247	248	249	249	250	249	250	251	252	252	252	254	254	257	257	257	254	253	252	253	256	257	257	256	254	251	250	250	251	251	253	253	253	252	249	248	254	253	252	249	250	252	253	255	254	255	254	252	250	250	251	250	247	246	246	245	251	253	253	253	250	252	246	246	252	253	252	249	249	249	252	253	253	255	248	246	246	246	247	248	248	251	252	251	254	254	254	251	258	250	250	251	251	252	252	249	248	248	247	248	252	246	248	254	253	252	252	253	253	249	251	251	250	252	256	256	252	248	248	246	250	251	254	257	256	255	254	255	254	250	250	253	253	251	250	257	259	253	252	250	255	256	252	250	250	251	251	252	251	249	250	252	253	250	250	250	251	252	251	249	248	249	255	253	253	251	246	246	249	250	249	251	251	250	248	250	247	247	251	248	249	250	251	250	247	250	250	251	251	251	250	249	256	248	254	251	250	252	253	253	249	248	251	252	253	256	253	251	249	248	249	250	250	248	248	249	251	253	252	252	254	252	249	249	249	252	248	248	251	250	249	246	250	251	249	245	249	249	249	251	250	247	247	250	250	250	254	252	249	254	255	252	252	250	255	257	259	257	256	256	253	254	255	255	254	255	254	253	252	252	252	253	252	248	251	253	255	254	252	250	251	254	253	253	252	251	251	249	251	252	252	252	252	254	255	255	256	255	250	250	253	255	253	252	251	250	254	250	249	250	251	253	253	252	252	251	252	250	251	250	249	250	250	251	251	253	253	254	254	252	251	252	252	253	251	249	248	249	250	250	248	249	254	252	248	251	250	249	249	251	251	250	253	253	253	253	251	251	251	251	250	248	247	247	249	245	248	253	255	255	249	248	247	250	251	253	251	249	248	247	246	246	246	249	247	242	252	246	249	244	246	243	242	245	244	241	241	242	244	241	243	250	248	246	246	247	248	242	242	246	246	243	243	240	244	247	248	245	244	243	243	245	245	246	246	244	244	246	246	246	246	248	247	245	243	242	243	243	242	244	244	245	244	245	244	242	241	241	241	246	247	247	247	246	247	248	247	248	247	245	242	241	241	242	242	243	240	242	246	247	246	247	246	247	245	245	248	248	246	242	241	243	246	246	244	243	245	243	243	243	245	242	243	245	246	246	244	244	246	248	247	248	249	248	244	244	250	251	248	246	246	246	245	245	245	247	247	246	246	245	242	249	254	252	251	248	244	247	247	247	243	243	246	246	243	242	246	247	248	247	247	247	246	246	247	246	243	0	0	0	0	0	0
252	254	254	253	253	250	250	247	248	249	249	249	244	249	251	252	250	250	248	248	252	252	252	251	251	254	255	256	256	255	253	252	251	252	249	249	250	251	252	253	253	251	251	251	252	254	256	258	256	255	255	254	255	255	251	252	254	254	254	254	254	253	253	250	249	249	250	251	250	249	249	248	248	249	251	251	252	252	254	247	248	248	251	250	250	247	248	248	248	250	249	250	249	249	249	249	251	253	252	252	252	252	250	249	251	251	250	250	250	253	254	254	253	248	248	249	250	250	251	250	250	248	247	245	247	249	251	251	251	250	252	254	256	252	250	246	248	249	248	248	244	244	245	246	247	247	252	250	249	245	246	247	247	247	247	247	248	248	252	252	249	249	248	249	250	250	247	248	251	252	251	253	254	252	249	247	249	249	248	251	249	250	249	246	246	246	251	248	247	249	250	249	247	247	249	250	250	250	251	250	250	245	247	250	246	247	246	250	252	252	255	255	254	254	254	252	252	252	252	250	250	252	254	250	249	249	247	250	251	251	249	249	249	249	249	251	252	250	250	250	249	247	248	250	250	247	248	245	249	252	254	253	250	249	249	249	250	252	251	249	248	248	244	247	247	246	252	247	250	246	246	249	250	250	249	246	245	244	248	250	251	250	250	249	249	249	247	247	246	247	248	252	252	251	248	246	247	247	249	249	249	249	248	251	253	253	251	250	247	246	246	248	248	251	247	248	249	249	250	250	249	251	250	248	248	250	249	248	247	249	249	249	249	248	247	248	249	246	244	245	248	249	250	251	250	250	250	251	254	252	252	249	247	250	249	247	249	251	252	250	245	248	248	248	248	246	245	248	249	251	251	252	249	250	248	251	252	254	255	252	252	253	255	255	251	250	250	250	251	251	251	247	249	253	251	249	250	250	250	249	250	248	248	247	247	249	250	249	250	249	248	247	247	248	253	253	252	249	246	246	248	246	246	246	248	251	252	251	251	250	250	248	244	247	247	247	247	247	247	251	250	251	251	251	250	247	249	250	248	248	245	245	247	246	245	245	246	246	247	246	249	249	252	250	249	249	244	245	243	246	246	244	245	244	244	248	247	241	240	244	244	243	243	243	241	242	240	240	243	248	247	242	242	243	240	246	246	245	243	242	242	243	246	244	248	242	242	242	243	245	245	243	243	241	247	246	246	248	246	244	242	242	241	243	240	243	241	242	241	242	244	244	244	245	247	244	244	242	244	243	243	245	245	246	247	244	243	242	240	240	242	241	239	240	240	241	246	246	246	244	245	246	246	246	248	246	244	241	241	243	246	244	243	243	244	243	242	241	243	244	243	243	245	243	244	246	247	246	247	246	242	241	242	242	242	242	242	243	243	242	242	242	243	243	242	241	240	243	248	246	245	246	240	240	240	242	242	242	242	240	245	245	240	241	242	244	244	245	247	246	245	244	243	242	0	0	0	0	0	0
243	249	249	252	252	252	251	251	248	244	240	246	246	249	250	250	248	248	246	251	252	253	252	252	251	251	252	251	250	250	250	250	250	249	248	248	250	251	253	251	252	251	252	252	251	254	257	257	249	249	251	251	252	254	251	251	253	254	252	252	252	254	252	250	250	250	249	248	247	248	247	248	248	248	248	248	248	248	247	246	245	246	248	251	249	252	252	251	251	251	251	249	247	247	247	247	248	248	250	249	250	249	248	249	249	246	246	248	249	250	248	252	253	248	248	249	249	250	251	251	251	248	249	248	247	249	250	249	250	249	244	245	247	248	250	249	249	248	248	245	243	243	244	244	245	246	247	243	243	243	244	244	245	247	248	247	248	247	249	250	250	248	248	249	251	252	251	246	245	249	250	251	250	247	245	245	247	247	247	244	248	249	248	243	243	250	252	248	250	249	245	243	246	245	245	248	248	252	252	252	251	245	245	242	245	247	249	251	252	253	251	251	252	253	253	251	249	248	247	249	247	248	248	249	245	247	248	250	251	252	251	247	248	248	249	250	251	251	250	247	247	244	246	247	243	241	245	244	245	245	252	251	251	249	247	246	248	250	251	248	243	245	245	244	245	245	250	249	249	249	249	244	246	246	245	249	244	242	247	247	247	248	250	250	247	247	246	244	243	245	248	250	251	251	248	247	247	246	246	248	248	249	251	252	252	254	251	248	246	246	246	247	246	246	243	244	248	247	248	251	251	249	250	249	247	247	248	247	247	248	249	249	248	245	245	245	245	243	242	244	246	249	249	247	247	246	248	248	253	249	245	244	245	248	246	244	245	246	248	247	245	245	246	247	246	247	247	245	244	247	247	248	247	248	247	249	248	249	254	250	251	249	249	249	248	248	247	250	251	249	247	248	249	248	248	247	248	249	249	248	249	247	243	242	242	244	247	249	249	249	247	246	244	246	247	247	248	249	247	244	243	242	243	245	247	249	249	246	246	246	243	243	242	241	246	247	248	248	242	249	246	246	249	247	242	241	241	242	243	244	246	247	248	246	245	245	245	248	247	248	248	249	250	248	246	245	244	244	237	242	240	243	243	240	243	241	241	240	240	239	242	242	240	238	240	238	241	243	243	245	247	241	246	243	244	246	246	244	242	241	243	243	244	245	244	243	241	242	242	242	244	244	243	240	246	249	250	246	242	240	241	241	241	241	240	240	242	242	240	239	240	242	243	242	243	242	241	240	239	242	243	245	243	244	242	243	244	242	240	240	242	240	238	237	240	240	242	242	238	242	244	246	246	245	245	245	240	242	242	244	244	244	242	242	243	244	242	241	241	240	241	241	243	243	243	244	246	245	246	243	242	241	241	243	242	242	239	241	241	242	241	241	244	245	246	240	236	242	244	245	246	242	241	241	239	241	241	241	240	241	240	239	240	240	240	240	240	242	245	245	246	245	242	242	0	0	0	0	0	0
241	246	246	250	253	254	252	252	248	244	238	245	245	247	249	249	246	246	250	250	253	251	249	249	250	244	244	246	248	248	248	249	243	244	247	249	249	250	251	251	252	251	244	244	247	248	249	247	248	251	249	249	251	251	252	249	252	253	254	254	254	250	250	249	249	249	249	246	246	246	246	247	247	247	247	247	247	246	244	244	244	245	246	247	249	250	249	247	244	245	245	247	246	247	247	247	245	244	243	245	246	247	247	247	246	244	240	240	241	244	246	250	251	250	248	248	249	250	251	251	248	248	248	245	245	247	250	249	247	243	243	242	243	245	243	242	244	244	242	242	246	243	243	244	245	245	244	244	242	243	245	245	246	247	247	247	247	246	250	250	249	248	245	247	245	245	246	246	243	247	247	249	248	245	244	244	246	245	245	242	243	244	246	246	246	246	246	248	248	246	244	243	243	243	245	246	250	247	244	252	246	246	248	247	243	246	245	247	246	246	247	248	248	246	249	248	247	248	248	247	247	246	247	248	247	247	246	246	247	247	245	246	244	244	246	250	251	247	246	246	246	244	242	241	241	245	244	243	243	242	243	249	248	249	248	245	247	247	246	246	246	245	245	245	244	244	245	249	249	249	242	243	240	241	244	244	239	240	240	244	247	250	246	243	244	251	250	248	244	244	246	248	248	248	247	247	247	243	244	245	249	248	250	251	252	246	246	247	246	246	246	246	245	242	243	245	247	247	247	250	249	249	248	247	247	246	245	246	247	246	248	248	247	245	245	245	243	242	243	244	244	245	247	248	242	245	245	245	245	244	243	240	243	247	247	244	245	245	245	245	243	242	244	246	245	244	245	242	242	244	243	244	244	243	244	244	245	247	251	250	246	244	247	248	248	246	246	250	250	248	245	248	249	247	247	247	246	247	247	248	247	245	244	241	242	242	244	247	248	247	246	246	246	246	248	249	248	249	247	242	242	242	244	245	245	246	245	245	246	246	244	242	238	240	242	246	249	249	242	241	243	243	247	242	240	239	239	241	243	243	245	247	248	246	245	245	242	235	241	245	249	248	250	246	244	244	242	243	234	242	239	236	238	241	240	243	243	245	239	238	236	237	238	240	239	235	239	241	243	244	246	245	243	244	240	241	240	242	238	238	239	241	240	245	243	242	243	243	243	241	239	241	240	240	239	245	248	247	247	242	242	241	239	239	238	237	241	241	237	238	240	242	243	241	240	240	239	238	239	239	239	237	237	239	239	241	241	242	244	242	241	241	238	238	238	238	237	237	238	242	243	245	245	245	242	238	237	238	242	243	240	240	245	240	239	240	241	240	239	240	238	238	242	241	243	245	244	243	243	242	242	242	241	241	241	237	236	238	239	240	236	240	242	244	246	240	236	235	237	243	242	240	239	239	238	237	236	238	240	240	240	236	237	239	240	240	240	241	241	236	240	239	239	240	0	0	0	0	0	0
238	246	250	250	251	253	252	252	248	242	238	242	242	245	245	250	253	255	255	246	244	245	247	247	246	244	241	242	245	246	246	243	242	243	244	246	246	247	247	246	247	247	243	243	243	245	246	245	245	247	247	249	249	250	250	250	246	247	248	249	250	242	244	245	246	245	249	246	246	245	245	244	245	245	247	247	246	245	245	244	246	247	248	248	240	240	247	245	243	242	242	243	245	247	248	247	246	247	245	246	246	247	247	247	245	240	240	240	239	241	242	243	246	250	248	247	244	243	245	244	245	245	243	242	242	242	244	244	241	239	238	237	237	240	242	242	241	242	239	241	246	242	241	242	244	243	243	241	242	243	247	246	246	246	246	247	248	248	244	244	244	243	244	244	242	243	243	244	243	243	242	242	242	243	243	244	241	244	243	242	242	243	246	247	246	245	244	243	243	242	243	243	244	240	240	240	243	245	242	243	245	246	248	247	245	244	244	243	246	246	246	244	245	244	246	248	246	249	247	247	246	244	245	246	249	247	246	245	246	245	247	248	248	246	246	246	244	245	247	247	246	244	240	240	242	244	244	243	241	241	239	239	242	245	248	247	246	245	244	244	245	245	246	245	244	244	245	248	249	244	247	245	242	240	240	240	241	244	245	247	246	242	242	240	242	243	241	241	242	244	245	242	244	244	245	245	242	243	244	244	248	248	248	247	245	244	245	245	246	246	246	246	244	243	243	243	246	244	244	248	248	248	247	247	243	243	243	244	246	245	245	243	245	245	245	244	241	242	243	243	243	247	247	242	246	243	243	242	245	239	238	237	241	241	243	243	245	244	245	244	242	241	243	245	245	244	240	242	242	243	243	245	243	242	242	242	243	249	250	250	243	240	242	243	244	245	244	244	241	246	242	242	242	242	246	246	246	244	245	244	244	243	243	243	243	244	245	247	245	245	244	245	246	246	249	247	243	245	246	244	244	244	241	243	243	240	241	242	243	243	241	240	240	239	239	240	245	243	241	241	241	242	240	239	239	238	240	241	239	240	240	244	243	246	245	244	237	235	241	244	250	249	245	240	245	242	243	241	243	237	237	237	239	239	239	242	238	245	241	241	238	236	237	236	232	233	237	239	244	246	248	243	241	238	238	237	236	236	236	237	238	239	241	241	243	235	236	238	242	242	238	237	240	240	236	237	237	242	246	243	242	242	238	238	235	234	236	236	237	239	239	240	241	237	237	237	238	238	238	237	237	235	236	236	236	240	238	241	240	241	238	238	236	237	235	235	235	235	235	240	239	237	239	239	237	237	236	239	239	239	239	238	237	237	236	236	239	240	240	235	234	237	237	242	242	241	240	238	240	237	237	236	237	237	237	236	236	238	236	233	233	233	233	236	236	237	236	233	236	243	239	239	239	239	237	235	235	234	235	236	235	235	237	237	239	239	240	236	237	233	234	235	237	238	0	0	0	0	0	0
237	240	245	245	251	252	250	249	249	243	238	240	241	241	242	249	243	245	245	244	244	240	243	244	244	244	243	242	242	242	242	240	239	239	241	241	241	241	243	245	244	244	242	242	242	244	245	244	245	245	246	248	248	248	248	248	246	245	244	243	242	243	243	243	244	242	243	245	245	246	246	244	243	243	243	243	244	245	245	246	247	247	247	239	239	241	245	243	242	241	241	241	243	246	249	246	246	247	246	244	242	244	246	247	242	239	238	240	241	242	240	240	240	241	245	245	242	241	242	241	242	242	241	240	239	240	243	244	242	241	237	237	237	238	240	242	242	242	245	246	241	241	240	241	241	239	240	241	241	241	245	246	245	245	245	246	244	238	237	242	242	241	243	240	240	241	242	242	243	241	241	241	242	241	239	239	239	239	243	242	243	245	245	246	246	245	244	243	241	241	242	243	242	241	239	238	240	241	241	240	245	245	249	242	242	242	243	242	243	246	247	245	243	242	244	243	244	247	246	244	244	244	243	243	244	243	244	244	244	246	248	247	247	246	246	245	246	246	247	248	248	247	240	241	242	243	244	243	242	240	239	239	239	242	243	244	243	243	243	241	243	243	244	247	245	244	238	244	245	246	246	245	242	242	241	240	242	242	241	241	241	242	239	239	239	242	242	241	241	242	241	240	240	238	240	242	243	244	243	243	246	247	243	241	241	242	243	243	244	247	242	242	243	242	242	246	245	244	245	247	246	243	243	244	239	242	241	243	242	243	237	237	240	243	241	243	244	241	241	242	241	245	243	242	243	241	242	243	237	237	236	237	241	240	241	241	239	239	240	239	240	239	241	242	245	242	241	241	241	242	243	244	245	242	240	240	241	247	250	244	239	239	239	238	241	241	241	238	239	240	239	239	239	243	244	243	243	242	242	243	243	241	239	241	244	240	243	243	244	242	244	244	244	247	246	244	243	246	247	244	244	243	240	242	238	238	238	238	238	240	238	240	239	239	239	238	237	240	240	240	240	241	241	240	240	241	240	238	238	238	238	236	235	237	247	245	239	240	238	237	236	239	240	240	241	238	240	242	242	235	235	234	234	237	237	236	242	245	245	242	241	238	239	238	237	236	237	240	241	243	237	240	237	240	235	234	234	234	235	235	236	234	237	240	241	237	235	236	239	238	236	234	230	236	237	238	237	239	237	237	243	243	245	233	235	232	236	236	237	238	237	237	235	233	235	236	238	238	237	236	235	235	235	235	235	235	234	239	240	236	236	236	237	236	234	234	234	232	233	233	233	235	235	236	233	233	235	238	238	239	236	237	236	236	233	234	235	236	239	235	234	234	238	239	238	239	235	235	237	234	233	232	233	233	235	228	236	235	235	233	232	232	232	231	236	236	236	234	232	235	237	236	236	235	235	234	234	233	234	233	234	237	232	232	232	235	235	235	234	235	234	235	237	236	236	0	0	0	0	0
235	243	245	245	246	249	247	245	245	241	239	240	238	238	238	241	242	244	244	243	242	241	242	243	243	244	242	241	241	240	240	239	239	239	240	240	240	240	242	244	243	244	243	242	242	242	243	244	244	244	246	247	246	246	246	246	245	246	247	244	241	243	243	243	243	236	240	243	246	245	243	242	239	241	241	241	242	243	243	245	245	244	244	242	242	242	240	239	241	241	240	237	237	245	247	246	246	245	242	238	238	241	244	244	241	239	239	240	236	242	243	241	240	240	241	241	237	242	240	240	239	240	240	240	239	239	241	240	241	240	240	240	236	237	236	238	241	240	244	241	246	239	238	240	240	240	239	239	241	241	245	238	241	242	242	242	236	238	242	239	243	243	243	240	240	241	241	238	238	237	238	240	240	238	238	239	237	238	239	244	246	243	245	246	244	244	241	242	240	241	242	243	242	240	238	237	237	237	240	241	240	246	245	240	242	237	240	242	244	245	245	243	241	240	242	241	242	243	245	245	243	245	242	241	244	242	243	243	243	245	248	246	243	241	242	246	246	247	248	249	246	247	241	240	241	241	243	242	243	240	240	238	242	243	242	242	242	241	240	241	241	242	241	243	243	241	236	240	246	236	243	243	243	242	241	239	239	239	242	242	236	234	234	235	239	240	240	240	241	239	241	237	240	238	239	241	245	243	243	246	245	241	242	239	241	240	241	241	242	242	241	239	242	241	240	243	244	244	243	244	243	240	241	239	239	239	241	241	241	237	237	237	242	239	240	242	244	241	241	240	242	241	242	242	241	241	243	239	237	236	236	238	238	239	240	239	239	238	238	236	238	239	239	241	243	242	242	241	241	241	242	242	241	239	240	240	240	241	246	244	239	239	238	241	242	241	239	239	240	239	240	239	239	244	244	244	242	242	239	238	238	239	240	234	237	241	239	237	237	241	241	241	242	243	244	244	241	242	241	241	241	240	239	237	236	237	237	236	236	237	237	239	239	238	238	237	237	238	237	239	239	239	240	242	242	240	239	238	237	238	238	235	235	236	238	237	237	239	235	237	239	240	240	239	236	240	240	240	238	236	234	231	232	234	234	232	242	230	238	234	230	233	238	237	237	234	235	238	240	241	241	237	236	238	238	236	236	236	234	234	233	231	237	236	234	238	235	236	238	237	236	234	230	236	238	239	240	236	236	237	242	242	245	232	235	234	235	236	235	237	237	237	235	234	234	235	234	234	234	234	236	236	236	234	234	234	234	236	236	235	235	236	236	234	232	229	229	230	229	230	231	230	235	233	233	231	233	234	234	233	237	236	235	234	232	232	233	234	235	235	233	232	232	234	236	237	235	234	234	232	227	231	231	230	233	230	233	235	233	231	231	230	229	234	234	235	234	234	234	237	234	234	233	235	233	233	231	232	232	233	231	234	229	229	229	234	233	234	236	234	232	235	235	235	235	0	0	0	0	0
246	245	245	246	246	244	245	241	241	239	240	240	235	236	236	240	241	243	243	243	242	242	242	243	244	244	241	241	240	239	239	239	239	240	240	240	241	241	241	241	244	243	242	241	240	240	242	244	244	243	243	244	246	246	245	245	245	244	238	241	241	241	236	236	235	235	237	239	242	241	242	240	238	239	240	240	241	241	241	240	243	243	241	239	238	239	240	239	240	237	237	236	234	234	234	239	240	240	236	236	239	240	240	239	241	241	236	233	234	241	241	240	237	239	240	235	235	237	236	236	240	240	239	238	237	239	239	240	239	240	238	238	236	237	237	236	239	240	244	239	238	238	237	238	239	239	238	236	235	235	236	239	239	238	238	238	237	238	242	244	245	243	242	241	240	239	236	236	235	235	237	236	237	239	238	241	237	238	238	241	240	241	238	235	234	231	233	242	243	243	243	242	240	240	239	237	236	238	239	241	238	243	243	239	239	238	238	242	241	239	239	242	238	238	236	237	236	237	237	239	243	242	239	239	242	243	243	243	243	242	244	242	244	242	240	240	246	247	247	244	243	239	238	240	241	241	239	239	239	239	239	238	242	242	240	241	242	241	241	239	240	239	241	240	241	238	236	236	236	241	238	239	243	234	235	237	239	239	240	238	237	233	235	235	237	240	238	238	238	238	242	240	237	236	237	243	243	243	246	241	240	241	240	240	240	238	239	240	243	240	240	238	241	240	240	239	242	243	243	241	240	240	240	239	238	238	239	239	238	239	237	240	237	238	238	235	235	240	242	239	241	241	241	241	241	241	241	236	236	236	235	237	237	239	240	241	241	240	237	236	237	238	239	241	241	241	241	241	241	240	241	239	239	238	238	237	238	239	241	241	239	239	238	239	239	238	239	239	240	239	239	240	241	244	246	244	241	239	241	234	234	238	237	236	234	236	236	236	237	239	240	238	239	240	240	241	241	241	238	237	237	236	237	237	236	237	237	237	236	237	237	237	237	237	236	237	236	235	235	234	236	237	237	239	239	238	238	236	236	238	236	235	235	235	237	237	234	235	237	235	230	230	235	234	235	237	240	240	237	234	231	231	228	229	229	230	224	229	238	234	230	233	234	235	236	235	237	236	234	233	236	237	237	235	244	238	238	237	236	235	233	233	234	233	234	232	234	235	240	235	234	230	224	231	234	234	234	234	235	238	237	235	237	235	230	232	234	235	235	236	236	235	234	235	235	234	234	234	233	234	235	231	234	234	232	232	230	235	235	236	234	233	233	232	232	231	232	233	228	228	226	225	229	231	232	234	235	236	234	234	232	234	235	233	232	230	230	234	234	233	235	232	232	232	232	233	233	232	231	231	231	231	227	227	232	232	232	230	230	229	229	229	231	232	232	233	233	232	230	232	232	234	233	232	232	231	229	231	230	230	232	233	232	232	231	229	236	229	233	235	232	232	236	236	235	0	0	0	0	0
246	247	243	243	243	240	239	239	240	240	236	237	235	236	236	239	242	243	242	242	241	241	240	240	240	240	241	239	239	239	238	238	238	238	238	238	238	239	239	241	239	242	242	242	241	241	240	242	242	241	243	242	244	244	244	242	242	236	238	240	243	241	236	234	234	234	237	239	241	238	237	237	236	237	238	239	239	240	239	240	241	244	241	239	239	240	240	240	235	235	234	236	237	237	239	239	239	238	236	236	236	239	234	236	239	236	233	233	233	235	240	238	238	236	234	231	232	232	233	235	238	238	239	236	239	239	239	238	239	239	239	238	238	239	238	235	235	235	236	238	240	238	237	237	238	237	237	236	235	235	237	238	239	239	238	237	235	236	240	239	242	242	241	238	240	237	235	233	233	231	232	235	237	240	241	240	238	239	239	238	239	239	234	234	233	233	235	237	239	240	241	239	239	241	236	236	235	237	238	235	235	235	239	238	239	238	239	238	235	239	239	236	236	236	235	237	237	236	237	239	240	241	238	239	240	242	242	242	240	240	240	240	241	240	238	239	238	240	241	242	239	239	237	236	237	238	238	241	239	239	236	236	236	239	240	240	239	241	240	238	237	238	241	240	238	236	237	238	237	237	235	234	241	236	235	236	237	236	239	239	235	235	235	235	239	238	239	238	240	239	243	238	237	236	241	242	237	247	247	240	241	241	239	240	237	237	240	239	243	236	239	238	239	238	238	238	237	238	242	242	240	241	238	237	236	237	237	237	235	237	240	241	241	237	237	237	237	238	241	244	241	240	240	240	241	240	239	236	235	235	234	235	237	241	241	241	241	236	236	236	236	238	241	242	240	239	237	237	238	239	238	235	235	233	234	235	237	238	239	238	238	236	237	239	238	239	239	240	239	239	240	239	240	241	244	239	239	241	234	233	233	233	239	240	238	237	238	239	238	237	238	236	235	236	238	237	237	236	236	229	232	235	236	235	236	237	237	236	236	237	237	236	236	234	235	235	235	233	233	232	231	230	237	237	238	237	238	236	235	235	235	235	235	235	236	235	235	234	233	232	231	232	236	236	234	240	234	240	234	235	232	232	231	230	229	228	225	221	234	235	235	235	235	239	235	233	234	237	232	231	231	234	236	233	243	238	240	238	235	234	232	232	234	232	234	234	235	237	235	235	234	232	228	230	235	234	234	233	233	233	233	234	232	232	231	231	232	235	235	235	234	234	233	234	235	234	234	232	232	231	230	229	229	231	230	230	230	229	232	233	234	232	233	232	232	231	231	233	230	227	225	225	227	230	233	233	233	235	234	232	226	225	231	231	233	232	228	229	226	228	229	230	231	230	231	231	231	232	232	232	232	231	227	228	230	231	232	230	228	228	228	229	229	230	230	230	230	231	227	227	227	230	229	231	231	228	227	230	230	229	231	232	232	233	227	229	236	228	225	231	235	231	232	232	233	0	0	0	0	0
244	246	245	241	241	238	238	238	239	239	237	235	235	235	235	237	240	241	238	239	239	238	237	238	237	237	238	237	237	236	237	237	237	237	237	237	237	239	239	239	240	242	242	236	238	238	238	241	239	235	236	237	239	240	240	239	237	235	237	239	240	241	237	235	235	234	238	238	241	239	235	235	235	235	238	237	237	236	238	239	241	243	241	238	238	237	236	232	232	234	235	235	237	238	238	237	237	236	235	236	236	238	233	235	236	234	232	232	232	233	236	236	237	232	232	231	233	231	231	232	233	234	235	236	238	238	238	238	239	239	239	238	237	238	237	235	234	233	235	237	239	237	236	235	236	236	233	236	237	236	238	238	238	238	237	236	235	236	236	237	240	239	237	236	236	236	229	229	231	233	232	230	232	234	236	237	238	236	238	238	238	239	236	234	233	230	235	237	237	238	240	238	239	237	236	235	234	236	236	234	234	236	235	236	236	237	238	238	236	234	235	232	231	231	232	236	234	237	240	241	240	233	233	238	240	242	242	240	239	238	238	237	236	238	238	237	236	239	239	238	240	240	237	236	235	237	237	238	237	237	236	235	235	238	239	237	239	235	239	236	235	235	240	239	240	237	238	236	236	237	233	232	231	235	235	235	235	236	236	235	247	238	236	234	233	237	237	239	240	239	241	238	236	235	239	240	240	236	243	240	240	239	240	241	242	242	238	236	237	237	235	235	235	233	233	235	236	236	236	240	240	240	237	237	236	235	236	237	236	233	239	239	236	236	234	235	237	236	237	236	238	235	237	237	238	240	237	235	236	235	233	235	238	240	240	241	237	233	236	235	236	239	241	241	239	237	237	233	239	237	235	233	234	232	233	236	237	240	236	236	235	238	237	239	238	238	237	238	238	238	237	236	242	237	239	232	232	233	233	236	236	233	242	239	237	237	235	237	237	237	232	235	234	235	236	236	236	235	234	229	232	233	236	237	237	237	237	236	236	235	234	236	236	234	233	233	233	232	230	230	232	235	235	233	231	236	236	232	229	233	232	234	235	235	235	237	234	232	231	232	232	240	237	239	233	234	237	236	234	230	229	232	232	229	229	230	224	224	225	230	233	237	237	236	234	233	231	237	232	227	232	231	232	230	228	240	232	232	231	230	232	233	234	233	232	233	236	231	230	225	229	228	227	227	229	233	234	234	234	233	233	232	233	233	232	230	230	232	233	236	234	234	233	234	234	234	233	232	229	228	229	229	229	230	229	226	228	233	234	235	234	233	232	228	230	229	231	232	231	228	226	226	228	231	232	231	233	233	231	227	225	226	226	226	232	232	228	229	227	227	228	229	231	232	232	232	230	232	231	231	231	229	228	228	229	229	230	228	228	227	227	226	226	225	225	227	228	231	231	227	228	227	227	225	232	230	230	230	228	229	228	228	228	224	226	227	224	223	221	224	234	234	234	231	230	0	0	0	0	0
