299	300	299	303	306	306	304	303	300	297	295	295	297	304	306	309	304	302	299	298	297	299	299	300	297	301	304	305	300	300	296	296	296	296	299	301	301	302	302	301	298	298	296	298	299	299	300	300	302	303	298	295	298	300	299	299	301	301	297	296	296	297	298	300	301	301	297	297	296	296	299	302	299	297	299	298	297	297	298	293	294	298	300	300	299	299	297	298	297	297	298	299	299	300	300	299	298	297	297	295	294	294	295	297	298	299	299	300	292	296	295	297	297	297	296	300	300	299	298	296	293	294	294	295	296	299	299	297	296	294	295	296	300	296	292	292	293	292	291	287	287	288	289	290	292	295	297	298	297	293	290	289	289	290	294	295	294	294	293	296	292	296	295	292	291	291	291	292	291	293	293	294	292	291	290	288	288	291	293	297	295	292	290	290	291	294	292	292	297	301	290	287	285	291	293	296	295	292	289	295	294	294	294	288	288	287	291	291	295	295	297	295	294	294	294	292	295	296	293	292	291	291	294	293	292	290	288	287	285	285	286	286	285	285	287	288	285	286	287	294	296	296	295	293	292	297	299	298	296	295	296	299	296	294	293	292	290	289	286	286	286	287	289	294	294	293	294	292	292	292	297	298	297	297	295	292	291	289	286	285	286	285	286	286	288	290	293	293	295	286	286	284	286	286	284	283	282	278	280	282	284	284	285	284	285	287	287	291	292	290	290	289	289	288	290	290	285	284	285	285	285	287	287	286	283	281	284	289	290	293	288	284	283	283	282	285	287	287	288	287	286	283	282	286	286	286	288	288	286	286	286	286	285	283	280	281	283	284	284	283	282	282	284	283	280	280	284	284	280	281	282	281	283	281	280	279	279	275	275	276	277	283	282	278	276	275	275	277	277	276	275	278	275	274	277	275	274	279	275	271	268	274	274	276	277	280	280	279	278	279	279	277	276	277	277	276	276	277	276	276	276	273	274	274	273	273	271	272	274	275	274	275	279	281	280	274	271	271	271	270	270	277	276	274	272	270	268	266	272	271	270	267	267	270	280	281	277	273	271	268	269	272	269	269	268	268	269	271	274	275	274	273	273	272	274	276	275	270	270	270	266	269	270	270	268	268	266	270	270	270	269	267	267	269	270	268	267	265	269	269	264	263	262	265	267	269	270	270	271	266	263	259	262	261	260	257	258	265	269	265	265	266	266	266	265	263	268	264	260	259	258	255	263	265	262	262	261	261	264	264	263	263	264	266	268	271	266	263	262	261	259	259	258	259	261	261	260	261	262	262	261	259	258	260	262	262	264	263	259	260	258	257	261	261	264	264	263	259	259	257	263	266	260	259	258	255	255	257	258	260	259	258	252	256	256	255	254	258	260	263	259	259	261	260	259	258	258	258	260	259	257	258	255	256	255	258	257	256	256	257	254	248	249	253	258	258	255	255	256	257	257	257	257	0	0	0	0	0	0	0
299	299	300	301	299	299	297	296	294	296	295	295	300	304	305	304	300	299	296	293	293	293	297	297	294	301	301	297	291	291	291	293	293	295	299	301	297	297	297	296	295	295	294	296	297	297	297	299	300	300	294	294	295	300	298	298	301	302	299	295	296	296	297	298	299	299	296	293	293	295	297	291	293	294	295	296	295	292	290	290	292	295	296	297	297	295	294	293	294	294	294	295	296	296	298	297	297	297	296	296	295	294	292	291	294	294	291	290	292	290	289	290	293	293	293	294	295	295	294	291	291	292	293	291	293	295	296	297	296	295	294	294	292	290	289	289	290	291	291	287	285	286	287	288	291	295	295	295	293	292	288	286	284	287	291	293	292	290	291	289	285	285	287	286	288	288	286	287	286	287	287	287	289	290	289	289	288	285	292	291	289	290	290	288	287	288	291	291	293	293	288	283	282	286	291	295	294	291	288	292	291	290	290	284	285	288	288	292	291	294	294	292	291	291	291	290	293	289	287	286	286	288	289	290	289	285	286	285	284	283	284	285	285	284	283	287	286	286	289	290	291	292	292	289	290	289	294	293	291	292	291	293	293	293	293	290	288	284	283	281	283	285	287	287	282	283	284	287	286	283	286	281	281	285	284	282	283	282	282	283	284	283	283	286	286	283	287	289	284	284	284	283	283	284	284	283	282	281	279	278	283	285	285	285	284	285	289	291	289	288	289	290	290	284	283	282	281	279	278	281	284	284	285	282	282	281	282	284	285	283	284	281	281	282	283	282	283	285	285	285	282	282	282	283	286	286	285	284	282	281	284	286	285	283	280	280	280	282	279	278	280	280	282	280	279	279	281	279	280	280	281	282	279	279	279	277	274	275	274	276	278	280	280	279	277	275	276	277	277	276	275	274	273	272	275	276	274	274	275	273	272	274	278	279	273	274	277	276	274	279	278	277	275	277	278	277	273	276	278	276	275	274	274	275	273	271	270	273	275	275	277	276	278	273	275	273	269	267	268	269	268	268	271	273	271	269	267	266	267	268	270	271	271	270	271	272	272	272	272	274	274	270	267	264	263	263	262	269	269	267	272	273	273	272	271	274	266	271	268	269	265	266	263	266	266	266	264	269	268	265	266	267	266	263	263	267	265	265	266	266	264	262	262	263	262	262	265	262	263	263	260	258	257	258	258	257	258	258	266	263	264	264	266	266	262	262	260	259	259	260	260	254	257	260	260	258	255	257	263	263	261	261	261	261	261	263	263	266	265	263	263	260	258	256	261	262	260	259	257	253	251	259	257	260	261	261	262	260	260	260	256	255	259	259	261	261	258	257	254	254	257	263	264	261	258	255	255	254	255	257	259	258	258	258	261	260	256	254	255	254	254	256	257	258	256	257	253	257	251	251	252	254	252	255	255	256	256	256	256	256	253	248	247	251	255	256	253	251	252	253	254	254	255	0	0	0	0	0	0	0
294	294	295	292	291	294	294	295	294	295	297	297	299	303	304	300	295	295	293	291	289	288	291	291	300	301	296	291	288	288	290	291	295	296	295	294	294	294	295	292	292	293	291	293	295	295	297	298	296	295	293	291	293	298	297	297	298	301	299	297	295	294	294	290	289	294	294	292	292	290	290	292	294	296	293	295	288	292	287	286	287	290	291	290	290	289	289	290	290	288	288	289	290	293	294	298	298	290	291	291	293	292	291	289	287	284	285	287	289	285	285	285	286	288	289	292	292	293	289	289	290	289	285	287	288	290	291	284	281	291	291	291	286	287	287	287	288	288	288	282	282	285	286	287	290	292	293	294	294	292	287	283	285	284	285	287	286	285	285	285	285	286	286	285	286	285	283	284	285	286	285	283	286	288	289	289	288	291	286	285	284	287	289	288	286	286	288	290	292	292	286	281	286	287	287	285	283	281	284	285	283	284	284	284	286	287	288	290	289	290	290	288	284	286	288	288	285	285	284	285	285	286	289	289	281	283	285	284	282	283	283	284	283	282	281	282	285	285	288	288	288	289	285	287	287	286	282	281	280	290	291	291	290	294	294	287	283	281	278	280	283	284	284	282	281	281	280	279	280	280	280	277	280	276	279	281	280	280	280	282	281	282	283	280	283	281	283	282	284	283	283	283	284	284	283	282	278	279	277	278	280	280	280	280	279	280	284	283	283	286	286	286	282	275	279	280	281	282	282	280	277	277	278	281	282	280	280	281	283	283	284	281	279	281	280	281	280	281	279	280	281	281	282	282	285	285	283	280	279	278	277	280	282	283	285	285	278	276	278	275	275	275	280	278	280	281	282	281	281	276	271	270	275	274	274	272	274	272	272	273	276	278	278	279	278	275	276	276	276	275	274	274	272	270	269	269	273	274	273	273	272	272	276	276	280	276	270	269	272	276	278	277	276	276	271	268	272	276	275	275	272	272	272	274	271	270	271	270	274	275	274	275	270	271	271	266	264	265	263	264	267	267	268	271	270	269	266	265	266	268	268	269	270	268	268	268	268	267	266	266	266	263	263	264	266	266	267	268	269	268	269	269	270	270	268	265	266	267	266	268	268	268	265	264	264	264	263	262	265	263	263	263	260	259	261	265	263	263	263	262	262	260	256	260	260	260	261	260	261	263	260	256	257	256	254	257	259	257	263	264	262	263	263	263	262	259	257	257	259	261	259	252	252	258	259	257	257	257	254	259	259	259	259	260	261	260	261	263	260	260	260	259	258	259	261	261	260	256	254	250	259	257	259	260	261	261	260	259	259	257	256	254	257	260	254	256	257	257	256	256	255	253	257	257	258	256	254	254	255	257	255	255	255	254	261	260	257	255	255	254	253	252	256	257	257	250	252	251	251	250	250	255	254	254	252	250	247	252	252	252	253	253	247	251	254	255	250	248	247	251	252	252	252	0	0	0	0	0	0	0
290	290	287	286	288	292	292	295	293	294	295	295	296	299	298	297	291	291	290	290	287	290	295	295	295	290	288	287	289	294	294	295	296	295	295	295	289	289	287	288	287	288	287	287	287	287	287	292	293	292	288	289	294	298	296	293	293	295	296	295	293	291	288	287	287	285	285	290	289	289	290	291	293	295	291	288	286	285	284	287	288	288	289	287	285	284	283	283	283	283	283	285	284	283	284	290	292	289	284	286	291	290	287	284	280	283	285	284	286	283	284	284	285	285	286	289	290	288	286	285	284	280	278	277	278	281	284	277	278	280	281	283	285	286	285	286	286	286	283	283	282	282	285	287	287	285	288	289	288	286	283	282	282	280	282	284	284	283	286	286	284	285	286	284	284	282	280	282	284	284	284	283	285	286	287	288	289	287	286	282	281	277	278	285	284	284	284	286	291	290	287	283	278	278	279	278	277	278	278	278	281	281	281	283	280	284	286	285	286	287	287	288	281	281	282	282	279	277	276	279	283	284	283	283	282	282	282	284	286	286	286	286	283	281	280	282	283	283	282	281	279	283	282	283	284	278	280	280	278	279	281	284	281	284	281	281	280	280	278	278	279	281	278	278	283	279	278	277	276	277	278	275	275	275	275	279	280	279	280	278	281	282	283	281	278	276	276	282	283	284	283	282	282	280	277	276	277	278	276	275	278	276	277	273	275	275	276	276	275	271	271	273	273	275	276	277	279	280	280	279	278	276	280	282	280	279	282	282	274	271	276	276	275	276	278	277	275	277	279	279	280	280	277	275	275	275	275	276	273	272	274	274	275	273	273	273	274	275	278	278	273	271	272	276	279	275	276	275	275	273	272	270	268	269	272	270	270	270	268	268	271	278	278	275	273	271	272	272	274	275	273	275	273	268	266	266	268	271	274	273	271	268	270	273	274	274	272	272	274	273	269	275	274	267	266	267	272	274	274	273	270	269	269	269	269	269	271	271	271	268	264	271	273	272	268	268	263	262	261	266	265	268	268	268	267	268	266	265	264	265	264	261	261	262	263	266	267	266	262	264	265	264	264	267	266	266	266	267	267	266	266	268	267	264	261	263	259	259	259	262	265	268	265	264	260	262	262	262	260	261	262	261	259	257	258	259	262	261	262	259	258	257	256	256	258	261	262	261	259	259	257	255	256	256	256	254	259	260	258	258	258	260	262	263	261	258	257	256	256	257	255	253	254	256	258	258	256	255	254	252	257	257	255	253	258	259	259	260	259	260	259	259	258	257	256	255	253	251	252	249	255	256	257	259	259	259	258	258	254	253	255	254	250	254	253	251	253	256	256	255	253	252	251	251	251	253	253	256	256	253	253	252	252	253	250	250	253	251	250	252	251	251	255	256	255	249	249	251	250	251	250	252	246	245	246	245	241	241	244	241	244	250	254	254	254	253	249	247	246	246	249	249	250	0	0	0	0	0	0	0
286	286	282	282	286	290	290	293	293	293	293	293	293	292	289	289	291	285	287	285	284	287	286	286	285	284	284	286	291	291	291	293	292	292	292	288	286	286	285	284	282	285	286	284	285	285	285	287	289	288	286	286	291	295	293	290	290	289	292	292	291	288	285	285	286	284	282	283	289	289	290	290	290	290	287	286	285	285	284	284	285	286	287	286	285	283	283	282	278	276	276	276	276	278	279	284	286	285	282	279	278	282	281	281	279	281	284	284	284	284	283	283	283	284	287	286	285	283	280	276	275	276	277	278	278	280	279	276	276	281	281	283	284	283	281	281	280	277	281	280	282	280	281	282	282	281	285	286	286	284	282	277	279	276	278	281	281	279	278	280	282	284	284	279	277	277	278	278	280	281	283	281	277	278	284	285	285	284	282	277	276	276	276	281	282	282	282	281	283	282	281	280	276	276	275	275	278	282	281	280	277	276	278	279	280	282	284	279	281	285	284	279	279	279	279	279	277	274	276	277	279	282	281	281	280	283	282	279	276	273	277	281	282	281	281	277	278	276	274	275	278	279	279	278	280	278	279	277	277	277	277	276	276	278	282	282	282	281	281	277	278	277	277	276	276	274	274	273	272	272	274	274	275	274	274	274	274	275	278	278	277	278	280	280	276	275	276	273	274	275	276	274	275	273	273	273	275	275	274	273	276	274	275	274	272	275	275	276	274	274	274	272	272	271	274	273	273	277	275	276	275	276	280	280	278	276	276	274	269	271	271	272	275	274	275	275	274	274	277	280	280	278	275	273	272	271	272	271	268	274	275	275	275	274	268	267	273	274	275	274	272	265	267	271	272	274	272	271	267	275	271	269	267	267	269	268	267	267	266	266	268	271	273	270	268	268	268	272	273	273	273	273	270	268	265	267	268	269	270	271	269	265	267	266	266	267	268	266	268	266	265	267	269	268	268	266	267	270	272	268	267	267	266	266	268	268	268	269	268	265	264	266	271	271	268	265	265	264	268	267	266	265	265	265	263	265	265	264	261	260	260	258	259	260	260	264	263	260	260	260	260	260	259	259	259	262	266	268	266	265	264	265	264	260	260	258	258	257	258	255	258	259	260	258	259	259	257	256	255	255	256	257	256	256	253	257	253	260	262	259	254	257	257	257	260	266	265	258	255	255	252	250	254	254	258	258	257	257	256	255	257	257	262	261	260	258	257	256	255	255	252	255	255	254	258	260	259	257	258	255	254	254	256	255	255	257	259	259	256	256	253	249	257	256	256	256	253	252	253	254	252	256	255	254	254	256	257	255	253	251	250	248	250	251	250	249	250	250	251	252	251	251	252	250	251	252	253	255	255	255	253	253	254	254	247	248	247	249	249	249	248	249	251	254	251	250	250	250	249	250	247	246	245	242	242	245	240	240	239	240	241	248	254	253	253	251	247	247	245	243	243	245	248	0	0	0	0	0	0	0
281	281	280	282	285	288	288	290	290	290	287	286	286	287	285	284	285	283	282	283	286	285	280	281	281	280	281	286	284	286	286	289	289	289	288	286	284	283	283	282	282	284	285	284	284	282	282	282	285	285	284	285	288	291	291	286	286	285	290	284	285	283	282	280	283	282	282	283	283	283	287	287	287	285	287	285	282	281	282	283	284	284	284	283	283	283	283	277	270	271	271	272	272	274	280	282	284	285	283	280	275	276	276	276	278	281	283	284	283	282	282	282	281	283	287	285	281	277	274	272	273	275	279	280	280	281	278	276	276	279	281	283	285	280	277	277	277	274	278	280	280	278	277	280	280	281	282	280	280	279	281	279	277	276	276	281	281	278	276	277	278	279	281	276	273	272	274	272	270	269	277	278	277	278	281	281	280	274	277	276	275	275	275	280	281	281	280	279	278	278	280	275	273	273	274	274	274	275	279	278	277	276	276	278	280	281	282	278	279	277	276	278	278	276	277	275	273	274	275	274	275	274	271	277	277	277	280	277	274	274	270	277	280	280	277	277	274	274	272	273	277	278	278	277	275	278	278	275	275	274	274	277	277	279	280	280	281	281	276	271	273	275	274	273	273	274	276	275	272	270	272	274	275	275	273	271	271	273	277	276	278	279	278	278	275	272	269	272	272	268	270	274	272	271	270	273	274	275	270	271	272	275	274	274	274	273	274	274	273	274	271	272	269	268	266	269	268	271	271	271	271	272	274	275	274	274	275	274	271	269	268	270	271	272	272	272	270	270	270	274	279	276	274	272	268	269	268	266	271	267	265	264	264	267	267	268	267	269	270	269	264	265	265	266	266	268	272	267	258	260	265	266	267	265	265	264	264	264	263	264	266	268	266	266	267	267	268	268	271	270	270	273	270	265	267	266	267	268	268	268	266	263	265	265	265	265	269	264	265	266	266	268	271	271	269	266	265	264	266	264	263	265	265	264	264	264	263	266	266	265	263	266	267	274	273	270	266	265	260	262	263	263	260	262	261	262	261	260	258	259	255	255	256	258	260	260	262	258	258	258	260	259	259	263	262	262	264	263	262	260	262	259	257	257	258	257	256	255	251	255	257	255	253	256	256	256	254	250	253	253	255	256	255	252	251	251	253	255	255	254	256	257	261	261	261	263	263	259	251	248	248	251	255	253	253	253	253	254	256	254	252	252	248	252	253	256	255	256	254	253	253	253	253	251	252	256	255	256	258	253	253	253	253	253	253	253	256	257	254	254	252	249	254	255	258	257	254	253	253	252	252	251	247	251	253	256	255	252	251	248	249	247	248	250	250	248	248	250	251	250	252	252	253	251	249	251	249	248	248	250	250	249	247	250	250	245	246	246	250	251	252	253	255	256	255	250	249	249	246	246	245	245	243	243	243	243	243	245	247	247	242	246	251	251	249	248	247	246	245	245	245	244	242	0	0	0	0	0	0	0
277	278	278	280	282	283	286	286	288	286	284	284	284	283	283	282	283	280	280	284	285	280	279	279	279	279	283	284	280	282	283	283	284	285	284	285	283	283	283	281	282	282	282	281	273	275	278	278	280	282	283	285	285	286	285	284	284	284	282	283	279	279	277	277	280	281	280	280	279	282	282	282	279	281	280	278	278	279	279	280	281	282	283	283	282	282	277	273	276	270	270	270	270	275	276	278	280	281	280	278	276	275	274	274	275	274	276	276	278	279	280	280	276	276	277	279	277	274	271	270	270	274	279	279	279	278	275	275	275	274	276	277	276	277	274	272	272	277	277	280	277	274	274	276	277	281	281	281	281	277	276	275	274	274	274	279	279	277	276	276	273	276	277	274	272	271	270	270	269	268	269	276	278	279	280	278	277	272	272	272	271	271	277	276	279	280	278	276	275	274	274	275	271	271	271	272	271	270	270	274	271	271	274	276	279	281	281	276	274	277	278	277	275	271	270	271	272	274	273	272	270	270	277	274	274	276	277	277	274	270	268	274	276	277	276	274	272	271	272	275	276	275	277	275	273	272	278	271	270	270	267	273	272	270	268	269	269	270	270	271	269	270	271	271	270	271	274	272	268	271	271	271	270	273	276	273	271	272	272	274	276	278	280	277	268	267	269	268	265	266	267	270	271	271	272	272	273	273	273	272	270	272	273	270	266	268	270	270	269	270	270	269	269	266	266	270	271	271	268	268	267	271	268	267	271	270	270	269	273	271	268	269	270	267	270	271	270	269	269	269	268	267	267	269	267	264	265	258	263	266	262	261	261	263	266	267	268	269	268	268	263	263	261	262	264	264	258	255	258	264	264	263	265	264	264	263	263	263	259	259	263	264	263	263	266	267	265	267	263	263	264	267	266	264	256	265	265	266	265	262	262	262	264	265	267	265	264	262	263	263	264	266	269	269	268	265	264	264	263	263	263	257	261	261	264	264	256	261	264	262	262	263	264	268	268	268	262	260	257	259	259	257	260	262	262	262	259	257	256	254	256	255	259	260	257	255	257	259	259	258	259	259	259	261	262	262	264	263	256	256	255	258	256	256	255	256	255	253	252	252	253	255	253	254	254	253	253	254	253	254	253	253	254	252	254	255	255	254	253	252	251	250	252	252	253	253	252	252	252	250	251	253	255	253	252	251	250	250	254	256	256	251	247	248	254	253	252	252	249	251	251	251	252	249	250	250	254	256	253	251	249	248	248	249	251	251	250	248	247	247	248	247	248	252	258	250	253	252	253	250	254	247	244	242	247	250	250	249	249	247	248	248	250	248	250	248	249	252	252	250	250	250	250	251	249	245	244	245	245	247	246	249	246	244	243	243	244	245	247	249	249	254	254	253	249	245	247	245	245	243	243	243	244	244	243	242	242	240	245	246	246	246	247	248	247	245	244	242	246	245	245	244	241	0	0	0	0	0	0	0
274	274	274	277	279	282	282	282	286	285	283	282	282	281	280	281	281	280	280	281	279	276	273	276	276	281	282	282	281	281	280	280	277	276	279	281	281	280	280	281	282	277	279	274	272	272	277	277	280	281	282	283	280	282	283	283	283	283	280	278	277	276	276	276	277	278	277	275	276	276	276	279	277	275	277	276	276	275	277	277	279	279	277	275	275	274	275	276	275	270	271	271	273	273	272	275	278	280	278	273	274	273	273	271	273	273	272	274	274	271	274	272	273	275	275	274	275	272	269	268	268	268	271	272	272	269	273	273	273	272	272	269	272	273	273	273	274	274	276	279	275	274	277	275	273	275	280	280	279	275	275	273	273	273	272	277	277	276	275	272	273	273	272	273	273	272	271	269	267	268	268	270	273	273	276	271	271	271	270	270	270	272	272	274	274	277	275	273	273	271	271	269	268	269	271	271	267	267	267	269	268	268	272	272	270	270	271	271	271	272	272	268	270	273	271	272	272	272	273	269	270	269	274	276	273	273	272	274	273	270	266	267	271	272	272	272	271	270	270	272	269	272	275	273	273	274	270	270	269	267	270	270	268	269	266	266	267	267	266	267	267	267	268	268	268	267	267	266	266	268	268	268	267	268	273	272	269	269	270	272	271	270	270	268	269	269	269	265	265	266	267	270	270	268	266	267	267	268	272	272	270	271	269	263	265	267	268	270	268	267	269	268	262	263	263	263	264	267	262	265	265	265	266	266	265	264	264	265	263	261	265	268	268	262	262	268	267	267	266	265	259	259	261	262	257	255	255	263	260	263	264	265	263	262	262	267	268	268	268	266	262	261	258	261	262	261	259	259	260	262	262	261	263	263	262	261	260	259	263	258	259	261	261	260	262	266	262	263	261	261	260	260	260	256	256	258	263	265	264	262	259	260	262	263	261	261	261	260	260	261	261	264	266	266	266	262	259	258	253	257	258	258	259	261	263	256	256	258	258	258	258	260	259	261	262	261	260	259	257	255	255	256	259	261	262	261	259	257	256	256	259	259	256	254	252	255	258	260	257	257	256	257	254	253	252	252	255	256	254	256	256	255	257	257	256	259	255	252	252	252	251	248	249	249	251	253	254	254	254	254	254	254	254	254	251	250	251	252	252	252	251	252	253	250	247	250	247	248	249	249	251	252	253	253	252	249	246	246	251	254	256	251	249	248	254	250	253	248	248	250	250	249	248	248	247	246	244	252	252	249	248	246	246	248	249	251	247	245	246	245	245	247	247	249	247	245	245	246	249	246	243	243	246	248	248	248	249	249	248	247	248	250	251	250	250	248	252	253	253	250	249	249	249	249	248	246	245	245	245	248	247	246	246	245	243	243	244	244	243	243	247	252	251	246	241	246	241	241	242	241	243	244	243	242	240	240	239	240	242	241	245	245	246	244	241	241	240	244	241	241	244	238	238	0	0	0	0	0	0	0
270	269	269	273	275	278	279	279	282	282	280	278	275	275	275	278	278	276	276	276	271	271	271	274	274	277	281	281	280	279	279	279	275	272	271	275	280	279	278	278	280	273	274	269	274	276	278	278	280	279	278	278	277	276	276	277	278	278	278	277	275	278	279	280	274	272	273	273	274	275	276	272	272	277	275	272	271	272	271	271	271	270	270	271	273	275	273	273	273	273	270	268	267	268	268	271	276	276	272	271	272	272	273	272	271	269	271	272	274	270	269	270	272	273	273	271	272	272	272	270	269	269	269	271	268	268	272	273	270	267	266	267	270	270	270	270	271	272	273	273	271	271	270	270	269	270	271	275	275	274	272	265	264	265	265	274	276	273	273	270	270	270	271	271	271	271	271	267	265	268	270	271	272	273	274	270	268	268	267	267	267	269	269	272	274	276	271	271	271	270	267	263	267	268	269	268	266	265	265	267	267	266	265	264	269	269	270	270	270	272	272	272	270	267	269	271	272	271	271	272	270	272	273	273	272	272	272	272	269	269	265	264	267	266	268	269	269	267	267	265	268	270	273	273	272	270	269	269	269	265	265	269	268	270	265	265	265	266	266	264	266	266	267	265	267	266	265	265	265	264	268	267	267	267	272	271	267	265	265	266	265	266	268	269	269	266	265	265	265	263	267	269	268	268	266	265	265	265	267	270	269	267	262	263	263	266	267	268	265	268	269	270	262	262	263	264	263	261	262	260	263	264	267	262	260	259	257	257	257	262	262	262	261	260	262	264	262	261	258	259	261	262	262	261	259	259	258	259	258	260	262	261	260	259	262	263	263	264	265	264	260	259	260	258	258	259	261	261	260	259	258	257	255	259	261	258	262	264	264	262	260	260	259	259	260	257	258	258	259	259	259	260	258	254	255	256	260	264	263	260	256	257	258	258	258	259	259	259	259	260	260	263	262	264	261	257	254	254	254	254	257	257	258	258	256	256	255	254	254	256	257	258	257	256	260	260	259	258	251	252	256	257	257	259	259	258	258	256	256	256	258	255	253	250	253	256	259	260	257	255	256	255	254	254	253	253	250	250	252	256	257	256	257	256	257	257	255	253	253	250	248	246	246	247	248	248	251	255	255	255	254	254	253	253	252	250	249	249	252	252	254	253	249	245	249	250	247	246	247	248	249	251	251	252	249	248	246	246	247	245	247	248	247	247	251	248	248	245	245	246	248	247	246	246	246	245	244	243	247	249	247	246	245	247	248	245	243	243	240	241	245	247	249	246	242	245	241	248	243	239	240	240	240	244	246	247	246	247	242	242	242	247	249	248	246	249	250	253	243	245	244	245	247	246	246	245	245	246	245	246	246	245	245	245	243	243	243	242	242	242	245	249	248	244	237	240	241	240	240	241	242	243	244	240	238	238	239	239	239	240	240	240	243	241	241	239	240	240	239	239	238	238	238	0	0	0	0	0	0	0
268	266	266	269	271	274	276	276	280	279	277	273	270	270	272	273	275	268	269	269	270	271	272	272	273	273	274	275	277	277	277	277	274	270	270	275	278	277	272	272	271	269	273	274	268	270	271	273	273	275	274	274	274	274	274	273	277	275	275	274	276	276	271	270	270	268	267	270	272	272	264	264	268	267	268	271	271	270	269	269	269	269	269	269	270	272	272	272	272	271	267	265	263	262	265	265	267	266	266	265	269	270	269	267	269	271	272	274	274	271	268	266	263	266	265	262	264	268	269	272	270	269	267	265	266	266	266	264	262	262	263	262	265	267	267	268	269	267	270	271	271	270	268	266	268	270	271	273	273	273	265	264	264	267	270	265	265	269	271	269	267	265	269	269	268	267	265	263	263	265	269	271	271	271	271	268	266	266	267	267	267	267	270	269	269	268	268	268	267	267	263	263	266	267	267	265	263	263	264	266	268	265	264	261	260	260	262	264	263	264	267	267	265	264	265	264	266	269	271	267	266	267	274	273	272	270	272	269	266	267	265	264	263	264	265	263	263	264	262	262	261	269	271	272	269	269	269	268	269	262	261	263	266	265	263	262	262	264	264	264	265	266	267	265	266	266	266	266	265	265	268	265	264	264	268	268	264	261	263	265	262	264	264	268	267	270	265	264	262	264	262	262	257	261	265	265	263	262	265	266	266	263	261	261	262	264	263	263	263	268	268	268	263	259	258	259	262	262	259	259	261	269	267	264	264	262	263	262	262	262	262	262	259	259	259	262	261	259	257	258	260	260	260	260	257	256	257	258	259	260	260	259	257	258	259	257	256	260	261	262	261	257	256	256	256	257	260	260	259	257	256	253	254	255	258	259	258	259	264	258	258	259	258	257	253	251	251	255	255	258	259	259	258	257	255	254	257	261	263	256	255	254	256	256	255	251	252	257	258	258	259	259	260	255	257	256	254	255	256	257	257	257	255	254	254	254	251	251	251	252	253	252	254	254	254	259	258	251	250	249	256	256	256	255	257	256	253	254	252	252	257	254	254	254	255	253	254	256	258	257	257	255	254	253	251	248	248	248	247	254	253	252	251	256	258	257	254	253	253	253	249	247	246	246	248	245	246	251	253	254	252	253	252	251	250	251	251	249	249	251	252	252	248	243	248	250	250	247	248	251	247	246	247	248	248	247	246	245	243	243	243	242	241	239	248	247	246	246	245	245	247	246	246	248	248	247	243	241	242	243	246	246	245	244	244	243	241	240	242	243	245	248	247	248	243	242	242	241	243	239	240	238	239	240	245	247	246	245	242	241	241	240	241	240	240	244	246	242	243	243	244	245	245	245	245	245	243	242	244	246	244	243	243	243	242	242	241	241	242	241	242	244	244	239	238	239	237	238	240	239	240	241	241	239	238	238	239	239	238	239	238	237	241	239	238	238	238	239	239	238	241	238	239	0	0	0	0	0	0	0
268	266	268	268	269	271	274	275	275	276	275	268	266	266	267	270	270	265	265	265	267	269	270	269	270	270	270	272	273	273	272	267	267	263	267	272	275	270	268	268	269	271	272	272	267	269	270	273	273	274	273	272	273	274	275	274	274	274	274	272	272	271	268	267	267	269	267	268	267	266	263	263	263	263	264	266	269	268	267	267	268	269	269	269	269	270	270	270	269	263	261	260	260	264	263	263	263	263	265	265	266	266	267	269	270	270	271	274	273	270	261	260	261	264	263	261	262	261	265	268	269	267	264	262	264	265	265	263	261	261	259	258	260	261	266	264	265	269	263	264	270	268	265	264	266	269	271	271	270	266	263	264	263	265	266	265	265	265	265	266	267	263	263	265	264	263	263	262	263	264	263	261	260	265	264	266	265	266	266	266	267	267	266	266	266	267	267	267	267	265	262	262	264	264	265	265	261	261	263	265	266	265	264	260	259	259	261	262	261	261	258	260	262	261	263	263	262	263	263	265	268	266	265	271	271	269	268	267	266	265	262	259	260	260	260	259	260	262	263	262	263	263	271	268	266	267	267	267	268	261	260	263	264	264	264	262	262	263	262	262	264	265	262	263	264	264	265	265	265	262	264	261	260	261	266	266	262	258	261	264	263	263	266	263	268	265	266	263	263	264	259	259	257	259	262	262	262	262	264	264	263	263	262	262	262	261	261	260	260	263	267	261	260	256	257	258	262	263	260	259	259	260	263	260	259	258	260	260	262	261	261	259	256	256	257	260	259	257	255	256	257	260	258	258	257	255	257	258	258	258	259	259	257	259	259	257	256	255	258	256	256	256	256	256	256	257	259	260	258	257	255	253	254	256	257	256	256	256	258	257	257	257	257	254	252	251	251	253	253	256	259	260	258	258	255	253	256	258	259	258	256	254	254	254	250	252	254	255	255	256	254	253	251	253	254	254	255	256	256	257	256	254	252	250	249	248	249	250	250	249	251	252	248	252	254	255	252	249	248	247	249	255	251	253	253	252	253	250	251	252	252	256	253	255	253	253	250	252	253	252	250	252	252	251	248	247	247	246	247	249	250	251	251	254	259	255	253	249	248	249	252	250	247	248	249	246	246	247	248	248	247	247	246	247	249	249	248	248	246	248	247	247	242	241	245	249	249	249	245	246	241	240	242	245	248	241	238	240	241	242	242	242	242	240	247	248	248	246	246	245	246	247	248	244	243	242	240	237	238	240	245	246	245	243	242	243	241	240	239	239	243	243	242	240	238	238	237	238	241	241	240	238	235	239	243	245	243	237	242	240	239	240	242	243	240	240	237	240	242	242	243	244	244	244	245	243	242	239	238	243	242	241	241	243	241	240	240	240	240	240	241	240	240	237	237	238	237	237	238	239	239	235	238	238	238	238	238	238	238	238	237	236	236	237	236	236	236	237	237	237	241	239	239	0	0	0	0	0	0	0
268	266	268	268	266	267	270	273	273	273	267	264	263	263	264	266	264	265	261	261	263	268	269	266	267	267	269	270	270	270	265	261	261	264	270	273	272	270	269	269	270	270	270	270	269	269	270	271	271	272	270	266	271	271	274	274	268	265	262	262	262	263	265	266	267	267	263	265	265	264	262	263	263	263	263	263	264	261	263	264	263	264	263	263	261	259	260	262	262	259	258	258	260	262	260	261	261	261	263	264	264	264	266	267	267	269	268	269	271	267	262	260	260	262	260	262	260	259	260	261	261	257	258	260	262	263	264	262	262	255	254	254	257	261	265	260	260	261	259	257	258	263	263	264	264	263	262	256	256	256	258	259	260	264	264	262	263	264	264	262	263	265	261	263	260	259	260	259	262	262	261	262	261	261	261	264	263	264	264	264	266	265	264	263	263	265	266	266	265	265	263	261	261	262	263	262	259	259	262	263	264	265	265	263	260	257	257	259	259	258	256	259	258	258	260	261	262	262	259	263	259	259	264	265	267	263	261	260	260	261	261	259	257	256	255	256	259	261	261	261	261	262	264	267	266	267	265	263	263	262	256	262	261	261	261	261	261	260	259	258	262	260	263	261	261	263	264	264	263	257	259	258	256	261	264	262	255	256	256	257	256	261	263	260	268	263	262	261	261	259	259	255	257	257	260	259	260	261	262	264	263	262	262	262	260	257	257	257	258	260	260	260	254	253	253	257	260	262	262	258	257	256	257	256	256	259	258	258	257	261	258	257	257	256	256	256	257	255	255	256	257	258	257	253	253	254	254	257	257	257	257	257	257	256	257	255	253	253	256	255	255	254	255	251	252	254	255	256	256	254	254	254	255	256	249	250	250	253	254	254	254	254	254	254	249	247	248	249	251	252	253	256	258	258	254	255	255	254	254	253	253	252	250	250	251	251	254	254	249	249	248	250	248	246	250	252	255	255	256	257	255	251	248	248	247	248	249	249	249	249	250	249	247	248	251	252	249	247	246	246	245	246	250	247	250	248	249	249	250	250	251	253	252	254	253	252	251	249	249	251	251	249	252	250	250	247	246	245	245	247	246	248	251	254	248	247	248	246	244	244	246	248	249	250	249	247	246	246	245	242	242	241	241	245	247	246	247	243	244	246	247	242	241	242	244	248	248	244	245	245	244	241	240	240	239	238	240	241	241	242	242	243	245	243	244	239	242	242	237	241	240	237	242	242	237	236	237	237	237	238	240	239	237	236	237	238	237	236	237	237	239	241	240	238	237	237	237	238	241	243	240	237	231	239	231	236	237	237	244	240	238	239	243	237	237	237	236	234	234	237	238	240	239	238	240	241	240	239	238	238	240	241	241	240	238	237	239	237	235	234	235	235	237	238	239	237	237	237	236	235	233	236	237	236	236	235	236	236	236	236	237	236	236	236	235	234	233	236	236	237	237	233	236	0	0	0	0	0	0	0
265	263	263	263	265	266	264	265	265	265	263	263	263	262	262	261	261	261	258	258	260	267	265	263	261	263	263	263	263	266	267	265	265	266	270	274	273	271	270	270	269	268	267	268	268	267	269	270	268	268	266	267	269	268	270	266	263	260	262	262	261	262	263	265	262	261	262	263	262	263	263	263	263	264	263	262	261	257	258	261	264	263	263	263	266	261	261	261	259	258	258	258	259	259	259	259	257	257	259	261	261	261	263	263	264	264	265	265	264	264	260	259	260	260	258	258	258	260	260	260	260	258	258	258	258	259	259	263	262	255	254	255	258	257	257	258	258	259	259	257	256	255	256	258	258	259	256	256	256	256	256	253	254	260	262	265	261	259	255	254	261	261	263	261	257	258	257	258	260	261	259	259	258	259	259	259	260	261	261	263	265	264	263	261	262	264	264	263	263	264	262	261	260	259	258	261	259	259	260	260	260	258	260	261	258	256	256	257	257	256	257	257	259	259	262	263	261	259	258	257	257	257	257	256	266	258	259	254	255	257	259	258	258	257	257	256	258	259	259	261	260	264	265	265	264	265	260	257	260	259	256	256	254	253	256	259	260	261	257	258	257	257	261	260	258	258	257	258	254	256	256	257	256	255	253	257	254	253	254	256	256	256	257	261	259	259	259	257	258	256	255	255	256	259	259	257	258	258	258	259	261	257	257	255	255	255	257	254	253	253	254	254	253	250	253	255	256	258	259	253	255	256	256	255	254	257	255	255	255	255	257	255	255	255	255	255	255	255	252	254	260	257	256	253	252	253	256	256	256	257	256	256	255	254	254	253	252	251	252	252	253	252	252	250	253	253	253	254	249	252	252	253	250	249	249	250	249	250	250	252	251	250	251	252	251	249	251	252	249	249	249	250	256	256	255	253	256	255	253	253	251	250	250	249	249	248	247	248	248	249	247	248	250	247	250	250	250	248	249	249	249	247	245	248	245	247	248	248	249	252	250	248	247	247	250	251	248	245	245	244	244	246	248	247	247	248	247	248	246	245	247	249	252	253	250	249	246	249	248	248	249	249	249	250	248	246	246	244	245	244	244	247	252	247	249	248	239	242	242	242	243	243	242	244	245	247	247	245	243	240	242	242	240	241	246	245	245	245	246	245	244	241	240	241	246	246	240	238	238	240	241	239	239	239	238	238	240	239	242	244	247	247	246	244	239	241	239	236	237	240	238	236	238	240	242	239	238	238	236	236	239	235	234	234	235	235	236	238	239	236	234	234	235	238	238	237	237	237	243	240	236	242	233	230	235	236	236	237	238	241	238	238	235	235	234	235	234	234	232	235	233	235	237	236	238	241	240	239	238	236	232	233	235	237	236	235	235	234	236	236	233	233	230	229	231	231	233	236	234	232	234	234	236	236	236	235	235	234	234	235	237	237	237	236	234	234	235	235	236	236	236	233	231	0	0	0	0	0	0	0
259	257	258	258	259	261	264	265	266	266	265	265	263	260	260	259	260	260	260	263	263	262	262	259	258	254	254	253	257	261	265	266	261	261	264	267	269	269	269	269	267	266	264	265	265	264	263	263	261	261	257	260	262	264	267	262	259	260	261	261	263	264	264	262	261	261	261	262	258	262	262	262	259	259	257	257	255	259	259	259	259	262	265	261	260	260	260	259	259	255	256	258	259	255	255	256	256	257	257	258	258	258	260	260	260	261	260	261	262	262	259	259	257	257	255	256	255	258	259	259	254	257	257	257	257	256	256	255	252	252	252	252	253	254	250	253	257	256	256	255	254	256	257	257	257	256	257	256	255	253	254	253	250	251	261	263	257	254	254	252	252	252	254	255	256	255	256	257	258	262	260	258	257	258	259	261	261	260	260	261	263	264	259	257	256	255	255	253	261	259	259	257	257	258	256	258	258	259	259	258	258	256	255	256	257	259	256	257	254	253	253	256	256	256	257	258	258	260	258	255	256	255	254	252	253	249	251	250	249	253	257	257	252	252	256	257	259	256	254	253	254	253	256	257	257	256	255	255	259	258	257	254	253	253	252	253	254	256	256	256	255	254	255	259	258	256	257	256	255	252	254	255	255	253	253	254	254	249	250	255	255	255	255	256	256	258	259	259	256	253	253	254	255	260	259	257	256	255	254	256	254	252	252	253	253	255	256	254	253	252	252	251	249	250	254	256	249	251	251	252	253	253	254	253	253	253	250	253	251	251	254	253	255	255	253	253	252	251	250	253	255	255	253	250	250	253	251	254	254	254	255	254	253	254	254	252	251	251	251	252	250	252	251	251	251	251	250	249	248	247	250	249	248	249	248	249	250	248	248	249	246	246	247	249	249	249	248	249	247	247	248	248	248	245	246	250	250	252	251	251	250	249	249	250	249	248	245	243	243	244	249	249	250	252	251	248	248	246	246	246	246	246	245	244	246	246	247	246	248	251	250	248	247	248	249	249	247	244	244	245	246	248	248	247	247	246	245	245	245	247	247	247	247	251	246	247	245	246	244	245	245	247	249	246	246	243	244	243	245	242	242	243	247	249	245	239	239	242	242	242	241	241	242	241	243	245	245	246	242	240	242	242	241	240	240	244	246	247	246	246	243	241	241	240	239	237	236	237	239	241	239	238	238	238	238	238	233	240	241	245	248	249	247	243	239	238	237	238	232	231	232	232	238	239	241	239	236	235	236	235	238	239	239	240	237	235	237	238	238	236	233	234	234	237	237	236	236	236	238	236	236	240	234	232	233	234	238	241	239	240	235	232	234	237	233	233	232	232	233	232	234	234	234	239	238	238	238	238	234	236	236	236	234	233	232	234	234	234	236	235	234	233	233	233	231	230	233	234	233	232	232	233	236	236	234	234	230	233	234	235	237	238	231	230	234	233	235	235	236	235	234	233	229	0	0	0	0	0	0	0
257	254	254	256	256	259	262	264	265	265	267	265	262	259	259	258	257	259	262	258	258	259	260	262	259	256	256	255	256	255	260	257	256	256	257	262	267	267	267	267	260	260	258	259	261	263	262	260	258	258	258	257	259	261	258	261	260	258	260	262	262	264	262	263	260	259	256	255	255	255	255	256	257	257	258	257	258	257	258	258	258	258	261	259	260	260	260	257	256	254	255	257	259	256	255	256	255	256	257	257	258	256	256	257	257	256	258	258	259	259	260	258	256	253	253	252	254	254	255	251	253	254	254	255	254	254	254	253	252	252	252	252	252	253	251	249	250	255	254	253	253	255	256	253	254	253	253	254	253	251	252	251	251	251	252	252	252	252	251	251	251	251	251	252	254	256	256	254	253	253	251	252	255	255	259	259	263	265	260	259	261	257	258	257	257	256	255	254	253	255	259	258	257	255	253	255	258	258	260	260	258	255	251	252	252	254	256	257	256	257	256	256	255	257	256	256	256	260	258	256	255	251	253	252	251	253	251	253	252	251	252	252	251	251	251	254	254	250	252	254	252	253	253	252	253	253	253	254	253	256	254	253	252	252	252	253	254	254	254	255	253	252	252	251	254	255	256	254	252	251	251	253	254	248	249	249	250	247	249	250	252	252	256	255	256	258	259	256	254	253	252	252	254	259	259	256	254	253	251	252	252	250	250	251	252	252	252	249	249	249	250	250	249	248	248	250	250	250	251	251	252	250	251	253	252	249	249	249	254	255	256	254	253	254	253	252	251	249	246	251	248	246	245	247	248	248	250	251	254	254	255	254	253	253	252	251	248	249	247	248	249	252	251	251	250	250	250	247	246	246	248	249	249	249	248	249	248	242	245	244	244	242	245	245	246	246	249	247	247	248	246	246	245	244	246	249	248	246	245	244	247	247	247	251	246	248	248	246	246	244	244	247	246	248	246	247	247	246	246	245	246	245	246	244	243	246	246	245	246	244	246	245	245	244	244	245	243	241	242	243	248	244	246	244	245	245	244	245	245	246	246	245	245	245	243	242	243	241	243	245	244	242	240	238	239	241	244	243	243	244	241	241	241	239	233	233	233	237	239	241	237	236	237	239	242	245	242	239	238	238	239	237	237	236	237	236	242	246	247	241	233	234	236	236	237	237	236	239	239	237	237	237	240	238	232	232	237	241	242	242	242	242	243	241	239	236	236	235	235	234	235	236	237	237	240	238	239	236	234	234	237	235	234	234	237	236	237	238	241	239	234	234	236	237	236	236	235	235	237	235	237	237	236	236	231	233	229	233	234	225	228	231	231	232	231	234	232	234	235	235	228	228	228	233	233	233	233	233	234	235	235	235	234	231	232	233	234	235	233	232	233	234	234	232	231	231	231	232	232	234	232	234	234	231	233	228	229	232	233	235	234	230	229	228	230	231	231	233	234	234	232	229	230	0	0	0	0	0	0	0
254	252	253	256	256	259	261	260	261	261	260	264	261	258	258	254	256	259	255	256	256	257	262	260	254	253	253	252	253	254	255	255	256	256	256	257	260	263	264	264	255	255	255	256	259	261	260	258	256	257	257	256	257	258	259	261	259	258	257	260	260	260	260	259	257	256	258	255	255	255	255	256	258	258	258	259	256	254	252	255	258	258	255	256	256	258	253	253	254	253	255	256	255	256	254	255	254	252	258	258	258	257	254	254	253	254	256	257	255	257	251	251	251	251	249	248	250	251	251	251	250	251	253	252	251	251	253	254	253	252	252	250	250	252	251	250	248	246	250	252	252	254	256	250	249	250	252	251	249	249	250	250	249	250	251	251	251	250	249	249	250	249	249	250	253	254	256	254	250	250	251	255	255	254	251	255	258	259	258	255	254	251	252	256	257	257	254	254	254	255	260	258	257	257	251	252	254	255	260	257	256	256	255	249	249	252	252	254	254	254	253	249	250	252	250	255	257	251	255	255	246	247	249	251	249	251	252	251	250	249	251	250	250	247	249	248	254	250	250	251	253	251	250	248	250	253	253	252	252	252	253	253	252	251	251	251	251	253	253	247	250	250	249	248	252	254	253	252	250	252	252	250	249	248	248	248	247	246	246	246	246	245	247	247	249	247	257	254	253	252	250	250	252	256	257	256	253	252	250	250	251	250	249	249	249	251	249	247	248	247	246	247	246	246	247	248	251	247	248	248	249	247	249	249	247	247	248	249	249	253	252	253	253	253	253	253	249	249	246	246	247	246	245	244	246	247	246	249	251	253	252	248	246	246	244	244	243	244	245	247	249	250	250	251	250	250	248	247	244	244	247	248	248	248	246	245	243	243	242	242	241	243	244	245	247	247	243	246	247	247	245	244	245	244	243	243	243	244	244	244	245	244	240	242	245	246	245	245	244	243	243	242	242	243	244	246	246	244	243	245	245	244	245	243	242	237	240	241	237	239	241	243	242	242	242	239	239	241	242	244	240	239	240	243	242	243	242	243	244	244	244	243	241	241	240	240	242	239	242	243	241	237	235	234	236	237	243	242	241	240	239	241	240	239	237	237	236	236	237	236	238	238	239	233	234	238	239	239	239	238	236	237	235	234	235	235	235	234	234	234	234	235	236	235	236	236	236	238	237	236	233	235	235	235	231	231	235	238	237	238	237	224	229	234	233	234	233	235	235	235	235	236	236	236	237	238	233	236	234	233	233	235	234	233	237	234	239	236	238	238	235	233	236	235	234	233	233	231	229	231	236	228	232	234	234	229	228	232	233	231	225	224	227	228	229	229	231	231	230	228	228	227	227	229	232	229	229	236	238	236	236	234	232	230	231	232	232	232	231	229	227	229	233	232	231	231	231	231	233	233	233	230	230	230	227	227	228	231	231	232	229	229	228	226	227	230	230	231	231	231	229	230	229	0	0	0	0	0	0	0
252	251	253	256	256	258	256	252	251	251	252	256	256	255	254	254	252	256	255	252	254	254	258	253	250	252	253	253	252	252	252	253	253	254	254	255	256	257	256	255	253	253	253	256	257	258	259	257	254	253	253	254	256	258	260	259	258	256	257	257	257	257	256	257	257	257	248	247	248	249	251	252	252	252	252	251	254	252	250	249	252	252	253	255	254	251	249	249	251	252	254	256	256	253	251	251	252	251	250	253	255	255	256	251	251	251	254	252	251	249	250	250	247	244	242	245	245	248	250	250	251	250	250	249	249	249	251	250	251	250	251	251	249	250	251	251	250	248	248	250	250	250	248	247	248	248	249	248	249	249	248	248	248	249	251	251	251	249	248	249	249	249	250	251	251	253	252	251	250	248	249	251	254	252	251	252	251	252	252	253	248	247	247	250	257	255	254	254	254	255	256	255	256	254	252	252	253	255	249	247	250	251	252	251	249	250	251	252	247	249	249	249	249	248	250	250	250	251	250	250	244	245	248	246	247	248	251	251	250	249	250	248	248	247	247	249	248	246	250	251	251	249	247	248	247	247	246	247	248	251	254	254	249	249	250	250	249	249	247	248	248	246	246	246	250	252	247	250	247	248	251	249	247	248	247	247	246	244	246	246	245	246	245	244	245	247	248	248	247	249	249	247	248	254	255	256	251	251	250	250	251	249	247	246	245	244	247	246	246	248	246	246	245	245	246	249	247	246	246	245	247	247	246	248	245	246	247	248	248	245	245	247	247	247	248	249	249	249	249	246	242	244	243	243	245	246	246	247	250	251	250	246	245	246	244	243	239	240	242	246	245	245	245	245	247	247	246	245	246	246	245	246	246	242	242	241	241	243	239	239	241	244	243	244	242	244	243	242	246	246	240	243	245	244	242	243	242	243	244	243	243	240	240	239	242	243	243	243	243	241	241	241	241	242	242	244	244	242	244	244	243	243	244	240	240	238	238	238	240	241	241	238	238	238	238	237	239	240	242	241	241	238	239	240	239	241	244	244	241	237	236	236	237	237	238	237	236	237	238	238	238	235	234	235	236	237	241	238	237	237	238	238	236	238	239	239	236	236	237	236	236	237	235	234	233	234	235	241	238	236	236	235	235	232	233	234	235	237	234	234	235	236	237	234	233	233	237	234	233	232	228	233	230	231	231	228	235	235	235	235	231	231	222	226	228	227	227	229	234	234	236	237	237	238	236	232	231	231	231	230	230	229	229	227	227	229	228	228	228	228	229	231	232	231	230	230	229	228	227	225	228	230	231	226	227	229	229	232	232	226	224	224	227	227	227	227	228	230	229	228	228	227	229	231	233	230	227	227	229	230	235	232	230	228	229	231	229	230	226	225	225	225	228	230	231	229	229	231	232	233	229	229	229	228	227	227	227	230	231	231	228	228	228	228	225	227	229	229	230	229	228	228	230	0	0	0	0	0	0	0
250	252	253	255	255	255	252	250	250	251	251	254	255	254	249	249	250	251	252	248	249	249	252	249	250	252	252	252	252	251	252	251	252	254	254	254	252	250	250	252	251	252	252	256	256	256	257	256	254	254	254	254	252	258	255	249	249	251	254	255	256	256	256	251	251	250	248	247	248	249	250	251	251	250	248	248	248	250	249	249	250	250	250	252	251	247	245	247	248	249	253	254	252	251	247	246	247	249	249	251	251	251	255	255	255	254	252	249	247	247	248	247	246	241	242	244	247	245	248	247	247	246	245	244	249	247	249	248	248	248	250	249	246	247	249	250	250	249	248	249	245	245	244	245	246	248	248	250	247	248	246	247	247	249	251	252	251	249	249	249	248	249	251	252	253	253	250	250	250	248	244	248	249	249	252	250	251	246	245	245	247	248	247	248	248	250	253	253	253	250	251	250	250	250	248	251	252	249	247	247	249	249	249	248	249	248	244	245	246	244	246	246	248	248	247	248	247	247	246	243	240	241	243	246	245	247	248	249	250	249	248	247	247	248	244	243	244	244	247	247	253	246	246	246	246	246	244	246	247	248	249	248	249	247	247	246	248	246	247	247	247	247	246	246	247	248	247	245	243	242	246	244	246	247	247	243	242	244	244	246	245	245	242	242	239	243	247	247	248	245	246	246	244	246	247	252	251	249	247	251	251	250	247	245	242	241	244	244	245	249	247	246	244	241	241	245	245	241	241	242	243	248	248	249	247	244	245	245	244	241	241	243	243	246	245	247	247	249	245	243	245	244	243	243	244	243	243	243	246	246	248	245	243	243	244	240	239	239	244	242	244	245	246	246	244	244	244	245	244	242	244	244	243	242	241	239	238	238	238	241	243	243	243	242	242	239	237	237	238	234	239	240	241	242	244	243	242	242	242	241	244	241	239	236	236	239	240	242	242	241	240	241	241	241	241	242	242	243	242	243	243	242	242	242	239	237	239	240	242	241	238	236	235	236	237	237	240	240	241	241	241	240	240	240	238	237	239	243	236	236	235	234	235	236	237	235	234	234	233	233	236	233	233	235	240	241	236	238	236	236	235	235	235	236	239	241	236	234	234	233	233	232	236	235	233	233	237	238	237	236	236	234	232	232	232	232	232	233	231	234	233	233	229	230	231	232	232	232	232	225	227	231	230	231	231	228	231	231	233	233	234	234	225	223	228	226	228	230	232	229	230	234	232	233	230	230	230	228	226	228	226	224	226	226	228	229	227	227	226	226	229	230	230	226	229	229	227	227	227	224	222	222	222	225	227	227	229	229	228	227	226	227	227	226	226	228	231	228	226	226	226	225	227	231	231	231	230	227	228	227	222	223	227	227	228	230	229	228	229	226	226	224	226	227	226	229	229	228	229	230	228	228	226	226	226	227	227	230	229	229	228	225	228	227	224	224	227	227	227	226	226	227	227	0	0	0	0	0	0	0
250	253	253	253	254	254	252	251	249	249	249	251	248	248	249	249	248	249	249	245	247	247	248	247	249	251	251	251	252	250	247	249	249	252	252	251	251	249	248	249	249	249	249	254	255	258	258	258	255	255	249	249	253	254	252	253	248	250	253	254	253	253	253	251	250	247	246	246	247	248	249	253	251	249	248	248	247	247	247	249	251	250	252	252	248	245	243	243	245	249	250	252	247	246	245	246	246	245	246	247	246	247	248	254	246	247	250	247	247	246	246	246	245	243	243	246	246	247	244	242	243	244	242	242	243	245	244	244	245	247	247	245	242	244	245	248	248	248	248	248	248	244	243	242	243	246	247	247	247	244	241	244	246	248	247	247	247	246	246	245	249	249	250	251	251	249	249	248	247	246	244	245	246	250	245	246	244	244	245	245	247	247	245	242	242	241	249	248	248	249	247	247	248	247	246	250	249	248	247	247	249	249	247	246	246	245	246	245	247	247	245	244	246	245	244	243	244	244	244	246	248	249	250	247	241	246	248	244	249	247	245	246	246	247	243	242	243	245	246	244	252	246	246	245	247	247	244	244	247	244	246	247	244	244	246	244	246	245	243	247	246	245	244	243	245	245	245	243	240	239	240	242	244	249	247	242	241	241	242	245	244	242	241	239	240	241	245	247	248	245	244	241	244	242	242	241	245	245	248	248	247	247	247	242	241	240	241	243	247	248	247	245	243	241	243	244	242	239	239	242	243	243	245	244	244	244	245	245	243	240	242	242	243	242	243	245	246	245	242	244	244	246	247	246	244	242	240	241	241	245	246	243	243	244	243	240	238	237	237	242	243	246	246	245	242	244	243	243	243	243	242	242	239	238	239	238	238	238	238	239	241	243	240	240	239	237	237	236	237	238	239	241	240	242	242	241	242	241	240	242	243	240	238	236	235	236	236	240	240	239	239	240	238	239	236	238	239	241	243	241	241	241	242	241	240	239	239	239	240	240	239	235	234	235	237	238	239	239	234	234	235	233	233	235	236	235	232	236	235	235	237	236	235	235	235	234	232	232	233	235	235	236	235	233	237	237	236	237	236	235	235	235	235	235	234	234	235	233	232	232	233	232	235	232	230	233	235	238	238	236	236	231	227	231	232	233	234	235	237	231	231	228	229	229	229	230	232	232	231	227	225	225	228	228	232	228	230	230	230	232	234	228	222	227	226	233	230	230	228	225	226	226	230	230	231	227	232	228	230	227	228	226	225	227	226	229	227	226	226	226	230	226	226	223	225	229	228	225	224	221	221	221	221	226	227	227	225	225	225	225	225	223	224	225	227	228	230	230	227	228	227	227	226	230	231	229	228	228	227	226	222	222	222	227	228	228	228	228	224	226	225	225	225	225	227	226	225	224	225	226	226	225	223	222	225	226	225	228	228	226	225	221	223	224	223	223	225	226	225	224	224	221	222	0	0	0	0	0	0	0
252	251	251	250	251	251	251	250	249	248	248	245	246	244	242	243	243	244	244	244	247	247	246	247	247	245	247	247	247	247	246	248	247	249	250	250	251	249	249	248	246	251	251	255	252	251	247	246	247	249	251	251	256	254	249	247	247	247	250	249	253	251	251	251	248	246	246	243	243	244	246	248	248	247	250	247	247	246	246	244	247	247	247	249	249	243	241	241	242	243	244	247	245	245	244	244	244	244	244	243	243	242	242	243	245	245	245	244	242	245	244	245	245	243	245	246	245	245	244	241	241	243	246	245	244	242	242	242	243	244	245	246	242	243	244	246	248	250	249	248	244	244	242	243	243	245	246	246	245	240	240	238	237	241	241	240	242	244	246	246	244	248	248	248	247	245	243	241	244	242	244	241	240	246	245	245	242	245	245	244	245	243	242	242	244	242	242	240	243	244	244	244	245	245	250	246	244	246	247	247	248	247	246	245	244	244	242	241	243	242	244	243	243	244	245	245	243	245	243	245	247	249	249	248	245	241	243	244	243	243	243	243	246	243	241	240	242	242	244	242	243	244	245	244	248	247	244	243	243	244	244	244	243	242	244	246	242	242	240	242	245	245	244	244	242	242	242	241	240	238	237	236	241	239	240	241	239	241	242	243	242	240	240	241	238	238	237	238	240	243	242	239	242	242	236	238	239	240	237	243	243	242	241	242	238	240	241	244	246	248	242	240	240	242	243	242	238	239	240	241	242	243	243	243	243	242	243	243	239	238	239	242	242	241	241	243	243	244	244	243	245	246	245	240	241	239	239	237	237	239	243	242	243	241	241	236	236	236	237	240	240	244	243	243	241	243	244	243	243	242	242	240	238	237	236	237	237	238	237	237	238	238	239	239	237	238	237	237	237	237	239	239	239	239	239	240	242	241	240	240	239	236	236	235	234	235	234	237	238	238	238	237	236	236	237	237	236	236	233	240	240	242	241	240	238	238	238	238	238	238	240	237	234	235	237	239	235	234	232	232	232	231	233	233	232	231	233	235	237	237	235	238	236	234	235	233	231	230	228	234	235	236	235	231	235	235	232	231	230	230	231	232	231	229	232	233	234	231	231	230	232	232	232	233	231	231	230	231	232	232	231	225	227	224	227	228	232	231	230	227	227	227	228	228	228	228	230	231	229	230	231	231	229	229	227	228	225	226	229	233	227	225	226	227	225	227	228	233	231	225	225	225	229	228	232	229	228	229	226	226	225	223	227	225	228	226	225	225	225	227	230	226	227	225	225	224	226	224	223	222	222	221	220	220	225	224	221	221	223	223	222	223	223	221	223	223	226	228	226	227	226	227	226	227	227	227	227	226	225	223	223	222	223	224	225	226	228	227	223	225	225	225	225	224	224	224	224	224	223	223	224	222	222	221	219	223	223	224	225	225	222	219	221	222	222	222	223	224	222	222	223	222	223	0	0	0	0	0	0	0
251	249	247	246	246	246	247	247	245	244	244	244	244	246	246	243	243	243	244	247	247	248	248	245	242	241	242	243	243	245	246	247	247	248	249	249	250	248	247	247	250	248	244	244	244	244	244	245	246	249	250	250	250	250	249	249	248	248	249	248	249	248	248	246	245	246	242	242	243	244	244	242	241	242	242	243	243	240	242	243	243	245	245	244	244	243	241	241	239	239	240	241	241	240	239	239	240	241	240	239	241	240	242	242	243	243	242	242	243	240	244	245	243	241	244	243	242	244	243	238	243	246	245	245	243	242	242	243	243	244	243	247	243	241	243	244	244	246	246	245	247	244	242	241	242	243	245	240	240	242	242	241	240	240	241	242	240	244	245	245	242	242	246	244	241	241	243	237	237	241	241	242	242	242	243	244	243	243	243	243	240	242	242	242	242	244	241	236	234	234	237	239	241	247	248	246	244	245	247	247	243	243	245	244	242	243	242	242	243	243	244	243	243	242	244	243	243	241	242	245	243	244	245	243	241	241	242	243	242	242	241	241	242	239	237	238	240	241	241	242	242	238	241	241	241	243	244	243	242	243	243	243	244	243	241	237	239	240	239	238	238	242	243	243	242	242	243	242	233	236	236	239	239	239	239	240	240	240	241	240	240	239	237	237	238	238	238	237	237	236	239	239	240	242	236	237	238	237	236	239	241	240	240	238	236	239	234	239	244	242	240	240	240	240	238	243	237	237	239	241	241	243	243	243	243	242	241	240	237	236	238	239	240	240	240	241	241	242	241	243	244	242	240	239	239	239	236	237	237	239	239	243	241	239	237	239	238	235	236	239	236	240	241	242	239	239	239	240	239	239	239	236	235	235	233	233	234	237	236	237	237	237	237	236	236	238	237	237	237	237	237	237	236	236	237	237	238	240	240	240	237	236	234	233	233	233	236	237	237	237	237	237	235	235	235	237	236	236	236	232	232	233	234	236	236	235	235	236	235	235	237	236	235	226	230	237	239	236	233	231	231	230	230	230	231	231	231	232	233	233	231	230	230	231	232	229	228	227	228	228	234	234	233	231	231	234	232	231	231	231	229	231	232	230	232	234	233	231	230	229	229	227	229	231	231	225	228	229	224	223	223	225	225	225	225	230	230	230	228	228	228	226	225	228	228	230	230	228	227	227	226	226	227	227	228	228	225	228	232	229	225	225	225	226	226	225	226	226	226	224	225	226	227	229	233	228	227	231	230	230	225	224	223	217	222	222	225	224	226	232	226	222	222	224	225	224	226	224	223	223	226	225	223	221	224	221	220	219	221	224	221	221	221	222	222	221	221	224	225	226	226	226	223	225	224	224	222	222	223	223	223	223	222	222	223	226	225	226	225	224	225	226	225	222	221	221	222	222	222	222	222	222	222	218	216	219	221	223	224	223	220	220	218	218	218	220	219	222	220	222	222	223	223	0	0	0	0	0	0	0
249	249	243	241	240	241	241	241	241	243	242	242	242	242	245	245	245	246	244	247	248	246	246	239	240	240	241	242	242	247	248	247	248	249	250	250	252	248	247	248	246	243	244	244	242	243	242	243	247	244	243	247	247	249	250	249	249	248	248	247	246	245	245	245	243	241	242	241	240	241	244	241	240	239	238	238	239	239	240	243	243	243	244	243	243	241	236	235	238	239	240	240	240	240	240	242	246	245	244	241	242	242	242	242	242	241	242	242	243	243	245	246	240	238	239	239	241	240	241	238	240	240	243	242	242	241	241	241	240	240	240	241	241	241	242	242	243	244	243	243	241	239	239	238	237	239	240	241	240	240	240	242	242	240	241	241	242	242	243	241	241	241	241	241	241	240	237	237	239	239	240	240	240	240	243	242	241	238	238	240	240	240	239	240	240	240	233	233	232	234	236	238	241	241	243	241	241	242	245	243	243	243	243	243	241	240	242	243	243	242	242	243	241	241	242	242	241	240	242	242	241	244	245	244	241	240	239	238	243	240	238	237	240	238	236	238	238	240	238	236	234	239	239	239	237	238	239	241	240	240	243	243	243	243	238	237	238	238	238	237	237	237	237	242	242	241	239	239	240	240	240	239	239	238	238	239	239	240	240	241	237	237	237	237	236	239	241	236	235	237	238	238	237	239	240	236	236	236	237	238	240	238	238	235	234	234	236	234	236	237	237	236	236	239	239	240	238	236	236	238	238	238	238	238	239	233	235	236	237	237	238	239	239	238	238	239	240	240	239	239	239	238	238	236	235	236	236	236	237	237	238	239	236	236	237	238	239	239	238	234	234	235	234	239	237	237	234	234	229	229	229	234	235	234	234	234	233	234	234	233	234	234	234	236	235	234	234	234	234	235	235	234	235	235	235	235	235	236	237	237	237	235	234	232	233	237	237	237	234	232	233	234	234	233	233	233	237	233	233	231	232	233	231	228	230	233	233	231	231	232	229	229	225	230	234	230	231	233	233	233	229	229	229	229	231	231	229	230	232	231	230	229	230	228	231	231	231	230	229	231	232	231	228	229	232	231	231	231	231	231	229	229	228	229	231	235	233	231	229	228	223	228	230	229	230	225	228	225	223	221	223	225	229	225	225	225	227	225	225	228	229	226	224	224	227	229	228	225	223	223	224	224	225	225	226	227	230	231	229	227	228	221	222	223	222	222	221	224	223	219	219	219	220	227	228	225	224	222	222	222	222	223	224	225	222	222	222	222	229	230	225	221	221	224	222	219	220	218	219	222	223	222	221	222	222	223	223	219	219	223	224	224	223	223	222	217	218	221	222	224	225	226	223	222	220	219	218	220	222	222	221	223	222	222	222	222	225	223	223	222	222	224	223	220	220	220	222	222	222	221	221	220	218	214	214	214	218	219	220	220	219	220	220	220	220	220	221	219	217	218	218	221	222	0	0	0	0	0	0	0
247	247	240	235	233	234	234	235	241	244	239	239	240	243	242	242	242	242	242	242	239	237	237	238	237	239	240	246	244	244	240	241	243	245	247	246	246	247	243	242	245	246	243	243	241	242	243	243	241	238	240	247	247	249	249	248	247	245	245	246	246	245	244	244	241	241	241	240	238	238	241	245	240	238	239	239	240	240	240	241	240	239	240	241	240	238	235	235	236	238	239	239	239	240	241	243	245	242	237	238	238	240	240	241	241	240	239	239	240	240	240	238	238	238	239	239	240	239	237	236	237	238	239	240	239	237	238	240	239	237	238	240	239	241	241	242	242	242	238	237	236	235	234	237	236	236	237	239	240	240	242	242	242	243	242	243	243	241	240	240	240	239	238	240	237	237	236	238	241	239	239	240	237	235	239	237	236	234	238	238	236	239	238	237	233	232	233	233	233	234	235	234	237	239	241	241	239	239	238	237	244	242	243	243	241	241	240	242	241	241	238	242	238	240	237	236	238	240	240	239	239	240	244	244	241	237	234	238	239	237	235	235	235	237	235	237	239	239	237	236	236	238	237	233	232	234	236	238	239	240	239	241	241	240	237	236	237	237	237	239	237	237	240	239	238	235	233	238	239	238	238	239	239	237	237	238	240	236	237	238	237	237	237	236	236	240	238	240	236	236	236	234	233	233	237	240	240	236	236	238	238	237	237	234	233	232	234	234	237	237	237	239	238	238	236	236	235	233	232	234	235	235	236	236	238	235	233	235	236	238	239	239	239	238	236	237	237	237	239	236	237	236	235	234	233	233	234	235	236	234	234	237	235	236	237	237	237	237	236	234	231	230	230	236	237	237	233	235	234	229	231	231	233	233	232	232	232	230	231	232	233	233	231	229	232	232	232	233	232	232	233	234	234	235	234	233	233	233	234	235	237	235	234	232	235	234	234	232	232	231	231	230	233	231	231	231	232	231	231	230	232	232	230	228	231	233	232	232	230	229	229	226	227	229	227	230	230	232	232	228	228	228	227	229	229	230	227	228	226	227	228	227	228	229	231	231	231	230	230	228	228	228	228	228	228	228	226	226	226	230	228	226	227	228	229	230	231	228	229	227	224	224	223	222	223	222	222	221	221	219	221	224	223	221	222	221	221	226	226	227	224	223	223	223	223	227	224	223	223	222	221	220	220	224	227	229	225	226	227	224	219	219	219	220	220	221	219	222	219	218	219	219	222	221	221	222	223	222	221	221	223	224	224	226	222	222	223	223	222	221	222	223	222	221	219	219	218	218	218	220	219	221	222	222	222	220	222	222	220	221	221	219	218	219	219	217	215	215	218	222	221	221	220	221	220	219	218	220	223	223	223	221	220	220	220	218	214	222	219	221	221	222	219	218	218	219	219	219	219	218	215	213	216	217	215	215	215	216	219	219	219	220	217	217	218	217	216	217	217	217	218	218	220	0	0	0	0	0	0	0
245	245	240	230	230	230	230	233	240	242	237	237	237	238	240	240	239	239	241	240	237	239	240	240	241	240	236	236	235	235	234	236	240	242	241	240	240	239	239	242	243	242	242	239	239	240	240	240	240	238	239	246	247	247	247	241	241	239	242	241	241	242	242	240	240	239	239	237	236	237	241	238	243	239	239	240	241	241	241	240	240	239	237	237	237	236	232	231	231	231	232	233	236	239	239	237	234	235	235	235	237	238	239	239	239	240	239	238	238	237	238	236	237	237	237	238	240	238	236	236	236	238	237	234	233	234	233	233	236	236	237	238	239	238	239	240	240	240	235	236	237	237	237	238	238	239	235	239	235	239	240	241	240	240	241	242	243	238	239	239	236	236	236	235	235	235	235	236	233	238	237	236	235	233	235	233	234	235	236	238	235	238	235	235	232	231	232	233	233	233	233	234	239	241	241	240	239	238	237	238	238	238	237	237	238	237	241	236	233	233	232	235	233	237	236	235	234	240	238	237	236	235	240	241	239	234	231	230	234	233	233	233	235	235	237	238	238	240	238	237	237	234	236	232	231	229	232	233	235	236	236	236	237	237	238	236	236	236	232	234	237	238	239	238	234	230	232	232	233	236	239	237	237	237	236	233	236	236	237	233	233	237	236	237	237	236	237	237	235	230	230	230	230	233	232	235	234	233	234	237	236	235	234	233	233	232	235	237	237	237	238	239	236	236	235	235	234	233	234	234	234	233	235	235	234	232	232	231	234	234	234	235	235	235	234	233	231	235	235	236	235	231	232	231	231	234	233	231	231	231	231	233	234	236	236	236	234	233	232	232	234	231	235	235	236	236	236	231	230	230	229	231	231	231	232	231	231	229	229	231	232	231	230	230	229	232	230	231	231	230	230	233	234	234	232	232	231	231	233	231	231	229	230	230	230	231	231	231	230	232	232	230	228	229	229	230	231	231	232	230	232	229	230	229	228	228	228	229	229	229	229	225	228	228	228	226	226	227	227	227	225	226	226	228	229	227	226	225	225	225	224	225	230	230	229	229	229	226	229	228	228	228	228	228	228	227	226	226	227	226	226	226	222	223	224	226	227	227	227	226	224	225	223	222	222	221	223	222	221	222	223	222	220	221	221	220	221	223	223	216	221	220	222	223	222	222	221	222	221	222	220	220	220	222	224	222	222	221	221	219	220	221	218	218	218	218	221	221	219	219	221	221	222	223	222	222	223	222	220	221	222	223	224	226	226	225	222	221	220	220	218	217	220	218	218	215	216	216	218	221	221	221	222	222	221	219	219	219	219	218	219	219	219	219	218	217	215	214	217	219	217	218	217	217	218	219	219	218	218	221	219	215	215	215	216	215	213	219	219	220	219	218	216	217	217	216	218	218	218	216	215	218	218	217	216	214	214	214	214	216	217	216	216	217	213	212	213	217	218	218	218	220	218	0	0	0	0	0	0	0
241	234	234	229	232	233	233	233	237	237	232	234	234	236	238	240	239	239	239	239	237	237	240	240	240	238	235	235	234	234	233	235	237	239	240	240	240	238	239	242	240	238	238	237	237	236	237	239	237	238	237	243	245	245	243	240	238	239	240	239	238	239	240	237	237	238	237	236	235	236	237	234	232	234	236	237	238	236	236	236	237	237	237	237	236	238	236	235	236	235	235	235	238	236	235	234	233	234	233	234	232	237	239	239	240	236	236	236	236	236	236	234	234	235	235	237	238	237	237	236	237	238	235	233	232	232	232	234	234	235	237	237	238	237	238	235	239	241	235	235	236	237	238	239	238	240	236	239	234	239	240	239	239	240	240	241	239	236	238	237	236	235	234	236	235	235	236	235	233	233	235	236	234	233	233	231	232	233	234	233	231	231	230	230	230	232	234	233	232	231	234	236	238	239	241	239	235	232	235	236	236	232	231	232	232	232	231	234	236	236	232	229	231	231	232	234	233	234	236	230	232	236	237	235	236	234	232	232	233	231	234	235	235	236	238	238	238	237	236	236	236	236	234	234	232	233	233	232	234	235	235	236	236	235	235	235	233	232	231	233	234	235	235	232	231	230	230	231	235	236	237	237	232	232	232	233	236	235	233	230	229	228	237	237	237	236	236	235	235	233	230	229	228	233	231	236	234	233	237	236	238	236	233	234	230	235	235	239	237	236	236	232	232	233	235	233	232	232	233	235	235	232	234	234	232	230	226	230	233	232	231	231	232	230	228	232	233	232	235	236	232	230	229	229	232	230	229	230	230	231	231	233	235	235	235	234	233	231	230	231	231	231	231	229	231	232	231	230	231	229	229	229	231	230	231	229	229	229	228	230	230	229	231	229	229	228	231	231	230	229	230	230	231	231	230	230	230	229	231	230	230	229	228	227	229	229	230	229	230	230	231	228	228	228	228	228	232	232	231	232	232	229	229	229	227	228	228	229	229	228	228	225	225	226	227	227	227	226	226	225	225	225	226	226	226	226	225	224	224	224	223	224	228	227	227	228	227	226	225	225	225	227	227	230	227	225	224	224	226	225	225	224	221	221	221	222	223	225	225	223	225	224	225	225	224	223	224	222	221	223	222	221	220	221	223	223	225	224	218	218	218	220	221	221	221	221	219	218	219	219	218	216	217	225	223	218	218	221	220	220	220	219	219	217	218	218	219	220	219	221	221	220	220	222	223	223	223	221	221	223	223	223	223	222	223	223	222	220	220	219	217	216	216	218	218	219	220	219	220	221	221	221	221	221	221	221	218	218	218	218	218	218	219	219	218	217	217	216	216	217	220	220	218	216	216	216	215	215	214	215	216	215	216	214	214	214	214	214	217	218	217	214	215	215	216	216	215	215	216	216	218	215	218	217	216	214	212	211	213	215	215	212	212	211	211	211	214	215	218	218	218	214	213	213	0	0	0	0	0	0
231	231	231	229	232	231	232	232	233	234	231	233	233	234	237	238	238	238	236	236	237	236	239	239	238	237	235	236	236	236	236	235	237	238	238	235	238	238	239	240	238	238	236	236	233	233	235	235	234	235	235	237	241	239	239	239	236	236	238	238	238	239	237	235	235	235	232	233	234	235	234	231	232	233	235	236	235	235	236	236	237	236	234	236	236	237	237	236	236	236	236	236	236	234	233	232	232	232	231	229	234	234	236	236	233	236	234	234	232	232	232	234	233	233	231	233	235	235	236	235	236	236	235	231	230	231	232	234	236	234	237	237	238	237	234	238	241	234	234	235	235	235	237	238	239	236	239	237	238	239	239	236	236	237	237	235	238	234	234	235	231	231	231	231	230	231	233	234	234	233	233	235	235	232	233	230	231	232	235	230	229	230	229	229	230	233	233	232	231	231	235	235	236	232	230	229	229	231	233	233	232	233	233	231	231	231	228	230	230	230	231	230	229	229	229	230	233	233	231	230	230	234	235	233	234	235	234	233	234	235	238	236	236	235	238	238	235	232	234	233	234	234	234	234	234	229	232	231	232	233	234	236	236	235	234	236	230	231	231	231	234	235	233	232	230	231	230	231	232	235	236	232	231	231	231	232	234	233	231	230	230	229	233	236	234	234	234	234	234	232	232	231	230	228	229	231	236	233	232	232	232	232	231	231	234	236	235	239	235	235	232	231	230	231	231	232	232	232	232	233	230	230	231	231	230	229	229	231	231	230	231	228	229	228	230	232	233	233	231	230	230	229	228	227	231	229	229	228	229	229	230	230	231	230	232	230	228	229	230	230	229	230	231	229	230	231	231	229	230	232	232	230	229	231	229	228	226	227	227	228	229	228	231	230	228	229	231	230	229	228	229	230	231	230	230	228	225	228	227	230	230	226	226	226	227	226	227	228	228	229	229	226	225	225	225	227	229	229	230	229	225	224	225	230	230	229	228	224	228	228	227	225	224	224	224	227	227	227	225	224	223	222	223	223	225	226	225	225	224	224	222	225	226	225	225	225	225	225	225	224	224	226	226	225	224	221	223	226	227	226	225	222	219	219	220	222	221	221	224	222	225	223	224	221	219	220	221	222	222	221	220	220	218	220	218	218	218	220	220	218	219	220	218	220	220	219	221	220	220	219	220	217	218	222	222	218	218	220	220	218	219	220	219	218	217	218	218	218	219	221	220	220	220	220	221	224	222	220	221	220	221	220	221	222	222	222	221	221	219	219	217	216	218	218	217	219	219	218	219	220	220	218	220	221	220	220	219	217	217	217	217	218	218	218	217	217	218	216	215	213	213	214	215	216	215	215	216	215	214	215	215	213	215	215	215	215	213	214	215	214	214	213	213	213	214	213	213	214	213	210	213	213	218	217	213	213	213	210	210	211	213	213	212	209	209	210	212	212	215	216	212	211	212	212	0	0	0	0	0	0
230	229	229	229	232	232	230	230	230	231	231	232	232	234	235	236	237	235	235	235	236	235	235	236	236	236	236	235	237	236	236	235	235	232	232	232	238	238	239	239	232	232	232	232	233	233	233	233	233	235	233	234	234	236	236	236	235	235	235	236	237	237	235	233	230	230	231	232	233	233	230	229	229	231	237	236	237	235	235	236	236	236	231	233	233	235	236	234	234	233	234	231	233	231	231	233	231	231	231	231	229	232	230	231	230	230	232	232	232	231	232	233	230	229	229	230	231	234	234	232	231	232	233	231	229	230	231	236	237	232	231	232	235	237	236	232	232	233	233	234	234	235	234	236	237	236	235	231	232	232	232	232	233	234	232	234	235	234	233	231	230	230	229	230	229	229	229	233	234	236	234	236	234	233	233	231	231	232	233	231	230	229	230	229	230	231	233	230	233	231	232	233	232	232	229	230	230	231	232	231	232	232	232	232	232	230	228	228	230	230	230	230	232	229	229	229	234	233	231	229	230	230	228	228	229	229	229	233	235	233	234	235	235	234	233	231	230	233	233	234	233	232	233	233	233	230	229	229	225	227	231	230	230	231	234	236	231	231	230	230	232	232	232	232	232	229	229	230	230	233	234	231	228	228	228	230	231	231	231	230	230	229	229	234	233	232	233	233	232	232	234	234	234	235	236	237	233	230	231	230	233	234	233	235	235	232	235	233	232	234	231	230	229	228	229	227	228	228	231	231	226	227	224	227	230	229	229	228	228	228	226	228	228	228	230	231	233	232	228	228	229	228	230	231	231	230	226	226	227	226	226	227	227	227	226	227	225	228	228	228	228	228	229	229	228	230	230	231	233	234	233	230	230	229	228	228	228	226	226	226	227	227	229	228	227	228	231	231	230	228	228	226	227	227	227	225	225	225	226	227	225	222	225	226	226	227	228	226	227	229	225	225	226	224	227	224	225	224	227	224	225	225	225	222	221	221	221	223	225	225	224	221	221	224	227	226	226	227	225	224	223	221	225	225	221	223	225	224	224	225	222	222	224	225	225	225	223	223	222	222	222	223	226	225	219	219	217	215	219	222	221	221	220	219	221	222	221	221	221	220	222	223	221	218	217	218	217	215	219	217	221	217	218	219	218	218	217	218	218	219	215	217	218	221	219	222	220	220	219	221	218	218	218	221	221	219	220	218	217	217	216	216	216	216	216	217	218	218	218	217	218	218	218	219	216	220	220	219	219	220	219	220	219	217	221	219	219	216	216	215	216	216	217	218	220	218	219	217	217	217	220	216	217	219	220	220	217	217	217	216	217	216	215	215	215	216	215	212	214	214	210	211	214	213	215	216	215	212	215	214	211	211	213	211	212	211	211	211	211	211	211	212	212	213	213	213	212	212	211	210	211	209	209	209	212	215	215	212	210	210	209	209	208	208	208	209	211	212	214	215	212	210	210	212	0	0	0	0	0	0
228	226	232	232	232	230	227	227	226	229	231	231	232	232	234	235	236	236	236	233	234	231	233	231	231	231	232	237	237	236	236	234	231	231	229	229	228	229	229	229	229	230	231	231	232	232	230	230	232	231	232	232	233	234	234	233	230	231	232	232	233	236	232	230	228	228	230	231	232	234	232	231	231	233	236	239	237	235	234	231	231	231	231	230	231	232	233	233	232	229	228	228	227	229	230	231	230	226	226	229	230	229	228	227	229	229	230	227	227	227	232	229	229	228	229	229	230	231	230	230	230	231	231	231	229	229	231	236	236	231	229	233	233	234	231	231	231	231	232	234	235	234	233	233	233	233	232	232	231	232	231	231	232	232	230	230	229	229	229	227	228	228	229	229	227	226	227	230	232	236	235	234	234	232	231	230	230	231	235	234	232	231	229	229	230	231	231	233	233	227	230	231	232	230	230	230	230	227	229	230	231	231	231	232	228	227	227	228	228	229	230	230	228	230	228	230	230	230	230	230	229	227	228	228	230	229	228	228	230	232	233	233	234	232	230	230	230	231	232	231	229	229	229	232	229	230	230	225	228	229	230	231	230	233	237	236	235	230	230	232	232	230	229	228	229	227	228	230	229	231	229	226	228	228	229	229	230	229	229	230	228	225	226	226	227	232	229	230	230	232	232	232	232	231	230	231	227	230	230	233	234	235	232	234	234	231	231	232	231	233	232	229	228	228	228	230	228	228	230	230	229	226	225	225	228	229	229	225	222	223	224	226	226	226	227	230	232	228	228	227	228	227	227	227	228	228	227	227	224	223	225	225	223	225	225	224	224	226	227	226	227	227	227	227	227	226	226	225	225	227	226	225	224	225	227	227	229	227	227	227	227	228	226	226	227	226	227	226	222	227	226	225	225	225	223	223	222	224	226	225	223	221	221	222	227	229	230	227	226	224	224	225	223	221	223	221	224	225	224	224	225	225	224	221	221	220	221	221	223	224	220	220	221	221	223	223	224	226	224	224	223	224	222	222	225	225	222	223	221	222	221	221	220	225	222	224	221	220	220	220	219	217	215	216	217	219	219	218	219	221	224	224	222	220	220	221	221	219	216	216	219	219	219	220	217	216	214	214	222	224	217	214	218	220	218	218	216	216	216	216	215	216	216	220	220	218	216	220	221	218	218	217	218	220	218	216	217	218	215	215	214	214	215	215	215	213	216	216	216	215	216	217	217	215	216	218	218	216	217	216	217	219	215	218	219	218	217	216	216	213	215	216	216	217	218	218	214	213	212	215	216	214	216	216	216	215	212	212	212	210	210	212	212	211	211	211	211	212	211	213	213	211	212	212	212	211	213	212	213	213	210	209	209	209	210	211	211	211	211	211	210	211	212	213	212	212	211	210	209	211	211	209	209	210	214	215	214	212	209	209	209	208	209	208	207	208	209	211	211	213	212	212	212	212	0	0	0	0	0	0
227	229	233	233	232	228	225	225	225	228	231	233	231	231	232	233	234	234	234	232	231	230	230	230	230	230	232	232	238	237	233	233	231	231	230	230	228	229	229	230	229	229	229	231	229	228	228	229	230	229	228	229	231	229	229	229	230	230	230	231	231	232	230	229	227	229	229	228	227	226	227	229	232	234	234	234	234	232	232	230	230	230	227	228	229	230	229	231	230	227	226	226	226	227	231	230	228	225	226	226	228	227	226	228	229	229	229	226	226	225	223	227	228	226	226	226	228	231	230	230	231	230	230	229	225	227	228	232	230	230	230	230	232	232	229	229	229	230	232	233	232	231	231	230	230	232	231	230	227	230	230	230	231	230	230	230	229	229	227	226	228	227	228	229	227	226	226	228	229	229	233	233	235	232	230	229	228	231	233	232	229	231	232	229	230	232	232	234	233	228	225	225	226	227	229	231	229	227	226	228	228	229	230	231	230	227	227	227	229	227	227	226	227	227	227	227	227	229	230	229	227	225	227	228	228	225	227	227	231	232	232	232	232	229	229	228	230	230	230	230	229	227	229	227	228	228	227	225	228	228	229	230	231	231	231	231	230	232	232	230	230	227	228	228	228	227	226	226	227	230	229	229	228	228	227	228	229	227	227	226	227	224	224	226	228	227	227	229	229	230	231	231	230	231	230	231	227	224	225	228	233	234	233	231	231	230	230	229	234	233	233	227	227	228	228	228	227	229	230	229	227	227	227	226	227	228	226	223	224	222	222	226	226	226	228	227	230	230	228	226	225	227	228	227	227	228	228	225	224	223	224	221	220	222	222	221	223	225	226	225	226	227	227	225	224	225	224	224	223	222	222	222	222	221	222	223	227	227	227	227	226	227	226	224	223	225	227	226	224	223	222	222	222	223	222	223	224	223	222	220	220	219	219	221	222	230	228	227	225	223	219	218	222	224	225	223	220	222	223	223	223	222	223	222	223	221	221	221	221	221	223	222	223	221	222	222	222	221	222	222	222	221	222	222	224	224	222	219	220	219	220	219	219	221	220	221	219	219	220	217	215	215	215	219	219	220	221	218	219	220	220	222	225	224	219	219	217	215	215	216	217	216	218	221	217	222	216	217	220	216	218	213	218	218	220	218	214	214	215	215	216	217	219	219	216	215	215	214	212	214	215	216	215	215	216	217	217	218	215	214	213	214	214	214	214	214	216	215	214	215	214	214	213	213	214	217	214	214	216	217	217	213	214	216	216	215	215	214	215	212	211	212	212	214	216	215	215	212	210	214	210	212	213	213	213	213	213	213	216	213	212	213	212	210	210	211	211	211	212	214	213	213	212	211	211	210	211	212	211	209	208	208	208	208	209	211	210	211	208	208	209	209	212	212	212	211	208	208	209	209	210	210	212	213	212	213	212	207	208	208	208	209	209	209	205	205	209	211	211	212	212	212	212	211	0	0	0	0	0	0
231	233	233	233	231	228	230	227	227	228	230	231	230	230	230	229	231	232	231	231	231	230	230	230	230	230	230	233	233	236	233	233	231	231	230	230	230	230	230	231	228	228	227	227	225	226	226	228	228	225	228	225	226	228	228	228	228	229	229	231	231	231	230	227	226	223	223	224	224	225	226	228	231	229	231	232	234	232	230	231	228	228	227	225	225	225	225	229	226	226	225	224	225	226	227	229	227	224	226	226	228	228	226	228	229	229	228	226	223	223	223	223	224	229	229	227	228	230	229	228	228	228	226	224	226	227	230	230	229	229	229	228	228	227	227	229	229	229	228	228	228	229	228	228	229	231	224	224	225	224	227	228	230	230	230	230	229	227	228	225	226	223	227	226	226	225	224	224	226	228	232	231	228	227	228	227	229	231	232	230	227	229	229	228	229	231	231	231	228	227	226	222	224	227	227	229	225	225	223	223	228	228	228	227	226	226	227	227	226	225	224	222	223	228	226	225	226	226	226	225	224	226	227	227	227	225	227	230	229	230	230	230	230	227	226	226	227	229	229	228	229	227	229	227	225	223	226	227	225	223	224	225	228	228	228	228	228	230	232	231	228	227	225	225	227	227	225	225	226	227	227	227	226	226	226	225	226	227	227	226	225	225	227	226	226	226	227	228	231	229	227	227	227	226	227	226	227	226	227	228	228	233	231	229	227	226	227	228	228	231	231	227	226	227	225	226	226	227	227	229	226	224	226	226	227	227	226	224	223	223	222	225	226	226	226	225	227	223	222	221	223	222	224	228	227	225	226	225	224	222	221	221	222	222	221	223	226	221	222	223	224	224	223	224	224	223	223	222	222	221	221	222	221	221	223	219	223	224	226	226	225	226	225	222	221	223	226	225	223	222	221	221	221	220	223	223	224	225	221	221	219	219	219	221	222	230	222	221	223	224	218	219	220	224	224	221	219	219	220	221	222	222	223	222	223	221	219	219	218	224	223	223	223	222	220	220	221	219	219	220	220	220	221	223	222	223	222	221	218	218	217	217	218	219	219	219	218	220	216	217	213	212	216	218	219	223	220	219	217	220	222	220	220	219	218	217	215	215	214	216	217	218	217	215	220	216	216	219	219	218	212	216	216	216	218	217	212	212	213	216	216	216	214	214	214	214	215	213	213	213	213	214	214	214	213	215	217	216	215	214	213	209	209	211	213	213	213	214	213	212	212	213	212	211	213	215	211	211	211	213	212	214	215	214	213	212	211	211	213	210	209	212	213	214	213	214	213	211	210	212	211	212	213	213	213	214	214	214	215	215	213	213	211	211	211	209	209	211	211	211	209	209	209	209	208	209	208	209	209	208	208	208	209	211	210	212	211	211	210	207	206	207	207	208	208	209	207	207	208	209	210	211	211	213	213	211	204	206	207	207	207	208	208	208	207	207	207	209	208	211	208	208	209	209	0	0	0	0	0	0
232	231	230	230	228	225	224	224	224	226	229	229	228	227	227	228	228	230	229	229	230	230	229	229	230	230	232	231	232	226	228	227	227	229	230	230	228	228	228	228	225	225	227	226	224	225	226	226	227	227	223	223	224	225	227	227	227	228	229	231	231	231	228	225	223	223	224	224	225	225	226	228	228	228	228	229	233	229	229	228	228	224	224	223	224	224	223	224	227	226	223	222	224	225	227	227	226	224	224	225	224	225	222	226	227	227	227	226	221	222	223	225	227	227	226	226	227	226	225	224	224	225	223	222	226	225	224	230	229	225	225	225	225	226	226	226	226	224	225	226	225	224	223	224	226	223	222	222	222	224	225	226	227	230	230	228	228	218	219	221	222	221	223	223	220	223	224	225	225	227	228	228	227	225	225	225	225	225	222	225	226	225	225	226	221	221	222	223	223	225	225	223	222	223	225	224	225	225	225	222	224	222	221	222	223	223	223	223	222	223	222	220	221	223	224	225	225	224	223	221	223	222	222	223	224	225	227	228	229	227	230	230	230	227	226	225	225	225	227	226	226	226	225	227	225	224	225	225	224	222	222	224	227	226	227	226	226	227	227	231	227	224	224	225	226	227	224	224	225	224	225	225	224	224	224	224	224	224	225	224	224	224	226	226	225	225	225	225	229	225	225	225	225	226	226	227	227	227	227	228	229	229	228	227	224	225	226	226	227	227	227	227	227	227	225	224	224	225	225	223	220	221	222	223	224	227	226	224	225	224	224	225	225	224	223	223	221	220	220	221	220	223	223	224	224	226	225	225	222	221	221	222	222	224	220	226	220	224	222	222	223	223	223	222	223	222	221	221	219	217	217	218	220	221	221	219	222	221	220	221	223	224	224	221	221	222	223	224	223	221	220	220	222	221	221	222	225	224	221	221	219	219	222	224	223	223	222	222	223	220	220	216	220	221	220	221	219	218	217	218	220	219	219	219	219	220	220	220	218	218	218	221	223	221	220	218	218	218	218	219	219	219	221	217	215	218	221	221	219	216	215	216	217	217	218	218	218	216	215	215	214	217	217	217	220	221	218	216	217	217	217	219	218	217	216	213	214	214	215	216	216	216	215	214	215	214	215	216	217	216	215	214	214	216	216	215	211	211	213	215	216	215	214	213	212	213	213	212	213	213	212	213	214	213	208	210	210	210	213	213	212	207	204	205	207	209	211	212	211	211	211	210	209	209	212	213	209	208	211	211	211	213	213	213	214	214	210	212	212	213	212	210	211	212	211	211	211	211	211	213	212	213	213	213	213	214	215	214	214	212	213	209	209	209	210	211	211	210	207	206	209	209	210	208	209	207	206	206	208	208	208	209	210	210	213	213	213	209	209	206	206	205	205	207	206	208	206	206	206	207	209	209	210	207	205	203	203	204	206	206	207	207	208	208	207	207	207	207	207	209	205	205	206	206	0	0	0	0	0	0
229	230	226	227	227	225	221	223	226	226	228	228	228	226	226	226	226	226	228	228	230	229	227	227	229	229	231	230	228	225	225	225	225	227	228	226	227	225	226	226	222	224	226	224	222	221	223	223	225	222	221	221	220	222	226	227	227	228	229	229	231	230	224	222	222	222	222	222	224	225	224	225	226	226	226	227	229	228	226	225	225	221	221	221	222	223	224	224	224	224	220	221	223	224	225	227	226	224	223	222	222	222	221	221	220	221	219	216	220	222	222	224	225	220	225	221	223	224	224	224	223	223	225	226	224	223	223	223	224	225	226	224	223	221	223	223	222	221	220	221	224	221	221	222	223	222	222	222	222	223	223	225	225	225	224	226	223	218	220	219	220	219	221	221	221	223	224	226	227	227	227	223	222	223	223	221	224	225	221	225	226	225	224	223	219	220	220	220	222	223	224	223	223	224	224	224	224	224	225	223	225	224	224	225	225	225	223	222	222	221	220	219	220	223	226	225	225	222	221	219	219	221	221	224	224	223	223	225	227	226	230	229	229	227	225	225	223	225	224	224	224	224	224	225	225	224	226	227	224	221	225	225	228	228	227	227	226	226	226	223	225	225	224	225	225	223	223	224	223	223	223	222	222	222	222	222	224	222	220	221	221	223	225	224	224	224	224	222	224	224	224	224	224	225	224	225	226	224	226	226	225	221	223	225	224	224	225	226	226	226	226	225	226	227	227	226	225	225	222	224	219	220	220	220	223	224	224	224	224	225	222	224	223	221	221	221	220	218	218	220	219	220	222	223	225	225	225	220	221	219	220	220	221	222	223	223	223	221	219	221	220	222	222	224	222	222	221	220	219	218	218	219	220	220	221	218	219	219	219	220	221	223	222	221	222	222	222	224	223	220	220	220	219	220	222	222	223	223	219	218	217	217	220	222	223	222	218	219	220	218	216	217	218	221	220	220	219	217	217	217	217	220	218	216	218	219	219	218	218	218	218	217	216	217	217	217	219	218	218	217	217	218	216	217	216	216	219	220	219	216	215	214	214	216	216	217	218	218	214	215	214	217	216	216	218	218	217	216	216	216	217	216	214	214	211	211	211	214	215	215	215	215	214	213	214	215	215	216	216	215	213	214	216	216	216	212	212	213	211	213	214	214	213	212	211	211	211	212	212	212	214	213	215	214	211	207	206	208	210	210	212	212	211	208	210	213	214	211	209	209	208	207	207	207	208	211	209	207	210	210	210	209	210	211	211	214	209	210	209	212	211	210	209	209	208	209	210	210	211	211	211	212	210	211	211	209	210	212	212	211	208	207	208	209	210	211	210	210	210	209	208	209	210	209	209	206	206	206	208	208	208	210	211	211	211	213	208	208	209	203	205	204	204	204	204	204	207	206	205	205	206	207	206	209	205	204	204	204	204	206	206	207	207	206	206	199	200	204	204	207	207	203	202	203	0	0	0	0	0	0
221	225	225	222	222	221	220	221	224	224	229	227	226	223	223	222	222	223	226	228	228	228	225	225	224	225	225	225	225	225	224	224	224	227	224	224	225	222	222	222	221	222	223	223	222	220	221	221	222	221	223	223	222	223	224	224	226	226	227	231	228	225	224	222	222	222	222	221	221	219	220	223	221	226	225	225	226	225	224	222	222	223	220	220	221	222	226	226	225	221	220	220	221	220	224	220	223	223	222	221	221	220	219	218	219	220	217	216	217	220	220	224	223	222	224	222	221	223	219	218	219	218	221	223	223	223	223	224	225	226	224	223	222	220	222	221	220	220	220	222	223	222	222	220	220	222	222	222	221	220	220	221	222	223	219	219	220	219	219	220	222	220	220	221	220	221	223	226	228	229	225	224	222	222	222	222	221	222	218	220	221	221	221	219	218	216	219	220	220	221	223	224	221	220	222	224	224	224	224	226	225	224	224	224	224	222	222	222	218	217	218	219	220	223	225	225	225	221	219	219	222	223	223	223	222	221	224	225	224	223	225	225	225	228	222	225	223	223	222	224	225	225	225	225	224	223	227	225	224	223	222	224	224	224	222	221	224	220	219	223	224	224	224	221	223	220	223	224	223	221	221	222	221	221	224	224	221	221	219	221	221	220	221	222	223	223	222	223	223	223	221	222	222	221	221	221	222	222	222	223	223	220	221	223	222	223	224	223	222	222	222	222	224	224	226	226	224	225	222	223	223	220	219	220	221	223	225	223	220	222	222	222	220	220	220	220	219	218	217	219	219	221	222	223	224	222	224	219	218	219	215	216	219	220	218	219	221	220	218	219	220	222	223	223	223	220	220	218	217	216	219	220	220	221	220	219	217	218	217	218	220	221	222	221	222	222	222	222	216	219	220	220	220	219	219	219	220	220	219	218	217	217	219	222	222	220	217	215	215	216	216	217	218	219	220	219	218	217	215	215	217	218	217	218	217	220	218	216	215	218	216	218	218	217	217	217	218	217	216	217	217	217	213	216	215	214	217	216	216	215	214	214	215	216	215	215	213	212	212	209	211	212	214	216	216	217	216	215	211	211	214	215	213	212	210	210	209	211	212	213	213	212	212	212	212	215	215	217	213	211	211	211	213	216	215	213	214	213	211	211	211	214	211	211	210	210	211	211	211	212	213	213	213	212	212	209	204	207	209	210	211	209	209	208	210	212	213	209	209	206	206	206	207	207	208	207	207	209	208	209	209	209	209	209	209	210	208	206	206	212	211	209	209	211	211	207	207	208	209	210	210	209	210	209	207	207	206	208	209	209	207	207	208	208	209	211	211	210	210	209	207	209	209	209	209	206	206	206	208	208	207	210	211	209	209	212	206	207	206	204	203	203	203	202	205	206	206	209	205	204	204	204	205	206	206	205	205	204	204	204	203	204	207	204	204	203	203	202	202	202	204	203	201	202	0	0	0	0	0	0
217	221	223	220	220	220	220	222	227	227	226	225	222	221	219	219	218	221	222	226	226	227	225	221	222	223	223	222	222	223	224	222	223	223	223	223	224	224	222	221	220	222	220	222	222	223	222	220	220	221	222	222	222	223	224	223	224	224	225	225	225	224	223	222	221	220	219	217	217	217	218	218	225	226	226	225	226	223	222	223	222	222	221	219	219	225	221	222	223	219	220	221	220	219	220	221	221	220	220	220	220	220	220	218	220	220	218	215	215	217	219	223	222	222	221	220	219	219	219	220	219	219	217	217	218	220	221	225	227	222	221	223	218	218	219	218	218	218	220	222	223	222	222	220	220	221	219	220	220	218	217	219	221	220	220	220	220	219	220	222	222	222	220	219	218	217	219	220	222	222	221	220	220	220	221	221	219	218	217	216	221	221	219	220	218	216	218	219	220	221	221	220	218	216	219	220	221	220	221	221	222	221	221	220	219	219	218	216	217	218	218	219	219	222	223	224	222	219	219	219	219	219	222	223	222	221	222	226	224	224	223	223	222	221	222	220	220	222	221	222	223	225	225	222	220	222	221	221	222	221	223	222	222	223	222	223	221	219	218	220	224	224	223	221	221	221	222	224	223	219	220	219	219	221	222	223	222	219	218	218	220	220	220	222	221	221	220	220	219	222	222	221	220	219	219	219	219	220	222	222	222	220	222	220	219	220	221	219	221	221	221	222	221	222	224	224	223	224	223	223	223	220	218	218	219	220	220	219	219	220	220	219	219	218	218	220	218	218	218	218	220	220	218	218	219	222	220	217	215	215	215	217	219	219	217	218	220	219	219	215	217	219	221	223	223	223	219	218	220	216	216	220	221	221	219	219	218	217	216	217	218	219	219	220	221	220	222	219	216	216	218	215	216	216	219	218	220	220	218	216	216	216	217	218	221	219	216	215	216	217	216	217	218	219	218	219	217	216	214	214	214	216	217	218	213	218	218	216	215	217	216	216	218	218	218	216	217	218	215	215	214	211	212	212	211	214	214	216	214	214	213	215	214	214	214	211	213	214	213	211	213	212	213	214	215	215	214	212	212	212	209	212	209	212	211	210	207	208	211	212	214	212	211	212	212	211	212	213	211	210	210	210	209	211	216	213	214	214	213	209	211	211	211	210	210	211	210	209	208	208	209	211	211	209	207	206	207	209	208	207	208	208	207	207	207	207	208	208	207	206	206	206	206	207	207	208	207	207	207	210	209	209	209	209	209	207	206	205	204	205	209	209	208	207	207	204	205	206	209	209	209	206	205	205	205	206	205	207	208	207	206	207	207	207	208	206	207	209	208	205	207	208	207	207	209	206	205	208	209	208	206	208	209	206	204	199	199	200	201	201	203	203	203	201	202	206	208	209	204	203	203	204	206	206	206	206	205	205	204	203	202	203	202	200	200	199	200	202	203	203	202	202	202	202	0	0	0	0	0	0
215	219	221	219	219	219	219	223	221	222	222	224	222	221	217	217	215	218	222	223	224	224	224	221	218	218	220	220	217	218	219	221	221	221	221	222	221	219	218	220	220	218	218	219	221	221	221	221	221	221	221	222	223	221	220	221	223	224	224	225	225	222	221	218	218	219	218	216	216	216	217	219	219	220	222	225	221	221	224	223	221	219	218	221	219	219	220	219	218	221	219	219	219	219	218	219	219	219	219	220	220	220	220	219	217	216	217	217	217	217	216	217	218	220	219	218	218	218	220	221	219	218	216	216	218	219	221	222	222	219	218	220	217	216	217	217	216	218	220	222	222	218	216	217	219	218	217	217	214	214	213	215	217	218	220	220	219	219	218	219	219	218	215	218	218	216	218	219	219	220	220	220	220	220	221	221	221	218	216	216	217	223	219	221	219	216	218	219	219	219	219	217	216	216	219	220	219	218	219	219	222	222	220	218	218	217	216	214	216	219	217	218	219	220	223	222	219	219	218	218	219	220	219	221	222	221	221	221	221	221	222	221	219	217	217	218	221	218	221	219	220	220	219	218	219	221	221	221	221	222	220	222	223	222	221	217	221	221	219	221	224	221	220	220	219	220	221	221	223	218	218	219	218	219	220	221	220	219	218	218	220	219	219	221	220	219	218	218	217	217	220	222	221	219	218	218	219	219	220	219	221	221	219	218	219	219	218	219	220	220	219	220	221	221	221	223	222	223	224	223	222	221	217	216	215	218	220	219	219	219	218	218	219	217	218	220	219	221	223	222	221	218	217	217	219	219	219	215	214	213	212	218	218	219	219	218	217	216	215	215	215	217	221	221	221	222	218	216	215	216	217	216	220	219	217	218	219	219	216	215	216	218	219	219	220	219	216	217	217	218	217	216	217	217	216	216	217	218	218	215	216	215	216	217	218	218	214	213	215	215	215	215	216	217	217	214	213	211	212	211	214	215	215	218	212	214	213	214	216	216	216	216	217	218	215	215	216	217	217	215	215	212	212	211	213	214	214	211	214	213	212	214	212	214	212	212	213	216	215	214	210	211	212	213	213	213	213	212	212	210	209	209	210	212	213	208	205	208	211	211	213	212	211	212	210	210	211	212	208	209	210	210	206	206	209	213	214	213	211	208	206	206	206	206	207	207	207	208	207	205	204	206	206	206	206	207	207	208	207	207	206	206	206	207	207	206	206	207	206	206	206	206	207	206	208	206	203	203	208	209	211	209	209	209	209	207	204	203	203	204	208	208	207	206	205	203	204	205	206	209	208	205	204	202	202	202	206	206	206	206	205	206	206	206	207	205	205	204	207	205	205	204	206	207	206	204	206	206	205	205	206	206	205	207	203	200	200	201	202	200	200	203	202	202	201	204	205	204	203	202	202	203	205	205	205	204	205	205	204	203	202	202	200	199	199	199	199	201	202	202	202	204	201	202	0	0	0	0	0	0
214	220	221	219	219	219	221	218	218	220	220	224	224	222	216	216	215	215	219	220	221	221	221	217	217	217	217	217	217	218	220	219	220	220	218	217	217	217	216	217	218	217	217	217	219	220	220	221	220	220	219	221	220	219	218	218	217	218	218	221	223	217	217	217	218	218	218	218	218	218	218	219	219	220	219	220	219	220	220	220	218	218	219	220	219	219	219	217	217	220	218	218	218	217	215	215	217	218	219	219	219	219	216	217	218	218	216	216	216	216	216	216	217	219	218	218	217	218	218	219	219	217	215	216	218	220	220	221	221	218	217	217	215	215	215	215	214	215	213	214	217	216	216	216	215	218	218	213	215	214	215	215	216	217	218	219	219	218	219	219	219	216	213	213	213	213	218	219	214	215	215	215	216	216	217	218	220	219	218	217	218	219	223	221	221	221	222	220	220	219	216	217	216	216	217	218	218	218	217	214	220	222	221	218	216	215	214	214	214	215	217	216	218	219	220	220	219	216	217	217	217	216	214	215	213	214	215	219	220	221	221	221	219	217	213	213	215	217	219	219	219	215	217	216	216	219	219	220	220	220	219	218	220	219	218	218	217	218	218	218	219	217	218	218	218	217	217	215	218	218	218	219	218	218	217	217	219	218	218	219	219	220	219	219	220	218	218	217	217	217	220	221	221	220	221	218	218	216	216	219	219	220	221	216	217	218	219	219	219	219	219	220	218	220	216	217	219	218	219	221	221	218	215	214	214	215	217	217	218	219	216	219	218	219	220	219	219	219	220	219	219	218	217	217	217	216	217	217	214	214	212	213	219	218	219	219	216	215	215	214	214	216	216	220	216	215	220	213	216	217	217	216	218	216	216	218	219	219	216	215	214	215	216	217	216	216	215	216	217	217	217	215	216	217	215	215	215	216	216	214	212	211	213	214	215	214	214	212	212	214	215	215	214	215	214	212	211	210	210	211	212	214	214	213	213	214	214	213	212	212	213	213	214	213	214	213	213	213	212	211	212	212	214	211	211	214	214	210	210	211	210	211	211	211	207	208	212	216	216	209	209	210	212	212	211	210	213	212	210	209	209	209	210	211	210	210	209	211	212	211	212	212	211	211	210	209	210	207	208	208	211	206	206	206	208	208	210	210	208	207	206	205	206	206	206	206	205	207	205	204	203	205	207	204	205	205	207	207	207	206	206	206	205	205	205	206	205	205	206	207	206	208	205	207	206	206	205	205	205	209	209	209	209	207	204	203	203	203	204	205	207	205	202	205	204	203	204	206	204	205	203	202	200	201	202	201	202	203	204	204	202	204	203	204	204	205	204	204	204	205	207	204	204	205	205	203	205	204	204	204	204	203	203	203	202	203	204	204	203	203	203	202	201	201	200	200	205	203	202	201	201	202	203	202	203	201	201	203	202	202	200	198	200	200	199	199	199	198	198	199	203	201	202	200	0	0	0	0	0	0
218	218	217	219	219	219	220	218	217	218	218	221	223	220	215	214	214	213	214	217	219	219	218	217	217	218	218	218	217	219	219	219	218	216	216	216	216	215	214	213	217	216	216	215	216	220	221	219	219	219	218	219	220	219	218	217	218	215	218	218	219	219	218	218	218	218	216	215	213	212	212	217	218	218	217	217	216	217	217	216	217	217	218	219	219	218	216	214	214	214	215	215	216	215	214	213	216	217	218	219	218	218	214	217	217	216	214	216	216	216	217	218	217	217	218	217	216	217	218	217	214	213	212	213	218	220	220	218	216	216	216	215	215	217	215	214	213	213	212	211	212	213	214	214	214	213	214	214	214	215	215	215	216	217	217	216	216	217	215	218	215	213	212	212	212	212	213	214	214	213	213	214	215	216	215	216	217	219	218	219	217	219	221	219	222	221	222	222	221	217	216	218	217	215	215	214	214	212	218	214	215	215	215	215	216	214	212	214	214	215	216	218	218	220	219	219	217	214	217	219	217	217	216	215	214	213	215	218	219	220	220	218	215	212	212	212	213	214	220	219	219	217	216	215	216	218	219	220	218	218	219	218	220	221	218	218	218	218	218	217	216	215	216	216	216	215	215	214	218	219	217	216	217	216	214	214	214	216	217	219	218	215	217	217	217	219	218	215	214	214	217	216	217	221	220	216	218	215	213	216	216	216	216	214	215	216	217	216	217	216	218	219	218	216	216	216	218	217	216	216	217	217	216	216	214	215	216	216	217	217	217	217	218	219	220	219	219	219	217	214	215	218	217	218	215	216	215	214	217	213	214	212	213	216	219	219	214	213	213	213	213	214	214	214	214	214	213	213	215	217	217	213	213	215	215	214	213	213	217	216	215	215	216	216	215	215	215	216	216	217	216	216	216	215	215	214	213	213	212	212	211	210	210	210	210	210	212	212	211	212	211	212	212	212	213	212	211	210	210	210	210	210	214	212	212	213	213	213	212	212	211	212	212	212	212	208	208	210	210	210	211	212	213	213	210	211	211	211	211	210	209	209	209	206	205	210	210	214	211	211	211	209	209	210	209	209	212	211	210	210	209	210	210	211	211	211	209	208	209	209	208	210	208	208	208	208	208	207	205	204	204	204	206	206	206	207	208	207	208	205	204	205	207	205	205	205	205	205	205	204	204	203	205	204	204	205	205	207	207	206	206	205	204	204	205	204	206	206	206	208	206	204	205	205	204	204	205	205	206	206	209	205	203	202	202	203	202	203	205	206	207	206	203	204	204	204	204	204	206	203	200	200	202	203	203	202	202	202	202	201	204	202	203	203	202	203	202	200	202	203	207	207	205	205	203	202	203	200	202	203	202	201	202	202	202	203	202	202	202	203	202	201	200	201	200	199	199	199	199	200	200	200	201	201	203	202	202	202	198	198	200	198	198	198	198	196	197	197	197	197	201	200	198	198	0	0	0	0	0	0
