771	765	764	767	767	772	774	771	760	760	753	750	750	755	762	762	772	777	782	781	785	766	764	762	763	764	770	764	764	766	771	770	767	763	767	773	773	768	762	761	769	775	775	766	761	761	766	776	778	783	790	788	775	770	776	789	794	794	788	773	772	766	758	754	748	755	756	765	775	781	778	777	777	781	781	786	787	786	784	782	780	807	805	801	797	799	794	785	772	772	780	781	776	772	775	781	786	786	779	770	764	767	773	769	770	778	779	778	775	776	775	779	777	780	784	784	785	789	791	794	790	792	787	787	785	774	753	755	760	767	772	772	768	768	777	780	776	770	765	755	751	769	774	777	775	763	756	749	764	771	767	773	779	770	767	771	769	768	764	763	766	756	752	753	755	764	765	764	762	754	748	745	737	743	751	762	764	763	763	776	761	755	757	771	766	765	759	752	745	742	744	754	753	759	760	750	738	750	751	736	733	738	746	746	741	746	754	758	756	752	750	754	742	745	756	763	764	767	762	763	766	770	764	767	773	770	765	760	758	757	762	762	755	739	733	735	741	744	745	745	741	740	741	743	740	745	754	755	750	747	744	745	755	755	738	727	734	739	737	736	737	736	736	738	742	743	741	742	741	743	747	754	754	745	743	742	742	742	746	741	739	739	736	729	726	724	726	737	751	748	754	741	745	750	753	751	751	746	745	752	757	757	751	747	747	746	740	736	745	744	746	747	747	746	744	748	752	750	746	746	748	748	740	732	729	732	738	737	737	735	737	740	745	743	748	747	750	750	764	762	749	738	732	722	721	724	728	742	753	759	747	742	753	754	756	761	762	756	744	752	755	758	756	749	743	740	742	749	760	762	756	756	754	750	753	758	751	756	765	773	767	757	757	760	761	761	752	741	738	741	730	727	729	740	742	739	735	732	733	735	739	745	747	748	746	736	733	728	724	722	736	756	774	773	753	738	729	732	733	735	737	741	745	740	734	725	725	730	745	742	739	737	734	737	742	749	745	745	746	741	742	740	742	745	747	751	756	758	755	755	755	752	760	754	745	737	735	743	748	756	759	758	758	761	770	779	785	757	745	731	734	743	760	766	763	755	745	743	744	746	749	752	751	744	741	737	736	739	740	744	745	750	750	753	765	770	770	760	756	753	756	755	754	749	749	747	745	740	746	740	743	749	770	778	779	782	784	783	771	772	776	778	780	777	769	761	747	747	745	754	763	766	767	762	760	759	759	760	762	759	759	764	771	780	787	783	770	775	779	780	773	769	766	764	765	770	774	772	760	749	743	739	729	728	728	736	748	747	762	759	755	756	756	754	750	747	746	745	742	742	743	760	758	760	754	751	750	753	757	796	812	806	793	778	769	767	767	765	756	749	759	772	781	781	781	776	771	771	775	781	779	765	765	765	764	777	781	777	779	777	782	783	780	779	782	786	787	784	781	786	786	792	0	0	0	0	0	0	0	0
749	743	742	745	745	751	758	759	754	754	751	752	750	748	749	749	754	762	765	763	746	746	740	745	750	754	757	755	755	757	760	756	747	739	744	746	746	745	741	740	754	765	756	751	750	750	749	749	744	754	766	764	761	764	773	775	765	765	759	755	753	752	746	738	735	742	745	752	757	759	757	750	745	747	747	752	765	769	767	763	757	758	774	783	785	786	779	771	756	751	763	761	753	749	756	762	769	768	762	745	738	741	747	756	762	766	765	763	753	753	756	762	764	759	751	748	750	756	756	756	751	747	739	739	753	756	744	744	750	753	752	750	746	749	758	761	752	744	736	731	737	738	747	757	746	739	737	740	745	747	744	743	749	744	737	731	742	740	736	735	737	739	736	743	745	750	750	750	750	750	743	731	727	729	736	739	730	732	735	733	735	730	728	727	726	722	721	722	721	724	724	727	734	741	751	743	726	725	724	721	721	719	725	728	726	731	740	743	740	735	727	721	724	719	718	740	748	742	738	736	741	747	729	729	731	728	725	725	728	726	720	731	730	720	712	717	724	723	714	705	703	702	697	689	690	697	703	708	712	725	736	746	743	725	714	701	701	704	705	710	719	722	723	721	716	715	722	722	719	721	727	733	728	731	731	729	726	725	723	719	721	724	725	719	714	710	710	712	705	705	704	714	719	739	741	737	731	727	722	721	726	729	729	732	734	728	724	723	726	730	721	723	720	720	718	720	726	731	731	727	718	705	703	715	721	726	729	727	724	724	729	728	734	727	723	726	724	721	726	723	715	714	711	701	703	711	719	729	733	730	726	721	722	735	746	747	737	730	728	733	739	737	731	725	725	730	733	733	734	740	737	727	720	724	728	732	731	732	735	736	725	729	740	747	742	737	720	714	709	721	722	720	715	723	731	732	724	717	714	716	718	726	729	729	722	716	716	708	704	696	700	717	735	741	720	708	713	720	722	724	727	733	731	726	720	714	713	732	739	731	721	706	702	704	715	727	730	731	721	711	706	699	697	705	724	730	730	726	729	727	732	737	733	726	721	720	724	725	732	749	753	747	745	743	723	727	728	737	731	719	714	714	722	733	738	736	730	730	731	730	729	728	729	737	736	734	730	732	734	736	734	740	743	747	751	750	749	743	742	742	743	745	744	741	737	736	733	731	726	728	734	748	754	760	762	764	755	756	755	758	763	769	771	770	763	750	733	728	729	740	749	754	753	752	751	752	751	754	752	750	746	741	747	741	750	759	762	756	735	740	736	731	725	726	734	742	751	752	746	741	733	726	720	718	718	722	728	729	731	729	735	741	744	746	738	730	731	733	731	725	723	728	740	738	737	736	738	741	745	749	745	742	737	739	741	741	739	748	741	740	754	765	771	775	772	769	765	763	765	768	762	762	760	759	760	759	760	757	760	763	766	767	771	772	773	778	779	776	771	771	771	778	0	0	0	0	0	0	0	0
735	733	729	727	727	728	733	736	737	737	742	747	747	746	743	743	743	747	743	742	715	715	722	736	744	747	751	739	739	740	734	735	729	722	718	723	723	721	718	714	723	730	733	734	734	736	736	731	732	731	734	738	745	748	755	753	745	745	734	736	742	742	738	732	727	728	734	743	745	745	744	739	738	741	741	742	746	753	751	747	743	745	750	756	765	769	764	745	726	721	721	722	727	729	737	742	744	743	735	728	731	727	725	723	727	743	744	739	737	740	743	743	731	726	725	728	737	745	749	746	738	733	724	718	723	732	734	731	734	735	730	723	723	728	730	732	730	724	720	716	717	719	729	732	733	731	730	731	732	726	730	730	728	724	716	703	698	716	718	717	721	722	723	719	728	734	728	727	731	744	736	722	718	717	716	711	709	712	708	701	697	715	713	709	708	705	704	702	702	704	707	709	714	723	727	726	712	715	715	717	720	719	707	701	704	711	718	725	726	710	704	702	700	706	701	693	690	720	715	714	715	716	713	719	722	722	717	710	698	691	691	711	710	701	695	705	713	714	707	700	698	695	689	684	686	691	693	691	678	679	689	706	722	711	698	690	688	691	699	703	706	708	708	701	693	686	685	681	692	693	695	692	698	714	720	699	707	702	706	707	705	706	713	708	703	694	689	682	688	690	687	688	682	689	696	722	714	708	704	700	701	705	714	720	719	706	706	708	705	705	710	707	703	705	706	711	718	720	714	700	691	682	683	688	713	720	721	716	712	709	708	708	704	706	709	711	707	702	699	695	691	690	688	682	685	693	702	709	710	698	703	704	704	706	717	717	716	709	712	720	726	729	719	704	698	708	717	716	711	706	703	697	704	710	713	709	705	702	697	695	699	711	726	732	729	717	694	693	701	713	717	705	707	711	715	716	712	710	705	700	697	698	703	705	704	703	697	688	681	682	686	695	708	703	700	706	709	711	711	709	715	718	717	711	705	702	705	717	720	718	709	702	700	697	695	703	706	708	711	711	705	697	695	696	700	707	710	705	700	705	705	709	708	706	704	708	713	721	726	734	736	736	702	703	714	716	709	720	715	708	702	697	705	710	709	707	707	711	715	716	714	711	714	719	720	728	727	718	719	717	723	728	735	736	734	732	723	719	722	723	726	730	736	735	733	729	723	720	715	717	727	739	741	742	747	749	745	745	743	744	743	749	758	757	751	738	724	720	720	722	733	740	740	738	737	739	741	740	737	732	728	707	711	716	712	709	711	712	718	718	714	710	713	713	719	728	737	741	745	738	731	724	718	715	711	712	715	718	718	718	717	726	729	730	727	722	720	721	720	713	713	715	719	722	721	719	723	729	736	734	726	726	725	723	725	730	729	724	715	711	718	739	743	760	767	766	762	757	752	750	754	754	753	752	756	755	750	747	748	749	751	754	758	760	762	762	764	757	752	752	747	749	0	0	0	0	0	0	0	0
731	728	720	713	713	709	711	712	715	715	724	728	728	722	720	720	719	715	710	692	695	702	702	711	714	711	717	718	716	716	717	714	712	702	694	696	696	698	700	698	700	705	709	712	720	719	719	715	717	718	714	713	714	716	721	723	722	722	723	725	731	733	727	722	720	719	721	727	725	725	725	722	726	732	732	734	735	739	734	729	729	736	739	739	730	725	714	702	693	691	696	703	704	706	709	709	686	689	695	699	701	710	705	702	700	700	701	702	703	705	699	697	692	690	687	693	701	701	699	696	695	689	685	686	692	698	699	698	698	700	696	707	706	709	707	710	707	705	696	692	694	710	716	718	722	724	723	720	709	715	720	721	717	711	703	696	689	689	691	693	692	692	691	699	703	722	721	715	721	716	699	689	686	694	695	694	696	694	688	687	692	702	697	693	691	693	694	688	689	693	695	695	694	693	693	687	686	692	701	710	704	686	678	672	674	677	686	693	696	700	695	690	688	687	684	683	681	677	682	696	699	702	702	706	709	710	709	701	686	679	676	690	691	687	688	689	698	708	706	701	698	692	685	684	686	687	685	678	671	671	678	681	690	692	687	683	679	679	686	690	697	696	694	692	689	683	676	670	668	669	665	667	672	677	678	672	681	688	696	695	693	694	684	676	676	682	685	688	690	683	677	672	672	677	682	691	692	696	691	686	689	696	700	698	690	689	690	690	695	698	700	700	699	699	701	702	693	689	686	678	676	675	677	680	685	695	696	693	686	679	675	676	682	690	698	698	696	695	695	692	688	683	679	678	678	683	685	684	674	678	687	692	696	696	694	700	700	699	699	709	718	719	702	688	688	688	691	696	694	690	689	691	697	703	706	706	703	695	689	688	692	703	715	694	688	685	679	677	686	704	709	699	700	702	703	694	693	691	687	688	687	685	684	689	688	688	686	685	681	675	681	688	691	690	692	692	694	695	692	687	693	689	691	690	695	693	694	701	706	708	705	701	693	691	688	688	695	705	711	709	700	691	688	689	687	692	688	686	688	692	699	698	694	692	691	696	704	707	709	714	695	694	685	689	695	698	702	699	694	697	686	685	691	699	699	698	699	698	694	695	696	700	705	711	711	710	708	698	700	705	708	712	719	719	721	712	705	701	704	703	707	720	721	721	716	718	711	706	694	700	712	729	726	725	728	731	735	728	729	722	716	721	728	734	733	727	717	711	710	714	719	727	726	722	718	695	701	701	700	694	690	692	697	708	709	703	700	697	698	698	695	688	686	690	695	696	705	728	731	732	726	715	709	701	704	704	707	707	709	708	705	706	713	715	712	708	704	699	703	704	705	707	707	702	703	706	711	713	712	707	710	709	708	710	708	713	712	704	697	694	699	705	714	710	714	710	710	741	733	736	741	741	743	746	749	741	739	734	734	735	738	742	743	744	742	739	742	741	737	737	732	733	0	0	0	0	0	0	0	0
721	721	712	699	699	692	687	690	688	688	700	706	706	699	696	696	698	697	693	674	675	684	684	693	695	695	701	703	697	697	701	701	697	686	682	688	689	689	691	690	697	706	707	699	696	697	697	701	699	702	699	696	695	701	706	713	714	714	715	718	721	719	716	713	712	711	711	708	705	706	707	704	693	689	700	700	708	710	709	710	710	715	719	723	720	714	708	699	688	672	669	675	681	682	684	682	680	680	681	681	681	679	690	690	687	685	687	691	698	697	699	697	687	679	677	681	690	687	684	681	682	682	685	687	688	690	687	687	687	688	684	677	672	673	675	675	674	671	673	683	688	692	694	692	686	694	693	692	693	702	711	713	709	697	688	684	681	683	685	684	680	676	672	677	685	707	709	705	701	688	684	677	673	671	675	676	680	680	679	678	682	692	689	681	679	679	678	673	667	675	677	674	674	681	680	676	674	677	679	681	679	669	666	661	663	665	667	674	683	684	683	676	674	673	672	671	670	666	666	668	673	688	688	690	690	696	697	696	683	671	668	669	675	678	680	679	683	688	689	682	677	678	678	679	682	683	677	671	664	664	664	666	673	680	677	673	672	669	675	680	685	684	683	685	686	682	674	669	661	658	660	661	665	667	660	661	667	671	682	686	687	678	666	663	660	663	673	675	675	676	669	664	659	661	661	658	654	656	658	656	684	690	684	681	683	684	682	680	685	688	688	689	690	690	689	673	674	673	671	670	669	671	672	671	669	665	666	664	673	670	669	670	671	676	683	685	686	687	688	689	685	679	676	676	673	674	675	669	666	667	668	677	682	682	685	687	688	688	690	694	691	683	677	673	671	673	670	673	676	681	683	681	677	682	691	690	689	684	681	684	687	672	669	667	663	659	658	659	666	687	680	671	665	660	671	676	667	674	676	681	680	671	666	673	674	675	674	671	668	671	675	678	681	677	675	679	681	678	676	675	676	680	677	675	677	680	681	680	684	682	684	691	685	681	679	682	686	699	706	701	691	682	677	681	677	672	673	675	681	682	683	681	680	680	677	674	689	690	668	669	678	676	673	676	681	683	682	684	679	671	665	670	676	682	687	686	681	679	681	681	680	685	701	705	704	695	681	666	667	670	680	691	694	690	689	691	686	685	688	688	696	698	705	700	694	690	682	675	668	669	680	715	717	709	709	706	711	708	705	695	692	695	699	707	715	717	711	699	695	696	681	678	671	669	674	679	684	686	679	668	669	678	685	678	672	672	679	682	681	681	679	675	673	674	676	675	679	688	696	694	693	689	686	682	683	691	689	690	695	692	689	683	687	689	685	676	675	682	687	691	697	700	694	691	691	692	697	698	692	683	682	675	675	681	684	697	702	697	687	683	685	690	695	683	678	673	674	679	685	680	693	717	718	735	717	710	710	710	706	707	718	728	729	725	719	716	719	718	715	715	713	714	0	0	0	0	0	0	0	0
703	703	697	685	685	676	672	668	674	678	678	686	681	651	656	656	670	675	661	661	662	666	666	670	671	670	669	674	689	689	689	686	678	672	670	676	681	681	678	679	691	698	703	698	685	676	676	678	684	690	684	684	685	689	689	695	702	705	705	702	694	684	695	700	703	703	699	687	683	684	686	684	676	672	676	676	690	697	699	700	700	702	706	708	683	679	674	669	661	657	659	662	667	668	667	666	664	661	662	665	665	665	663	666	670	670	666	665	673	692	698	685	672	665	661	666	671	676	676	676	677	674	676	677	677	677	673	670	671	668	669	665	664	664	667	666	660	654	654	660	660	659	658	658	660	662	676	682	685	690	687	679	675	671	664	662	672	678	679	680	675	671	668	670	672	674	688	677	670	669	670	666	662	662	663	666	672	672	666	668	669	682	680	675	673	672	667	667	663	661	665	668	668	668	666	663	659	659	662	663	653	651	654	653	654	655	658	660	669	671	670	665	660	659	660	662	659	648	655	659	660	655	655	648	675	680	685	685	675	670	657	664	664	667	668	668	672	677	673	663	661	667	670	670	672	664	657	647	642	643	647	649	649	657	665	662	660	659	668	673	676	675	677	679	681	681	674	666	657	657	657	660	665	654	650	650	653	658	657	671	673	667	656	651	648	648	651	658	660	664	665	649	648	650	649	641	637	638	643	647	651	651	667	669	678	681	679	675	673	674	673	666	662	662	665	668	674	671	670	669	666	661	657	662	660	658	659	659	659	666	666	669	669	666	668	667	666	664	665	664	666	662	658	660	661	662	658	653	654	654	662	667	669	671	671	669	669	674	671	671	659	655	657	660	664	662	662	663	670	671	670	669	669	666	666	670	673	675	662	659	652	654	655	654	655	655	654	657	658	660	648	650	652	643	635	634	640	645	654	651	645	645	655	656	665	665	666	663	663	661	659	663	652	649	650	653	657	661	665	671	672	671	664	665	666	670	667	666	665	660	656	652	652	654	658	664	668	676	681	678	674	667	664	672	671	667	665	665	668	669	669	673	675	671	661	655	645	644	648	655	662	664	664	665	668	672	666	667	664	659	656	657	662	666	670	665	661	660	667	667	667	665	674	674	668	658	655	656	656	656	652	650	658	658	657	661	664	667	671	677	681	681	688	685	676	669	662	651	649	649	655	689	700	699	698	693	690	690	687	678	672	674	679	687	671	676	664	659	662	663	664	660	653	655	662	674	673	669	656	649	650	666	670	656	651	652	656	658	660	662	664	662	659	658	660	662	669	671	674	672	665	660	659	660	658	675	674	670	660	657	663	675	674	674	672	672	665	669	674	676	674	673	669	664	661	661	659	659	662	665	662	659	659	658	667	685	695	691	682	674	670	663	660	653	653	656	657	661	662	661	661	660	668	673	692	696	695	689	685	676	667	666	691	698	694	696	695	694	692	692	694	682	0	0	0	0	0	0	0	0
680	683	663	648	648	649	655	660	664	668	668	664	642	639	644	653	653	660	647	647	648	651	651	653	657	655	653	657	667	667	670	668	663	659	659	661	665	665	664	660	670	684	690	686	677	667	667	662	668	672	671	669	672	671	663	663	665	671	671	671	673	669	670	671	675	675	673	667	671	672	675	672	666	664	665	665	669	682	684	684	662	662	667	671	667	666	660	655	647	644	647	654	656	656	655	650	642	643	649	653	655	654	648	645	646	646	649	654	656	660	662	662	653	657	656	649	643	638	637	646	653	657	661	665	663	665	662	654	652	652	654	653	654	656	659	656	647	643	643	646	648	645	645	647	649	654	658	661	657	646	645	642	658	653	649	645	654	667	670	666	662	665	669	667	664	663	659	650	653	655	657	653	650	651	651	652	656	658	654	656	657	665	668	668	669	672	672	668	663	661	664	665	662	660	655	649	640	640	637	635	641	646	644	642	647	650	651	653	654	654	652	649	646	646	642	636	633	639	647	651	649	645	640	639	638	634	670	673	660	655	646	655	660	660	656	653	655	657	648	649	649	652	655	660	655	643	642	640	637	637	644	646	642	638	638	646	646	648	656	663	669	669	663	664	666	664	643	638	633	644	651	657	646	640	629	632	637	637	636	644	652	645	639	639	639	639	639	641	643	650	648	645	639	641	640	633	629	629	631	636	641	642	644	646	644	662	660	653	644	645	645	644	643	642	646	659	664	668	668	662	658	649	643	644	653	656	654	655	651	655	663	665	662	660	656	653	648	646	644	646	653	654	652	654	652	652	646	641	643	646	650	654	660	664	664	662	659	663	664	663	654	648	650	654	654	655	660	664	672	671	666	663	661	659	655	642	644	645	642	641	641	644	646	648	648	651	654	657	659	652	643	643	643	644	637	632	632	635	632	634	638	643	643	638	653	665	663	658	656	652	649	633	631	631	639	647	653	657	653	645	644	649	651	655	658	651	652	652	648	649	647	641	639	641	643	645	648	652	659	663	659	656	655	653	655	657	650	655	654	657	661	667	669	665	649	637	623	615	622	636	649	656	656	658	660	656	645	644	647	642	641	646	650	651	654	651	650	644	649	657	657	653	656	659	653	648	647	650	652	652	645	635	630	642	643	653	661	660	663	668	669	669	663	652	654	657	650	642	639	639	645	664	668	667	669	675	677	675	675	671	663	655	648	642	644	646	647	647	649	652	650	642	637	632	631	639	631	633	632	635	639	643	647	646	637	634	637	638	644	645	649	651	647	636	634	631	643	660	664	658	646	638	633	636	640	656	655	651	644	647	649	654	664	667	665	652	643	639	635	633	633	636	639	644	650	652	647	641	638	644	649	647	646	643	644	649	657	663	654	646	639	631	630	622	626	633	642	649	653	653	653	655	660	663	664	661	656	675	661	658	656	657	660	658	658	663	667	670	669	669	655	641	0	0	0	0	0	0	0	0
641	637	633	635	635	638	644	650	649	650	650	639	638	636	634	638	638	643	630	634	634	639	639	645	646	643	641	641	644	644	651	652	651	650	651	650	648	648	634	643	657	668	673	668	660	656	656	649	650	646	651	652	654	644	639	638	645	653	653	661	660	653	655	656	660	660	658	657	659	662	664	662	659	658	655	655	658	653	656	656	651	648	645	647	646	638	635	634	638	640	642	647	647	648	645	637	631	630	636	645	647	644	632	631	631	633	637	643	646	648	646	641	639	647	647	642	635	629	626	622	616	626	637	646	647	649	646	640	636	630	632	636	643	648	648	644	638	634	633	632	635	636	634	635	636	647	643	632	627	626	630	627	624	622	621	621	637	643	647	649	648	649	647	644	644	645	643	641	638	642	646	642	643	642	642	639	640	642	644	649	654	651	655	652	654	655	649	645	647	647	651	651	646	637	636	635	633	624	628	630	637	640	633	627	628	637	644	644	643	637	634	633	633	635	638	630	625	625	626	629	628	625	624	630	632	632	627	625	631	635	640	647	652	649	644	641	639	640	648	657	655	649	644	638	635	633	634	634	633	634	637	637	637	631	627	634	635	632	635	638	641	643	642	633	633	629	613	615	617	618	620	622	620	617	615	619	625	629	626	621	618	615	620	631	642	647	647	638	637	642	645	640	632	632	632	619	617	619	622	628	634	634	634	632	632	632	625	618	631	634	635	634	629	627	623	632	643	646	646	647	645	640	635	631	638	642	639	634	635	637	642	647	648	645	641	638	633	634	632	636	643	651	650	647	646	642	637	634	632	631	633	637	641	656	654	651	650	648	651	653	648	642	642	645	646	638	634	636	646	653	652	653	642	642	636	630	627	627	631	632	633	637	637	636	627	629	643	642	641	632	633	631	634	635	629	624	623	623	625	630	633	636	635	635	636	646	649	649	641	636	627	624	623	621	622	630	635	637	634	628	629	635	644	654	651	625	623	629	641	642	637	634	632	632	634	639	637	638	641	655	656	650	646	644	639	628	628	628	634	641	654	659	619	613	619	612	607	616	622	629	629	632	636	640	638	626	624	623	622	623	629	631	639	639	637	632	625	621	625	636	637	633	638	643	644	642	641	645	647	646	640	633	627	623	625	637	652	653	656	659	657	643	625	620	626	629	629	633	630	632	638	647	648	640	639	649	650	658	632	630	631	636	639	636	638	640	635	634	640	643	642	636	627	617	611	613	619	620	622	620	619	623	625	623	613	607	609	619	630	639	639	632	626	627	625	622	627	639	641	645	635	627	623	627	630	642	644	642	637	634	637	641	646	642	636	629	623	621	622	623	626	630	635	642	645	639	632	625	621	624	626	627	628	628	628	626	628	641	644	638	632	627	619	613	609	610	622	631	638	648	648	649	651	652	648	641	633	626	630	652	655	654	653	642	640	644	647	647	647	642	628	625	0	0	0	0	0	0	0	0
629	627	628	630	632	632	633	633	633	629	629	628	629	630	630	628	628	629	620	622	629	634	634	636	638	635	629	628	631	631	634	636	638	641	642	641	625	625	626	630	646	654	653	652	644	638	634	634	634	636	631	633	633	632	630	630	637	646	646	648	647	646	645	648	653	654	646	643	642	643	652	653	650	644	628	625	625	624	637	643	639	636	633	631	631	629	624	620	622	627	632	633	637	641	637	631	622	619	623	624	638	628	621	616	616	621	624	626	627	622	618	619	618	625	635	633	625	618	612	605	609	616	623	629	630	625	619	631	637	637	633	634	638	642	638	634	632	628	624	620	620	622	623	625	626	628	625	624	621	615	619	623	622	616	609	605	605	611	621	630	632	640	640	637	636	638	632	630	625	623	625	629	636	639	641	636	633	636	639	644	633	626	614	612	616	616	625	629	636	636	635	630	625	624	623	626	624	622	622	624	629	630	624	622	622	631	639	639	634	627	623	621	623	627	625	625	628	623	620	621	620	614	609	606	609	613	614	617	623	629	635	636	643	639	631	630	631	637	647	650	650	646	637	629	624	623	625	627	626	624	631	628	626	621	619	620	621	623	620	620	619	621	623	622	611	602	604	604	605	607	610	605	602	605	610	611	613	618	615	610	603	608	614	623	633	634	631	627	625	630	632	625	620	618	620	621	620	619	616	618	622	620	618	617	620	620	613	608	606	605	606	604	617	617	613	610	616	618	629	631	632	629	629	627	634	638	632	629	626	629	632	632	631	631	630	628	625	620	618	620	624	625	615	609	608	614	618	624	626	627	629	628	627	624	625	629	627	623	627	631	633	630	629	632	633	628	618	622	633	619	618	614	615	614	608	603	605	608	614	621	623	621	617	614	610	608	607	613	615	619	619	621	622	623	620	617	615	615	619	624	627	628	627	626	626	632	629	621	619	622	623	621	617	613	609	617	623	623	623	622	620	625	633	639	632	620	624	629	630	632	631	633	631	628	626	625	620	619	617	617	616	619	624	625	622	614	601	603	612	625	617	609	607	603	607	606	608	608	609	618	621	616	610	608	609	606	616	617	617	614	616	615	618	615	617	617	609	610	616	621	625	621	623	623	626	626	629	627	631	630	633	630	622	620	624	630	640	637	638	636	630	622	623	621	621	621	621	620	625	626	626	626	623	624	610	612	621	612	605	602	601	601	607	616	623	624	619	619	620	629	630	625	612	606	605	604	601	609	611	612	611	613	614	608	602	597	599	607	620	627	626	620	617	617	617	617	618	620	617	624	620	614	607	603	609	633	636	631	626	619	617	621	627	616	610	606	606	607	607	612	617	625	630	638	641	636	624	615	615	614	616	615	616	616	615	612	616	621	631	636	627	623	615	607	601	603	608	616	617	621	621	627	631	631	628	620	617	611	612	611	630	628	641	633	628	626	625	629	629	622	608	603	0	0	0	0	0	0	0	0
619	617	621	622	626	626	622	621	619	616	616	616	617	621	618	614	614	605	614	618	625	630	630	631	628	618	614	618	621	621	620	621	624	632	634	619	616	616	620	622	624	627	634	630	622	618	615	615	617	619	624	624	624	622	618	618	616	623	623	630	634	635	637	640	636	632	628	628	630	635	637	615	612	609	609	606	606	599	598	604	611	614	615	620	621	618	614	606	603	609	617	623	628	626	622	617	611	609	611	611	617	618	613	609	607	606	606	609	610	606	603	598	590	589	604	614	611	609	601	599	602	613	613	611	609	611	614	616	622	623	621	616	617	614	610	614	624	621	610	602	599	609	611	610	613	616	614	611	609	609	611	617	616	611	604	600	598	597	599	608	618	623	613	602	597	616	615	616	613	611	613	617	624	630	628	621	619	622	630	626	617	609	601	602	602	604	607	611	620	625	624	618	618	619	617	618	620	621	611	606	610	615	613	610	616	626	630	632	624	621	617	614	618	623	612	614	615	618	615	611	615	612	599	594	593	598	604	609	616	622	623	614	625	630	625	622	625	629	633	640	641	634	618	613	611	608	604	604	610	615	615	620	618	612	608	604	608	604	603	607	610	612	611	610	601	596	594	598	602	602	596	591	588	588	588	599	606	605	594	592	595	604	610	618	618	617	619	617	613	606	594	590	591	607	612	613	601	597	597	598	606	609	606	604	608	609	607	603	598	595	593	595	598	595	587	598	603	606	613	616	621	619	624	627	632	632	627	618	617	619	622	618	612	616	618	618	616	612	608	608	606	605	601	601	601	606	611	611	612	623	625	623	621	620	618	615	610	601	599	595	595	598	605	608	609	603	596	590	594	590	591	590	584	580	581	584	591	596	603	613	620	620	617	610	602	596	591	588	593	602	604	607	608	614	612	607	606	608	612	616	619	619	620	619	615	611	608	602	604	614	613	611	606	602	600	603	606	604	612	612	617	620	622	619	610	613	614	609	604	603	601	620	621	615	607	605	611	611	611	610	611	611	613	614	614	611	603	603	605	607	604	598	595	596	599	608	605	599	598	607	613	608	605	596	602	599	597	601	607	608	607	604	594	593	603	612	610	604	605	609	610	608	608	600	598	601	607	613	617	618	614	608	607	615	620	629	619	607	601	604	607	614	617	621	620	620	610	604	603	600	596	596	593	594	594	593	588	591	595	592	592	589	592	592	594	611	612	612	612	615	614	606	600	600	600	593	592	595	602	603	603	604	605	601	591	588	589	600	609	616	612	609	606	603	607	607	609	603	589	603	603	600	597	596	601	620	625	624	616	606	596	603	610	608	602	596	597	595	590	593	597	604	616	631	635	626	617	608	605	605	603	602	603	604	601	597	594	598	604	609	614	615	606	597	596	601	606	610	602	602	597	601	610	609	604	598	602	598	599	598	602	609	611	612	620	616	611	605	605	604	598	592	0	0	0	0	0	0	0	0
606	607	610	612	614	614	610	609	607	601	601	595	602	606	602	604	604	594	602	612	614	620	618	618	610	599	598	604	608	612	612	609	609	612	610	609	610	612	612	614	614	614	612	600	590	597	592	592	595	598	596	607	613	612	613	612	612	612	616	616	612	610	610	614	619	621	619	619	621	599	592	597	593	595	593	594	594	589	583	584	591	600	605	604	599	590	588	586	586	591	599	605	606	600	597	595	593	596	599	600	601	601	600	601	597	595	599	602	603	600	595	589	582	577	582	594	600	603	600	599	598	597	600	601	601	604	607	609	608	604	600	599	598	594	592	594	602	604	605	597	591	590	591	591	599	603	602	601	603	601	596	591	588	598	595	591	589	587	583	584	597	602	603	597	590	590	597	606	609	603	604	606	607	606	606	609	613	619	620	614	606	602	599	594	593	598	601	604	604	609	608	608	611	612	606	608	611	611	598	599	600	599	597	601	607	614	617	608	598	588	587	590	597	602	604	605	604	603	602	602	596	599	595	591	586	593	598	602	610	611	605	598	590	592	615	622	620	617	619	618	610	609	606	607	603	599	597	601	608	612	613	608	602	601	596	588	583	586	590	592	595	598	600	600	596	591	589	590	589	588	586	587	583	583	583	585	586	588	587	587	594	600	604	604	596	595	605	606	602	589	584	585	587	596	600	596	586	577	583	590	596	599	604	596	598	598	596	596	596	596	597	597	596	588	581	578	577	578	580	585	596	608	615	617	618	620	615	610	607	612	610	597	596	601	607	608	609	603	600	595	591	589	589	592	594	600	598	595	597	601	619	618	615	612	611	606	596	588	584	583	586	581	584	586	589	588	577	573	575	572	573	577	578	578	579	583	584	586	591	595	609	615	616	604	591	582	578	574	577	582	586	594	600	604	595	593	591	591	600	606	609	609	604	593	587	592	588	591	595	600	601	596	597	593	592	589	586	585	590	597	603	606	603	597	595	594	591	593	591	589	594	596	596	589	587	589	601	603	601	605	607	605	606	606	604	609	602	594	596	596	585	584	583	583	589	594	599	598	597	598	600	601	592	588	586	593	593	595	595	605	595	590	590	589	593	598	606	600	594	592	591	592	592	589	591	595	595	600	604	603	600	594	593	600	610	609	601	597	592	589	595	603	611	617	618	613	607	601	597	598	591	587	587	586	583	581	582	581	584	582	583	584	584	586	584	601	606	607	605	602	599	598	597	598	598	593	592	589	588	589	588	590	595	593	589	584	585	590	599	601	597	592	592	594	596	600	595	587	580	578	585	585	587	589	592	600	600	593	586	583	586	592	599	600	595	590	586	585	583	587	590	596	602	604	596	593	594	594	596	595	592	592	593	594	589	586	583	585	593	593	595	596	589	587	591	601	606	604	583	583	575	579	589	592	589	584	580	581	586	590	595	600	597	603	603	593	603	596	596	594	591	588	0	0	0	0	0	0	0	0
594	592	593	596	597	597	590	591	595	594	594	593	593	595	594	592	592	588	589	592	592	595	594	594	587	584	587	591	595	598	598	598	597	597	600	601	600	601	601	602	604	602	597	586	581	578	580	580	587	594	594	595	597	602	607	607	606	601	599	599	596	590	593	597	606	608	610	597	592	583	576	572	575	579	581	585	585	582	578	576	580	584	585	584	585	579	575	569	574	582	590	591	586	584	583	579	577	578	582	584	586	590	589	588	587	590	594	597	598	594	587	582	578	574	573	578	588	595	596	595	588	586	587	590	592	596	600	601	598	599	596	596	594	589	585	585	590	594	596	591	586	581	580	581	585	590	588	591	591	584	583	582	582	579	577	581	586	584	582	580	586	596	598	593	585	589	596	600	596	593	592	589	591	589	594	599	601	606	606	607	603	597	596	587	583	586	595	601	599	593	590	592	597	599	593	584	581	582	592	592	593	590	589	588	595	602	597	576	574	574	579	584	589	593	595	596	590	583	584	586	585	594	587	586	582	585	588	589	590	592	594	594	586	578	576	586	607	607	598	592	593	597	598	596	596	595	593	600	604	607	604	588	573	570	576	580	577	576	579	582	585	586	587	585	583	583	584	584	583	585	582	583	581	579	581	583	584	577	569	572	576	582	584	584	573	573	578	583	582	577	575	578	580	584	588	576	568	569	572	578	584	585	584	592	595	592	585	588	588	585	579	576	573	571	570	573	572	575	579	580	581	581	577	574	571	581	589	597	602	601	593	589	587	590	589	589	588	591	591	586	581	572	571	576	580	584	579	582	588	587	585	588	591	589	588	564	568	572	573	573	572	574	576	570	557	553	553	561	568	573	574	574	576	577	578	573	572	573	571	572	581	588	588	588	584	581	574	570	571	573	575	577	575	578	576	568	567	569	579	582	590	589	578	566	560	558	563	575	580	582	584	585	582	579	581	583	583	582	585	589	593	593	588	575	576	582	588	585	582	577	582	586	587	584	582	581	579	576	571	570	572	575	584	591	590	593	584	578	575	575	573	569	565	569	573	577	581	591	597	598	598	593	585	581	584	586	584	582	586	585	584	586	586	586	580	579	584	588	587	585	575	574	579	586	585	585	584	581	584	584	576	572	572	579	583	593	591	587	587	587	587	588	591	598	585	599	596	585	585	591	588	585	585	583	581	578	576	576	576	575	574	575	574	577	578	585	596	594	593	588	586	585	592	596	595	589	588	583	581	578	577	579	586	585	582	581	581	583	588	590	585	583	584	588	594	593	587	578	577	578	580	583	580	578	575	570	577	579	581	580	579	579	581	579	578	578	578	578	581	580	581	583	589	591	587	582	581	583	589	591	591	590	588	580	570	568	576	583	588	588	588	584	577	574	580	589	589	579	569	569	565	565	576	580	579	579	577	579	581	583	586	587	586	591	582	575	578	583	583	588	591	590	0	0	0	0	0	0	0	0
579	573	571	570	574	574	572	576	584	593	593	593	593	591	588	588	588	580	579	576	576	578	579	579	578	576	580	583	585	583	583	587	592	590	591	586	583	586	586	589	593	591	587	580	575	576	579	579	587	593	595	594	593	595	597	598	597	593	583	583	579	577	579	581	581	574	576	581	575	569	566	563	563	565	566	569	572	572	568	570	574	577	576	578	581	579	577	576	577	580	582	575	575	573	571	569	569	571	573	577	581	584	584	581	582	584	588	590	591	587	581	577	574	570	570	573	579	586	587	579	579	578	577	578	584	589	593	593	592	590	588	586	587	582	580	575	572	580	582	579	578	578	576	574	577	583	585	586	580	575	582	580	580	575	571	573	577	581	579	575	578	582	582	579	576	578	587	584	579	582	581	577	572	572	574	584	586	585	586	594	594	593	590	580	575	573	574	584	584	584	585	584	584	585	579	576	574	578	582	587	588	586	582	583	585	578	572	569	568	568	571	579	584	585	586	584	565	562	565	571	577	579	567	568	568	574	577	578	579	583	586	586	582	574	564	564	565	569	577	581	587	589	590	589	587	586	586	585	582	578	572	569	566	563	564	571	573	571	572	572	574	575	573	573	572	574	576	576	576	577	576	574	568	567	566	566	562	560	556	563	567	569	570	566	567	563	568	573	569	565	564	569	575	576	574	559	555	559	565	568	568	567	566	565	565	574	575	574	571	565	561	561	565	564	563	562	561	567	571	574	572	569	569	569	567	563	562	563	565	567	569	568	571	568	565	565	574	581	580	578	571	564	562	566	569	567	568	572	577	579	580	577	572	558	557	561	566	571	568	563	563	561	557	550	547	546	548	550	556	561	570	571	565	562	559	562	561	562	563	562	568	570	571	574	577	573	571	566	563	563	567	567	565	562	560	560	562	564	568	568	563	565	557	559	557	556	553	557	562	563	558	561	563	567	570	573	576	577	582	584	582	580	573	568	566	569	573	578	573	576	578	580	582	579	576	573	568	561	557	558	558	560	547	552	569	581	568	567	569	570	569	561	557	556	561	565	570	576	577	581	583	581	576	567	563	566	565	573	573	569	573	577	573	575	574	572	574	579	583	582	572	569	571	574	569	568	564	563	570	574	575	571	565	561	556	565	572	577	581	583	580	567	566	567	574	571	561	562	569	586	586	587	584	582	577	569	564	569	570	570	567	562	556	564	572	580	580	578	577	578	576	571	573	579	587	587	583	578	574	573	571	570	566	567	573	576	576	580	583	585	583	581	580	579	578	577	571	566	575	582	580	581	574	565	559	563	569	572	573	575	572	573	576	575	570	571	571	573	574	573	570	571	579	583	579	573	568	576	585	587	587	584	573	568	563	563	566	576	579	577	576	571	556	558	563	571	578	575	575	570	566	566	569	576	575	574	572	571	570	565	565	573	577	577	575	573	575	575	577	582	584	583	0	0	0	0	0	0	0	0
569	563	560	560	559	559	561	566	576	585	588	588	586	582	583	582	575	575	570	565	563	568	574	574	578	575	578	578	575	568	568	561	558	563	569	569	568	574	574	581	581	580	574	573	573	576	582	582	585	592	590	588	590	591	591	591	587	578	578	578	572	573	571	569	567	569	569	569	567	567	566	566	565	564	569	575	573	573	567	557	552	553	560	568	576	579	579	574	570	566	562	557	561	562	559	560	565	568	570	574	579	582	582	581	580	578	578	583	581	580	574	568	566	567	565	568	574	577	580	573	575	572	570	570	571	575	578	581	581	580	576	574	573	574	571	567	561	557	559	562	565	571	573	570	574	582	583	580	570	567	574	574	574	566	562	561	567	570	563	567	569	568	568	568	567	567	571	563	557	560	561	562	564	565	568	568	568	567	571	575	580	585	581	573	568	563	564	567	572	571	571	574	571	575	574	573	571	572	576	584	584	581	579	577	574	567	560	560	559	560	565	574	580	582	578	566	561	557	559	564	563	562	561	560	559	560	564	567	573	573	568	566	563	560	546	543	546	557	565	567	580	580	577	577	573	566	562	562	561	562	562	562	556	556	559	562	565	566	566	564	565	563	564	565	563	564	563	564	566	562	557	552	554	554	558	559	555	548	547	552	556	560	561	558	554	557	561	561	560	557	559	563	564	558	553	549	549	550	553	553	556	557	558	558	558	560	565	564	562	551	552	555	560	560	559	556	553	558	561	564	563	563	563	564	563	559	556	558	559	560	560	561	562	559	553	553	554	554	554	552	549	543	541	547	560	562	564	560	562	563	562	556	554	547	546	556	561	557	546	545	546	546	546	545	543	541	543	547	550	554	556	555	553	551	552	552	553	557	556	555	556	556	557	556	559	558	557	556	553	556	558	560	559	556	556	556	558	562	564	562	556	550	541	543	547	548	550	546	543	546	546	545	539	537	539	545	552	559	569	572	571	568	564	561	557	555	557	558	555	552	549	556	563	567	565	558	551	545	545	544	538	535	541	544	551	557	560	560	561	560	556	552	550	550	551	551	553	554	557	562	564	561	551	539	543	548	559	558	553	555	557	562	558	562	563	561	567	568	569	573	565	564	565	562	559	556	556	557	560	567	573	570	562	551	551	556	562	561	552	551	554	554	554	558	553	547	545	551	555	570	567	558	553	551	550	545	547	552	556	563	561	559	553	547	564	565	562	554	552	556	558	557	559	558	559	561	561	560	557	563	564	561	565	563	561	556	552	553	561	568	566	564	565	567	569	566	554	551	554	571	580	576	568	559	553	554	558	562	562	562	563	566	568	570	563	563	561	561	562	562	561	561	566	563	560	558	555	559	568	570	561	558	558	561	560	562	559	559	557	566	566	559	552	552	556	563	569	566	566	569	567	566	566	570	569	564	558	556	554	556	560	563	567	571	573	575	571	571	564	555	555	573	0	0	0	0	0	0	0	0
559	557	556	556	553	553	552	555	565	567	569	569	565	569	577	579	568	568	561	554	556	561	566	566	567	562	560	562	558	551	551	549	549	553	556	560	565	569	569	575	578	570	562	561	562	563	564	568	568	570	572	569	575	586	586	584	578	574	572	572	573	570	561	561	562	562	563	562	563	568	569	567	566	562	564	568	567	567	560	554	551	554	558	566	572	576	571	567	566	566	561	556	552	545	552	553	560	563	565	566	566	567	573	574	574	572	569	567	563	564	561	557	554	553	558	564	569	573	574	567	565	568	567	564	560	558	559	572	575	574	567	564	562	564	567	561	554	548	545	549	554	563	571	575	583	583	578	570	564	560	563	565	563	558	553	552	552	547	551	555	560	560	560	561	562	564	564	556	553	552	553	557	558	561	563	563	563	563	560	554	546	548	547	563	560	557	555	556	559	552	553	555	552	555	560	563	564	567	569	569	565	564	564	564	559	553	552	553	552	552	554	560	565	565	564	563	557	552	551	557	559	559	556	554	554	547	544	545	548	552	554	558	561	560	546	542	541	543	553	555	553	550	562	557	556	554	554	556	559	560	560	559	551	550	552	556	558	553	554	555	555	553	554	557	558	557	553	549	548	545	545	545	547	549	546	548	544	540	538	542	550	553	551	547	543	549	556	553	542	537	537	537	538	538	538	540	541	542	542	542	544	547	548	546	550	550	553	554	553	547	549	552	555	556	556	553	550	550	548	548	548	549	556	557	559	555	553	555	555	552	551	552	531	537	541	541	538	528	524	527	532	535	535	537	542	544	542	537	534	536	541	543	541	539	540	545	546	543	539	535	532	535	536	538	535	537	538	541	545	549	551	549	543	537	536	534	532	531	531	533	538	543	545	546	546	548	546	543	542	543	548	549	548	544	547	554	560	561	561	554	542	533	532	534	539	542	542	538	535	531	534	532	528	524	529	534	540	542	546	544	541	542	551	551	548	541	541	540	536	533	532	538	543	552	553	551	547	544	528	528	531	535	537	535	531	524	528	535	542	545	547	548	544	539	536	532	534	537	541	542	547	550	541	524	531	539	543	545	547	547	549	551	546	550	552	553	558	559	560	559	559	545	544	544	552	548	549	548	554	556	561	562	552	547	544	544	545	542	540	540	542	542	540	535	529	527	541	546	547	542	543	544	543	543	538	534	533	528	541	552	553	550	546	543	536	540	539	540	543	543	547	550	550	546	544	542	545	544	545	542	543	557	560	555	549	543	536	537	538	537	549	556	558	558	559	556	545	539	540	548	571	570	561	550	543	546	548	548	548	543	548	545	547	556	557	555	551	552	544	542	541	546	547	546	546	550	557	559	564	560	553	553	552	554	554	554	551	548	546	548	551	552	552	550	553	553	557	553	553	556	564	566	567	567	563	558	548	544	550	554	552	553	557	560	564	563	554	554	544	542	539	541	0	0	0	0	0	0	0	0
540	542	553	554	551	545	545	549	552	555	550	550	551	559	570	571	551	551	546	547	549	554	552	552	550	550	554	555	555	548	548	543	541	545	550	554	556	558	558	558	557	555	558	560	558	557	555	558	558	557	558	561	568	577	578	576	572	568	566	563	556	553	547	548	552	555	554	550	551	552	555	560	559	556	555	556	555	555	555	553	552	554	555	555	562	563	561	561	560	558	558	557	549	542	539	542	549	556	552	554	555	556	559	565	564	563	558	559	562	562	559	549	543	543	547	552	563	565	557	555	551	557	560	557	550	544	545	561	566	564	563	559	557	553	550	549	548	544	539	539	547	557	566	576	578	578	577	568	560	556	556	558	557	553	548	543	540	538	541	546	553	558	561	561	559	559	559	559	546	544	546	550	556	558	561	561	558	556	552	544	538	530	527	532	550	552	549	543	540	539	539	539	543	545	548	551	554	555	555	552	553	554	557	557	555	554	552	549	547	545	550	558	560	559	554	551	544	544	546	551	552	553	551	549	545	544	543	545	548	549	550	554	556	552	545	541	538	535	532	535	536	533	532	535	546	545	545	549	548	549	549	547	545	544	545	547	549	542	543	543	540	541	540	542	548	546	545	545	542	541	540	538	534	532	534	534	530	526	524	528	535	538	540	537	536	540	549	545	538	532	532	533	533	530	530	530	534	537	535	535	535	532	530	533	535	536	537	538	538	534	535	537	542	546	548	548	546	544	541	540	536	533	529	530	540	539	535	529	533	536	533	525	522	521	522	530	525	522	522	521	520	526	527	527	529	533	534	534	530	531	534	536	534	531	529	531	538	536	530	524	521	520	527	527	531	532	532	534	538	541	542	540	537	531	528	529	527	517	518	521	529	533	540	541	532	534	533	533	535	538	544	544	540	529	525	529	538	543	544	533	529	528	528	529	531	534	534	531	525	523	523	522	517	514	522	528	533	537	535	534	532	525	530	531	529	529	528	528	531	529	531	536	537	536	542	544	528	524	523	525	529	535	536	531	523	515	515	519	522	526	529	530	528	526	521	524	528	528	530	531	533	535	534	519	521	530	536	538	534	539	539	537	535	535	538	546	545	545	547	538	534	534	533	535	536	540	542	541	537	537	540	544	544	527	528	531	534	532	531	534	537	537	535	530	528	523	525	528	529	532	538	537	531	531	531	529	525	523	528	537	539	536	532	533	529	529	535	537	537	534	538	541	544	547	546	538	536	537	533	534	542	542	539	535	534	536	534	532	530	530	530	537	546	552	553	546	535	528	529	533	537	555	552	541	534	525	529	532	535	536	535	535	538	535	539	538	534	528	529	529	532	536	538	540	539	547	557	562	559	546	540	540	544	543	536	539	542	542	538	535	529	531	535	538	541	542	541	541	542	543	547	550	549	547	540	535	526	523	525	527	528	531	538	546	549	548	544	544	539	536	534	534	0	0	0	0	0	0	0	0
533	533	542	546	543	542	542	544	544	542	541	541	543	552	558	557	531	531	534	537	540	541	542	542	542	545	547	551	550	545	539	539	539	541	544	545	549	550	545	545	545	550	552	553	554	552	552	551	551	549	544	554	565	572	575	572	567	562	560	551	551	540	534	535	542	547	546	544	543	545	549	551	554	555	553	553	551	551	551	550	548	551	548	549	550	553	549	550	551	551	555	556	553	546	539	531	527	524	528	530	529	534	544	554	554	548	546	552	561	564	559	551	543	542	543	547	552	545	540	545	547	549	554	551	541	535	534	547	553	556	560	557	553	549	547	544	543	541	540	539	538	538	540	551	559	562	564	565	557	550	548	550	552	547	537	535	536	537	540	545	545	546	555	556	551	548	544	538	526	533	540	544	544	543	538	532	529	530	535	536	532	529	528	533	535	537	538	540	536	536	533	531	534	537	537	537	543	544	543	545	545	546	551	550	550	548	547	538	540	542	546	551	550	542	540	540	538	536	538	540	543	545	544	540	539	538	540	541	539	541	542	544	542	537	535	536	533	528	523	515	513	518	522	525	526	525	532	536	535	539	540	540	539	537	538	536	532	536	536	532	529	530	529	531	536	540	539	538	535	535	534	530	526	524	526	523	520	519	521	526	530	531	531	527	527	530	540	536	532	526	526	526	527	523	523	525	525	530	532	532	527	524	522	519	521	526	532	531	530	528	528	530	532	534	537	540	538	535	532	528	510	508	512	518	523	523	524	527	526	525	524	521	518	515	515	517	519	518	517	515	516	520	521	518	518	519	519	517	522	522	527	526	525	520	518	523	526	530	524	520	516	520	519	518	513	512	516	520	523	525	527	530	529	526	524	521	514	515	516	519	524	528	535	537	527	530	530	530	533	535	534	531	528	526	523	521	517	520	520	521	522	522	525	525	526	526	527	521	518	517	513	510	510	511	515	519	520	525	522	522	519	523	524	523	519	522	521	522	527	530	528	528	529	528	519	516	518	517	517	518	524	530	531	525	513	508	508	508	510	511	515	521	517	513	514	517	523	523	521	522	522	524	526	518	518	521	528	527	526	524	523	526	526	526	529	534	537	537	535	532	531	529	526	524	522	521	522	524	524	521	514	519	522	521	519	519	519	520	523	527	531	533	530	527	516	512	508	520	520	531	533	527	522	525	525	525	524	521	518	517	519	521	518	522	526	526	527	525	524	530	535	535	537	542	542	539	532	531	532	535	537	535	531	528	531	534	533	528	529	528	523	521	520	522	523	523	523	525	529	530	532	533	542	536	525	514	518	523	528	532	533	535	537	536	537	531	526	523	519	516	516	522	529	533	535	539	548	546	539	533	531	532	529	527	529	535	536	538	531	524	518	518	524	530	534	535	535	535	535	537	538	538	534	526	519	520	523	524	526	525	523	523	525	531	537	541	541	540	533	529	527	525	0	0	0	0	0	0	0	0
525	525	526	530	533	535	535	534	537	536	538	538	540	540	539	529	530	530	530	535	535	533	532	532	532	540	545	546	545	540	535	535	532	533	537	541	541	540	537	537	536	533	534	532	526	527	530	530	530	525	526	536	552	564	568	568	563	551	543	538	538	533	525	524	532	538	540	538	537	538	541	545	551	552	550	543	542	538	538	541	542	538	537	539	538	537	533	529	531	526	531	535	536	536	535	531	528	523	523	530	539	541	540	545	544	538	539	546	548	549	540	541	540	540	537	536	532	529	527	529	532	533	533	529	528	525	520	523	532	544	548	547	547	544	541	540	537	539	539	539	534	531	529	533	540	546	533	531	535	536	529	530	531	531	532	531	534	536	539	539	533	533	532	535	536	533	533	529	521	525	533	538	537	532	527	524	524	523	527	529	527	526	530	530	528	526	526	532	528	526	531	528	528	530	529	527	525	524	524	524	531	535	544	546	544	534	531	532	532	534	538	542	539	535	535	534	528	525	527	526	531	531	533	533	531	529	529	531	532	533	533	529	526	523	525	524	528	525	519	512	507	507	513	518	518	517	516	512	523	521	525	536	536	533	526	520	521	519	520	516	518	519	519	520	525	530	535	532	529	523	523	521	522	519	512	514	512	513	517	521	523	523	523	520	518	520	526	526	520	519	521	519	519	516	516	520	518	512	513	515	516	517	512	509	510	515	519	519	519	518	521	522	522	522	528	530	531	527	524	505	503	503	505	508	513	516	520	521	515	512	517	516	514	510	507	503	505	511	509	511	511	510	512	511	508	509	510	509	511	511	520	519	516	510	509	514	519	522	522	518	516	514	513	508	501	500	505	509	509	512	510	515	518	520	517	509	509	511	514	516	519	524	529	521	521	521	524	526	521	517	512	512	517	517	516	516	515	514	514	515	515	517	522	522	522	520	519	513	512	516	517	515	513	513	514	516	516	511	510	509	511	519	521	520	518	515	514	516	518	520	517	519	516	514	511	507	506	508	509	509	512	518	512	512	506	504	504	506	506	508	510	510	506	503	504	509	516	519	517	515	515	516	521	518	512	507	504	507	507	510	519	519	519	519	521	523	519	520	521	518	522	523	516	515	514	513	514	505	505	508	513	516	516	518	519	511	505	508	513	518	523	523	523	512	508	502	499	502	525	529	529	524	520	521	519	520	519	513	512	511	511	513	513	512	512	515	519	520	517	520	525	528	527	530	530	528	527	532	532	529	531	523	524	525	528	529	529	526	525	523	521	520	521	522	520	519	519	522	528	529	528	524	524	522	517	509	513	516	522	526	531	538	544	543	536	526	519	514	511	508	507	513	519	527	528	531	531	529	526	525	525	526	528	529	529	532	533	530	525	520	518	520	519	525	527	528	527	527	528	531	533	533	526	522	519	516	514	520	522	521	516	517	518	516	514	513	513	515	516	519	518	518	0	0	0	0	0	0	0	0
513	513	519	515	512	517	517	522	529	533	531	527	527	524	523	522	526	526	527	527	527	524	526	528	528	531	535	536	533	522	522	522	520	524	527	528	529	527	526	526	525	525	523	518	519	524	528	522	519	519	520	530	541	549	551	553	543	541	535	531	531	524	520	522	528	535	536	533	533	532	533	537	544	545	543	538	535	531	530	530	532	531	529	527	527	519	514	515	518	522	525	529	528	528	525	525	522	520	525	533	547	545	538	532	528	531	535	536	533	529	527	528	529	529	523	518	512	508	509	512	514	514	515	516	515	517	516	523	530	527	525	530	534	536	535	535	535	532	519	521	525	522	521	523	526	528	523	519	517	520	521	535	536	530	523	520	523	526	527	524	518	516	516	518	517	517	523	521	515	518	526	530	530	524	519	519	517	520	525	522	520	519	521	521	519	516	516	514	510	506	507	510	515	521	520	517	517	518	514	515	521	521	520	511	509	513	516	521	523	525	528	531	533	531	529	525	516	513	515	515	517	519	524	527	524	521	520	522	526	527	524	520	515	512	510	511	522	520	512	504	503	504	508	513	514	513	511	507	504	502	513	516	509	508	510	515	516	516	512	509	511	511	513	517	518	519	519	514	509	509	505	505	509	506	506	506	506	510	512	515	516	516	514	514	513	512	514	513	510	500	499	501	507	508	511	509	506	501	499	507	511	511	503	501	499	499	502	502	505	509	512	510	507	511	506	504	499	501	503	502	500	501	502	502	500	511	513	511	507	504	503	507	507	505	500	498	498	493	486	490	502	500	499	501	500	499	499	501	507	512	515	512	508	502	502	504	503	498	499	498	502	508	507	503	494	496	499	499	504	502	496	497	502	510	505	501	503	506	510	512	515	513	507	508	514	517	520	512	510	506	503	504	501	499	500	504	510	511	511	510	508	510	512	513	519	516	512	509	509	515	516	513	512	511	509	510	508	505	504	503	508	515	517	517	512	507	506	505	507	509	500	500	506	508	502	498	496	497	498	499	499	502	502	503	496	497	502	502	503	505	502	500	497	494	497	501	511	516	516	511	508	506	512	512	504	501	502	503	505	507	511	514	516	516	515	511	505	504	510	509	509	511	510	507	505	493	491	494	501	507	511	513	514	520	520	513	496	500	504	513	516	512	504	502	500	498	495	496	506	512	521	525	521	517	514	514	511	509	506	506	506	505	498	498	504	507	511	511	511	511	513	515	518	519	518	515	518	518	519	520	521	518	513	516	523	523	523	524	519	512	506	504	509	514	515	517	517	520	521	523	524	521	515	509	506	506	508	512	512	520	520	513	512	510	508	509	512	511	509	507	505	506	512	518	522	523	524	522	519	517	517	518	518	520	514	515	521	522	519	516	517	516	518	522	525	522	522	521	522	526	530	526	521	517	516	512	509	510	511	511	509	510	511	504	499	502	502	505	512	511	512	513	0	0	0	0	0	0	0	0
505	505	511	508	507	505	505	511	523	524	524	521	521	520	521	524	522	523	523	523	517	513	518	523	523	526	528	526	517	515	510	510	510	515	521	523	524	522	522	522	519	519	517	514	517	523	527	526	523	523	522	527	536	540	540	528	532	530	525	523	514	514	514	516	522	527	530	529	527	526	525	527	532	530	528	527	524	523	522	522	522	522	522	522	516	513	511	508	510	515	518	520	519	520	519	516	512	509	500	508	515	518	519	517	518	524	528	528	526	522	520	523	525	523	519	514	510	508	514	516	517	512	512	511	511	510	514	521	521	519	520	517	516	516	518	518	514	509	511	514	514	510	510	510	513	517	515	511	508	510	512	519	519	519	516	514	513	509	509	514	513	511	512	511	511	510	510	515	512	514	519	522	521	514	508	512	515	517	521	515	509	510	514	514	509	505	504	504	502	497	493	492	496	502	503	508	507	505	506	509	512	510	503	501	496	498	504	512	517	519	518	522	522	522	521	512	507	498	503	503	502	507	510	514	513	507	509	513	518	520	515	510	506	504	504	503	511	509	502	496	496	500	505	510	511	506	499	497	493	494	493	490	499	501	507	511	515	511	507	506	504	506	508	510	511	511	508	510	508	504	501	498	494	494	495	498	500	499	498	497	500	499	501	502	502	506	507	503	497	487	492	492	494	496	499	497	495	491	488	503	505	498	495	490	487	483	481	487	496	498	499	492	485	483	484	486	489	492	497	498	498	499	499	497	493	495	501	502	501	500	498	501	501	499	496	492	489	482	480	481	486	491	490	490	489	489	491	495	502	507	511	512	505	497	496	494	490	491	495	491	490	491	491	491	492	494	493	491	489	484	487	490	491	493	494	494	497	499	501	502	498	488	496	498	503	510	504	496	495	500	498	499	497	492	491	494	493	507	504	500	500	507	508	509	510	511	506	500	501	501	502	499	501	504	502	500	500	500	498	493	492	499	508	510	499	492	495	494	489	491	493	493	494	496	494	492	486	483	479	490	490	492	488	486	489	492	497	499	499	499	492	486	489	489	488	493	501	509	513	508	501	494	502	503	503	500	501	502	501	499	498	507	514	513	507	498	494	490	491	493	493	496	481	483	482	482	482	485	493	498	506	507	508	512	512	511	498	493	500	506	506	500	497	495	496	496	495	490	500	499	502	508	509	506	505	507	505	504	502	499	497	496	493	491	498	500	504	505	504	501	501	504	508	512	509	506	509	508	508	509	515	509	507	507	513	514	514	511	507	505	500	497	497	500	504	505	504	509	512	515	511	510	507	504	501	503	506	506	509	507	500	502	505	505	504	506	509	507	502	498	495	493	499	504	505	506	515	516	512	508	505	504	504	508	505	504	501	504	503	506	507	505	501	502	508	513	513	511	516	521	524	519	514	513	510	504	499	498	498	500	502	500	495	499	503	502	502	500	503	506	507	502	0	0	0	0	0	0	0	0
502	502	508	507	505	504	504	505	509	513	515	513	513	515	519	519	495	496	496	498	500	506	514	515	515	512	515	514	513	509	505	505	504	505	509	513	517	514	512	512	512	513	511	509	510	515	521	522	522	522	522	529	533	534	517	514	517	516	513	512	507	507	507	510	513	517	523	520	513	510	515	515	516	514	511	511	514	514	516	516	516	515	510	510	509	511	514	516	514	513	512	509	504	498	497	500	497	493	493	495	499	505	508	507	511	516	519	519	514	509	511	515	518	515	512	509	506	508	511	515	514	509	507	508	508	505	507	515	507	507	505	505	503	496	496	500	500	500	503	508	509	507	503	503	507	510	509	506	505	503	501	503	507	511	510	508	505	502	505	508	505	504	503	503	503	502	504	507	512	513	514	518	515	507	498	502	507	514	511	507	500	504	509	509	505	494	493	497	496	491	487	483	484	489	491	495	494	495	502	502	502	498	496	495	494	492	499	507	513	513	513	509	506	506	507	506	504	497	490	492	493	498	500	493	492	493	499	502	505	503	506	502	502	502	504	499	500	495	493	493	494	495	492	488	485	484	487	487	488	490	488	483	482	487	503	508	511	508	505	502	499	501	502	505	506	505	491	491	491	499	493	481	477	480	486	490	493	494	491	493	495	498	499	499	498	496	491	487	483	480	481	482	484	486	484	481	487	485	487	494	490	486	484	482	478	473	471	482	487	489	487	484	480	479	480	483	488	491	492	494	493	495	496	495	493	489	492	493	494	496	495	496	492	486	484	486	480	477	475	478	480	483	486	487	485	483	485	488	497	504	505	495	491	483	484	485	480	484	486	485	482	479	483	485	486	486	481	463	461	464	468	477	481	478	478	480	484	488	493	489	483	484	485	483	481	485	483	485	485	487	493	496	494	485	484	484	484	483	490	498	500	503	506	505	503	500	494	494	494	494	492	494	497	491	489	486	487	489	488	486	484	489	493	496	490	486	475	483	476	479	485	486	482	480	485	490	486	478	478	478	482	487	488	484	485	486	489	491	493	489	482	477	474	475	478	484	490	492	492	485	484	484	493	496	499	502	500	500	497	491	488	486	485	484	482	481	474	471	475	479	472	474	480	480	477	474	475	481	485	484	486	488	493	497	493	490	483	487	494	499	496	490	488	486	489	491	484	487	493	496	496	496	500	505	502	501	499	497	493	491	491	491	491	487	492	500	501	501	499	494	492	493	498	502	503	498	491	495	498	500	502	501	498	501	502	502	502	501	498	494	493	492	495	498	501	501	497	494	500	503	503	503	502	502	499	497	500	498	495	491	489	493	497	498	501	503	502	499	495	490	482	484	490	492	497	497	498	509	508	500	494	494	498	500	496	493	488	486	485	492	493	490	492	493	493	493	492	493	497	507	509	509	507	503	501	497	490	486	487	488	489	490	492	500	501	501	500	497	492	496	492	488	0	0	0	0	0	0	0	0
497	497	501	504	503	500	490	490	490	494	500	506	506	510	508	501	490	494	494	498	500	505	509	506	498	498	500	501	505	504	499	499	499	502	504	502	501	498	499	499	499	502	505	499	499	506	515	516	516	516	515	517	522	512	508	506	505	509	509	506	503	503	502	503	502	507	507	504	502	496	493	490	490	494	496	498	500	506	509	510	510	506	502	498	503	508	511	515	516	513	512	507	502	500	497	489	489	487	485	487	489	494	499	497	502	510	512	508	500	500	504	507	504	499	496	496	497	502	508	512	511	505	501	502	499	490	490	493	496	496	494	490	486	488	491	492	494	493	491	496	502	502	498	498	500	504	505	503	503	501	498	494	498	503	506	504	497	498	499	500	501	496	496	493	493	493	497	500	503	511	512	512	507	501	487	484	493	503	503	497	486	489	502	503	496	485	485	488	491	488	484	480	480	480	482	489	491	492	490	489	496	490	491	493	494	490	500	505	511	512	509	504	499	500	501	503	500	493	479	480	482	485	485	483	484	482	486	489	489	488	487	485	486	488	483	477	474	478	487	489	486	486	480	478	479	484	484	482	484	487	482	478	476	474	481	483	488	491	497	500	499	497	499	491	487	483	478	477	479	476	475	473	472	471	475	481	488	489	489	491	492	495	496	496	489	484	480	477	468	471	476	476	474	475	473	471	472	478	486	485	482	479	478	475	472	468	470	476	476	480	481	479	477	476	478	480	484	487	485	486	486	491	494	493	489	486	487	483	485	488	492	488	477	473	470	472	475	475	473	472	474	480	484	483	482	480	479	479	481	487	490	482	480	482	480	474	473	472	474	472	472	475	473	474	476	473	459	463	468	470	469	466	465	466	471	473	474	481	486	483	479	479	478	477	472	470	470	474	474	481	486	489	487	481	478	478	477	480	479	486	489	493	488	485	487	488	488	489	487	487	486	487	488	486	483	480	479	482	484	479	480	486	490	489	471	463	459	461	465	470	470	477	477	476	480	484	487	481	474	478	482	485	482	478	477	475	484	483	480	478	474	470	469	470	475	479	480	481	481	475	471	477	479	483	486	489	490	494	492	487	483	479	473	473	477	483	478	468	469	472	480	481	483	482	483	479	481	485	480	477	475	476	477	477	471	471	468	471	472	475	479	479	477	473	473	478	481	482	487	492	491	493	498	502	498	491	484	481	483	484	487	489	488	483	490	498	501	499	494	490	488	486	490	494	491	484	476	476	475	477	487	489	485	480	485	488	490	488	486	486	485	490	493	497	501	496	491	485	486	492	496	497	498	497	495	490	492	493	488	482	480	484	490	491	492	489	492	491	485	480	479	478	481	486	492	495	497	500	500	494	488	489	491	493	487	481	474	470	476	477	477	480	482	485	487	487	485	480	483	488	494	495	488	483	482	482	480	478	476	481	483	487	487	495	495	495	495	494	488	484	481	482	0	0	0	0	0	0	0	0
492	496	496	497	492	485	486	486	487	491	497	501	501	501	493	489	487	492	492	495	497	498	495	492	488	488	487	492	494	495	497	498	498	497	498	495	494	490	489	489	489	493	492	491	491	498	506	510	511	511	511	509	496	492	495	495	497	502	506	504	495	495	491	491	492	495	495	495	494	486	481	479	478	487	491	491	491	496	497	499	499	497	496	494	489	489	492	495	503	510	507	502	501	500	498	492	484	481	483	484	484	487	488	492	497	504	499	490	479	482	491	496	496	493	489	491	491	494	502	505	504	497	496	494	490	487	485	484	488	486	484	480	481	483	485	489	490	488	488	492	493	496	497	497	498	500	502	502	499	499	495	490	493	496	499	493	488	484	480	477	476	485	483	483	481	481	484	480	484	495	493	489	483	477	467	468	471	473	472	472	474	479	478	476	478	477	480	484	487	486	483	479	477	475	474	472	471	476	474	478	476	475	475	488	491	493	497	500	502	500	501	498	496	493	495	497	494	487	471	469	472	474	478	479	480	480	481	476	476	477	476	480	482	480	478	471	467	470	476	478	477	472	474	481	484	482	483	484	485	484	476	474	473	478	481	484	485	485	487	490	489	477	482	481	477	475	475	475	474	471	468	463	466	470	470	467	463	462	470	482	486	487	488	483	483	475	471	467	462	464	466	471	471	466	464	460	456	460	468	473	475	473	470	469	467	466	470	470	472	474	474	474	472	468	467	470	470	470	468	465	466	474	477	474	472	479	475	476	477	478	478	473	465	464	463	462	464	468	468	468	470	475	480	481	479	476	472	471	474	477	475	472	472	472	469	467	467	466	463	464	462	465	470	467	463	463	464	467	470	475	477	476	474	472	471	470	470	476	480	477	472	470	472	471	465	463	464	467	465	474	482	486	482	478	476	474	473	471	477	478	478	475	474	477	481	483	483	479	482	477	476	470	481	479	477	472	469	476	478	475	475	469	470	467	465	458	454	454	459	462	464	463	472	469	475	480	480	475	469	470	472	473	470	473	469	466	467	468	471	470	471	470	468	469	471	475	478	478	474	470	466	472	475	476	477	477	470	471	479	478	476	467	461	466	474	470	474	470	469	471	480	480	479	477	479	478	479	481	478	474	472	471	470	462	459	459	461	460	458	458	462	468	471	468	469	470	474	481	482	481	478	480	485	487	486	481	479	476	477	479	483	483	481	474	472	476	479	482	482	483	482	484	481	474	472	476	477	476	472	475	481	481	474	470	470	475	478	475	472	475	480	483	490	496	496	493	486	474	478	483	488	491	490	489	490	488	484	482	484	479	475	475	478	480	480	483	487	485	479	475	474	473	475	482	488	494	494	493	493	486	483	482	483	484	477	470	463	460	461	467	468	469	472	476	479	479	479	476	474	475	480	481	479	477	477	476	477	476	476	479	480	482	482	482	484	484	488	489	485	480	480	479	0	0	0	0	0	0	0	0
486	483	483	480	480	478	480	480	484	489	491	494	494	489	487	481	483	488	488	490	487	482	480	479	478	478	480	482	487	490	493	493	493	493	491	491	490	486	482	481	481	483	484	485	485	488	500	504	506	505	505	491	486	480	479	481	483	482	483	486	487	487	487	485	484	483	486	476	477	474	469	469	474	485	486	486	485	486	485	488	488	490	489	488	488	486	488	490	491	492	490	489	490	495	495	491	487	485	485	483	481	479	480	486	493	495	490	483	478	477	483	490	492	490	485	483	486	486	492	492	490	490	491	491	490	487	485	482	481	480	478	477	476	477	481	485	487	485	485	484	486	491	493	495	495	495	495	495	494	492	490	486	488	482	476	473	471	468	466	469	470	470	473	478	473	472	472	476	482	491	489	484	477	469	468	469	469	469	464	463	471	475	474	470	472	473	476	481	485	486	485	478	474	467	459	456	458	462	471	472	473	473	467	465	467	483	485	481	482	483	483	485	484	485	488	480	475	472	472	467	470	473	473	474	472	472	472	473	472	470	468	471	475	476	473	467	465	466	473	476	477	475	478	481	474	474	475	477	477	474	473	468	468	470	473	479	479	478	461	457	455	464	473	472	473	470	472	474	472	467	458	463	468	468	467	461	459	456	455	463	469	476	479	477	475	470	470	467	460	457	458	462	466	466	464	462	463	460	459	460	459	460	459	459	462	465	462	461	465	468	465	461	462	464	467	470	471	470	467	466	465	461	456	451	444	460	467	465	470	471	467	463	465	464	461	459	457	459	462	465	466	469	472	471	468	465	465	466	464	459	466	466	462	462	464	463	463	463	462	459	461	461	464	463	462	462	463	464	466	470	473	473	471	470	470	467	465	471	478	473	467	467	469	466	460	458	461	460	462	469	473	478	477	475	473	471	466	463	463	465	468	469	468	470	477	469	466	468	467	466	463	464	467	476	473	470	464	465	470	460	458	456	457	460	462	458	453	453	455	459	460	460	458	462	463	472	470	466	460	462	466	465	458	461	463	459	458	460	464	465	466	465	463	462	463	469	467	466	463	461	462	468	468	467	464	460	460	463	464	462	458	454	453	453	457	461	464	471	469	471	472	475	473	470	472	468	468	471	474	471	469	465	464	459	453	454	455	461	461	455	457	461	468	471	470	471	471	470	470	466	465	467	473	478	473	472	474	474	473	474	474	475	476	471	471	473	472	473	473	471	474	472	471	470	472	476	475	474	470	470	475	473	469	467	465	463	463	464	465	472	476	477	477	453	453	456	459	462	464	465	471	473	473	466	471	471	464	456	454	457	467	470	476	480	478	482	482	480	474	470	470	469	470	472	476	488	491	490	488	482	477	476	475	474	468	461	456	454	461	466	465	463	466	473	473	477	480	474	469	470	473	474	473	473	473	475	477	479	479	475	476	476	474	475	475	476	477	479	476	474	474	471	0	0	0	0	0	0	0	0
475	473	473	471	469	471	476	476	481	485	484	479	481	481	481	475	476	469	470	470	471	470	466	469	473	473	475	476	479	484	483	483	483	485	487	484	483	482	481	478	478	477	479	481	484	485	490	499	500	498	489	483	477	474	475	476	477	476	475	476	477	478	478	481	476	469	465	462	463	466	466	467	470	477	480	483	485	485	484	481	481	481	482	481	482	481	484	488	488	487	487	487	485	481	484	488	487	484	482	480	479	477	475	478	483	488	488	483	480	478	480	483	488	486	480	476	474	475	476	480	476	478	484	489	489	483	480	479	475	475	475	472	473	474	478	484	485	486	485	481	483	483	482	487	485	486	487	488	486	480	478	476	476	470	467	467	466	466	466	468	468	466	467	468	470	468	472	475	478	487	486	479	473	468	467	468	467	463	461	460	464	477	477	470	469	469	473	479	482	480	477	474	469	457	456	455	458	460	471	466	466	461	462	463	463	463	457	455	464	466	465	467	468	469	467	470	470	467	467	468	472	473	471	467	461	457	454	453	454	455	461	461	461	461	460	451	453	458	467	471	473	472	464	460	461	462	461	464	464	462	458	455	457	459	461	463	463	461	456	451	449	450	457	469	467	467	468	467	468	457	458	460	461	462	462	457	454	452	452	454	458	461	468	467	469	467	469	465	461	456	458	459	461	462	462	467	466	462	460	458	453	449	451	454	461	462	457	454	460	463	461	460	456	454	454	456	459	464	463	464	459	456	451	443	441	445	451	459	459	459	461	462	463	459	454	450	451	455	462	463	460	459	459	459	456	453	446	448	445	450	454	458	456	454	454	458	459	461	459	458	458	459	460	457	458	460	460	460	462	467	468	468	468	467	467	462	460	463	473	466	465	468	470	469	461	459	464	463	467	472	473	471	471	469	468	466	457	454	457	461	465	463	462	459	457	455	457	456	458	460	460	460	462	469	471	466	462	455	455	451	450	449	450	449	450	454	452	451	452	456	457	458	455	452	454	459	461	457	455	454	455	456	456	458	458	454	453	453	456	458	459	459	457	452	452	459	460	458	457	457	456	456	460	455	452	451	458	464	467	464	458	449	448	450	452	456	458	464	471	471	467	466	462	462	463	462	462	462	468	467	465	464	456	451	445	446	451	458	459	457	455	455	460	469	471	470	468	465	462	456	455	458	460	460	459	464	468	469	466	465	467	467	465	466	470	471	470	468	466	458	459	461	464	466	474	476	472	469	465	468	470	468	453	457	456	456	452	447	448	459	463	462	451	446	447	452	458	460	458	462	463	463	456	459	465	463	453	447	449	455	458	460	459	461	461	461	463	464	464	466	466	466	466	464	464	465	468	472	478	479	474	472	469	467	461	456	452	455	465	466	463	461	464	470	470	477	478	473	466	465	466	466	468	470	472	472	475	476	477	477	472	471	464	463	463	467	469	469	467	466	463	463	0	0	0	0	0	0	0	0
470	467	467	463	462	465	469	469	474	475	473	475	478	478	477	465	461	462	464	464	463	460	459	463	465	465	465	461	463	471	475	474	476	476	476	478	476	477	478	476	474	474	473	473	475	476	476	485	490	489	479	475	470	470	470	471	471	472	473	473	473	473	473	473	472	467	460	458	458	459	460	461	463	467	472	477	478	477	477	478	476	476	476	475	475	474	474	478	481	481	479	479	477	474	473	479	480	478	475	473	474	476	474	474	478	483	486	485	481	477	469	470	471	473	470	467	468	470	470	471	466	470	478	485	483	478	476	473	467	463	463	466	470	473	477	477	478	478	475	475	471	472	472	475	475	475	478	479	477	463	461	461	462	463	465	464	464	464	466	468	467	465	465	466	467	466	463	460	459	458	467	466	464	462	461	465	465	459	454	450	449	454	459	459	459	460	466	464	461	453	451	451	453	452	455	452	463	465	462	461	461	456	456	458	460	456	454	452	450	450	454	457	458	457	459	468	466	463	461	458	456	453	448	448	449	451	451	449	450	452	455	457	456	455	446	447	451	455	458	461	458	457	455	455	454	455	456	457	457	458	456	455	455	455	457	456	456	455	451	446	445	445	449	457	460	461	455	447	445	444	447	452	455	453	454	453	450	450	448	450	454	451	452	458	458	462	465	465	461	455	448	451	454	459	463	469	469	465	459	452	446	445	444	441	445	449	452	457	460	460	459	455	454	450	447	448	450	451	456	457	455	451	447	440	439	441	445	450	450	451	455	455	457	452	451	449	450	451	454	457	455	451	450	448	452	454	451	445	441	445	446	446	449	451	453	453	453	454	454	455	453	453	453	454	454	457	459	457	453	452	456	460	460	463	464	456	452	453	456	457	456	463	469	468	466	465	465	464	465	463	463	457	453	455	461	459	451	450	455	458	460	460	456	451	450	450	450	448	449	450	451	453	459	462	459	448	447	448	450	450	447	446	441	444	447	446	447	447	448	454	456	455	444	443	444	447	455	455	451	448	446	447	446	445	440	436	436	440	441	442	444	444	442	439	441	445	449	449	451	451	452	448	443	438	438	445	458	462	456	454	449	447	449	450	451	452	452	452	455	454	454	456	455	456	458	457	456	451	450	454	459	460	454	450	441	438	441	445	450	452	450	450	453	456	459	466	465	454	449	445	447	448	450	451	452	455	459	460	457	456	456	451	451	457	462	465	462	455	454	453	454	455	459	464	462	464	451	448	443	442	445	445	446	445	443	446	444	444	446	447	447	447	442	443	445	451	453	456	455	459	457	450	451	455	460	457	444	441	445	448	451	456	457	456	453	454	456	456	453	454	454	456	458	456	455	458	462	464	467	467	470	467	465	458	454	451	451	459	461	461	460	460	462	462	466	470	472	468	461	457	454	459	462	465	462	455	453	452	453	459	461	456	450	454	454	461	463	461	458	453	453	458	0	0	0	0	0	0	0	0
466	461	461	456	456	460	466	468	468	467	471	474	475	475	471	454	456	457	461	461	458	456	464	464	464	459	459	459	462	468	469	467	466	466	468	470	472	474	474	473	470	470	469	467	466	469	472	477	478	471	467	467	466	464	466	467	468	467	471	469	469	468	466	466	463	459	453	452	456	459	457	458	459	461	463	465	471	473	476	475	472	471	471	469	469	460	462	466	468	468	469	465	468	468	468	469	468	469	468	464	460	465	469	473	478	481	481	480	477	473	473	476	474	469	465	466	466	464	462	461	464	468	471	474	474	470	464	464	457	457	458	464	467	471	471	468	470	472	474	475	471	465	466	465	465	468	471	470	466	460	458	458	461	460	462	463	463	463	464	465	465	464	465	463	462	457	452	450	450	448	445	447	452	456	458	457	458	452	450	448	448	454	460	460	458	457	464	454	452	450	449	448	447	446	452	461	460	459	458	455	457	455	453	455	455	453	450	447	446	445	447	448	454	450	454	464	461	458	457	458	453	449	447	446	448	446	449	449	447	451	452	452	448	445	437	447	450	451	453	453	455	454	452	451	452	451	452	451	448	446	449	450	452	455	454	453	451	449	438	435	436	443	445	452	454	454	449	445	443	446	442	442	442	442	438	438	443	449	449	447	451	448	445	443	449	454	460	461	459	453	445	446	451	458	464	470	470	466	456	442	440	443	445	442	441	445	453	455	458	456	454	451	451	448	441	440	441	444	447	452	451	448	442	438	439	441	441	441	441	440	443	444	444	446	447	447	446	445	447	452	454	451	448	447	449	452	455	457	455	450	443	441	441	446	447	445	444	441	441	447	449	448	449	450	450	454	456	456	453	452	452	454	456	458	463	452	447	445	443	442	445	453	453	451	448	448	451	451	454	453	453	447	442	438	450	454	449	450	456	459	455	452	447	445	444	442	444	443	442	444	447	446	447	440	439	441	443	444	446	446	444	441	435	431	434	439	439	438	445	450	449	443	436	432	438	438	441	445	445	444	441	439	439	439	437	436	437	441	444	437	436	437	436	436	434	434	436	442	443	444	440	435	432	435	440	448	444	443	442	440	437	438	440	443	450	453	445	443	445	446	452	453	451	452	452	451	447	441	434	432	444	455	450	445	441	435	436	438	440	442	442	445	450	453	458	456	445	442	441	438	439	443	444	445	445	440	440	444	449	449	447	443	441	446	450	455	452	446	441	441	430	436	440	440	442	443	442	442	440	439	439	439	438	437	434	434	437	438	441	441	442	439	438	439	442	446	448	451	451	450	447	446	450	453	459	448	439	438	440	441	442	450	454	452	450	449	446	444	443	447	450	451	453	453	450	448	451	453	453	459	460	460	458	451	446	446	449	453	455	455	457	457	456	456	456	459	462	461	457	451	454	455	456	453	449	449	449	447	445	447	449	448	446	446	449	460	457	454	448	449	452	450	0	0	0	0	0	0	0	0
461	456	453	453	453	459	464	466	466	468	469	470	467	467	458	451	453	454	455	455	457	457	458	458	458	450	450	451	456	459	461	459	458	458	463	462	464	468	469	466	464	464	462	460	461	464	468	470	461	462	461	461	462	460	460	462	464	463	461	462	458	459	455	455	454	450	449	452	452	455	457	459	461	461	463	464	466	468	467	471	470	467	467	461	455	456	456	459	460	459	454	452	455	457	459	460	459	462	460	454	450	450	455	459	466	470	474	473	469	469	470	471	466	463	451	450	451	451	452	454	454	452	450	445	442	438	439	447	452	455	460	458	457	450	449	452	456	460	469	469	468	463	455	452	451	455	461	466	464	461	458	456	457	456	452	448	449	450	454	454	454	456	456	452	450	452	446	443	438	445	447	443	448	452	452	452	452	450	450	451	452	453	455	453	451	451	454	457	453	451	450	445	441	441	442	447	456	454	452	450	447	450	449	451	451	447	441	437	438	439	439	438	438	438	438	452	456	454	454	454	450	448	446	446	446	446	446	446	446	446	446	443	440	434	434	443	446	447	448	447	450	450	449	450	448	448	448	445	444	441	438	441	445	450	448	444	442	440	436	432	430	434	435	439	447	447	445	440	436	431	439	439	439	438	433	434	440	448	447	442	439	434	432	433	434	435	437	438	438	436	434	434	437	441	445	447	448	446	440	440	439	440	444	441	440	445	447	450	453	450	449	448	449	447	440	437	436	438	443	447	450	447	441	443	444	444	444	441	434	433	431	431	437	437	439	446	446	445	447	448	449	448	447	446	444	441	438	443	451	451	443	438	436	437	438	437	437	437	438	440	445	446	446	446	446	448	454	455	455	453	450	449	450	454	454	445	443	439	436	436	438	445	450	449	445	444	442	440	441	440	441	434	430	436	441	447	446	447	452	454	445	442	441	440	439	436	435	434	437	438	436	436	434	434	436	439	442	441	441	441	439	431	428	426	430	433	433	436	437	440	439	428	430	431	432	435	436	437	440	437	437	436	437	437	439	438	437	439	439	437	439	437	435	431	430	430	433	435	433	438	427	424	426	429	431	431	436	435	437	435	431	429	434	438	438	438	436	434	435	439	443	447	446	447	446	440	438	434	432	430	428	436	429	431	434	435	430	433	436	434	436	441	443	448	451	449	444	441	432	428	430	437	442	438	434	430	429	434	439	439	440	440	435	434	434	429	429	436	432	429	429	433	438	437	436	436	433	432	431	436	436	436	433	431	432	435	436	436	436	438	437	433	433	433	433	433	435	438	445	445	444	445	442	444	455	444	436	433	429	428	430	433	433	438	448	447	441	440	439	440	442	446	445	444	439	440	443	446	446	450	450	445	441	442	443	442	441	443	445	446	446	446	446	451	451	450	452	455	454	452	451	453	450	447	444	445	446	442	438	440	444	446	443	443	446	449	451	445	449	450	450	448	0	0	0	0	0	0	0	0
458	452	451	451	454	456	462	464	464	464	464	460	456	456	451	447	449	449	449	449	448	453	453	452	448	442	442	443	451	455	456	455	455	455	454	455	456	459	459	459	456	456	455	452	452	457	460	461	454	452	454	454	456	456	455	455	454	455	454	451	452	453	453	453	451	449	449	452	453	453	454	455	459	462	464	462	459	460	461	465	466	469	469	464	458	455	452	453	455	454	450	446	451	453	452	451	452	454	453	448	447	446	448	450	451	454	464	456	457	455	456	453	450	448	447	446	446	448	447	446	444	444	444	442	441	443	447	452	447	450	451	456	449	444	440	440	442	449	454	458	456	455	454	451	453	456	460	463	462	461	459	454	450	438	437	437	438	438	448	450	449	446	443	439	439	441	439	437	433	447	441	440	443	446	449	449	449	447	444	446	447	446	450	446	445	444	443	445	447	451	447	440	434	435	434	434	444	445	445	442	441	440	443	443	445	440	432	430	431	431	433	434	435	435	438	437	435	446	446	445	441	444	444	445	445	442	440	437	437	440	439	437	433	432	436	440	442	443	439	437	439	440	438	438	446	445	445	443	440	437	435	435	438	440	443	440	438	438	435	433	428	425	419	421	441	441	438	435	430	429	428	429	431	428	430	430	436	440	438	437	433	430	429	421	427	429	427	426	426	424	425	427	430	435	439	441	439	439	437	437	437	437	436	437	437	437	439	441	446	446	446	446	447	441	437	434	433	433	434	432	434	439	441	441	441	433	432	429	428	422	427	426	426	431	434	437	431	429	431	428	426	423	436	434	432	432	430	434	439	442	442	438	437	437	434	434	436	440	439	436	437	435	437	441	443	443	444	444	450	446	439	436	439	438	440	436	434	433	433	434	433	436	443	444	441	433	431	430	429	430	429	429	432	438	439	441	439	439	439	439	435	434	435	435	435	433	432	430	422	422	430	432	432	423	430	433	440	439	437	433	430	429	428	426	425	425	427	429	426	424	424	425	427	428	431	432	431	430	434	431	434	432	430	433	434	435	435	434	435	436	437	436	434	426	423	423	425	428	426	421	421	423	427	427	421	417	422	427	428	430	428	428	427	429	431	430	429	428	431	429	429	433	434	433	427	426	427	433	427	423	422	422	425	427	427	428	424	427	428	431	433	438	435	435	433	431	433	431	427	430	429	432	437	435	428	424	422	427	432	434	435	424	424	423	424	424	425	425	427	427	430	434	436	435	432	431	430	429	427	432	432	431	429	427	428	431	432	431	431	430	425	424	425	422	422	422	419	422	427	442	443	441	439	432	429	431	428	426	425	428	430	428	427	426	428	432	435	437	436	434	435	436	439	431	429	429	431	431	428	428	426	424	427	430	434	437	436	432	430	432	434	441	441	445	446	446	446	448	447	447	449	450	450	445	442	440	440	431	430	434	441	443	443	443	439	444	445	448	449	448	443	443	0	0	0	0	0	0	0	0
454	452	451	451	452	454	457	457	457	455	453	451	448	446	446	447	444	438	439	440	440	445	447	440	439	438	438	440	445	448	447	449	449	449	449	446	448	451	451	451	449	447	447	445	444	445	449	447	450	450	450	450	451	451	448	448	449	449	449	447	449	450	451	451	451	448	449	450	451	451	452	452	451	448	448	448	447	445	448	451	453	454	456	456	454	450	447	446	447	449	446	445	445	449	448	446	449	450	449	446	444	441	435	432	433	435	439	442	447	453	456	455	448	443	441	442	442	442	441	438	436	435	437	439	437	428	424	429	439	440	441	441	436	435	436	438	438	442	454	458	457	452	452	450	449	451	451	451	451	454	451	446	432	435	432	434	434	434	434	443	441	436	432	426	427	429	435	433	433	428	424	424	429	435	442	446	445	443	440	436	438	442	446	438	438	437	434	436	437	435	430	426	427	429	428	427	425	425	426	430	432	434	430	428	433	433	426	424	421	421	425	430	433	432	430	425	424	426	425	435	433	437	440	441	440	438	435	432	428	427	434	433	431	435	435	437	436	436	431	432	423	424	424	426	436	441	441	439	438	437	434	427	427	426	430	431	430	431	434	431	423	415	416	413	417	432	430	428	425	426	428	429	429	427	426	428	431	434	433	430	427	424	418	423	425	427	424	421	420	420	422	425	427	431	432	433	432	431	432	430	430	432	431	431	429	431	431	434	442	444	444	441	439	436	425	421	427	427	426	424	428	429	428	427	428	430	431	427	428	427	429	429	428	426	426	422	422	424	422	421	423	422	420	420	423	427	431	431	431	429	429	429	431	433	431	430	431	434	437	438	435	434	435	435	435	435	437	438	433	429	424	424	425	427	428	429	429	425	425	425	426	430	430	433	432	432	433	429	430	429	434	436	436	432	430	428	426	428	432	432	430	430	429	431	430	430	423	424	424	422	421	421	423	415	418	428	430	430	424	429	430	429	423	424	422	422	418	421	421	418	418	417	422	427	431	431	428	429	429	428	429	426	427	429	431	431	429	429	430	431	435	434	430	424	415	416	420	423	423	421	418	419	418	415	412	410	410	409	411	417	423	425	426	425	425	426	427	426	424	424	424	423	421	417	415	413	414	418	418	414	414	418	422	422	422	421	421	420	423	428	435	435	432	430	428	426	420	421	426	428	427	426	426	429	425	419	418	416	415	414	413	417	418	417	418	419	420	421	418	421	425	429	432	431	426	425	425	424	424	425	427	427	423	423	422	423	425	422	420	421	421	420	420	415	415	415	416	419	420	424	439	435	422	413	413	423	424	423	424	426	428	425	421	414	410	411	417	432	432	430	430	429	424	423	420	419	420	424	428	422	420	422	423	428	427	426	423	420	427	426	430	430	434	439	435	439	440	441	442	445	445	447	447	444	440	437	432	426	426	427	429	440	440	441	438	436	440	443	445	435	434	438	0	0	0	0	0	0	0	0
447	450	450	450	450	449	449	447	447	445	446	446	446	446	446	447	440	434	432	435	435	439	435	435	433	432	432	435	437	436	440	443	442	440	440	438	439	442	443	444	444	442	442	439	438	437	445	443	448	450	450	446	446	444	443	443	445	445	446	444	445	446	446	444	444	445	447	448	449	448	449	448	446	445	445	442	442	439	436	435	437	443	447	447	447	445	441	439	440	442	442	442	443	444	444	444	447	448	445	441	437	432	429	429	430	431	424	426	432	436	447	450	445	438	436	435	434	433	431	431	428	428	432	436	429	423	419	422	434	436	435	434	434	435	435	433	432	435	439	444	445	446	443	440	440	442	441	431	430	430	436	432	421	416	418	421	423	425	428	425	426	425	426	428	427	425	430	432	430	428	426	423	424	431	436	433	433	430	426	424	422	424	427	431	430	428	427	426	423	417	416	421	422	423	424	420	421	419	422	420	419	419	415	412	422	427	426	423	419	417	420	426	429	424	422	421	421	419	408	410	417	435	436	438	438	437	435	431	426	420	421	427	431	428	423	421	424	426	433	427	422	421	421	422	423	425	429	430	429	432	426	418	422	424	425	427	429	424	426	419	414	413	411	412	413	431	429	427	424	425	425	421	421	424	425	421	421	427	427	426	422	419	418	420	423	424	417	416	416	416	421	424	426	426	428	428	427	426	427	425	424	425	426	425	421	419	421	433	439	437	431	422	421	421	423	422	422	423	424	424	423	423	422	422	424	428	428	424	425	427	429	428	426	420	417	417	416	416	418	417	419	420	420	422	424	425	424	427	428	426	421	421	425	428	427	427	428	427	426	433	429	428	428	426	425	423	422	422	422	417	416	418	423	424	427	430	433	430	419	419	418	421	427	428	427	428	430	425	427	428	428	431	431	417	413	413	422	426	431	434	428	426	424	421	422	424	426	425	417	418	418	410	411	414	417	424	422	413	417	419	417	419	420	419	419	420	421	420	418	416	414	413	413	417	427	427	423	421	420	423	421	418	421	426	426	425	425	425	423	423	423	428	424	418	411	413	420	421	415	413	415	416	415	415	412	412	411	410	410	410	410	409	410	409	409	410	419	419	419	421	424	423	417	414	409	410	409	408	407	406	408	417	419	419	418	418	418	412	418	422	431	430	428	426	425	422	415	417	420	421	422	421	421	416	418	417	415	411	407	407	409	414	414	413	412	414	416	418	416	417	419	422	422	421	419	417	419	421	421	423	421	419	416	416	417	416	414	412	414	418	417	416	413	409	410	412	411	412	415	412	409	406	407	409	411	417	416	418	419	416	421	424	423	420	418	417	420	426	428	426	422	420	415	413	413	413	416	422	427	420	419	420	421	424	422	418	416	419	419	419	425	425	428	426	428	431	431	436	437	439	435	434	438	435	434	429	426	428	423	422	425	431	431	437	439	438	435	430	422	415	429	430	0	0	0	0	0	0	0	0
440	443	444	444	444	441	438	438	439	439	440	442	444	444	444	441	438	432	430	429	429	430	430	431	431	432	430	430	430	430	430	436	436	432	432	432	433	435	437	434	433	435	435	434	432	432	433	436	441	439	440	437	437	437	439	439	439	441	442	442	441	440	440	441	441	442	444	446	446	444	440	439	441	441	442	440	442	438	435	434	435	437	440	442	442	440	436	434	435	436	438	440	442	442	441	438	440	441	441	436	433	432	431	426	423	417	417	420	425	430	434	438	435	429	426	422	421	423	426	426	423	425	426	426	425	420	413	415	426	429	428	431	430	430	425	425	423	420	417	413	417	422	427	433	435	436	430	430	428	425	423	421	420	412	412	414	419	424	423	420	423	430	433	432	432	428	425	424	424	422	420	419	419	418	423	426	426	422	413	406	416	421	420	418	420	423	423	423	416	409	409	420	421	423	421	419	418	417	417	417	417	415	412	410	417	424	430	429	425	421	419	414	415	416	417	418	418	411	412	413	415	419	419	419	436	437	435	432	426	418	416	418	423	422	421	419	423	426	423	422	419	416	413	413	414	422	422	424	425	421	417	417	421	421	421	420	419	421	425	422	413	409	408	409	411	415	426	419	418	418	414	404	402	408	411	415	415	417	417	415	417	416	413	417	420	420	412	410	413	417	419	424	425	424	426	421	418	418	420	416	417	419	421	424	419	413	412	415	420	423	422	418	414	418	419	421	423	426	425	422	420	417	416	416	416	415	417	420	423	425	428	426	423	416	414	413	409	406	411	410	417	419	419	421	419	418	420	421	423	423	421	420	422	421	416	414	414	416	416	420	418	422	416	416	420	423	422	421	420	422	424	422	422	422	422	427	431	420	415	412	411	415	419	424	425	425	426	425	427	427	424	421	412	408	410	411	413	418	419	419	417	417	418	418	418	421	422	411	412	415	413	413	410	412	415	414	412	410	410	411	414	412	410	414	415	418	417	417	416	414	413	413	410	410	415	421	418	415	411	410	411	410	411	415	418	418	418	416	415	415	416	415	413	409	408	415	418	418	412	410	413	415	415	413	411	410	412	410	408	406	406	404	403	404	402	403	407	414	414	417	420	412	406	409	409	408	406	406	405	404	405	409	412	409	407	407	411	409	401	400	410	410	410	419	416	412	411	411	414	409	404	405	411	413	417	408	402	399	399	402	405	405	408	408	410	413	416	413	413	414	416	418	419	419	416	414	413	415	416	420	417	413	405	398	397	396	398	405	412	414	412	411	410	406	410	412	408	408	408	406	405	403	404	407	409	412	412	403	400	405	413	418	421	419	413	412	415	420	422	422	419	415	412	408	407	411	414	416	415	415	416	416	417	419	420	415	415	414	413	416	416	414	416	416	419	420	420	422	426	425	420	421	422	423	426	424	425	425	420	418	423	427	427	431	436	435	426	422	420	416	411	410	0	0	0	0	0	0	0	0
435	434	433	432	432	430	430	431	435	435	439	437	438	441	441	441	433	427	426	425	425	426	428	432	434	431	427	427	423	424	422	422	425	425	425	425	427	429	429	430	429	428	428	425	424	427	424	428	427	428	427	428	428	432	435	436	433	432	430	428	429	434	434	436	433	433	430	428	429	429	432	431	434	436	436	434	432	435	431	431	431	431	434	436	436	437	435	433	432	430	433	437	438	430	430	432	432	429	427	431	429	427	424	420	419	417	416	417	419	424	428	428	425	421	419	420	421	422	424	428	426	422	421	421	419	416	412	412	415	422	423	425	426	424	419	419	416	412	413	413	415	415	418	423	423	419	415	424	424	421	419	417	418	411	408	408	417	424	424	421	425	429	431	429	426	415	419	410	413	412	412	412	413	415	417	416	415	412	407	415	402	415	416	415	402	411	416	420	417	412	410	413	420	419	419	416	413	411	413	415	415	408	405	408	415	422	428	428	425	418	413	411	413	416	420	416	416	416	416	416	415	413	411	410	415	417	431	425	420	416	415	415	420	420	420	418	419	420	417	418	417	410	412	414	418	418	419	422	420	417	415	418	418	419	417	415	415	420	422	418	412	409	406	407	408	410	414	409	407	408	403	400	401	404	405	406	409	410	411	410	408	407	410	413	416	419	417	415	417	418	418	416	415	421	415	414	412	416	416	417	419	418	415	411	414	411	409	408	411	411	415	414	413	414	415	416	418	417	417	417	414	412	411	411	411	411	413	417	417	414	413	411	416	412	409	408	406	404	404	406	411	412	413	410	411	414	416	416	416	416	418	420	422	420	416	413	413	413	415	415	414	417	417	416	417	419	419	416	414	415	420	423	423	420	415	417	412	411	410	410	405	409	409	415	420	425	423	424	423	416	413	409	411	411	412	415	415	417	411	412	410	410	407	406	404	407	408	408	409	410	407	408	410	414	411	406	403	408	409	410	408	408	409	410	410	413	414	412	410	412	411	410	408	408	409	412	408	407	407	408	410	409	408	408	408	408	406	406	406	407	407	408	409	403	405	402	403	408	405	405	407	414	415	412	410	407	405	406	406	404	401	399	399	403	398	398	400	404	411	413	406	396	394	399	404	403	404	403	402	401	406	409	409	406	401	401	404	402	399	396	396	396	398	405	406	404	404	400	400	401	399	398	398	393	392	396	398	397	398	397	393	401	403	406	409	410	410	408	407	409	413	416	415	409	408	407	407	407	409	410	404	402	398	399	402	401	406	409	412	411	411	409	409	406	409	410	407	405	405	404	404	404	405	405	408	408	411	407	402	404	406	411	414	408	407	406	407	407	412	412	405	411	409	406	405	410	411	412	411	410	410	410	411	408	406	405	406	409	408	408	408	408	407	407	414	414	409	409	411	415	420	420	417	418	417	421	420	421	419	416	419	419	425	428	425	422	420	415	416	416	410	408	0	0	0	0	0	0	0	0
430	429	424	422	422	424	424	427	431	431	434	432	427	430	435	435	425	422	421	422	421	421	424	428	430	428	422	422	422	421	419	419	421	425	425	429	429	429	429	429	428	425	421	421	420	414	416	418	420	421	421	424	424	429	429	426	422	424	422	422	423	421	419	422	425	425	424	419	418	421	423	427	427	424	426	431	428	429	428	426	425	424	426	429	431	431	428	426	427	426	423	423	422	423	425	417	411	410	407	411	413	414	414	415	414	414	412	412	411	417	422	421	418	417	417	419	419	419	420	421	422	418	417	416	414	414	410	410	409	414	420	419	420	419	416	414	411	412	414	413	411	411	412	413	413	410	411	415	420	418	414	414	414	410	408	407	408	410	411	416	409	410	415	421	413	403	398	399	399	398	407	409	405	402	407	407	409	411	408	400	405	395	400	396	409	398	406	413	416	414	410	414	418	418	416	413	409	407	409	409	409	402	402	407	410	417	415	411	410	407	406	404	401	406	410	415	419	417	416	414	415	413	408	401	398	398	407	408	419	415	412	412	414	414	414	414	415	416	414	416	415	413	409	412	414	417	416	413	413	412	415	416	418	416	413	409	411	416	416	415	410	404	404	408	406	407	402	404	405	399	398	398	405	410	410	403	404	401	400	404	407	408	401	401	401	410	411	414	416	418	418	415	411	409	406	410	417	420	412	411	410	408	404	405	405	405	403	405	408	410	411	410	411	408	408	408	410	411	402	404	405	409	410	414	415	413	406	408	407	410	410	409	406	408	405	403	404	403	405	405	407	404	403	406	408	410	413	413	412	412	411	411	414	418	415	411	410	407	410	411	407	412	415	414	415	416	415	411	409	409	412	418	421	418	413	407	406	406	407	408	404	403	409	407	408	413	412	411	410	409	407	410	412	412	412	409	409	406	408	406	406	405	403	400	397	401	406	407	406	405	404	408	409	405	401	397	394	397	402	404	406	407	404	406	408	410	410	409	406	403	401	407	407	407	407	407	404	402	404	404	403	405	406	407	408	407	404	403	402	402	403	393	394	393	392	393	395	393	400	400	400	403	409	409	399	400	400	405	406	402	398	396	395	395	392	393	396	400	406	405	394	393	394	394	394	395	395	398	399	399	402	406	406	401	396	394	400	399	397	393	393	393	394	391	392	393	395	394	397	397	396	395	394	390	390	391	397	396	395	392	388	385	396	400	403	404	401	400	401	404	409	410	406	402	401	396	400	400	399	397	397	396	392	391	396	395	397	399	403	406	409	409	409	408	408	407	403	404	410	408	406	404	405	407	408	407	410	408	404	403	404	404	397	394	398	398	396	399	401	395	395	394	400	406	406	407	408	409	408	405	402	404	406	404	401	401	402	403	405	405	404	405	402	402	406	408	411	409	406	411	412	416	418	416	413	413	411	412	413	410	410	410	409	408	410	415	409	410	411	408	408	407	0	0	0	0	0	0	0	0
423	420	417	418	418	418	419	416	422	422	418	417	418	422	425	425	417	417	416	418	417	417	420	423	422	421	421	421	420	420	417	417	423	429	430	430	430	429	428	427	425	418	414	414	412	408	411	414	417	420	422	423	417	417	418	419	419	419	420	420	422	421	418	416	414	414	410	410	414	416	419	422	423	423	424	425	418	420	419	419	417	416	417	419	421	421	421	423	416	415	418	416	417	416	413	406	404	404	404	405	403	408	409	409	408	407	407	407	407	411	411	413	414	414	412	409	411	410	409	407	405	409	411	410	409	407	405	406	403	406	412	414	414	413	413	413	412	415	412	406	403	404	407	409	409	405	408	408	412	410	405	404	410	408	407	406	404	400	398	402	403	397	399	402	399	396	398	398	399	397	395	403	403	399	397	399	404	405	408	400	399	391	398	395	397	395	401	406	411	411	409	408	407	406	404	405	402	401	401	400	400	401	401	402	405	406	405	401	406	402	398	394	398	402	405	407	408	408	408	409	410	410	407	400	398	404	407	397	398	400	405	403	405	407	408	405	408	412	415	416	415	411	405	405	409	411	409	408	406	404	410	411	408	408	404	405	407	412	412	409	404	401	398	394	396	393	395	398	398	395	394	396	403	409	408	402	398	399	399	396	392	392	391	390	392	394	395	393	407	413	416	414	402	399	398	402	403	405	410	407	405	402	398	401	403	403	406	406	406	408	409	409	405	402	400	397	397	397	401	402	403	405	406	406	407	408	406	403	403	405	407	406	403	401	403	403	402	405	407	405	401	400	401	403	405	406	406	407	409	411	411	413	412	412	408	408	408	405	404	404	401	405	409	410	410	410	409	405	404	404	405	406	401	398	406	406	406	400	401	401	404	403	403	404	405	406	411	409	407	405	406	409	404	401	403	403	402	401	399	403	403	402	398	395	391	390	397	405	404	402	401	405	408	403	398	395	390	391	393	392	391	392	396	400	403	404	403	400	395	390	390	390	401	405	405	394	392	396	396	393	383	384	388	391	404	403	400	393	397	385	383	383	387	386	387	388	389	382	380	382	386	392	395	394	391	393	396	398	402	396	395	395	394	393	385	387	390	391	393	394	391	390	390	389	390	391	395	398	398	395	399	402	401	397	393	389	388	393	392	391	387	386	391	388	386	386	387	390	391	394	394	393	390	389	389	390	393	396	395	390	385	383	391	395	396	390	390	391	393	396	394	396	396	394	392	387	388	391	395	396	391	388	387	387	387	390	391	394	398	392	394	392	389	388	389	394	390	394	396	404	404	405	407	407	407	407	405	403	401	400	397	392	389	390	389	390	388	388	390	390	388	385	390	392	397	404	405	404	400	395	395	398	400	399	397	397	398	399	399	400	400	398	395	396	401	404	406	403	404	405	406	404	404	408	406	404	405	404	406	400	399	399	402	403	404	402	396	402	406	405	408	406	0	0	0	0	0	0	0	0
417	418	415	417	417	411	408	410	413	413	416	418	419	420	420	420	412	412	413	417	413	413	415	413	413	415	419	418	418	419	418	419	419	421	424	424	429	426	425	422	416	415	411	411	410	410	411	413	414	415	415	410	409	409	413	415	417	417	418	418	420	421	420	415	412	409	409	408	407	405	407	410	415	421	419	417	417	417	416	414	411	408	406	412	411	414	405	407	409	413	411	408	407	406	404	401	399	400	400	400	402	403	405	406	404	401	398	398	401	408	408	410	410	405	403	402	405	403	403	402	399	400	400	404	402	399	402	404	401	403	407	408	409	408	409	411	413	413	409	403	401	399	403	405	403	404	406	406	405	401	399	401	402	404	401	400	401	398	396	400	401	397	395	396	398	395	399	401	400	397	394	397	402	400	401	402	400	403	393	393	401	393	392	390	392	392	393	391	397	406	407	405	404	402	402	403	403	397	395	395	398	399	400	398	398	401	400	398	399	398	392	390	393	398	402	402	403	406	407	407	410	411	409	401	402	404	397	394	393	394	397	400	403	404	405	403	406	406	403	401	410	408	402	400	402	399	398	394	394	392	397	401	404	408	407	404	402	401	406	405	401	391	392	392	389	389	387	391	395	393	390	386	390	393	399	398	394	394	396	393	388	386	387	385	386	388	385	383	388	391	391	405	403	393	390	393	394	395	400	400	399	393	396	399	400	401	401	404	403	402	406	406	402	404	402	396	395	396	400	402	402	401	396	392	393	393	394	396	398	398	400	400	398	395	395	398	401	402	402	401	399	399	399	401	403	403	402	398	398	399	407	410	410	406	404	405	401	397	392	392	393	394	402	403	401	399	399	400	397	395	395	397	395	395	395	408	406	399	391	386	384	395	398	400	401	404	406	404	404	397	397	396	393	392	396	399	396	396	392	391	400	399	396	391	387	385	386	388	401	400	398	394	395	397	394	389	387	389	387	386	385	389	393	395	401	399	397	395	392	388	387	387	388	389	386	380	386	388	387	379	379	381	385	390	390	396	390	383	377	375	376	381	383	383	384	385	382	381	381	382	384	384	386	385	386	387	390	391	394	386	387	388	392	384	381	381	382	385	387	388	388	386	385	382	383	384	389	394	393	392	395	397	397	391	387	387	387	383	384	385	386	384	382	377	379	379	375	377	384	387	390	390	390	387	387	388	391	392	393	386	381	382	386	390	391	388	384	386	389	390	388	388	386	385	385	383	384	386	391	394	390	384	383	381	384	381	383	383	387	384	383	383	387	385	384	380	382	387	387	390	389	391	392	389	390	394	396	398	396	394	392	389	385	385	385	387	386	385	385	384	381	379	378	385	391	393	396	393	391	390	390	389	388	392	390	392	396	396	396	396	392	391	387	385	388	389	392	395	391	399	396	395	396	396	394	394	394	396	396	398	398	399	398	397	396	392	390	390	391	401	403	392	0	0	0	0	0	0	0	0
415	417	416	414	414	410	408	408	412	419	419	422	423	418	412	412	409	412	411	415	413	413	410	407	411	412	416	418	418	414	416	416	416	417	418	418	419	423	419	413	410	409	410	410	409	408	409	410	409	408	407	404	405	405	409	412	415	413	416	414	419	422	416	415	415	412	412	406	399	394	395	399	407	411	411	412	417	417	414	407	401	397	399	402	399	400	400	403	407	405	401	398	400	400	399	397	395	395	397	398	400	399	403	402	400	391	388	388	390	395	399	399	395	398	395	396	398	399	398	396	395	396	397	392	387	382	388	393	402	401	402	402	402	404	407	409	410	409	407	404	402	401	398	397	399	399	401	398	396	395	395	397	398	403	402	401	399	396	394	394	394	392	390	392	390	392	395	398	399	395	393	395	399	400	402	398	390	386	386	387	387	397	393	390	390	389	386	385	386	391	401	402	401	399	401	404	402	397	390	385	386	390	393	394	396	397	396	380	382	388	389	388	392	394	396	399	399	402	401	400	398	399	400	407	402	399	395	391	387	389	390	393	396	399	400	406	406	406	400	397	403	404	394	394	393	394	390	393	392	393	393	397	402	404	403	400	395	392	392	386	386	387	387	388	386	386	389	392	389	389	387	384	384	385	385	387	387	389	387	385	383	384	381	381	381	383	383	381	383	388	389	387	388	386	390	387	386	392	390	392	389	390	393	396	398	397	399	400	395	394	394	394	398	399	397	397	396	398	399	398	391	390	388	386	383	385	388	390	391	392	395	396	395	393	392	392	392	395	395	393	392	393	394	398	398	397	394	393	392	394	395	397	393	389	390	394	393	391	391	392	392	393	396	394	395	395	392	390	387	387	389	393	393	391	391	391	397	401	386	380	380	382	392	395	397	397	389	390	393	391	389	389	389	387	390	392	391	389	391	388	387	392	390	388	385	383	384	386	385	384	381	380	385	385	387	385	385	384	387	389	386	384	385	388	392	395	394	392	390	386	383	381	379	381	381	380	378	381	380	375	375	379	386	387	382	384	382	379	372	371	374	380	381	382	383	381	381	380	381	382	383	383	382	382	382	381	375	384	384	379	376	376	376	377	375	378	377	377	380	381	383	383	381	380	378	381	385	389	390	391	394	394	392	388	385	377	377	376	379	379	380	382	383	382	372	372	373	375	377	377	380	379	379	381	383	384	386	386	387	386	377	380	381	382	383	378	377	385	385	382	382	380	379	377	379	378	381	376	376	386	387	380	378	379	378	377	377	378	377	378	379	379	378	380	379	381	382	384	384	381	378	378	380	381	381	382	387	388	387	384	385	385	383	382	380	380	380	383	385	384	379	377	377	382	389	394	391	390	389	388	388	386	376	378	384	386	384	384	383	386	384	381	381	378	376	377	385	384	385	385	384	389	392	392	392	389	388	391	392	395	395	395	397	397	393	389	385	382	387	387	387	384	0	0	0	0	0	0	0	0
