257	257	257	257	256	256	259	260	256	253	253	251	253	251	255	255	255	255	258	259	259	258	258	260	259	258	258	259	259	260	258	257	257	257	258	260	260	258	255	255	254	256	256	257	256	258	258	258	256	255	258	257	259	259	260	260	257	253	253	256	257	256	257	256	259	259	260	262	263	262	258	256	257	256	257	256	256	256	256	257	258	259	259	259	260	259	256	257	258	255	255	255	256	257	257	259	259	259	259	261	263	261	257	254	258	257	250	251	254	257	257	256	257	258	258	262	262	260	259	257	255	253	254	255	255	258	260	262	261	258	255	253	251	251	251	251	250	253	256	257	258	257	255	253	253	254	254	255	255	256	255	256	253	256	257	257	251	251	251	249	247	246	251	255	257	257	259	257	254	252	255	256	259	260	257	254	253	252	253	251	253	252	252	256	255	255	255	256	255	255	254	255	255	256	252	252	253	256	256	254	254	253	250	252	255	256	255	256	255	254	251	249	249	249	249	247	249	252	253	253	256	251	251	251	252	252	254	258	258	253	251	248	255	258	252	253	254	255	256	255	254	253	250	248	249	250	251	252	250	250	252	253	253	252	251	249	249	249	249	250	250	249	248	247	249	252	257	256	254	252	249	249	251	253	251	249	249	249	248	248	247	246	246	249	252	252	251	251	252	250	251	250	250	249	249	250	250	250	247	247	246	247	247	247	249	255	249	248	249	248	248	249	250	248	246	246	253	254	253	252	250	252	253	249	247	247	249	247	247	250	248	248	248	249	252	250	250	249	248	248	252	251	253	253	251	250	250	249	250	251	250	249	246	246	254	252	242	252	247	250	251	253	252	251	250	246	247	248	253	252	249	246	246	246	248	248	246	245	245	247	248	248	246	246	241	241	246	247	248	249	245	245	247	247	246	244	243	245	247	246	246	244	241	241	241	241	241	243	243	243	241	241	245	251	248	244	247	247	243	244	243	244	245	245	240	244	245	247	247	246	249	249	250	246	242	249	250	250	245	243	236	239	240	237	237	239	240	241	246	242	244	244	245	245	250	246	245	240	237	239	239	240	244	243	240	239	242	245	245	243	241	240	243	243	242	243	240	242	244	245	242	242	239	239	241	240	241	240	239	240	241	239	244	243	243	244	244	245	245	245	239	238	239	240	240	238	243	242	245	241	240	240	239	241	242	243	242	239	240	238	242	241	244	243	242	241	238	240	237	237	236	238	242	242	241	240	240	240	238	239	239	238	239	240	240	241	239	235	233	233	231	239	241	241	239	235	236	234	235	235	235	237	238	240	237	236	233	232	233	235	234	239	237	239	234	235	233	233	233	232	231	232	231	230	230	235	239	239	236	235	234	236	236	236	237	237	237	236	234	233	235	236	236	232	232	231	230	227	227	232	231	229	229	229	228	233	233	234	233	234	231	231	230	230	230	232	231	229	229	230	234	234	233	233	233	0	0	0	0	0
257	256	256	254	253	253	256	257	254	252	252	250	250	251	250	250	253	255	255	254	258	258	259	257	258	257	257	257	256	256	256	254	255	255	256	256	255	254	252	253	253	256	255	257	252	253	250	250	250	249	248	254	256	258	255	252	252	252	253	254	255	253	252	251	253	256	256	257	260	254	252	250	250	251	254	255	255	253	253	254	255	256	256	257	258	258	255	251	257	254	254	255	254	256	256	256	260	260	260	260	260	257	252	249	250	255	252	249	253	257	258	255	253	257	259	258	255	255	253	253	251	250	251	254	253	254	251	255	257	256	257	255	253	252	250	250	246	248	250	251	252	252	252	252	251	253	253	256	256	256	255	254	252	250	249	249	249	251	253	250	250	250	251	254	254	254	258	257	252	253	252	258	256	254	253	251	250	249	249	250	252	254	254	254	254	254	254	255	253	252	253	253	253	254	253	253	256	256	256	255	253	251	250	250	253	251	255	255	254	250	248	248	248	248	247	247	251	251	253	251	248	248	249	247	248	248	248	248	249	248	248	247	247	248	248	247	251	253	254	255	254	253	252	249	248	249	250	250	251	250	253	253	253	252	250	249	249	248	249	249	249	248	248	248	247	251	251	257	252	252	252	251	251	250	250	249	247	248	248	246	246	246	246	248	251	252	249	249	246	247	246	243	244	245	248	248	248	246	245	247	245	247	247	246	244	245	246	245	244	247	248	248	245	246	246	246	246	247	249	251	251	251	249	247	246	246	246	247	246	247	248	247	245	243	249	250	248	248	246	248	250	254	253	253	251	250	247	247	247	250	250	248	246	243	245	253	253	249	250	247	251	252	251	250	248	247	246	248	244	241	242	245	245	246	247	246	246	245	245	245	244	247	246	241	240	242	241	248	242	248	248	245	243	241	243	244	246	246	246	246	247	247	243	241	240	240	238	237	240	240	242	243	245	246	243	244	242	242	248	243	246	240	243	242	239	243	244	245	246	246	244	248	250	247	250	250	243	242	246	244	242	238	238	236	240	238	244	247	241	241	243	245	245	248	244	246	244	238	239	241	238	241	243	241	240	240	240	242	243	243	243	242	241	242	240	241	240	240	242	243	242	239	236	236	236	237	240	240	239	241	240	235	240	241	242	242	241	242	244	244	238	238	238	240	241	237	237	238	236	238	238	233	236	238	239	240	240	238	238	239	240	238	237	237	241	240	238	237	235	235	235	235	239	240	240	240	240	240	238	239	239	239	238	238	238	240	238	238	235	236	237	239	239	242	243	240	234	233	234	235	237	235	241	237	237	236	234	234	234	234	233	237	235	233	232	230	231	231	232	232	231	231	231	233	233	235	235	238	238	237	231	233	234	233	236	236	236	235	234	233	231	233	234	231	231	230	229	229	226	227	226	226	228	228	228	232	231	233	232	230	230	227	230	230	231	228	230	229	229	230	233	233	234	230	230	0	0	0	0	0
256	253	254	251	251	250	250	254	255	252	250	250	249	248	246	249	249	249	252	255	257	257	255	255	251	253	254	254	251	252	251	252	253	253	254	252	250	249	250	251	251	251	252	253	250	250	246	246	246	245	246	250	253	254	252	252	252	252	253	253	255	252	252	252	250	251	251	255	254	253	252	248	247	249	254	255	254	253	254	254	256	256	254	255	257	258	256	250	248	252	254	256	255	256	255	255	255	255	255	258	258	252	247	247	247	251	253	250	255	258	256	248	248	250	252	253	252	247	247	249	250	249	250	251	248	252	244	251	254	255	252	251	251	249	248	246	246	247	250	251	252	253	251	251	251	252	253	254	253	252	252	252	248	248	246	248	248	251	249	249	250	251	252	252	253	254	253	252	248	249	249	250	249	251	252	251	250	248	248	249	250	253	254	252	252	251	251	252	252	250	252	253	253	253	250	250	252	252	249	250	249	250	248	249	250	249	250	252	252	249	248	249	247	246	247	249	249	251	252	252	246	247	245	245	246	246	247	246	247	248	247	247	247	247	245	246	246	246	248	249	252	253	252	255	251	249	249	248	248	247	248	252	252	249	248	248	246	247	248	248	249	247	246	246	249	245	250	248	249	250	250	250	249	248	246	245	247	247	247	245	245	246	246	246	246	245	245	244	244	242	243	244	243	242	244	244	246	245	244	245	243	244	245	243	243	243	245	249	247	244	244	244	245	245	246	246	246	244	243	242	242	243	244	248	248	249	246	246	244	246	245	247	246	243	247	249	246	246	242	245	248	253	251	250	248	248	247	246	248	246	246	247	247	246	242	242	242	243	254	253	246	242	242	241	243	245	246	250	247	241	240	240	244	247	248	246	246	245	243	243	246	246	244	241	241	240	242	242	246	240	246	244	240	236	237	237	245	248	248	248	248	246	247	246	240	239	238	236	240	240	240	242	244	240	238	241	243	241	241	240	244	238	241	238	239	243	244	244	245	243	238	239	242	245	242	240	240	235	235	241	240	240	236	235	238	239	241	244	241	241	244	244	243	244	241	245	242	241	241	241	240	241	241	241	240	240	240	240	240	242	241	240	241	240	239	240	240	238	238	239	242	237	236	235	235	235	237	240	241	242	240	236	235	237	238	239	239	240	236	242	241	239	238	240	240	240	239	235	234	233	231	231	233	237	237	236	236	239	239	240	242	241	238	234	234	236	232	236	234	233	235	238	235	239	239	241	241	240	238	237	238	238	236	234	234	238	239	238	238	237	238	238	238	235	238	238	233	232	231	231	235	237	238	237	236	236	236	237	235	234	232	234	234	232	231	229	231	231	231	231	228	228	230	231	233	233	234	236	238	232	229	230	232	233	235	235	235	234	233	232	231	231	230	229	229	229	229	230	230	228	227	227	227	228	228	228	231	230	228	227	227	226	227	229	229	229	229	227	228	229	229	232	230	231	228	0	0	0	0	0
253	254	251	247	246	248	248	253	254	252	246	246	245	245	246	245	245	247	251	256	254	250	250	248	249	251	251	251	251	248	249	250	253	253	253	249	248	248	249	250	251	251	254	252	248	247	245	245	245	245	248	250	252	252	252	250	250	250	250	251	254	249	252	250	249	249	251	251	251	249	248	247	247	250	253	252	252	250	252	255	255	255	251	253	254	253	251	249	249	251	254	253	251	249	249	251	253	254	253	253	253	251	245	246	247	250	250	249	250	248	255	253	252	251	251	250	251	249	247	247	249	248	248	244	246	245	251	252	251	250	248	249	249	249	247	245	247	246	246	246	248	249	251	251	251	252	251	249	250	251	252	250	246	245	245	246	246	250	250	247	249	251	253	251	249	248	247	247	248	249	249	250	250	250	249	249	250	247	247	248	249	250	251	250	249	250	249	249	249	251	252	252	252	251	248	247	248	250	248	246	248	246	246	247	247	247	247	250	249	249	249	249	248	245	247	246	248	249	250	245	245	243	246	243	245	248	248	246	247	247	247	247	247	244	243	244	244	244	245	244	242	245	246	255	253	251	250	249	247	245	247	250	250	249	248	245	245	246	247	243	244	243	244	244	244	244	241	246	247	249	247	247	245	246	244	244	246	247	246	245	244	244	243	245	246	243	244	244	242	243	244	244	242	241	243	244	243	243	244	245	244	242	241	240	243	243	244	247	244	245	244	244	245	244	246	245	243	244	244	242	241	241	242	245	245	245	246	243	242	243	243	244	245	245	248	246	246	243	245	244	248	249	247	248	247	244	245	247	242	243	245	245	243	241	241	240	241	243	246	248	242	242	245	246	247	248	246	243	241	240	240	241	241	245	248	245	245	245	245	242	244	244	244	243	242	242	243	237	239	240	245	244	239	237	241	241	245	243	240	241	242	247	243	241	236	237	236	235	232	232	234	236	236	238	235	241	241	241	237	237	237	237	237	238	240	243	234	239	238	235	234	236	239	239	236	237	238	235	240	234	235	238	234	231	240	240	243	237	235	236	242	244	239	246	239	237	235	239	240	239	240	240	242	239	238	236	236	238	239	239	238	239	238	238	237	240	239	239	237	237	238	238	235	236	236	236	236	235	234	234	236	237	236	234	232	232	232	231	235	236	230	235	235	234	236	237	239	238	237	236	232	231	235	237	238	236	236	237	237	235	236	242	239	237	235	234	235	236	233	233	235	235	234	234	232	230	229	238	235	232	231	232	232	231	231	233	235	236	240	237	238	236	233	232	234	235	233	232	231	232	233	232	235	235	235	236	237	229	234	233	232	230	231	232	229	231	232	232	229	230	229	229	230	230	230	233	234	233	231	228	230	231	233	232	235	236	235	228	226	230	228	228	227	227	227	229	229	230	230	229	227	227	228	228	228	227	226	228	227	227	227	227	226	228	227	228	227	226	226	228	228	229	230	227	227	0	0	0	0	0
252	251	243	242	243	247	250	250	250	248	242	242	242	241	242	245	246	246	250	252	250	245	245	246	246	247	248	249	249	248	250	253	254	248	248	248	248	249	250	250	251	251	251	250	247	247	245	244	251	251	251	251	252	250	249	249	249	249	250	250	250	248	250	250	247	248	248	248	247	247	246	247	248	250	254	253	252	249	246	246	246	248	246	249	250	249	249	250	250	251	249	249	249	249	250	251	253	252	252	251	251	247	247	247	247	249	248	247	247	244	243	250	251	251	250	248	245	246	247	247	252	251	248	246	244	244	249	249	251	250	248	248	249	247	246	246	246	247	248	246	246	248	247	250	252	250	247	247	249	248	248	249	249	246	245	244	245	243	246	247	250	252	252	250	248	247	247	246	243	246	248	248	249	249	246	246	247	249	248	248	248	249	250	249	248	247	247	248	248	248	248	247	246	246	246	246	246	246	244	244	244	246	246	246	246	247	248	249	250	251	250	248	246	244	244	243	248	248	246	243	243	243	245	245	244	248	245	244	242	247	247	247	242	241	243	241	242	244	240	239	242	240	240	245	246	243	242	249	247	245	244	249	246	246	244	243	239	239	244	243	243	243	243	243	242	240	241	242	246	244	243	247	243	243	244	244	246	246	245	243	243	242	244	244	246	246	245	244	244	246	244	242	240	241	244	244	242	242	242	245	241	239	239	240	242	241	243	242	242	243	243	243	243	243	242	245	242	242	243	245	246	246	244	243	238	239	239	239	242	243	242	242	241	243	245	247	246	245	247	247	246	247	248	246	244	241	245	241	240	239	240	240	241	242	241	244	242	237	237	238	241	242	241	241	242	244	242	242	242	241	242	241	241	245	246	245	243	245	244	243	240	244	244	243	243	244	239	239	241	243	244	244	239	234	239	239	236	234	237	240	246	247	243	239	237	237	237	238	239	239	240	238	233	237	239	240	238	239	239	238	238	237	232	234	233	240	240	232	242	240	238	236	233	236	236	236	237	237	232	233	238	236	236	235	234	234	228	229	235	241	237	238	237	240	241	238	234	234	234	236	238	239	240	240	237	235	235	235	235	234	235	237	236	236	237	238	238	237	236	234	234	234	234	235	236	235	234	232	232	233	237	237	238	236	233	234	233	233	234	232	230	233	233	233	233	240	240	238	240	239	238	236	237	238	237	236	234	231	234	234	233	234	230	234	232	233	237	235	231	232	235	235	234	233	235	234	233	233	233	230	228	232	230	230	227	225	227	230	233	235	233	231	230	231	233	233	235	234	232	231	232	232	235	233	231	229	229	230	233	234	230	230	229	230	231	233	232	232	227	228	229	228	228	229	231	232	232	231	229	229	230	232	232	233	235	229	229	227	227	228	228	228	227	227	226	226	228	230	232	227	228	230	231	229	229	227	230	228	228	228	227	227	228	227	225	227	226	228	228	226	226	229	227	225	225	0	0	0	0	0
248	243	243	239	240	240	242	242	245	241	240	240	240	239	243	245	245	245	246	248	247	243	243	244	245	245	246	246	246	245	246	244	244	244	245	245	243	245	247	248	249	249	250	249	247	246	246	249	252	252	252	252	249	248	248	248	248	248	248	248	248	248	247	247	247	246	246	247	247	245	247	248	248	248	249	251	250	249	248	246	245	245	244	243	247	247	247	249	250	250	249	248	247	249	249	251	252	251	252	251	249	249	248	247	247	248	247	247	243	242	240	243	245	246	249	248	247	243	243	244	243	241	241	243	244	245	246	247	247	246	245	247	248	248	243	243	246	247	245	243	241	243	247	249	249	248	247	246	247	244	244	246	249	246	245	246	243	244	246	248	248	249	251	250	247	247	246	242	242	242	246	246	243	243	244	245	247	248	248	247	248	248	247	246	246	246	245	245	246	246	247	246	245	243	241	242	244	244	245	247	247	246	247	246	246	246	247	247	247	246	246	243	244	244	243	237	241	242	242	241	241	242	240	243	244	246	244	244	242	241	246	241	240	240	240	242	241	242	239	238	240	240	240	241	240	238	239	241	240	239	238	240	245	244	244	244	242	240	240	243	243	243	243	242	240	240	242	240	243	243	242	242	243	242	243	242	241	243	243	242	243	243	242	242	245	246	245	244	244	244	243	242	240	240	244	244	240	240	241	242	242	240	239	240	241	241	239	240	240	241	241	242	242	242	242	240	240	242	243	243	244	242	241	243	238	236	237	238	240	241	241	239	240	242	242	242	244	242	241	245	244	242	242	241	240	242	242	239	238	238	240	240	241	240	241	244	241	239	237	240	242	241	240	239	239	240	239	240	239	240	242	242	244	245	245	244	242	242	242	241	235	237	238	236	240	242	235	239	233	240	244	240	239	232	236	235	233	235	237	236	242	243	239	238	237	236	236	239	238	240	237	239	236	237	237	237	238	237	239	240	236	232	230	232	232	234	234	236	232	234	237	234	234	239	236	236	237	238	238	238	238	236	238	238	237	234	232	232	233	235	237	237	234	235	236	236	235	234	234	236	234	236	235	235	235	234	234	233	233	234	236	236	234	233	229	231	237	236	236	235	233	232	232	231	234	234	233	229	230	230	238	237	233	235	235	236	233	233	232	231	230	231	232	232	233	239	241	238	233	229	227	231	233	237	236	235	233	229	233	234	234	234	233	229	230	228	230	231	231	233	236	236	235	235	235	234	234	232	234	231	228	229	230	230	229	227	229	229	230	232	232	231	230	232	232	231	231	228	232	231	232	231	230	232	230	229	229	230	231	231	229	227	227	226	224	227	225	228	230	225	226	226	227	228	228	229	232	231	230	229	231	232	232	231	230	229	228	227	227	228	227	228	227	226	226	226	227	227	227	225	227	227	231	230	232	230	230	227	227	224	223	226	227	227	228	224	223	226	226	228	224	224	226	225	225	0	0	0	0	0
242	241	239	237	236	238	238	238	239	240	240	241	241	242	243	245	242	242	244	244	243	240	240	240	243	244	243	245	245	245	244	243	242	243	243	243	242	243	245	246	247	248	248	248	245	246	247	249	251	253	253	254	253	251	249	247	246	247	247	248	247	248	245	243	247	244	244	244	245	245	244	244	246	247	248	250	249	249	248	246	245	244	244	242	243	245	247	249	249	251	250	247	243	245	246	247	249	251	252	247	245	247	247	247	244	247	246	241	242	241	240	239	241	241	246	246	247	246	245	248	247	244	244	241	240	242	242	241	242	241	242	242	244	245	242	243	245	245	242	240	241	244	246	246	246	243	244	244	243	241	241	244	246	246	245	246	244	244	246	245	245	244	245	247	247	245	243	240	239	237	240	246	242	243	244	241	241	243	251	251	251	245	243	243	244	242	243	243	245	245	245	246	244	242	239	239	242	242	248	246	246	244	242	248	245	245	243	242	243	243	244	244	245	243	241	245	245	244	245	243	242	243	242	241	244	244	242	242	242	241	240	240	239	239	239	242	236	235	236	238	239	239	240	239	237	235	236	240	239	240	238	238	234	239	240	243	242	240	240	242	243	241	241	240	239	238	241	241	241	238	240	239	240	244	244	242	240	237	239	240	241	241	242	241	241	244	243	244	244	242	243	239	242	241	239	242	241	240	241	241	241	241	238	238	238	239	239	237	238	239	240	241	241	242	241	239	236	242	242	239	238	240	240	242	240	239	239	239	239	238	238	238	238	239	242	242	238	239	238	238	242	241	236	236	235	240	239	238	237	236	239	241	240	238	239	238	237	239	236	241	242	239	239	238	238	239	237	239	238	240	242	242	242	244	245	244	242	241	239	237	235	235	235	236	236	232	235	235	240	241	242	241	245	238	236	234	232	237	236	242	242	242	241	239	237	235	236	238	239	239	242	238	238	235	234	235	234	235	233	234	234	233	232	232	230	229	235	235	237	230	233	233	237	239	235	236	237	234	232	234	231	230	230	231	231	233	236	235	236	235	234	235	235	235	238	237	236	236	236	235	235	235	235	234	234	234	234	233	233	233	235	235	235	230	232	231	233	235	235	234	231	231	230	231	231	232	231	230	230	230	232	234	233	235	233	236	234	233	233	232	230	228	228	228	233	234	233	230	223	228	226	231	232	233	233	231	226	226	233	233	232	232	232	231	230	231	232	232	228	228	229	233	232	231	230	231	232	232	232	232	230	229	228	230	231	230	229	229	230	230	232	232	231	231	232	231	229	228	227	232	230	231	230	229	229	231	230	229	228	229	224	225	226	225	224	226	224	225	223	224	224	227	228	227	225	226	229	230	231	230	230	230	230	228	227	227	227	226	225	225	226	225	225	225	226	226	225	225	225	224	225	226	228	231	231	232	229	229	222	222	223	222	224	225	225	227	226	226	226	227	226	226	224	228	227	0	0	0	0	0
240	238	237	237	235	236	237	239	239	239	240	242	243	243	244	242	242	242	242	243	242	239	241	241	242	241	241	243	244	244	243	241	241	241	239	239	242	243	245	245	245	246	246	246	246	247	246	246	246	247	247	248	248	246	244	244	243	247	248	248	248	248	245	244	245	243	243	241	241	241	238	240	243	244	248	247	248	246	247	246	245	243	243	242	239	244	245	245	245	245	245	245	241	239	239	241	242	244	243	243	244	245	245	245	243	242	241	241	242	241	239	238	238	239	241	243	245	245	243	245	243	240	239	238	237	236	238	240	241	241	241	242	241	239	241	244	245	242	240	239	242	244	245	244	243	241	241	245	241	241	241	241	244	244	244	245	245	244	242	243	241	241	241	241	241	241	240	241	242	237	235	235	234	236	237	239	239	240	241	243	242	241	240	240	241	240	241	242	243	245	245	243	243	240	238	238	241	243	239	238	241	242	244	243	243	244	241	240	239	239	241	244	248	247	246	245	245	245	245	243	242	243	243	242	242	242	242	242	241	237	235	238	239	240	240	240	241	238	237	237	238	239	239	238	237	236	234	238	237	237	233	231	232	234	238	241	241	241	242	240	239	238	237	237	238	238	241	241	241	237	238	239	239	237	239	241	238	237	237	238	241	240	241	239	238	238	242	240	240	239	238	240	241	242	237	236	241	242	236	236	238	237	235	234	236	238	236	237	238	239	240	241	239	240	238	235	238	239	238	237	237	236	236	239	239	238	238	236	238	238	238	238	239	238	240	240	239	238	238	237	238	237	236	235	234	238	238	237	236	235	234	234	239	238	237	237	235	237	238	239	241	236	235	235	233	235	236	238	233	235	237	236	238	239	240	240	240	239	238	236	236	234	234	235	237	232	229	230	232	235	234	232	230	237	241	234	233	233	233	230	232	231	230	229	233	235	235	236	236	236	238	237	234	234	234	233	233	236	233	231	232	232	232	229	230	229	234	233	232	229	230	230	232	233	236	236	235	232	230	233	233	233	229	229	231	232	235	236	235	234	234	233	237	238	238	237	234	234	235	234	236	236	236	234	233	235	234	234	231	235	236	234	233	233	232	233	234	231	231	231	229	229	229	232	231	231	231	232	233	232	232	232	230	232	233	235	228	226	225	226	227	228	230	228	230	233	232	230	226	224	226	231	232	233	232	232	227	226	227	234	233	232	231	231	230	231	232	232	232	226	226	228	229	230	231	230	230	231	232	232	230	230	231	230	230	230	230	227	231	230	230	231	232	232	231	230	228	228	226	228	228	228	226	227	227	232	230	231	231	227	225	224	223	224	227	226	226	223	222	222	225	226	227	227	226	225	226	229	229	229	227	228	227	227	227	227	226	225	224	224	222	222	222	222	225	224	222	223	221	219	225	225	226	229	229	229	229	229	221	222	224	223	222	223	225	225	224	224	224	228	228	228	226	223	226	0	0	0	0	0
236	235	235	235	234	236	237	238	238	238	241	244	242	242	242	242	241	240	240	239	239	242	239	239	239	238	238	241	244	243	243	241	238	236	238	242	242	244	244	245	245	245	246	246	247	243	244	243	244	245	246	246	245	242	242	240	241	241	243	243	242	247	242	243	244	239	241	240	240	240	240	240	241	242	241	244	246	246	246	246	246	240	238	238	240	239	238	238	237	238	242	244	243	238	237	238	241	240	240	241	242	243	243	241	241	241	240	240	239	239	238	238	238	240	241	240	240	241	240	240	239	239	238	238	238	236	239	238	240	242	242	241	239	238	240	240	242	242	238	239	237	242	243	243	241	240	241	241	240	241	240	238	238	241	240	240	237	241	240	240	242	238	239	240	240	238	239	239	240	239	238	237	235	236	238	239	237	239	238	238	237	237	240	238	238	237	240	242	243	242	235	241	240	239	238	238	238	238	238	238	239	242	241	241	242	243	240	238	238	237	237	238	239	244	241	240	240	239	238	236	239	242	243	239	243	242	242	238	237	239	235	237	238	240	240	240	238	236	237	237	238	237	237	237	237	236	233	234	237	235	232	230	231	236	238	242	241	242	242	241	241	239	238	238	238	239	241	242	240	236	237	237	235	236	237	239	238	237	238	241	241	238	237	237	236	237	239	241	240	238	238	237	235	235	236	234	235	234	234	234	235	235	234	234	235	236	237	235	236	237	237	237	237	236	235	235	237	235	234	235	235	236	238	239	237	238	237	235	232	235	234	235	234	238	239	237	235	234	237	238	237	237	236	235	234	236	235	235	235	235	234	234	235	237	236	235	234	235	236	236	235	234	233	233	231	231	235	236	236	234	234	234	235	236	238	239	237	236	235	233	236	233	233	234	233	231	229	230	230	231	230	235	233	233	233	232	230	231	232	230	232	231	229	230	227	223	231	233	234	235	232	232	233	237	237	237	233	233	233	233	235	230	230	230	229	231	230	233	233	231	228	230	233	234	234	233	232	232	233	235	234	235	233	232	232	234	235	234	234	233	232	231	233	234	239	233	233	232	233	229	233	236	236	235	233	234	235	239	235	235	237	231	229	229	229	229	228	228	230	229	227	227	229	230	228	226	228	230	234	235	232	228	229	232	232	232	230	228	229	230	231	230	229	229	227	229	230	230	230	228	229	231	232	232	229	228	227	225	226	231	232	232	230	227	226	228	225	231	226	226	226	227	229	230	230	230	229	228	228	226	229	229	229	228	226	226	226	226	227	227	228	227	229	227	228	226	224	225	227	227	225	225	225	225	226	228	231	230	231	227	225	225	223	224	224	225	225	225	223	223	224	226	227	226	224	225	227	228	227	226	226	225	228	224	225	225	226	225	225	224	224	221	221	222	223	224	221	218	219	218	222	225	225	226	225	225	225	225	218	221	222	223	222	223	224	222	221	221	222	226	227	227	226	223	223	0	0	0	0	0
236	232	233	234	234	235	236	235	235	237	238	239	241	241	240	240	239	235	236	236	237	240	240	237	237	237	240	242	244	243	243	241	237	236	238	241	241	242	239	243	244	243	241	241	239	243	241	241	241	242	241	241	240	240	241	240	240	239	240	240	240	241	237	237	236	238	239	240	240	240	240	240	240	240	238	239	243	244	244	243	244	239	239	239	239	242	240	240	237	237	237	238	239	238	239	239	240	241	242	239	239	240	240	238	240	240	238	238	237	235	236	236	238	239	238	238	239	238	236	239	239	237	237	239	237	237	238	239	239	239	238	238	236	237	240	239	240	239	238	239	240	240	242	241	239	241	240	239	239	236	239	237	241	237	236	237	236	237	239	240	238	237	236	238	236	237	237	237	239	239	239	237	236	235	237	237	237	238	238	238	237	237	237	238	238	240	240	243	239	234	235	231	234	239	239	238	236	236	237	236	237	238	239	238	241	241	239	240	238	237	236	237	238	239	238	239	239	239	238	236	238	237	240	239	242	244	239	238	237	234	234	236	238	237	234	236	232	232	233	236	237	236	235	233	235	235	234	236	236	235	233	228	232	236	236	241	240	240	240	240	239	239	239	238	237	236	235	236	236	237	236	236	236	237	237	239	239	238	238	241	238	238	235	235	236	237	237	238	239	236	237	236	236	235	234	231	233	234	234	234	234	234	235	235	235	235	234	231	233	237	233	234	233	232	234	237	236	234	233	233	234	236	237	239	236	233	232	232	232	232	231	234	235	236	234	235	234	232	236	237	238	237	236	235	234	235	234	234	234	234	232	232	233	234	234	234	233	235	235	233	234	234	233	233	235	235	237	239	240	237	235	234	235	235	234	234	232	234	230	235	232	230	231	232	231	230	232	230	230	230	231	235	232	233	234	233	233	232	229	230	231	231	235	235	232	225	230	232	230	227	235	235	234	230	230	227	229	229	232	234	233	232	230	229	232	232	227	229	230	230	232	232	233	233	232	230	228	229	230	230	230	231	232	235	234	235	234	234	231	230	230	229	231	234	239	233	231	230	226	230	232	233	235	231	231	235	235	239	234	230	230	230	231	231	230	228	227	227	227	227	226	226	225	227	227	224	225	225	227	230	228	230	228	231	230	231	230	230	230	230	230	228	227	226	225	226	229	226	224	229	230	232	228	227	225	226	226	227	226	228	230	229	226	226	222	225	226	227	227	225	223	225	229	229	228	229	226	225	225	227	227	227	227	226	225	225	225	226	226	223	223	225	226	227	224	224	225	223	227	227	229	225	222	222	226	227	229	228	228	226	225	223	222	223	224	224	224	224	224	224	223	223	223	223	221	220	222	225	224	225	225	224	221	223	221	224	225	224	224	222	221	221	219	222	223	221	220	218	219	221	221	222	223	222	224	224	222	220	217	220	220	220	220	219	219	218	218	218	222	223	224	225	223	221	221	221	0	0	0	0
233	232	232	234	234	235	231	232	233	233	237	238	237	237	237	237	235	235	235	235	236	238	235	234	234	234	237	241	243	242	242	237	237	237	238	239	239	239	239	239	239	240	239	238	238	240	239	239	237	236	236	237	237	238	239	240	239	237	236	237	236	236	232	233	234	238	237	237	234	234	237	237	237	235	237	237	239	242	242	240	240	238	239	241	241	242	241	238	236	236	235	235	237	237	236	236	234	234	235	233	237	236	235	235	238	236	236	236	235	235	233	232	233	235	235	237	236	235	235	235	236	235	236	236	237	238	239	240	238	238	237	234	235	236	236	236	237	237	238	239	239	241	241	240	238	238	240	238	238	238	238	237	236	237	236	236	236	236	237	238	234	235	236	235	236	237	237	237	239	238	236	239	239	238	237	238	237	237	238	239	237	237	236	236	237	235	236	238	238	236	232	234	235	236	236	236	236	235	235	234	235	236	237	237	237	237	238	240	238	237	235	236	237	237	239	238	238	238	238	235	235	238	239	240	242	243	243	240	236	233	232	235	238	235	231	231	231	232	233	234	235	233	232	232	234	235	235	235	234	234	233	233	233	235	236	240	234	238	236	236	237	237	236	232	233	233	235	235	236	237	237	235	233	236	237	236	238	237	235	234	237	235	234	233	234	234	234	234	238	235	236	233	233	233	234	232	233	234	234	234	233	234	235	236	236	234	233	231	236	234	232	230	234	236	237	237	234	233	231	231	234	235	236	235	234	233	231	230	230	231	232	233	234	234	233	231	231	233	233	235	235	234	235	235	232	232	234	233	233	232	232	231	231	231	232	233	232	232	232	233	234	233	234	233	232	235	238	239	242	240	236	234	234	234	232	232	232	231	230	229	231	229	229	229	227	230	231	230	230	234	237	237	234	235	233	232	231	228	229	234	232	234	232	230	230	230	228	228	229	233	234	235	234	231	229	229	230	231	232	230	230	230	230	230	229	229	228	229	228	229	230	231	232	231	230	227	227	228	228	228	228	229	229	230	234	233	232	232	231	229	229	232	228	230	231	232	229	228	230	230	230	230	229	229	229	230	230	228	228	229	229	230	231	230	228	229	226	226	226	227	226	227	225	226	225	224	225	226	226	230	226	227	225	227	229	229	230	230	228	230	229	227	226	224	225	227	227	229	229	225	226	225	225	225	226	227	226	227	227	227	226	226	225	225	222	223	225	224	226	225	224	224	229	228	227	224	223	224	225	224	226	228	225	226	223	225	224	223	222	223	223	222	224	223	223	222	222	225	225	227	227	220	226	225	225	225	223	223	220	222	225	222	222	223	223	225	220	221	220	222	221	222	222	222	221	221	221	222	223	225	224	224	220	221	221	221	223	224	223	222	222	220	221	221	223	222	219	217	219	221	223	221	222	223	222	222	221	215	218	216	217	217	217	218	216	216	216	217	219	220	222	221	221	221	220	220	0	0	0	0
234	234	235	234	233	233	230	229	232	232	234	236	235	234	234	232	234	234	233	233	233	233	233	232	234	234	238	240	241	241	237	237	234	236	239	239	238	238	238	236	236	240	237	235	235	236	238	235	236	233	234	235	235	236	239	238	235	232	231	231	229	229	231	241	243	242	238	236	232	231	232	234	234	235	236	237	239	240	240	240	240	234	235	235	237	237	237	237	235	233	233	234	234	234	235	236	233	234	234	234	233	235	234	233	234	235	234	234	232	231	231	231	232	233	234	233	233	234	232	233	234	235	235	236	237	237	238	238	238	237	235	233	233	232	233	232	236	237	238	237	238	239	240	238	236	237	234	234	236	237	236	235	235	234	234	235	234	234	234	234	234	231	232	233	233	231	230	231	233	234	236	235	235	232	236	235	236	237	237	235	235	236	234	234	231	234	240	239	236	235	232	233	235	235	235	235	234	235	236	236	235	235	237	237	237	234	237	237	236	239	239	234	235	236	237	236	236	238	238	238	237	236	237	239	241	243	242	238	236	234	231	233	238	236	232	231	231	231	232	232	233	234	232	234	234	234	234	235	234	233	233	233	233	233	234	235	235	232	233	233	235	235	232	232	233	235	232	233	233	234	237	232	232	232	231	232	231	231	233	230	229	233	232	232	232	233	233	233	233	234	234	233	233	234	230	233	232	234	234	233	233	233	234	235	234	234	232	232	235	231	232	229	234	236	236	235	233	232	231	232	232	231	235	233	234	233	232	232	230	230	230	232	234	234	232	230	230	231	231	233	233	232	233	234	232	231	231	232	232	232	232	230	229	230	230	232	232	232	231	231	232	232	233	233	232	234	234	235	238	233	231	230	229	228	231	230	230	230	228	228	232	229	229	228	228	229	231	232	231	229	226	226	233	231	227	229	230	229	228	225	224	230	230	230	228	227	228	229	230	233	234	234	234	232	226	228	229	230	230	231	230	230	230	230	230	229	228	228	228	228	229	228	226	225	226	227	227	227	227	226	227	227	228	230	231	231	230	228	228	227	228	227	229	228	229	229	228	233	232	229	229	227	226	227	229	230	231	228	228	228	229	232	230	229	226	226	224	226	227	225	225	226	226	224	225	225	225	225	226	226	222	223	221	221	222	223	223	225	229	228	228	227	224	224	226	229	227	229	228	225	225	223	223	225	225	226	224	222	224	224	224	224	224	223	221	224	221	224	226	228	226	224	225	224	223	223	220	221	225	223	229	226	225	223	224	223	223	222	223	223	222	226	223	223	220	222	221	222	224	226	221	224	225	224	225	223	220	219	219	218	222	222	222	223	225	217	216	221	221	218	219	219	219	219	221	220	220	220	221	222	224	221	220	220	219	223	223	222	224	223	223	220	219	221	219	219	218	218	217	217	219	220	221	221	221	221	218	217	215	215	216	217	217	218	218	218	213	216	217	218	220	219	221	219	219	218	0	0	0	0
234	234	237	235	232	232	230	229	230	233	233	234	233	231	231	231	234	234	233	232	232	236	238	237	236	236	235	234	236	237	236	236	233	233	235	239	238	236	236	233	234	235	236	235	236	236	238	235	232	233	235	236	233	233	232	232	232	232	230	229	229	231	231	233	238	237	234	232	230	229	230	233	233	233	233	235	237	236	235	234	234	233	233	234	236	236	236	236	233	231	231	232	233	233	230	231	229	230	231	232	234	234	232	231	232	233	234	231	231	231	230	231	232	232	232	232	231	233	234	233	232	233	234	235	234	234	233	236	236	236	234	233	230	231	232	230	233	236	236	233	232	238	238	236	232	232	233	234	235	237	236	234	233	232	232	233	232	232	231	232	233	231	230	232	231	231	231	231	232	234	234	234	234	231	235	233	233	233	234	233	237	236	235	232	230	231	241	238	235	233	234	233	234	234	234	234	234	234	235	237	234	233	234	235	234	233	233	231	231	234	235	234	236	235	236	233	233	234	235	236	236	235	236	236	238	240	239	236	234	232	232	231	237	236	233	231	231	232	232	232	234	234	234	235	234	233	232	232	233	232	231	226	232	233	234	231	232	232	231	231	232	232	230	230	234	232	232	229	231	230	232	231	231	231	230	229	231	230	230	231	227	226	226	231	229	230	229	229	230	233	235	233	233	228	232	231	232	232	233	232	232	232	232	233	234	234	232	232	233	230	230	229	229	233	233	233	234	232	231	232	232	229	231	233	233	232	232	232	232	230	229	231	232	232	230	228	228	229	228	232	233	232	231	231	233	232	231	231	231	231	230	229	229	228	229	231	229	230	231	228	229	230	232	231	232	229	230	229	229	231	230	229	227	227	228	228	225	229	225	231	229	231	229	229	228	231	230	230	230	232	225	225	232	227	223	227	228	228	226	223	225	228	229	229	227	228	228	230	230	231	232	233	232	226	227	228	229	228	229	228	227	230	229	231	230	228	227	227	229	229	226	226	225	223	225	226	227	227	225	225	226	225	227	230	231	229	229	226	227	226	227	227	228	227	228	226	226	228	227	229	228	228	226	228	229	231	229	229	228	228	228	230	227	228	225	224	226	227	226	226	226	226	225	225	224	223	221	225	224	223	221	221	220	220	221	223	224	224	226	227	229	229	227	225	226	227	227	227	225	224	223	222	222	225	228	227	224	223	224	223	224	223	224	222	221	222	222	223	225	227	223	221	224	225	222	220	220	219	220	222	222	226	224	223	223	223	222	223	223	223	220	221	221	220	220	219	218	219	222	222	221	222	222	223	224	223	221	220	218	217	217	217	223	221	218	215	218	217	219	216	218	218	218	219	218	220	220	220	220	223	223	223	222	217	216	219	220	220	222	222	224	219	218	217	214	214	216	217	217	216	216	217	220	220	221	221	216	217	216	216	217	217	218	215	215	216	214	215	217	217	214	214	215	215	215	215	0	0	0	0
236	236	239	237	234	234	230	227	229	232	232	233	230	230	233	233	231	231	231	233	233	232	232	231	232	232	232	231	233	233	235	233	233	234	236	235	234	233	233	233	233	234	234	234	234	234	236	229	230	233	235	235	235	235	234	233	231	234	233	232	233	233	233	232	236	235	234	232	229	229	232	233	233	233	233	235	235	236	233	235	235	233	232	229	231	232	231	231	230	230	230	231	232	233	231	230	230	229	230	232	233	233	232	231	231	232	231	230	230	230	230	231	232	233	231	231	231	233	234	234	235	234	233	231	231	230	231	234	235	235	233	231	228	227	228	229	232	236	236	233	232	236	230	230	231	231	231	232	233	236	234	232	231	229	229	228	228	229	231	231	233	234	232	231	231	230	230	232	232	232	233	234	232	231	233	233	232	231	230	232	233	235	235	233	230	230	240	238	234	230	229	231	233	234	234	234	234	232	231	233	234	234	233	234	231	232	233	231	230	231	233	236	236	235	232	231	233	234	235	236	235	235	235	235	235	233	236	238	233	232	232	232	235	236	234	231	229	233	231	232	232	232	232	232	232	232	232	231	230	231	227	228	227	234	231	230	231	231	231	231	228	228	228	227	228	231	231	227	227	226	227	227	227	229	229	228	228	229	229	230	231	229	227	226	226	226	226	227	227	229	229	230	228	232	232	232	231	231	231	231	231	231	231	233	234	234	231	232	230	230	230	230	232	231	232	232	232	230	231	230	229	228	228	230	232	230	228	226	226	226	227	228	229	230	230	228	224	227	230	229	229	228	231	231	232	231	231	230	230	230	230	230	230	229	228	233	230	229	231	227	227	227	229	230	230	229	224	223	226	226	228	231	229	225	225	225	229	226	222	223	221	224	227	228	228	229	230	229	225	230	226	224	223	224	225	227	228	228	226	226	226	228	228	227	227	226	227	226	229	230	228	229	225	226	227	227	230	230	229	227	227	230	230	230	225	227	226	228	228	228	226	226	225	223	223	226	226	225	225	226	227	227	225	228	228	229	228	227	224	223	226	226	225	225	225	224	226	225	226	226	228	228	225	226	227	227	228	224	226	225	226	225	226	223	224	223	225	227	226	226	225	225	222	220	224	221	222	222	221	219	219	219	221	221	221	224	224	225	224	225	228	229	228	224	223	222	220	224	224	223	222	221	221	225	227	226	221	221	221	224	224	224	224	223	222	221	223	223	222	222	220	218	222	218	221	220	220	219	221	221	222	222	221	217	218	223	222	224	222	220	220	221	221	220	220	221	222	221	221	222	221	221	221	223	221	222	222	221	221	222	219	219	220	219	218	218	218	218	219	215	214	214	216	216	217	217	218	216	221	221	221	222	217	216	216	217	218	219	219	221	222	219	217	214	213	217	216	215	215	214	215	214	217	217	220	220	216	218	218	218	217	215	215	216	216	214	215	215	215	216	216	214	215	215	215	215	0	0	0	0
236	236	237	235	233	228	228	227	233	230	230	228	225	226	228	228	230	230	231	233	230	230	231	231	231	231	231	232	233	233	233	233	233	233	234	234	233	234	231	231	232	231	231	232	232	231	231	227	232	234	235	231	229	231	231	231	232	231	231	232	233	233	232	231	230	232	231	231	231	233	236	237	234	234	234	235	234	235	232	235	235	232	227	228	230	231	230	230	229	229	229	233	232	230	228	228	228	229	231	230	228	228	230	230	231	228	229	229	227	230	231	231	233	232	231	232	232	233	233	233	233	233	232	231	229	228	230	231	232	232	232	231	228	227	227	229	231	233	236	234	232	230	230	229	229	231	231	231	232	229	226	225	225	225	229	230	230	231	230	231	232	231	231	230	230	230	232	233	232	232	231	231	229	228	229	233	232	230	229	228	233	235	234	233	232	230	231	229	230	228	226	226	226	231	232	234	232	231	230	230	230	233	233	234	231	231	230	229	228	229	232	236	236	234	234	233	233	234	234	233	232	231	232	229	230	230	230	232	232	230	233	232	233	233	231	230	229	231	231	231	232	232	231	230	232	231	231	230	230	227	226	226	226	228	229	230	230	227	227	228	227	227	226	227	226	226	227	226	227	224	224	226	225	229	227	226	228	229	229	230	230	230	229	227	225	226	226	227	227	227	228	226	227	231	231	231	231	229	228	230	230	230	230	233	233	232	231	231	231	229	229	230	231	230	231	231	231	231	229	228	228	229	229	230	231	228	226	225	225	225	227	228	228	228	228	227	227	228	228	227	225	225	227	229	230	229	228	226	226	228	230	229	228	229	229	232	229	231	231	232	226	227	228	229	229	228	227	224	226	228	232	231	225	225	225	224	222	225	222	222	221	227	228	227	227	227	228	227	227	227	226	228	227	226	226	227	226	226	225	223	223	222	227	225	225	226	226	226	227	226	227	226	227	226	227	230	229	226	226	231	230	230	228	228	225	225	227	226	226	224	226	227	226	225	222	224	225	225	224	224	226	227	226	228	228	227	227	226	222	221	220	222	221	223	223	223	224	224	224	223	225	225	225	222	223	224	224	223	223	224	224	224	223	224	224	223	224	222	224	224	224	222	220	220	221	223	222	222	221	218	218	219	219	220	222	222	224	224	224	223	226	227	227	225	223	223	225	222	222	222	221	221	222	222	223	227	226	219	221	222	224	224	223	222	220	218	217	217	219	218	222	219	220	216	219	220	221	218	219	220	222	222	221	221	218	219	221	223	223	220	221	217	219	218	217	219	222	219	221	221	221	221	221	221	221	218	218	218	219	220	220	220	220	216	218	221	218	217	217	217	212	213	215	216	217	215	216	215	219	220	219	216	217	215	214	215	216	216	216	216	216	215	215	214	212	217	216	215	213	213	213	214	214	214	214	211	216	214	217	217	215	214	214	214	214	215	215	215	216	216	217	216	214	214	214	213	0	0	0	0
234	234	234	233	231	228	228	230	230	225	221	221	222	226	228	229	229	230	230	230	230	230	230	230	230	230	230	230	230	231	231	231	233	230	235	234	234	232	232	232	232	231	230	231	231	226	226	230	231	230	230	231	230	233	233	232	230	229	229	231	231	230	231	229	232	232	230	229	229	229	230	231	232	235	235	236	233	229	231	235	234	231	225	226	228	230	229	228	228	228	228	228	228	228	227	227	226	227	228	226	225	226	226	229	227	226	227	226	226	228	228	229	229	231	231	232	233	232	229	228	231	232	232	232	228	227	228	230	231	230	230	229	228	226	227	229	230	232	233	228	228	230	232	229	229	228	230	221	226	224	225	225	224	229	231	231	233	232	230	228	229	229	229	227	227	230	232	233	235	235	231	230	228	228	228	229	231	230	229	228	233	229	230	226	226	225	225	225	225	227	225	224	225	231	231	232	230	229	229	228	229	231	229	232	230	229	227	227	227	227	228	232	230	231	230	229	229	229	229	229	228	227	228	229	229	230	229	229	230	230	227	230	226	231	231	230	229	230	230	230	230	229	228	228	229	229	230	232	229	225	224	226	226	228	230	230	229	228	226	225	226	226	226	226	226	225	227	227	222	223	223	227	226	226	227	225	225	227	228	229	230	230	229	228	226	224	227	229	229	227	224	224	226	227	229	229	227	227	227	226	227	229	230	229	228	230	230	230	230	229	229	230	230	230	231	230	230	228	227	227	228	227	228	229	229	229	226	225	225	225	224	226	228	227	226	227	227	228	228	227	226	225	225	227	228	229	227	226	225	225	225	224	225	225	225	228	222	227	229	230	231	225	226	226	228	227	223	225	225	225	226	227	225	225	224	218	225	223	222	223	224	226	227	226	228	227	225	226	225	226	225	228	229	228	227	224	224	223	223	223	220	219	222	225	223	225	225	226	226	225	225	226	227	227	228	227	225	225	225	225	224	228	229	226	225	223	226	226	225	225	226	227	226	224	223	223	224	224	223	224	225	225	226	226	224	223	222	221	221	220	219	221	220	221	221	223	222	223	222	222	221	223	222	221	221	222	222	223	222	223	223	222	223	223	223	222	221	223	224	224	224	223	219	219	222	223	222	222	222	222	224	222	225	226	223	222	223	223	223	223	223	226	227	224	224	222	221	221	219	220	219	220	218	218	222	225	225	221	221	221	222	223	225	220	220	220	221	219	218	218	221	221	220	217	219	218	219	218	217	220	221	223	220	216	214	219	221	223	221	219	219	219	221	217	215	219	219	216	218	219	219	219	219	218	221	218	214	216	218	220	219	216	217	214	218	222	220	218	213	213	213	216	214	219	219	219	214	214	212	217	217	215	215	214	214	217	217	215	214	213	212	214	214	213	214	215	217	217	212	213	213	213	212	213	212	212	212	212	215	215	213	212	214	214	214	215	216	216	216	216	215	216	216	214	213	211	0	0	0	0
232	234	234	231	230	232	233	233	230	221	222	222	223	226	228	229	229	229	229	229	230	230	230	230	226	227	227	227	227	226	228	228	230	230	233	234	233	231	231	233	233	233	231	230	227	228	230	230	230	230	229	230	230	232	230	230	228	227	226	227	229	228	229	232	232	232	231	228	227	227	229	229	228	230	234	234	230	226	226	228	227	226	224	225	225	227	227	227	228	228	228	227	228	226	226	226	224	225	226	224	224	225	226	228	224	224	225	225	225	226	228	228	229	230	230	234	231	230	228	228	228	228	228	229	229	228	225	228	228	227	227	225	223	224	226	228	228	226	223	224	226	223	230	230	225	222	221	222	222	224	225	225	225	227	230	231	229	229	228	227	227	226	226	225	225	228	233	234	235	236	230	228	229	228	228	228	230	229	228	232	227	227	228	229	227	227	226	226	225	227	224	226	226	226	227	228	227	227	226	227	227	229	227	224	230	227	227	227	226	225	225	229	229	227	225	225	224	226	224	225	225	224	223	227	228	228	227	226	229	221	224	220	220	230	227	227	228	228	229	229	229	231	230	225	226	226	227	227	228	224	227	227	227	228	230	231	229	228	226	225	225	225	226	225	225	225	226	226	223	223	223	223	226	227	226	225	225	225	225	227	227	230	229	226	222	223	229	230	229	225	226	223	225	224	224	224	225	227	227	227	227	228	228	230	226	223	223	226	227	224	227	225	224	225	227	226	230	226	225	228	228	229	230	230	228	226	228	225	224	224	221	223	227	227	226	226	226	224	223	226	227	225	225	226	226	226	225	225	224	224	225	226	224	224	225	222	226	221	228	226	228	225	225	221	222	224	222	222	223	223	221	221	221	221	220	221	224	222	222	222	224	226	226	226	223	223	225	226	225	224	225	229	228	229	224	220	222	224	223	223	218	218	218	221	222	223	223	226	224	223	225	227	224	224	225	225	225	224	224	224	224	224	224	225	223	224	224	226	224	223	225	225	224	220	218	221	221	223	223	223	223	221	221	225	223	222	220	220	220	220	220	221	221	221	221	220	221	222	222	221	220	218	218	218	219	220	221	220	223	223	222	221	221	221	222	221	220	221	223	224	223	222	215	220	221	221	221	222	221	223	222	222	222	225	225	221	220	220	220	221	221	221	220	220	217	222	220	220	220	218	217	217	217	217	221	222	222	222	220	222	222	222	221	223	222	220	222	220	220	222	222	221	219	220	220	219	218	216	220	217	217	221	219	214	214	213	217	218	218	215	217	217	215	215	216	219	221	220	218	216	216	215	216	216	215	217	215	214	215	217	217	216	216	213	216	217	220	217	214	213	213	213	216	215	219	219	214	214	214	215	215	214	213	213	215	216	216	216	214	213	213	214	214	215	215	215	215	212	211	213	214	214	214	213	212	210	210	209	209	210	210	210	210	210	211	211	212	215	215	215	215	215	215	212	210	210	0	0	0	0
230	231	231	229	228	229	229	229	224	221	223	222	222	225	225	228	229	229	229	230	230	230	230	225	224	224	225	226	226	227	227	227	228	233	230	233	229	231	231	231	231	231	229	228	227	226	230	230	225	224	227	227	229	228	227	227	225	223	222	222	226	228	231	232	230	230	231	229	226	223	222	224	228	228	228	228	227	223	224	224	228	224	223	223	225	225	225	227	228	228	228	228	228	226	226	222	223	223	224	224	224	224	224	223	223	223	223	225	226	225	225	225	228	228	229	229	228	228	226	228	229	229	229	229	227	229	226	224	224	224	224	223	223	227	226	226	228	225	224	225	225	225	222	227	227	225	221	222	222	223	225	225	226	226	231	231	230	227	226	225	225	226	225	224	224	223	222	223	226	227	228	227	231	228	226	228	235	236	235	225	222	224	226	229	226	227	227	227	229	226	226	226	226	226	225	225	224	225	225	226	223	225	225	224	222	221	220	225	226	226	223	224	224	225	224	224	223	223	222	223	224	224	223	223	224	224	225	223	222	221	223	224	223	222	223	224	226	224	227	229	230	232	230	226	225	225	226	226	225	227	227	227	226	225	225	230	231	226	227	225	224	225	225	225	223	223	225	227	226	225	224	223	226	227	225	223	223	222	225	223	226	225	229	224	223	223	227	230	228	225	225	225	223	223	223	222	223	226	225	225	226	226	225	228	225	224	221	221	220	221	220	221	221	223	220	219	221	224	226	226	227	227	227	227	224	224	223	224	225	225	223	221	224	223	224	226	225	225	225	225	227	227	226	220	222	222	222	222	221	221	225	224	222	225	224	226	221	219	222	224	224	222	219	223	224	223	222	222	221	222	222	221	218	221	221	221	222	222	222	222	223	224	227	220	221	224	226	225	224	224	225	227	227	226	221	221	223	223	221	220	219	221	221	222	222	223	223	223	222	222	224	226	222	222	223	224	223	220	221	221	221	221	223	223	222	222	224	224	223	221	219	219	218	218	218	223	223	223	223	223	222	221	223	221	223	222	220	220	220	221	222	222	220	219	220	220	222	221	221	221	220	218	217	217	217	219	220	221	220	221	221	221	221	221	222	221	221	219	219	222	222	218	214	213	219	216	220	218	219	220	223	222	221	221	225	220	219	218	219	220	221	221	219	219	218	222	217	220	218	218	215	217	217	218	218	218	220	220	222	223	223	220	221	221	220	219	220	219	219	219	220	219	219	219	219	220	218	217	217	217	218	221	212	214	213	216	216	216	215	217	218	217	216	216	215	215	215	219	215	216	216	214	213	214	214	215	215	215	214	216	215	215	214	213	215	217	217	215	213	212	212	213	213	216	220	217	214	214	214	214	215	213	213	213	215	215	215	217	215	213	215	216	215	213	214	214	214	211	211	211	213	213	214	214	212	211	210	210	208	207	207	207	207	207	208	210	212	211	211	211	215	215	213	211	208	206	0	0	0	0
227	228	226	226	228	227	226	226	222	221	222	222	222	222	223	226	228	228	229	230	231	230	225	223	221	221	224	226	226	227	227	226	227	230	230	227	231	228	230	230	229	229	227	227	227	227	226	225	220	220	221	224	223	223	222	220	220	219	220	223	225	228	230	231	230	230	227	227	225	223	222	224	226	226	226	223	223	222	225	226	226	224	222	223	224	224	225	226	227	227	228	228	226	226	221	220	222	223	223	224	224	224	222	222	222	222	222	223	224	226	226	221	227	228	227	225	227	227	226	224	227	227	227	225	226	230	230	225	225	222	222	225	222	229	226	225	225	224	223	224	225	223	222	222	225	224	221	223	222	222	225	225	226	228	230	230	230	227	225	225	225	227	227	226	226	224	224	224	224	225	225	222	223	222	226	226	226	224	224	226	226	225	225	226	226	226	226	226	227	228	225	224	223	223	223	222	220	220	225	221	221	222	225	226	223	221	220	225	225	228	225	223	222	222	223	223	224	223	223	224	224	224	223	221	223	223	222	222	222	219	222	224	225	222	223	223	224	223	223	225	224	227	231	230	228	228	223	226	228	227	227	225	225	224	224	225	228	227	225	225	224	224	224	223	222	222	224	226	227	225	224	221	222	226	225	223	220	220	221	223	224	224	223	223	222	222	226	226	225	224	224	224	224	223	222	220	222	223	225	224	222	223	223	224	222	221	221	221	221	220	219	219	219	219	219	219	221	221	221	222	227	225	224	225	223	221	221	222	222	220	224	221	222	223	221	219	218	219	222	223	223	223	223	219	219	221	223	222	221	222	222	218	221	221	224	222	222	222	225	225	222	220	218	223	224	223	222	221	220	219	217	217	217	220	222	223	223	223	222	224	224	224	223	220	220	223	220	220	220	224	225	227	225	224	220	221	221	220	218	218	220	222	220	222	218	220	222	221	222	223	225	223	220	220	219	219	222	221	218	220	219	219	219	218	220	222	223	223	219	217	218	217	216	217	220	222	222	222	222	221	220	220	220	221	221	223	220	218	217	219	220	221	220	219	219	222	221	221	220	218	217	217	217	216	217	218	219	220	220	219	219	221	220	221	220	220	220	219	219	218	220	220	213	212	215	220	219	219	218	217	220	219	221	221	219	220	218	217	217	219	219	219	218	217	216	216	219	219	219	218	218	216	216	217	217	216	220	220	220	221	219	219	221	220	219	219	221	220	220	220	220	218	217	218	217	216	215	215	218	218	218	212	213	213	213	214	214	213	215	215	216	216	216	216	216	215	215	215	216	214	215	214	212	213	213	215	214	214	213	214	214	213	213	213	213	216	217	216	214	211	212	212	209	214	214	212	212	210	210	214	215	213	212	210	210	211	213	216	214	214	214	214	215	213	213	212	212	211	211	211	211	213	213	213	212	210	209	208	208	207	207	207	208	207	207	207	212	210	212	211	211	211	214	211	207	205	0	0	0	0
223	225	224	224	226	226	226	222	222	222	222	221	220	220	220	221	225	227	227	229	227	225	223	223	222	222	222	225	226	226	226	226	225	225	227	224	223	225	227	228	225	225	223	222	220	220	220	220	220	221	222	222	222	222	220	219	219	219	220	222	224	226	229	231	226	227	227	227	227	228	227	222	223	224	223	222	223	223	223	226	225	223	223	226	225	226	227	225	224	225	226	226	226	225	224	223	223	222	221	220	221	222	222	222	222	222	221	222	223	225	225	219	220	225	224	224	222	222	222	222	224	224	224	223	226	226	226	225	224	223	223	224	226	227	222	226	226	223	223	222	223	222	220	222	224	225	224	223	222	222	225	225	225	227	228	229	226	225	225	225	226	227	228	228	226	223	222	221	222	222	224	225	222	222	225	225	226	223	223	225	225	225	225	226	226	225	224	226	228	228	226	225	225	225	228	227	225	224	222	222	222	222	224	225	226	225	224	222	227	228	225	222	222	221	222	223	224	225	225	221	221	222	221	222	222	221	221	222	222	223	222	224	221	221	223	224	224	223	223	224	225	223	223	217	221	221	223	228	228	225	223	223	224	224	223	223	221	224	223	222	221	222	222	223	221	222	225	224	223	222	222	218	222	224	224	223	220	219	221	221	222	222	222	221	221	223	223	223	222	222	219	225	223	221	221	222	222	222	220	221	222	222	222	220	222	220	220	220	220	220	220	220	219	217	220	219	220	221	221	221	221	222	225	222	222	222	219	220	219	221	221	223	223	220	221	219	217	219	222	222	220	222	219	219	219	219	220	220	221	223	220	220	217	219	226	225	221	222	221	221	220	218	222	224	224	221	220	219	219	218	217	217	220	221	221	223	224	223	224	223	223	224	222	219	218	219	220	219	219	223	222	222	225	217	219	219	219	219	218	217	220	222	223	223	220	219	221	221	221	224	223	221	219	217	217	218	219	220	218	220	219	219	218	217	219	219	222	219	219	219	218	217	218	218	218	220	221	221	221	221	219	219	219	220	220	222	220	219	215	217	220	221	218	218	218	218	219	220	220	220	217	217	217	216	216	217	219	220	219	218	216	218	220	220	219	219	219	218	218	219	218	214	214	212	215	219	218	219	217	216	215	215	215	214	214	215	217	217	217	216	216	216	215	214	214	216	218	218	219	218	219	216	216	216	216	215	220	220	220	219	217	216	219	219	218	219	218	220	220	218	218	218	215	217	215	213	215	215	215	215	212	213	213	213	214	213	212	212	214	214	214	216	215	212	215	215	215	215	213	214	214	211	212	211	212	213	213	213	211	213	213	213	213	212	213	214	218	215	213	211	212	211	213	213	213	212	210	209	210	210	211	213	209	209	205	207	207	209	213	213	212	210	209	209	211	212	211	211	210	211	212	210	210	212	211	210	209	208	207	207	207	207	207	207	206	205	207	215	209	210	210	214	211	210	205	204	0	0	0	0
219	218	223	222	222	224	224	224	224	222	222	221	220	220	220	220	222	223	223	224	223	223	223	222	224	223	222	223	224	224	224	223	223	223	224	223	222	221	224	224	223	222	222	221	219	219	220	220	221	223	223	222	222	221	219	218	219	219	220	221	223	223	231	228	224	225	225	224	224	224	224	226	222	223	221	220	222	222	222	226	227	225	222	221	227	227	225	224	225	225	225	225	225	225	223	221	221	219	220	219	219	221	222	220	220	221	220	219	220	219	218	218	219	220	223	222	222	221	220	219	219	217	218	222	224	224	225	225	226	224	223	224	223	221	221	225	225	221	222	222	223	223	223	225	226	224	223	223	224	225	225	225	224	226	227	227	223	223	225	225	228	226	225	224	225	223	222	221	221	221	223	224	222	222	222	225	225	223	223	224	224	226	226	226	226	223	222	225	226	225	225	226	225	225	227	226	225	221	222	223	223	222	223	224	225	225	224	222	225	226	224	222	221	220	221	222	223	223	222	220	222	221	223	222	221	221	219	223	223	222	222	222	222	223	223	223	226	224	223	221	223	219	221	216	219	220	220	220	221	221	222	223	224	223	223	224	222	223	222	221	220	221	223	223	223	224	224	225	223	221	218	218	222	223	222	221	221	221	218	218	219	220	221	220	223	223	223	222	220	218	220	219	222	222	221	222	222	219	222	222	220	223	221	217	219	219	219	219	218	218	220	220	218	218	220	221	221	221	220	220	220	220	221	221	221	220	218	218	219	219	219	223	224	222	221	219	220	220	223	221	220	220	220	219	219	220	219	219	219	222	221	220	216	216	217	219	220	222	220	219	218	218	219	220	220	221	220	220	219	218	219	218	219	220	221	223	224	224	222	221	219	220	219	216	216	217	219	219	218	219	222	218	217	217	216	216	218	216	216	217	219	220	220	223	220	218	221	219	218	218	218	220	219	217	216	216	219	221	220	220	220	218	217	216	215	216	215	217	220	220	218	217	218	219	218	220	221	221	220	218	217	219	219	220	220	220	220	218	217	219	220	219	217	217	217	218	218	218	217	219	218	217	215	217	216	217	217	218	220	216	215	215	215	217	217	218	218	217	216	215	214	213	215	214	216	218	218	218	219	218	216	214	214	213	213	212	213	213	216	216	216	216	218	217	217	217	217	217	217	218	219	216	215	216	217	217	217	220	220	218	217	216	218	217	217	216	216	216	218	217	216	216	215	214	212	213	213	214	214	214	214	212	212	211	212	213	212	213	212	213	213	213	214	213	213	213	215	215	214	212	212	214	210	211	211	213	212	212	211	212	213	213	212	211	211	213	213	215	212	211	211	210	209	209	210	208	207	207	210	210	210	210	210	207	205	205	206	212	210	210	209	209	208	207	207	210	210	210	210	210	208	206	207	210	210	209	210	209	206	205	205	205	205	204	204	204	206	206	206	206	207	208	210	208	204	205	0	0	0	0
219	218	220	219	219	222	223	223	223	223	222	221	222	222	220	221	221	222	222	221	221	222	222	223	223	223	222	221	221	221	223	222	222	223	223	222	221	220	220	221	221	221	221	221	218	218	220	222	223	223	223	222	221	219	219	220	217	219	219	219	222	230	223	224	224	220	223	223	223	223	222	222	223	222	220	222	222	222	222	223	224	222	223	222	223	224	225	222	224	224	224	224	222	222	222	220	218	218	223	223	218	218	221	215	219	220	220	218	218	218	218	218	219	223	222	222	221	222	220	218	218	218	218	223	224	223	223	223	227	223	221	221	220	220	220	220	221	219	219	222	223	223	225	224	223	223	225	222	224	223	225	225	223	222	220	221	221	224	225	225	225	225	224	224	225	222	220	220	219	221	223	224	223	222	222	225	225	222	222	222	224	224	224	225	223	221	221	222	223	223	224	224	225	225	227	227	221	221	223	224	224	219	221	220	219	219	220	223	225	226	223	223	220	221	223	222	222	221	221	221	221	221	221	222	221	221	221	219	220	221	220	220	221	223	223	223	222	224	224	220	220	219	219	218	218	219	219	221	222	224	224	223	222	223	221	221	220	221	222	221	220	220	221	221	223	224	224	224	223	221	219	219	220	221	219	217	219	218	219	219	221	219	219	220	217	223	223	221	219	217	218	220	219	218	219	219	218	222	222	220	221	220	219	219	219	218	219	219	218	218	218	217	216	217	218	222	222	221	220	219	218	219	219	220	220	220	217	218	217	218	217	218	218	220	217	216	216	217	220	222	222	220	220	220	220	220	219	219	219	221	219	217	216	216	216	217	219	220	219	219	218	219	218	217	218	220	220	221	221	218	219	219	217	217	218	218	220	220	221	219	217	215	215	215	217	216	218	219	217	217	217	219	218	216	214	213	214	216	216	215	217	219	219	220	219	217	221	217	217	217	217	216	219	219	214	214	220	217	217	218	217	217	215	215	215	214	215	217	220	221	218	217	218	219	220	219	220	220	217	216	215	217	218	219	219	219	216	216	218	218	219	219	214	214	214	216	217	216	218	219	218	217	215	216	217	217	217	218	216	214	214	214	213	214	216	214	215	213	216	216	212	212	214	215	217	217	218	216	218	219	219	217	214	212	212	211	213	214	215	216	216	219	217	219	218	217	217	217	214	211	215	214	212	215	215	218	218	219	214	213	215	215	215	213	213	214	214	214	214	215	215	215	215	214	212	211	212	213	214	215	212	212	211	211	210	212	212	212	211	212	212	212	213	213	213	215	212	210	210	211	212	211	210	208	208	210	210	211	211	212	212	213	211	210	210	211	213	211	210	210	210	209	208	207	207	207	205	205	208	210	209	209	208	206	206	206	209	206	208	209	208	207	207	206	206	206	208	208	207	206	205	205	205	208	208	208	207	208	208	208	205	205	203	203	203	203	204	204	202	202	207	206	207	207	204	204	0	0	0	0
217	218	219	217	217	218	220	220	221	221	222	223	223	221	221	221	221	221	221	221	219	220	224	223	222	221	219	219	218	217	217	219	220	221	221	221	220	220	218	219	221	221	218	218	218	218	220	222	224	223	222	219	218	218	219	220	219	218	218	219	220	220	222	222	222	220	221	221	221	221	218	221	223	222	220	220	221	221	223	223	221	221	219	222	222	224	223	221	221	224	223	222	221	220	220	219	218	219	224	224	219	221	215	219	220	220	219	218	218	218	219	223	221	221	222	221	222	220	219	219	218	218	220	222	222	222	223	222	219	218	218	218	219	220	222	220	219	218	218	220	223	224	223	223	222	222	224	221	223	222	223	223	222	221	218	219	220	223	225	225	223	223	222	222	221	220	217	219	220	223	223	223	223	224	223	225	221	221	220	221	221	218	218	223	222	221	221	220	221	221	221	223	224	224	225	221	218	218	217	222	221	220	219	218	218	218	220	220	223	223	223	219	219	219	222	221	222	222	222	221	221	221	222	221	219	220	216	218	220	218	221	222	222	221	221	221	222	222	222	222	221	219	220	220	220	219	220	223	223	225	222	221	220	220	220	219	219	216	218	218	219	218	219	222	223	223	223	221	221	220	220	219	220	219	219	219	218	218	219	219	220	218	220	217	216	217	219	219	218	218	219	219	219	217	215	215	218	221	222	222	221	219	218	217	219	220	220	220	219	219	219	219	218	217	216	218	219	218	217	217	216	219	218	219	219	219	216	216	216	217	217	216	217	217	217	215	214	218	217	218	221	220	219	219	216	216	215	219	220	220	218	217	217	217	217	217	217	217	217	218	219	219	217	216	217	219	219	219	220	221	218	218	217	219	218	217	216	217	219	216	216	215	215	216	216	217	217	218	216	216	217	217	217	213	211	211	212	215	215	215	215	215	217	216	219	216	218	217	216	216	215	213	220	218	219	217	216	216	217	217	217	216	214	215	214	216	215	218	220	220	218	220	219	219	219	218	217	217	216	214	213	217	218	220	220	219	215	215	215	214	217	218	215	214	215	214	215	213	214	216	215	216	215	216	217	217	216	214	213	214	214	215	215	214	214	213	213	213	216	217	216	217	218	216	216	215	214	216	216	217	217	217	212	210	212	214	215	215	215	214	213	217	217	217	217	217	216	213	210	211	211	214	214	216	217	218	218	218	212	212	212	212	213	213	212	212	213	214	213	213	213	213	214	212	211	210	211	211	211	212	212	211	211	210	210	209	210	210	210	212	211	211	211	208	211	211	210	210	209	208	211	212	210	207	208	207	210	210	210	210	210	212	209	209	210	211	213	211	211	208	206	205	207	206	207	205	205	204	207	208	208	207	206	207	206	207	207	205	206	207	206	206	205	205	205	205	205	205	206	205	205	205	206	207	207	207	206	208	208	206	206	204	203	203	203	203	202	201	201	202	205	207	207	205	205	204	204	0	0	0
218	218	219	217	215	215	217	219	219	219	220	223	223	221	221	220	220	219	217	217	218	220	221	222	218	218	217	216	216	215	215	216	218	220	220	220	220	218	216	218	219	219	218	218	216	216	217	221	222	222	219	219	218	219	219	218	218	219	221	221	221	221	221	220	220	218	218	217	217	217	218	219	221	220	219	218	220	220	221	221	221	220	217	217	217	217	218	221	221	221	221	221	219	218	218	218	217	220	221	221	221	214	212	213	216	220	221	219	218	219	220	223	222	219	219	219	219	219	220	218	219	223	223	222	219	218	218	218	216	217	217	218	217	217	218	219	218	218	219	219	220	221	222	222	220	221	222	220	217	219	220	222	222	222	220	218	217	220	220	223	220	220	219	221	220	217	218	219	220	222	223	224	223	223	219	220	218	218	218	219	217	217	220	222	224	223	222	219	221	220	221	221	223	223	219	219	217	216	218	218	219	218	218	218	218	218	221	217	219	220	220	218	217	218	221	221	221	221	221	220	221	220	221	219	219	218	218	216	218	217	222	222	221	220	219	218	220	220	220	223	223	220	221	220	220	218	219	221	222	221	220	220	218	218	216	217	214	215	217	217	218	217	217	218	220	221	220	221	221	221	220	219	219	219	219	220	219	221	221	220	217	217	217	215	216	218	219	218	218	218	218	220	220	215	213	213	218	220	220	220	220	217	216	216	216	217	218	219	218	219	219	218	218	217	217	215	215	212	215	216	220	219	216	217	216	218	217	217	216	216	216	216	216	217	217	218	216	213	216	218	217	219	215	218	217	217	215	216	219	220	219	217	217	219	216	216	216	218	217	217	217	218	217	216	216	219	218	219	219	220	217	217	219	219	217	216	215	215	215	216	216	216	217	217	216	214	216	217	217	216	214	214	215	213	212	210	214	214	214	214	213	215	212	215	215	215	216	215	216	216	215	215	214	214	214	216	217	217	216	216	217	213	214	215	214	217	218	216	216	217	219	218	217	215	212	213	215	216	216	214	214	215	217	213	214	213	214	215	215	214	215	216	215	215	213	212	214	214	217	214	215	215	215	210	214	215	216	213	213	214	214	215	215	214	213	213	212	214	214	216	217	218	217	215	216	213	212	214	213	211	212	212	215	211	211	214	214	215	215	213	212	213	215	215	216	218	215	213	213	213	211	213	214	218	217	218	218	217	212	209	212	211	213	212	210	213	213	212	212	211	212	213	213	212	212	211	211	211	210	211	211	210	209	210	209	207	210	209	211	212	211	211	208	207	210	212	211	209	208	208	208	209	209	207	208	207	210	209	209	209	208	209	211	209	210	211	212	212	210	206	206	204	204	205	207	205	205	205	208	207	207	206	206	206	208	208	207	206	205	206	205	204	204	204	204	204	204	204	205	204	204	203	205	205	205	205	205	208	208	206	205	205	204	205	204	203	203	203	202	203	204	204	204	204	203	203	203	0	0	0
219	219	219	216	214	214	213	215	217	217	217	221	221	218	217	217	216	216	216	216	216	217	220	219	218	215	214	215	215	215	216	216	217	218	219	218	218	217	215	216	218	215	214	213	213	214	215	216	217	218	219	217	217	217	218	218	218	218	219	219	221	220	220	221	219	216	212	214	214	214	217	217	213	216	215	217	218	219	220	220	220	219	217	216	215	216	218	219	222	220	218	216	216	217	218	216	216	216	220	220	215	212	213	213	215	219	220	218	218	218	219	218	214	217	217	217	217	218	219	218	218	217	219	220	221	221	220	220	218	217	215	215	213	214	215	217	218	218	218	217	218	218	218	219	220	220	219	218	216	218	218	218	221	214	213	216	216	217	218	219	219	218	219	220	219	218	215	218	219	224	224	222	223	223	221	219	217	216	217	216	217	216	220	222	222	220	217	220	219	220	220	221	221	221	217	214	215	216	217	218	218	218	218	218	218	218	218	217	217	218	218	218	218	218	219	219	221	221	219	218	218	220	220	219	219	219	220	216	217	218	218	221	221	219	217	216	216	219	219	222	222	222	222	220	220	219	217	216	216	216	219	217	216	215	215	213	211	212	217	217	216	217	215	217	219	218	220	221	220	220	219	219	218	218	218	220	221	219	220	218	215	213	216	218	217	218	218	218	217	217	218	219	220	218	214	213	215	215	215	216	216	216	215	214	218	220	217	218	219	218	217	218	218	216	215	214	213	212	210	218	215	217	214	215	214	216	216	214	212	212	213	216	216	217	219	219	219	218	217	218	217	216	214	214	216	217	215	219	218	218	220	219	219	219	216	215	216	215	216	216	216	215	216	216	216	217	218	217	219	219	217	217	216	218	214	212	213	213	215	215	215	217	218	217	218	215	214	215	215	216	214	215	215	214	213	212	211	212	211	211	212	209	211	211	216	215	216	215	216	216	216	215	214	214	214	215	217	216	215	216	214	212	213	213	213	216	214	213	215	216	216	217	213	213	211	211	210	213	213	213	213	214	212	211	212	214	212	216	214	215	215	215	214	213	211	210	212	213	218	213	211	208	211	210	212	212	212	213	213	213	213	216	215	213	212	213	212	213	213	213	216	215	212	212	212	211	211	211	209	207	211	210	209	209	210	210	212	212	211	211	209	210	212	212	213	212	213	214	208	212	211	211	213	215	215	214	217	211	211	211	212	213	211	211	210	211	212	211	211	211	210	211	209	211	211	210	211	209	209	207	207	209	208	208	207	207	208	211	211	210	209	208	208	204	205	210	210	211	208	208	207	207	208	207	206	207	208	207	207	207	207	208	208	206	210	210	209	208	205	208	206	205	205	206	204	205	205	206	206	208	207	207	205	204	204	207	206	205	205	205	202	202	202	203	202	202	201	206	206	207	205	205	205	205	203	205	205	205	207	204	204	204	204	203	203	204	204	204	202	202	201	201	202	203	202	202	201	0	0	0
212	212	217	214	211	209	209	210	211	211	211	215	219	218	212	212	214	216	214	216	216	216	216	217	215	216	216	214	213	215	215	215	216	216	217	218	217	215	213	213	213	214	214	212	212	213	216	218	218	217	217	216	216	216	218	216	216	218	219	217	217	219	219	218	217	216	213	213	214	214	214	212	213	215	215	216	217	217	216	217	219	219	214	218	218	217	217	217	217	216	215	216	216	216	216	216	216	216	218	219	214	215	214	215	215	217	217	215	215	216	216	215	217	217	218	218	218	220	219	218	217	216	218	219	220	221	220	219	218	209	212	211	213	214	215	216	216	216	216	217	218	216	217	218	219	219	217	216	215	215	215	215	217	212	212	215	216	217	219	217	217	216	215	217	216	215	215	216	222	223	220	219	219	220	220	220	216	216	215	215	216	214	214	217	218	218	218	216	215	215	215	215	217	219	216	214	213	215	218	218	217	217	218	218	218	216	217	216	216	218	218	218	218	218	219	219	217	217	219	217	218	217	217	219	218	221	218	217	216	216	216	214	214	215	213	214	216	217	219	222	223	223	222	220	217	217	216	216	215	216	215	216	214	215	215	214	212	216	216	217	217	216	215	215	217	217	217	217	216	218	218	218	218	217	215	215	214	217	213	215	215	215	216	218	218	219	219	217	216	216	218	220	220	220	215	212	213	214	215	213	215	215	215	218	220	220	220	219	217	217	218	216	217	215	215	211	211	212	212	213	216	214	213	216	215	215	215	212	215	213	214	216	217	219	219	219	218	218	216	215	216	214	214	215	216	215	215	215	217	216	217	218	217	216	215	214	214	215	217	217	217	215	214	214	214	214	216	218	217	217	216	214	214	213	211	210	209	211	213	215	213	215	216	216	216	215	215	216	215	216	216	216	216	214	213	212	212	212	211	212	212	210	206	207	210	211	209	210	211	215	215	214	214	214	213	214	214	216	216	214	213	213	212	210	211	213	213	213	212	213	216	216	214	214	213	210	210	210	210	212	211	211	213	209	211	212	212	213	215	214	214	214	212	211	209	209	209	210	213	212	210	208	211	211	212	212	212	215	215	214	214	216	215	214	213	212	212	211	208	208	211	207	210	212	212	211	209	210	207	207	208	207	210	211	211	210	210	210	211	211	209	209	209	211	212	212	212	213	207	211	209	211	211	210	209	208	210	211	211	211	210	212	212	211	210	211	212	212	211	210	208	208	208	209	207	208	210	208	205	205	205	205	207	209	209	208	212	211	211	210	209	208	209	205	205	207	208	209	209	208	207	207	206	206	206	207	207	207	206	206	207	208	207	205	206	209	206	207	203	202	205	205	205	207	206	205	205	205	206	206	207	206	204	203	204	204	205	205	204	203	202	202	201	201	201	200	200	201	206	205	204	203	203	203	203	202	202	204	205	205	204	203	202	203	203	202	202	203	201	202	201	201	202	202	201	201	199	0	0	0
209	212	212	214	209	207	207	206	208	212	212	212	212	212	212	213	213	212	214	215	215	215	214	215	215	216	215	215	214	216	216	216	216	214	214	215	215	213	212	213	215	214	215	214	214	214	216	217	217	216	216	217	217	216	215	214	214	213	214	217	218	218	217	215	213	212	213	213	213	212	212	212	212	214	214	215	215	213	213	215	217	214	214	218	217	216	217	217	217	214	214	214	213	215	216	216	215	214	214	215	213	214	215	214	215	215	213	214	214	215	215	215	217	218	217	216	215	218	221	219	217	215	216	219	217	214	216	216	215	209	209	212	210	213	213	213	214	216	215	216	216	216	216	217	217	216	214	214	214	215	215	215	214	215	217	218	219	219	218	215	213	214	213	213	214	214	215	215	216	221	219	217	217	217	217	217	217	216	215	214	215	211	215	216	215	217	216	215	215	214	215	216	217	215	215	216	217	220	219	217	218	218	217	218	218	215	215	216	216	218	218	217	217	217	219	218	218	215	213	213	214	215	214	215	216	219	219	213	214	216	215	213	213	214	213	214	215	216	217	218	223	220	219	215	215	215	214	214	214	214	215	215	215	214	215	214	216	216	216	216	215	216	216	215	216	216	215	216	213	213	214	215	214	214	214	211	213	212	212	211	212	213	215	211	218	217	218	216	216	217	218	219	219	220	219	215	213	214	214	214	211	215	218	218	219	220	219	214	214	215	215	217	217	218	216	211	211	212	213	215	212	213	212	212	213	214	212	211	214	213	213	215	216	218	218	215	215	215	216	213	214	214	214	216	217	215	215	215	215	215	217	216	216	216	215	214	214	213	214	217	216	215	213	214	213	213	214	213	216	215	215	214	214	212	211	211	211	211	213	213	213	212	215	215	215	214	214	215	215	213	215	216	214	214	212	210	212	213	213	213	212	208	209	209	211	211	209	210	212	212	213	213	212	212	214	211	211	213	213	213	213	212	211	212	212	215	209	210	211	212	215	213	212	213	213	211	211	210	210	211	211	210	210	209	209	209	208	213	215	214	214	212	211	211	209	209	212	210	211	210	208	211	213	213	212	212	212	213	214	212	210	208	209	209	213	211	212	211	209	209	208	206	206	208	211	208	208	208	206	206	206	207	210	211	210	209	207	208	208	208	208	210	209	210	212	209	207	206	207	208	205	204	206	208	208	208	208	209	210	209	206	210	209	211	209	210	211	211	211	208	208	207	207	206	206	207	210	212	205	204	203	204	209	210	210	210	210	211	210	209	209	209	208	209	206	208	202	208	206	207	206	206	204	205	205	207	207	206	206	206	206	206	204	203	204	207	207	203	202	202	201	204	205	207	205	205	205	205	204	206	206	207	203	204	204	203	203	203	203	203	201	201	200	200	201	200	200	200	203	203	203	203	203	202	202	201	201	202	203	203	204	204	204	204	202	201	201	201	202	202	200	199	199	200	200	200	203	0	0	0
209	212	212	212	208	207	205	205	208	211	210	210	209	209	213	211	211	213	215	214	215	215	214	215	215	215	214	214	215	216	216	213	213	212	213	212	212	212	213	214	216	214	215	215	214	214	215	217	217	217	216	217	215	215	214	213	213	213	214	217	218	218	216	215	213	212	213	212	211	212	210	210	210	210	211	212	213	212	212	213	212	213	218	214	214	214	213	213	212	212	213	213	214	215	213	212	211	212	208	208	212	214	215	216	214	212	210	215	213	216	215	215	217	217	215	216	216	215	215	214	218	216	217	216	217	213	212	209	206	207	209	208	209	214	215	214	215	215	215	215	216	217	217	217	217	217	215	214	214	215	215	215	214	212	214	215	216	216	215	213	212	211	212	212	211	213	214	214	213	215	214	214	215	216	216	217	215	216	213	212	213	212	213	213	216	216	214	212	212	214	211	212	211	213	214	215	216	217	216	213	212	211	211	213	214	214	214	211	213	215	215	214	213	216	218	219	215	210	211	213	214	214	214	214	215	219	215	213	213	213	214	213	213	212	212	211	214	216	216	216	218	219	216	215	214	215	213	213	212	213	213	213	212	211	213	213	215	215	215	216	216	216	216	216	215	214	213	212	211	211	214	214	214	214	212	211	211	212	210	211	211	211	210	216	214	214	217	217	215	214	214	214	215	215	218	217	213	212	212	214	212	215	214	218	218	218	215	213	214	214	215	217	218	210	218	215	212	213	213	212	213	214	216	216	214	214	215	211	211	213	213	213	215	214	215	215	215	215	212	213	214	213	215	215	214	215	214	214	214	214	215	215	215	214	214	215	214	213	213	211	216	214	213	214	214	213	213	214	213	214	213	213	213	213	213	212	212	211	213	213	213	213	214	215	215	216	215	216	214	213	209	209	213	211	207	209	211	213	213	215	213	209	208	213	213	210	211	211	213	212	212	212	212	214	212	212	211	210	213	211	212	212	211	212	214	215	212	209	210	212	212	210	210	210	210	211	211	210	210	209	210	208	209	205	207	209	209	210	215	212	210	210	209	210	208	208	211	208	208	208	211	210	210	213	211	209	211	211	211	209	209	208	208	209	211	210	208	209	210	208	208	205	206	206	208	206	206	206	205	206	207	208	210	210	210	207	206	205	207	208	208	208	209	209	209	208	208	208	208	208	205	204	204	203	206	204	204	207	205	205	205	206	207	207	210	210	211	210	207	207	207	206	205	206	203	205	208	211	206	204	203	205	208	209	210	209	208	207	208	208	208	209	208	206	204	203	204	201	204	203	204	206	204	204	206	203	206	205	205	205	204	203	202	202	204	206	207	206	202	202	201	203	204	206	205	205	204	203	202	204	205	202	203	203	203	203	202	203	201	201	203	202	201	201	201	200	200	199	203	202	202	201	202	201	201	201	201	202	202	202	201	202	202	202	200	200	200	201	202	201	203	201	199	199	199	202	202	0	0	0
209	210	211	211	208	207	207	207	208	208	208	207	207	208	212	211	212	213	214	214	212	213	213	215	216	216	214	214	215	214	213	212	212	212	213	212	214	214	214	215	216	215	213	209	210	212	212	211	216	217	217	217	210	210	210	211	211	210	214	215	217	217	217	217	214	213	213	211	211	211	210	210	209	209	207	207	207	210	210	211	212	213	214	212	213	212	212	211	215	214	213	212	213	214	214	213	211	211	209	209	212	215	215	210	211	210	210	212	216	215	214	213	215	213	213	214	214	213	214	217	215	214	214	214	211	212	213	208	212	212	209	207	208	209	214	214	214	213	214	213	214	216	216	217	217	217	217	212	213	212	213	213	213	213	213	213	214	216	215	213	213	210	210	210	213	212	213	213	214	211	211	213	212	215	215	215	215	212	212	212	213	212	213	214	215	215	214	211	211	213	211	212	212	212	214	214	215	214	212	212	210	210	211	212	212	212	212	213	214	215	213	212	209	210	210	210	210	213	213	212	214	214	214	214	214	214	215	212	210	210	212	213	212	214	214	215	212	215	214	214	214	211	212	213	213	212	213	213	213	212	212	213	210	209	211	213	214	215	215	215	215	216	217	216	214	211	211	211	213	213	213	213	215	214	211	210	211	212	213	214	214	214	212	211	211	213	214	212	211	212	212	212	214	215	211	210	211	211	213	214	214	214	214	215	214	214	213	212	211	212	211	213	215	211	211	211	212	213	212	209	210	214	214	213	211	211	213	211	211	213	211	213	212	215	215	215	215	215	211	215	212	213	216	215	214	214	214	214	213	213	213	212	213	213	214	216	217	213	213	212	211	211	213	213	215	215	215	214	213	212	213	212	212	212	213	212	210	208	210	212	211	213	215	215	215	215	216	216	212	209	209	211	210	208	209	208	210	213	214	215	215	212	210	210	214	212	210	213	212	212	212	213	212	214	213	212	209	209	210	211	211	212	210	212	214	213	212	209	211	212	212	210	209	209	210	209	210	210	210	208	209	207	208	206	206	209	210	213	215	212	210	210	210	210	208	207	207	207	207	206	208	208	208	208	206	206	210	210	207	208	209	208	207	207	209	206	206	208	207	207	204	206	206	206	205	205	206	205	205	205	206	207	208	208	208	207	206	204	206	208	208	207	207	207	207	207	207	209	208	207	208	205	205	202	202	204	203	203	203	207	204	205	207	207	207	207	209	205	205	204	205	204	204	202	203	206	208	209	207	205	204	205	207	208	207	207	203	204	207	208	209	204	205	205	202	202	201	201	201	202	204	204	206	205	204	203	203	202	203	203	203	202	201	201	204	204	203	206	201	201	200	202	202	203	203	202	203	200	200	201	201	203	203	201	203	203	202	201	201	202	202	201	201	200	201	201	201	200	199	199	197	197	198	200	200	200	200	200	200	199	200	201	202	201	202	201	202	201	199	198	199	199	198	198	200	198	198	0	0	0
208	208	211	211	209	207	209	209	206	207	207	204	204	207	213	212	215	215	214	213	212	212	212	214	212	212	214	215	213	210	212	212	212	212	211	214	215	216	215	216	212	214	212	210	210	210	210	210	211	210	209	211	210	207	207	209	209	208	209	213	214	213	213	214	214	213	211	209	210	210	209	208	208	208	207	206	207	208	210	210	210	211	212	211	211	211	210	210	211	215	215	214	214	215	215	214	210	208	207	209	209	215	210	212	211	211	210	212	213	214	213	210	209	211	211	211	211	212	214	213	213	216	213	213	211	212	213	211	212	212	209	209	207	208	208	210	211	210	212	212	212	210	210	211	213	217	216	211	212	213	217	212	211	210	210	212	214	214	215	213	209	208	210	210	211	211	210	211	212	209	209	210	210	212	214	215	217	212	209	209	211	212	213	214	210	209	208	209	209	209	211	212	211	214	212	208	209	213	213	210	210	210	208	210	213	213	214	213	214	214	211	210	209	208	210	209	210	211	214	214	214	214	214	213	212	213	214	210	208	210	209	212	214	213	214	214	215	214	214	212	212	212	211	213	212	212	212	212	212	212	212	212	212	212	211	212	212	212	210	210	214	214	214	216	214	212	212	211	211	212	216	216	211	209	208	209	210	210	211	212	213	212	212	213	211	212	212	212	211	212	212	212	214	215	212	213	211	212	214	213	213	212	212	211	214	214	212	211	209	210	210	212	210	209	210	211	210	212	212	209	208	208	211	213	213	213	211	211	213	213	212	211	214	216	217	217	216	211	211	211	211	212	212	211	212	212	214	213	213	212	212	212	213	212	214	215	212	213	213	212	212	213	214	213	212	213	213	214	213	212	212	212	211	210	211	211	210	211	210	212	211	211	211	214	214	214	215	214	211	212	210	212	210	209	214	211	209	212	214	214	212	210	209	211	212	212	211	210	213	214	213	213	213	214	212	212	209	210	207	207	208	208	210	210	210	211	211	211	212	212	211	208	208	209	209	209	210	210	208	207	207	206	205	208	207	208	211	209	209	207	206	207	208	208	208	208	210	208	208	207	208	207	208	206	206	205	207	206	205	205	207	206	206	205	206	204	206	207	207	207	205	204	205	206	204	204	205	203	203	204	205	206	207	206	207	206	207	207	208	209	207	207	205	204	204	206	207	208	208	207	205	204	206	202	200	202	203	203	207	207	206	204	205	206	206	206	203	202	204	204	204	203	203	204	204	206	207	208	207	205	205	204	206	205	205	204	203	203	207	209	204	203	202	203	200	201	199	198	201	201	200	203	204	202	201	202	203	201	201	202	202	202	202	202	202	202	202	201	202	201	199	199	199	199	200	200	198	199	200	200	200	202	201	201	202	204	204	201	201	201	200	200	200	200	200	202	201	200	198	198	197	197	198	199	199	199	199	198	198	197	198	199	201	201	201	199	199	199	197	197	195	196	196	196	198	197	196	0	0	0
207	208	211	211	211	210	209	205	205	205	205	204	204	204	207	212	215	206	212	213	214	213	214	214	214	213	212	213	207	206	207	210	211	209	209	211	213	214	214	212	210	212	212	210	210	211	210	210	211	209	211	208	205	206	207	207	207	207	208	208	213	212	211	211	211	211	209	208	207	209	208	207	207	207	207	207	207	208	209	208	208	208	209	208	209	209	209	210	210	209	214	212	210	211	215	213	210	209	208	208	210	210	210	210	211	211	211	211	213	214	211	208	208	208	209	209	209	209	211	212	212	212	212	211	211	210	211	208	208	207	208	208	209	209	209	211	210	209	211	210	210	209	210	211	210	212	211	210	212	213	216	212	210	210	210	209	209	214	214	214	209	207	210	211	212	211	211	211	210	209	210	209	210	211	213	214	213	211	210	209	209	210	212	210	210	210	208	209	209	209	211	211	212	211	212	209	210	212	212	210	210	208	209	208	210	211	213	212	212	211	211	212	211	210	210	211	209	211	213	217	216	215	214	211	212	212	214	211	208	206	211	210	213	213	214	215	215	215	213	210	209	209	211	212	212	211	212	212	210	209	211	212	213	212	212	212	210	210	210	210	210	213	212	211	212	213	213	212	211	211	213	214	214	207	210	207	210	210	211	212	213	214	213	212	210	210	210	210	213	210	209	210	211	214	212	211	211	212	212	212	211	213	211	210	210	209	211	210	209	209	210	211	209	208	207	210	208	209	209	209	208	208	207	208	208	209	211	210	209	208	208	211	211	215	214	211	212	212	210	210	211	212	212	208	209	209	211	211	211	211	211	210	209	210	213	210	210	213	212	212	214	214	211	211	210	210	213	211	210	211	212	212	211	209	209	210	213	212	209	211	211	210	210	211	210	214	213	210	211	211	210	210	214	213	212	211	210	207	208	208	209	209	208	209	212	212	210	211	212	216	214	213	213	213	213	214	212	209	208	207	206	207	208	209	209	210	210	210	211	213	211	208	208	208	209	209	208	207	207	205	207	207	208	207	207	208	208	206	207	208	207	209	207	206	206	205	213	211	211	206	204	204	205	205	206	205	206	206	206	206	203	205	205	203	205	205	206	206	207	207	205	205	204	204	203	202	204	204	203	204	204	205	205	201	202	204	206	207	208	208	208	206	204	203	204	206	207	207	205	204	204	203	204	201	200	201	203	207	207	207	203	203	204	207	207	206	206	205	203	201	205	204	204	203	205	205	206	206	205	205	204	201	204	205	203	202	201	204	205	208	203	203	203	205	201	201	198	200	200	199	200	200	201	202	202	204	203	202	200	200	200	200	202	202	201	199	200	200	200	202	202	200	200	197	198	198	197	198	199	200	201	202	200	200	200	203	203	201	200	198	198	196	196	199	200	200	200	200	197	197	196	198	198	198	198	198	196	196	196	197	197	198	199	201	199	197	196	196	197	194	195	192	192	194	193	196	196	0	0	0
206	207	210	210	210	210	209	205	205	203	203	203	202	202	203	206	206	207	207	211	212	213	214	214	211	209	209	207	207	205	206	207	208	208	208	209	210	211	211	210	212	207	210	210	210	211	210	211	211	210	209	207	205	205	206	206	207	208	208	207	210	210	210	209	209	208	206	208	206	207	206	206	206	207	207	207	207	207	207	208	205	207	208	208	207	208	208	209	207	209	207	207	207	207	211	214	214	214	214	211	210	210	210	210	210	212	212	211	212	213	213	207	206	208	208	207	207	206	207	208	212	207	207	208	210	211	211	207	207	207	207	208	208	209	209	207	209	211	211	208	208	209	211	211	211	208	206	209	211	213	212	210	210	210	209	209	210	211	209	211	210	211	213	213	212	212	211	210	209	209	210	211	210	210	209	213	212	209	208	208	208	208	209	209	210	210	209	211	210	210	212	212	211	209	210	210	211	210	211	212	211	210	209	208	208	211	212	211	211	212	211	212	211	210	210	206	207	206	205	209	211	213	206	210	212	213	215	211	209	207	209	213	213	213	214	215	214	215	211	207	208	208	208	211	212	212	211	211	210	209	210	213	214	214	215	210	210	210	210	210	210	210	209	210	210	211	213	211	209	210	211	211	209	207	207	209	209	210	210	210	211	211	211	207	211	208	208	208	206	210	207	208	210	214	211	211	213	211	211	210	211	211	210	209	209	209	210	211	209	209	208	207	207	207	207	208	207	206	209	208	208	209	210	208	208	210	210	209	209	207	208	208	209	210	210	210	210	211	210	209	208	208	206	208	207	207	209	209	207	207	207	206	208	207	209	212	210	210	211	211	209	210	207	208	209	208	208	208	209	210	210	210	210	209	207	208	209	207	208	208	208	208	208	209	209	210	210	209	209	208	210	207	208	209	212	211	211	206	205	206	207	207	207	209	210	210	209	209	212	213	213	211	212	212	213	214	210	207	208	207	206	207	208	208	210	211	209	206	210	212	212	207	208	208	208	208	207	206	207	204	207	207	205	203	204	204	206	207	208	208	207	208	207	206	205	210	209	208	209	205	203	203	205	205	205	206	206	206	205	204	202	205	205	205	205	206	204	207	207	208	205	203	203	202	201	202	204	204	205	204	204	204	202	203	203	204	208	206	206	206	204	204	207	202	204	203	202	206	205	206	202	202	203	206	201	201	201	204	207	203	205	203	203	206	206	206	206	205	200	202	202	204	203	203	204	204	204	203	203	200	198	198	200	204	203	199	197	199	203	203	199	201	202	204	204	203	200	200	199	198	198	200	201	201	201	201	203	202	201	200	200	200	201	202	199	199	198	200	202	200	198	198	200	200	197	196	195	197	197	198	198	198	198	199	200	201	201	200	198	198	196	195	197	197	197	197	196	197	196	197	197	198	198	196	194	196	194	195	195	196	197	198	198	199	198	197	195	195	195	193	194	194	192	192	192	196	196	0	0	0
206	206	208	209	209	208	206	205	202	202	203	202	201	201	202	203	203	207	205	207	208	209	211	211	212	210	208	206	205	203	205	205	206	206	206	206	208	210	207	210	207	206	210	210	210	211	211	209	209	212	211	208	205	205	209	209	209	208	207	206	208	209	207	208	208	207	205	206	205	207	209	208	207	207	207	206	206	210	209	205	207	207	207	207	205	207	207	207	206	208	206	206	205	205	207	208	211	212	213	211	210	210	208	208	208	212	212	211	211	212	212	207	206	207	206	205	206	206	206	206	208	207	207	210	212	208	206	207	206	201	203	209	208	207	207	207	211	212	211	209	209	207	205	203	205	204	208	207	211	212	209	209	210	209	210	207	207	207	208	208	210	210	211	212	212	212	211	211	209	209	209	208	208	209	210	210	211	211	209	208	208	208	208	206	210	208	207	204	206	209	210	210	208	208	210	209	210	211	210	211	211	211	210	210	210	210	211	211	208	209	211	209	205	206	206	206	205	204	204	206	203	205	208	210	211	212	213	215	209	206	206	209	212	209	210	213	213	208	206	208	208	208	209	213	213	212	211	209	209	209	210	210	212	213	211	209	210	208	207	209	209	209	208	209	209	210	210	210	208	210	211	210	209	207	208	210	210	209	207	207	208	210	211	210	207	209	208	208	204	204	204	205	207	210	211	212	213	212	210	210	208	213	212	210	208	209	209	209	208	205	205	207	207	211	210	208	208	207	206	206	208	208	210	210	210	208	208	210	207	205	207	208	208	211	209	209	209	209	209	207	208	208	207	207	207	207	208	204	205	205	205	204	203	206	206	209	209	208	207	206	206	205	206	206	207	206	208	208	207	206	204	204	206	206	208	207	206	206	206	207	207	206	207	208	209	210	208	205	205	208	210	210	208	208	209	209	210	206	205	205	206	206	207	209	209	209	208	208	210	213	211	211	212	211	211	210	209	207	207	205	206	207	208	209	209	209	208	207	206	207	208	208	206	206	206	208	209	207	208	208	208	206	204	203	204	207	208	209	205	206	208	207	207	205	203	206	208	208	207	204	203	204	205	206	205	204	204	204	205	205	204	205	205	204	204	204	204	207	204	208	204	203	203	202	202	202	203	204	205	204	204	205	204	204	206	200	206	206	205	204	204	202	203	201	200	202	202	205	204	200	202	202	202	202	199	199	200	203	203	203	205	203	203	203	203	203	204	203	200	200	202	203	202	203	202	198	200	200	200	199	196	197	198	198	201	195	195	196	200	203	199	200	199	200	203	204	198	198	198	197	198	200	203	202	200	201	200	202	201	201	200	201	202	202	200	199	198	199	200	200	199	201	201	200	196	196	195	194	197	197	197	196	197	199	199	199	199	199	199	198	196	195	194	195	194	197	195	197	196	197	198	198	197	195	195	192	191	193	195	196	197	198	198	198	198	197	196	195	195	193	192	192	193	191	193	195	195	0	0	0
204	202	203	206	204	204	204	205	203	203	202	201	201	201	201	200	202	205	207	204	204	203	201	203	203	204	206	206	203	203	202	203	205	205	208	208	209	210	210	206	206	210	204	205	207	209	210	209	208	208	209	208	208	208	210	210	210	209	207	205	205	205	205	204	205	205	205	205	204	207	208	208	207	206	207	207	209	205	205	206	206	207	206	206	205	204	204	204	205	206	206	208	205	204	205	208	209	211	213	210	210	210	207	208	207	207	206	208	209	211	207	205	205	205	205	204	204	207	205	206	207	207	208	210	206	209	206	206	208	207	205	205	204	206	208	208	209	211	211	208	209	206	205	205	203	204	206	207	205	205	208	209	209	208	209	206	206	207	206	207	206	207	210	210	210	211	211	207	205	205	207	207	207	208	211	210	209	208	207	208	207	207	208	207	206	207	206	205	206	206	209	209	207	209	210	211	209	208	208	210	211	210	210	210	210	210	211	206	206	207	209	208	207	208	206	206	206	204	205	205	203	204	206	210	210	208	214	210	208	207	207	207	206	208	207	207	207	204	206	207	208	209	210	213	213	211	210	210	209	209	209	210	211	213	209	209	209	209	209	210	208	209	209	207	208	207	209	210	210	210	210	209	207	204	207	209	210	207	207	207	208	210	210	210	209	208	208	205	204	204	204	205	206	208	210	210	210	211	210	210	210	208	209	206	206	205	205	204	203	204	205	204	206	207	210	208	208	207	205	208	206	206	209	211	208	207	207	207	207	205	207	208	210	210	209	208	207	209	208	207	209	207	207	206	207	207	207	208	205	204	203	200	202	205	205	208	206	207	206	206	207	208	206	205	205	206	205	209	210	207	205	204	204	206	205	205	204	203	205	206	205	205	207	208	210	208	206	205	205	208	208	207	208	206	207	207	207	206	205	205	205	205	206	209	205	207	203	204	207	207	208	208	210	210	210	208	207	206	205	206	206	209	211	210	207	208	207	205	206	208	209	209	207	207	206	206	209	210	209	209	209	208	205	203	204	206	207	208	207	207	206	207	206	203	203	205	206	205	206	203	203	202	202	202	203	203	204	205	205	205	206	206	204	205	203	202	202	203	204	204	201	202	204	203	203	203	203	205	204	204	207	205	205	207	205	205	202	206	206	207	203	202	203	201	200	200	202	204	200	202	202	201	202	199	202	200	199	201	202	203	203	200	202	203	203	203	202	202	200	199	202	202	199	201	201	203	202	203	200	200	198	197	198	198	197	195	195	195	196	198	201	199	199	198	198	198	199	198	197	197	198	201	200	202	201	197	197	200	200	200	201	200	201	203	200	199	198	199	199	199	198	200	201	200	197	196	195	194	193	196	196	196	196	195	195	195	198	198	198	198	196	195	196	194	196	192	189	194	196	197	198	198	196	194	194	195	191	192	195	196	196	196	198	198	197	194	193	194	195	194	194	193	193	192	193	195	194	0	0	0
200	200	200	199	201	201	202	202	203	203	203	202	201	201	201	201	202	204	204	202	202	202	200	202	202	203	205	204	202	202	199	197	202	204	206	208	208	208	208	207	206	204	204	204	205	208	209	208	207	207	208	207	207	209	210	211	211	211	208	205	204	203	203	203	204	203	203	203	204	201	206	206	206	205	205	205	205	205	205	205	206	206	207	205	203	202	204	204	204	206	207	208	208	207	206	208	209	207	206	205	205	207	207	204	204	205	205	210	208	208	208	205	204	205	204	204	202	202	203	203	205	206	204	204	204	203	205	207	207	206	205	205	203	206	208	208	205	203	203	203	203	205	205	205	204	205	207	205	204	203	202	203	205	207	207	207	204	205	207	208	207	206	206	208	208	205	205	203	204	205	208	205	205	205	208	209	208	207	207	206	206	208	210	208	205	206	205	204	204	206	206	209	209	208	208	209	209	207	208	209	211	209	209	208	207	207	207	206	206	207	209	209	208	208	208	209	208	207	205	205	206	206	207	209	208	211	212	208	205	205	204	204	203	203	207	208	207	208	207	208	211	211	211	210	208	210	210	210	210	208	209	209	210	208	209	209	210	207	206	209	207	205	207	204	206	206	207	208	209	209	208	207	205	205	206	207	207	209	208	209	210	209	210	210	209	208	205	207	206	206	205	205	203	204	206	208	209	207	207	209	209	208	208	206	206	205	204	205	203	203	203	205	205	206	206	208	205	205	205	206	205	205	207	210	207	207	206	207	206	205	205	208	209	209	208	207	207	207	207	206	207	207	207	206	207	207	208	207	205	202	201	201	204	207	204	204	204	205	205	205	206	207	205	205	205	205	205	203	204	205	204	204	204	204	204	204	203	204	205	204	204	205	206	208	209	207	206	205	207	206	207	207	203	204	204	205	205	205	205	205	205	204	205	204	205	202	202	202	204	204	203	206	207	207	208	205	206	205	206	206	205	209	210	209	206	204	202	205	207	208	204	205	207	205	206	206	207	207	209	208	206	206	207	206	205	204	205	206	208	207	206	206	203	203	203	203	204	205	204	203	203	201	200	201	202	201	204	204	204	204	205	202	204	204	203	200	200	202	201	203	203	204	204	204	205	204	202	202	202	204	204	206	206	207	202	206	203	205	205	207	208	208	205	202	201	201	201	205	204	202	201	200	202	200	198	200	201	201	201	202	200	200	200	200	199	201	201	201	200	199	199	198	199	201	202	201	202	204	201	199	200	196	197	197	198	198	196	196	196	198	199	199	196	197	198	198	196	197	195	195	195	198	198	198	197	196	198	198	198	200	200	200	199	201	198	195	195	195	197	197	197	198	199	198	197	197	194	193	193	195	195	196	195	195	194	190	190	190	198	201	196	195	198	197	193	190	189	192	193	197	197	198	193	193	193	195	190	189	191	194	194	196	197	197	196	195	194	193	194	194	195	193	195	193	192	193	192	192	0	0
198	198	198	199	199	200	200	201	201	202	202	203	201	200	201	201	202	202	202	202	201	199	201	201	203	203	203	204	203	199	199	199	199	201	204	203	203	203	205	205	205	204	204	201	202	203	205	207	206	205	205	206	206	207	210	206	206	207	207	206	205	204	204	203	201	203	203	200	200	205	206	203	203	204	204	204	204	204	204	202	201	202	203	203	203	201	203	205	206	206	207	207	208	207	206	207	207	207	206	204	205	205	207	204	204	204	204	204	205	206	206	206	206	205	204	202	205	202	203	202	204	203	204	204	203	202	205	205	206	206	205	206	208	209	207	204	204	203	203	203	203	203	204	205	204	205	207	205	207	207	205	206	202	204	203	202	203	204	205	205	206	207	207	207	207	207	204	205	208	207	206	205	205	205	207	208	208	210	208	207	208	209	209	206	205	204	205	203	203	205	204	204	206	208	207	207	207	207	204	207	208	207	206	207	207	208	206	206	205	207	208	205	205	207	208	208	208	207	208	206	207	207	208	208	209	210	210	209	205	206	205	202	203	204	207	208	208	208	208	207	208	208	209	210	208	209	208	209	206	205	209	206	207	208	207	208	208	209	207	207	208	205	202	202	202	203	206	207	208	208	207	205	205	207	204	205	206	208	209	208	209	208	205	206	207	207	206	208	207	207	206	204	203	204	204	204	203	204	207	207	209	208	206	207	206	207	205	205	204	203	204	206	205	206	205	206	205	208	208	207	207	206	206	209	206	206	203	203	204	204	205	206	207	208	206	207	207	205	205	205	206	206	205	206	206	207	207	207	204	203	203	204	205	204	204	205	204	204	205	203	204	204	204	204	205	205	204	204	204	204	204	204	205	204	203	203	203	205	204	203	204	204	205	207	206	206	204	204	204	206	206	205	203	202	203	203	202	203	205	205	206	204	204	203	202	204	202	202	203	206	203	203	205	206	206	204	204	206	206	206	203	203	202	200	199	199	200	200	203	203	205	206	203	204	207	207	207	207	208	208	206	206	204	203	203	204	204	204	205	206	205	203	202	204	203	203	203	203	203	203	202	202	201	200	200	201	202	203	203	202	202	201	202	202	201	201	201	201	201	202	204	202	202	203	204	204	202	201	200	201	203	204	204	203	203	202	203	202	203	203	204	203	206	205	204	203	201	201	204	202	200	199	199	199	198	201	201	200	197	199	197	196	195	199	198	200	200	199	199	195	195	198	199	200	201	202	200	200	202	202	201	197	197	199	199	199	197	196	196	198	198	197	195	195	195	195	196	196	197	197	197	196	196	198	194	194	194	197	197	196	196	198	198	200	198	195	195	194	194	194	194	195	196	197	196	196	196	194	193	195	195	193	196	194	193	192	192	193	192	197	197	195	196	197	195	192	188	190	191	191	192	198	197	192	192	190	189	191	188	190	190	195	194	196	196	195	194	191	193	193	192	194	193	188	189	192	192	192	0	0
198	198	198	199	201	200	200	201	201	202	202	202	201	196	196	196	199	200	200	201	198	199	201	202	202	202	203	203	203	199	199	199	201	203	205	205	203	203	201	204	205	202	201	200	199	198	198	201	202	203	203	205	205	205	205	206	201	200	200	202	204	205	204	205	205	204	201	201	200	205	206	203	202	202	202	204	204	204	203	201	200	201	203	202	202	199	199	202	204	202	202	207	208	207	206	203	203	203	203	199	200	202	204	203	202	202	203	203	203	204	201	205	203	205	205	205	202	202	201	201	202	201	202	203	206	205	204	204	205	205	206	203	204	209	206	203	202	202	203	204	205	205	205	205	205	207	206	207	206	206	204	204	202	204	205	205	205	205	205	205	206	206	205	207	206	206	205	208	208	207	206	204	204	204	204	203	203	205	205	206	206	204	205	205	205	204	200	203	203	204	203	202	206	207	207	206	205	205	206	206	206	207	207	207	206	207	206	205	205	206	207	205	205	207	206	206	206	206	206	207	207	206	206	208	207	209	206	206	207	206	206	206	206	203	206	207	208	208	205	206	208	209	210	209	208	207	207	206	205	205	205	207	207	206	205	204	203	203	203	205	204	202	202	202	201	202	205	207	208	206	205	204	205	205	204	203	205	205	205	206	207	206	205	205	207	207	206	204	205	207	207	204	204	204	204	204	203	203	207	207	208	204	206	206	205	205	207	206	205	205	206	208	206	205	205	206	206	206	207	207	206	208	208	210	209	206	203	203	204	204	205	206	205	207	205	207	207	205	204	204	203	206	206	205	205	206	207	206	204	203	203	201	204	204	204	204	204	203	202	204	203	203	202	205	203	205	205	203	205	203	204	204	202	204	204	203	203	204	203	203	203	203	203	204	204	203	203	203	204	205	206	205	203	203	203	202	202	202	205	204	206	205	203	205	204	204	204	202	202	205	204	204	207	206	205	205	204	209	208	207	202	203	202	202	199	199	201	200	198	199	198	199	198	199	206	208	208	204	203	201	201	203	205	205	203	202	202	202	202	204	205	202	202	202	203	205	203	202	203	204	202	202	202	201	200	201	201	202	201	201	201	199	199	200	202	201	200	203	204	204	201	200	205	200	202	204	203	200	200	200	202	203	202	202	202	202	200	201	201	202	201	201	200	199	199	200	201	202	202	201	200	199	199	199	199	201	201	201	198	197	196	195	194	197	198	199	198	196	197	194	194	195	198	201	201	200	199	201	201	201	197	197	196	197	200	200	199	198	196	196	195	195	196	196	195	195	198	198	196	196	197	195	194	194	195	193	194	195	195	195	193	193	194	194	194	195	195	195	193	194	194	194	196	197	197	196	197	197	194	194	193	195	192	192	192	192	191	190	191	192	194	194	192	191	192	191	189	189	189	190	192	193	195	193	192	189	188	188	189	189	189	194	194	193	194	193	193	193	193	193	192	193	189	187	189	189	189	190	0	0
