304	306	306	305	303	303	304	304	304	305	305	310	311	309	309	309	301	299	298	299	303	306	306	300	301	299	300	301	301	301	299	301	305	307	308	308	309	309	309	308	309	310	309	304	304	307	307	305	305	305	307	307	306	303	303	304	304	304	305	305	307	308	310	309	307	308	308	308	308	308	311	311	312	313	313	307	301	301	303	306	307	303	302	301	302	299	305	305	308	308	306	305	306	308	310	309	311	311	311	310	309	310	312	314	313	308	306	309	309	308	306	303	300	300	302	303	305	309	308	308	308	310	309	307	306	307	307	309	307	306	304	304	305	310	313	314	314	318	320	318	316	312	312	309	307	308	308	306	306	306	307	308	306	305	304	304	304	307	308	311	306	304	305	306	308	312	314	311	310	306	305	305	307	304	304	303	299	297	299	298	299	300	301	301	303	303	304	307	307	308	308	308	308	307	306	303	305	305	305	304	303	301	301	302	307	315	313	309	307	305	305	305	301	301	303	305	305	306	305	303	306	306	305	306	305	306	305	304	303	301	300	305	306	305	304	303	301	308	309	310	308	305	306	307	307	307	308	307	306	305	303	301	301	300	300	300	300	302	305	305	308	305	302	301	306	301	303	303	304	305	306	303	305	303	302	297	297	297	304	304	304	304	304	303	303	303	303	301	299	303	301	303	304	304	302	303	304	302	303	303	304	305	303	304	310	309	307	306	303	306	306	306	307	306	306	300	303	303	302	304	304	304	308	307	301	303	300	298	299	300	301	306	306	302	302	300	300	304	303	301	301	300	300	300	300	299	297	297	300	300	296	299	301	305	310	306	305	306	310	312	312	311	309	306	301	304	302	301	302	305	307	306	305	304	303	303	303	305	305	307	310	310	307	310	312	311	305	306	302	300	296	303	306	308	307	307	305	308	305	305	304	304	301	302	300	301	305	306	305	304	303	299	300	308	310	306	305	306	309	309	302	305	305	306	302	303	304	303	305	302	301	302	302	301	302	304	302	301	304	303	302	302	303	297	295	296	298	299	298	298	299	301	302	306	305	303	300	299	299	297	296	296	298	301	301	298	297	296	293	294	296	297	305	306	303	303	302	300	299	298	300	302	305	305	305	304	303	302	298	299	299	299	297	297	295	295	296	300	300	302	303	303	300	302	297	296	297	299	298	296	295	294	295	295	297	300	299	297	294	293	295	296	299	299	296	297	300	299	299	302	303	302	297	298	299	299	296	296	300	299	300	298	300	303	301	302	302	300	298	297	301	300	299	295	294	296	298	299	302	304	304	301	299	296	296	298	297	299	298	298	297	297	298	300	301	299	298	296	295	299	301	297	297	297	297	296	293	295	298	301	300	305	307	307	305	302	302	296	295	298	297	297	299	297	296	295	294	294	295	296	299	301	300	300	300	301	301	299	299	297	297	297	298	300	300	299	299	297	296	298	298	298	0	0	0	0	0	0	0	0
303	303	304	295	297	297	297	298	294	299	299	304	307	304	302	301	297	294	294	297	298	296	296	290	293	295	297	298	298	299	296	292	297	300	304	306	306	306	305	303	305	309	308	305	305	304	300	299	301	304	307	307	306	303	303	302	302	302	302	299	301	302	304	304	304	304	301	301	299	299	302	308	309	309	307	299	298	301	301	304	303	302	304	302	301	301	302	302	304	307	306	303	300	298	297	300	302	305	307	305	303	306	311	310	308	307	303	303	302	303	307	304	304	302	301	300	300	303	303	302	305	306	305	305	303	305	306	307	303	302	301	300	301	305	306	308	304	299	310	314	311	309	310	308	305	304	303	299	296	303	302	303	303	303	303	304	305	305	299	300	302	303	303	304	305	300	299	301	304	306	306	303	301	300	300	300	301	303	299	297	298	300	300	301	300	300	302	305	305	305	305	305	305	304	302	299	300	300	302	306	307	306	304	303	303	302	312	307	305	304	304	305	300	299	300	301	299	300	299	302	303	304	304	304	302	303	303	302	301	299	299	299	303	303	303	301	299	297	297	306	302	302	304	305	307	306	303	301	301	304	303	301	301	299	296	293	295	297	304	304	305	301	298	297	298	300	301	302	304	300	293	291	293	293	296	298	300	296	296	298	299	299	294	296	299	300	297	296	298	296	294	295	295	299	297	297	298	298	296	298	300	295	298	301	303	305	305	300	297	300	299	305	302	306	298	299	299	299	302	302	303	304	303	303	303	302	299	297	299	296	295	295	297	299	299	299	299	298	299	299	299	301	301	300	299	299	296	296	298	295	296	298	300	306	304	305	305	304	305	303	304	299	300	295	295	298	298	296	298	302	300	297	300	302	303	303	303	302	298	299	300	304	304	305	307	305	304	302	299	293	292	294	300	307	308	306	305	306	303	303	303	303	302	300	298	298	298	305	300	299	297	296	296	296	302	296	298	300	303	298	297	298	303	302	300	302	303	302	301	303	301	302	301	298	301	303	301	302	303	303	300	300	301	297	295	296	298	297	299	299	296	296	296	295	296	298	295	293	294	292	292	292	294	297	299	297	296	294	292	291	293	298	303	300	301	298	299	299	295	294	296	299	302	302	302	302	299	296	297	294	293	292	293	295	295	295	298	298	299	296	299	297	299	300	297	297	298	298	298	296	294	295	290	296	299	298	296	291	289	291	294	294	294	292	293	294	296	296	296	297	291	293	293	296	298	299	297	296	296	298	298	297	295	298	297	297	296	293	296	296	295	298	297	294	294	292	292	292	297	296	299	299	297	295	296	296	295	296	295	293	295	291	290	298	296	296	296	297	297	295	293	295	296	296	295	292	291	293	296	298	298	295	294	294	295	294	294	294	295	295	294	292	293	296	296	297	290	288	286	290	291	293	292	296	299	299	299	298	298	298	296	296	296	298	300	298	296	295	297	299	299	299	299	0	0	0	0	0	0	0
293	298	290	291	292	292	293	290	290	296	296	300	301	301	299	297	292	290	290	291	292	289	289	294	293	293	296	295	295	295	291	289	292	296	299	302	302	304	299	300	300	301	303	299	299	299	297	296	299	300	299	295	295	297	297	296	297	296	295	296	297	298	300	303	302	301	296	296	297	299	299	300	303	305	300	299	299	298	300	298	295	296	302	301	299	301	301	302	302	304	306	303	299	297	295	296	299	301	303	302	301	301	302	302	305	302	299	300	301	301	307	308	307	303	301	300	300	300	301	299	300	301	302	299	298	297	303	299	298	299	298	297	299	300	300	299	301	295	298	305	305	306	306	305	303	300	295	297	300	301	300	299	299	300	300	302	304	301	302	302	304	305	302	304	299	290	289	296	299	301	305	303	301	299	300	301	299	299	301	297	297	295	297	297	299	297	300	298	295	295	302	303	303	302	294	296	297	299	302	304	305	304	305	303	302	303	302	302	296	296	297	296	292	291	291	294	295	296	300	301	303	304	303	303	299	300	298	299	299	296	297	297	299	300	301	301	297	297	299	299	300	299	301	303	304	306	306	305	301	300	302	301	298	294	292	291	293	297	302	301	296	298	298	299	300	298	299	301	302	302	296	294	292	293	295	296	297	294	294	294	294	293	294	295	297	297	296	296	296	294	293	293	293	293	294	295	298	294	292	289	294	294	295	295	303	304	301	299	297	299	298	303	297	295	297	299	299	298	295	296	303	303	300	298	299	299	295	296	290	289	289	293	295	297	298	297	292	295	296	299	298	298	300	300	299	299	299	299	299	298	296	298	299	302	303	303	300	302	302	300	296	297	296	294	297	297	296	295	294	296	301	294	296	298	296	297	295	292	296	297	299	301	301	300	297	303	301	300	298	293	291	290	293	301	301	302	296	294	294	293	295	295	296	297	298	298	296	297	299	297	294	296	297	297	298	297	304	305	298	298	296	296	296	299	298	298	301	300	303	303	300	292	293	297	300	300	298	292	296	299	298	298	297	297	295	296	294	295	293	296	298	296	295	294	292	295	292	291	289	285	287	289	293	295	297	297	295	293	292	291	292	293	297	297	296	295	292	289	287	290	293	297	298	300	299	296	292	292	292	293	292	292	290	291	291	291	291	300	296	295	294	294	295	295	294	292	298	299	297	296	293	290	288	288	293	295	292	291	290	289	291	293	292	292	286	289	291	291	290	288	287	290	292	297	299	297	297	296	293	294	295	295	295	294	293	293	293	293	292	297	296	294	295	293	289	285	290	291	291	290	291	296	295	290	293	293	293	291	291	291	293	291	291	291	294	295	295	295	295	296	295	295	296	296	291	289	290	292	294	296	293	291	290	290	290	290	289	288	294	294	293	291	291	288	290	294	299	297	287	284	283	285	290	289	292	293	297	297	296	296	294	296	299	301	300	297	291	292	296	300	301	300	300	0	0	0	0	0	0	0
287	287	285	288	290	290	285	284	284	290	294	294	296	295	295	292	286	284	284	286	287	290	290	294	293	293	292	292	289	289	288	287	287	293	294	292	292	290	293	293	292	292	293	296	295	295	295	296	291	291	289	292	292	292	293	293	294	293	294	293	294	295	296	296	296	297	294	294	296	296	298	297	298	298	299	297	296	297	300	292	293	295	300	300	298	296	298	300	301	301	304	301	298	294	293	293	296	301	302	299	298	298	300	301	300	300	297	299	299	301	305	307	306	303	300	300	298	298	296	296	296	297	299	299	290	291	291	293	297	297	296	296	296	294	291	290	291	294	295	301	301	301	299	298	298	296	296	299	299	299	297	297	296	296	298	300	298	294	296	297	295	296	296	295	292	292	292	290	291	292	297	299	298	297	297	297	297	300	300	299	296	293	295	295	291	290	291	288	289	291	291	291	291	293	292	293	295	297	297	299	299	300	301	299	299	299	301	294	294	295	297	295	292	291	291	288	291	293	295	297	301	300	296	298	298	296	296	296	292	293	295	295	296	298	298	296	297	298	297	295	293	291	290	292	300	303	303	300	297	299	297	287	287	287	289	290	291	291	291	291	292	294	296	299	299	298	297	299	298	298	295	294	291	292	295	295	293	293	294	294	295	293	292	294	294	296	295	293	294	294	292	291	293	293	293	296	291	289	284	286	289	292	294	294	295	294	292	295	296	297	293	291	294	293	295	293	294	288	283	282	286	289	292	293	295	293	293	290	291	289	290	293	293	295	289	292	292	294	295	298	297	294	296	294	292	295	294	298	298	296	296	298	299	299	293	301	299	301	299	296	294	290	294	292	293	295	295	297	296	291	291	293	295	289	288	291	287	292	293	296	295	295	299	296	291	300	298	297	295	291	291	289	287	288	291	294	294	294	293	293	294	293	292	291	292	292	293	290	288	287	293	296	296	294	297	299	301	303	295	295	292	291	295	294	294	294	297	297	298	298	295	293	294	298	299	294	290	291	291	292	293	293	295	293	291	291	289	289	293	295	296	293	291	291	287	294	292	291	287	285	285	287	292	293	294	296	292	290	289	289	290	291	292	293	294	292	289	285	286	290	294	296	296	294	288	288	287	290	290	292	292	290	289	289	288	286	287	288	298	293	292	293	292	293	292	290	291	298	296	294	291	289	288	288	287	290	292	292	290	286	285	289	289	288	285	284	284	283	286	286	287	287	289	289	297	297	298	291	291	292	294	293	288	289	292	292	291	292	295	296	295	295	291	289	285	284	289	291	291	290	288	288	286	284	285	289	292	291	289	292	291	294	290	291	294	295	294	293	290	292	295	294	293	291	288	288	288	295	297	295	293	290	289	289	289	290	287	288	291	291	291	286	286	287	287	289	288	287	285	283	282	284	284	287	287	288	290	293	293	294	294	290	291	293	293	292	291	291	293	295	295	297	297	0	0	0	0	0	0	0
283	284	285	286	283	283	283	280	280	285	290	290	292	292	290	286	284	283	284	285	286	288	295	295	294	293	293	291	287	287	283	285	288	288	287	286	289	289	292	292	290	292	293	293	292	292	294	292	289	288	288	288	289	290	289	289	290	292	291	291	292	293	293	291	290	292	292	293	293	295	296	295	295	295	294	294	292	292	292	292	293	293	293	297	296	294	293	296	296	296	295	298	295	292	291	295	298	301	300	297	296	295	297	297	294	293	293	296	301	302	305	303	300	300	297	296	295	294	293	294	296	296	296	288	289	289	289	285	289	296	294	294	292	290	288	288	287	290	292	291	296	297	296	294	295	293	297	296	298	297	295	294	295	295	291	290	289	291	292	290	286	287	289	291	292	293	291	287	286	290	292	293	293	294	294	290	291	293	294	295	294	292	293	293	292	290	290	285	286	289	290	289	290	290	289	293	295	296	295	295	295	294	294	294	292	292	292	291	290	292	293	292	292	291	289	287	287	289	292	293	290	290	290	290	289	292	293	293	291	290	292	291	292	293	292	294	295	295	293	290	290	292	291	291	292	292	294	293	293	291	290	287	287	287	288	287	288	288	288	289	289	290	295	295	295	294	294	292	292	295	295	286	287	289	294	293	291	293	293	294	295	293	293	293	293	292	292	292	290	291	296	296	298	296	295	291	288	287	287	288	289	289	289	291	292	288	290	294	296	296	292	292	291	288	289	287	283	284	281	283	285	288	289	290	291	291	291	292	293	293	289	292	287	288	290	292	292	293	293	289	288	289	291	290	290	290	291	290	295	295	295	296	296	295	296	291	297	299	299	295	292	286	291	285	287	288	291	290	287	287	288	286	288	289	289	285	285	286	292	294	294	293	293	283	283	282	290	290	291	290	287	286	285	287	288	291	290	290	290	289	287	287	288	289	289	290	291	288	286	287	293	296	293	293	295	294	296	294	293	292	291	291	290	290	290	297	296	295	297	296	293	292	293	293	289	289	288	287	287	287	288	288	286	287	287	286	285	287	289	292	293	292	289	289	284	284	285	288	289	288	287	287	288	291	292	291	288	289	287	288	288	289	289	290	291	290	283	282	283	291	294	288	288	286	285	285	284	288	288	288	287	288	288	287	287	285	285	282	284	287	291	292	292	290	288	287	287	290	292	289	285	284	286	287	288	288	289	288	287	285	285	286	288	288	286	284	284	284	287	287	286	286	285	284	285	287	288	286	288	288	293	294	288	287	291	292	290	293	294	292	296	294	290	286	285	284	285	288	290	290	288	285	282	282	283	283	286	287	288	289	288	289	291	290	291	293	292	288	287	290	290	292	288	288	288	288	288	290	293	294	292	288	287	287	288	289	287	286	286	285	284	287	287	287	286	285	286	285	283	284	283	284	287	287	286	280	288	290	290	290	286	284	282	286	293	293	293	294	295	295	293	293	291	0	0	0	0	0	0	0
280	280	280	282	283	281	281	277	278	283	286	286	286	287	287	284	284	284	284	285	285	287	294	294	294	294	289	288	288	288	286	286	287	286	286	288	289	289	290	289	289	291	288	289	287	287	285	290	286	286	285	286	288	289	287	287	288	289	289	290	289	291	290	288	287	290	290	290	290	293	293	291	291	290	289	290	286	289	289	290	289	289	288	287	285	286	289	291	292	291	291	289	286	286	291	293	293	297	297	295	294	292	291	290	287	286	285	290	294	296	297	294	295	292	291	293	292	291	291	293	293	292	293	287	286	287	287	286	287	294	292	291	291	289	287	286	287	287	290	288	287	288	291	291	290	289	292	296	297	296	294	292	291	290	291	290	290	289	289	286	283	287	289	290	289	292	290	286	285	288	289	289	289	291	289	285	289	288	290	291	290	288	290	292	291	290	285	283	284	288	288	288	288	288	287	287	285	284	288	289	289	288	289	288	287	289	289	288	286	290	293	290	289	290	286	286	284	283	286	285	286	287	288	285	283	291	291	291	288	289	289	288	289	285	288	291	291	290	288	288	288	290	289	289	290	289	284	289	289	289	290	291	290	288	287	287	286	285	285	285	288	289	288	288	292	291	289	287	287	290	291	285	284	287	293	292	292	291	293	294	293	293	292	292	291	292	290	285	287	283	288	289	292	295	295	288	286	288	289	288	289	289	288	287	287	289	289	291	295	298	291	288	292	289	296	292	285	286	285	282	283	285	286	287	289	287	288	291	292	293	289	288	287	289	291	291	291	290	286	284	288	287	285	286	288	288	288	287	286	287	287	287	288	289	293	290	278	274	275	276	276	280	283	282	282	283	287	285	284	284	280	283	285	288	287	283	283	281	284	283	283	283	283	283	284	285	285	287	288	288	285	285	284	285	284	287	286	287	286	284	283	286	286	284	286	285	284	288	286	287	291	294	295	292	292	291	293	293	292	291	290	290	289	288	287	291	295	295	295	294	288	287	285	281	287	287	287	287	287	288	285	286	284	284	285	285	285	286	288	287	286	285	285	286	284	282	283	284	284	287	286	284	284	287	286	284	281	280	280	281	280	282	284	286	287	285	282	282	283	279	280	285	282	280	279	282	282	287	284	283	285	286	286	286	285	284	284	280	282	285	288	288	287	285	285	283	281	280	284	283	282	281	283	284	283	282	283	284	282	284	284	285	286	281	280	283	286	286	285	286	286	284	284	285	280	280	281	282	285	285	283	293	295	294	292	290	290	288	288	288	288	292	289	285	285	284	282	285	287	286	283	282	281	282	283	283	283	283	284	283	285	288	287	286	288	289	290	288	284	281	286	286	281	285	287	287	288	289	291	292	290	288	288	286	287	287	285	284	282	283	282	281	281	281	281	284	282	282	283	283	284	287	288	289	282	282	276	284	284	281	282	282	281	279	279	286	288	288	288	289	289	289	289	0	0	0	0	0	0	0
275	275	276	280	282	281	281	279	278	281	283	283	283	283	283	284	282	282	284	285	284	288	290	290	290	283	282	282	283	284	284	286	287	287	287	287	287	287	286	281	281	284	284	284	285	282	282	284	285	284	284	285	286	286	283	283	283	285	287	288	288	287	285	286	286	290	289	288	287	287	287	287	288	287	288	285	283	284	285	287	287	284	282	281	278	278	284	289	291	290	290	291	285	286	286	284	283	282	281	281	283	285	285	286	283	281	280	282	284	285	287	288	289	289	284	287	282	282	286	289	290	289	286	284	284	284	284	285	286	286	287	291	289	288	287	285	283	284	287	288	288	282	282	289	288	288	289	290	290	295	293	291	292	290	290	291	291	289	286	281	284	286	287	285	283	280	278	279	282	284	288	285	283	285	283	285	288	287	287	284	285	285	284	287	288	287	288	283	282	282	284	286	286	286	285	283	282	282	280	280	282	285	285	284	283	285	288	285	281	285	291	289	289	284	285	281	279	278	280	282	284	285	285	286	284	285	282	284	285	288	287	286	281	282	286	288	288	286	285	286	286	287	287	288	285	283	281	286	287	290	290	289	290	288	287	286	281	282	282	284	287	288	288	287	285	287	287	287	285	286	287	288	283	290	289	287	289	291	292	288	286	287	290	290	288	288	283	282	281	286	279	279	276	280	283	282	281	282	283	283	285	285	283	281	279	282	289	287	286	291	290	282	284	288	296	292	284	285	285	283	283	284	284	287	286	282	282	285	283	282	282	279	283	283	286	285	285	283	284	284	284	280	282	283	284	282	282	283	281	276	284	285	284	282	280	277	275	275	277	277	279	281	283	283	282	281	283	282	282	281	282	281	282	284	283	281	281	278	280	281	281	281	282	282	283	284	283	286	286	287	285	283	282	281	283	283	283	284	281	280	280	281	281	281	282	283	282	283	285	286	287	291	294	291	284	276	276	282	283	288	290	290	287	286	285	285	288	293	282	285	280	282	286	284	285	286	283	287	283	284	282	282	279	282	278	286	286	286	286	285	280	280	283	284	282	283	284	283	282	284	285	283	282	285	283	280	278	279	280	281	280	281	283	284	283	284	280	277	277	277	278	281	281	280	277	276	281	277	277	280	282	285	286	285	285	284	282	278	279	281	284	283	278	278	283	283	281	277	274	273	275	279	281	278	278	280	284	283	283	281	284	284	284	281	280	281	283	284	283	282	282	282	282	283	281	278	278	277	281	280	282	283	284	280	277	277	277	279	283	285	285	285	285	284	283	280	281	284	284	283	278	279	279	279	283	283	283	283	281	281	282	283	284	284	286	284	273	274	277	277	279	282	276	282	284	286	286	287	289	289	288	287	287	284	285	284	283	280	279	280	275	275	278	280	280	278	277	280	281	281	283	281	283	283	278	279	278	278	277	277	274	274	278	280	276	277	285	284	282	280	280	280	279	0	0	0	0	0	0	0
273	273	274	275	280	282	282	280	278	280	279	279	279	280	282	282	282	278	278	278	279	282	283	283	281	279	277	279	280	282	282	283	284	287	287	286	284	284	281	279	278	276	280	278	280	279	279	280	282	283	283	282	282	280	279	281	281	283	285	287	286	285	285	284	283	284	282	284	283	283	283	283	283	287	284	282	281	282	283	284	284	283	281	279	280	280	282	282	282	283	283	283	284	283	281	281	284	282	282	283	284	285	286	287	281	280	278	281	284	285	285	285	285	283	282	281	280	283	285	287	283	286	284	283	284	284	284	285	284	284	284	283	282	283	285	283	280	280	284	282	283	284	285	284	282	281	286	284	286	284	286	289	289	288	286	282	281	279	278	278	278	283	283	282	279	278	277	278	280	280	280	282	280	280	283	284	284	282	281	281	281	282	281	284	285	285	285	284	281	281	281	285	287	284	282	281	281	281	280	280	281	284	280	279	280	285	283	279	277	279	280	281	280	281	282	281	277	275	277	278	281	287	286	283	285	284	282	283	281	281	281	280	277	280	284	284	285	284	283	284	284	285	285	286	283	278	285	286	285	284	286	284	280	281	287	286	281	281	282	282	281	280	285	285	285	284	284	287	285	283	283	283	286	286	281	283	286	288	286	280	279	277	277	282	283	284	284	278	277	277	279	279	277	276	277	275	275	276	277	277	278	279	279	276	276	277	277	283	283	284	285	293	287	284	278	279	276	274	274	281	278	279	284	286	285	287	280	278	280	281	279	277	278	281	282	283	282	281	282	284	282	281	275	282	283	282	280	280	276	275	275	279	278	275	275	274	275	276	278	278	279	282	283	282	279	278	281	279	277	277	279	277	276	275	274	274	274	274	274	274	278	278	276	275	274	278	280	281	282	281	280	280	280	281	281	281	280	280	279	278	278	279	277	277	279	280	279	279	286	283	281	281	276	279	278	276	276	279	278	279	284	285	286	284	284	284	281	281	283	285	284	284	281	284	283	282	282	280	280	279	278	278	278	276	276	276	284	284	280	277	276	276	277	279	280	285	282	280	281	283	281	281	282	282	279	277	279	285	281	280	278	278	279	277	278	280	278	276	275	277	278	279	279	279	275	275	276	276	276	277	279	283	284	284	284	282	279	276	277	277	278	278	276	278	287	289	285	278	273	274	275	276	272	272	275	277	279	282	283	283	282	282	281	281	279	279	279	278	276	280	282	283	282	279	277	276	276	277	279	279	281	280	282	279	275	274	276	278	280	279	280	285	281	280	281	278	280	277	277	275	274	277	278	276	278	283	283	281	279	277	277	277	277	275	274	274	278	274	277	280	277	273	274	275	280	283	284	283	285	285	286	286	282	283	283	282	280	278	278	275	275	277	275	279	280	277	275	276	276	276	277	274	274	275	277	277	278	278	279	276	272	271	276	279	279	277	284	284	284	283	283	280	279	0	0	0	0	0	0	0
269	269	271	274	276	275	275	275	275	276	274	274	274	277	278	278	278	273	273	275	277	280	279	278	278	276	276	275	275	278	278	280	282	283	285	282	281	276	276	274	273	274	276	276	275	273	273	277	279	276	275	274	277	276	276	278	278	281	284	285	285	281	280	280	278	274	276	278	283	283	282	280	279	280	281	279	277	273	276	277	275	275	276	280	281	279	279	276	276	276	277	280	280	281	279	278	278	279	284	283	282	282	285	285	283	281	276	281	281	281	283	283	280	280	279	278	279	280	281	281	280	284	282	283	284	284	285	284	282	282	281	281	279	280	282	279	277	276	278	282	283	282	281	282	280	282	282	283	282	281	281	283	283	283	278	280	281	278	277	277	274	277	278	278	276	276	277	277	275	276	278	278	275	276	281	281	279	278	280	281	282	281	279	280	282	281	282	275	278	278	281	280	281	283	285	284	281	278	277	279	280	281	279	276	276	277	280	277	279	279	277	277	278	279	279	274	274	276	278	277	278	279	281	281	284	281	280	279	278	277	277	278	278	279	280	281	282	283	282	282	282	282	286	280	277	275	275	275	276	279	282	281	279	276	278	280	286	285	275	273	277	280	284	284	283	285	285	286	285	284	282	280	279	277	276	274	274	273	275	277	273	271	273	276	276	277	275	278	272	275	277	278	277	277	275	276	278	276	275	275	275	276	278	276	276	277	276	275	281	281	282	275	278	276	274	275	275	275	276	278	278	279	280	283	283	281	280	279	277	278	277	275	274	277	278	279	280	281	278	277	281	281	277	276	280	279	278	274	275	275	278	272	274	274	275	274	276	276	278	278	279	282	283	281	278	278	278	275	273	277	278	277	275	274	273	273	273	272	270	273	273	276	274	271	271	271	273	277	274	279	279	277	277	279	280	276	280	280	278	272	274	274	274	275	277	278	277	276	276	278	276	273	275	278	278	278	275	274	275	273	272	275	278	277	276	275	277	278	279	280	281	280	280	284	283	280	277	275	272	275	275	275	274	274	271	273	278	279	275	270	269	269	271	272	273	280	281	279	283	280	279	278	279	279	276	273	276	280	285	280	277	276	275	272	274	275	273	273	272	272	274	276	275	274	272	273	272	271	272	271	270	275	281	281	282	279	275	275	274	274	277	275	276	278	287	285	281	277	278	276	276	272	272	273	275	277	279	282	283	282	282	279	278	277	276	274	271	277	277	280	281	281	279	275	274	274	273	274	280	281	279	277	277	275	273	273	275	275	277	277	276	272	275	278	278	278	270	271	271	270	268	270	273	274	277	282	283	284	279	275	276	275	274	272	271	273	275	280	280	279	274	273	274	275	277	278	275	276	280	280	280	282	280	281	280	278	277	277	274	273	273	273	277	277	278	274	274	274	276	275	272	272	271	272	275	276	276	276	274	276	271	272	275	276	273	276	281	282	283	280	280	279	278	0	0	0	0	0	0	0
267	269	269	270	271	272	272	272	273	271	272	272	272	271	271	273	273	271	271	273	277	280	278	276	276	277	276	276	272	275	277	277	280	281	281	279	278	275	275	273	273	274	274	272	273	275	276	276	276	275	274	274	274	275	274	276	280	280	282	280	278	276	275	273	273	273	274	280	283	283	283	280	272	277	277	274	274	275	273	268	268	268	272	280	280	279	277	276	276	274	276	277	277	280	280	278	278	278	279	280	280	277	277	276	278	278	276	279	281	279	280	278	277	275	275	276	277	278	278	278	277	279	279	281	281	278	278	277	277	277	278	277	273	272	276	274	277	279	280	282	281	279	280	282	280	278	276	278	282	281	281	281	281	280	276	277	279	279	276	274	270	273	275	276	276	276	277	277	275	274	277	276	274	273	276	275	276	277	279	279	278	275	277	276	279	279	278	277	278	278	277	278	274	275	276	282	282	270	267	269	270	271	270	270	273	274	274	274	274	274	274	272	275	277	278	276	271	271	271	272	273	277	279	281	273	272	276	272	276	277	274	277	277	278	279	280	275	272	273	276	279	276	275	273	276	274	273	275	267	273	277	274	275	272	270	276	277	277	276	272	273	273	278	283	280	279	281	284	283	283	280	277	277	277	274	271	271	269	272	274	275	273	274	275	275	273	276	276	274	272	276	278	274	277	276	278	276	276	276	273	273	274	274	275	275	276	275	272	274	277	273	273	274	274	273	273	273	271	273	275	275	277	278	278	282	282	281	281	279	275	272	271	270	270	273	276	273	272	274	274	278	275	267	264	271	277	276	269	273	276	276	275	273	274	277	277	276	272	273	277	278	281	277	274	275	276	274	273	273	278	278	275	274	274	272	271	270	269	269	272	274	274	268	269	269	271	271	274	273	276	274	274	272	274	274	276	277	277	273	271	271	272	272	274	275	274	274	273	273	275	276	274	274	275	275	276	275	275	274	271	273	272	272	273	271	270	270	274	276	277	277	279	281	281	280	279	276	271	272	274	273	273	271	270	269	271	274	277	276	272	272	271	272	270	272	274	279	279	283	279	278	277	273	271	272	272	271	274	273	276	274	276	276	273	272	271	271	270	271	270	269	273	273	270	270	271	268	269	268	267	267	267	267	269	275	273	272	272	269	267	270	272	275	276	283	281	281	280	278	279	275	274	273	274	275	276	278	280	280	280	279	277	277	274	274	273	273	276	277	279	280	279	276	273	272	271	271	275	276	281	270	270	270	267	267	265	265	270	267	269	273	272	270	268	268	268	270	271	275	267	267	270	273	275	275	276	277	276	276	274	275	271	268	270	269	272	275	278	277	277	273	277	274	275	276	271	270	274	274	275	275	278	275	273	271	272	272	273	272	271	272	272	272	272	271	272	273	273	271	269	269	268	270	272	273	278	278	274	272	273	273	270	270	269	268	269	275	279	279	277	277	277	274	0	0	0	0	0	0	0
266	266	266	268	268	270	270	270	272	269	269	268	268	267	268	270	271	270	270	272	275	274	275	276	276	276	277	277	274	273	275	275	276	276	275	275	273	272	272	274	274	276	274	274	273	274	275	275	275	271	274	273	273	270	271	273	276	276	280	280	278	276	274	273	273	273	272	272	274	275	275	275	268	269	270	271	273	271	270	269	269	268	276	277	276	276	275	273	272	272	273	276	277	277	277	280	277	279	276	273	272	273	273	273	275	275	274	277	277	277	275	275	273	272	272	270	273	274	276	277	272	271	271	273	273	272	275	275	275	275	272	272	272	270	270	269	268	272	280	280	279	278	277	278	275	276	275	276	281	278	278	280	279	278	275	275	276	274	272	271	269	270	273	274	275	276	278	276	273	275	273	273	272	271	276	275	278	276	277	274	273	276	275	278	276	274	271	269	270	270	271	271	271	271	271	270	272	270	271	272	273	267	267	270	270	272	273	274	274	273	273	272	273	275	275	274	270	270	271	269	272	271	276	276	278	269	272	272	270	274	274	276	277	278	278	273	267	265	268	270	268	269	270	274	274	271	271	269	269	268	270	271	272	269	269	269	273	274	274	274	276	274	274	274	274	275	277	277	277	278	278	276	275	274	268	270	267	268	271	273	273	275	273	274	273	276	275	273	274	271	274	273	276	275	275	273	276	275	273	272	271	272	270	267	266	267	271	271	272	274	275	272	272	270	270	272	272	270	273	272	275	275	275	276	279	281	280	283	280	271	271	271	269	265	265	270	271	272	274	275	274	272	272	268	263	266	267	269	270	272	275	276	271	271	277	275	271	271	269	271	271	274	275	273	275	275	273	274	269	269	269	270	274	274	271	271	268	273	271	269	267	264	266	266	269	270	271	270	272	268	263	262	264	266	272	274	274	274	273	272	269	269	272	271	272	273	271	270	272	272	271	270	270	271	272	272	274	274	272	268	266	266	271	271	271	269	269	270	270	272	275	276	279	278	277	275	274	274	276	274	275	273	270	270	270	272	274	275	276	272	272	272	273	275	271	269	274	277	280	280	278	275	273	272	271	273	273	273	273	273	278	276	277	274	273	271	270	270	270	270	264	266	270	268	268	265	267	266	268	267	270	272	267	268	267	273	271	269	268	266	269	274	275	274	278	279	277	279	280	280	278	277	278	278	277	277	278	275	271	271	275	273	271	273	272	273	274	273	276	278	278	276	274	269	263	263	266	269	268	268	269	268	266	267	266	264	263	261	263	265	267	268	268	267	267	267	266	266	267	270	268	270	270	270	274	272	268	268	267	267	272	271	265	262	267	269	272	276	273	273	275	277	275	275	269	266	265	265	269	272	273	275	273	272	273	273	273	272	271	271	272	272	271	270	269	270	270	270	268	267	267	267	270	271	273	273	271	271	273	273	271	269	268	267	267	272	273	274	276	276	276	275	274	0	0	0	0	0	0	0
263	263	263	264	266	270	273	273	270	268	267	265	265	265	265	269	270	269	269	271	271	271	272	274	274	275	277	277	273	271	273	273	272	271	272	272	274	275	274	274	276	273	275	274	273	274	274	274	272	271	274	274	272	269	267	268	274	274	275	275	274	273	272	272	272	270	269	270	273	271	269	267	266	266	269	270	269	270	271	270	268	268	270	276	275	274	272	270	270	270	271	274	273	272	272	269	269	272	273	271	271	270	271	272	273	273	273	273	275	275	274	274	273	273	272	270	269	270	270	269	267	270	271	272	271	270	269	271	269	270	272	272	271	269	267	263	266	269	271	272	276	271	268	266	267	270	270	269	267	267	269	270	276	275	274	274	275	272	271	269	269	271	273	276	276	277	275	275	273	274	276	273	270	267	267	270	276	277	273	271	270	270	269	271	270	269	269	268	268	269	270	267	272	273	272	271	271	270	271	271	273	268	267	269	269	270	270	272	272	271	269	270	268	266	275	276	271	269	269	269	271	271	272	273	274	274	274	272	268	267	265	264	268	271	270	266	264	265	269	265	265	267	266	267	268	268	269	269	267	266	269	270	271	269	268	267	267	272	271	275	276	276	270	270	270	272	272	271	277	277	277	277	276	271	268	267	267	268	271	272	273	274	272	272	275	275	271	269	272	271	273	274	276	275	274	273	271	270	271	272	271	272	269	267	266	267	268	270	271	273	273	275	275	268	266	265	272	273	273	270	271	274	274	274	278	282	278	269	271	269	269	268	266	262	262	267	266	266	270	271	269	272	271	264	262	262	262	266	266	266	270	269	268	269	273	269	269	268	266	269	269	271	273	266	265	267	272	271	268	267	268	269	268	271	268	271	268	274	273	268	268	266	265	266	271	270	270	270	262	262	263	264	265	267	269	272	273	273	269	272	270	268	269	269	270	270	268	268	266	266	266	265	266	269	269	273	268	260	260	267	270	267	268	269	268	268	268	268	269	269	269	273	273	273	274	272	273	274	275	273	271	272	270	271	271	271	272	273	272	274	273	272	274	274	274	273	272	271	272	273	276	274	273	270	270	271	272	271	271	271	272	270	268	271	271	270	268	266	263	261	259	264	272	270	266	263	262	266	268	267	269	274	266	267	272	269	271	268	267	264	266	272	272	276	274	275	275	275	278	270	272	273	273	272	273	272	271	270	268	264	266	269	269	269	268	265	267	270	270	268	267	271	271	265	264	265	268	265	266	264	263	266	264	264	266	264	263	263	262	261	263	263	265	265	264	266	263	265	267	265	265	265	268	268	271	271	269	268	268	268	267	270	263	262	262	265	268	270	269	269	274	276	279	270	266	265	265	265	264	270	272	274	270	270	271	273	272	272	270	270	271	272	269	267	266	267	269	269	268	266	267	267	270	272	270	270	272	273	272	270	267	267	267	267	269	269	267	271	272	272	271	272	270	0	0	0	0	0	0	0
261	261	261	262	262	266	268	268	270	267	265	263	262	262	262	265	269	267	268	268	268	268	269	271	274	274	275	273	270	270	270	270	270	267	270	274	275	273	273	273	272	269	274	274	272	272	274	269	269	271	273	274	272	268	264	268	269	269	269	270	269	270	270	270	270	268	268	267	268	269	265	265	264	265	268	268	269	269	269	268	269	268	269	269	269	271	270	269	268	267	266	266	266	270	268	268	268	270	269	267	269	269	269	268	269	272	272	271	270	269	267	266	268	269	272	273	268	266	265	264	265	270	270	270	268	268	268	267	267	270	271	271	269	268	268	263	262	264	268	268	268	267	265	265	267	270	270	267	266	266	267	269	272	272	273	271	270	272	271	270	269	267	266	266	270	270	272	273	272	275	275	275	274	272	269	269	267	269	269	266	266	267	267	268	267	268	268	268	265	266	268	264	270	273	273	268	268	267	268	270	270	266	262	264	266	264	265	265	270	270	267	268	267	266	268	268	267	268	267	268	268	270	274	273	276	276	276	272	269	263	261	263	268	267	267	263	262	266	266	270	270	271	267	266	266	269	269	267	265	265	263	263	269	267	265	265	262	262	262	269	269	269	268	268	264	264	265	270	270	273	274	272	268	269	269	267	267	264	261	260	261	263	267	273	269	270	267	269	264	263	266	269	271	270	269	269	269	269	270	271	271	269	269	267	266	266	268	270	271	271	271	275	275	268	265	268	270	270	268	273	273	273	272	272	274	273	264	261	261	267	268	269	270	266	265	266	264	264	268	269	270	268	270	267	266	261	261	262	267	267	266	266	263	264	264	264	263	261	262	261	270	270	264	264	266	263	267	268	266	266	264	264	269	271	269	268	268	273	270	267	265	268	259	264	270	268	270	265	263	266	265	264	266	269	270	272	273	273	270	270	266	266	266	268	269	267	266	265	266	266	266	263	267	266	265	263	267	260	261	267	267	269	267	269	267	268	267	267	267	266	271	264	263	265	266	269	268	269	269	269	270	269	268	271	270	270	269	270	271	273	273	273	272	272	273	270	271	269	268	269	270	268	268	268	268	267	269	269	270	269	269	265	265	266	271	269	266	264	258	260	260	259	261	268	268	264	263	264	268	266	266	265	266	266	270	271	271	268	268	268	266	269	267	267	268	271	272	270	268	269	266	267	272	271	270	267	267	266	264	261	262	264	263	261	263	264	262	265	263	264	267	267	267	266	264	265	265	260	259	258	257	260	263	264	264	265	264	264	262	261	263	264	265	266	267	267	264	262	262	262	264	264	265	267	269	270	270	268	268	268	269	265	263	260	259	261	262	265	266	267	272	275	272	268	268	263	263	263	262	265	271	269	267	266	269	270	270	269	269	266	265	267	268	268	268	267	267	266	263	266	266	268	270	270	270	270	270	270	268	267	267	266	265	264	264	266	262	264	264	267	270	270	269	0	0	0	0	0	0	0
260	259	257	257	259	264	265	267	267	265	264	261	259	259	259	264	264	262	263	263	265	264	262	261	265	265	268	269	268	265	262	264	264	264	265	269	273	267	266	266	257	257	261	261	262	263	264	265	265	268	271	270	267	266	269	270	268	267	267	267	266	267	264	264	265	266	265	266	265	260	261	261	261	263	267	268	267	266	266	267	269	269	267	267	263	267	267	267	266	265	265	265	268	271	266	266	266	263	263	264	266	268	266	266	269	269	268	268	269	267	266	264	265	267	270	272	272	267	266	265	265	268	270	268	268	269	265	268	268	266	267	266	268	268	267	265	262	265	265	265	264	263	264	266	268	266	266	263	262	262	263	266	268	269	269	270	268	272	272	267	268	266	266	265	264	267	267	270	270	269	265	265	270	267	271	264	261	264	266	267	265	262	263	264	266	266	268	268	265	265	268	263	268	271	271	268	266	266	267	267	267	265	264	262	261	262	263	267	265	264	264	265	266	264	267	267	266	263	264	266	268	271	272	273	277	277	273	266	266	262	261	265	265	266	266	267	262	260	266	270	270	270	267	265	262	267	266	265	264	262	263	266	265	265	265	262	260	262	260	260	262	263	264	265	264	264	263	262	263	263	268	268	266	265	266	266	264	259	261	264	262	264	266	268	269	270	266	263	263	264	265	266	269	266	266	266	264	261	266	268	269	270	269	267	266	265	266	267	267	271	266	263	263	267	265	268	269	266	267	272	273	266	265	260	260	259	263	264	264	265	267	270	266	265	265	261	259	260	261	266	267	268	263	262	262	260	260	264	259	264	263	265	266	264	263	258	257	256	258	267	269	268	263	264	263	266	265	266	267	267	267	268	267	268	268	268	270	271	270	265	263	262	266	257	259	260	264	266	269	266	266	266	266	267	268	270	272	271	270	267	265	265	264	265	265	263	262	261	261	263	264	262	260	261	262	262	261	260	260	261	266	268	266	267	266	266	265	264	263	262	262	263	265	263	264	266	269	268	267	267	267	267	264	264	267	266	267	266	268	272	265	267	268	269	268	269	267	266	267	265	265	265	266	266	263	262	264	266	267	267	265	264	264	265	266	266	266	263	260	262	260	259	261	260	259	266	265	265	268	265	265	266	265	265	267	265	264	261	261	261	261	262	261	260	263	265	270	267	263	264	264	265	266	267	271	268	268	266	260	261	262	263	263	263	264	264	262	262	262	262	262	262	262	258	262	264	262	255	253	253	252	252	252	255	259	262	261	261	261	260	263	262	263	267	268	267	264	261	261	261	262	259	260	262	266	267	267	267	265	265	267	263	263	262	257	256	257	257	260	261	269	265	265	265	266	262	263	262	260	262	266	267	267	266	260	260	261	265	263	264	265	266	266	267	267	267	266	266	267	266	267	266	266	264	264	262	266	266	266	265	265	264	264	266	266	264	264	265	265	265	267	267	267	0	0	0	0	0	0	0
258	255	254	254	259	261	266	265	265	262	258	257	257	257	259	261	260	262	262	262	262	262	262	261	262	262	265	265	262	256	260	262	262	260	260	261	261	261	259	257	258	258	259	260	262	264	264	264	264	266	267	265	265	267	268	267	262	260	260	260	262	264	262	259	261	265	265	263	262	259	260	261	261	262	263	266	265	263	263	265	266	268	268	267	262	265	265	264	264	264	263	264	267	268	265	264	264	264	263	263	263	263	262	266	266	266	266	267	267	265	265	263	260	259	261	266	270	268	266	266	266	268	270	265	267	261	262	262	259	259	260	261	262	259	258	258	260	261	259	258	258	258	257	258	259	260	262	261	260	255	260	260	259	261	260	259	264	264	264	264	264	265	265	264	264	263	265	268	268	265	262	264	265	265	268	261	261	261	262	263	260	263	263	262	261	264	264	267	264	261	261	261	264	261	262	262	262	266	267	266	266	264	264	262	261	261	263	267	264	260	260	259	262	263	266	266	266	265	262	263	264	264	271	271	272	272	265	264	266	261	262	262	264	264	265	264	262	260	258	261	262	263	264	260	261	260	260	263	262	261	261	261	262	265	264	261	261	258	258	259	261	262	263	264	262	265	264	262	263	261	264	265	266	265	263	265	264	262	262	262	263	264	266	267	267	266	266	265	264	264	264	265	263	262	263	262	260	260	265	265	267	270	269	266	263	263	265	267	267	267	264	264	262	262	265	263	265	264	266	266	266	265	267	258	258	262	264	263	264	265	264	267	265	263	263	259	260	257	259	264	265	261	262	261	260	261	260	259	259	261	262	263	263	263	263	262	253	252	254	259	261	252	260	261	253	262	264	266	267	266	267	263	264	264	268	266	267	270	266	269	261	262	261	265	258	258	259	262	267	266	266	266	266	266	267	271	272	271	269	266	264	264	262	265	258	260	261	261	262	264	263	259	258	260	261	261	261	258	264	264	263	262	265	265	265	261	263	263	261	261	261	263	265	260	262	264	268	268	266	267	265	263	263	261	263	264	265	265	263	260	263	264	266	266	264	263	260	261	262	264	263	263	262	260	260	261	261	263	264	265	262	262	264	265	267	267	263	259	260	259	258	263	260	260	259	262	258	258	262	260	261	265	262	261	255	260	261	259	259	259	261	260	259	259	259	263	268	264	263	261	265	266	269	261	260	259	260	258	257	259	263	264	263	263	264	264	263	263	261	261	259	258	260	257	255	259	259	254	253	253	258	262	256	256	257	261	262	261	261	261	260	260	261	262	262	264	264	261	260	260	258	258	259	261	262	263	264	263	262	263	256	257	258	260	258	256	257	255	255	258	259	263	265	264	264	261	260	258	259	258	265	267	267	262	256	257	258	261	261	261	261	261	263	262	264	263	261	259	259	265	263	263	265	262	262	262	259	263	263	263	263	263	264	266	265	264	264	264	264	264	264	265	263	0	0	0	0	0	0	0
253	251	251	251	254	259	262	262	262	258	257	257	258	257	257	257	258	260	261	261	261	261	261	259	260	261	261	257	252	251	257	259	259	256	255	258	261	260	259	258	258	257	257	260	260	258	256	254	254	254	257	264	264	265	266	262	260	260	260	260	261	263	262	263	263	264	265	266	263	262	259	258	258	260	259	259	259	259	261	263	264	263	263	263	263	261	261	259	259	260	258	265	269	266	264	264	263	263	260	259	260	260	260	257	254	255	258	265	264	264	264	262	263	261	259	258	260	266	262	260	257	258	260	260	260	260	261	261	259	259	258	258	259	257	255	255	257	259	259	262	260	258	258	258	258	259	260	260	259	257	255	254	254	258	259	260	262	259	262	265	264	262	262	262	262	262	264	263	263	262	261	262	259	258	258	259	257	256	255	258	261	260	260	261	260	259	264	263	262	261	260	258	261	261	262	261	261	261	260	261	261	260	263	263	261	260	264	265	260	260	258	257	262	261	265	265	264	262	262	262	262	263	264	263	264	263	260	262	263	261	261	260	261	262	264	262	260	259	255	258	260	262	262	261	260	259	259	261	261	261	261	260	260	260	261	260	257	258	259	258	259	259	259	260	259	263	264	264	259	259	261	262	262	261	260	264	262	260	263	264	261	264	265	264	263	265	265	266	264	265	265	262	262	261	261	260	259	259	260	265	266	265	267	266	265	264	266	266	266	265	262	263	262	262	262	265	263	263	263	264	263	263	257	258	258	259	259	258	262	262	262	264	264	264	263	262	260	259	252	257	258	265	260	263	263	263	261	259	260	261	260	261	260	263	263	263	259	250	250	252	258	259	251	250	256	259	261	264	266	266	265	261	262	262	262	262	263	265	264	260	259	261	263	264	259	258	259	257	259	266	262	260	261	264	265	264	260	259	258	258	261	262	263	260	262	260	260	261	260	258	260	256	257	259	259	258	257	261	261	258	260	260	264	264	264	261	262	262	261	258	259	259	260	258	259	262	261	261	260	260	257	259	259	257	256	258	260	258	257	256	260	262	263	263	260	259	259	260	261	263	262	262	261	260	259	259	256	260	263	264	261	259	259	261	262	263	259	257	257	258	261	262	258	257	256	255	260	257	257	258	259	258	257	256	260	260	261	260	259	260	260	258	258	258	259	255	256	259	260	259	260	261	262	261	259	260	258	259	255	259	260	260	262	262	260	262	262	262	260	259	255	255	255	255	253	258	258	255	253	254	257	261	258	257	258	259	260	260	261	260	259	259	259	263	263	262	263	261	260	259	259	259	259	261	262	262	261	260	259	259	253	253	254	256	258	258	256	254	255	250	253	254	255	264	263	260	259	258	256	259	264	267	267	261	256	258	258	260	261	260	259	258	254	254	256	260	258	259	259	261	263	263	262	262	260	259	254	254	259	261	262	263	260	260	264	265	265	265	264	262	262	261	258	0	0	0	0	0	0	0
249	247	247	247	247	256	263	259	256	256	256	257	257	256	256	257	257	260	258	259	259	259	259	258	256	255	255	251	251	255	256	254	251	251	252	254	255	259	259	258	253	253	259	259	257	255	249	247	246	246	248	254	261	264	263	260	256	256	257	257	257	262	263	262	261	261	261	263	259	260	259	259	259	259	257	258	258	260	262	262	262	262	263	260	257	255	256	255	256	257	258	260	261	259	261	255	255	256	256	258	256	253	252	252	254	255	255	257	260	262	263	262	261	259	259	257	257	259	259	260	261	259	260	260	255	250	256	259	259	256	253	252	253	257	256	255	253	256	259	260	261	261	260	259	258	259	259	258	257	255	254	253	254	256	257	260	259	259	258	263	264	265	262	259	259	258	261	261	261	260	260	257	257	257	257	257	257	256	256	258	259	259	258	259	260	259	259	263	261	261	256	255	259	260	259	261	262	260	261	258	258	259	259	260	259	259	263	263	262	262	256	256	257	261	263	263	264	262	261	257	262	264	263	261	257	255	255	258	261	261	258	258	258	258	258	258	257	257	254	258	259	261	261	260	253	254	257	259	262	265	263	259	257	257	257	256	254	256	257	258	257	257	258	256	260	258	263	262	256	257	259	260	256	255	259	255	257	250	249	262	264	259	263	260	259	264	265	261	259	259	260	262	261	262	259	259	259	258	258	258	259	259	265	265	264	264	263	264	265	259	260	261	253	258	257	261	265	263	263	262	260	256	256	255	257	258	256	258	256	259	259	260	262	263	262	259	255	257	252	254	253	256	265	265	265	253	258	258	257	260	261	258	255	259	262	260	257	256	256	255	256	257	251	251	257	256	261	264	254	261	263	258	258	259	260	260	259	258	256	256	256	257	264	259	258	257	256	253	256	257	256	258	262	263	265	264	260	258	257	258	258	259	258	258	262	260	260	261	261	257	257	260	259	259	257	256	257	257	257	256	257	259	259	260	258	257	256	257	259	258	259	259	256	256	258	261	262	260	258	258	259	258	259	259	258	257	257	257	258	258	257	259	259	259	258	258	260	260	262	261	260	261	261	260	260	258	258	258	262	264	260	259	259	258	257	257	257	258	258	259	258	259	256	256	255	255	254	257	255	258	258	258	258	256	256	261	261	259	257	258	255	252	252	254	254	253	254	259	260	259	258	258	259	259	259	257	258	255	253	255	258	258	260	259	257	256	255	254	251	247	251	254	254	255	254	253	253	255	253	255	256	255	256	257	256	256	254	255	259	258	256	256	257	261	260	261	257	256	259	258	259	259	260	260	262	261	260	259	256	255	253	253	253	253	259	259	257	253	250	249	251	252	253	254	254	257	257	257	259	261	262	263	265	259	249	252	251	257	253	252	254	253	253	252	252	255	256	257	258	260	262	262	261	261	263	258	254	252	253	252	252	255	255	253	258	257	259	259	258	255	261	259	257	0	0	0	0	0	0	0
252	249	245	248	248	256	255	254	254	254	254	252	253	251	251	252	254	256	254	258	258	258	257	254	254	252	252	253	255	253	255	249	249	249	251	252	254	254	253	253	255	255	255	252	249	250	252	249	248	248	247	252	254	254	254	253	252	251	252	256	256	260	262	261	260	259	258	253	255	257	257	258	258	258	255	255	258	258	258	258	260	261	259	254	255	253	253	253	254	254	255	256	256	261	261	256	253	254	255	255	254	250	249	251	252	253	253	255	255	258	260	258	259	255	255	254	256	256	255	255	257	259	259	255	249	249	250	252	255	253	252	250	250	255	255	250	248	252	256	260	262	263	260	260	256	259	258	257	256	251	253	254	253	253	254	257	258	257	258	257	257	260	260	259	257	256	256	255	257	255	256	256	256	255	255	256	257	258	256	261	259	254	255	256	260	259	258	261	260	260	259	262	258	257	259	261	261	260	258	258	258	258	257	256	257	257	259	257	256	258	257	255	256	258	261	263	261	259	257	256	262	263	263	259	255	255	255	255	251	256	256	259	260	259	259	257	256	251	250	257	261	262	258	257	256	256	258	259	262	264	262	259	257	256	253	254	255	254	254	256	257	256	254	252	254	256	258	260	257	256	257	254	256	252	253	250	251	248	248	249	252	253	260	258	254	255	259	257	259	258	260	260	261	260	259	258	257	259	259	258	258	259	258	263	263	263	262	263	258	256	256	253	257	254	255	258	261	256	256	258	257	255	256	257	256	255	255	254	258	255	251	257	257	260	259	256	253	254	255	253	252	252	255	253	264	253	254	252	257	259	260	255	254	255	259	258	254	256	256	256	255	256	258	267	268	264	260	263	252	253	255	253	254	255	256	257	255	252	250	250	252	259	257	259	256	256	255	253	255	250	252	256	257	257	258	259	259	259	258	246	251	255	257	264	262	260	257	258	257	256	256	257	253	252	251	252	253	256	255	252	252	254	259	259	253	257	257	257	254	255	255	255	255	256	257	257	258	258	258	256	256	255	258	258	258	258	257	258	257	254	256	258	259	257	255	256	255	254	259	259	257	259	258	257	259	260	259	258	257	254	256	257	258	256	256	256	257	257	257	255	254	255	256	255	254	254	254	253	254	253	256	257	260	258	257	254	254	251	254	252	249	252	253	253	253	253	253	254	258	257	256	253	256	257	256	256	256	252	252	252	252	255	254	257	255	254	253	252	254	250	248	255	256	254	253	253	253	251	251	252	252	253	254	254	255	254	254	254	257	256	254	254	254	255	256	257	257	255	257	257	256	256	257	257	252	253	251	253	253	253	253	252	253	253	252	249	249	248	244	244	244	249	251	252	251	251	251	258	254	256	260	259	260	257	249	255	255	252	252	253	254	251	251	251	254	253	253	254	257	260	261	261	261	258	257	249	244	243	249	251	246	251	250	245	245	249	249	250	252	255	253	253	252	0	0	0	0	0	0	0
248	247	245	248	248	249	249	247	248	248	247	245	246	249	249	249	250	250	246	247	247	248	251	252	252	255	255	255	256	254	250	249	249	249	250	252	253	252	252	252	251	251	247	247	249	250	249	250	251	254	254	252	252	251	251	251	251	251	252	256	256	257	258	259	258	254	252	252	254	254	256	257	257	254	254	254	254	257	250	251	257	257	253	250	249	251	252	252	251	251	252	256	255	259	258	255	252	253	253	254	254	250	249	251	251	251	252	253	254	256	254	255	253	252	253	252	255	255	253	252	256	257	254	250	248	249	250	251	251	252	250	251	252	253	254	249	245	247	256	253	255	255	260	258	255	258	255	255	251	251	252	253	252	250	251	251	257	257	256	256	255	255	256	256	256	255	254	253	253	256	257	257	257	257	256	254	258	258	257	255	254	253	253	253	257	257	257	256	257	256	257	262	259	263	260	256	254	253	256	258	258	258	255	255	254	256	257	254	253	256	257	254	256	256	259	261	259	257	256	257	258	263	258	256	254	255	255	255	255	253	254	255	256	256	255	254	252	251	249	251	258	258	257	256	254	254	256	258	258	260	257	261	256	255	254	254	254	254	251	251	252	254	254	252	252	255	255	255	253	256	256	256	252	252	252	250	250	250	247	247	250	253	250	255	255	255	255	258	256	255	256	256	259	259	259	259	257	257	259	258	257	255	253	254	252	258	259	256	255	254	253	255	254	253	255	255	254	253	253	255	255	255	255	255	256	254	253	255	252	251	247	250	254	258	258	256	253	252	252	254	252	251	251	253	253	254	256	255	258	262	255	253	254	253	256	254	251	250	257	255	254	256	259	258	263	257	255	248	251	257	256	253	253	254	255	256	253	254	250	250	250	254	256	256	257	253	252	251	251	249	252	250	256	255	249	251	252	254	249	250	250	251	256	257	257	257	251	254	252	257	256	252	257	253	250	249	252	253	252	251	251	252	254	254	253	250	251	251	250	251	252	251	251	256	256	258	256	254	252	252	255	257	258	257	257	254	252	251	254	253	253	255	257	253	252	252	252	252	253	255	254	251	248	253	256	258	260	259	256	255	254	255	256	255	253	255	255	255	254	252	253	254	255	254	253	253	255	253	251	252	255	257	259	256	254	253	252	246	245	249	249	250	251	251	249	251	250	248	251	251	249	250	254	254	252	252	253	251	251	249	250	252	252	251	251	251	250	249	253	250	250	254	254	253	251	251	250	254	252	251	247	251	252	253	252	252	255	255	257	258	253	256	256	256	254	253	254	254	254	253	254	255	248	248	252	254	253	252	251	251	254	254	249	247	248	248	248	249	248	245	242	242	244	251	252	253	250	251	253	253	253	251	251	250	250	253	254	250	249	253	258	250	250	249	248	250	251	252	253	255	255	255	255	253	248	247	244	243	246	247	250	250	250	249	246	246	246	250	253	253	253	250	248	0	0	0	0	0	0	0
248	246	246	246	246	246	244	247	247	247	245	244	244	245	247	247	247	249	246	244	247	247	249	251	254	256	252	252	249	250	250	249	249	250	250	254	253	254	254	252	246	246	247	247	249	247	249	250	251	252	252	251	250	249	249	247	247	246	248	254	255	255	255	253	251	250	249	251	252	253	252	252	252	254	254	254	249	249	248	249	252	249	249	249	249	249	251	251	247	248	248	251	252	251	249	248	250	251	251	253	251	251	250	251	251	250	250	249	249	251	252	252	249	250	248	249	251	253	253	251	255	255	252	251	249	249	249	250	250	249	248	248	245	249	250	250	252	253	253	256	252	250	250	250	249	252	251	252	249	250	250	252	251	250	249	248	253	255	255	255	252	251	251	251	252	250	254	252	250	251	252	253	252	251	252	252	251	251	251	256	254	253	252	252	254	256	257	254	255	254	256	258	260	261	256	253	251	249	249	249	251	252	253	251	251	251	248	249	251	253	256	254	255	255	257	256	255	254	255	255	257	254	254	255	253	252	254	255	255	253	252	253	252	252	250	253	252	251	251	250	250	251	251	252	253	255	255	256	258	261	255	255	254	253	252	251	252	254	253	252	253	250	251	251	251	250	253	253	255	253	253	254	254	253	251	253	251	249	247	251	249	250	251	251	251	252	252	252	254	254	254	252	254	259	258	259	259	258	257	258	256	250	250	249	248	249	251	258	255	253	250	249	248	255	255	254	251	251	248	251	253	248	247	248	249	249	249	249	249	249	248	250	252	250	253	253	254	256	254	254	250	248	249	248	250	255	257	249	256	256	255	253	246	247	255	251	251	249	252	253	253	252	259	259	258	252	253	253	253	255	253	252	253	253	252	252	253	252	253	252	256	255	253	254	253	252	251	250	249	249	250	254	254	253	249	247	247	250	247	244	245	251	256	254	247	245	245	252	252	252	252	251	251	255	249	251	253	253	252	251	249	249	250	251	251	249	250	251	250	250	252	252	252	254	256	252	252	249	249	252	254	255	254	254	254	253	251	250	253	252	251	251	252	253	250	251	250	252	252	253	253	248	248	247	251	255	259	258	254	254	253	250	253	256	255	255	252	253	253	252	250	253	252	252	253	253	254	255	252	249	249	250	252	253	253	253	253	250	248	248	249	248	249	249	251	250	248	247	246	246	247	248	250	250	250	250	249	249	248	250	247	251	252	250	248	247	245	244	248	251	250	253	254	254	254	250	248	248	251	247	249	251	254	253	251	250	251	250	248	247	248	249	251	252	251	253	254	254	251	249	248	246	245	250	250	249	248	250	250	250	250	248	245	246	245	246	247	247	248	247	245	243	250	253	257	257	256	251	247	246	251	248	247	245	247	247	247	249	249	249	248	246	248	248	247	245	249	250	252	253	253	253	252	249	245	244	243	246	246	244	247	247	249	248	249	248	248	250	252	251	249	248	247	0	0	0	0	0	0	0
246	246	245	244	244	244	244	246	246	246	246	246	245	246	246	246	245	245	244	240	244	244	244	244	245	246	246	246	247	248	248	247	249	254	254	254	251	250	246	246	249	248	248	248	248	248	249	246	247	249	249	248	248	248	248	246	244	243	244	245	251	251	252	250	249	249	248	249	250	249	250	251	251	250	248	248	245	245	247	245	246	243	244	248	249	249	248	248	248	248	247	248	246	244	245	246	249	250	249	250	250	250	250	250	250	248	246	248	250	253	251	249	250	249	248	249	247	253	253	250	250	250	250	247	246	242	247	252	252	249	248	247	243	244	246	251	252	252	251	251	251	250	248	248	248	248	249	251	250	247	246	249	249	248	247	247	251	251	250	250	246	250	250	251	249	249	246	250	248	249	248	247	250	251	251	251	251	250	251	252	253	254	250	250	249	250	251	251	249	248	248	249	251	253	251	249	248	249	248	248	249	250	250	250	248	245	245	246	250	253	254	254	253	259	257	254	251	251	253	252	250	251	252	251	247	247	250	248	252	251	249	247	250	250	250	250	250	249	249	249	249	246	247	253	257	257	261	252	252	252	253	250	250	248	249	248	252	253	251	251	253	251	250	250	249	249	249	250	253	252	252	252	254	253	253	252	250	247	246	246	246	250	252	253	248	250	251	251	251	248	248	244	246	254	258	258	258	257	254	254	255	254	249	248	247	247	249	250	252	252	251	247	247	250	251	251	250	249	245	247	248	246	248	249	249	249	249	249	249	248	247	248	247	250	248	253	252	252	247	250	250	247	248	250	257	256	255	256	247	251	254	253	245	245	247	249	248	249	249	249	250	249	257	257	257	254	248	251	252	252	252	251	250	252	252	252	251	251	252	253	255	255	255	254	250	248	249	247	247	247	249	252	253	250	248	246	246	245	248	243	245	248	247	249	243	244	244	252	249	246	252	250	251	250	249	247	247	246	246	246	248	248	249	250	250	250	249	248	249	249	251	251	253	253	250	247	247	249	250	248	252	249	250	254	253	252	253	252	250	253	251	248	248	248	248	248	249	251	251	252	251	247	248	247	250	250	254	254	253	252	246	247	248	251	250	251	250	253	252	249	249	249	251	251	251	252	253	254	252	249	245	243	248	252	253	253	252	250	249	247	247	249	249	247	247	249	246	245	245	244	244	243	242	244	248	249	247	248	248	250	252	252	251	250	250	247	247	247	254	250	243	248	251	250	247	246	247	246	244	246	247	250	251	251	250	250	248	247	245	245	245	245	248	246	245	249	251	251	250	248	249	246	244	246	248	247	248	249	244	245	244	241	243	242	242	243	247	248	248	247	244	245	245	246	245	247	247	248	246	240	238	241	244	244	243	243	246	250	249	249	247	248	247	246	246	246	247	248	250	250	250	250	249	244	242	243	247	246	244	243	242	246	246	247	246	246	248	250	251	248	248	249	250	0	0	0	0	0	0	0
246	244	245	244	242	242	240	240	240	241	241	246	247	248	246	246	244	242	242	236	238	238	239	242	243	240	241	241	241	246	248	250	249	250	250	250	250	245	244	247	249	247	247	246	248	248	244	244	245	247	250	250	248	246	243	242	241	244	244	244	245	245	249	249	247	246	247	247	244	244	246	248	248	245	244	244	243	244	244	243	242	241	243	244	247	247	246	247	246	248	251	248	245	243	242	245	246	247	247	248	248	249	250	251	246	245	244	245	247	248	250	248	248	249	247	248	246	247	246	246	247	248	246	241	242	240	245	248	248	248	245	244	242	243	242	247	248	248	249	248	249	248	248	248	248	248	246	247	246	242	245	246	247	248	247	246	248	249	250	248	246	246	247	248	248	247	246	245	245	248	246	246	249	249	248	248	248	251	251	251	252	252	247	246	246	247	247	246	250	250	245	246	248	250	248	246	244	247	248	250	252	250	247	243	243	242	245	248	250	247	251	249	249	257	254	248	247	247	251	251	250	251	252	250	247	249	250	248	250	248	247	245	246	249	249	249	249	247	247	247	248	252	253	253	253	253	251	251	248	249	251	252	251	249	249	249	250	251	251	250	250	250	248	248	248	247	249	246	246	251	253	249	252	252	251	242	240	242	245	246	247	250	250	246	245	247	247	250	244	245	244	244	245	245	247	245	252	251	254	252	251	249	247	243	243	248	248	252	251	250	248	247	247	247	248	249	248	247	245	246	242	246	249	247	247	243	248	247	248	245	247	245	248	250	248	250	250	250	246	247	246	251	251	251	251	251	251	247	247	246	250	248	247	247	249	249	247	246	245	247	247	253	253	251	251	250	250	249	250	252	252	246	249	248	250	249	249	249	252	252	253	254	255	255	255	251	248	248	245	245	249	250	251	250	249	244	246	245	243	243	242	239	238	239	241	246	247	249	250	246	242	244	245	246	247	246	245	247	247	246	243	246	250	249	248	247	246	250	252	253	251	250	248	248	248	246	247	247	246	247	246	245	248	250	248	246	248	250	251	252	250	250	249	249	250	249	246	246	251	251	250	245	246	246	250	251	252	252	250	247	244	245	246	244	247	247	248	250	248	247	248	248	250	250	249	250	252	247	247	246	245	243	242	242	243	246	248	249	248	248	246	249	248	247	244	245	245	244	245	244	245	244	243	243	245	247	247	245	245	251	252	253	250	249	251	255	249	247	254	249	241	248	245	244	244	244	245	244	243	244	246	247	248	248	248	247	245	245	245	245	245	244	244	244	242	244	246	247	247	250	248	246	245	245	245	245	246	244	242	243	244	240	239	240	239	245	247	248	245	246	242	244	240	240	242	243	242	241	243	242	238	239	243	245	243	245	247	248	245	243	244	247	246	246	244	243	242	243	243	248	248	247	244	239	239	247	242	243	244	243	240	244	243	243	244	244	245	247	247	247	247	250	250	0	0	0	0	0	0	0
244	242	242	241	243	243	241	239	238	239	239	242	248	247	246	244	244	240	236	235	236	236	241	242	239	240	239	240	240	240	243	243	243	246	247	247	247	244	247	249	247	246	246	244	246	243	242	242	244	245	246	246	245	243	242	242	242	244	246	246	246	249	249	248	247	244	243	237	242	242	242	241	242	244	244	243	243	243	243	242	242	242	243	244	244	243	243	244	246	247	247	247	243	242	242	244	245	246	246	247	247	248	243	243	243	243	244	245	245	245	239	240	245	246	248	247	245	244	246	247	249	249	242	241	241	240	240	240	240	246	248	249	244	242	242	245	246	248	247	248	248	248	246	248	246	246	243	245	246	246	244	243	241	241	241	242	245	246	247	246	244	244	244	244	245	242	242	242	243	243	244	246	247	245	245	245	247	246	249	249	248	248	245	245	245	247	244	243	243	244	246	241	242	247	248	242	241	242	246	247	248	247	245	243	243	243	244	245	247	248	246	247	247	250	247	244	244	245	248	250	249	252	252	253	249	247	247	249	248	247	246	245	247	246	247	248	248	247	247	243	244	247	246	248	248	247	247	247	247	250	250	250	250	249	246	249	249	251	250	250	249	249	248	247	245	247	246	245	239	243	247	247	248	250	249	243	243	244	245	248	249	247	246	244	243	242	241	245	244	244	244	244	245	247	245	246	246	247	251	250	241	247	247	240	243	243	247	249	248	248	246	245	245	247	247	249	246	245	243	246	248	247	246	243	243	246	248	248	247	246	247	248	248	248	248	247	248	249	248	247	248	249	249	247	247	243	243	246	246	246	247	249	246	248	250	248	248	247	246	245	248	243	251	250	250	249	247	244	248	251	252	245	246	246	245	246	245	246	247	247	247	248	251	251	248	247	246	246	244	245	247	248	252	252	247	246	245	245	245	244	251	246	241	239	242	243	243	244	243	243	243	241	241	241	244	246	247	246	246	245	245	247	248	250	248	245	245	250	250	250	246	245	246	246	246	246	245	245	246	247	246	244	246	244	246	245	246	249	250	241	252	249	248	248	247	245	242	243	243	247	247	245	243	245	245	250	248	247	248	244	246	247	248	245	245	246	247	246	247	246	248	249	250	247	240	241	243	243	242	243	246	244	241	236	239	241	244	245	243	243	244	246	246	246	245	242	241	241	241	243	243	243	244	243	243	246	244	246	246	248	246	245	241	250	248	250	251	252	243	242	245	246	245	243	244	243	242	244	243	242	243	244	245	246	244	244	244	245	245	245	244	242	244	243	240	241	242	243	245	245	243	245	245	243	245	242	242	242	242	243	238	239	239	239	240	241	243	243	242	239	235	239	238	240	243	247	245	239	237	238	239	241	243	244	243	242	242	242	242	242	244	245	246	246	245	246	244	244	245	245	244	241	241	237	239	244	242	242	243	244	241	239	241	241	241	245	240	245	245	246	246	247	243	0	0	0	0	0	0	0
242	238	236	238	239	239	240	239	237	237	237	241	245	246	243	240	240	237	236	236	235	237	237	241	239	240	238	236	236	236	237	242	242	243	244	244	244	244	246	247	245	243	242	242	242	242	241	242	243	245	244	243	243	243	242	242	240	242	246	248	249	249	249	248	239	235	237	239	241	240	238	238	238	238	240	240	240	241	242	241	242	242	244	243	242	240	240	238	240	242	243	243	243	241	242	242	244	244	244	246	239	244	243	242	241	242	244	244	244	243	241	240	242	245	247	247	246	243	241	241	244	245	243	242	241	241	241	241	243	240	244	246	245	241	241	244	244	245	245	246	243	242	241	242	243	242	240	243	244	245	243	242	241	240	240	240	240	247	244	243	242	242	241	241	239	240	242	242	241	242	240	241	243	242	242	243	245	247	245	246	246	246	245	244	245	243	242	239	241	241	240	240	241	242	245	245	244	247	246	246	245	245	244	243	242	243	243	243	243	244	245	246	247	247	246	244	244	243	247	248	250	251	251	251	245	244	245	247	248	247	246	245	246	246	247	246	245	246	245	243	243	243	245	244	245	245	246	248	247	247	247	246	247	246	248	243	248	247	248	248	249	248	247	249	249	247	247	245	243	242	241	244	245	245	246	250	244	243	245	244	243	243	243	244	244	244	245	242	241	240	243	244	245	244	246	245	245	244	243	241	244	241	246	245	246	241	243	244	247	247	244	244	245	244	245	245	245	243	244	245	248	245	244	248	248	246	245	246	245	245	245	245	242	242	245	245	248	249	249	247	248	248	248	246	244	243	243	243	245	246	247	249	246	246	249	250	248	247	245	248	246	249	247	248	249	249	248	245	245	246	247	248	245	244	243	241	241	242	244	245	245	247	249	249	248	245	242	244	247	244	245	246	247	250	248	246	245	243	244	250	247	245	243	241	245	243	242	243	243	244	242	241	240	240	246	247	246	245	245	243	244	245	249	249	245	245	243	243	244	245	244	244	246	246	246	244	242	242	244	246	246	244	241	243	243	244	247	248	248	248	240	240	245	245	245	244	241	240	240	244	245	244	243	243	244	248	248	247	244	242	243	245	247	247	246	245	247	246	245	245	243	242	239	241	240	242	241	242	242	241	244	244	243	244	244	244	243	243	243	244	241	241	241	242	245	243	242	241	238	237	238	240	241	241	242	243	244	242	241	242	241	238	238	243	245	248	248	247	245	241	237	236	239	243	244	239	236	240	241	241	242	243	245	244	240	241	243	244	245	245	243	241	242	241	241	241	241	240	241	242	242	241	243	244	241	241	241	240	240	240	239	239	240	239	238	242	242	242	237	237	238	238	237	239	243	244	244	240	237	236	239	242	239	238	241	242	240	238	240	240	242	244	245	245	244	243	242	244	242	242	242	236	237	236	237	239	241	241	242	242	241	239	238	237	237	238	237	240	242	243	244	243	240	0	0	0	0	0	0	0
238	238	233	235	237	238	238	238	236	236	236	236	236	233	234	236	236	235	235	236	234	234	234	239	238	238	236	234	234	235	235	236	240	241	242	242	241	241	242	245	241	241	239	239	241	243	244	242	242	242	242	242	242	244	244	242	241	242	244	245	244	240	240	240	237	236	235	237	237	234	235	236	237	238	237	239	241	241	241	241	240	240	240	240	241	241	240	240	238	238	239	242	242	242	241	243	243	244	244	242	239	241	242	238	239	239	240	241	240	240	239	240	240	243	245	245	244	240	240	237	237	239	241	241	241	240	240	240	237	239	240	242	243	239	238	241	243	243	243	242	242	242	240	239	239	240	240	242	243	242	241	241	240	239	239	240	242	244	242	241	239	238	237	239	243	243	243	242	243	239	240	240	242	241	241	240	241	243	244	242	240	242	246	245	245	242	239	238	239	241	241	243	243	243	245	244	244	244	245	247	245	244	244	242	243	243	243	241	241	243	243	244	244	247	244	240	240	244	246	247	246	248	248	245	243	243	243	246	247	245	239	239	240	245	247	244	244	246	244	242	243	243	243	243	244	245	245	243	245	246	244	244	244	247	242	241	245	244	246	246	242	242	241	242	241	241	240	238	239	241	243	247	243	245	244	246	250	244	240	241	242	244	244	243	244	243	245	240	239	239	240	242	242	245	243	243	242	242	243	241	238	245	242	241	241	239	239	242	241	245	241	241	241	243	244	244	245	243	245	245	244	244	246	247	248	246	246	240	243	244	244	245	243	240	241	243	246	247	245	245	248	246	245	244	241	243	243	243	247	248	252	245	244	243	245	247	248	248	248	248	243	247	247	242	245	245	246	246	244	243	242	243	242	242	243	243	241	241	240	240	241	244	247	247	243	241	240	242	244	247	247	247	247	247	246	247	244	244	244	242	242	243	244	244	244	241	241	242	242	242	241	240	240	241	243	244	244	243	242	239	242	245	248	243	242	243	242	241	241	240	239	238	238	239	238	244	239	240	240	244	245	242	240	242	241	242	244	244	244	243	243	240	241	244	243	242	241	240	243	246	245	245	242	242	243	244	241	241	240	241	242	244	245	245	243	245	242	241	236	236	237	242	241	241	241	240	241	240	240	241	242	244	244	244	242	242	241	239	243	244	242	238	237	237	240	242	241	240	238	238	238	239	240	242	243	240	240	241	241	239	240	237	237	237	240	241	240	239	237	236	234	235	234	238	238	237	234	235	239	240	241	239	241	238	241	241	241	242	244	244	244	242	242	241	239	239	241	240	241	241	241	241	241	240	240	241	241	240	240	241	242	238	237	239	239	240	240	242	237	239	237	238	237	237	238	241	241	238	236	235	238	238	238	239	240	239	237	239	238	240	241	243	243	240	238	236	239	242	242	240	238	236	236	236	236	238	238	240	241	241	240	240	238	238	235	234	235	237	239	241	241	242	239	0	0	0	0	0	0	0
234	234	230	232	233	231	231	233	231	231	232	232	236	236	235	235	235	235	235	234	233	233	233	235	235	237	234	234	234	234	234	236	238	240	240	240	240	239	241	242	239	239	238	238	236	236	237	240	241	241	240	241	241	242	242	242	242	242	242	239	238	239	238	238	236	235	234	236	235	234	235	237	238	238	238	240	240	240	240	240	240	239	239	238	240	238	239	237	238	237	236	235	236	235	235	235	236	238	237	235	233	233	234	237	239	239	237	236	234	240	238	238	240	240	240	242	238	237	236	236	237	238	239	241	241	240	239	239	238	237	239	240	238	240	238	238	241	241	241	239	238	239	239	239	238	239	240	240	240	240	240	240	239	239	239	241	241	241	238	234	234	236	238	241	241	242	242	239	238	237	238	236	237	236	234	238	240	242	241	238	238	240	243	243	242	238	237	236	236	237	239	240	241	243	241	241	240	242	240	238	243	243	242	242	243	243	240	240	240	241	242	242	243	245	243	242	241	243	242	241	241	243	243	240	239	240	241	242	242	242	240	239	239	244	242	241	243	245	245	240	241	242	241	242	241	238	240	238	243	242	241	241	241	241	240	240	242	243	236	235	236	233	239	238	238	236	237	238	238	237	238	240	249	243	243	244	241	239	243	240	241	243	245	243	242	243	244	243	243	240	240	240	239	241	240	240	240	239	241	241	240	242	244	240	239	238	239	234	238	243	245	241	241	242	241	243	241	240	239	241	244	242	244	243	245	248	243	240	243	245	245	242	241	241	243	244	246	245	244	245	246	245	243	243	243	242	239	242	244	245	244	241	241	241	243	244	246	244	245	241	244	244	242	243	243	243	241	239	240	239	240	240	241	242	241	242	244	244	244	240	242	245	243	239	238	238	239	241	241	240	242	248	246	246	246	246	244	243	242	241	245	244	240	239	238	239	240	241	242	242	240	240	239	240	240	241	242	242	240	240	241	243	243	242	243	241	241	240	240	240	238	238	238	238	238	238	237	236	238	241	244	241	240	240	239	241	241	242	240	239	241	243	244	244	241	239	238	237	237	240	242	245	244	244	244	243	240	238	237	241	242	241	242	244	242	239	237	235	237	239	238	239	236	234	236	239	240	237	238	240	241	243	244	243	242	238	233	232	240	244	241	238	236	235	234	237	241	241	242	240	239	238	239	238	237	237	239	239	238	238	237	237	238	237	237	236	235	235	235	233	233	233	237	237	237	237	234	233	233	237	236	238	235	241	240	241	241	242	243	243	243	242	242	240	239	239	237	238	237	237	240	241	240	239	236	238	241	243	242	239	242	238	237	239	238	238	239	235	235	233	234	234	232	233	238	239	236	234	232	237	236	236	237	238	241	241	238	238	238	239	240	240	236	236	238	237	236	238	238	238	236	235	235	236	237	238	238	236	236	239	239	239	238	238	235	234	231	234	240	238	240	240	240	0	0	0	0	0	0	0
230	230	230	230	232	230	230	230	227	231	234	234	235	234	234	233	232	232	234	234	231	234	232	232	234	235	234	234	234	234	233	234	237	237	236	234	234	236	238	241	234	235	234	233	233	235	236	237	239	240	241	241	241	241	242	241	239	239	236	236	237	238	238	235	235	234	234	234	235	236	237	238	239	238	239	239	239	238	238	237	239	238	237	237	238	238	236	236	236	235	235	235	236	236	235	235	239	239	239	235	232	235	235	235	238	236	235	235	234	238	237	237	237	236	238	237	237	237	236	237	238	237	239	241	241	241	239	239	239	240	238	238	238	236	238	238	237	239	238	236	236	237	239	237	238	239	241	242	241	242	241	239	238	238	237	241	239	241	241	238	237	238	238	239	242	239	239	238	238	238	236	235	237	237	237	235	237	240	239	238	238	238	238	238	237	238	236	236	236	236	237	239	239	236	239	239	238	240	241	239	240	241	240	244	244	237	239	239	239	239	240	241	242	238	238	239	240	235	235	234	233	240	240	240	240	240	241	239	241	240	238	237	240	240	237	239	241	239	239	242	240	238	237	238	238	237	237	238	241	242	240	238	238	236	240	240	239	240	235	234	235	233	239	237	238	235	235	236	236	237	236	237	240	238	236	236	239	242	241	240	240	244	242	243	242	237	238	241	242	241	240	240	241	241	239	239	239	238	237	239	239	241	240	240	240	234	234	234	233	234	237	239	241	242	243	241	239	235	240	246	248	245	245	246	240	239	238	238	237	238	240	240	239	240	239	239	238	238	243	245	243	241	239	239	242	240	238	240	242	237	235	235	235	239	240	242	243	239	239	243	244	242	242	242	242	242	239	239	238	239	239	238	238	238	241	241	242	243	244	244	242	241	237	237	237	234	235	241	241	241	241	243	245	243	243	242	240	241	242	240	240	240	237	238	238	240	240	240	240	242	240	240	238	237	237	240	239	239	239	239	239	240	241	241	239	239	239	238	236	236	239	239	239	238	233	234	234	238	235	237	240	237	238	236	237	241	239	239	238	239	240	243	245	244	239	235	236	236	237	237	234	240	241	243	243	240	239	236	234	238	239	240	236	239	241	239	239	238	239	240	240	237	235	234	235	235	239	240	239	238	240	241	232	233	233	232	232	237	234	241	239	237	235	233	232	232	232	234	236	237	237	236	236	236	236	237	237	237	236	235	236	236	237	236	235	234	235	235	234	234	233	235	236	235	235	238	236	234	234	234	236	236	235	234	239	239	239	240	240	239	239	240	240	240	237	236	236	236	236	236	239	240	237	235	235	236	240	238	235	234	239	238	237	236	235	233	233	233	230	232	235	234	234	235	238	238	239	234	233	233	234	233	236	237	241	241	237	239	238	237	237	237	235	235	234	233	234	234	236	236	236	237	236	236	236	237	234	232	232	236	235	238	238	235	234	232	232	233	236	235	239	238	235	0	0	0	0	0	0	0
225	227	227	228	226	226	223	223	225	228	232	231	231	228	232	233	234	234	234	234	232	231	232	232	233	234	231	230	233	233	233	234	236	236	232	231	231	232	236	236	237	235	234	235	235	233	235	237	236	232	233	234	235	235	236	237	238	237	237	235	236	238	236	229	229	232	233	233	238	237	237	235	239	237	240	240	237	236	236	236	237	237	237	236	236	236	236	235	233	234	235	240	240	238	239	234	233	236	236	232	231	230	231	234	235	234	234	230	232	234	236	236	236	234	234	235	237	237	237	236	236	236	238	241	242	242	241	239	239	238	236	236	235	236	236	236	236	235	234	234	236	236	237	241	242	242	240	237	237	235	233	237	235	234	237	237	236	236	236	235	234	235	238	238	239	239	238	238	238	238	237	237	236	237	237	237	237	236	235	235	235	236	235	232	233	235	236	237	235	236	236	237	235	234	237	239	236	236	238	238	239	238	237	235	234	234	235	237	238	238	238	237	235	235	233	235	234	234	233	230	230	233	238	238	239	239	238	239	239	239	238	237	239	239	233	236	238	240	240	240	239	234	237	237	237	237	236	236	234	237	238	238	238	236	238	239	241	237	233	232	234	236	238	234	235	238	238	234	237	238	241	237	235	237	236	237	238	237	237	239	238	239	241	239	236	233	233	234	233	240	236	236	235	234	233	237	239	238	237	237	237	238	240	240	241	239	240	239	239	238	239	239	240	240	241	242	238	235	234	238	240	241	241	241	238	234	230	231	231	237	238	235	235	235	235	236	238	236	242	244	241	241	239	239	240	240	238	236	235	234	236	237	238	235	235	237	237	238	241	244	241	239	241	242	242	243	237	237	237	235	237	238	237	238	240	240	242	242	241	242	242	239	238	236	236	234	235	237	240	240	239	241	241	243	243	242	243	239	239	237	237	237	238	237	237	239	239	240	240	240	239	238	237	236	237	237	238	236	236	237	238	239	235	238	242	240	240	238	235	236	242	242	239	234	235	231	231	233	234	235	239	235	236	238	237	237	238	237	237	238	238	238	238	234	237	235	234	235	232	240	234	232	236	243	242	239	237	234	236	238	236	234	233	233	235	237	238	239	242	241	238	235	235	235	235	233	236	238	238	237	237	232	231	233	233	233	234	238	239	240	235	235	234	235	234	232	232	233	234	236	237	236	235	236	236	236	234	235	235	235	235	235	235	235	234	232	235	234	233	234	235	234	234	236	239	239	236	235	235	235	236	236	233	234	238	238	237	237	238	237	237	237	239	237	236	235	235	235	236	236	235	234	234	234	235	235	236	235	233	233	231	232	234	238	238	238	237	233	231	231	232	234	235	235	235	235	233	232	230	232	235	232	233	237	236	238	236	236	234	236	237	236	234	233	232	232	232	232	233	234	234	236	236	238	235	235	233	232	232	234	235	234	234	231	231	231	232	232	234	235	234	237	232	232	0	0	0	0	0	0
226	227	227	226	225	223	226	226	229	229	228	227	227	225	229	229	231	231	232	231	232	230	232	232	231	231	231	229	233	234	234	234	236	236	233	229	232	232	232	234	234	234	233	232	233	233	235	235	234	229	230	232	233	235	235	236	236	236	234	233	233	234	235	234	232	232	231	237	236	237	236	234	237	236	237	237	234	234	234	234	237	236	233	238	239	240	239	239	238	237	237	238	237	236	233	232	232	233	233	231	230	229	229	231	233	233	232	229	229	231	233	235	236	233	232	234	235	235	235	235	234	234	236	239	241	242	241	237	237	237	234	234	234	235	236	237	237	236	234	235	234	234	236	237	238	239	238	237	236	234	233	234	231	234	235	235	234	234	234	235	232	232	234	238	238	237	236	237	237	238	236	236	235	235	237	237	236	235	235	234	234	235	232	231	231	234	234	235	235	236	236	236	234	233	237	237	237	235	235	237	238	237	236	234	232	231	231	231	232	234	234	233	234	233	234	235	235	233	232	231	230	231	233	235	237	238	238	238	238	237	236	234	233	232	236	239	239	239	240	239	238	237	237	235	236	237	236	235	232	236	237	237	237	234	236	236	236	236	239	238	234	235	236	235	235	238	238	234	236	239	240	241	236	233	234	235	236	236	236	236	236	236	238	237	233	232	232	233	233	235	235	231	230	230	234	237	240	239	237	233	234	239	242	242	241	240	239	239	239	239	239	238	235	236	237	241	235	234	232	231	231	232	231	241	242	242	240	234	233	234	235	237	237	237	236	236	238	241	242	243	241	238	238	237	233	235	237	239	234	234	235	237	236	237	235	233	233	234	240	237	236	238	235	240	240	241	237	238	238	238	237	237	236	239	238	240	235	232	231	234	238	238	237	236	235	237	236	236	236	239	239	239	240	241	243	244	239	237	237	237	236	236	236	237	236	239	239	239	241	240	239	235	237	234	235	236	238	235	235	234	233	234	234	238	240	240	240	237	236	237	241	241	239	237	231	235	234	234	233	234	237	235	235	237	237	237	238	238	239	239	238	238	238	234	234	234	235	235	232	234	233	232	231	236	237	238	234	230	231	230	231	233	233	233	233	234	237	238	239	239	236	234	235	231	230	232	234	236	238	238	232	231	230	231	233	236	238	237	235	233	234	233	235	235	235	232	231	231	233	234	236	235	235	236	235	233	233	233	233	232	232	232	233	234	232	231	232	234	233	233	233	233	233	232	233	233	233	235	236	235	235	234	234	234	237	236	236	237	237	237	237	236	233	237	235	235	236	235	230	231	230	231	232	233	234	233	232	231	232	231	231	230	231	235	237	237	234	233	231	230	231	234	234	236	234	230	233	232	230	233	235	236	236	236	236	236	235	232	230	226	227	228	229	229	226	229	229	230	231	230	232	232	231	234	235	234	233	232	232	233	232	232	230	227	227	230	229	229	234	234	234	230	228	228	0	0	0	0	0	0
225	226	226	226	223	224	227	227	229	228	226	224	224	225	226	226	228	230	230	230	230	229	230	232	232	230	229	231	234	234	234	234	235	235	231	231	232	232	234	237	231	231	232	231	233	233	235	235	233	228	230	232	233	234	234	235	235	235	232	232	230	232	232	230	232	232	231	231	234	234	233	231	232	235	236	233	232	232	232	233	233	234	231	236	239	240	239	231	234	231	235	232	234	232	231	230	230	226	226	226	227	228	228	229	230	230	229	229	231	231	232	233	233	232	232	233	233	233	234	234	228	228	229	232	234	236	239	237	236	235	233	232	232	235	236	238	236	234	234	234	233	233	232	233	237	237	235	235	234	233	232	232	231	233	232	231	230	232	231	230	231	232	233	234	235	234	234	235	237	236	234	233	234	235	234	235	236	233	234	233	235	235	231	231	232	232	231	231	233	235	235	234	233	233	235	236	234	234	234	234	236	236	232	233	232	229	228	230	231	231	227	228	235	233	232	234	234	232	230	227	227	233	230	227	231	236	236	237	236	236	236	237	232	232	233	240	236	238	237	237	236	235	236	236	236	237	237	236	233	233	231	236	235	233	234	237	236	235	236	235	234	234	236	236	239	237	233	232	233	235	236	237	235	234	233	235	233	234	234	234	233	235	236	234	235	232	232	232	232	234	234	233	231	232	235	238	240	238	238	238	239	238	236	237	235	235	240	239	239	237	234	234	234	234	236	236	234	235	231	230	230	228	229	230	242	243	240	235	230	231	237	234	238	237	237	237	237	240	240	236	235	240	235	234	235	236	235	238	235	233	234	235	235	232	234	233	231	235	236	236	236	236	238	232	241	241	237	238	239	240	238	237	235	237	239	236	232	230	233	233	237	237	236	234	234	237	235	236	236	236	237	239	239	239	239	235	234	236	236	235	234	234	235	235	240	240	240	239	238	235	233	236	239	237	236	236	234	235	234	233	233	233	235	236	239	240	237	236	237	237	233	238	238	239	236	234	235	235	235	235	235	237	236	236	235	236	237	236	239	238	237	235	235	235	234	234	234	233	232	236	232	229	233	235	234	234	232	232	230	230	231	230	233	233	229	229	233	232	232	232	231	233	232	230	229	229	229	237	239	239	237	234	232	231	235	236	236	233	231	230	232	231	235	235	235	231	231	230	231	233	233	235	234	234	233	231	231	233	232	230	231	230	231	232	232	232	231	234	232	231	233	233	233	233	233	232	232	232	233	231	229	228	231	236	236	236	236	236	237	236	236	234	234	229	230	230	233	234	230	230	230	231	232	231	232	230	229	230	230	229	230	230	231	233	236	238	233	232	230	229	231	233	234	234	233	230	227	230	230	233	233	233	234	234	236	229	231	230	231	228	228	228	230	231	231	231	230	229	228	228	229	231	230	230	231	232	231	231	231	230	226	226	224	224	226	229	229	228	229	232	232	228	228	226	0	0	0	0	0	0
224	223	223	223	221	222	223	223	225	227	227	227	226	226	226	226	226	227	227	229	229	228	229	227	227	228	230	231	232	234	234	233	233	233	231	227	230	230	230	230	226	228	230	229	231	231	233	234	233	233	232	232	232	233	233	233	233	232	230	227	230	231	231	231	230	230	227	228	229	231	232	233	232	233	236	236	234	229	229	228	228	227	227	230	230	232	232	234	230	228	228	229	229	231	230	230	229	224	225	225	226	226	225	226	228	227	226	227	227	229	230	233	233	229	227	226	230	231	229	229	230	228	228	228	228	229	236	235	236	234	233	228	230	233	232	231	231	231	231	233	232	231	230	231	234	235	235	234	233	232	230	228	232	233	231	228	227	228	230	229	229	230	230	231	230	230	230	232	227	228	229	231	233	229	234	231	235	232	234	233	234	228	229	229	230	230	230	231	231	231	233	231	231	232	233	234	233	231	229	229	231	231	233	231	230	230	229	230	230	230	226	227	228	230	231	232	230	230	229	228	228	229	230	230	230	234	234	235	234	236	236	237	235	231	230	235	235	236	235	233	233	233	236	236	240	240	237	235	233	233	230	230	231	232	233	234	235	234	234	233	232	234	235	236	236	232	232	232	232	233	233	233	234	233	232	230	231	235	235	235	232	230	232	234	234	231	232	232	235	236	234	238	234	232	238	236	234	234	234	236	232	233	234	235	235	231	236	237	242	240	233	231	232	233	234	235	237	236	234	231	230	226	227	229	235	234	231	231	233	235	233	234	235	237	236	235	240	239	239	233	232	230	234	234	236	233	235	231	230	229	227	229	231	236	232	232	232	235	236	236	236	236	231	234	237	238	235	234	237	238	239	234	233	236	235	237	237	232	233	234	237	237	234	233	234	237	237	235	233	233	234	234	234	233	235	231	229	233	232	231	230	234	234	237	237	240	239	235	233	232	234	235	238	235	234	233	235	235	234	234	234	234	232	236	236	233	233	234	235	235	231	234	237	234	239	232	233	234	235	237	236	233	233	237	236	234	235	233	231	237	236	234	234	236	234	234	232	232	233	235	234	229	227	229	230	232	233	232	231	230	233	233	234	235	234	230	229	231	231	231	231	231	231	229	229	226	227	230	233	235	232	231	230	231	232	234	231	229	229	228	229	231	234	235	233	230	230	230	230	231	232	233	233	231	228	227	229	231	230	229	228	229	229	229	232	231	230	228	226	228	230	231	230	232	233	233	230	230	229	230	230	229	229	229	230	233	235	235	236	235	233	232	231	229	229	230	231	232	230	229	230	231	231	231	228	229	229	229	228	227	227	228	230	232	233	232	230	229	228	227	229	231	231	228	228	226	225	226	228	231	231	230	230	228	235	229	231	230	228	229	230	227	230	230	231	231	218	226	228	228	228	230	229	227	227	228	227	228	225	228	228	226	226	225	226	226	227	226	225	231	229	229	229	227	0	0	0	0	0	0
223	222	222	222	221	220	221	223	223	226	226	227	227	227	226	226	226	226	226	227	228	227	226	224	224	226	226	230	228	228	228	228	228	228	228	226	225	227	227	227	228	228	228	230	229	225	225	226	231	231	231	231	229	229	232	232	232	230	229	228	230	230	229	228	226	226	226	226	227	228	231	235	235	231	234	234	232	228	229	228	228	228	228	228	229	230	229	230	229	228	227	228	229	229	231	230	228	224	224	226	227	226	224	225	226	225	226	226	226	226	225	226	226	226	226	226	227	228	230	230	230	228	227	227	227	227	227	228	232	230	226	228	228	231	229	229	229	230	232	232	232	229	228	230	233	233	232	232	231	231	229	228	229	228	228	226	226	228	227	229	228	229	229	230	229	227	226	228	226	227	228	228	229	225	226	227	233	235	234	228	227	228	228	228	228	230	230	231	230	230	230	230	230	231	232	233	231	231	228	229	231	231	231	231	230	227	228	230	230	229	230	229	230	228	230	230	230	230	229	227	227	226	229	230	230	230	231	230	232	234	235	236	233	230	230	231	234	234	234	231	231	234	237	234	232	231	232	231	229	229	229	230	231	231	231	232	232	234	234	233	231	232	233	235	235	231	229	230	231	233	233	232	231	231	231	229	230	234	234	233	232	228	227	226	228	229	231	233	232	231	232	235	234	235	231	230	230	226	223	227	227	231	233	234	235	233	233	231	232	233	231	230	230	231	231	234	237	236	237	237	231	226	225	226	231	235	235	234	230	227	229	233	235	232	233	229	231	228	233	230	230	231	233	235	234	233	233	229	228	229	228	225	233	230	231	233	235	235	234	233	236	234	233	236	236	237	233	237	232	232	233	232	232	233	233	234	235	230	232	235	238	234	234	234	234	236	236	234	234	233	232	232	230	230	230	234	232	233	232	230	228	229	232	233	234	235	234	233	232	230	231	230	232	233	233	232	236	234	233	234	231	228	229	233	232	230	230	231	231	232	232	230	230	233	232	230	230	230	230	230	231	233	232	234	234	231	236	232	230	231	235	233	231	232	235	235	232	232	223	224	225	225	229	230	230	230	230	232	231	231	231	230	232	233	234	229	231	229	230	229	229	229	228	228	227	225	227	230	232	234	231	231	227	228	230	230	228	226	228	227	229	231	233	233	233	229	229	230	229	228	230	230	231	230	224	224	226	228	228	228	227	227	227	228	229	228	228	226	225	225	224	226	228	231	233	232	229	228	228	229	228	228	227	226	227	228	231	228	225	226	226	229	229	230	229	230	229	229	226	225	226	230	229	224	225	227	228	227	228	226	226	229	227	227	228	230	229	227	225	224	226	230	230	229	224	224	226	226	226	227	230	228	226	217	224	225	231	227	224	225	225	225	229	221	221	220	222	224	229	227	227	229	228	227	225	225	224	224	224	225	225	227	227	226	225	225	225	223	223	227	229	229	228	227	0	0	0	0	0	0
220	221	221	221	221	219	219	223	223	224	226	224	222	222	222	223	222	223	224	224	225	227	224	223	224	224	227	226	226	225	224	224	223	221	224	224	225	226	226	227	224	222	222	221	223	222	222	223	227	228	229	224	225	228	229	229	229	229	229	230	228	230	228	227	225	225	225	225	228	228	229	232	234	232	229	231	228	231	231	230	228	228	228	228	228	228	228	229	228	226	227	226	228	230	229	226	227	226	226	227	225	224	225	226	226	226	225	225	226	226	225	225	225	226	225	225	227	227	229	229	228	228	228	228	226	227	226	224	226	223	226	226	226	227	229	228	229	230	230	224	229	226	226	229	230	231	230	229	229	227	226	227	229	228	228	226	226	226	227	227	227	228	230	230	229	227	227	225	225	225	227	225	226	225	226	227	227	234	232	228	227	228	227	227	228	229	230	230	229	229	229	227	227	229	233	232	231	229	225	227	230	230	230	229	226	227	229	229	229	229	229	230	231	229	226	225	226	228	229	229	225	226	228	229	231	232	232	231	229	230	231	231	232	227	227	228	230	229	229	228	230	231	231	232	228	228	227	224	223	221	225	228	229	229	230	230	231	230	230	227	228	228	228	232	232	231	228	229	230	232	232	233	232	230	229	229	233	231	231	229	230	228	227	229	229	232	231	232	233	231	230	233	231	230	229	229	229	226	226	227	227	228	231	233	233	233	231	229	230	229	230	233	230	230	226	223	229	230	234	234	231	227	226	227	233	233	233	232	230	230	230	229	230	226	227	230	229	231	227	230	230	229	231	233	231	234	232	229	229	228	228	229	229	231	231	232	232	225	229	229	229	231	235	236	236	236	233	230	231	229	229	229	229	230	231	232	228	228	230	234	237	235	235	234	233	236	234	235	234	232	232	232	233	230	231	234	231	231	229	229	228	230	229	231	232	233	229	230	232	230	225	229	229	231	229	232	232	232	231	230	228	227	225	229	232	230	230	229	230	230	233	234	233	230	229	229	228	231	228	230	229	230	230	229	230	230	228	228	228	228	232	233	231	232	232	232	228	222	223	228	228	227	229	229	230	233	231	230	230	229	228	229	228	230	231	230	229	229	229	228	229	229	229	226	225	224	228	233	233	231	231	225	225	226	228	227	225	226	228	228	229	229	228	228	226	225	228	227	229	227	228	230	228	224	223	224	227	227	227	227	226	225	223	223	222	223	225	228	226	225	225	225	224	224	225	227	225	224	225	226	225	224	225	225	225	225	225	226	227	228	226	228	227	228	226	230	229	226	225	225	226	229	225	225	224	222	229	227	227	226	225	226	227	226	227	227	226	225	224	222	224	224	226	224	224	223	225	225	224	224	224	224	223	221	222	224	224	225	225	226	223	220	220	224	223	222	224	223	225	227	227	228	229	227	223	221	222	222	224	224	225	225	229	227	226	225	225	224	221	225	226	226	227	227	0	0	0	0	0	0
218	219	220	220	219	215	220	219	219	221	223	223	222	222	222	221	221	222	224	224	225	224	220	221	223	223	228	226	224	221	222	221	221	221	220	219	221	224	225	225	221	219	219	221	220	219	219	219	222	223	224	221	222	225	227	227	227	227	228	229	230	230	225	225	224	224	225	225	225	226	229	229	228	230	227	227	229	229	229	229	228	225	225	223	226	227	227	227	227	226	223	222	227	225	229	225	226	223	227	227	226	225	225	226	224	226	225	223	223	225	225	223	223	224	224	224	224	225	225	226	227	226	226	226	226	224	223	221	223	225	224	224	226	227	227	228	229	227	225	221	228	225	224	226	226	230	228	227	226	224	225	227	229	228	225	225	226	226	225	226	227	228	228	228	227	227	226	225	224	226	224	227	225	225	225	226	228	225	229	229	227	226	227	226	227	227	229	226	226	228	228	228	228	229	230	230	231	228	227	226	226	225	225	226	225	225	225	226	229	230	231	230	230	226	225	224	224	227	228	227	225	223	219	223	226	226	227	227	227	226	226	227	228	227	226	226	224	223	226	227	229	230	229	228	229	227	226	224	223	221	226	227	229	229	230	229	227	227	227	228	231	230	226	226	231	231	228	228	228	228	229	231	233	231	230	228	227	228	229	228	229	229	226	227	228	232	229	231	230	229	227	231	231	231	230	229	231	230	231	230	229	230	229	229	230	231	231	232	228	229	229	233	228	224	223	223	227	228	233	226	227	225	227	225	225	234	229	228	228	230	230	228	230	225	228	228	230	231	230	225	226	228	230	232	233	228	230	229	225	231	229	228	230	231	231	230	231	224	227	228	228	231	232	235	235	233	233	234	229	226	226	227	227	228	230	227	227	226	228	231	230	231	230	229	231	232	236	234	232	227	232	233	233	231	231	233	234	230	228	226	226	227	225	228	230	230	229	227	228	228	224	223	228	228	229	230	232	232	230	229	229	225	226	228	228	231	229	228	228	232	232	230	229	226	229	229	228	228	231	228	230	230	229	228	227	229	228	228	228	229	228	231	232	229	227	228	228	221	222	229	225	227	230	230	230	230	230	229	229	228	228	228	230	227	229	225	228	228	226	227	228	229	228	227	226	224	225	229	231	231	230	225	225	227	227	225	223	224	227	227	228	228	228	227	228	226	226	227	224	227	228	227	226	223	223	223	225	225	225	222	221	219	220	221	222	224	224	225	228	224	223	223	223	222	224	227	224	223	222	223	222	224	224	225	225	225	225	227	226	227	226	225	226	220	220	225	227	226	225	225	225	228	224	225	224	223	225	224	224	224	224	225	224	225	226	224	223	223	221	221	221	224	225	222	224	225	223	223	223	223	221	221	221	220	221	222	223	222	223	221	220	220	220	220	220	224	225	224	223	223	225	225	226	226	222	221	221	223	222	222	224	225	226	227	226	225	225	223	221	221	220	220	224	225	0	0	0	0	0	0
219	217	217	216	216	215	217	217	219	219	219	221	220	221	221	222	222	223	224	224	225	224	219	219	221	221	223	224	225	225	223	223	223	220	219	219	220	222	222	222	218	217	217	219	219	217	218	218	221	222	223	221	221	221	224	225	225	226	227	227	227	226	223	224	224	224	224	224	224	224	224	225	226	227	229	227	224	225	227	227	227	224	224	224	226	227	227	226	225	220	221	221	221	222	222	222	222	224	225	225	224	224	224	225	225	225	223	222	220	221	222	223	222	222	221	224	222	222	223	225	226	225	225	224	223	223	223	223	223	224	223	223	223	223	223	226	225	225	223	221	222	222	222	222	222	224	222	223	220	220	221	222	223	224	224	226	226	226	224	225	226	226	226	225	225	225	225	224	226	225	225	224	225	225	224	224	223	227	227	229	226	224	225	226	226	226	226	224	224	224	227	227	228	226	224	224	221	227	226	222	222	223	224	225	225	225	225	225	228	231	231	230	228	227	226	225	223	227	226	226	224	224	224	225	226	227	226	227	227	225	226	227	226	226	226	227	225	222	222	224	228	228	227	227	226	222	226	225	222	223	225	225	230	230	230	226	228	225	225	227	229	226	226	226	228	229	229	227	225	223	225	226	229	228	227	228	225	225	224	224	226	225	226	224	224	225	225	225	225	226	226	228	225	225	224	226	229	228	229	230	231	229	227	229	229	226	226	226	227	227	226	227	227	227	225	224	224	226	228	227	225	223	224	226	227	226	227	227	231	228	227	228	228	224	228	228	229	228	229	229	225	226	229	231	231	232	227	227	229	227	230	231	231	231	231	232	229	226	225	228	227	227	228	231	230	231	232	230	226	226	227	227	227	227	225	226	226	226	226	227	226	228	226	225	226	229	232	234	232	230	228	232	230	229	230	232	233	231	230	229	225	226	228	229	229	229	228	226	225	224	226	227	225	228	228	231	232	232	231	230	230	229	229	232	231	226	226	226	225	226	228	229	227	227	229	228	229	231	231	230	229	230	229	229	228	228	228	228	229	228	228	223	226	225	226	226	226	223	222	224	226	227	223	225	227	230	228	226	226	226	223	228	227	222	224	221	225	224	225	226	227	228	227	226	225	227	225	227	229	231	229	228	226	226	227	223	223	225	224	223	224	225	227	227	227	227	225	224	225	225	224	224	223	223	223	223	224	224	224	224	223	219	220	218	222	225	224	224	222	221	222	222	221	222	223	225	223	219	218	218	221	222	223	223	224	223	221	222	224	225	225	225	224	225	223	220	219	219	224	224	224	227	224	224	222	222	223	222	223	224	222	222	221	222	223	223	223	223	222	222	223	226	227	226	223	227	226	223	223	221	222	223	221	216	218	221	223	222	224	221	220	220	220	219	219	219	225	223	222	222	224	225	225	226	222	221	222	219	219	222	220	223	223	221	221	223	224	221	219	219	219	220	220	221	0	0	0	0	0	0
214	215	217	218	218	218	218	214	216	216	217	219	220	218	218	220	222	223	223	224	224	220	218	220	221	220	220	223	222	224	223	222	222	222	219	217	218	219	221	221	217	217	216	218	218	217	218	218	219	219	218	220	222	221	223	223	223	223	224	227	226	222	223	223	225	222	222	222	222	222	222	223	225	227	225	224	224	222	220	223	225	224	225	225	226	228	228	226	222	218	219	223	223	223	222	221	221	222	222	223	219	217	218	222	224	220	222	222	220	219	222	222	220	221	222	223	221	223	223	222	222	217	219	220	220	221	223	223	223	223	222	221	222	222	222	222	221	223	224	224	226	225	222	222	221	220	222	220	220	220	221	222	223	223	224	225	226	226	223	225	225	224	223	223	224	224	224	221	225	224	224	224	224	223	221	222	222	223	228	228	223	224	225	225	225	225	223	224	224	226	224	224	224	224	222	225	221	224	225	224	222	223	223	224	225	226	225	220	219	221	221	227	226	227	225	225	225	225	226	225	223	224	225	226	227	225	225	226	225	224	225	227	226	225	225	226	225	222	222	223	225	226	226	223	221	221	223	224	224	223	223	225	227	227	227	228	227	220	224	226	228	224	224	226	226	229	227	228	226	223	225	228	225	228	225	226	227	228	225	224	222	224	224	225	219	219	225	225	225	226	226	225	220	218	219	221	226	226	226	227	229	228	227	224	221	219	226	227	227	227	227	227	227	229	229	227	223	224	225	228	227	226	224	226	227	226	227	226	227	226	225	229	228	229	227	225	226	225	226	227	222	222	223	226	228	228	227	225	228	226	230	227	229	230	227	227	228	227	227	222	224	227	227	231	231	230	230	226	227	226	227	228	226	227	226	223	225	226	226	226	226	225	226	226	226	227	229	230	230	229	227	228	230	225	225	229	230	230	232	231	228	225	227	229	229	229	227	228	225	224	224	224	225	227	228	228	232	230	227	227	227	227	229	231	230	230	229	229	223	221	224	226	229	230	228	228	228	231	228	229	227	228	229	228	227	227	228	227	227	225	225	221	225	224	224	223	222	220	222	224	222	221	222	223	225	226	227	225	222	222	226	228	230	228	225	223	222	221	224	224	224	224	227	225	225	225	225	228	228	228	228	227	226	225	224	223	222	224	224	221	221	222	222	222	223	225	221	223	223	223	222	221	223	223	223	222	223	225	225	225	224	223	223	219	222	225	225	224	224	225	224	224	223	222	222	221	220	219	217	217	218	220	221	222	221	222	221	220	220	221	224	223	225	222	220	218	214	210	220	221	222	222	223	221	219	220	221	221	221	224	221	220	216	218	222	223	223	223	223	222	223	228	229	227	224	227	221	224	221	219	220	222	219	217	217	219	220	223	223	221	218	218	219	219	220	223	221	223	223	221	219	220	225	225	222	221	219	216	216	218	218	218	219	221	222	220	221	220	217	216	218	218	217	221	0	0	0	0	0	0
213	215	218	217	217	219	218	214	213	213	214	216	215	217	216	216	218	217	218	217	217	218	218	217	219	218	218	218	219	221	220	221	218	218	218	217	216	217	219	217	216	216	217	219	218	219	219	218	218	217	217	214	219	221	221	222	222	222	222	224	223	220	222	217	219	220	220	217	217	220	220	222	223	222	221	223	223	220	221	221	221	221	222	227	227	227	227	224	219	217	221	222	223	223	222	221	221	220	218	215	215	217	219	217	219	219	220	221	220	217	218	218	218	219	219	221	220	217	220	222	223	217	218	218	217	218	221	223	222	222	220	219	220	221	221	221	221	221	222	224	225	225	223	221	220	220	217	219	219	220	220	221	222	221	223	224	225	224	224	223	223	223	223	223	223	221	222	219	223	223	225	223	223	221	223	221	222	222	221	223	222	221	224	224	225	223	223	221	222	222	220	222	221	223	221	223	220	222	223	224	222	224	222	222	223	219	219	217	220	221	219	219	220	223	223	224	225	225	226	222	223	226	226	227	226	225	225	226	227	228	224	225	225	224	225	223	220	220	222	222	225	225	225	221	222	222	221	222	223	222	223	223	223	224	224	226	224	225	219	222	225	224	223	225	222	226	225	226	224	226	225	223	219	225	224	224	224	224	222	225	223	222	224	225	219	220	222	224	224	225	224	224	224	221	221	221	220	221	223	227	230	227	226	224	222	222	223	221	224	223	223	222	222	225	225	226	224	224	224	224	228	223	224	225	225	225	226	227	224	221	220	221	222	220	218	219	219	226	225	224	220	221	222	224	226	227	226	228	225	226	226	225	227	228	227	227	229	229	229	228	229	228	229	230	231	231	229	228	227	225	225	226	230	228	226	225	225	225	225	224	225	223	225	225	226	225	225	229	229	228	227	223	224	223	222	228	229	232	230	227	227	224	223	227	223	224	227	226	224	223	224	224	225	228	227	227	227	227	226	226	227	227	227	228	230	229	225	223	223	222	224	225	224	223	222	225	227	226	227	226	224	228	223	226	225	225	225	224	222	221	224	227	228	225	222	223	222	221	225	226	223	225	225	226	225	221	219	219	220	220	225	225	226	226	225	220	219	221	224	222	227	223	223	221	219	222	223	223	225	225	221	221	223	222	222	222	223	223	221	222	221	221	221	221	224	225	220	223	221	222	221	220	220	223	222	222	221	221	221	222	224	225	223	221	224	224	221	221	223	224	224	223	223	221	221	221	219	216	216	219	220	220	219	221	222	222	219	219	219	218	218	221	222	222	220	218	215	220	220	221	219	218	218	218	222	217	218	222	220	220	218	217	216	217	220	223	221	220	219	218	222	224	224	223	223	221	222	221	219	218	219	221	221	221	218	219	221	221	221	219	220	220	219	219	217	218	221	223	223	220	219	220	224	224	222	221	216	216	215	216	218	217	218	220	220	220	220	220	218	218	216	216	217	217	0	0	0	0	0	0
