0	0	0	0	0	0	0	0	0	0	0	0	0	0	0	0	0	0	0	0	0	0	0	0	0	0	0	0	0	0	0	0	0	0	0	0	0	0	0	0	0	0	0	0	0	0	0	0	0	0	0	0	0	0	0	0	0	0	0	0	0	0	0	0	0	0	0	0	0	0	0	0	0	0	0	0	0	0	0	0	0	0	0	0	0	0	0	0	0	0	0	0	0	0	0	0	0	0	0	0	0	0	0	0	0	0	0	0	0	0	0	0	0	0	0	0	0	0	0	0	0	0	0	0	0	0	0	0	0	0	0	0	0	0	0	0	0	0	0	0	0	0	0	0	0	0	0	0	0	0	0	0	0	0	0	0	0	0	0	0	0	0	0	0	0	0	0	0	0	0	0	1317	1330	1336	1347	1359	1358	1354	1351	1373	1405	1433	1438	1421	1363	1342	1318	1307	1292	1278	1314	1349	1369	1373	1373	1366	1395	1441	1428	1401	1382	1364	1367	1379	1380	1344	1370	1423	1428	1449	1417	1389	1356	1356	0	0	0	0	0	0	0	0	0	0	0	0	0	0	0	0	0	0	0	0	0	0	0	0	0	0	0	0	0	0	0	0	0	0	0	0	0	0	0	0	0	0	0	0	0	0	0	0	0	0	1550	1561	1585	1584	1559	1518	0	0	0	0	0	0	0	0	0	0	0	0	0	0	0	0	0	0	0	0	0	0	0	0	0	0	0	0	0	0	0	1296	1316	1331	1342	1342	1349	1363	1361	1353	1333	1315	1305	1315	1319	1322	1323	1315	1309	1291	1280	1280	1296	1307	1317	1312	1302	1302	1312	1322	1329	1330	1324	1318	1311	1324	1341	1351	1355	1353	1343	1331	1328	1325	1324	1339	1350	1352	1331	1322	1318	1335	1350	1356	1361	1350	1340	1335	1332	1329	1322	1331	1331	1332	1336	1338	1325	1306	1294	1292	1297	1302	1310	1316	1327	1343	1347	1343	1350	1356	1365	1341	1311	1301	1305	1288	0	0	0	0	0	0	0	1482	1605	1619	1623	1567	0	0	0	0	0	0	0	0	0	0	0	0	0	0	0	0	0	0	0	0	0	0	0	0	0	0	0	0	0	0	0	0	0	0	0	0	0	0	0	0	0	0	0	0	0	0	0	0	0	0	0	0	0	0	0	0	0	0	0	0	0	0	0	0	0	0	0	0	0	0	0	0	0	0	0	0	0	0	0	0	0	0	0	0	0	0	0	0	0	0	1179	1207	1229	1254	1266	1294	1295	1295	1294	1272	1229	1227	1231	1235	1245	1269	1272	1268	1261	1243	1227	1225	1236	1237	1232	1226	1221	1221	1228	1252	1260	1253	1243	1235	1231	1227	1224	1226	1227	1224	1226	1220	1213	1187	1167	1168	1183	1205	1222	1222	1210	1192	1182	1177	1178	1201	1216	1212	1203	0	0	0	0	0	0	0	0	0	0	0	0	0	0	0	0	0	0	0	0	0	0	0	0	0	0	0	0	0	0	0	0	0	0	0	0	0	0	0	0	0	0	0	0	0	0	0	0	0	0	0	0	0	0	0	0	0	0	0	0	0	0	0	0	0	0	0	0	0	0	0	0	0	0	0	0	0	0	0	0	0	0	0	0	0	0	0	0	0	0	0	0	0
0	0	0	0	0	0	0	0	0	0	0	0	0	0	0	0	0	0	0	0	0	0	0	0	0	0	0	0	0	0	0	0	0	0	0	0	0	0	0	0	0	0	0	0	0	0	0	0	0	0	0	0	0	0	0	0	0	0	0	0	0	0	0	0	0	0	0	0	0	0	0	0	0	0	0	0	0	0	0	0	0	0	0	0	0	0	0	0	0	0	0	0	0	0	0	0	0	0	0	0	0	0	0	0	0	0	0	0	0	0	0	0	0	0	0	0	0	0	0	0	0	0	0	0	0	0	0	0	0	0	0	0	0	0	0	0	0	0	0	0	0	0	0	0	0	0	0	0	0	0	0	0	0	0	0	0	0	0	0	0	0	0	0	0	0	0	0	0	0	0	0	0	1317	1318	1327	1377	1403	1412	1384	1403	1420	1429	1409	1384	1368	1344	1320	1313	1296	1287	1326	1355	1371	1370	1361	1367	1396	1423	1427	1411	1402	1395	1386	1388	1380	1359	1376	1430	1433	1436	1407	1376	1354	1333	0	0	0	0	0	0	0	0	0	0	0	0	0	0	0	0	0	0	0	0	0	0	0	0	0	0	0	0	0	0	0	0	0	0	0	0	0	0	0	0	0	0	0	0	0	0	0	0	0	0	1564	1599	1596	1590	1576	0	0	0	0	0	0	0	0	0	0	0	0	0	0	0	0	0	0	0	0	0	0	0	0	0	0	0	0	0	0	0	0	1316	1322	1332	1357	1366	1366	1364	1361	1352	1336	1318	1312	1316	1330	1334	1326	1305	1288	1275	1267	1275	1287	1314	1324	1322	1306	1306	1305	1319	1335	1343	1339	1330	1311	1323	1327	1333	1340	1342	1338	1326	1320	1317	1327	1336	1345	1341	1322	1320	1320	1338	1358	1368	1363	1346	1341	1331	1326	1326	1334	1344	1334	1329	1333	1332	1324	1302	1293	1289	1291	1295	1296	1310	1326	1338	1339	1343	1341	1354	1368	1330	1303	1285	1282	1273	0	0	0	0	0	0	0	1489	1609	1617	1628	1577	1503	0	0	0	0	0	0	0	0	0	0	0	0	0	0	0	0	0	0	0	0	0	0	0	0	0	0	0	0	0	0	0	0	0	0	0	0	0	0	0	0	0	0	0	0	0	0	0	0	0	0	0	0	0	0	0	0	0	0	0	0	0	0	0	0	0	0	0	0	0	0	0	0	0	0	0	0	0	0	0	0	0	0	0	0	0	0	0	0	0	1177	1218	1225	1251	1258	1275	1289	1287	1288	1282	1240	1237	1234	1239	1251	1275	1264	1253	1247	1242	1234	1234	1239	1237	1231	1227	1219	1218	1223	1258	1267	1263	1258	1246	1236	1231	1232	1236	1233	1232	1229	1216	1207	1184	1168	1173	1183	1208	1232	1239	1238	1219	1192	1176	1174	1187	1206	1204	1187	1136	0	0	0	0	0	0	0	0	0	0	0	0	0	0	0	0	0	0	0	0	0	0	0	0	0	0	0	0	0	0	0	0	0	0	0	0	0	0	0	0	0	0	0	0	0	0	0	0	0	0	0	0	0	0	0	0	0	0	0	0	0	0	0	0	0	0	0	0	0	0	0	0	0	0	0	0	0	0	0	0	0	0	0	0	0	0	0	0	0	0	0	0
0	0	0	0	0	0	0	0	0	0	0	0	0	0	0	0	0	0	0	0	0	0	0	0	0	0	0	0	0	0	0	0	0	0	0	0	0	0	0	0	0	0	0	0	0	0	0	0	0	0	0	0	0	0	0	0	0	0	0	0	0	0	0	0	0	0	0	0	0	0	0	0	0	0	0	0	0	0	0	0	0	0	0	0	0	0	0	0	0	0	0	0	0	0	0	0	0	0	0	0	0	0	0	0	0	0	0	0	0	0	0	0	0	0	0	0	0	0	0	0	0	0	0	0	0	0	0	0	0	0	0	0	0	0	0	0	0	0	0	0	0	0	0	0	0	0	0	0	0	0	0	0	0	0	0	0	0	0	0	0	0	0	0	0	0	0	0	0	0	0	0	0	1330	1319	1315	1363	1384	1402	1393	1396	1389	1370	1356	1364	1394	1383	1352	1344	1327	1312	1338	1361	1381	1376	1361	1361	1374	1406	1419	1418	1410	1405	1389	1391	1389	1372	1398	1425	1431	1427	1395	1364	1333	1315	0	0	0	0	0	0	0	0	0	0	0	0	0	0	0	0	0	0	0	0	0	0	0	0	0	0	0	0	0	0	0	0	0	0	0	0	0	0	0	0	0	0	0	0	0	0	0	0	0	0	1598	1620	1626	1616	1600	0	0	0	0	0	0	0	0	0	0	0	0	0	0	0	0	0	0	0	0	0	0	0	0	0	0	0	0	0	0	0	0	1318	1307	1327	1359	1376	1365	1359	1346	1346	1340	1329	1322	1324	1341	1340	1324	1301	1277	1269	1269	1271	1297	1318	1333	1324	1311	1292	1302	1318	1337	1340	1336	1321	1319	1317	1316	1319	1329	1339	1343	1333	1322	1321	1319	1330	1329	1324	1316	1321	1324	1336	1354	1353	1348	1350	1339	1333	1330	1333	1342	1344	1334	1327	1331	1332	1333	1322	1301	1296	1282	1286	1293	1303	1320	1337	1333	1334	1339	1336	1326	1308	1291	1264	1261	1250	0	0	0	0	0	0	0	1520	1601	1619	1635	1581	1480	0	0	0	0	0	0	0	0	0	0	0	0	0	0	0	0	0	0	0	0	0	0	0	0	0	0	0	0	0	0	0	0	0	0	0	0	0	0	0	0	0	0	0	0	0	0	0	0	0	0	0	0	0	0	0	0	0	0	0	0	0	0	0	0	0	0	0	0	0	0	0	0	0	0	0	0	0	0	0	0	0	0	0	0	0	0	0	0	0	0	1234	1240	1259	1255	1265	1274	1282	1282	1285	1254	1247	1242	1242	1269	1275	1263	1254	1251	1249	1242	1228	1234	1237	1233	1233	1228	1220	1238	1254	1263	1264	1256	1241	1233	1227	1238	1239	1238	1233	1220	1199	1190	1186	1179	1176	1183	1200	1213	1233	1237	1225	1216	1186	1177	1189	1200	1194	1170	1146	0	0	0	0	0	0	0	0	0	0	0	0	0	0	0	0	0	0	0	0	0	0	0	0	0	0	0	0	0	0	0	0	0	0	0	0	0	0	0	0	0	0	0	0	0	0	0	0	0	0	0	0	0	0	0	0	0	0	0	0	0	0	0	0	0	0	0	0	0	0	0	0	0	0	0	0	0	0	0	0	0	0	0	0	0	0	0	0	0	0	0	0
0	0	0	0	0	0	0	0	0	0	0	0	0	0	0	0	0	0	0	0	0	0	0	0	0	0	0	0	0	0	0	0	0	0	0	0	0	0	0	0	0	0	0	0	0	0	0	0	0	0	0	0	0	0	0	0	0	0	0	0	0	0	0	0	0	0	0	0	0	0	0	0	0	0	0	0	0	0	0	0	0	0	0	0	0	0	0	0	0	0	0	0	0	0	0	0	0	0	0	0	0	0	0	0	0	0	0	0	0	0	0	0	0	0	0	0	0	0	0	0	0	0	0	0	0	0	0	0	0	0	0	0	0	0	0	0	0	0	0	0	0	0	0	0	0	0	0	0	0	0	0	0	0	0	0	0	0	0	0	0	0	0	0	0	0	0	0	0	0	0	0	0	1341	1312	1310	1335	1365	1364	1358	1369	1377	1382	1384	1384	1388	1394	1392	1383	1372	1363	1367	1362	1377	1380	1357	1345	1333	1365	1381	1395	1406	1394	1381	1380	1392	1392	1420	1423	1425	1429	1396	1355	1328	1306	0	0	0	0	0	0	0	0	0	0	0	0	0	0	0	0	0	0	0	0	0	0	0	0	0	0	0	0	0	0	0	0	0	0	0	0	0	0	0	0	0	0	0	0	0	0	0	0	0	0	1612	1626	1629	1630	1607	0	0	0	0	0	0	0	0	0	0	0	0	0	0	0	0	0	0	0	0	0	0	0	0	0	0	0	0	0	0	0	0	1303	1288	1305	1331	1356	1358	1340	1329	1334	1336	1344	1333	1329	1337	1339	1328	1304	1282	1279	1286	1301	1320	1333	1339	1338	1311	1298	1305	1324	1337	1336	1321	1313	1317	1321	1318	1319	1330	1344	1349	1343	1332	1323	1322	1319	1316	1311	1315	1317	1328	1338	1336	1350	1348	1345	1338	1333	1331	1330	1342	1342	1331	1319	1322	1326	1330	1328	1325	1306	1290	1285	1292	1302	1314	1323	1323	1335	1339	1338	1322	1297	1279	1266	1254	1253	0	0	0	0	0	0	0	1514	1598	1613	1627	1591	0	0	0	0	0	0	0	0	0	0	0	0	0	0	0	0	0	0	0	0	0	0	0	0	0	0	0	0	0	0	0	0	0	0	0	0	0	0	0	0	0	0	0	0	0	0	0	0	0	0	0	0	0	0	0	0	0	0	0	0	0	0	0	0	0	0	0	0	0	0	0	0	0	0	0	0	0	0	0	0	0	0	0	0	0	0	0	0	0	0	0	1252	1269	1283	1290	1277	1279	1282	1282	1276	1249	1239	1228	1235	1252	1266	1261	1260	1255	1247	1235	1228	1228	1229	1232	1235	1236	1230	1238	1247	1257	1254	1245	1235	1226	1228	1237	1240	1239	1231	1214	1201	1190	1184	1181	1181	1182	1186	1188	1192	1213	1230	1223	1211	1198	1202	1201	1184	1165	1143	0	0	0	0	0	0	0	0	0	0	0	0	0	0	0	0	0	0	0	0	0	0	0	0	0	0	0	0	0	0	0	0	0	0	0	0	0	0	0	0	0	0	0	0	0	0	0	0	0	0	0	0	0	0	0	0	0	0	0	0	0	0	0	0	0	0	0	0	0	0	0	0	0	0	0	0	0	0	0	0	0	0	0	0	0	0	0	0	0	0	0	0
0	0	0	0	0	0	0	0	0	0	0	0	0	0	0	0	0	0	0	0	0	0	0	0	0	0	0	0	0	0	0	0	0	0	0	0	0	0	0	0	0	0	0	0	0	0	0	0	0	0	0	0	0	0	0	0	0	0	0	0	0	0	0	0	0	0	0	0	0	0	0	0	0	0	0	0	0	0	0	0	0	0	0	0	0	0	0	0	0	0	0	0	0	0	0	0	0	0	0	0	0	0	0	0	0	0	0	0	0	0	0	0	0	0	0	0	0	0	0	0	0	0	0	0	0	0	0	0	0	0	0	0	0	0	0	0	0	0	0	0	0	0	0	0	0	0	0	0	0	0	0	0	0	0	0	0	0	0	0	0	0	0	0	0	0	0	0	0	0	0	0	0	1331	1313	1316	1342	1345	1347	1359	1372	1391	1414	1424	1408	1388	1373	1372	1351	1356	1350	1370	1377	1357	1336	1319	1327	1346	1361	1375	1373	1372	1362	1359	1369	1380	1383	1437	1433	1432	1449	1409	1368	1345	1323	1303	0	0	0	0	0	0	0	0	0	0	0	0	0	0	0	0	0	0	0	0	0	0	0	0	0	0	0	0	0	0	0	0	0	0	0	0	0	0	0	0	0	0	0	0	0	0	0	0	0	1606	1626	1630	1630	1614	0	0	0	0	0	0	0	0	0	0	0	0	0	0	0	0	0	0	0	0	0	0	0	0	0	0	0	0	0	0	0	0	1291	1277	1294	1319	1347	1349	1334	1323	1310	1320	1331	1325	1321	1326	1326	1322	1312	1303	1301	1312	1330	1345	1347	1345	1341	1327	1314	1310	1326	1337	1323	1312	1307	1318	1326	1328	1328	1339	1350	1355	1346	1334	1321	1318	1315	1315	1315	1318	1327	1338	1345	1346	1355	1353	1350	1343	1334	1323	1320	1325	1334	1320	1323	1317	1315	1318	1323	1335	1331	1310	1302	1302	1304	1301	1298	1314	1356	1348	1362	1324	1293	1276	1270	1260	1254	0	0	0	0	0	0	0	1513	1591	1608	1609	1580	0	0	0	0	0	0	0	0	0	0	0	0	0	0	0	0	0	0	0	0	0	0	0	0	0	0	0	0	0	0	0	0	0	0	0	0	0	0	0	0	0	0	0	0	0	0	0	0	0	0	0	0	0	0	0	0	0	0	0	0	0	0	0	0	0	0	0	0	0	0	0	0	0	0	0	0	0	0	0	0	0	0	0	0	0	0	0	0	0	0	1234	1245	1264	1276	1288	1276	1275	1277	1276	1255	1231	1216	1213	1223	1249	1264	1265	1259	1253	1243	1240	1240	1235	1237	1238	1246	1243	1234	1226	1234	1242	1241	1238	1231	1222	1227	1234	1236	1233	1226	1217	1210	1199	1187	1186	1186	1187	1185	1178	1184	1203	1222	1222	1217	1221	1215	1201	1181	1162	1146	0	0	0	0	0	0	0	0	0	0	0	0	0	0	0	0	0	0	0	0	0	0	0	0	0	0	0	0	0	0	0	0	0	0	0	0	0	0	0	0	0	0	0	0	0	0	0	0	0	0	0	0	0	0	0	0	0	0	0	0	0	0	0	0	0	0	0	0	0	0	0	0	0	0	0	0	0	0	0	0	0	0	0	0	0	0	0	0	0	0	0	0
0	0	0	0	0	0	0	0	0	0	0	0	0	0	0	0	0	0	0	0	0	0	0	0	0	0	0	0	0	0	0	0	0	0	0	0	0	0	0	0	0	0	0	0	0	0	0	0	0	0	0	0	0	0	0	0	0	0	0	0	0	0	0	0	0	0	0	0	0	0	0	0	0	0	0	0	0	0	0	0	0	0	0	0	0	0	0	0	0	0	0	0	0	0	0	0	0	0	0	0	0	0	0	0	0	0	0	0	0	0	0	0	0	0	0	0	0	0	0	0	0	0	0	0	0	0	0	0	0	0	0	0	0	0	0	0	0	0	0	0	0	0	0	0	0	0	0	0	0	0	0	0	0	0	0	0	0	0	0	0	0	0	0	0	0	0	0	0	0	0	0	1327	1314	1313	1316	1356	1367	1364	1363	1380	1415	1451	1448	1425	1396	1373	1358	1345	1334	1339	1372	1375	1340	1313	1301	1318	1342	1358	1352	1336	1316	1308	1343	1353	1365	1377	1460	1457	1450	1449	1418	1381	1363	1329	1309	0	0	0	0	0	0	0	0	0	0	0	0	0	0	0	0	0	0	0	0	0	0	0	0	0	0	0	0	0	0	0	0	0	0	0	0	0	0	0	0	0	0	0	0	0	0	0	0	0	1580	1596	1614	1615	1615	0	0	0	0	0	0	0	0	0	0	0	0	0	0	0	0	0	0	0	0	0	0	0	0	0	0	0	0	0	0	0	0	1284	1286	1294	1311	1335	1345	1338	1322	1303	1298	1308	1308	1314	1318	1320	1324	1320	1322	1319	1325	1333	1340	1343	1340	1341	1330	1317	1312	1324	1342	1327	1314	1316	1325	1335	1340	1338	1338	1345	1347	1339	1321	1311	1309	1311	1316	1319	1326	1333	1343	1349	1357	1357	1356	1354	1348	1336	1324	1315	1320	1348	1334	1321	1315	1312	1306	1311	1332	1336	1339	1324	1320	1309	1303	1290	1306	1361	1359	1360	1336	1308	1285	1273	1263	1262	0	0	0	0	0	0	0	1515	1588	1596	1594	1552	0	0	0	0	0	0	0	0	0	0	0	0	0	0	0	0	0	0	0	0	0	0	0	0	0	0	0	0	0	0	0	0	0	0	0	0	0	0	0	0	0	0	0	0	0	0	0	0	0	0	0	0	0	0	0	0	0	0	0	0	0	0	0	0	0	0	0	0	0	0	0	0	0	0	0	0	0	0	0	0	0	0	0	0	0	0	0	0	0	0	1199	1216	1241	1263	1254	1264	1265	1251	1247	1228	1215	1199	1202	1214	1247	1256	1264	1260	1254	1245	1243	1243	1246	1252	1247	1251	1245	1238	1218	1221	1229	1236	1239	1233	1228	1224	1226	1228	1222	1223	1219	1216	1210	1197	1195	1199	1198	1188	1187	1193	1208	1221	1223	1226	1232	1228	1204	1182	1166	1149	0	0	0	0	0	0	0	0	0	0	0	0	0	0	0	0	0	0	0	0	0	0	0	0	0	0	0	0	0	0	0	0	0	0	0	0	0	0	0	0	0	0	0	0	0	0	0	0	0	0	0	0	0	0	0	0	0	0	0	0	0	0	0	0	0	0	0	0	0	0	0	0	0	0	0	0	0	0	0	0	0	0	0	0	0	0	0	0	0	0	0	0
0	0	0	0	0	0	0	0	0	0	0	0	0	0	0	0	0	0	0	0	0	0	0	0	0	0	0	0	0	0	0	0	0	0	0	0	0	0	0	0	0	0	0	0	0	0	0	0	0	0	0	0	0	0	0	0	0	0	0	0	0	0	0	0	0	0	0	0	0	0	0	0	0	0	0	0	0	0	0	0	0	0	0	0	0	0	0	0	0	0	0	0	0	0	0	0	0	0	0	0	0	0	0	0	0	0	0	0	0	0	0	0	0	0	0	0	0	0	0	0	0	0	0	0	0	0	0	0	0	0	0	0	0	0	0	0	0	0	0	0	0	0	0	0	0	0	0	0	0	0	0	0	0	0	0	0	0	0	0	0	0	0	0	0	0	0	0	0	0	0	1312	1311	1307	1314	1326	1363	1380	1375	1369	1392	1425	1465	1465	1442	1399	1364	1347	1340	1328	1327	1379	1381	1352	1309	1296	1310	1339	1343	1341	1328	1310	1298	1296	1309	1328	1360	1468	1464	1461	1443	1411	1380	1367	1350	1318	0	0	0	0	0	0	0	0	0	0	0	0	0	0	0	0	0	0	0	0	0	0	0	0	0	0	0	0	0	0	0	0	0	0	0	0	0	0	0	0	0	0	0	0	0	0	0	0	0	1564	1567	1588	1593	1596	1552	0	0	0	0	0	0	0	0	0	0	0	0	0	0	0	0	0	0	0	0	0	0	0	0	0	0	0	0	0	0	0	1278	1303	1306	1310	1329	1339	1334	1321	1304	1298	1307	1311	1319	1322	1319	1317	1331	1325	1323	1319	1318	1322	1328	1334	1320	1322	1309	1309	1321	1344	1340	1317	1315	1326	1342	1347	1337	1325	1326	1327	1323	1314	1308	1303	1311	1321	1326	1328	1335	1336	1346	1352	1354	1345	1348	1350	1344	1334	1321	1330	1346	1335	1323	1312	1303	1300	1309	1333	1352	1356	1346	1332	1324	1313	1297	1298	1356	1359	1358	1338	1336	1297	1265	1253	1267	0	0	0	0	0	0	0	1519	1595	1599	1597	1568	0	0	0	0	0	0	0	0	0	0	0	0	0	0	0	0	0	0	0	0	0	0	0	0	0	0	0	0	0	0	0	0	0	0	0	0	0	0	0	0	0	0	0	0	0	0	0	0	0	0	0	0	0	0	0	0	0	0	0	0	0	0	0	0	0	0	0	0	0	0	0	0	0	0	0	0	0	0	0	0	0	0	0	0	0	0	0	0	0	0	1182	1198	1218	1245	1246	1272	1266	1244	1246	1235	1215	1204	1208	1215	1246	1252	1258	1261	1260	1254	1256	1254	1253	1252	1250	1249	1248	1235	1211	1213	1225	1236	1241	1238	1222	1222	1215	1215	1213	1218	1221	1218	1211	1196	1203	1213	1213	1208	1203	1207	1214	1215	1223	1228	1232	1223	1213	1191	1176	1145	0	0	0	0	0	0	0	0	0	0	0	0	0	0	0	0	0	0	0	0	0	0	0	0	0	0	0	0	0	0	0	0	0	0	0	0	0	0	0	0	0	0	0	0	0	0	0	0	0	0	0	0	0	0	0	0	0	0	0	0	0	0	0	0	0	0	0	0	0	0	0	0	0	0	0	0	0	0	0	0	0	0	0	0	0	0	0	0	0	0	0	0
0	0	0	0	0	0	0	0	0	0	0	0	0	0	0	0	0	0	0	0	0	0	0	0	0	0	0	0	0	0	0	0	0	0	0	0	0	0	0	0	0	0	0	0	0	0	0	0	0	0	0	0	0	0	0	0	0	0	0	0	0	0	0	0	0	0	0	0	0	0	0	0	0	0	0	0	0	0	0	0	0	0	0	0	0	0	0	0	0	0	0	0	0	0	0	0	0	0	0	0	0	0	0	0	0	0	0	0	0	0	0	0	0	0	0	0	0	0	0	0	0	0	0	0	0	0	0	0	0	0	0	0	0	0	0	0	0	0	0	0	0	0	0	0	0	0	0	0	0	0	0	0	0	0	0	0	0	0	0	0	0	0	0	0	0	0	0	0	0	0	1297	1308	1309	1322	1331	1359	1371	1373	1376	1399	1418	1445	1453	1424	1386	1347	1330	1322	1328	1335	1373	1372	1349	1323	1311	1326	1341	1338	1332	1321	1313	1300	1293	1295	1316	1334	1452	1460	1454	1424	1411	1390	1378	1355	1324	0	0	0	0	0	0	0	0	0	0	0	0	0	0	0	0	0	0	0	0	0	0	0	0	0	0	0	0	0	0	0	0	0	0	0	0	0	0	0	0	0	0	0	0	0	0	0	0	0	1543	1541	1557	1566	1564	1545	0	0	0	0	0	0	0	0	0	0	0	0	0	0	0	0	0	0	0	0	0	0	0	0	0	0	0	0	0	0	0	1288	1313	1317	1320	1323	1328	1325	1315	1311	1311	1313	1322	1334	1330	1325	1318	1318	1316	1315	1311	1309	1315	1321	1325	1316	1322	1312	1311	1322	1334	1335	1315	1312	1322	1341	1347	1336	1320	1315	1320	1325	1320	1311	1309	1313	1325	1325	1320	1315	1322	1334	1337	1336	1340	1346	1349	1350	1337	1316	1308	1326	1330	1324	1310	1301	1303	1309	1329	1343	1354	1351	1335	1328	1318	1305	1293	1340	1350	1350	1328	1335	1310	1272	1257	1254	0	0	0	0	0	0	0	1513	1619	1619	1620	1597	0	0	0	0	0	0	0	0	0	0	0	0	0	0	0	0	0	0	0	0	0	0	0	0	0	0	0	0	0	0	0	0	0	0	0	0	0	0	0	0	0	0	0	0	0	0	0	0	0	0	0	0	0	0	0	0	0	0	0	0	0	0	0	0	0	0	0	0	0	0	0	0	0	0	0	0	0	0	0	0	0	0	0	0	0	0	0	0	0	0	1191	1193	1209	1235	1242	1261	1262	1269	1255	1265	1244	1232	1226	1225	1232	1243	1249	1257	1264	1265	1261	1250	1239	1228	1230	1232	1237	1231	1210	1211	1227	1237	1243	1230	1218	1215	1208	1213	1210	1214	1211	1207	1186	1192	1208	1222	1222	1222	1218	1217	1218	1222	1223	1223	1227	1222	1213	1198	1176	1135	0	0	0	0	0	0	0	0	0	0	0	0	0	0	0	0	0	0	0	0	0	0	0	0	0	0	0	0	0	0	0	0	0	0	0	0	0	0	0	0	0	0	0	0	0	0	0	0	0	0	0	0	0	0	0	0	0	0	0	0	0	0	0	0	0	0	0	0	0	0	0	0	0	0	0	0	0	0	0	0	0	0	0	0	0	0	0	0	0	0	0	0
0	0	0	0	0	0	0	0	0	0	0	0	0	0	0	0	0	0	0	0	0	0	0	0	0	0	0	0	0	0	0	0	0	0	0	0	0	0	0	0	0	0	0	0	0	0	0	0	0	0	0	0	0	0	0	0	0	0	0	0	0	0	0	0	0	0	0	0	0	0	0	0	0	0	0	0	0	0	0	0	0	0	0	0	0	0	0	0	0	0	0	0	0	0	0	0	0	0	0	0	0	0	0	0	0	0	0	0	0	0	0	0	0	0	0	0	0	0	0	0	0	0	0	0	0	0	0	0	0	0	0	0	0	0	0	0	0	0	0	0	0	0	0	0	0	0	0	0	0	0	0	0	0	0	0	0	0	0	0	0	0	0	0	0	0	0	0	0	0	0	0	1316	1343	1338	1339	1341	1370	1380	1389	1392	1409	1415	1417	1402	1368	1334	1306	1311	1323	1339	1363	1354	1346	1328	1333	1348	1361	1348	1332	1324	1311	1303	1296	1297	1314	1332	1435	1451	1448	1436	1419	1423	1404	1373	1332	0	0	0	0	0	0	0	0	0	0	0	0	0	0	0	0	0	0	0	0	0	0	0	0	0	0	0	0	0	0	0	0	0	0	0	0	0	0	0	0	0	0	0	0	0	0	0	0	0	1555	1538	1539	1546	1546	1532	0	0	0	0	0	0	0	0	0	0	0	0	0	0	0	0	0	0	0	0	0	0	0	0	0	0	0	0	0	0	0	1291	1311	1314	1318	1316	1317	1307	1307	1307	1313	1318	1331	1332	1331	1326	1312	1304	1302	1306	1310	1317	1323	1322	1321	1331	1333	1321	1319	1325	1326	1307	1301	1305	1322	1347	1352	1339	1324	1316	1316	1323	1326	1320	1319	1323	1329	1332	1323	1313	1314	1319	1326	1323	1332	1348	1353	1349	1335	1314	1305	1318	1327	1324	1313	1304	1308	1314	1322	1336	1347	1335	1323	1319	1312	1312	1302	1332	1331	1328	1315	1328	1320	1293	1273	1260	0	0	0	0	0	0	0	1498	1631	1637	1638	1611	0	0	0	0	0	0	0	0	0	0	0	0	0	0	0	0	0	0	0	0	0	0	0	0	0	0	0	0	0	0	0	0	0	0	0	0	0	0	0	0	0	0	0	0	0	0	0	0	0	0	0	0	0	0	0	0	0	0	0	0	0	0	0	0	0	0	0	0	0	0	0	0	0	0	0	0	0	0	0	0	0	0	0	0	0	0	0	0	0	0	1228	1226	1225	1231	1232	1249	1238	1241	1241	1273	1265	1258	1248	1248	1230	1231	1236	1248	1255	1254	1252	1233	1222	1211	1204	1215	1222	1226	1210	1215	1229	1241	1234	1223	1209	1209	1208	1209	1207	1206	1197	1190	1181	1187	1204	1215	1221	1224	1222	1225	1222	1222	1218	1228	1223	1219	1212	1202	1158	1134	1093	0	0	0	0	0	0	0	0	0	0	0	0	0	0	0	0	0	0	0	0	0	0	0	0	0	0	0	0	0	0	0	0	0	0	0	0	0	0	0	0	0	0	0	0	0	0	0	0	0	0	0	0	0	0	0	0	0	0	0	0	0	0	0	0	0	0	0	0	0	0	0	0	0	0	0	0	0	0	0	0	0	0	0	0	0	0	0	0	0	0	0
0	0	0	0	0	0	0	0	0	0	0	0	0	0	0	0	0	0	0	0	0	0	0	0	0	0	0	0	0	0	0	0	0	0	0	0	0	0	0	0	0	0	0	0	0	0	0	0	0	0	0	0	0	0	0	0	0	0	0	0	0	0	0	0	0	0	0	0	0	0	0	0	0	0	0	0	0	0	0	0	0	0	0	0	0	0	0	0	0	0	0	0	0	0	0	0	0	0	0	0	0	0	0	0	0	0	0	0	0	0	0	0	0	0	0	0	0	0	0	0	0	0	0	0	0	0	0	0	0	0	0	0	0	0	0	0	0	0	0	0	0	0	0	0	0	0	0	0	0	0	0	0	0	0	0	0	0	0	0	0	0	0	0	0	0	0	0	0	0	0	0	0	0	1375	1350	1349	1367	1382	1391	1382	1371	1379	1376	1376	1351	1321	1298	1295	1314	1339	1341	1326	1313	1312	1336	1363	1381	1366	1341	1327	1318	1306	1308	1304	1312	1341	1427	1449	1447	1450	1428	1410	1388	1360	1319	0	0	0	0	0	0	0	0	0	0	0	0	0	0	0	0	0	0	0	0	0	0	0	0	0	0	0	0	0	0	0	0	0	0	0	0	0	0	0	0	0	0	0	0	0	0	0	0	0	0	1554	1549	1542	1552	1531	0	0	0	0	0	0	0	0	0	0	0	0	0	0	0	0	0	0	0	0	0	0	0	0	0	0	0	0	0	0	0	1292	1297	1298	1308	1316	1318	1310	1300	1312	1317	1324	1324	1321	1326	1324	1313	1298	1288	1294	1310	1325	1332	1333	1333	1342	1347	1336	1324	1321	1301	1296	1295	1298	1313	1332	1345	1338	1325	1315	1315	1317	1320	1319	1320	1331	1339	1341	1329	1317	1310	1317	1318	1324	1336	1352	1357	1348	1328	1308	1307	1327	1335	1330	1327	1317	1311	1314	1315	1319	1329	1326	1313	1311	1313	1311	1309	1337	1328	1327	1308	1316	1326	1316	1299	1260	0	0	0	0	0	0	0	1467	1639	1633	1637	1601	0	0	0	0	0	0	0	0	0	0	0	0	0	0	0	0	0	0	0	0	0	0	0	0	0	0	0	0	0	0	0	0	0	0	0	0	0	0	0	0	0	0	0	0	0	0	0	0	0	0	0	0	0	0	0	0	0	0	0	0	0	0	0	0	0	0	0	0	0	0	0	0	0	0	0	0	0	0	0	0	0	0	0	0	0	0	0	0	0	0	1239	1236	1237	1225	1226	1244	1236	1230	1239	1262	1260	1267	1272	1271	1244	1230	1231	1237	1239	1241	1242	1226	1214	1204	1202	1205	1220	1226	1215	1224	1233	1236	1230	1215	1208	1209	1212	1214	1204	1203	1194	1193	1188	1187	1197	1206	1214	1220	1224	1226	1223	1218	1223	1221	1218	1220	1208	1201	1156	1125	1089	0	0	0	0	0	0	0	0	0	0	0	0	0	0	0	0	0	0	0	0	0	0	0	0	0	0	0	0	0	0	0	0	0	0	0	0	0	0	0	0	0	0	0	0	0	0	0	0	0	0	0	0	0	0	0	0	0	0	0	0	0	0	0	0	0	0	0	0	0	0	0	0	0	0	0	0	0	0	0	0	0	0	0	0	0	0	0	0	0	0	0
0	0	0	0	0	0	0	0	0	0	0	0	0	0	0	0	0	0	0	0	0	0	0	0	0	0	0	0	0	0	0	0	0	0	0	0	0	0	0	0	0	0	0	0	0	0	0	0	0	0	0	0	0	0	0	0	0	0	0	0	0	0	0	0	0	0	0	0	0	0	0	0	0	0	0	0	0	0	0	0	0	0	0	0	0	0	0	0	0	0	0	0	0	0	0	0	0	0	0	0	0	0	0	0	0	0	0	0	0	0	0	0	0	0	0	0	0	0	0	0	0	0	0	0	0	0	0	0	0	0	0	0	0	0	0	0	0	0	0	0	0	0	0	0	0	0	0	0	0	0	0	0	0	0	0	0	0	0	0	0	0	0	0	0	0	0	0	0	0	0	0	0	0	1400	1373	1361	1376	1392	1380	1360	1339	1329	1340	1345	1339	1316	1296	1296	1303	1321	1317	1296	1290	1297	1330	1366	1379	1375	1348	1342	1320	1315	1313	1310	1327	1353	1428	1442	1440	1442	1412	1391	1369	1338	1306	0	0	0	0	0	0	0	0	0	0	0	0	0	0	0	0	0	0	0	0	0	0	0	0	0	0	0	0	0	0	0	0	0	0	0	0	0	0	0	0	0	0	0	0	1460	1459	0	0	0	0	1580	1570	1570	1559	1528	0	0	0	0	0	0	0	0	0	0	0	0	0	0	0	0	0	0	0	0	0	0	0	0	0	0	0	0	0	0	0	1291	1287	1285	1305	1319	1319	1308	1301	1307	1315	1316	1320	1308	1311	1318	1313	1293	1286	1290	1312	1336	1331	1334	1346	1355	1353	1340	1319	1305	1295	1292	1296	1299	1316	1330	1340	1332	1321	1312	1315	1313	1313	1313	1320	1331	1343	1341	1331	1321	1311	1310	1314	1329	1346	1359	1354	1345	1326	1310	1320	1335	1344	1342	1332	1324	1316	1312	1309	1316	1318	1315	1306	1309	1314	1315	1319	1348	1336	1334	1311	1317	1340	1329	1309	1243	0	0	0	0	0	0	0	1470	1635	1648	1658	1599	0	0	0	0	0	0	0	0	0	0	0	0	0	0	0	0	0	0	0	0	0	0	0	0	0	0	0	0	0	0	0	0	0	0	0	0	0	0	0	0	0	0	0	0	0	0	0	0	0	0	0	0	0	0	0	0	0	0	0	0	0	0	0	0	0	0	0	0	0	0	0	0	0	0	0	0	0	0	0	0	0	0	0	0	0	0	0	0	0	0	1237	1239	1235	1236	1239	1240	1236	1232	1240	1253	1253	1261	1270	1276	1259	1246	1235	1230	1225	1229	1232	1226	1221	1215	1218	1226	1226	1224	1225	1233	1243	1236	1226	1215	1213	1215	1225	1224	1221	1207	1196	1196	1201	1195	1193	1198	1205	1209	1217	1224	1222	1220	1215	1210	1205	1203	1209	1194	1157	1133	1087	0	0	0	0	0	0	0	0	0	0	0	0	0	0	0	0	0	0	0	0	0	0	0	0	0	0	0	0	0	0	0	0	0	0	0	0	0	0	0	0	0	0	0	0	0	0	0	0	0	0	0	0	0	0	0	0	0	0	0	0	0	0	0	0	0	0	0	0	0	0	0	0	0	0	0	0	0	0	0	0	0	0	0	0	0	0	0	0	0	0	0
0	0	0	0	0	0	0	0	0	0	0	0	0	0	0	0	0	0	0	0	0	0	0	0	0	0	0	0	0	0	0	0	0	0	0	0	0	0	0	0	0	0	0	0	0	0	0	0	0	0	0	0	0	0	0	0	0	0	0	0	0	0	0	0	0	0	0	0	0	0	0	0	0	0	0	0	0	0	0	0	0	0	0	0	0	0	0	0	0	0	0	0	0	0	0	0	0	0	0	0	0	0	0	0	0	0	0	0	0	0	0	0	0	0	0	0	0	0	0	0	0	0	0	0	0	0	0	0	0	0	0	0	0	0	0	0	0	0	0	0	0	0	0	0	0	0	0	0	0	0	0	0	0	0	0	0	0	0	0	0	0	0	0	0	0	0	0	0	0	0	0	0	1384	1397	1390	1366	1369	1376	1360	1342	1311	1298	1309	1319	1315	1309	1296	1298	1301	1301	1303	1285	1289	1299	1324	1358	1373	1376	1366	1362	1345	1337	1335	1331	1345	1360	1435	1432	1428	1435	1410	1376	1359	1329	1302	0	0	0	0	0	0	0	0	0	0	0	0	0	0	0	0	0	0	0	0	0	0	0	0	0	0	0	0	0	0	0	0	0	0	0	0	0	0	0	0	0	0	0	0	0	0	0	0	0	1594	1601	1591	1579	1563	1527	0	0	0	0	0	0	0	0	0	0	0	0	0	0	0	0	0	0	0	0	0	0	0	0	0	0	0	0	0	0	0	1275	1272	1277	1300	1318	1319	1312	1296	1293	1302	1306	1294	1295	1304	1309	1306	1290	1287	1294	1315	1334	1343	1345	1348	1352	1345	1322	1300	1288	1293	1296	1302	1309	1321	1329	1329	1326	1311	1304	1312	1317	1315	1312	1314	1330	1341	1335	1328	1321	1309	1305	1310	1325	1351	1355	1351	1339	1320	1315	1323	1333	1341	1334	1333	1326	1322	1315	1311	1313	1318	1314	1314	1317	1321	1327	1327	1360	1360	1349	1322	1314	1329	1321	1302	1231	0	0	0	0	0	0	0	1463	1638	1647	1653	1584	0	0	0	0	0	0	0	0	0	0	0	0	0	0	0	0	0	0	0	0	0	0	0	0	0	0	0	0	0	0	0	0	0	0	0	0	0	0	0	0	0	0	0	0	0	0	0	0	0	0	0	0	0	0	0	0	0	0	0	0	0	0	0	0	0	0	0	0	0	0	0	0	0	0	0	0	0	0	0	0	0	0	0	0	0	0	0	0	0	0	1227	1223	1221	1238	1249	1258	1248	1245	1242	1245	1251	1260	1266	1272	1254	1248	1242	1236	1227	1225	1223	1229	1232	1230	1232	1235	1230	1228	1232	1248	1258	1252	1238	1221	1219	1227	1237	1233	1226	1210	1205	1214	1218	1210	1201	1198	1196	1204	1209	1217	1213	1209	1205	1199	1198	1204	1206	1208	1174	1142	1095	0	0	0	0	0	0	0	0	0	0	0	0	0	0	0	0	0	0	0	0	0	0	0	0	0	0	0	0	0	0	0	0	0	0	0	0	0	0	0	0	0	0	0	0	0	0	0	0	0	0	0	0	0	0	0	0	0	0	0	0	0	0	0	0	0	0	0	0	0	0	0	0	0	0	0	0	0	0	0	0	0	0	0	0	0	0	0	0	0	0	0
0	0	0	0	0	0	0	0	0	0	0	0	0	0	0	0	0	0	0	0	0	0	0	0	0	0	0	0	0	0	0	0	0	0	0	0	0	0	0	0	0	0	0	0	0	0	0	0	0	0	0	0	0	0	0	0	0	0	0	0	0	0	0	0	0	0	0	0	0	0	0	0	0	0	0	0	0	0	0	0	0	0	0	0	0	0	0	0	0	0	0	0	0	0	0	0	0	0	0	0	0	0	0	0	0	0	0	0	0	0	0	0	0	0	0	0	0	0	0	0	0	0	0	0	0	0	0	0	0	0	0	0	0	0	0	0	0	0	0	0	0	0	0	0	0	0	0	0	0	0	0	0	0	0	0	0	0	0	0	0	0	0	0	0	0	0	0	0	0	0	0	1327	1356	1368	1374	1359	1353	1366	1359	1337	1323	1302	1298	1297	1295	1297	1300	1300	1304	1306	1295	1288	1294	1304	1321	1350	1365	1377	1379	1385	1379	1364	1362	1354	1366	1380	1441	1424	1433	1436	1407	1376	1356	1340	1329	0	0	0	0	0	0	0	0	0	0	0	0	0	0	0	0	0	0	0	0	0	0	0	0	0	0	0	0	0	0	0	0	0	0	0	0	0	0	0	0	0	0	0	0	0	0	0	0	1544	1582	1628	1607	1613	1594	1535	0	0	0	0	0	0	0	0	0	0	0	0	0	0	0	0	0	0	0	0	0	0	0	0	0	0	0	0	0	0	0	1273	1273	1268	1292	1316	1320	1311	1295	1291	1294	1303	1302	1295	1297	1303	1297	1284	1283	1299	1316	1334	1342	1340	1338	1335	1322	1307	1295	1288	1296	1300	1306	1306	1318	1324	1324	1315	1308	1304	1312	1322	1338	1330	1329	1338	1346	1344	1335	1323	1315	1307	1313	1325	1335	1340	1344	1325	1320	1319	1322	1324	1325	1330	1325	1319	1311	1317	1319	1318	1320	1320	1326	1328	1334	1335	1334	1358	1363	1354	1325	1314	1319	1306	1287	1247	0	0	0	0	0	0	0	1451	1638	1652	1659	1601	0	0	0	0	0	0	0	0	0	0	0	0	0	0	0	0	0	0	0	0	0	0	0	0	0	0	0	0	0	0	0	0	0	0	0	0	0	0	0	0	0	0	0	0	0	0	0	0	0	0	0	0	0	0	0	0	0	0	0	0	0	0	0	0	0	0	0	0	0	0	0	0	0	0	0	0	0	0	0	0	0	0	0	0	0	0	0	0	0	0	1211	1208	1218	1231	1245	1260	1250	1235	1232	1242	1251	1266	1267	1252	1242	1236	1242	1246	1237	1222	1216	1219	1229	1237	1231	1234	1230	1229	1245	1260	1264	1259	1254	1240	1233	1233	1236	1230	1224	1215	1213	1223	1227	1212	1206	1201	1195	1199	1202	1204	1202	1200	1195	1196	1198	1210	1229	1232	1197	1149	0	0	0	0	0	0	0	0	0	0	0	0	0	0	0	0	0	0	0	0	0	0	0	0	0	0	0	0	0	0	0	0	0	0	0	0	0	0	0	0	0	0	0	0	0	0	0	0	0	0	0	0	0	0	0	0	0	0	0	0	0	0	0	0	0	0	0	0	0	0	0	0	0	0	0	0	0	0	0	0	0	0	0	0	0	0	0	0	0	0	0	0
0	0	0	0	0	0	0	0	0	0	0	0	0	0	0	0	0	0	0	0	0	0	0	0	0	0	0	0	0	0	0	0	0	0	0	0	0	0	0	0	0	0	0	0	0	0	0	0	0	0	0	0	0	0	0	0	0	0	0	0	0	0	0	0	0	0	0	0	0	0	0	0	0	0	0	0	0	0	0	0	0	0	0	0	0	0	0	0	0	0	0	0	0	0	0	0	0	0	0	0	0	0	0	0	0	0	0	0	0	0	0	0	0	0	0	0	0	0	0	0	0	0	0	0	0	0	0	0	0	0	0	0	0	0	0	0	0	0	0	0	0	0	0	0	0	0	0	0	0	0	0	0	0	0	0	0	0	0	0	0	0	0	0	0	0	0	0	0	0	0	0	1322	1344	1360	1359	1343	1348	1356	1363	1360	1349	1334	1305	1291	1280	1285	1296	1303	1309	1311	1308	1301	1310	1311	1317	1327	1349	1371	1388	1404	1407	1403	1380	1368	1375	1394	1446	1434	1433	1432	1404	1378	1368	1358	0	0	0	0	0	0	0	0	0	0	0	0	0	0	0	0	0	0	0	0	0	0	0	0	0	0	0	0	0	0	0	0	0	0	0	0	0	0	0	0	0	0	0	0	0	0	0	0	0	1530	1579	1643	1631	1626	1600	1545	0	0	0	0	0	0	0	0	0	0	0	0	0	0	0	0	0	0	0	0	0	0	0	0	0	0	0	0	0	0	0	1279	1274	1266	1286	1310	1317	1313	1292	1288	1292	1307	1298	1296	1297	1300	1292	1281	1285	1303	1324	1337	1345	1336	1326	1311	1297	1291	1285	1282	1283	1297	1304	1309	1316	1322	1324	1317	1311	1317	1328	1340	1357	1346	1349	1352	1352	1347	1342	1335	1329	1324	1327	1329	1319	1317	1323	1314	1315	1325	1329	1330	1328	1330	1326	1318	1310	1308	1314	1317	1320	1329	1334	1338	1338	1334	1328	1350	1355	1354	1326	1310	1304	1297	1276	1264	0	0	0	0	0	0	0	0	1596	1648	1657	1618	1549	0	0	0	0	0	0	0	0	0	0	0	0	0	0	0	0	0	0	0	0	0	0	0	0	0	0	0	0	0	0	0	0	0	0	0	0	0	0	0	0	0	0	0	0	0	0	0	0	0	0	0	0	0	0	0	0	0	0	0	0	0	0	0	0	0	0	0	0	0	0	0	0	0	0	0	0	0	0	0	0	0	0	0	0	0	0	0	0	0	1206	1209	1218	1225	1236	1249	1254	1241	1239	1244	1255	1257	1253	1247	1232	1229	1230	1238	1239	1225	1220	1215	1221	1224	1228	1237	1242	1246	1252	1263	1265	1255	1255	1245	1240	1234	1220	1222	1226	1219	1212	1217	1221	1222	1215	1207	1197	1194	1195	1195	1194	1195	1194	1195	1201	1215	1231	1245	1202	1163	0	0	0	0	0	0	0	0	0	0	0	0	0	0	0	0	0	0	0	0	0	0	0	0	0	0	0	0	0	0	0	0	0	0	0	0	0	0	0	0	0	0	0	0	0	0	0	0	0	0	0	0	0	0	0	0	0	0	0	0	0	0	0	0	0	0	0	0	0	0	0	0	0	0	0	0	0	0	0	0	0	0	0	0	0	0	0	0	0	0	0	0
0	0	0	0	0	0	0	0	0	0	0	0	0	0	0	0	0	0	0	0	0	0	0	0	0	0	0	0	0	0	0	0	0	0	0	0	0	0	0	0	0	0	0	0	0	0	0	0	0	0	0	0	0	0	0	0	0	0	0	0	0	0	0	0	0	0	0	0	0	0	0	0	0	0	0	0	0	0	0	0	0	0	0	0	0	0	0	0	0	0	0	0	0	0	0	0	0	0	0	0	0	0	0	0	0	0	0	0	0	0	0	0	0	0	0	0	0	0	0	0	0	0	0	0	0	0	0	0	0	0	0	0	0	0	0	0	0	0	0	0	0	0	0	0	0	0	0	0	0	0	0	0	0	0	0	0	0	0	0	0	0	0	0	0	0	0	0	0	0	0	0	1312	1337	1348	1351	1352	1362	1362	1373	1382	1381	1354	1329	1296	1285	1286	1290	1305	1320	1324	1326	1341	1359	1336	1316	1312	1326	1335	1365	1400	1424	1414	1389	1369	1367	1387	1412	1451	1446	1438	1400	1372	1368	1365	0	0	0	0	0	0	0	0	0	0	0	0	0	0	0	0	0	0	0	0	0	0	0	0	0	0	0	0	0	0	0	0	0	0	0	0	0	0	0	0	0	0	0	0	0	0	0	0	1486	1520	1566	1636	1639	1631	1615	1516	0	0	0	0	0	0	0	0	0	0	0	0	0	0	0	0	0	0	0	0	0	0	0	0	0	0	0	0	0	0	0	1282	1268	1256	1279	1311	1325	1319	1296	1281	1292	1302	1305	1307	1300	1301	1294	1283	1290	1312	1326	1342	1342	1334	1314	1293	1276	1266	1269	1273	1282	1290	1305	1310	1314	1325	1327	1317	1312	1315	1331	1355	1378	1374	1351	1346	1350	1351	1344	1341	1341	1347	1340	1329	1319	1316	1303	1303	1311	1326	1338	1339	1334	1334	1324	1317	1314	1313	1314	1313	1321	1329	1336	1335	1324	1318	1315	1339	1354	1352	1326	1306	1298	1290	1282	1284	0	0	0	0	0	0	0	0	1590	1637	1645	1620	1559	0	0	0	0	0	0	0	0	0	0	0	0	0	0	0	0	0	0	0	0	0	0	0	0	0	0	0	0	0	0	0	0	0	0	0	0	0	0	0	0	0	0	0	0	0	0	0	0	0	0	0	0	0	0	0	0	0	0	0	0	0	0	0	0	0	0	0	0	0	0	0	0	0	0	0	0	0	0	0	0	0	0	0	0	0	0	0	0	0	1212	1224	1214	1213	1214	1226	1240	1240	1236	1242	1247	1248	1251	1243	1224	1221	1219	1226	1232	1240	1247	1238	1234	1233	1237	1247	1252	1252	1253	1260	1260	1262	1253	1249	1237	1219	1217	1224	1222	1219	1216	1216	1204	1208	1213	1207	1198	1194	1192	1193	1196	1193	1193	1192	1200	1208	1220	1233	1198	1170	0	0	0	0	0	0	0	0	0	0	0	0	0	0	0	0	0	0	0	0	0	0	0	0	0	0	0	0	0	0	0	0	0	0	0	0	0	0	0	0	0	0	0	0	0	0	0	0	0	0	0	0	0	0	0	0	0	0	0	0	0	0	0	0	0	0	0	0	0	0	0	0	0	0	0	0	0	0	0	0	0	0	0	0	0	0	0	0	0	0	0	0
0	0	0	0	0	0	0	0	0	0	0	0	0	0	0	0	0	0	0	0	0	0	0	0	0	0	0	0	0	0	0	0	0	0	0	0	0	0	0	0	0	0	0	0	0	0	0	0	0	0	0	0	0	0	0	0	0	0	0	0	0	0	0	0	0	0	0	0	0	0	0	0	0	0	0	0	0	0	0	0	0	0	0	0	0	0	0	0	0	0	0	0	0	0	0	0	0	0	0	0	0	0	0	0	0	0	0	0	0	0	0	0	0	0	0	0	0	0	0	0	0	0	0	0	0	0	0	0	0	0	0	0	0	0	0	0	0	0	0	0	0	0	0	0	0	0	0	0	0	0	0	0	0	0	0	0	0	0	0	0	0	0	0	0	0	0	0	0	0	0	1284	1307	1332	1350	1355	1356	1366	1367	1382	1392	1387	1361	1331	1304	1289	1291	1303	1319	1342	1350	1357	1409	1397	1374	1335	1308	1298	1316	1346	1381	1405	1409	1382	1355	1360	1375	1402	1463	1454	1436	1382	1369	1363	1357	0	0	0	0	0	0	0	0	0	0	0	0	0	0	0	0	0	0	0	0	0	0	0	0	0	0	0	0	0	0	0	0	0	0	0	0	0	0	0	0	0	0	0	0	0	0	0	0	1476	1504	1533	1602	1646	1648	1597	1489	0	0	0	0	0	0	0	0	0	0	0	0	0	0	0	0	0	0	0	0	0	0	0	0	0	0	0	0	0	0	0	1279	1251	1256	1285	1318	1336	1325	1301	1289	1290	1300	1310	1315	1319	1311	1306	1296	1288	1312	1328	1340	1336	1326	1305	1285	1267	1260	1259	1268	1281	1296	1314	1321	1323	1325	1320	1309	1308	1315	1328	1350	1364	1360	1339	1332	1338	1344	1347	1342	1347	1346	1330	1315	1308	1302	1293	1292	1299	1318	1332	1334	1332	1331	1323	1308	1311	1309	1308	1315	1323	1329	1332	1327	1311	1304	1304	1320	1322	1312	1320	1307	1289	1292	1297	1280	0	0	0	0	0	0	0	0	1601	1630	1639	1612	0	0	0	0	0	0	0	0	0	0	0	0	0	0	0	0	0	0	0	0	0	0	0	0	0	0	0	0	0	0	0	0	0	0	0	0	0	0	0	0	0	0	0	0	0	0	0	0	0	0	0	0	0	0	0	0	0	0	0	0	0	0	0	0	0	0	0	0	0	0	0	0	0	0	0	0	0	0	0	0	0	0	0	0	0	0	0	0	0	0	1219	1238	1223	1201	1186	1203	1229	1237	1238	1234	1242	1242	1244	1233	1221	1213	1216	1223	1229	1245	1262	1264	1242	1241	1244	1251	1259	1252	1250	1255	1263	1261	1264	1254	1233	1220	1220	1219	1214	1212	1214	1215	1190	1190	1199	1200	1194	1194	1194	1198	1203	1200	1199	1195	1197	1201	1206	1216	1201	1189	0	0	0	0	0	0	0	0	0	0	0	0	0	0	0	0	0	0	0	0	0	0	0	0	0	0	0	0	0	0	0	0	0	0	0	0	0	0	0	0	0	0	0	0	0	0	0	0	0	0	0	0	0	0	0	0	0	0	0	0	0	0	0	0	0	0	0	0	0	0	0	0	0	0	0	0	0	0	0	0	0	0	0	0	0	0	0	0	0	0	0	0
0	0	0	0	0	0	0	0	0	0	0	0	0	0	0	0	0	0	0	0	0	0	0	0	0	0	0	0	0	0	0	0	0	0	0	0	0	0	0	0	0	0	0	0	0	0	0	0	0	0	0	0	0	0	0	0	0	0	0	0	0	0	0	0	0	0	0	0	0	0	0	0	0	0	0	0	0	0	0	0	0	0	0	0	0	0	0	0	0	0	0	0	0	0	0	0	0	0	0	0	0	0	0	0	0	0	0	0	0	0	0	0	0	0	0	0	0	0	0	0	0	0	0	0	0	0	0	0	0	0	0	0	0	0	0	0	0	0	0	0	0	0	0	0	0	0	0	0	0	0	0	0	0	0	0	0	0	0	0	0	0	0	0	0	0	0	0	0	0	0	1298	1320	1333	1346	1353	1360	1360	1360	1365	1379	1372	1362	1335	1316	1301	1301	1305	1332	1361	1378	1379	1421	1412	1386	1350	1329	1319	1327	1349	1369	1382	1387	1374	1357	1354	1362	1394	1452	1443	1424	1383	1372	1360	1327	1289	0	0	0	0	0	0	0	0	0	0	0	0	0	0	0	0	0	0	0	0	0	0	0	0	0	0	0	0	0	0	0	0	0	0	0	0	0	0	0	0	0	0	0	0	0	0	1480	1482	1471	1516	1584	1644	1638	1597	1464	0	0	0	0	0	0	0	0	0	0	0	0	0	0	0	0	0	0	0	0	0	0	0	0	0	0	0	0	0	0	0	1270	1255	1270	1299	1333	1343	1328	1305	1291	1284	1297	1307	1314	1319	1323	1314	1292	1288	1286	1300	1317	1317	1310	1298	1281	1275	1271	1270	1287	1304	1317	1330	1332	1328	1320	1309	1302	1290	1298	1319	1332	1345	1343	1334	1324	1326	1336	1335	1337	1340	1339	1330	1315	1307	1296	1286	1285	1295	1309	1311	1316	1327	1327	1310	1304	1303	1304	1304	1309	1316	1318	1321	1312	1304	1299	1302	1323	1320	1319	1322	1307	1278	1280	1284	1260	0	0	0	0	0	0	0	0	1607	1619	1625	1592	0	0	0	0	0	0	0	0	0	0	0	0	0	0	0	0	0	0	0	0	0	0	0	0	0	0	0	0	0	0	0	0	0	0	0	0	0	0	0	0	0	0	0	0	0	0	0	0	0	0	0	0	0	0	0	0	0	0	0	0	0	0	0	0	0	0	0	0	0	0	0	0	0	0	0	0	0	0	0	0	0	0	0	0	0	0	0	0	0	0	1215	1235	1206	1169	1166	1194	1221	1241	1236	1233	1233	1235	1236	1219	1213	1211	1214	1223	1235	1246	1256	1251	1238	1241	1246	1255	1250	1232	1235	1241	1249	1253	1260	1254	1235	1218	1213	1212	1207	1208	1212	1213	1189	1185	1189	1192	1191	1197	1210	1210	1207	1201	1198	1197	1200	1205	1215	1219	1207	1204	0	0	0	0	0	0	0	0	0	0	0	0	0	0	0	0	0	0	0	0	0	0	0	0	0	0	0	0	0	0	0	0	0	0	0	0	0	0	0	0	0	0	0	0	0	0	0	0	0	0	0	0	0	0	0	0	0	0	0	0	0	0	0	0	0	0	0	0	0	0	0	0	0	0	0	0	0	0	0	0	0	0	0	0	0	0	0	0	0	0	0	0
0	0	0	0	0	0	0	0	0	0	0	0	0	0	0	0	0	0	0	0	0	0	0	0	0	0	0	0	0	0	0	0	0	0	0	0	0	0	0	0	0	0	0	0	0	0	0	0	0	0	0	0	0	0	0	0	0	0	0	0	0	0	0	0	0	0	0	0	0	0	0	0	0	0	0	0	0	0	0	0	0	0	0	0	0	0	0	0	0	0	0	0	0	0	0	0	0	0	0	0	0	0	0	0	0	0	0	0	0	0	0	0	0	0	0	0	0	0	0	0	0	0	0	0	0	0	0	0	0	0	0	0	0	0	0	0	0	0	0	0	0	0	0	0	0	0	0	0	0	0	0	0	0	0	0	0	0	0	0	0	0	0	0	0	0	0	0	0	0	0	1312	1324	1329	1342	1354	1365	1364	1357	1345	1356	1358	1354	1346	1338	1319	1311	1307	1326	1346	1357	1358	1375	1383	1365	1352	1340	1334	1336	1352	1366	1377	1379	1389	1388	1367	1353	1375	1433	1427	1408	1385	1379	1355	1307	1262	0	0	0	0	0	0	0	0	0	0	0	0	0	0	0	0	0	0	0	0	0	0	0	0	0	0	0	0	0	0	0	0	0	0	0	0	0	0	0	0	0	0	0	0	0	0	0	1481	1470	1502	1578	1632	1640	1603	1454	0	0	0	0	0	0	0	0	0	0	0	0	0	0	0	0	0	0	0	0	0	0	0	0	0	0	0	0	0	0	0	1281	1274	1291	1318	1337	1341	1330	1311	1299	1295	1302	1311	1311	1315	1318	1317	1298	1286	1280	1297	1310	1305	1298	1288	1288	1290	1288	1290	1309	1327	1341	1342	1340	1329	1317	1300	1292	1294	1299	1304	1313	1322	1330	1325	1322	1322	1321	1324	1333	1335	1334	1322	1309	1303	1301	1295	1296	1305	1310	1314	1314	1315	1314	1307	1302	1304	1301	1302	1302	1304	1306	1302	1306	1302	1300	1306	1340	1337	1333	1334	1291	1257	1256	1248	1239	0	0	0	0	0	0	0	1503	1607	1602	1611	1557	1463	0	0	0	0	0	0	0	0	0	0	0	0	0	0	0	0	0	0	0	0	0	0	0	0	0	0	0	0	0	0	0	0	0	0	0	0	0	0	0	0	0	0	0	0	0	0	0	0	0	0	0	0	0	0	0	0	0	0	0	0	0	0	0	0	0	0	0	0	0	0	0	0	0	0	0	0	0	0	0	0	0	0	0	0	0	0	0	0	0	1185	1211	1178	1160	1166	1195	1228	1243	1237	1233	1226	1232	1230	1208	1205	1211	1219	1230	1237	1242	1239	1233	1233	1239	1246	1253	1246	1226	1222	1228	1229	1235	1243	1244	1230	1217	1210	1208	1207	1211	1213	1214	1196	1188	1187	1190	1196	1212	1220	1220	1211	1202	1193	1191	1207	1215	1223	1227	1198	1211	0	0	0	0	0	0	0	0	0	0	0	0	0	0	0	0	0	0	0	0	0	0	0	0	0	0	0	0	0	0	0	0	0	0	0	0	0	0	0	0	0	0	0	0	0	0	0	0	0	0	0	0	0	0	0	0	0	0	0	0	0	0	0	0	0	0	0	0	0	0	0	0	0	0	0	0	0	0	0	0	0	0	0	0	0	0	0	0	0	0	0	0
0	0	0	0	0	0	0	0	0	0	0	0	0	0	0	0	0	0	0	0	0	0	0	0	0	0	0	0	0	0	0	0	0	0	0	0	0	0	0	0	0	0	0	0	0	0	0	0	0	0	0	0	0	0	0	0	0	0	0	0	0	0	0	0	0	0	0	0	0	0	0	0	0	0	0	0	0	0	0	0	0	0	0	0	0	0	0	0	0	0	0	0	0	0	0	0	0	0	0	0	0	0	0	0	0	0	0	0	0	0	0	0	0	0	0	0	0	0	0	0	0	0	0	0	0	0	0	0	0	0	0	0	0	0	0	0	0	0	0	0	0	0	0	0	0	0	0	0	0	0	0	0	0	0	0	0	0	0	0	0	0	0	0	0	0	0	0	0	0	0	1316	1314	1322	1327	1339	1362	1366	1345	1333	1336	1347	1354	1357	1349	1334	1318	1303	1309	1330	1328	1327	1334	1350	1353	1347	1349	1342	1340	1353	1374	1382	1389	1404	1407	1394	1353	1352	1413	1408	1392	1378	1373	1341	1313	1253	0	0	0	0	0	0	0	0	0	0	0	0	0	0	0	0	0	0	0	0	0	0	0	0	0	0	0	0	0	0	0	0	0	0	0	0	0	0	0	0	0	0	0	0	0	0	0	1493	1493	1504	1589	1630	1624	1593	1472	0	0	0	0	0	0	0	0	0	0	0	0	0	0	0	0	0	0	0	0	0	0	0	0	0	0	0	0	0	0	0	1307	1279	1298	1321	1335	1339	1326	1310	1297	1297	1309	1321	1314	1308	1306	1306	1303	1293	1293	1306	1308	1310	1305	1301	1301	1301	1304	1312	1329	1343	1350	1345	1337	1330	1306	1294	1292	1292	1294	1298	1306	1314	1322	1324	1317	1317	1317	1321	1329	1336	1331	1314	1304	1303	1304	1309	1310	1316	1323	1317	1315	1316	1317	1305	1299	1295	1293	1296	1296	1300	1291	1290	1292	1299	1309	1318	1348	1349	1336	1329	1278	1249	1227	1223	1215	0	0	0	0	0	0	0	1461	1582	1595	1591	1521	1429	0	0	0	0	0	0	0	0	0	0	0	0	0	0	0	0	0	0	0	0	0	0	0	0	0	0	0	0	0	0	0	0	0	0	0	0	0	0	0	0	0	0	0	0	0	0	0	0	0	0	0	0	0	0	0	0	0	0	0	0	0	0	0	0	0	0	0	0	0	0	0	0	0	0	0	0	0	0	0	0	0	0	0	0	0	0	0	0	0	1169	1185	1173	1171	1181	1206	1229	1240	1245	1242	1236	1237	1228	1205	1208	1215	1225	1233	1241	1233	1229	1226	1230	1239	1248	1246	1237	1226	1217	1216	1216	1223	1233	1232	1221	1212	1209	1211	1214	1216	1223	1219	1210	1199	1194	1191	1201	1220	1222	1221	1212	1201	1192	1190	1205	1217	1226	1224	1188	1183	0	0	0	0	0	0	0	0	0	0	0	0	0	0	0	0	0	0	0	0	0	0	0	0	0	0	0	0	0	0	0	0	0	0	0	0	0	0	0	0	0	0	0	0	0	0	0	0	0	0	0	0	0	0	0	0	0	0	0	0	0	0	0	0	0	0	0	0	0	0	0	0	0	0	0	0	0	0	0	0	0	0	0	0	0	0	0	0	0	0	0	0
0	0	0	0	0	0	0	0	0	0	0	0	0	0	0	0	0	0	0	0	0	0	0	0	0	0	0	0	0	0	0	0	0	0	0	0	0	0	0	0	0	0	0	0	0	0	0	0	0	0	0	0	0	0	0	0	0	0	0	0	0	0	0	0	0	0	0	0	0	0	0	0	0	0	0	0	0	0	0	0	0	0	0	0	0	0	0	0	0	0	0	0	0	0	0	0	0	0	0	0	0	0	0	0	0	0	0	0	0	0	0	0	0	0	0	0	0	0	0	0	0	0	0	0	0	0	0	0	0	0	0	0	0	0	0	0	0	0	0	0	0	0	0	0	0	0	0	0	0	0	0	0	0	0	0	0	0	0	0	0	0	0	0	0	0	0	0	0	0	0	0	1309	1303	1312	1324	1348	1357	1331	1311	1314	1327	1351	1352	1348	1337	1322	1306	1310	1322	1330	1326	1326	1340	1339	1340	1340	1341	1334	1347	1374	1392	1408	1419	1417	1401	1362	1344	1402	1401	1389	1381	1370	1351	1297	0	0	0	0	0	0	0	0	0	0	0	0	0	0	0	0	0	0	0	0	0	0	0	0	0	0	0	0	0	0	0	0	0	0	0	0	0	0	0	0	0	0	0	0	0	1485	1487	0	0	1501	1525	1595	1627	1616	1582	1484	1393	0	0	0	0	0	0	0	0	0	0	0	0	0	0	0	0	0	0	0	0	0	0	0	0	0	0	0	0	0	0	0	1280	1295	1312	1327	1328	1318	1303	1292	1296	1315	1325	1320	1307	1302	1303	1311	1312	1316	1311	1312	1309	1311	1313	1315	1317	1317	1324	1327	1336	1348	1342	1336	1328	1308	1310	1300	1294	1297	1304	1307	1306	1310	1307	1303	1302	1303	1307	1316	1321	1316	1298	1291	1284	1303	1305	1311	1316	1321	1321	1316	1318	1316	1306	1290	1286	1285	1291	1300	1297	1291	1279	1277	1289	1306	1321	1351	1348	1334	1322	1284	1243	1218	1216	1209	0	0	0	0	0	0	0	1448	1558	1560	1562	1476	0	0	0	0	0	0	0	0	0	0	0	0	0	0	0	0	0	0	0	0	0	0	0	0	0	0	0	0	0	0	0	0	0	0	0	0	0	0	0	0	0	0	0	0	0	0	0	0	0	0	0	0	0	0	0	0	0	0	0	0	0	0	0	0	0	0	0	0	0	0	0	0	0	0	0	0	0	0	0	0	0	0	0	0	0	0	0	0	0	0	1163	1179	1178	1184	1196	1214	1224	1235	1240	1242	1251	1240	1231	1218	1220	1220	1229	1241	1246	1240	1229	1227	1232	1239	1242	1238	1237	1220	1225	1218	1214	1215	1222	1229	1225	1218	1211	1220	1226	1227	1231	1223	1216	1205	1195	1192	1205	1213	1214	1208	1209	1200	1196	1194	1200	1209	1213	1209	1171	1157	1142	0	0	0	0	0	0	0	0	0	0	0	0	0	0	0	0	0	0	0	0	0	0	0	0	0	0	0	0	0	0	0	0	0	0	0	0	0	0	0	0	0	0	0	0	0	0	0	0	0	0	0	0	0	0	0	0	0	0	0	0	0	0	0	0	0	0	0	0	0	0	0	0	0	0	0	0	0	0	0	0	0	0	0	0	0	0	0	0	0	0	0
0	0	0	0	0	0	0	0	0	0	0	0	0	0	0	0	0	0	0	0	0	0	0	0	0	0	0	0	0	0	0	0	0	0	0	0	0	0	0	0	0	0	0	0	0	0	0	0	0	0	0	0	0	0	0	0	0	0	0	0	0	0	0	0	0	0	0	0	0	0	0	0	0	0	0	0	0	0	0	0	0	0	0	0	0	0	0	0	0	0	0	0	0	0	0	0	0	0	0	0	0	0	0	0	0	0	0	0	0	0	0	0	0	0	0	0	0	0	0	0	0	0	0	0	0	0	0	0	0	0	0	0	0	0	0	0	0	0	0	0	0	0	0	0	0	0	0	0	0	0	0	0	0	0	0	0	0	0	0	0	0	0	0	0	0	0	0	0	0	0	1306	1300	1301	1309	1320	1336	1340	1309	1292	1298	1313	1329	1323	1331	1324	1319	1310	1315	1336	1346	1340	1339	1345	1336	1340	1338	1334	1340	1352	1372	1395	1411	1412	1412	1393	1357	1346	1398	1402	1396	1373	1358	1340	1286	0	0	0	0	0	0	0	0	0	0	0	0	0	0	0	0	0	0	0	0	0	0	0	0	0	0	0	0	0	0	0	0	0	0	0	0	0	0	0	0	0	0	0	0	0	1475	1468	1459	0	0	1510	1575	1644	1643	1587	1496	1397	0	0	0	0	0	0	0	0	0	0	0	0	0	0	0	0	0	0	0	0	0	0	0	0	0	0	0	0	0	0	1270	1274	1276	1301	1314	1317	1310	1300	1288	1290	1307	1316	1312	1306	1312	1315	1319	1321	1316	1312	1307	1304	1312	1321	1323	1318	1305	1309	1322	1332	1340	1339	1331	1323	1317	1314	1307	1298	1301	1304	1304	1304	1294	1289	1293	1294	1296	1296	1303	1306	1300	1291	1281	1280	1289	1300	1306	1304	1310	1307	1300	1302	1302	1303	1286	1279	1277	1290	1295	1300	1289	1271	1268	1279	1298	1312	1328	1336	1320	1308	1282	1245	1226	1226	1220	1204	0	0	0	0	0	0	1411	1495	1538	1506	1451	0	0	0	0	0	0	0	0	0	0	0	0	0	0	0	0	0	0	0	0	0	0	0	0	0	0	0	0	0	0	0	0	0	0	0	0	0	0	0	0	0	0	0	0	0	0	0	0	0	0	0	0	0	0	0	0	0	0	0	0	0	0	0	0	0	0	0	0	0	0	0	0	0	0	0	0	0	0	0	0	0	0	0	0	0	0	0	0	0	0	1170	1175	1181	1194	1205	1216	1217	1224	1232	1251	1251	1243	1230	1227	1230	1237	1245	1256	1260	1256	1235	1222	1224	1232	1232	1235	1237	1220	1218	1211	1204	1208	1218	1229	1228	1220	1222	1228	1235	1235	1235	1218	1214	1205	1196	1190	1203	1210	1208	1206	1201	1196	1193	1192	1200	1202	1202	1183	1165	1150	1138	0	0	0	0	0	0	0	0	0	0	0	0	0	0	0	0	0	0	0	0	0	0	0	0	0	0	0	0	0	0	0	0	0	0	0	0	0	0	0	0	0	0	0	0	0	0	0	0	0	0	0	0	0	0	0	0	0	0	0	0	0	0	0	0	0	0	0	0	0	0	0	0	0	0	0	0	0	0	0	0	0	0	0	0	0	0	0	0	0	0	0
0	0	0	0	0	0	0	0	0	0	0	0	0	0	0	0	0	0	0	0	0	0	0	0	0	0	0	0	0	0	0	0	0	0	0	0	0	0	0	0	0	0	0	0	0	0	0	0	0	0	0	0	0	0	0	0	1415	1410	1414	1416	1420	1447	1447	1448	1442	1413	1385	1370	1359	1362	1368	1368	1356	1359	0	0	0	0	0	0	0	0	0	0	0	0	0	0	0	0	0	0	0	0	0	0	0	0	0	0	0	0	0	0	0	0	0	0	0	0	0	0	0	0	0	0	0	0	0	0	0	0	0	0	0	0	0	0	0	0	0	0	0	0	0	0	0	0	0	0	0	0	0	0	0	0	0	0	0	0	0	0	0	0	0	0	0	0	0	0	0	0	0	0	0	0	0	0	0	0	1302	1304	1315	1327	1335	1333	1322	1294	1282	1286	1298	1307	1309	1314	1325	1310	1308	1320	1347	1363	1368	1359	1346	1335	1340	1345	1342	1349	1362	1378	1389	1392	1395	1387	1370	1357	1350	1374	1409	1405	1371	1347	1300	1274	0	0	0	0	0	0	0	0	0	0	0	0	0	0	0	0	0	0	0	0	0	0	0	0	0	0	0	0	0	0	0	0	0	0	0	0	0	0	0	0	0	0	0	0	0	0	0	1413	0	0	0	1518	1588	1594	1576	1492	1418	0	0	0	0	0	0	0	0	0	0	0	0	0	0	0	0	0	0	0	0	0	0	0	0	0	0	0	0	0	0	1247	1257	1270	1297	1305	1311	1312	1307	1296	1303	1310	1308	1305	1311	1311	1311	1320	1319	1318	1309	1301	1300	1309	1314	1321	1306	1301	1302	1318	1327	1339	1337	1327	1323	1319	1319	1303	1292	1295	1303	1304	1289	1285	1281	1292	1300	1297	1294	1293	1292	1289	1282	1277	1278	1287	1294	1302	1302	1301	1297	1296	1294	1298	1301	1291	1280	1281	1290	1294	1291	1282	1268	1263	1271	1289	1301	1317	1319	1314	1306	1278	1243	1245	1246	1236	1213	0	0	0	0	0	0	1397	1439	1480	1453	1417	0	0	0	0	0	0	0	0	0	0	0	0	0	0	0	0	0	0	0	0	0	0	0	0	0	0	0	0	0	0	0	0	0	0	0	0	0	0	0	0	0	0	0	0	0	0	0	0	0	0	0	0	0	0	0	0	0	0	0	0	0	0	0	0	0	0	0	0	0	0	0	0	0	0	0	0	0	0	0	0	0	0	0	0	0	0	0	0	0	0	1180	1175	1181	1190	1212	1221	1218	1215	1223	1240	1241	1234	1226	1233	1247	1254	1257	1266	1270	1252	1229	1215	1214	1220	1226	1233	1236	1222	1213	1201	1203	1205	1214	1223	1219	1217	1221	1229	1231	1235	1231	1204	1200	1201	1201	1197	1197	1202	1201	1207	1199	1196	1198	1194	1197	1198	1188	1169	1164	1148	1149	0	0	0	0	0	0	0	0	0	0	0	0	0	0	0	0	0	0	0	0	0	0	0	0	0	0	0	0	0	0	0	0	0	0	0	0	0	0	0	0	0	0	0	0	0	0	0	0	0	0	0	0	0	0	0	0	0	0	0	0	0	0	0	0	0	0	0	0	0	0	0	0	0	0	0	0	0	0	0	0	0	0	0	0	0	0	0	0	0	0	0
0	0	0	0	0	0	0	0	0	0	0	0	0	0	0	0	0	0	0	0	0	0	0	0	0	0	0	0	0	1235	1245	0	0	0	0	1251	1232	1237	1257	1297	1328	1327	1334	1334	1354	1374	1395	1406	1418	1419	1432	1459	1475	1465	1465	1448	1425	1429	1431	1428	1428	1422	1425	1430	1434	1436	1412	1386	1375	1383	1388	1388	1391	1387	1382	1395	1427	1445	1441	1436	1419	1406	0	0	0	0	0	0	0	0	0	0	0	0	0	0	0	0	0	0	0	0	0	0	0	0	0	0	0	0	0	0	0	0	0	0	0	0	0	0	0	0	0	0	0	0	0	0	0	0	0	0	0	0	0	0	0	0	0	0	0	0	0	0	0	0	0	0	0	0	0	0	0	0	0	0	0	0	0	0	0	0	0	0	0	0	0	0	0	0	1318	1328	1344	1347	1346	1337	1316	1287	1281	1280	1283	1284	1301	1320	1321	1314	1298	1310	1341	1381	1385	1358	1340	1344	1346	1356	1353	1360	1365	1379	1386	1380	1371	1361	1355	1351	1357	1398	1416	1406	1358	1321	1279	1269	0	0	0	0	0	0	0	0	0	0	0	0	0	0	0	0	0	0	0	0	0	0	0	0	0	0	0	0	0	0	0	0	0	0	0	0	0	0	0	0	0	0	0	0	0	0	0	1380	1393	0	0	0	1507	1538	1518	1472	1440	0	0	0	0	0	0	0	0	0	0	0	0	0	0	0	0	0	0	0	0	0	0	0	0	0	0	0	0	0	0	1229	1242	1275	1294	1304	1312	1316	1322	1320	1321	1324	1321	1311	1294	1294	1302	1315	1322	1318	1310	1302	1300	1308	1315	1318	1314	1309	1314	1328	1338	1349	1344	1342	1331	1329	1322	1295	1292	1293	1297	1298	1282	1280	1282	1293	1305	1306	1299	1298	1290	1292	1287	1281	1280	1285	1290	1298	1301	1303	1302	1302	1290	1292	1301	1298	1296	1296	1293	1297	1291	1284	1264	1261	1264	1276	1293	1306	1306	1310	1287	1274	1242	1258	1262	1246	1223	0	0	0	0	0	0	0	1391	1405	1415	1419	0	0	0	0	0	0	0	0	0	0	0	0	0	0	0	0	0	0	0	0	0	0	0	0	0	0	0	0	0	0	0	0	0	0	0	0	0	0	0	0	0	0	0	0	0	0	0	0	0	0	0	0	0	0	0	0	0	0	0	0	0	0	0	0	0	0	0	0	0	0	0	0	0	0	0	0	0	0	0	0	0	0	0	0	0	0	0	0	0	0	1191	1179	1177	1191	1214	1233	1224	1213	1221	1228	1231	1224	1220	1237	1265	1269	1269	1265	1255	1235	1217	1208	1202	1202	1213	1222	1238	1231	1218	1215	1214	1215	1215	1223	1220	1215	1210	1214	1219	1223	1219	1198	1196	1202	1206	1202	1197	1196	1212	1222	1227	1215	1197	1195	1193	1189	1180	1165	1162	1147	1149	0	0	0	0	0	0	0	0	0	0	0	0	0	0	0	0	0	0	0	0	0	0	0	0	0	0	0	0	0	0	0	0	0	0	0	0	0	0	0	0	0	0	0	0	0	0	0	0	0	0	0	0	0	0	0	0	0	0	0	0	0	0	0	0	0	0	0	0	0	0	0	0	0	0	0	0	0	0	0	0	0	0	0	0	0	0	0	0	0	0	0
0	0	0	0	0	0	0	0	0	0	0	0	0	0	0	0	1312	1330	1357	1357	1376	1384	1368	1339	1326	1323	1323	1322	1331	1340	1343	1355	1371	1372	1372	1376	1369	1371	1388	1394	1385	1366	1366	1366	1378	1390	1412	1425	1435	1434	1436	1445	1449	1447	1447	1441	1437	1435	1433	1430	1420	1405	1395	1399	1418	1416	1408	1392	1381	1380	1383	1383	1382	1377	1372	1378	1403	1424	1439	1420	1410	1399	1399	0	0	0	0	0	0	0	0	0	0	0	0	0	0	0	0	0	0	0	0	0	0	0	0	0	0	0	0	0	0	0	0	0	0	0	0	0	0	0	0	0	0	0	0	0	0	0	0	0	0	0	0	0	0	0	0	0	0	0	0	0	0	0	0	0	0	0	0	0	0	0	0	0	0	0	0	0	0	0	0	0	0	0	0	0	0	0	1336	1341	1353	1355	1341	1331	1313	1293	1280	1268	1267	1269	1280	1308	1321	1311	1292	1291	1314	1364	1366	1353	1331	1338	1347	1353	1363	1361	1368	1376	1373	1367	1355	1343	1339	1349	1366	1412	1417	1391	1332	1301	1279	1259	1240	0	0	0	0	0	0	0	0	0	0	0	0	0	0	0	0	0	0	0	0	0	0	0	0	0	0	0	0	0	0	0	0	0	0	0	1361	0	0	0	0	0	0	0	0	0	0	1369	1382	1399	0	0	0	1490	1486	1456	1430	0	0	0	0	0	0	0	0	0	0	0	0	0	0	0	0	0	0	0	0	0	0	0	0	0	0	0	0	0	0	1241	1268	1286	1297	1301	1306	1309	1324	1337	1341	1341	1333	1306	1287	1282	1293	1314	1322	1321	1311	1305	1300	1314	1317	1318	1315	1311	1319	1333	1348	1354	1352	1347	1341	1334	1330	1307	1296	1296	1300	1300	1286	1281	1284	1292	1303	1304	1298	1299	1301	1294	1286	1280	1279	1281	1287	1289	1291	1295	1300	1303	1295	1294	1297	1297	1303	1303	1303	1298	1293	1277	1266	1261	1265	1278	1289	1299	1301	1294	1279	1249	1238	1255	1270	1252	1224	0	0	0	0	0	0	0	1368	1391	1414	0	0	0	0	0	0	0	0	0	0	0	0	0	0	0	0	0	0	0	0	0	0	0	0	0	0	0	0	0	0	0	0	0	0	0	0	0	0	0	0	0	0	0	0	0	0	0	0	0	0	0	0	0	0	0	0	0	0	0	0	0	0	0	0	0	0	0	0	0	0	0	0	0	0	0	0	0	0	0	0	0	0	0	0	0	0	0	0	0	0	0	1210	1195	1183	1196	1221	1240	1246	1228	1220	1227	1220	1222	1220	1228	1247	1264	1268	1263	1247	1229	1210	1206	1202	1199	1207	1216	1245	1243	1236	1226	1222	1221	1224	1222	1218	1209	1207	1208	1208	1211	1192	1203	1211	1221	1222	1211	1194	1186	1203	1219	1227	1217	1197	1189	1187	1184	1176	1169	1168	1147	1135	0	0	0	0	0	0	0	0	0	0	0	0	0	0	0	0	0	0	0	0	0	0	0	0	0	0	0	0	0	0	0	0	0	0	0	0	0	0	0	0	0	0	0	0	0	0	0	0	0	0	0	0	0	0	0	0	0	0	0	0	0	0	0	0	0	0	0	0	0	0	0	0	0	0	0	0	0	0	0	0	0	0	0	0	0	0	0	0	0	0	0
0	0	0	0	0	0	0	0	0	0	0	0	0	0	0	1311	1330	1338	1353	1353	1374	1376	1373	1355	1337	1330	1330	1327	1336	1345	1348	1359	1367	1372	1372	1369	1383	1389	1397	1399	1387	1364	1359	1335	1345	1374	1402	1410	1413	1419	1407	1409	1406	1410	1411	1411	1414	1420	1425	1415	1402	1380	1362	1363	1379	1393	1393	1383	1377	1370	1362	1362	1371	1364	1356	1348	1364	1393	1409	1386	1382	1379	1380	0	0	0	0	0	0	0	0	0	0	0	0	0	0	0	0	0	0	0	0	0	0	0	0	0	0	0	0	0	0	0	0	0	0	0	0	0	0	0	0	0	0	0	0	0	0	0	0	0	0	0	0	0	0	0	0	0	0	0	0	0	0	0	0	0	0	0	0	0	0	0	0	0	0	0	0	0	0	0	0	0	0	0	0	0	0	0	0	1348	1345	1334	1331	1327	1320	1287	1269	1262	1264	1266	1277	1298	1306	1304	1284	1279	1288	1316	1329	1313	1312	1321	1329	1336	1348	1349	1357	1356	1354	1346	1334	1322	1319	1330	1349	1373	1395	1330	1308	1269	1256	1239	1221	1199	0	0	0	0	0	0	0	0	0	0	0	0	0	0	0	0	0	0	0	0	0	0	0	0	1322	1329	1354	1367	1377	0	0	1386	1378	1362	1320	1321	1330	1374	1405	1411	1401	1393	1390	0	1381	1379	1386	1390	1392	0	1423	1456	1451	1427	1406	1388	1356	1326	1324	0	0	0	0	0	0	0	0	0	1382	1369	1366	1376	1417	1414	1392	1393	1406	0	0	0	0	0	0	0	1270	1274	1282	1295	1301	1296	1294	1301	1312	1323	1338	1343	1334	1312	1285	1277	1287	1301	1310	1312	1303	1305	1305	1310	1310	1314	1305	1309	1317	1328	1344	1349	1352	1344	1336	1334	1334	1320	1310	1309	1307	1301	1291	1285	1287	1294	1296	1295	1291	1289	1294	1296	1294	1288	1283	1289	1290	1290	1287	1290	1296	1303	1293	1290	1287	1291	1301	1309	1305	1292	1281	1273	1265	1262	1269	1281	1291	1292	1296	1291	1272	1245	1240	1260	1276	1251	1218	0	0	0	0	0	0	1331	1346	1368	1399	0	0	0	0	0	1384	1401	1421	1423	0	0	0	0	0	0	0	0	0	0	0	0	0	0	0	0	0	0	0	0	0	0	0	0	1326	1333	1329	0	0	1374	1358	1357	1368	1370	1348	1321	1318	1344	0	0	0	0	0	0	0	1360	1365	1379	0	0	0	0	0	1336	1332	1330	0	0	0	0	0	0	0	0	0	0	0	0	0	0	0	0	0	0	0	0	0	0	0	0	0	0	0	1213	1189	1202	1223	1247	1252	1236	1225	1223	1219	1224	1220	1220	1232	1244	1246	1242	1235	1224	1223	1222	1222	1208	1201	1215	1249	1247	1237	1224	1219	1216	1221	1222	1218	1212	1197	1189	1184	1178	1180	1206	1222	1230	1222	1201	1187	1179	1194	1211	1219	1213	1192	1181	1171	1183	1177	1184	1174	1148	1132	1133	0	0	1218	1220	1224	1220	1247	0	0	0	0	0	1174	1176	1185	1192	0	0	0	0	0	0	0	0	0	0	0	1225	1210	1195	1192	1197	0	0	1207	1210	1222	1221	1222	0	0	0	1210	1210	1206	1213	1229	1236	1233	0	0	0	0	0	0	0	0	0	0	1216	0	0	0	0	0	0	1217	1218	0	0	0	0	0	0	0	0	0	0	1182	1177	1168	0	0	0	0	0	0	0	0	0
0	0	0	0	0	0	0	0	0	0	0	0	0	0	0	1315	1324	1331	1345	1345	1357	1358	1352	1337	1332	1327	1327	1332	1337	1344	1347	1352	1357	1352	1352	1355	1362	1370	1379	1378	1349	1332	1334	1334	1337	1363	1378	1383	1371	1368	1372	1368	1365	1368	1371	1371	1372	1383	1385	1393	1371	1351	1329	1318	1334	1358	1375	1376	1372	1358	1350	1350	1348	1344	1331	1328	1331	1351	1360	1351	1352	1357	1358	0	0	0	0	0	0	0	0	0	0	0	0	0	0	0	0	0	0	0	0	0	0	0	0	0	0	0	0	0	0	0	0	0	0	0	0	0	0	0	0	0	0	0	0	0	0	0	0	0	0	0	0	0	0	0	0	0	0	0	0	0	0	0	0	0	0	0	0	0	0	0	0	0	0	0	0	0	0	0	0	0	0	0	0	0	0	0	0	0	1330	1324	1328	1336	1329	1322	1278	1272	1274	1284	1288	1302	1307	1305	1289	1273	1278	1290	1309	1301	1294	1288	1301	1311	1324	1346	1341	1331	1328	1322	1324	1311	1306	1306	1308	1333	1326	1288	1244	1223	1225	1211	1192	1173	1170	0	0	0	0	0	0	0	0	0	0	0	0	0	0	0	0	1279	1272	1285	0	0	0	1288	1302	1319	1351	1379	1383	1381	1367	1351	1358	1335	1303	1277	1293	1319	1351	1366	1365	1365	1388	1393	1388	1387	1386	1375	1367	1373	1391	1423	1413	1398	1366	1348	1321	1311	1316	1329	1354	0	1367	1361	1365	1388	1377	1367	1370	1366	1357	1363	1368	1375	1374	1370	1373	1380	1366	1329	1319	0	0	0	1298	1302	1311	1300	1300	1285	1282	1274	1281	1292	1306	1315	1312	1296	1277	1272	1278	1289	1300	1299	1294	1286	1289	1295	1298	1295	1287	1289	1299	1313	1323	1335	1333	1327	1324	1321	1320	1314	1310	1305	1306	1301	1294	1291	1289	1278	1287	1281	1263	1269	1282	1288	1288	1288	1288	1283	1285	1279	1270	1279	1289	1289	1288	1280	1278	1277	1286	1297	1286	1267	1257	1250	1251	1257	1267	1282	1288	1291	1285	1281	1258	1242	1249	1267	1275	1266	1259	1216	0	0	1276	1319	1330	1326	1329	1339	1358	1439	1420	1378	1366	1349	1353	1370	1390	1390	1389	1390	1402	1399	1391	1390	0	0	0	1376	1369	1388	1397	1400	1381	1365	1343	1332	1309	1298	1302	1302	1300	1318	1329	1320	1302	1303	1314	1293	1279	1278	1312	1329	1318	1288	1273	1288	1351	1371	0	0	0	1349	1346	1339	1321	1284	1267	1268	1274	1283	1266	1262	1257	1256	1262	1292	1287	1277	1280	1282	1300	1303	1317	1346	1359	1332	1295	1266	1247	1252	1261	1289	0	0	0	0	0	0	0	0	1219	1207	1200	1211	1230	1244	1246	1233	1227	1223	1222	1220	1216	1216	1220	1227	1231	1226	1217	1214	1229	1239	1244	1236	1209	1213	1232	1244	1233	1221	1193	1189	1187	1195	1206	1201	1191	1182	1180	1168	1170	1202	1231	1240	1221	1192	1178	1172	1186	1200	1205	1199	1182	1172	1164	1176	1181	1193	1178	1155	1134	1132	1151	1182	1207	1215	1194	1195	1203	1233	0	0	1210	1173	1164	1167	1161	1155	1142	1161	1180	1196	1201	1193	1188	1199	1221	1232	1222	1203	1180	1155	1145	1155	1171	1184	1182	1188	1194	1194	1184	1187	1197	1190	1183	1186	1198	1198	1204	1205	1213	1213	1211	1216	1224	1243	1252	1245	1215	1196	1185	1188	1192	1197	1195	1192	1192	1188	1190	1194	1202	1215	0	0	1226	1200	1191	1184	1189	1184	1176	1165	1156	0	0	0	0	0	0	0	0	0
0	0	0	0	0	0	0	0	0	0	0	0	0	0	0	0	0	0	1325	1330	1330	1313	1307	1301	1305	1305	1305	1307	1326	1341	1337	1334	1330	1331	1331	1341	1350	1346	1332	1322	1337	1337	1325	1325	1328	1330	1337	1344	1340	1340	1344	1338	1332	1316	1290	1290	1303	1324	1339	1346	1330	1298	1282	1280	1295	1331	1355	1357	1356	1353	1335	1335	1321	1311	1299	1295	1308	1311	1318	1314	1313	1327	0	0	0	0	0	0	0	0	1263	0	0	0	0	0	0	0	0	0	0	0	0	0	0	0	0	0	0	0	0	0	0	0	0	0	0	0	0	0	0	0	0	0	0	0	0	0	0	0	0	0	0	0	0	0	0	0	0	0	0	0	0	0	0	0	0	0	0	0	0	0	1233	1237	0	0	0	0	0	0	0	0	0	0	0	0	0	0	0	0	0	0	1325	1329	1324	1326	1324	1325	1296	1297	1299	1333	1328	1322	1318	1303	1284	1262	1262	1280	1298	1299	1279	1270	1278	1286	1316	1337	1342	1323	1312	1307	1300	1285	1281	1283	1272	1271	1256	1235	1212	1192	1187	1177	1165	1157	1161	1185	1211	1237	1253	1263	1281	1296	1307	1317	1319	1296	1280	1269	1271	1272	1269	1264	1252	1248	1267	1276	1264	1263	1271	1294	1334	1359	1373	1349	1321	1316	1341	1306	1273	1251	1255	1285	1307	1323	1326	1337	1355	1355	1373	1364	1358	1330	1321	1329	1347	1366	1358	1341	1316	1301	1285	1287	1303	1321	1335	1339	1326	1316	1321	1321	1321	1327	1341	1353	1343	1341	1343	1347	1342	1332	1311	1308	1311	1304	1296	1292	1304	1304	1309	1318	1315	1298	1279	1264	1243	1223	1237	1256	1271	1281	1270	1253	1238	1236	1245	1249	1265	1268	1267	1263	1267	1268	1263	1268	1260	1263	1271	1275	1278	1275	1262	1260	1267	1267	1264	1260	1256	1257	1264	1268	1269	1255	1254	1243	1253	1249	1234	1239	1239	1240	1247	1249	1254	1254	1256	1256	1238	1232	1232	1237	1244	1236	1237	1240	1254	1262	1256	1248	1239	1231	1225	1220	1211	1222	1228	1247	1251	1250	1232	1226	1238	1257	1280	1283	1264	1256	1263	1277	1288	1302	1304	1322	1314	1309	1321	1334	1349	1304	1272	1244	1262	1312	1351	1361	1362	1352	1353	1341	1311	1311	1321	1311	1295	1273	1315	1342	1366	1365	1318	1326	1323	1308	1267	1258	1255	1254	1260	1276	1298	1293	1277	1265	1257	1248	1245	1243	1254	1280	1279	1267	1246	1249	1266	1271	1286	1274	1260	1264	1266	1261	1259	1249	1228	1226	1225	1214	1216	1221	1217	1219	1210	1220	1243	1251	1254	1244	1241	1244	1262	1300	1302	1293	1267	1246	1235	1226	1230	1253	1275	1286	1273	1258	1228	1187	1161	1188	1183	1194	1202	1221	1221	1228	1241	1233	1223	1223	1222	1223	1220	1213	1211	1213	1213	1207	1199	1203	1221	1233	1244	1248	1236	1217	1189	1196	1197	1192	1178	1175	1175	1166	1165	1174	1176	1178	1175	1166	1162	1192	1214	1221	1210	1185	1174	1171	1176	1181	1185	1178	1168	1156	1162	1174	1195	1197	1174	1156	1135	1139	1158	1173	1193	1193	1178	1186	1200	1217	1214	1189	1166	1146	1147	1157	1152	1136	1114	1131	1155	1168	1169	1154	1151	1156	1173	1190	1192	1178	1155	1129	1114	1125	1143	1162	1173	1172	1171	1166	1165	1169	1164	1157	1154	1154	1160	1152	1151	1155	1173	1178	1180	1168	1178	1210	1226	1218	1200	1178	1165	1160	1152	1145	1151	1159	1159	1164	1163	1159	1163	1189	1219	1224	1213	1179	1162	1165	1174	1175	1163	1150	1138	0	0	0	0	0	0	0	0	0
0	0	0	0	0	0	0	0	0	0	0	0	0	0	0	0	0	0	0	1312	1312	1286	1265	1260	1265	1266	1287	1287	1310	1325	1332	1323	1319	1310	1310	1315	1271	1282	1289	1300	1315	1317	1295	1295	1278	1272	1285	1310	1320	1327	1338	1319	1296	1268	1264	1264	1271	1282	1299	1296	1278	1257	1245	1248	1269	1310	1319	1329	1344	1344	1331	1331	1312	1286	1276	1284	1294	1283	1279	1287	1287	1302	1314	0	0	0	0	0	0	1259	1256	1257	1276	1283	1265	1226	1208	1197	0	1209	1212	1224	1238	0	0	0	0	0	0	0	0	0	0	0	0	0	0	0	0	0	0	0	0	0	0	1227	0	0	0	0	0	0	0	0	0	0	0	0	0	0	0	0	0	0	0	0	0	0	0	0	0	1234	1210	1209	1240	0	0	0	0	0	0	0	0	0	0	1261	1258	1269	0	0	0	0	1320	1317	1306	1301	1294	1295	1305	1312	1322	1343	1336	1329	1316	1299	1267	1241	1236	1258	1275	1274	1273	1259	1264	1270	1289	1326	1327	1308	1292	1283	1268	1243	1242	1249	1245	1248	1249	1216	1180	1172	1156	1144	1145	1142	1156	1179	1193	1205	1213	1220	1243	1267	1270	1274	1280	1266	1234	1218	1226	1245	1256	1250	1230	1217	1223	1240	1241	1240	1248	1273	1302	1323	1293	1273	1268	1271	1312	1282	1243	1216	1221	1242	1282	1290	1291	1301	1325	1329	1312	1280	1308	1275	1272	1279	1279	1300	1308	1294	1268	1253	1250	1268	1280	1296	1313	1307	1288	1269	1255	1247	1253	1266	1289	1302	1311	1317	1306	1291	1265	1276	1281	1280	1286	1283	1276	1264	1266	1294	1304	1304	1290	1272	1257	1233	1217	1204	1206	1226	1245	1245	1221	1210	1207	1207	1211	1220	1230	1244	1243	1239	1237	1242	1243	1239	1239	1248	1261	1269	1272	1254	1242	1234	1227	1226	1218	1210	1206	1208	1218	1228	1231	1223	1214	1208	1207	1206	1213	1219	1220	1215	1216	1216	1216	1216	1224	1225	1216	1204	1197	1192	1194	1193	1200	1210	1217	1219	1218	1213	1213	1208	1201	1192	1186	1187	1203	1221	1225	1219	1199	1203	1217	1238	1259	1264	1247	1227	1219	1240	1250	1253	1256	1259	1265	1283	1301	1312	1314	1266	1231	1216	1231	1265	1306	1324	1321	1301	1275	1252	1234	1241	1255	1256	1252	1253	1285	1319	1340	1238	1230	1233	1245	1247	1225	1216	1227	1230	1233	1238	1235	1238	1242	1235	1221	1208	1200	1201	1218	1223	1240	1225	1223	1236	1227	1222	1217	1212	1205	1206	1218	1231	1234	1213	1208	1209	1198	1188	1195	1197	1197	1187	1182	1194	1218	1230	1232	1216	1204	1215	1248	1236	1223	1220	1205	1208	1210	1210	1206	1207	1236	1249	1251	1238	1210	1172	1119	1142	1159	1182	1199	1212	1214	1208	1207	1212	1221	1223	1221	1207	1190	1182	1180	1176	1175	1178	1181	1186	1192	1211	1193	1195	1194	1179	1165	1163	1165	1164	1158	1154	1157	1152	1152	1158	1160	1164	1164	1159	1160	1175	1191	1198	1178	1160	1152	1149	1162	1172	1174	1178	1164	1147	1157	1190	1209	1198	1184	1154	1132	1126	1138	1164	1175	1174	1167	1166	1186	1206	1193	1170	1135	1122	1122	1135	1135	1126	1102	1110	1126	1134	1129	1124	1122	1131	1143	1159	1161	1150	1117	1095	1086	1099	1117	1136	1148	1153	1155	1148	1149	1148	1148	1142	1137	1127	1118	1118	1125	1128	1138	1146	1132	1124	1147	1170	1195	1198	1179	1154	1144	1129	1123	1119	1118	1125	1125	1137	1142	1143	1140	1150	1180	1188	1167	1137	1138	1150	1154	1161	1154	1132	1120	0	0	0	0	0	0	0	0	0
0	0	0	0	0	0	0	0	0	0	0	0	0	0	0	0	0	0	0	0	0	0	0	0	0	1233	1252	1252	1281	1300	1296	1291	1273	1266	1202	1205	1224	1237	1253	1271	1286	1286	1277	1260	1260	1253	1267	1286	1305	1316	1306	1293	1273	1258	1247	1247	1243	1255	1255	1255	1240	1221	1220	1230	1243	1278	1294	1303	1324	0	0	0	1311	1280	1273	1291	1290	1279	1272	1273	1274	1273	1275	1277	0	0	1254	1251	1254	1258	1264	1258	1268	1268	1258	1227	1204	1205	1214	1222	1227	1228	1236	1248	0	0	1223	1211	1222	1219	1231	1241	1246	1246	1232	1253	0	0	0	0	1271	1265	1266	1260	1223	1179	1189	1210	1234	0	0	0	0	0	1243	1268	1281	1289	0	1272	1266	1247	1236	1220	1221	1238	0	0	0	1276	1250	1202	1184	1195	1208	1225	0	0	0	0	0	1263	1248	1236	1229	1224	1230	1246	1266	1279	1277	1276	1300	1289	1274	1264	1271	1273	1287	1303	1309	1314	1329	1311	1285	1259	1236	1223	1212	1213	1241	1257	1270	1258	1249	1244	1262	1277	1285	1282	1265	1243	1228	1209	1202	1204	1215	1221	1221	1175	1156	1141	1137	1122	1116	1128	1140	1148	1161	1167	1174	1169	1167	1195	1224	1239	1244	1227	1206	1201	1212	1230	1244	1234	1211	1191	1175	1200	1205	1203	1209	1223	1243	1258	1252	1232	1223	1226	1189	1171	1168	1170	1178	1214	1231	1236	1229	1236	1287	1286	1253	1221	1214	1223	1247	1235	1239	1253	1256	1253	1237	1196	1193	1227	1254	1267	1280	1266	1241	1225	1206	1201	1206	1218	1230	1241	1226	1230	1232	1239	1246	1256	1260	1255	1251	1240	1238	1229	1228	1238	1246	1248	1215	1221	1221	1206	1195	1176	1177	1193	1215	1203	1179	1168	1173	1181	1183	1190	1203	1211	1217	1206	1206	1208	1206	1204	1209	1226	1240	1248	1248	1236	1213	1200	1193	1181	1170	1165	1164	1167	1174	1185	1189	1180	1172	1164	1161	1168	1182	1189	1194	1192	1187	1181	1179	1178	1181	1181	1180	1174	1174	1163	1155	1156	1170	1178	1179	1180	1179	1176	1184	1178	1165	1154	1150	1155	1181	1195	1195	1191	1179	1187	1197	1206	1205	1205	1209	1199	1191	1196	1204	1208	1207	1215	1239	1257	1271	1275	1248	1223	1210	1205	1213	1228	1233	1228	1216	1213	1202	1197	1203	1204	1209	1225	1229	1230	1248	1171	1172	1160	1159	1159	1173	1193	1200	1202	1200	1198	1199	1199	1204	1210	1205	1189	1172	1159	1156	1148	1150	1180	1184	1168	1172	1193	1197	1195	1190	1186	1179	1184	1186	1194	1204	1194	1184	1180	1179	1171	1175	1178	1180	1169	1167	1185	1205	1217	1208	1191	1184	1189	1201	1199	1181	1174	1142	1138	1149	1156	1155	1154	1169	1176	1181	1179	1171	1129	1133	1134	1145	1160	1176	1184	1174	1173	1176	1185	1201	1214	1210	1192	1174	1169	1166	1170	1169	1176	1171	1175	1171	1159	1171	1171	1168	1152	1127	1129	1135	1139	1132	1116	1117	1131	1141	1145	1146	1143	1137	1131	1133	1149	1160	1162	1144	1126	1120	1125	1144	1154	1158	1152	1146	1131	1137	1177	1205	1189	1153	1132	1116	1114	1116	1137	1153	1145	1137	1142	1152	1168	1158	1132	1107	1086	1086	1108	1113	1106	1105	1104	1108	1106	1102	1099	1101	1105	1121	1129	1122	1112	1097	1086	1080	1084	1098	1111	1123	1127	1138	1134	1131	1126	1117	1118	1120	1108	1101	1102	1104	1114	1117	1105	1096	1102	1106	1139	1156	1147	1136	1124	1116	1111	1107	1102	1096	1095	1095	1101	1115	1119	1115	1120	1131	1134	1123	1117	1125	1129	1142	1143	1137	1120	1109	0	0	0	0	0	0	0	0	0
0	0	0	0	0	0	0	0	0	0	0	0	0	0	0	0	0	0	0	0	0	0	0	0	0	0	0	0	1230	1255	1260	1241	1187	1165	1161	1161	1173	1189	1206	1235	1245	1248	1242	1234	1234	1234	1236	1244	1265	1271	1272	1263	1257	1251	1236	1236	1218	1222	1224	1226	1220	1206	1209	1210	1225	1238	1261	1274	1292	0	0	1292	1292	1261	1267	1287	1299	1293	1274	1269	1253	1247	1241	1221	1214	1204	1198	1213	1229	1245	1251	1257	1248	1247	1232	1205	1185	1195	1219	1233	1229	1223	1223	1229	1234	1203	1158	1157	1180	1191	1200	1214	1221	1212	1205	1202	1228	1247	1252	1254	1258	1251	1237	1212	1178	1145	1152	1173	1198	1215	0	0	0	1204	1193	1215	1228	1228	1240	1233	1231	1217	1210	1203	1193	1204	0	1322	1288	1247	1208	1176	1159	1166	1191	1193	1189	1192	1194	1171	1189	1211	1205	1200	1194	1188	1184	1191	1204	1231	1221	1221	1214	1203	1185	1184	1235	1242	1252	1267	1270	1268	1268	1266	1239	1216	1201	1190	1182	1186	1209	1236	1249	1237	1227	1220	1227	1228	1212	1205	1216	1204	1188	1166	1163	1169	1190	1187	1161	1101	1093	1113	1106	1098	1097	1102	1108	1120	1108	1121	1123	1093	1081	1087	1111	1168	1203	1194	1179	1180	1183	1199	1211	1208	1180	1162	1142	1122	1122	1126	1132	1144	1144	1161	1173	1177	1168	1156	1156	1155	1154	1150	1144	1149	1150	1136	1125	1132	1170	1164	1157	1150	1174	1185	1187	1173	1205	1209	1208	1190	1176	1150	1142	1137	1156	1189	1201	1209	1209	1197	1181	1166	1170	1182	1181	1184	1175	1197	1206	1212	1220	1216	1217	1194	1192	1199	1191	1161	1148	1153	1161	1155	1144	1138	1142	1153	1151	1148	1152	1159	1156	1143	1142	1143	1160	1163	1163	1169	1178	1188	1187	1189	1175	1166	1158	1158	1173	1186	1202	1199	1207	1181	1158	1144	1139	1138	1130	1121	1119	1129	1142	1150	1150	1137	1120	1118	1119	1129	1133	1129	1139	1143	1145	1146	1140	1139	1141	1135	1136	1140	1147	1126	1121	1114	1126	1143	1146	1143	1137	1115	1118	1121	1121	1121	1121	1128	1149	1167	1162	1153	1153	1160	1168	1170	1164	1163	1155	1163	1165	1169	1172	1173	1184	1189	1194	1212	1226	1226	1194	1185	1177	1175	1188	1191	1183	1174	1163	1158	1160	1165	1159	1152	1146	1160	1160	1131	1125	1121	1120	1125	1127	1129	1128	1137	1149	1153	1153	1166	1166	1168	1171	1165	1159	1144	1123	1113	1098	1091	1094	1116	1130	1130	1135	1139	1159	1162	1161	1153	1148	1147	1164	1168	1162	1151	1153	1158	1154	1154	1155	1164	1160	1154	1151	1162	1176	1181	1167	1157	1149	1155	1177	1175	1165	1132	1114	1105	1109	1111	1108	1104	1108	1116	1120	1127	1126	1125	1126	1133	1141	1144	1152	1145	1126	1124	1128	1136	1161	1187	1185	1177	1156	1156	1136	1134	1138	1146	1159	1155	1139	1118	1112	1127	1124	1101	1070	1091	1108	1113	1104	1089	1093	1117	1133	1137	1131	1113	1103	1102	1098	1114	1118	1124	1104	1094	1090	1098	1113	1119	1122	1117	1105	1094	1095	1129	1172	1130	1097	1094	1094	1095	1102	1112	1115	1113	1116	1121	1124	1120	1108	1094	1073	1058	1053	1053	1055	1057	1073	1085	1099	1098	1084	1073	1063	1060	1069	1087	1085	1085	1084	1079	1078	1078	1080	1078	1077	1088	1103	1111	1103	1089	1085	1082	1096	1091	1083	1084	1083	1088	1081	1080	1078	1082	1096	1122	1132	1126	1112	1102	1088	1087	1092	1092	1085	1081	1081	1087	1094	1095	1090	1089	1094	1097	1093	1102	1105	1110	1113	1119	1114	1104	1098	1098	0	0	0	0	0	0	0	0
0	0	0	0	0	0	0	0	0	0	0	0	0	0	0	0	0	0	0	0	0	0	0	0	0	0	0	0	1200	1213	1224	1186	1156	1138	1138	1138	1141	1146	1161	1179	1189	1195	1198	1216	1216	1223	1216	1205	1181	1184	1204	1212	1221	1211	1184	1184	1179	1192	1197	1212	1213	1202	1190	1192	1195	1206	1214	1219	1250	1269	1265	1242	1242	1230	1232	1259	1286	1279	1270	1245	1225	1214	1211	1192	1189	1182	1185	1189	1199	1215	1214	1218	1218	1211	1194	1178	1169	1191	1215	1225	1218	1201	1188	1185	1179	1146	1126	1123	1144	1169	1182	1186	1191	1177	1176	1178	1193	1207	1212	1224	1228	1226	1199	1175	1145	1124	1129	1150	1163	1173	1196	1199	1156	1119	1137	1162	1168	1168	1172	1191	1195	1188	1169	1167	1167	1173	1246	1253	1221	1195	1166	1133	1117	1138	1148	1140	1121	1097	1080	1080	1098	1114	1130	1155	1155	1145	1120	1094	1092	1128	1156	1155	1143	1109	1113	1119	1115	1119	1116	1178	1199	1208	1193	1181	1173	1157	1156	1157	1157	1154	1170	1197	1174	1155	1154	1165	1177	1187	1186	1182	1173	1168	1149	1144	1137	1128	1131	1126	1079	1030	1026	1036	1050	1057	1055	1064	1070	1080	1081	1074	1070	1059	1048	1050	1075	1096	1138	1146	1139	1145	1140	1112	1101	1128	1130	1115	1104	1088	1075	1068	1075	1085	1099	1115	1130	1139	1136	1118	1120	1145	1126	1110	1102	1099	1085	1076	1090	1111	1130	1134	1124	1134	1141	1157	1166	1126	1108	1098	1160	1144	1126	1122	1125	1119	1123	1143	1159	1157	1153	1155	1145	1136	1138	1126	1110	1119	1130	1159	1173	1179	1150	1119	1121	1124	1125	1127	1136	1129	1121	1113	1115	1107	1101	1101	1107	1103	1120	1117	1113	1088	1092	1087	1091	1107	1139	1154	1149	1148	1163	1166	1163	1164	1145	1125	1102	1110	1124	1144	1149	1157	1141	1107	1109	1108	1105	1101	1100	1092	1096	1105	1116	1132	1128	1109	1084	1074	1081	1092	1099	1099	1080	1073	1083	1097	1105	1104	1107	1108	1101	1111	1118	1106	1084	1070	1064	1086	1090	1089	1073	1069	1075	1079	1085	1087	1091	1105	1118	1127	1122	1117	1115	1128	1132	1131	1127	1110	1105	1105	1132	1120	1123	1133	1146	1156	1148	1141	1135	1138	1141	1136	1131	1131	1140	1144	1138	1131	1124	1119	1121	1130	1128	1116	1117	1095	1106	1109	1096	1099	1101	1106	1104	1096	1086	1077	1073	1074	1064	1074	1125	1132	1144	1116	1108	1111	1099	1080	1069	1065	1069	1076	1085	1093	1096	1092	1088	1094	1103	1116	1127	1142	1145	1147	1118	1124	1125	1124	1120	1107	1105	1110	1108	1095	1093	1095	1109	1121	1120	1110	1085	1084	1140	1141	1133	1106	1086	1083	1079	1081	1079	1076	1086	1090	1092	1095	1093	1108	1108	1107	1117	1122	1115	1097	1094	1084	1088	1093	1102	1120	1126	1102	1108	1107	1097	1089	1110	1116	1136	1110	1090	1085	1082	1084	1073	1056	1036	1064	1083	1095	1084	1073	1072	1091	1104	1103	1100	1085	1066	1063	1075	1085	1085	1078	1072	1068	1068	1074	1088	1091	1092	1081	1066	1055	1059	1075	1100	1074	1063	1064	1068	1078	1087	1092	1086	1088	1094	1104	1104	1094	1079	1060	1050	1034	1031	1030	1031	1039	1057	1068	1084	1083	1067	1055	1049	1052	1051	1052	1050	1053	1061	1064	1068	1067	1058	1057	1064	1078	1087	1084	1072	1059	1047	1047	1050	1062	1065	1062	1064	1057	1049	1053	1056	1069	1077	1097	1100	1098	1086	1073	1056	1054	1060	1065	1069	1069	1069	1071	1071	1068	1065	1062	1063	1059	1067	1074	1082	1090	1085	1080	1070	1076	1076	1076	0	0	0	0	0	0	0	0
0	0	0	0	1142	0	0	1140	1140	1117	1107	1106	1129	1155	1155	1168	1171	1180	1192	0	0	0	0	1161	1156	1159	1160	1160	1174	1160	1173	1157	1131	1121	1106	1106	1116	1118	1125	1131	1136	1149	1171	1193	1193	1207	1193	1169	1147	1132	1139	1151	1159	1149	1151	1151	1153	1160	1175	1184	1184	1169	1168	1168	1179	1174	1158	1166	1190	1218	1222	1205	1205	1194	1190	1194	1198	1211	1212	1195	1184	1163	1160	1160	1160	1160	1155	1139	1148	1165	1161	1142	1147	1168	1168	1160	1159	1167	1204	1197	1170	1138	1146	1151	1138	1112	1094	1093	1121	1143	1141	1148	1143	1156	1144	1149	1154	1161	1137	1142	1175	1173	1151	1131	1110	1101	1114	1125	1131	1124	1097	1075	1060	1059	1078	1106	1108	1086	1085	1108	1128	1130	1122	1115	1117	1111	1118	1144	1146	1134	1114	1087	1063	1062	1102	1091	1073	1053	1042	1049	1065	1071	1070	1089	1097	1090	1053	1030	1023	1025	1024	1020	1022	1017	1025	1031	1060	1067	1082	1061	1051	1057	1053	1082	1063	1076	1098	1108	1123	1118	1124	1126	1106	1080	1092	1100	1106	1109	1102	1077	1083	1096	1105	1098	1094	1066	1059	1041	1021	1005	1002	1007	1005	999	987	991	1005	1018	1021	1028	1026	1021	1020	1031	1041	1054	1070	1092	1074	1052	1045	1031	1025	1041	1054	1060	1069	1065	1050	1035	1029	1041	1055	1070	1088	1103	1098	1086	1075	1100	1074	1065	1057	1052	1044	1035	1038	1078	1098	1068	1081	1095	1107	1127	1108	1085	1073	1063	1047	1094	1087	1099	1092	1089	1092	1107	1115	1111	1095	1088	1107	1101	1094	1082	1082	1087	1094	1118	1133	1118	1081	1077	1080	1089	1089	1082	1080	1089	1086	1074	1054	1051	1061	1065	1066	1069	1080	1077	1052	1053	1057	1056	1056	1063	1058	1077	1081	1079	1093	1135	1150	1120	1102	1088	1072	1066	1060	1066	1072	1065	1067	1065	1079	1081	1081	1078	1065	1058	1054	1063	1073	1085	1080	1068	1055	1048	1054	1063	1069	1058	1049	1035	1045	1065	1077	1075	1076	1077	1077	1046	1051	1068	1059	1044	1038	1034	1037	1036	1032	1036	1044	1051	1050	1049	1053	1063	1082	1089	1084	1075	1088	1098	1100	1084	1071	1066	1066	1063	1060	1075	1075	1064	1066	1059	1071	1074	1074	1063	1052	1056	1055	1057	1079	1090	1109	1107	1095	1088	1082	1068	1064	1023	1037	1040	1014	1030	1056	1077	1077	1072	1064	1052	1047	1046	1043	1027	1017	1018	1039	1076	1091	1054	1049	1050	1065	1059	1057	1050	1048	1055	1060	1076	1076	1069	1065	1066	1076	1090	1099	1116	1115	1097	1085	1072	1074	1065	1062	1068	1067	1051	1039	1026	1036	1051	1064	1074	1066	1059	1060	1055	1065	1078	1080	1066	1061	1056	1052	1049	1060	1062	1072	1076	1076	1072	1074	1083	1083	1075	1071	1065	1067	1067	1073	1067	1058	1031	1035	1042	1038	1065	1072	1072	1068	1058	1051	1078	1078	1057	1058	1052	1052	1054	1051	1027	1024	1037	1052	1067	1058	1044	1041	1045	1056	1071	1063	1048	1037	1029	1043	1055	1059	1054	1046	1042	1042	1051	1057	1061	1061	1052	1042	1035	1036	1040	1047	1031	1031	1032	1043	1056	1066	1065	1057	1055	1071	1076	1070	1055	1042	1031	1027	1021	1017	1013	1010	1015	1032	1044	1055	1064	1042	1032	1031	1032	1033	1031	1030	1023	1032	1039	1040	1044	1040	1040	1050	1065	1069	1067	1053	1038	1029	1029	1032	1037	1041	1039	1034	1033	1033	1030	1035	1040	1051	1055	1049	1061	1054	1044	1035	1034	1033	1041	1042	1044	1044	1040	1029	1032	1023	1014	1017	1022	1032	1051	1058	1050	1046	1032	1026	1036	1037	1037	0	0	0	0	0	0	0	0
0	1153	1145	1145	1131	1126	1117	1089	1089	1083	1096	1102	1131	1155	1155	1171	1176	1166	1157	1144	1144	1140	1139	1125	1121	1121	1133	1133	1118	1131	1098	1085	1084	1073	1076	1076	1077	1090	1090	1093	1098	1119	1146	1169	1169	1166	1152	1140	1114	1093	1084	1092	1105	1112	1120	1120	1130	1143	1151	1151	1144	1124	1114	1126	1128	1122	1114	1129	1149	1168	1167	1157	1157	1134	1134	1139	1134	1127	1124	1121	1111	1096	1096	1110	1117	1122	1110	1096	1080	1087	1091	1082	1099	1119	1142	1146	1147	1139	1125	1115	1096	1087	1087	1100	1098	1078	1061	1049	1057	1060	1047	1052	1087	1116	1112	1102	1086	1080	1072	1068	1076	1092	1093	1061	1051	1073	1082	1083	1086	1062	1035	1024	1018	1021	1033	1050	1048	1044	1049	1060	1069	1061	1063	1061	1050	1034	1012	1031	1084	1078	1050	1005	991	999	1035	1046	1025	1019	1019	1016	1024	1036	1038	1021	1009	1013	1016	1011	1002	994	987	982	986	985	992	984	984	995	1011	1030	1019	1005	998	986	976	966	1023	1047	1062	1065	1060	1057	1042	1038	1058	1063	1050	1037	1022	1023	1035	1035	1026	1018	1017	1029	1030	1018	986	981	988	995	988	979	964	959	964	980	996	1011	1013	999	984	984	995	1022	1033	1046	1033	1031	1012	997	997	991	998	1007	1022	1033	1020	1005	997	1012	1026	1039	1048	1045	1037	1029	1033	1008	1010	1017	1018	1016	1002	997	987	995	1001	1011	1021	1042	1060	1057	1048	1045	1039	1026	1016	1014	1019	1042	1057	1061	1063	1074	1061	1062	1061	1054	1053	1069	1063	1057	1055	1057	1064	1070	1071	1047	1042	1038	1046	1054	1052	1029	1029	1039	1044	1043	1036	1030	1026	1025	1018	1014	1013	1007	1015	1032	1033	1020	1025	1025	1025	1029	1032	1025	1020	1031	1040	1045	1045	1046	1036	1027	1012	1005	1001	1002	1011	1024	1037	1038	1045	1037	1022	1009	1000	991	1004	1034	1048	1053	1041	1037	1034	1035	1019	1016	1006	1009	1009	1013	1028	1038	1027	1022	1020	1003	999	1008	1028	1026	1021	1017	1013	1012	1012	1009	1016	1022	1019	1016	1004	1005	1003	1000	1011	1038	1047	1056	1043	1039	1038	1038	1039	1038	1038	1033	1032	1022	1024	1027	1034	1032	1036	1024	1023	1020	1000	996	1017	1043	1066	1071	1069	1041	1028	975	975	976	976	966	967	985	1014	1039	1039	1025	1008	1011	1017	1008	1003	998	995	998	1001	1000	1007	1023	1024	1025	1027	1037	1036	1034	1031	1027	1032	1035	1037	1037	1039	1047	1052	1073	1076	1070	1042	1019	1013	1020	1027	1032	1030	1031	1036	1029	1015	998	996	1009	1026	1030	1033	1033	1036	1032	1035	1045	1046	1037	1028	1021	1021	1030	1038	1043	1052	1053	1055	1057	1054	1047	1041	1027	1015	1012	1007	1006	980	984	995	1009	1015	1017	1013	1028	1036	1035	1033	1029	1031	1023	1014	1018	1021	1018	1024	1024	1038	1026	1021	1020	1020	1022	1011	1001	987	987	1009	1022	1027	1016	1001	1000	1010	1018	1038	1028	1026	1022	1017	1017	1023	1020	1031	1028	1021	1010	1003	1004	1004	998	999	1003	1014	1023	1033	1033	1029	1023	1030	1040	1033	1016	1010	1007	1008	997	994	993	994	997	1014	1025	1033	1026	1016	1004	997	1000	1008	1013	1006	1003	999	1010	1018	1025	1026	1021	1036	1046	1049	1046	1028	1020	1014	1013	1016	1024	1011	1011	1010	1013	1010	1006	1008	1013	1018	1020	1021	1024	1029	1022	1017	1015	1016	1010	1012	1015	1015	998	990	984	988	994	997	1000	1007	1013	1005	1000	994	993	988	1004	1002	1002	0	0	0	0	0	0	0	0
1124	1122	1120	1120	1124	1111	1077	1064	1064	1067	1075	1096	1113	1137	1137	1151	1157	1147	1129	1121	1121	1110	1107	1095	1086	1085	1099	1067	1072	1066	1048	1031	1024	1025	1034	1034	1047	1052	1051	1056	1056	1057	1057	1056	1056	1062	1066	1078	1075	1061	1049	1048	1056	1069	1087	1087	1111	1114	1108	1115	1105	1090	1083	1073	1073	1070	1080	1094	1107	1120	1103	1083	1083	1084	1094	1106	1096	1071	1046	1048	1050	1047	1040	1040	1057	1060	1045	1035	1028	1030	1036	1047	1062	1085	1099	1105	1078	1068	1068	1054	1042	1034	1029	1023	1056	1034	1021	1011	1021	1025	1023	1033	1047	1059	1048	1033	1020	1028	1040	1042	1040	1040	1033	1027	1027	1041	1038	1022	1014	997	991	985	988	991	1009	1011	997	998	1007	1022	1026	1020	1019	1016	1010	990	982	978	985	979	969	951	949	962	984	986	993	993	987	971	963	970	1011	1000	991	984	983	981	973	966	965	965	972	979	977	965	963	971	986	1011	998	984	983	975	957	938	920	922	936	1009	1021	1015	994	989	1026	1019	1011	990	992	1005	1014	1009	998	994	992	1001	1000	981	971	964	974	976	963	951	944	936	947	961	979	991	991	975	962	953	972	984	1001	1016	1013	1011	989	977	974	977	986	997	1000	995	985	976	978	987	1011	1019	1018	1004	990	982	978	959	957	974	979	980	973	968	966	969	971	982	998	1004	989	991	998	1001	1003	1001	1000	992	991	972	961	1022	1018	1024	1024	1020	1019	1028	1020	1028	1030	1027	1020	1025	1028	1018	1004	1021	1013	1009	1010	1013	998	998	1003	1008	1014	1018	1020	1017	1015	1013	1004	993	987	990	993	990	986	979	987	1002	1006	1006	1002	997	999	1001	1001	1009	1008	1004	991	980	976	975	972	979	988	992	982	986	993	1000	994	974	959	963	985	1010	1018	1027	1024	1014	1000	976	953	953	965	971	974	980	985	984	989	984	982	975	973	967	970	973	992	999	989	989	989	988	992	990	976	976	977	983	987	984	978	970	972	978	995	997	1008	1014	1013	1013	1015	1015	1009	1008	1001	1003	1010	999	994	994	996	981	969	961	962	964	961	956	973	982	943	950	945	940	936	941	941	959	967	975	973	960	953	957	970	988	986	978	979	985	980	973	965	996	996	998	997	994	992	982	989	989	965	970	974	981	992	997	1013	1040	1038	1029	997	980	975	981	988	1000	1002	1004	1007	1010	998	982	976	983	993	998	1001	1007	1010	1011	1016	1018	1018	1008	999	997	999	1007	1017	1025	1015	1015	1028	1029	1026	1009	996	992	986	972	965	965	956	958	964	980	991	990	986	998	1005	1009	1003	999	1001	994	985	980	984	990	992	979	986	1019	1018	1007	995	989	969	960	945	944	960	981	995	983	966	964	971	972	986	1007	1009	1008	1001	997	988	986	1003	1007	1002	985	978	974	980	979	973	971	974	985	987	993	991	988	985	984	978	970	963	963	973	975	974	976	977	976	992	997	1001	999	991	975	964	966	972	981	987	982	980	985	996	1011	1012	1007	1001	1009	1016	1007	1001	992	999	988	987	994	983	982	983	989	991	984	982	980	983	998	1002	1003	1005	1005	1005	999	995	993	988	988	984	966	959	966	972	975	973	978	984	988	987	977	972	961	957	967	984	984	0	0	0	0	0	0	0	0
1077	1084	1097	1097	1100	1072	1051	1042	1042	1044	1049	1074	1072	1081	1081	1101	1117	1102	1078	1047	1047	1048	1067	1059	1057	1058	1007	1007	1015	1009	1006	1000	1002	1006	1017	1017	1024	1021	1012	1010	1021	1020	1013	1014	1014	1015	1034	1035	1025	1016	1014	1005	999	1004	1012	1024	1024	1039	1029	1032	1041	1044	1057	1044	1022	1024	1037	1052	1059	1035	1027	1028	1028	1041	1050	1063	1055	1012	1003	1006	1010	1014	1007	996	997	1017	1019	1016	1014	1007	1004	1006	1014	1024	1032	1026	1024	1014	1021	1021	1006	989	985	976	966	980	979	971	982	995	1001	1017	1026	1025	1008	994	984	984	996	1004	997	994	993	1001	1002	1004	987	973	968	969	964	959	962	969	976	971	966	968	976	981	987	987	988	982	977	961	944	937	944	936	931	922	919	926	946	972	980	979	963	950	948	947	960	984	967	960	954	946	928	920	929	943	959	967	967	958	953	954	969	968	954	946	943	938	929	913	902	899	909	923	930	933	958	965	967	964	963	962	972	986	987	981	975	971	970	969	965	956	952	945	933	939	931	925	921	918	928	940	951	962	955	941	930	932	937	948	973	985	983	979	965	956	956	963	971	978	977	975	960	949	941	941	940	942	939	943	952	959	955	947	930	932	940	950	953	954	950	944	938	937	937	936	937	939	957	963	967	969	968	967	962	947	946	936	938	982	985	980	983	981	975	973	981	986	990	984	975	970	971	979	980	981	971	958	959	965	969	976	985	995	993	994	988	987	982	977	967	965	966	961	962	963	967	970	974	978	976	976	968	964	969	975	977	963	953	949	947	947	949	950	959	946	949	951	959	962	958	950	940	934	937	939	950	969	969	962	947	922	925	926	930	932	933	937	944	950	950	962	954	948	939	917	922	931	941	949	953	964	966	968	966	955	948	947	955	960	963	963	949	937	930	946	963	971	978	974	964	953	960	958	957	963	966	969	975	974	967	963	945	935	935	934	933	933	936	933	915	919	917	919	905	903	894	913	924	928	934	943	940	931	911	915	922	936	947	941	937	939	948	948	953	951	942	942	940	937	930	918	931	936	924	937	949	955	939	943	967	965	956	958	954	944	936	939	945	969	974	977	976	975	980	973	960	946	945	943	947	950	966	987	987	986	987	985	964	968	977	979	989	981	961	943	943	970	977	969	963	931	943	948	943	930	920	921	944	950	961	964	961	966	970	965	970	970	967	962	960	959	961	957	953	955	953	982	982	955	949	938	938	926	919	918	932	955	963	952	949	949	954	955	961	975	995	1004	997	983	968	964	967	964	958	949	940	941	962	962	954	947	951	958	960	963	963	966	967	960	954	947	943	942	940	949	958	958	956	963	964	966	974	975	968	952	938	932	931	933	945	955	955	961	974	973	955	943	940	944	965	969	973	970	963	958	958	959	961	961	954	948	952	966	966	959	963	969	977	979	982	985	990	976	973	969	969	969	952	952	942	948	953	953	946	948	960	965	966	964	953	943	933	930	934	934	0	0	0	0	0	0	0	0
1035	1041	1049	1049	1044	1026	1011	1012	1012	1016	1016	1013	1000	1000	1000	1009	1020	1022	1009	999	999	999	1014	1020	1017	973	966	966	965	967	966	971	989	994	998	998	990	986	986	979	970	978	974	978	978	981	986	954	945	945	948	950	963	969	979	968	968	958	959	964	974	989	1007	1003	990	962	963	964	966	965	968	980	980	988	988	990	986	980	965	971	980	980	978	969	970	977	987	991	996	982	963	959	966	978	949	933	929	921	938	955	958	957	950	941	926	922	927	936	949	958	974	978	989	982	979	962	948	932	926	925	927	925	938	953	970	957	939	932	939	942	936	936	932	928	927	928	931	940	952	947	944	941	940	948	957	939	923	917	921	923	915	906	898	910	925	947	958	949	943	938	930	935	940	940	931	921	915	904	895	896	901	913	935	944	945	939	932	930	928	927	913	907	913	912	907	899	887	882	892	912	920	919	912	911	935	953	949	948	950	944	955	946	940	941	940	944	935	934	932	929	914	903	906	907	904	904	907	913	918	912	914	906	899	905	906	914	925	937	898	897	909	938	940	944	950	950	954	949	941	933	929	925	928	913	900	902	911	919	922	920	912	914	924	919	918	914	922	922	916	915	899	902	908	912	915	922	927	924	924	923	924	925	923	920	915	917	919	949	945	938	931	934	940	949	952	958	952	945	943	946	948	950	932	927	924	927	931	941	954	967	967	962	957	962	964	956	946	938	936	923	925	937	940	945	933	935	937	943	935	935	939	940	937	925	921	923	918	922	926	930	920	924	924	926	928	925	923	921	919	904	897	899	908	921	925	921	906	901	907	913	911	909	902	906	913	924	921	937	930	927	906	898	896	901	913	915	912	908	904	907	911	913	923	927	931	939	945	943	925	910	901	903	919	933	939	937	931	924	920	910	908	913	922	932	939	950	945	926	909	906	913	916	918	917	907	907	902	902	896	895	881	875	866	878	891	902	914	919	906	894	879	880	887	894	893	888	882	884	898	916	912	901	910	910	911	902	892	889	878	875	873	891	904	907	910	913	934	935	931	926	926	921	914	914	925	929	934	937	926	929	935	931	914	898	888	901	914	920	924	939	952	959	950	935	932	939	944	950	946	942	924	918	921	926	904	878	888	893	898	898	899	895	893	891	898	898	903	908	918	925	920	926	927	932	938	943	940	937	937	933	932	932	924	911	928	926	920	905	893	879	879	892	901	911	915	923	932	939	941	939	940	946	948	955	942	930	932	927	923	924	922	916	916	917	944	943	938	935	932	933	941	940	936	939	943	944	939	935	920	912	914	924	934	934	933	923	901	905	907	918	924	927	919	909	907	910	916	927	937	935	932	929	928	930	930	932	933	942	946	922	920	915	934	940	947	944	932	924	928	947	944	940	936	933	938	939	943	958	956	938	928	914	915	915	920	925	926	928	933	929	925	927	940	943	939	940	935	922	911	908	907	907	0	0	0	0	0	0	0	0
981	990	994	994	987	979	970	974	974	980	974	961	941	939	939	946	959	973	967	962	962	960	961	961	923	934	935	935	930	935	932	940	948	943	937	937	944	952	948	940	924	919	921	927	927	925	917	914	909	906	902	908	923	934	937	924	924	911	903	904	909	919	926	920	917	916	932	939	946	945	941	932	935	935	931	928	935	930	924	933	938	927	931	923	925	927	932	932	919	920	911	905	918	919	902	888	885	886	900	912	917	914	913	902	892	898	905	913	913	923	940	947	950	941	932	919	908	898	899	895	891	886	889	888	903	906	900	912	907	906	897	888	890	890	890	890	889	899	908	907	907	907	908	913	921	918	906	898	898	902	902	896	887	892	905	915	919	925	925	921	916	915	914	915	904	900	893	886	886	888	889	886	903	917	916	914	909	904	893	895	894	894	895	892	884	882	869	870	887	904	915	913	898	888	886	912	919	911	924	911	904	900	909	918	923	922	913	901	906	911	892	883	882	889	887	892	898	899	898	898	893	889	882	873	873	883	892	895	885	887	888	890	902	915	928	924	924	925	920	916	915	906	900	893	888	889	895	898	900	890	889	898	898	886	881	890	891	891	890	879	881	885	888	892	897	905	903	902	903	906	904	899	897	899	901	896	882	884	896	918	914	914	915	927	926	925	932	922	919	921	923	915	912	904	894	891	895	911	929	934	936	924	926	931	933	930	905	902	896	892	889	889	892	898	896	898	899	902	902	906	909	912	905	897	887	888	895	898	897	901	902	907	907	912	908	907	901	891	889	882	871	870	875	888	902	907	897	886	891	895	895	886	884	885	890	894	897	903	907	900	885	885	884	882	880	882	881	885	886	893	891	897	908	910	914	918	916	912	903	894	882	877	883	898	907	913	908	902	897	888	886	891	898	906	910	903	887	863	858	867	885	898	879	883	882	873	862	861	865	865	855	847	842	844	858	872	879	882	879	864	859	858	861	873	872	861	857	863	865	874	866	871	876	889	885	874	864	864	859	861	864	878	888	886	880	879	895	908	901	899	904	891	893	892	889	876	874	877	892	897	895	896	894	881	872	879	894	903	901	900	904	909	905	903	906	915	918	918	918	911	901	877	878	875	861	854	865	874	877	876	876	873	874	879	883	883	884	890	896	890	892	900	904	906	915	920	923	921	918	915	912	909	898	889	886	886	890	887	875	872	872	878	891	891	888	888	904	920	918	918	905	906	899	893	878	879	892	895	901	903	906	903	907	910	902	899	898	894	900	909	918	916	912	910	916	915	920	908	886	879	881	896	905	908	895	878	873	866	871	879	884	896	895	885	883	886	890	904	911	914	908	902	900	902	916	912	910	904	898	889	887	887	884	898	908	915	910	903	902	918	928	921	914	909	917	917	922	917	913	906	884	873	877	877	891	902	906	902	896	903	907	896	894	890	894	896	902	897	891	892	894	894	0	0	0	0	0	0	0	0
912	906	922	922	927	934	931	934	934	923	906	903	888	887	887	895	912	923	926	926	928	928	932	927	878	881	897	897	897	900	900	900	900	898	902	902	906	912	913	912	901	892	891	888	886	886	883	886	886	874	860	857	860	874	887	893	893	886	881	875	872	880	888	891	885	887	893	907	916	923	914	885	864	864	864	870	899	901	898	889	881	874	871	876	878	879	883	878	881	889	878	865	866	871	872	874	869	867	875	884	881	883	879	870	870	879	891	896	891	882	897	910	912	893	884	879	866	860	868	874	876	872	866	865	867	878	890	888	877	878	875	866	859	865	868	873	870	871	871	870	873	879	880	883	888	892	896	887	878	876	880	877	868	861	863	864	868	881	901	904	900	898	902	902	881	878	876	876	880	884	878	874	874	869	865	862	864	873	880	886	883	881	880	875	870	865	865	859	870	890	901	894	887	882	870	878	892	893	889	885	885	881	889	901	905	905	896	889	891	894	885	858	859	862	857	861	874	884	884	882	876	869	862	851	855	868	875	877	873	878	880	884	891	898	909	898	881	863	855	860	876	882	887	879	875	875	874	875	875	873	870	878	877	872	870	871	872	870	866	867	867	869	870	875	881	875	865	867	865	883	882	871	867	867	868	867	866	854	849	853	888	883	882	888	898	886	889	885	887	892	896	887	874	861	853	853	864	872	877	880	895	892	887	877	869	870	871	867	869	864	861	860	857	852	858	859	866	867	867	862	870	872	868	863	857	856	857	870	880	885	891	893	896	896	894	891	881	870	868	863	851	852	859	868	877	878	875	874	872	876	858	861	861	861	861	871	879	874	868	857	856	868	872	869	863	851	852	868	871	873	860	861	878	884	882	877	876	877	878	877	872	867	872	878	886	884	876	872	871	869	871	876	879	879	869	864	860	853	847	851	845	860	867	854	845	844	844	842	836	833	830	827	826	833	839	842	836	841	857	848	840	837	836	836	836	834	832	836	837	848	851	851	855	853	852	844	840	839	844	848	852	858	861	861	858	855	853	860	884	881	877	850	870	868	860	851	855	858	873	880	882	878	873	865	857	862	870	882	874	877	882	883	882	885	892	897	903	900	899	857	831	838	854	856	839	840	849	861	865	868	865	861	864	870	869	862	858	865	880	877	874	871	868	865	890	902	896	872	861	851	856	861	873	873	865	853	861	863	869	866	862	868	876	871	869	868	868	870	882	881	882	876	868	863	862	860	868	878	880	880	887	888	884	888	886	881	868	867	875	879	888	896	898	898	903	887	879	860	851	845	849	857	865	864	866	864	860	857	853	859	865	874	873	845	845	868	880	889	894	897	894	891	884	876	871	875	873	874	873	872	871	865	861	865	878	889	886	878	868	873	877	878	881	883	883	891	888	887	876	860	848	845	857	857	869	866	878	878	860	862	871	876	878	872	865	869	878	878	868	865	865	870	0	0	0	0	0	0	0	0
863	853	854	854	852	854	857	855	869	869	875	873	869	866	866	871	875	873	873	887	896	896	890	840	843	844	857	862	862	864	867	871	874	869	878	878	885	892	894	890	877	865	865	866	865	865	866	859	857	854	845	840	836	843	851	869	869	869	865	861	858	864	869	869	866	865	872	882	891	890	873	864	849	849	848	845	861	889	887	877	864	855	857	858	862	862	864	867	871	873	863	850	849	860	863	863	856	854	853	848	838	840	847	853	857	863	873	876	862	856	854	865	863	850	849	852	850	845	848	850	852	857	853	846	846	848	853	846	855	855	851	847	844	844	846	847	849	848	847	849	852	851	852	854	859	865	872	865	859	858	861	860	856	849	838	830	834	842	854	870	867	843	838	842	861	865	863	855	856	858	862	865	855	841	833	832	840	852	867	873	871	864	865	863	863	860	855	849	845	847	861	872	868	865	855	848	855	863	860	851	855	854	856	884	891	888	884	878	878	870	860	844	842	842	842	833	833	837	854	861	860	853	845	839	840	849	855	861	857	862	872	870	861	861	858	849	846	840	837	837	845	851	855	853	851	845	847	853	857	860	859	861	854	856	856	860	862	861	857	855	855	850	845	844	838	835	843	847	844	845	850	858	850	846	843	846	839	826	828	832	837	838	853	852	854	849	859	864	868	872	873	865	854	851	847	852	853	850	842	845	842	840	834	836	833	833	832	838	835	826	820	803	815	821	827	832	821	811	811	814	818	830	841	841	839	843	849	858	865	867	873	869	869	878	884	873	860	856	852	847	843	844	846	851	855	848	844	842	842	837	848	854	849	845	848	857	861	854	842	837	837	842	848	846	838	832	834	845	848	844	829	828	828	844	848	853	855	861	865	863	861	859	860	863	863	859	855	854	854	854	856	858	851	837	840	842	850	846	831	835	836	836	831	827	815	820	822	821	817	814	811	798	806	817	817	813	807	799	798	816	820	814	806	808	812	818	817	817	822	844	843	841	834	830	826	824	819	817	818	817	815	828	833	834	831	823	824	816	830	854	841	823	831	834	838	836	839	835	853	865	863	858	856	849	843	845	850	856	848	853	850	856	863	872	875	877	855	857	836	823	811	806	812	822	826	828	833	846	852	851	840	837	835	837	840	835	837	835	861	863	859	847	833	836	843	853	854	845	840	834	835	841	852	851	846	840	844	852	854	856	854	855	856	853	853	852	850	844	848	853	860	852	840	841	840	841	843	860	865	863	864	863	862	851	847	850	849	851	860	863	866	871	868	874	866	847	840	836	829	828	829	834	841	850	858	856	853	850	843	846	849	845	840	826	822	842	866	878	878	879	879	874	867	855	851	847	845	846	847	848	856	855	851	848	858	866	856	848	843	839	843	845	846	851	865	867	864	848	845	838	832	838	847	847	851	848	844	844	843	846	855	863	861	854	853	850	853	856	844	846	846	851	0	0	0	0	0	0	0	0
829	824	810	810	796	797	798	808	826	826	852	852	847	841	841	843	846	841	834	835	837	837	806	813	817	817	817	820	820	822	824	830	830	825	826	838	838	860	867	854	834	828	834	844	848	848	848	844	841	835	829	813	802	798	807	823	823	845	846	841	833	836	845	852	854	842	839	838	839	853	849	840	839	839	834	830	827	828	833	836	840	839	838	841	849	851	851	855	861	864	846	829	822	828	831	832	829	829	830	817	813	814	833	847	847	848	845	843	844	842	829	824	817	814	814	817	822	823	830	836	841	843	841	830	828	825	824	830	842	844	838	832	823	815	809	807	815	829	829	833	833	835	833	829	835	842	850	835	830	840	841	839	839	836	826	814	817	823	833	839	829	821	821	828	846	850	838	824	814	811	816	827	832	823	807	813	813	830	850	855	855	852	851	851	850	843	834	830	825	822	832	843	841	833	819	805	812	822	827	830	833	829	828	829	845	875	862	833	838	836	825	829	831	831	828	823	817	818	825	830	836	838	836	831	829	833	836	841	839	849	854	844	840	835	832	834	830	825	818	822	828	830	833	831	829	828	827	835	836	838	843	832	828	831	839	837	847	842	843	847	844	827	813	810	809	805	808	803	798	794	810	821	823	815	810	811	802	798	802	809	816	821	826	821	836	835	826	841	845	847	835	836	835	835	839	841	844	834	829	821	817	818	819	823	825	820	818	815	803	798	795	794	793	800	807	807	799	790	788	795	806	812	810	795	786	813	832	835	831	834	824	815	810	811	817	837	841	834	836	836	828	823	816	815	819	824	814	808	807	822	835	843	843	840	836	822	813	813	822	823	825	819	808	802	805	814	824	836	838	833	823	819	824	829	830	836	842	844	841	835	828	831	832	830	833	820	817	820	821	820	812	822	819	809	816	814	797	792	796	804	812	810	801	797	798	797	800	800	792	795	779	776	785	797	800	791	775	776	791	800	804	801	799	796	797	804	805	809	816	834	830	820	801	802	796	794	794	796	792	790	783	783	790	792	794	798	802	801	802	799	811	797	801	808	823	823	815	811	809	811	811	815	818	820	819	820	825	827	813	812	823	829	836	839	824	820	825	824	815	796	795	794	798	804	810	817	823	834	829	818	815	816	815	817	816	816	816	818	837	849	842	832	822	811	817	822	832	827	823	819	820	820	828	831	828	827	830	832	838	839	837	836	833	827	832	829	827	822	825	825	816	814	817	819	820	818	819	825	842	852	840	829	824	831	824	823	830	832	843	850	857	857	846	837	833	826	823	820	816	817	820	822	830	838	836	838	842	845	840	838	842	841	832	817	814	818	827	830	833	837	843	842	846	840	836	839	837	837	838	843	848	848	836	835	832	833	833	831	827	823	822	823	824	824	829	836	838	845	840	834	829	828	828	831	831	829	826	825	827	833	838	840	835	835	838	835	826	827	831	835	835	840	0	0	0	0	0	0	0	0
801	793	778	778	778	785	789	795	807	807	822	827	820	819	827	827	836	833	822	814	808	808	802	802	806	803	798	793	793	791	792	795	793	798	805	814	814	815	819	815	812	807	809	809	812	812	812	807	807	804	799	793	783	781	786	799	799	812	812	807	795	794	801	811	817	818	811	802	801	818	824	824	822	822	821	811	798	795	795	804	814	813	810	811	812	814	819	829	833	835	829	820	814	811	809	808	810	810	807	802	800	797	802	826	829	830	823	815	805	810	814	809	805	795	795	790	786	794	809	817	823	825	822	816	815	813	815	819	821	827	821	815	811	803	790	791	794	797	805	815	816	814	811	809	814	817	826	785	795	804	811	820	820	821	816	810	807	814	822	820	816	807	805	813	819	817	808	800	798	793	792	799	808	806	798	795	792	795	818	827	827	827	825	824	820	811	813	808	801	799	807	815	817	803	790	788	794	799	803	805	812	810	808	804	804	801	790	791	804	809	810	809	812	821	818	812	811	807	810	815	819	819	817	814	812	809	813	817	819	829	831	831	824	819	814	817	817	809	802	800	805	810	813	810	810	811	816	812	791	784	785	797	780	783	796	811	814	800	800	804	804	790	787	785	776	772	771	770	769	776	783	790	792	786	780	774	780	784	786	793	790	788	783	774	769	766	807	810	801	797	797	808	808	803	803	806	804	794	785	777	793	801	812	815	812	812	807	800	789	793	796	795	793	789	784	777	773	772	776	786	795	797	789	774	766	769	790	807	793	791	790	788	789	790	784	781	785	793	798	803	800	794	795	797	801	801	796	789	786	795	799	827	832	826	810	786	788	789	797	801	795	771	763	760	766	778	788	804	815	815	808	805	808	817	820	819	819	805	805	809	805	799	806	806	805	790	794	801	795	793	788	778	785	801	790	787	776	771	776	787	791	792	786	780	777	780	780	777	768	763	758	761	765	775	777	771	765	768	774	779	786	786	785	784	787	790	792	783	800	806	784	789	791	787	780	773	764	776	773	768	762	767	771	773	773	778	784	788	790	786	780	772	770	782	793	794	786	773	765	772	790	797	804	803	806	809	817	815	803	797	793	791	791	789	787	788	785	786	784	781	783	784	787	788	786	790	805	823	815	805	799	794	798	799	801	806	802	799	800	810	816	817	801	785	780	782	810	812	804	798	796	798	803	805	809	806	798	798	800	797	803	805	806	802	802	805	802	798	802	803	801	801	799	801	797	794	792	803	807	808	808	806	799	804	806	806	804	810	814	827	829	825	818	812	815	811	803	794	796	807	813	819	817	811	807	822	829	837	839	843	844	834	819	803	794	800	800	806	812	815	819	821	820	819	818	828	830	830	832	837	841	836	830	822	818	815	817	818	817	816	813	809	808	808	815	822	833	839	840	828	818	810	810	810	809	810	807	807	812	813	817	816	813	804	797	796	803	816	823	823	823	820	0	0	0	0	0	0	0	0
771	766	764	764	768	775	781	789	796	796	801	801	796	801	815	815	821	813	811	808	804	794	791	790	793	790	781	778	778	774	777	768	770	778	783	793	793	799	797	793	785	779	783	790	798	798	798	795	788	781	780	779	779	774	778	786	795	795	794	782	777	779	789	797	802	802	791	785	786	788	798	804	805	805	802	790	780	779	788	798	803	797	801	803	803	806	803	805	809	813	808	806	804	797	792	788	787	790	788	786	782	785	787	792	810	816	811	800	788	786	790	789	789	785	781	780	774	775	783	785	793	806	799	797	796	801	804	797	800	800	797	795	796	790	784	778	776	778	779	782	777	778	779	785	796	796	777	762	767	777	790	799	805	804	799	798	792	794	799	799	792	787	789	791	794	791	786	781	776	772	768	768	777	779	791	787	787	779	774	771	783	792	791	788	788	791	799	798	792	787	781	780	785	773	772	771	782	784	783	786	790	790	783	777	776	775	778	777	774	774	793	801	790	789	790	796	797	798	796	793	795	788	796	796	796	796	796	795	796	795	808	811	806	802	797	795	788	790	783	779	785	792	798	797	796	796	778	756	766	766	761	757	759	760	762	766	770	768	774	774	772	769	762	760	753	746	739	737	745	754	765	765	762	758	744	741	744	761	769	771	756	748	748	747	748	747	750	756	783	784	784	778	772	772	770	778	783	778	772	768	769	771	777	783	791	787	783	776	768	773	785	788	778	769	760	757	757	764	769	774	776	774	771	757	751	750	754	761	769	763	759	759	763	769	768	754	758	764	767	770	766	761	759	770	773	767	757	760	771	772	769	766	760	761	762	769	773	774	773	766	760	753	750	747	750	754	766	775	792	790	789	781	782	786	781	779	776	773	780	790	789	778	776	774	773	776	782	779	779	777	761	765	748	746	749	756	759	758	760	772	776	775	767	761	759	762	763	758	753	749	746	746	747	749	749	749	746	742	760	764	765	766	771	773	767	749	741	763	764	752	739	760	763	777	766	748	741	744	745	749	751	762	764	759	757	761	764	770	775	775	761	751	749	747	763	766	763	754	747	754	762	780	788	789	792	796	804	805	797	769	768	760	751	746	747	755	761	769	766	768	771	773	775	774	772	775	780	791	787	781	765	762	769	777	785	790	792	790	785	786	784	778	774	764	763	765	770	769	756	750	751	749	765	771	776	776	782	786	785	781	781	786	790	788	779	778	780	765	771	788	791	791	783	780	779	779	776	780	786	781	774	771	779	785	786	786	783	791	795	794	789	786	788	794	780	765	760	765	772	783	797	802	787	777	781	804	807	817	828	835	831	816	800	787	778	781	786	796	801	800	803	797	797	796	794	802	808	810	817	822	824	827	823	813	806	807	807	807	808	806	804	799	797	802	809	817	823	829	831	814	798	794	794	790	792	789	786	785	790	795	794	792	798	793	788	787	790	802	806	808	808	801	0	0	0	0	0	0	0	0
