422	422	425	425	424	424	418	421	424	426	426	425	424	421	418	419	419	420	424	428	427	431	431	432	433	432	432	430	429	429	431	431	434	437	439	435	429	429	426	425	426	427	427	433	434	438	438	438	439	439	439	442	444	442	438	436	431	426	426	423	424	425	430	438	437	437	436	434	431	433	438	433	433	429	426	425	425	421	422	424	426	429	433	437	438	436	433	426	420	422	425	430	432	434	421	420	422	424	425	424	427	426	427	430	429	432	433	434	430	428	429	430	431	432	429	427	428	432	437	439	439	428	422	423	427	433	433	427	425	425	426	425	429	425	419	419	418	417	417	419	420	420	420	421	423	426	426	424	422	422	425	429	428	427	423	421	417	416	418	420	419	424	425	418	417	424	431	433	436	436	429	427	428	430	432	428	430	429	430	427	426	425	426	422	422	425	431	432	431	430	426	425	422	417	413	417	423	426	422	419	420	421	425	426	429	436	436	433	426	416	414	417	422	432	430	432	434	431	430	427	426	422	418	430	432	434	435	434	430	421	422	422	426	432	432	430	428	428	428	429	431	430	433	438	432	428	425	424	428	429	426	425	427	434	435	436	432	429	428	426	425	424	427	425	425	426	428	435	442	444	436	433	432	436	432	429	428	426	426	426	428	436	436	434	431	432	436	436	435	434	431	432	431	427	426	425	431	433	430	434	436	433	428	425	428	429	430	430	430	429	431	430	427	428	431	429	430	432	439	441	441	439	433	437	441	449	446	441	438	437	439	443	441	439	429	424	421	418	417	421	426	426	426	428	435	438	442	439	440	441	439	434	431	433	437	436	438	436	440	439	439	439	438	435	434	433	434	435	433	428	433	434	429	424	420	416	419	423	427	430	433	436	438	435	432	433	435	434	432	432	430	428	429	431	431	433	434	431	430	431	431	431	433	430	432	436	440	438	438	437	436	437	435	435	432	430	427	428	426	426	429	432	434	434	433	434	434	434	432	430	427	426	424	423	422	424	426	428	431	430	431	430	431	430	428	427	426	438	432	430	431	431	427	425	418	414	414	413	414	415	419	420	423	424	428	438	438	434	430	428	424	423	426	429	432	433	433	430	429	432	435	430	425	419	418	417	421	421	423	427	433	435	435	433	433	434	437	435	431	432	437	436	436	432	426	426	428	432	435	431	432	429	429	433	443	444	443	438	430	424	418	414	418	421	425	438	439	439	432	422	417	415	418	423	428	429	430	433	433	435	435	437	432	432	431	426	429	437	441	444	442	439	440	439	441	438	435	435	434	435	438	444	447	449	447	443	442	442	439	437	436	437	438	439	442	443	442	436	435	436	436	434	431	431	432	431	426	426	429	435	438	439	438	435	436	439	443	443	435	441	445	439	431	431	434	436	435	435	436	436	437	436	436	436	434	434	433	434	436	437	435	435	436	444	449	445	440	437	437	438	438	437	0	0	0	0	0	0	0	0
418	421	427	422	418	418	414	416	421	425	425	423	420	416	414	415	415	412	413	419	423	428	430	430	429	431	427	422	418	419	419	421	427	432	433	432	428	425	425	422	421	423	425	427	424	421	421	421	425	428	436	438	437	436	434	429	424	419	419	419	423	425	426	429	432	433	431	429	428	416	411	410	412	413	417	421	421	421	417	417	414	415	426	430	433	428	427	422	419	419	420	421	422	415	413	413	412	414	418	419	419	419	419	421	424	427	427	426	420	415	416	417	418	418	417	418	418	420	428	434	431	416	418	423	423	423	422	420	421	421	421	421	417	414	414	416	417	414	413	417	417	417	414	415	416	419	421	419	418	419	420	422	422	423	422	415	414	415	415	414	412	413	412	413	412	413	419	425	431	430	428	426	422	420	417	416	418	422	425	426	425	424	420	419	421	424	424	422	416	420	422	422	419	415	410	410	413	416	416	416	417	418	421	418	420	425	426	422	415	412	411	411	414	420	421	427	421	419	415	424	421	423	418	420	421	425	427	417	417	417	418	419	422	428	430	428	427	424	426	428	429	431	432	433	434	428	424	424	430	431	427	420	421	422	424	425	428	429	424	422	421	421	422	419	417	419	427	430	430	427	420	414	412	413	420	427	426	426	425	422	423	426	432	429	427	424	422	423	432	430	430	431	425	426	421	423	419	422	426	428	427	419	419	418	420	425	427	428	427	426	424	425	426	423	423	422	422	422	426	430	438	437	436	434	434	434	433	432	430	432	428	424	428	429	424	420	421	425	426	428	427	416	413	419	419	423	424	424	426	427	429	429	430	430	433	433	431	430	429	431	435	430	427	421	419	423	433	426	423	419	426	429	420	417	414	414	417	421	414	410	412	416	422	425	424	425	429	429	426	423	422	424	426	427	428	428	429	427	426	426	428	430	432	432	430	433	434	434	432	432	416	415	422	423	423	419	415	413	417	423	427	431	434	431	430	430	429	430	427	425	425	423	422	421	421	420	420	422	425	427	427	426	426	426	425	423	418	419	420	422	423	424	422	418	413	410	409	410	411	413	417	422	423	423	423	423	427	422	422	425	420	416	420	424	426	421	418	422	424	425	426	424	421	413	410	413	411	415	418	421	424	425	424	424	422	430	433	433	428	426	430	432	432	427	422	420	420	415	419	419	425	428	426	424	427	425	425	423	422	417	413	412	414	418	420	432	435	432	414	414	414	414	415	418	423	422	423	425	427	430	428	427	420	417	417	419	426	432	439	441	432	431	423	436	436	430	427	429	429	431	435	440	441	436	434	433	435	431	427	423	423	428	432	436	438	440	438	436	432	432	434	430	424	422	423	423	423	424	425	430	431	432	432	433	429	426	425	425	425	428	429	430	424	422	425	431	430	432	432	432	429	424	425	428	429	433	429	428	430	432	433	434	434	433	431	429	431	431	431	434	436	434	0	0	0	0	0	0	0	0
411	420	422	421	417	417	413	414	422	423	423	419	414	412	411	411	411	407	407	413	419	425	429	429	426	420	414	413	414	412	412	414	416	420	422	425	424	420	420	419	420	422	425	424	415	415	415	415	415	416	418	420	420	420	422	418	415	409	413	413	419	419	419	421	424	425	422	413	409	406	406	406	405	406	406	410	410	412	410	410	411	411	414	417	421	421	418	413	408	403	402	408	409	409	407	405	406	410	414	416	416	417	417	418	419	420	421	419	415	416	414	416	417	419	418	417	415	416	419	418	415	412	415	420	420	417	415	415	413	413	408	409	409	412	413	412	414	410	409	410	413	411	410	409	409	408	410	410	409	413	413	417	418	416	413	410	411	411	412	409	409	408	408	409	412	415	418	418	421	422	423	422	421	414	411	413	417	420	420	423	422	420	419	418	419	421	417	413	408	406	414	420	416	411	409	409	408	409	412	412	411	411	412	410	411	413	412	410	409	406	409	411	413	416	417	415	416	412	408	414	419	420	417	415	415	416	415	411	410	411	412	413	414	407	410	414	418	421	422	425	425	428	430	428	429	430	430	430	427	421	419	420	419	416	417	416	414	413	415	419	421	418	417	416	416	418	424	427	425	423	416	414	411	409	409	415	418	423	420	422	421	418	415	413	414	414	413	411	417	428	426	427	421	417	417	416	415	417	420	416	418	418	420	421	422	422	421	417	416	417	421	423	423	418	414	412	408	409	411	411	414	414	413	414	415	417	430	433	434	435	430	420	415	417	418	423	425	427	426	427	421	414	411	412	417	417	417	420	423	424	423	426	424	423	423	419	419	416	412	411	414	424	424	415	414	415	420	414	415	416	418	417	417	411	412	414	417	419	411	410	409	412	416	419	419	418	416	418	419	417	419	421	423	423	423	425	417	417	416	419	424	425	426	427	423	425	427	430	424	415	411	412	412	416	417	415	409	406	409	416	424	430	435	432	428	425	424	422	421	418	421	421	420	418	419	418	417	419	419	423	422	421	421	421	413	415	413	412	413	415	418	414	412	413	409	408	408	408	409	413	418	420	420	419	415	416	418	417	413	412	410	408	409	413	414	415	417	416	416	419	421	420	418	415	409	410	409	409	412	415	415	417	419	418	416	426	428	429	428	425	425	426	427	423	418	412	410	415	415	415	419	425	424	421	417	413	410	408	411	411	409	406	410	416	417	420	421	413	409	410	411	413	414	417	415	411	412	417	424	426	426	422	416	415	414	416	419	424	425	423	422	420	421	423	427	426	422	421	421	421	420	422	420	417	411	413	414	416	415	414	416	418	420	427	432	435	436	432	428	423	417	411	411	415	417	419	420	414	419	421	422	422	420	427	429	425	423	418	422	426	425	423	416	416	415	420	421	419	419	419	416	412	415	415	416	420	422	424	421	423	423	421	421	419	419	418	419	423	423	424	429	433	0	0	0	0	0	0	0	0
401	406	414	417	415	415	411	412	416	418	416	416	411	407	407	408	408	402	405	407	411	415	415	415	414	411	407	405	407	409	409	409	409	412	413	413	414	416	416	415	419	422	423	412	409	412	410	410	410	412	415	415	415	412	409	408	403	399	398	398	401	405	410	414	421	415	415	412	410	407	405	406	407	405	404	402	402	402	399	402	400	396	397	401	405	408	411	410	409	409	408	408	407	403	399	395	395	404	409	405	402	398	397	398	402	404	406	409	411	413	415	414	415	411	411	410	410	410	404	401	403	405	406	405	405	412	411	414	412	410	407	412	415	414	413	411	408	406	405	404	407	406	405	406	406	404	403	402	405	407	408	405	409	409	407	406	405	406	408	405	406	406	406	407	409	412	414	414	416	420	422	421	416	415	416	413	415	414	415	417	418	417	414	414	414	412	408	405	404	402	405	412	412	410	406	399	402	405	406	408	409	409	407	406	405	406	405	404	406	406	406	412	413	414	416	413	409	404	405	408	412	414	409	398	402	406	408	407	409	407	404	404	406	404	406	412	415	415	415	415	417	415	420	421	421	418	414	419	423	418	415	413	413	411	407	409	409	409	407	406	409	410	407	406	406	408	412	422	421	419	413	409	407	406	405	406	406	408	403	406	408	404	403	402	403	403	409	409	406	409	415	414	405	409	410	413	419	417	415	411	411	412	418	418	413	407	403	405	408	411	414	416	416	413	409	407	407	409	408	406	407	409	411	412	415	419	419	418	419	422	424	420	418	413	412	418	423	424	425	425	422	410	411	411	413	409	410	410	409	408	410	411	413	412	413	412	411	411	408	405	406	410	412	412	411	408	408	409	413	414	412	410	404	404	405	407	408	411	413	409	411	412	412	413	416	413	414	414	414	411	411	412	419	418	417	410	407	406	409	414	418	419	419	419	416	413	415	413	408	406	408	409	408	411	412	409	406	402	403	410	413	420	421	419	427	420	410	412	411	415	415	417	416	416	416	418	416	415	416	417	417	417	404	408	409	409	410	409	411	408	409	404	403	403	405	405	407	408	410	414	416	416	415	413	409	410	416	413	412	407	406	405	406	408	410	412	413	415	416	415	414	414	415	414	414	414	415	413	413	412	413	414	414	413	410	419	417	416	422	422	421	416	416	416	414	406	403	406	404	404	408	419	421	420	417	413	409	408	407	407	404	402	401	402	408	420	420	414	409	409	410	408	407	411	410	410	410	409	408	419	422	418	412	413	413	414	417	419	419	417	415	417	419	420	422	422	416	414	415	415	414	413	409	406	408	410	411	407	407	407	411	413	415	421	425	431	432	429	425	421	416	411	410	412	412	411	410	411	416	416	416	415	416	417	417	424	416	417	421	423	421	419	417	415	414	410	407	407	407	408	409	408	409	409	411	414	415	411	409	407	409	410	412	415	415	414	415	415	414	416	419	420	0	0	0	0	0	0	0	0
387	387	390	395	397	397	401	400	403	404	404	404	405	405	406	402	397	397	400	404	405	405	408	408	411	408	403	400	401	404	404	404	403	405	404	397	399	402	402	409	411	411	408	407	408	408	409	409	407	410	412	413	411	409	409	408	408	411	413	413	402	406	408	403	403	405	407	409	410	409	407	405	405	404	400	398	395	395	395	393	391	387	387	392	396	399	401	403	406	405	407	406	402	400	399	396	397	396	397	393	392	393	393	393	393	395	400	406	405	402	397	398	401	405	408	407	404	399	397	394	395	396	397	398	397	398	402	408	405	405	405	408	412	414	413	410	405	403	402	401	400	401	403	404	403	401	401	401	403	404	402	404	405	405	406	405	403	402	402	399	396	394	394	397	401	403	406	405	406	412	414	411	406	409	410	409	403	401	405	408	409	410	410	410	407	404	402	400	401	399	399	399	401	401	399	399	401	403	404	406	404	403	402	399	399	400	405	406	406	404	404	404	406	409	412	413	408	404	403	406	408	405	399	400	402	401	402	402	403	401	400	399	401	402	405	401	403	404	402	399	413	411	411	411	414	412	408	406	410	407	404	402	402	396	395	403	410	409	406	403	405	406	407	407	407	408	410	412	413	412	406	405	402	402	401	399	399	397	399	403	405	404	401	401	399	402	409	408	406	405	405	402	402	400	404	415	413	411	411	403	407	409	411	400	403	408	403	404	406	407	406	405	405	407	404	403	400	402	402	401	401	402	409	412	417	417	413	414	416	418	416	411	410	408	410	415	416	417	413	408	406	404	399	399	400	402	404	404	405	405	406	406	409	401	403	404	402	403	402	401	403	405	404	398	393	392	391	395	397	399	399	398	399	401	404	405	405	403	404	403	404	404	403	401	401	402	400	399	398	402	404	406	409	411	407	404	401	401	404	409	414	417	413	405	399	398	405	402	397	401	401	402	404	406	408	407	402	403	407	412	415	408	409	407	405	409	398	398	403	407	407	408	406	413	414	415	413	412	414	413	401	398	403	405	403	401	403	404	405	406	401	395	393	391	397	402	406	417	414	412	411	411	409	406	403	403	404	406	406	405	404	405	404	404	406	408	410	414	414	412	409	408	409	410	409	405	407	409	412	412	410	413	411	406	400	413	414	412	411	411	412	409	410	410	410	403	401	401	401	398	400	407	417	416	416	414	412	407	404	401	400	403	408	409	409	410	414	415	411	410	407	403	404	407	409	413	414	411	403	402	404	404	408	416	421	417	408	405	404	405	409	412	413	412	406	401	401	401	406	407	410	413	412	407	405	404	405	405	404	405	409	409	410	415	418	423	427	424	421	419	415	410	410	405	402	401	399	403	413	416	414	415	416	417	416	416	416	417	417	414	413	417	413	412	410	398	387	392	392	399	406	405	405	404	404	406	406	405	398	396	399	402	406	406	410	412	410	410	410	408	402	408	0	0	0	0	0	0	0	0
381	381	383	387	392	392	395	394	396	398	399	399	399	401	398	396	391	391	394	397	397	401	405	405	407	405	399	396	395	398	398	399	399	400	394	400	404	404	404	399	398	399	400	407	408	407	406	405	405	406	406	403	403	406	407	408	404	404	413	413	412	406	395	394	395	399	401	402	400	403	404	402	402	401	400	398	396	396	391	391	389	392	392	394	394	397	398	399	399	400	401	398	398	394	394	393	392	391	392	392	396	395	394	392	391	392	395	401	400	398	396	396	398	402	407	405	402	397	394	394	392	391	392	392	393	395	396	399	400	402	403	407	410	412	410	407	400	396	394	399	399	400	402	403	402	401	404	403	403	401	395	395	401	404	405	405	404	403	402	400	397	393	389	390	393	396	398	396	395	394	397	400	403	407	408	405	400	398	398	398	396	403	404	404	402	400	399	397	397	397	398	399	398	399	399	400	401	402	403	401	399	395	394	393	393	397	401	406	405	404	401	402	403	406	407	408	406	403	402	408	407	405	404	402	400	398	397	396	398	398	397	397	399	400	396	394	398	396	395	395	395	397	401	403	404	406	403	403	402	402	399	399	399	395	394	400	408	408	403	402	400	398	400	406	408	408	406	406	405	404	403	402	400	400	398	397	395	396	398	401	402	400	400	401	400	405	410	413	406	404	402	400	399	398	401	406	408	406	399	400	403	399	394	397	398	400	401	401	401	398	395	392	396	403	400	398	397	397	398	398	397	400	410	413	415	412	411	411	408	404	400	393	394	396	398	398	400	401	398	401	400	395	395	396	397	397	398	396	392	392	392	391	391	393	396	397	399	398	399	399	396	400	401	399	392	389	390	391	394	395	396	395	394	396	402	399	397	396	395	398	394	388	388	395	405	403	400	399	396	395	396	400	402	404	404	401	399	398	401	405	410	405	404	402	398	398	397	389	392	389	394	394	392	396	401	402	402	401	399	400	401	401	403	398	396	397	396	396	396	396	398	397	398	406	408	410	409	405	395	390	393	396	398	398	397	397	396	396	392	393	396	394	390	386	390	398	404	410	413	411	400	400	399	401	400	398	398	400	402	396	398	402	403	403	402	403	404	408	412	407	406	406	407	404	401	400	404	404	409	410	410	407	401	396	403	398	398	398	399	400	399	398	396	397	399	396	399	400	399	393	394	395	401	417	417	412	409	402	397	395	395	402	406	408	403	404	405	407	405	404	403	401	402	404	409	411	411	408	406	403	400	389	391	395	402	404	402	401	399	398	401	408	408	405	402	400	399	399	404	407	408	407	406	404	403	397	397	402	406	405	402	403	403	406	408	406	402	403	403	405	405	403	402	401	399	397	398	395	399	403	410	413	414	416	415	415	414	412	408	406	405	404	401	404	393	391	390	389	389	392	402	404	403	400	398	400	400	393	392	392	392	396	397	397	402	404	399	399	398	395	393	395	0	0	0	0	0	0	0	0
381	382	385	387	389	390	390	391	390	392	393	393	394	395	393	390	384	384	386	388	391	395	396	396	395	395	394	393	393	391	391	390	391	386	392	397	396	399	396	396	395	395	403	409	406	404	403	401	401	397	395	397	393	396	391	388	392	395	400	399	391	390	387	387	389	394	396	396	398	400	400	400	398	396	393	392	391	389	389	389	391	392	392	392	395	393	393	394	394	394	392	392	391	389	388	388	387	386	389	391	393	394	391	390	390	391	394	397	398	397	395	395	397	401	403	401	398	394	391	390	388	388	389	389	389	391	390	394	396	396	399	399	402	404	405	399	395	392	392	395	396	396	398	398	400	400	400	401	398	394	390	394	399	402	401	398	396	397	399	398	395	392	389	388	388	388	390	391	391	394	396	398	399	401	400	396	395	393	393	393	391	389	392	398	400	398	397	396	396	396	396	395	397	397	398	400	399	399	400	399	392	386	385	386	388	393	398	402	404	397	394	394	399	401	397	390	403	393	400	401	401	401	398	395	392	393	392	392	393	394	397	397	399	399	395	393	394	393	393	390	390	395	392	392	400	395	397	399	399	397	395	391	394	391	391	398	405	402	398	398	391	388	394	399	405	405	403	400	398	400	403	401	400	397	396	396	396	396	397	397	393	393	394	395	388	389	393	397	394	389	394	397	395	395	390	386	389	394	396	399	399	395	393	390	392	394	397	398	400	398	394	391	391	395	396	396	395	392	391	384	382	393	395	396	399	403	408	407	405	399	396	392	390	392	397	398	397	395	394	394	393	391	389	388	392	393	392	391	389	388	389	388	388	388	388	390	393	394	396	391	391	393	396	396	395	387	386	387	387	393	394	395	390	388	393	392	391	390	391	390	386	388	388	398	391	399	400	397	396	395	394	393	393	393	395	397	398	397	393	390	396	400	403	401	399	398	394	391	389	389	389	389	391	394	399	398	397	396	398	398	400	400	396	394	392	393	394	393	393	394	395	396	392	390	396	406	395	398	396	384	383	391	389	392	391	393	394	389	384	382	386	389	389	387	388	394	395	397	398	397	395	395	396	394	392	390	391	392	388	389	391	395	395	397	400	400	398	401	404	405	404	407	406	404	401	401	402	404	407	407	405	399	393	384	387	392	392	390	388	395	396	393	392	392	395	393	392	389	389	390	391	392	396	400	400	407	405	400	395	390	387	391	394	397	399	399	398	399	400	400	399	398	397	396	400	400	402	402	401	401	398	386	386	392	398	401	399	396	393	395	398	402	402	403	401	398	399	401	404	407	407	406	401	400	401	391	393	397	399	399	398	400	402	398	401	401	400	401	400	399	399	399	399	397	395	396	395	394	391	387	389	394	404	407	405	405	402	398	394	394	395	394	390	390	391	390	389	389	387	386	395	397	398	397	396	394	393	388	387	388	389	390	391	392	391	392	393	393	393	394	393	393	0	0	0	0	0	0	0	0
381	381	384	385	386	387	387	386	386	390	391	391	392	389	384	381	378	378	381	383	384	386	389	389	389	389	388	389	389	388	384	384	378	380	388	389	393	393	394	394	393	391	392	393	393	390	388	388	388	382	381	384	389	389	386	384	383	389	391	388	388	385	383	382	385	388	387	390	393	393	390	385	383	385	385	386	387	388	388	391	392	392	391	393	392	390	390	389	390	388	386	385	385	384	385	385	384	384	385	386	388	388	389	389	390	391	396	398	396	393	393	394	397	400	402	399	393	387	386	388	389	388	389	387	386	387	386	387	388	390	388	391	394	397	397	392	390	389	389	389	390	386	388	393	393	394	394	393	392	392	390	393	395	397	396	394	393	394	395	397	395	391	389	387	386	383	383	385	389	394	396	396	395	397	394	388	387	388	389	388	388	387	387	388	392	391	389	394	394	396	395	392	392	391	392	394	394	395	398	400	392	385	384	382	382	382	387	394	396	391	384	386	387	387	395	384	385	391	394	395	395	395	389	386	385	387	387	388	391	394	395	391	395	398	398	395	392	391	389	387	386	389	389	387	385	384	388	391	394	393	390	387	388	387	388	392	396	396	392	390	388	387	391	392	396	400	399	396	393	392	392	391	389	389	388	388	390	392	393	386	388	389	391	392	385	385	388	379	384	385	392	397	397	390	388	384	380	388	393	397	395	394	391	388	387	389	392	392	390	390	390	388	388	390	389	391	391	390	382	381	385	390	387	385	388	398	400	404	400	396	389	390	390	391	394	392	389	390	391	392	391	387	386	387	387	387	385	385	386	386	388	387	387	386	385	386	391	393	390	388	389	391	391	392	389	387	387	387	388	388	388	391	391	390	386	385	385	385	384	385	383	385	384	391	387	389	392	396	394	395	395	390	386	383	382	385	387	385	384	386	392	394	397	399	397	396	394	391	389	390	391	392	394	394	394	395	394	390	392	394	396	396	393	391	389	390	391	390	391	394	395	392	388	387	388	391	394	396	392	386	379	380	384	386	389	390	389	384	377	376	379	384	387	388	388	393	393	393	393	390	386	386	393	387	387	388	386	384	383	386	389	391	392	393	395	397	395	399	399	402	402	405	407	406	405	390	388	389	403	399	389	386	382	379	380	385	385	384	381	385	390	391	390	389	389	388	388	387	385	387	389	390	385	387	394	393	396	395	388	383	384	387	388	392	397	397	395	392	392	397	397	393	390	390	392	394	393	395	396	395	395	383	383	387	393	396	397	393	391	392	394	397	399	400	400	398	399	399	402	404	403	401	394	395	395	389	392	396	398	399	400	401	400	397	393	392	394	399	400	398	397	396	395	395	393	391	390	389	384	387	387	390	393	393	386	387	390	394	391	390	389	388	388	388	389	388	386	386	384	383	389	392	394	396	395	393	391	385	385	384	385	387	387	384	382	386	386	389	394	395	395	396	0	0	0	0	0	0	0	0
380	380	381	383	382	382	382	380	382	386	389	389	390	387	382	379	379	379	377	376	376	380	383	383	383	381	383	383	383	382	378	378	375	378	383	387	389	390	390	390	384	384	385	386	385	380	379	378	378	377	379	382	386	385	383	380	381	381	384	384	384	382	379	378	381	379	381	381	377	374	376	375	377	381	382	381	385	387	387	392	392	389	387	387	388	388	384	382	383	382	381	378	378	379	381	382	384	380	379	380	383	382	384	387	388	391	394	395	393	390	389	391	398	402	402	395	390	388	385	385	387	388	388	387	383	380	379	383	385	387	386	387	391	395	394	390	387	385	385	388	387	385	386	389	390	388	388	385	388	389	389	388	388	388	389	390	390	390	392	389	387	388	385	384	387	389	387	385	390	393	396	394	388	384	384	382	383	384	384	384	384	385	382	381	383	383	383	383	381	379	391	390	388	387	387	384	385	388	391	392	388	384	380	380	377	379	381	386	381	381	383	386	386	384	380	379	380	389	392	390	392	390	385	380	378	379	382	386	387	385	384	381	383	385	394	393	391	387	387	384	380	381	383	381	379	378	382	381	388	386	387	385	383	383	384	385	385	384	386	383	380	387	388	387	390	392	392	384	376	375	375	379	383	383	379	381	382	382	382	381	383	387	388	391	383	382	383	379	377	381	385	386	387	380	380	382	380	383	386	391	393	392	389	385	382	386	386	383	384	383	383	381	380	380	382	386	386	383	380	377	380	384	386	383	383	383	389	394	392	382	379	379	383	379	377	377	380	382	383	382	391	389	388	382	380	380	379	384	384	385	387	387	385	384	383	385	384	388	388	388	389	390	390	389	382	383	385	388	387	385	385	384	387	389	385	378	377	380	381	382	382	382	380	372	367	369	380	391	391	389	384	380	378	376	384	387	386	384	383	382	383	385	394	395	395	392	390	387	384	385	388	392	398	396	387	386	384	385	384	384	386	391	389	387	388	385	385	387	388	391	392	389	384	381	380	377	379	386	386	378	377	378	381	384	383	382	381	381	373	374	376	380	381	382	384	387	389	389	389	386	383	381	381	380	380	382	380	381	379	383	388	389	390	389	389	389	388	388	392	395	397	395	393	393	390	383	380	378	375	375	377	382	382	377	375	380	377	375	374	375	383	386	389	387	387	385	385	387	384	386	390	386	384	384	384	387	385	384	384	385	383	382	384	386	390	390	390	388	385	384	385	386	384	383	385	386	389	389	390	388	388	375	377	382	386	388	391	392	390	390	391	391	394	397	399	399	396	396	396	400	397	386	386	390	391	387	391	395	397	398	397	395	395	391	390	390	390	390	391	396	396	396	394	393	393	391	388	384	382	383	385	389	389	384	383	384	387	388	388	387	384	383	382	384	383	384	384	384	382	381	383	387	389	390	389	387	384	383	383	383	383	384	381	380	381	382	382	385	389	385	379	385	0	0	0	0	0	0	0	0
378	378	380	379	377	374	374	375	379	382	385	387	387	384	381	377	376	376	371	369	371	375	377	376	376	376	375	380	382	382	380	380	377	379	380	384	387	386	380	380	378	380	382	382	382	384	385	381	376	376	377	381	382	382	377	375	367	369	376	376	376	378	379	380	378	376	375	371	370	371	371	373	373	378	379	379	381	385	388	388	389	385	383	384	383	383	377	377	377	376	377	375	374	375	377	381	381	379	375	371	375	376	378	380	377	379	383	382	380	380	382	385	384	384	386	388	387	384	384	383	384	384	383	382	380	376	375	380	387	387	383	384	387	390	388	385	382	381	382	383	384	382	384	384	386	384	382	381	383	385	386	384	382	382	377	375	376	379	382	377	374	377	376	378	382	380	382	382	383	386	385	377	375	374	374	378	378	379	378	376	375	377	379	376	379	380	382	383	384	382	377	378	380	384	382	382	382	384	385	384	380	376	374	374	378	378	378	376	373	373	377	379	378	375	378	377	374	387	389	389	388	388	387	380	378	381	381	379	376	376	372	378	382	382	375	384	387	386	382	378	373	374	374	376	377	377	378	378	378	378	384	383	383	381	377	376	377	380	382	381	373	374	378	384	387	390	387	377	373	372	372	375	377	377	375	376	379	381	381	381	383	385	385	390	382	381	380	379	375	377	383	383	378	377	378	379	379	379	382	390	391	389	385	382	378	377	377	381	381	381	380	379	379	379	380	380	378	375	375	374	376	375	377	379	378	375	374	385	380	375	373	373	372	373	373	372	373	374	379	377	376	372	372	369	365	370	374	375	376	378	380	380	382	379	381	375	379	374	374	375	375	385	386	381	376	374	374	382	381	383	382	380	378	378	377	376	371	372	373	382	379	378	377	375	370	371	374	377	377	377	377	386	385	383	381	381	386	382	382	382	382	381	383	381	376	375	376	376	378	380	382	386	385	381	380	381	381	379	376	380	388	388	386	386	385	384	381	379	379	382	378	376	379	386	377	374	375	377	375	377	377	379	380	379	375	374	376	376	375	374	372	376	376	369	376	375	380	387	386	382	379	376	374	375	376	378	379	378	380	377	383	385	385	383	382	380	378	376	379	384	387	387	387	385	384	380	377	376	369	371	373	372	372	376	375	371	370	370	370	372	376	381	386	385	383	382	383	385	382	388	389	387	383	379	379	380	378	376	379	383	382	380	380	383	384	386	386	385	384	383	385	389	389	385	384	385	388	386	385	385	383	374	370	375	382	384	385	386	385	383	380	378	378	382	388	391	388	386	384	383	381	380	382	384	385	380	379	389	392	391	388	388	389	388	385	386	384	375	375	379	382	385	384	386	386	385	384	381	380	380	383	387	383	381	380	380	380	377	379	381	380	379	380	381	381	382	382	381	381	380	380	383	383	383	383	382	381	380	379	381	382	379	377	378	379	383	383	383	377	375	371	375	0	0	0	0	0	0	0	0
373	373	376	370	366	365	365	368	373	375	379	381	381	381	379	378	372	367	367	365	366	367	369	369	369	370	375	379	380	379	379	379	378	373	371	372	373	375	375	375	375	377	378	379	381	384	382	377	376	376	375	375	377	375	371	366	365	365	365	366	365	365	369	373	373	370	367	366	366	367	368	370	371	372	372	374	376	376	374	374	372	371	371	374	375	372	369	371	371	373	374	373	373	374	376	375	369	363	358	360	364	368	370	370	372	374	376	376	374	376	381	384	382	377	373	373	373	380	373	369	370	374	377	377	375	373	373	378	381	384	379	380	378	378	381	379	375	368	369	374	378	378	381	380	380	379	378	376	378	379	382	382	377	374	374	374	375	376	374	372	371	368	371	371	373	375	378	377	375	377	377	374	372	372	372	373	374	374	371	371	371	372	375	376	374	372	373	377	380	380	378	376	373	372	371	379	382	383	381	382	382	378	376	378	381	379	377	374	373	376	378	378	372	370	372	370	373	373	373	373	375	378	381	384	380	379	376	373	369	367	368	378	374	369	366	370	383	381	377	378	378	375	373	373	376	376	374	373	372	371	370	368	382	380	376	372	373	375	376	376	369	372	376	383	387	388	383	374	371	368	368	370	372	379	379	379	377	380	382	382	383	385	386	386	386	382	379	377	374	375	379	378	375	374	375	374	376	378	376	383	385	383	378	376	373	372	373	375	375	373	371	370	369	369	372	372	368	369	370	372	372	372	369	366	373	363	363	368	372	370	368	368	369	369	370	368	369	370	375	376	374	371	368	367	365	370	369	363	359	360	362	367	368	367	367	370	371	372	370	370	372	372	369	367	370	368	367	365	374	379	378	375	376	374	373	373	373	373	377	375	377	376	370	368	367	371	374	373	374	374	373	375	378	378	373	374	378	383	381	377	377	379	378	376	373	373	374	374	376	377	379	380	383	380	378	376	378	375	376	377	377	376	378	380	382	381	379	377	374	378	377	372	368	368	366	364	369	371	371	374	376	377	377	375	372	375	377	376	375	372	367	366	364	370	374	373	373	374	380	379	375	372	372	374	374	376	376	376	375	373	377	377	379	380	380	377	376	372	375	375	373	376	366	375	377	378	376	371	366	365	369	369	368	368	366	367	367	366	366	370	371	375	375	373	370	373	374	372	378	383	385	380	379	377	377	375	371	370	375	380	381	379	378	381	378	376	367	370	371	374	375	374	375	380	384	386	387	382	381	378	374	369	372	374	380	382	382	381	375	375	373	369	371	373	380	382	379	376	374	373	374	375	377	378	379	372	374	377	378	380	380	383	377	375	375	375	374	371	365	365	366	368	372	381	382	377	375	375	374	380	381	384	382	379	375	372	372	370	373	374	374	375	379	379	381	381	381	380	376	375	375	374	373	364	363	360	363	369	375	378	374	373	373	375	378	379	379	374	372	372	370	367	0	0	0	0	0	0	0	0
361	361	359	360	361	360	360	361	364	367	372	376	376	378	375	371	364	361	361	359	355	358	361	364	364	367	371	370	367	363	360	360	358	362	366	368	372	373	373	373	373	369	369	373	375	375	373	373	372	372	374	374	373	371	364	363	361	360	359	362	361	361	362	362	362	363	364	364	363	365	365	367	369	369	369	369	367	369	369	369	369	370	367	366	364	363	362	363	366	369	369	369	371	371	369	366	363	360	359	363	366	367	369	368	369	371	372	371	370	374	377	381	380	376	372	369	367	364	362	360	364	367	370	371	369	368	371	378	378	378	376	373	371	372	374	372	366	364	363	363	365	368	371	371	372	373	372	373	372	374	377	380	375	371	372	373	374	373	371	368	365	368	367	367	368	370	371	373	370	372	371	372	372	368	366	366	367	370	369	369	368	370	374	375	375	366	368	373	373	372	371	370	370	371	369	368	366	363	379	381	381	375	370	370	374	375	374	370	374	377	378	374	372	369	371	370	369	369	369	365	367	371	372	370	369	362	369	367	363	363	372	372	370	365	365	364	365	371	371	371	372	375	370	366	364	361	358	361	360	362	362	363	364	364	370	370	371	374	372	369	368	372	379	384	386	384	374	369	367	365	365	366	369	370	375	378	380	381	382	380	370	373	377	382	385	380	377	375	371	368	374	373	371	372	372	372	370	371	371	369	368	368	371	372	372	371	368	367	366	366	365	362	361	365	366	368	369	369	369	370	372	374	370	364	360	358	359	359	362	367	366	365	366	366	366	367	367	366	367	374	371	364	367	368	365	367	365	362	359	357	358	362	366	364	366	372	370	369	368	366	371	372	371	365	360	356	354	358	362	368	371	371	364	366	368	371	372	374	372	367	363	357	364	362	368	370	371	371	370	367	367	368	371	371	371	372	373	375	374	376	377	377	371	368	369	371	371	373	375	375	374	375	378	376	377	372	370	376	376	377	375	374	376	378	379	379	369	370	372	376	375	370	364	361	362	360	361	363	365	364	362	362	362	368	370	374	375	376	377	372	365	362	364	365	364	365	369	366	366	367	368	368	369	371	374	376	375	373	370	369	372	375	377	378	377	374	369	368	372	372	369	364	363	364	375	374	372	363	362	363	365	367	367	366	363	364	364	364	365	366	366	368	370	371	370	366	364	363	364	367	377	376	376	378	378	378	375	371	368	366	364	363	360	368	367	366	366	368	368	370	369	368	368	369	371	373	369	365	373	368	361	364	368	378	381	382	381	371	369	366	367	368	368	371	373	373	368	364	364	365	366	367	368	373	373	368	367	367	369	369	365	366	370	371	373	372	371	361	362	361	363	364	365	366	368	368	367	367	367	367	370	373	373	374	372	367	364	362	363	366	368	370	373	375	379	379	377	369	368	370	373	375	375	372	367	362	360	362	365	367	365	364	365	367	370	370	371	366	364	366	367	365	0	0	0	0	0	0	0	0
359	359	362	362	360	356	352	352	354	357	359	361	361	362	361	364	360	357	357	354	354	356	358	359	360	360	363	359	358	354	354	357	357	361	365	368	371	375	371	361	361	360	363	367	369	365	361	357	358	358	363	363	364	362	364	361	360	359	360	361	362	362	362	362	362	363	364	363	362	363	364	366	365	367	365	364	362	363	365	366	366	366	366	363	358	357	356	357	360	364	364	362	362	362	360	359	360	363	362	363	364	367	369	368	367	369	370	369	368	368	368	368	374	373	370	366	361	360	360	361	361	364	369	369	367	366	366	368	371	373	374	370	368	370	372	370	366	366	364	364	365	364	365	366	366	368	369	369	369	370	362	369	365	365	369	371	371	370	369	364	364	366	367	365	364	362	363	371	367	365	368	371	372	368	364	363	364	365	367	366	368	369	373	366	363	366	367	371	371	366	364	365	368	370	370	366	363	362	364	367	372	365	363	363	368	367	368	371	374	376	371	369	369	370	371	370	370	365	361	362	361	362	364	364	364	363	358	355	357	362	367	367	366	365	364	362	361	361	362	365	367	368	366	366	363	362	360	352	355	360	362	364	366	368	374	366	367	369	367	361	369	373	368	363	367	366	364	362	362	362	361	363	366	367	368	373	376	374	374	369	367	356	362	371	374	375	372	369	367	366	365	368	369	369	367	366	366	363	364	367	361	363	366	368	372	369	362	366	367	365	363	360	360	363	366	368	365	364	365	366	364	364	363	359	357	354	353	354	356	356	357	357	358	364	364	364	360	358	356	356	356	361	363	364	363	365	365	360	358	356	356	359	366	368	369	371	366	359	360	366	369	370	369	366	359	353	352	356	360	358	358	350	353	355	361	366	368	368	364	356	359	359	362	360	362	365	364	365	360	364	364	364	365	365	362	359	359	359	358	363	370	369	362	360	361	365	369	369	370	371	371	372	372	375	375	369	358	358	367	372	369	369	367	367	374	371	368	365	372	371	368	364	363	359	358	356	359	368	365	364	357	357	359	366	369	370	374	375	375	371	364	362	363	366	364	362	361	360	359	363	364	363	363	367	370	373	361	361	358	357	357	363	368	371	365	365	365	369	368	366	365	361	359	359	370	371	370	366	362	361	361	365	366	364	359	360	361	361	361	361	362	364	366	366	369	369	363	362	365	366	367	368	368	369	373	372	367	363	362	361	363	361	357	354	356	363	366	367	368	366	365	365	364	367	369	368	364	361	357	356	358	359	362	371	379	377	365	365	365	364	363	364	365	368	370	369	366	358	359	361	362	364	363	364	365	361	361	361	360	358	359	360	363	367	370	370	362	355	355	358	360	360	363	363	363	365	365	366	365	361	360	365	367	365	364	363	362	361	360	357	359	359	361	362	366	366	362	360	361	362	361	360	359	358	357	357	356	356	356	361	363	363	360	360	360	360	360	362	363	363	363	364	0	0	0	0	0	0	0	0
362	362	362	362	357	350	348	348	350	351	354	358	358	357	359	361	355	353	353	350	350	352	352	355	354	354	353	352	349	349	352	356	356	360	363	366	369	369	362	358	358	360	361	363	363	361	353	353	354	354	358	361	361	362	363	363	361	360	360	360	361	361	361	363	361	361	362	361	360	358	358	360	360	362	362	359	357	356	356	360	360	363	363	355	353	353	354	355	358	360	357	356	356	356	358	358	360	359	360	358	360	364	367	368	365	361	360	360	359	357	360	361	364	367	366	363	358	356	359	363	364	363	365	366	367	367	367	367	366	364	362	361	362	363	366	368	368	366	364	364	364	363	362	363	362	363	364	364	359	360	360	361	364	365	361	362	365	366	360	352	357	364	366	363	361	360	361	360	366	364	363	364	363	367	364	363	360	356	356	361	365	370	363	362	362	359	357	359	361	361	362	363	366	367	370	370	368	363	361	364	362	360	362	363	363	365	366	368	369	362	363	365	365	365	366	365	365	363	359	360	361	360	360	360	362	362	362	360	361	362	364	365	365	363	359	356	354	354	358	362	364	362	362	362	362	359	360	353	353	346	346	353	355	359	363	361	358	355	362	363	365	359	359	361	357	356	359	356	352	354	358	363	362	364	365	366	365	363	362	360	353	353	357	367	367	364	364	362	358	360	361	364	368	366	365	364	361	358	359	360	361	360	359	356	359	364	362	361	362	361	359	357	361	362	360	359	355	355	355	357	354	353	354	356	353	352	353	353	354	353	352	353	354	358	357	356	354	355	349	349	351	358	360	361	361	363	363	360	355	353	355	356	357	359	360	359	357	349	358	361	367	368	366	358	356	355	354	356	359	359	358	355	353	357	358	356	353	352	353	354	354	354	358	361	361	361	361	359	358	361	362	364	358	358	350	351	354	355	355	355	358	355	354	353	353	361	361	361	360	360	361	363	367	371	369	354	351	353	356	366	372	358	359	356	362	360	357	356	356	356	359	362	361	358	356	356	354	357	358	357	354	355	354	354	356	353	356	357	357	359	360	363	361	363	363	363	362	361	361	362	364	358	356	353	354	354	354	352	352	349	348	349	352	361	361	357	357	357	357	357	358	358	353	351	353	354	357	359	360	358	356	359	355	354	354	354	357	360	359	359	359	362	365	365	363	361	360	361	363	364	364	366	365	364	360	359	355	354	355	359	358	358	354	350	352	357	362	364	364	362	361	361	360	360	362	365	360	358	350	349	358	358	357	356	359	361	360	359	357	359	360	363	364	364	362	359	359	358	358	359	360	361	360	361	362	359	357	355	354	354	354	356	357	359	358	356	351	350	352	355	357	357	358	360	360	360	361	360	356	357	357	356	360	358	360	358	357	355	351	352	354	355	355	356	357	357	359	360	359	356	359	358	358	355	355	353	352	354	352	349	360	362	360	358	356	356	357	360	361	360	362	362	0	0	0	0	0	0	0	0
359	359	359	357	353	350	347	347	347	350	349	351	351	352	354	349	350	348	348	346	346	345	348	352	351	351	352	350	347	346	347	350	350	353	357	361	363	362	357	358	358	359	359	361	361	362	356	351	352	355	355	351	355	360	363	362	359	357	356	356	349	351	351	353	351	350	351	351	351	351	351	353	356	363	357	353	351	350	351	356	356	357	355	352	352	354	354	356	357	358	359	354	351	354	357	356	357	358	357	358	358	359	364	364	357	355	355	355	354	352	354	357	360	361	360	360	356	354	354	358	359	360	358	359	362	365	367	367	362	361	358	355	354	354	357	363	365	364	362	359	359	362	362	361	361	361	362	359	355	356	357	359	360	361	361	359	355	353	347	345	350	358	359	359	361	359	358	358	357	359	358	358	356	355	359	359	358	356	353	354	361	364	362	360	359	355	355	354	352	352	360	361	362	363	365	369	371	365	363	358	359	357	358	355	354	361	362	361	361	358	359	359	360	358	359	357	358	360	360	357	355	357	357	357	357	360	360	357	355	355	356	356	356	357	355	353	350	351	357	359	358	357	356	358	358	356	353	353	361	360	355	353	351	353	356	352	350	348	350	358	356	360	357	356	359	354	354	357	356	353	354	356	360	365	366	363	362	359	358	356	352	350	353	365	364	359	358	356	355	354	353	353	353	353	358	358	354	353	354	346	348	355	353	353	356	358	360	360	358	358	355	356	358	358	357	355	352	352	352	354	353	352	351	351	347	351	350	350	354	355	352	352	351	348	346	347	348	355	356	354	354	358	358	358	357	360	362	361	357	352	350	346	349	355	351	348	348	349	349	362	359	363	358	356	355	354	353	354	355	354	359	355	352	356	356	355	353	352	351	352	352	352	354	359	359	359	358	356	356	355	355	351	346	346	348	350	351	353	353	351	347	350	349	350	353	353	352	351	349	347	348	350	351	353	350	350	347	349	359	355	356	356	356	354	352	356	354	352	351	352	354	355	356	357	355	355	354	355	357	355	352	350	347	356	355	352	352	352	354	354	357	357	359	359	361	359	362	361	360	362	364	354	354	351	350	349	347	352	353	351	348	345	344	349	354	354	354	349	350	353	354	352	346	344	345	345	347	350	351	346	346	347	350	352	352	352	352	357	358	356	357	357	356	357	354	353	352	355	357	358	361	361	360	357	353	351	353	351	350	353	357	355	355	349	348	353	359	363	358	355	357	356	353	353	356	358	355	351	348	347	349	354	350	349	349	350	351	349	347	350	357	361	362	352	350	350	350	352	353	354	355	355	356	356	356	354	352	348	344	344	350	351	353	357	356	353	349	349	352	354	355	354	355	355	355	357	357	356	353	354	356	355	355	357	356	354	350	349	347	348	351	352	352	354	354	354	358	356	350	350	352	353	355	354	353	351	351	350	349	347	347	348	349	352	352	355	355	357	357	348	350	353	0	0	0	0	0	0	0	0
353	355	355	355	353	350	346	346	345	346	348	344	344	344	347	346	347	346	344	344	344	343	345	349	350	350	348	347	344	341	344	349	349	352	355	356	357	357	356	357	357	358	358	358	360	362	361	355	350	350	348	348	350	352	354	354	353	352	351	349	343	345	345	349	351	346	347	343	344	345	347	348	352	354	353	350	348	347	348	354	358	358	359	360	358	357	356	355	351	349	349	351	350	350	352	354	354	354	355	357	358	358	356	351	348	349	350	350	349	350	352	355	357	359	356	351	349	350	351	354	357	355	352	352	350	351	361	361	354	353	354	353	352	352	353	356	356	358	359	354	356	359	361	364	355	353	353	352	353	354	355	357	357	357	357	358	358	350	346	344	345	347	353	350	356	357	357	355	353	358	359	359	352	352	353	353	351	348	350	352	356	360	359	357	355	354	352	352	352	352	352	352	357	358	364	364	363	361	361	358	356	350	349	352	352	351	352	352	356	354	355	355	357	352	353	353	353	352	352	353	354	355	355	356	355	357	357	354	355	352	355	355	355	349	350	352	351	351	356	353	351	348	347	347	349	349	349	352	361	356	355	350	345	345	347	345	344	344	343	346	350	348	345	346	346	346	347	346	354	357	357	355	355	354	355	353	358	356	355	353	350	349	350	361	361	357	358	357	355	352	350	346	347	351	351	350	349	349	344	345	346	347	346	349	355	356	357	358	355	354	353	354	352	348	348	350	348	349	349	353	353	351	352	350	347	348	343	345	347	351	347	350	349	346	346	347	348	350	351	352	348	346	346	352	355	359	359	361	354	349	343	345	352	352	352	349	344	344	349	348	356	349	345	345	352	352	349	340	343	349	348	350	351	349	347	345	345	351	351	350	351	352	353	353	357	355	354	350	349	351	350	347	345	345	347	349	349	347	350	350	344	343	344	346	347	346	347	346	343	342	345	347	347	348	348	348	349	350	350	352	353	354	353	352	350	354	351	350	348	350	352	352	354	355	354	354	355	357	356	351	346	344	351	352	352	349	349	349	349	349	351	352	355	352	352	354	355	355	355	358	362	351	352	349	348	346	347	349	348	350	349	345	342	348	348	349	340	341	348	351	349	347	341	339	342	341	343	346	347	344	344	346	348	350	347	348	348	344	341	342	346	348	347	349	351	350	348	348	351	351	355	358	354	350	347	346	347	349	345	344	345	343	342	344	345	346	346	346	349	348	351	348	348	348	352	354	355	348	345	344	342	342	338	340	341	343	340	340	341	345	344	340	339	345	344	341	344	348	346	349	352	353	353	351	348	347	346	339	339	340	342	341	341	340	341	346	347	346	343	354	348	342	345	352	354	354	354	355	356	353	352	352	352	354	352	351	349	344	343	345	349	350	352	353	353	350	351	350	348	347	346	347	351	351	351	350	349	348	346	345	346	347	345	349	349	349	350	348	346	345	347	350	0	0	0	0	0	0	0	0
345	349	349	353	351	346	343	343	342	341	339	338	340	340	344	344	348	343	342	342	343	342	344	348	347	347	343	339	334	338	342	344	347	347	350	354	354	354	354	354	355	355	356	355	359	359	355	356	350	348	346	345	345	346	347	348	347	347	347	345	343	346	346	349	350	346	342	342	342	340	338	338	343	347	346	349	350	348	343	342	343	343	345	345	348	348	348	347	348	343	341	339	341	343	346	348	349	350	353	356	358	353	349	347	345	345	344	343	341	344	348	354	356	356	347	345	344	348	349	351	350	350	351	350	347	340	344	347	349	349	349	351	350	350	352	354	355	354	353	353	353	358	359	351	351	352	350	349	349	352	353	354	353	354	355	358	358	358	353	347	344	343	344	349	352	352	351	350	350	353	359	355	347	350	350	349	347	347	348	349	351	354	356	354	349	348	353	356	354	352	352	352	349	347	347	351	352	356	359	359	354	348	347	347	347	345	345	347	348	349	351	353	354	351	349	347	348	350	350	350	352	354	354	355	355	354	354	353	354	355	355	347	347	347	346	344	348	349	350	350	349	346	343	344	347	346	346	348	357	356	351	350	344	343	343	341	342	341	339	338	339	339	338	340	340	343	343	343	344	347	354	354	343	340	342	342	348	352	349	346	346	347	348	356	350	353	356	356	354	350	344	346	347	351	352	351	349	349	348	344	343	344	342	346	351	353	354	348	346	348	349	349	346	344	343	343	344	345	347	349	343	345	344	348	346	346	347	348	348	346	347	349	348	346	345	346	346	345	343	344	345	340	338	337	345	349	350	349	344	342	344	344	348	349	346	344	341	341	342	348	348	347	343	340	344	350	343	338	338	342	343	347	348	349	347	345	345	345	347	347	345	348	350	351	352	350	349	348	343	344	344	343	344	344	348	346	342	341	343	348	346	343	342	340	339	340	343	343	345	340	341	344	345	343	344	341	342	343	345	348	348	349	347	348	348	351	347	346	344	342	346	348	351	350	353	352	346	343	341	341	344	344	347	350	348	346	343	340	342	344	347	343	344	348	349	352	351	351	353	353	343	342	344	348	345	344	341	342	336	335	333	341	342	342	346	339	333	333	338	348	348	344	339	337	339	340	340	336	338	342	345	345	346	347	337	338	343	340	339	341	342	343	346	349	349	350	347	337	337	347	351	350	349	346	343	343	343	343	342	341	341	342	340	341	343	345	344	344	346	348	347	344	343	342	346	351	348	339	339	340	339	338	339	340	340	340	339	340	340	338	337	334	333	336	340	339	342	342	344	347	347	349	346	335	337	337	337	336	336	336	337	330	331	334	339	343	345	344	341	340	336	335	337	335	336	351	345	350	351	349	349	344	345	346	346	346	342	340	339	338	339	339	338	338	334	335	336	347	346	344	340	345	345	345	345	346	346	345	345	344	340	341	341	340	340	347	343	343	342	341	344	344	0	0	0	0	0	0	0	0
334	343	343	345	342	342	340	338	338	334	335	335	338	338	341	343	341	337	337	337	338	341	344	345	342	335	335	331	333	339	340	342	344	344	348	349	351	352	351	351	352	352	352	352	355	355	355	354	349	343	345	345	345	344	345	346	347	344	343	340	340	343	346	346	345	345	344	342	343	340	337	333	333	336	340	340	339	339	339	338	338	342	342	343	337	332	334	338	345	346	344	340	338	338	342	346	348	349	350	349	349	346	343	344	345	346	345	344	343	343	346	351	352	349	347	339	344	347	348	345	344	341	339	337	335	336	339	340	346	346	349	342	342	341	345	352	352	347	345	345	351	350	350	349	347	349	350	349	349	349	349	353	357	356	352	354	356	358	354	349	340	338	341	349	350	348	346	343	347	351	355	349	346	350	350	348	347	350	350	347	345	348	350	351	346	346	353	353	355	351	347	347	349	351	352	353	352	355	353	351	355	349	347	344	343	346	347	346	345	346	348	351	352	348	344	343	343	344	346	347	349	351	354	353	353	348	348	346	343	347	345	344	342	343	343	342	340	339	341	348	348	345	341	339	342	343	344	348	350	351	344	344	345	342	339	338	337	336	335	336	336	337	336	336	338	339	338	341	342	344	343	341	336	337	340	340	342	344	343	345	344	344	349	342	345	348	350	353	352	342	342	344	344	347	347	349	349	350	348	344	343	342	343	343	345	347	350	346	344	343	338	337	338	341	339	338	339	341	343	342	344	345	344	342	341	343	345	347	348	344	345	347	347	347	346	344	342	340	339	338	338	335	334	334	337	341	342	341	341	343	343	344	343	344	342	340	337	338	336	341	345	347	339	340	339	340	338	336	337	342	343	345	344	345	345	345	344	344	346	343	343	344	345	347	347	345	343	341	337	338	338	338	341	346	346	343	340	338	337	340	346	346	343	339	337	337	339	342	342	340	339	343	343	340	337	336	340	342	342	344	345	343	341	342	343	343	344	343	339	338	340	343	341	340	340	335	331	331	330	329	333	343	346	347	345	339	335	335	337	338	338	336	338	342	346	348	349	348	346	343	337	338	340	342	342	341	332	333	333	332	330	328	339	342	341	338	331	332	333	338	341	340	338	337	338	340	337	334	333	337	341	344	343	341	338	336	337	337	336	338	339	340	345	345	347	344	331	331	331	330	333	339	346	344	344	342	338	336	336	336	339	339	339	340	341	340	340	341	344	344	337	335	335	335	337	340	341	337	336	337	338	337	338	339	339	338	337	335	331	332	331	331	330	332	336	338	340	341	339	336	333	329	331	337	342	330	331	333	334	331	329	327	328	333	337	338	340	336	339	337	334	334	335	335	335	335	337	338	338	342	340	338	340	342	343	342	340	339	338	336	336	337	335	335	333	332	334	334	334	332	336	340	342	341	340	340	337	337	339	333	336	333	333	333	333	342	340	338	337	338	341	336	0	0	0	0	0	0	0	0
330	337	337	337	337	338	337	334	334	335	332	331	332	332	337	341	338	334	333	333	337	338	339	333	335	332	332	330	335	337	338	340	342	342	344	345	347	341	341	342	343	343	346	344	335	336	337	340	339	343	344	344	344	341	342	344	345	342	338	337	337	339	338	338	339	342	343	345	342	340	337	334	333	336	338	339	337	338	336	340	341	343	343	343	342	332	335	340	342	343	342	336	334	335	339	338	335	335	336	336	336	334	335	337	340	344	345	345	345	344	347	347	346	343	338	338	340	341	341	340	339	335	333	332	332	330	331	336	339	340	336	336	337	338	337	334	334	336	341	343	349	348	351	346	346	346	349	349	350	348	348	348	349	349	342	338	339	342	343	342	338	338	345	347	343	343	342	343	342	343	341	343	344	353	352	351	350	350	350	346	346	347	347	348	345	344	350	353	354	350	348	348	347	350	350	351	347	348	348	348	346	345	342	340	342	342	342	342	340	334	333	336	337	339	335	340	340	342	343	343	341	341	340	340	341	345	344	343	341	340	338	337	338	338	341	341	340	340	340	345	347	345	337	336	336	337	341	343	343	341	336	335	336	340	339	337	335	335	333	331	331	331	334	335	336	335	337	338	339	340	341	338	335	334	333	338	340	341	342	345	347	347	343	341	340	340	339	342	335	336	336	339	343	345	345	342	347	347	346	343	342	340	341	340	341	343	343	340	340	340	340	339	338	338	335	334	335	334	339	341	342	346	346	339	335	330	335	344	344	344	342	341	344	344	343	340	339	338	337	335	332	331	330	331	334	335	338	339	339	341	341	343	340	338	337	336	335	333	334	336	339	331	339	336	337	337	340	338	338	338	336	336	340	342	341	341	342	339	336	335	336	338	336	339	343	342	339	338	333	333	333	335	335	335	334	341	340	338	338	341	339	339	342	339	336	334	340	340	341	339	335	336	339	335	334	336	340	339	338	338	340	340	338	339	341	341	339	340	334	334	335	336	335	333	331	329	329	327	327	325	331	331	332	332	334	334	332	332	333	337	337	335	336	338	340	337	344	345	344	342	340	340	338	333	328	325	327	327	327	328	325	324	326	329	330	328	325	326	331	338	340	340	334	335	337	338	335	327	325	332	338	340	340	339	338	339	334	334	334	334	336	340	339	336	332	330	331	331	330	330	331	337	342	343	343	341	337	332	329	329	332	336	338	339	339	329	333	330	328	324	332	332	332	331	331	334	335	333	333	334	336	337	335	333	335	332	325	325	326	328	329	329	329	328	328	332	338	333	329	327	326	331	334	339	342	336	327	329	330	331	329	330	332	335	332	331	329	330	328	325	326	327	332	335	334	334	334	337	334	333	328	331	333	339	340	339	338	340	337	334	335	333	333	334	330	330	328	329	336	335	336	337	338	340	334	332	333	332	331	330	331	330	329	329	330	331	337	333	333	334	337	331	0	0	0	0	0	0	0	0
331	331	330	330	332	334	337	338	338	335	331	328	329	329	337	334	331	333	333	333	335	335	328	326	327	328	328	329	333	334	337	339	339	339	339	340	333	333	333	338	339	339	337	328	329	333	336	337	332	331	333	333	334	333	335	342	338	339	334	332	331	330	334	334	338	338	339	339	339	338	336	335	334	335	335	334	333	333	336	341	343	348	348	348	346	344	343	336	335	335	337	335	335	334	334	333	333	333	333	332	331	330	330	331	333	334	341	337	339	340	340	338	337	337	337	336	337	337	336	335	333	333	330	329	328	329	331	333	333	337	337	334	333	335	334	333	333	334	335	336	335	335	335	334	336	332	337	337	341	341	336	333	337	332	341	335	337	339	342	339	339	341	345	340	340	340	340	339	340	338	339	341	342	350	351	351	350	351	349	347	346	347	347	346	344	343	343	346	347	344	347	347	347	347	347	346	343	342	342	343	343	342	342	342	341	339	339	337	334	332	333	334	337	337	335	332	333	338	339	340	338	337	337	338	339	339	338	339	338	336	335	333	332	335	340	342	342	341	340	340	344	336	336	334	334	335	339	341	334	335	334	334	334	335	337	335	332	330	330	330	331	331	330	331	331	333	328	331	333	336	336	334	333	331	333	334	338	339	342	343	333	329	330	332	330	328	329	332	333	333	333	334	340	342	341	339	336	343	343	342	340	340	338	337	338	337	336	338	339	341	341	339	338	338	336	329	329	327	330	334	338	325	337	334	325	321	328	328	330	332	337	340	340	343	338	337	337	336	334	331	330	327	329	328	329	330	330	331	335	339	340	340	338	334	332	332	332	332	333	330	329	327	332	331	336	338	341	338	334	331	330	330	331	333	333	332	334	332	328	328	329	332	335	337	337	332	329	325	325	327	332	332	332	326	325	333	340	340	340	340	335	333	332	328	328	329	331	337	331	334	338	340	337	336	335	335	340	339	336	337	339	339	338	337	336	333	334	335	332	331	332	328	326	329	331	327	323	325	326	327	328	334	335	334	335	332	330	333	335	337	335	332	334	337	335	330	333	340	342	339	340	338	330	328	324	322	322	322	322	322	320	321	324	327	329	326	325	326	332	336	339	338	336	331	331	332	334	329	325	327	330	335	336	335	334	333	333	333	333	331	331	336	335	333	330	328	331	331	332	332	334	337	338	329	325	323	328	328	329	332	335	332	327	324	324	326	329	326	323	323	323	328	329	329	330	330	330	330	330	335	334	331	330	326	325	322	322	322	325	328	329	328	330	328	326	325	325	332	333	331	327	330	334	337	339	334	329	325	329	332	331	332	334	334	331	328	322	321	321	321	323	324	325	326	326	328	331	333	329	321	322	323	326	325	331	339	333	330	336	334	333	332	332	330	322	318	319	328	333	334	334	334	333	335	336	332	331	328	328	330	327	327	328	328	329	330	331	332	331	332	325	326	0	0	0	0	0	0	0	0
329	329	329	329	329	332	336	336	336	335	330	329	330	334	334	329	326	325	328	328	328	325	323	321	323	325	325	327	329	330	331	333	335	335	335	332	329	328	329	330	330	326	326	325	328	330	333	328	329	330	332	332	333	333	331	332	335	333	333	327	325	325	329	331	331	331	330	332	331	331	329	331	330	329	332	330	332	334	335	339	343	344	347	347	346	343	336	329	329	331	331	336	336	335	332	330	331	332	333	332	331	329	331	332	331	330	328	326	325	326	328	329	330	331	334	336	337	338	337	335	326	326	327	327	326	321	323	323	329	330	330	329	329	331	330	331	330	331	329	332	333	333	333	333	334	330	329	328	328	329	329	329	331	331	331	331	330	336	337	335	336	337	335	335	336	336	338	337	338	337	339	336	340	347	350	351	350	343	337	340	341	342	340	340	340	338	329	342	343	341	340	343	344	342	342	341	335	335	339	339	339	340	339	340	339	338	336	335	330	328	331	335	336	338	334	332	330	332	331	336	335	336	335	335	335	336	332	333	334	333	333	331	330	332	337	342	342	341	338	337	335	333	332	333	333	332	332	332	332	333	333	330	333	334	335	335	332	330	331	331	330	330	329	326	329	327	322	324	324	329	331	330	326	324	323	324	328	334	332	332	329	323	326	332	332	333	333	332	330	328	327	331	333	334	336	334	332	334	336	338	336	336	334	334	336	335	328	329	331	333	334	333	332	330	327	326	327	328	324	322	325	338	333	327	326	324	327	328	326	327	328	329	330	331	333	335	334	334	331	326	328	329	330	329	328	328	330	330	327	331	335	333	331	329	327	327	329	331	332	332	326	327	330	331	326	326	326	328	326	327	328	329	328	330	331	332	332	333	333	333	328	326	325	327	330	332	331	329	327	325	325	325	322	324	323	325	330	330	333	334	334	334	328	327	328	327	324	324	326	328	333	333	332	329	328	334	340	327	324	323	328	331	331	326	325	323	329	331	331	326	326	325	323	326	321	322	321	321	324	331	331	328	326	324	329	329	328	332	333	334	333	332	335	334	332	330	328	330	335	334	320	321	323	324	322	320	319	318	318	319	319	318	321	321	318	327	327	326	329	333	338	328	326	326	326	328	330	329	321	323	327	333	335	333	325	324	325	326	326	328	330	332	332	331	329	327	331	330	334	335	336	335	335	326	323	320	324	318	322	327	330	329	323	322	324	328	326	324	321	321	320	323	325	323	324	322	323	321	322	323	324	324	323	321	322	321	321	322	325	329	327	329	330	328	316	316	322	331	329	326	323	327	327	327	327	320	319	318	322	327	329	328	330	328	328	327	326	325	324	325	324	323	323	321	318	317	318	319	319	316	316	317	318	318	320	320	321	321	325	327	331	331	329	321	313	314	321	320	325	332	332	331	330	329	329	330	329	329	328	326	326	327	327	328	327	326	324	321	321	320	321	323	0	0	0	0	0	0	0	0
328	328	327	327	327	325	327	329	329	331	330	329	331	331	331	324	324	325	327	327	327	325	321	318	317	319	319	322	323	323	328	331	332	331	331	328	323	326	327	328	326	324	324	323	325	325	327	326	327	330	331	331	331	329	329	328	332	329	329	324	323	327	329	330	330	329	328	324	321	321	324	325	326	326	325	327	330	332	332	334	336	341	343	343	343	336	327	324	326	328	329	329	335	335	330	328	330	332	330	332	332	331	328	328	330	327	323	323	322	322	326	328	329	330	332	333	328	328	327	326	325	325	324	323	319	319	322	321	328	329	329	327	327	328	328	328	327	324	323	326	327	330	332	332	331	327	327	329	329	329	329	330	331	328	328	326	326	324	324	324	327	329	330	331	335	335	336	337	335	336	329	328	325	336	338	334	331	329	330	334	336	337	336	336	331	328	327	336	338	336	335	335	337	337	338	335	332	330	332	332	334	336	337	337	330	327	325	329	326	325	331	330	332	336	334	330	328	328	327	325	325	332	333	333	332	332	327	328	331	331	330	328	328	329	326	324	327	329	333	331	330	330	332	333	332	329	329	329	331	331	329	329	332	332	333	331	329	329	330	331	329	330	328	327	329	327	320	321	324	319	326	325	321	325	324	325	322	329	330	330	323	325	326	326	330	330	330	330	328	323	325	327	325	325	328	331	330	331	336	329	327	326	327	329	326	322	330	324	325	327	328	327	325	323	321	321	322	323	323	325	326	324	333	327	323	321	321	328	332	333	333	330	322	321	325	327	329	328	320	320	327	329	330	328	327	328	330	326	324	321	320	328	328	322	322	322	325	331	330	323	324	324	324	324	325	325	325	326	327	328	331	333	331	332	334	336	327	322	316	315	313	315	315	319	323	326	326	323	325	324	320	321	322	319	319	320	326	327	325	327	331	328	328	328	329	329	327	324	321	322	320	321	322	322	323	324	322	316	314	312	315	322	324	327	323	325	321	321	323	318	315	317	318	319	321	322	320	321	322	326	327	326	322	322	321	322	325	324	322	323	324	324	324	328	323	321	320	318	326	322	320	317	320	323	321	321	317	316	315	315	318	318	318	316	316	318	324	325	325	325	325	321	321	325	327	329	330	328	328	329	323	321	322	322	316	318	321	321	322	325	328	328	330	331	333	334	329	327	327	330	329	327	326	311	310	309	310	311	313	316	320	323	321	321	323	323	323	320	320	319	319	317	321	318	317	316	313	317	321	324	317	317	316	314	315	319	320	322	321	322	318	318	318	316	314	314	315	321	324	321	318	322	323	323	322	318	318	315	315	318	324	323	323	324	325	325	324	324	325	325	325	323	320	318	316	317	319	320	318	313	312	315	314	315	317	316	318	318	318	317	317	317	318	311	314	311	315	320	322	326	326	326	327	328	329	329	328	327	325	324	326	328	328	329	327	322	320	318	317	315	313	317	0	0	0	0	0	0	0	0
320	317	316	316	317	318	321	325	327	327	325	327	331	327	327	321	321	322	325	324	324	319	316	314	315	317	318	318	319	321	322	320	321	321	321	320	322	322	323	323	321	321	321	321	323	324	324	325	326	324	327	328	328	329	328	328	324	324	326	325	322	325	328	328	328	326	325	322	317	317	317	317	320	322	323	324	329	331	331	332	334	335	337	334	334	327	321	319	322	325	328	328	329	332	332	324	324	322	323	326	326	325	325	326	327	322	321	318	318	322	325	328	327	324	325	324	323	322	324	328	325	325	324	324	319	317	319	322	326	325	324	323	324	325	326	329	326	322	318	319	321	327	328	327	325	327	327	331	333	333	333	333	332	327	326	325	325	326	325	322	322	323	331	331	333	333	334	332	326	325	326	325	323	327	335	331	330	327	327	328	332	333	333	329	326	325	326	335	334	332	331	327	329	330	330	330	329	329	328	329	333	336	334	325	326	323	320	319	319	323	321	326	327	328	328	325	326	326	326	324	325	326	327	325	330	330	328	330	330	329	327	326	325	321	322	323	324	326	328	328	326	326	324	323	317	319	325	325	327	328	326	326	329	329	329	330	329	328	328	326	323	318	318	324	328	328	324	313	311	319	320	318	320	317	322	319	316	318	319	320	326	326	325	326	324	324	323	321	316	315	318	320	318	319	319	322	323	322	326	325	326	326	326	327	326	320	319	320	321	323	323	323	324	321	321	320	322	326	325	325	325	328	320	319	319	320	320	330	335	334	332	329	324	320	322	323	322	318	317	317	324	329	330	327	323	320	320	321	321	319	317	316	317	320	319	320	319	318	321	317	318	319	322	326	324	324	325	326	328	330	333	326	325	327	329	330	326	322	317	313	313	313	314	315	320	321	324	324	324	324	319	321	321	317	317	317	322	325	323	323	321	325	326	329	324	325	326	323	320	318	318	314	320	322	323	320	319	317	313	312	313	313	315	321	317	316	312	311	311	313	315	316	316	316	320	320	321	320	320	323	325	323	324	319	317	319	318	311	312	314	321	322	323	322	320	315	315	316	324	324	324	321	319	320	319	317	318	319	319	316	315	316	316	316	312	317	315	321	318	318	318	317	316	319	323	324	323	322	320	328	321	320	313	313	314	318	319	319	319	317	315	315	319	322	319	319	319	319	317	318	313	311	313	311	308	307	307	307	314	316	316	321	320	321	320	320	319	317	317	316	316	315	313	315	312	309	310	313	316	324	315	316	313	311	312	313	315	314	318	318	316	313	314	313	314	313	313	315	318	316	314	313	315	321	319	312	312	311	311	311	315	317	313	317	319	322	323	323	322	323	323	323	320	312	311	316	316	317	311	312	313	314	315	315	317	317	316	315	315	317	317	316	318	310	316	310	313	323	317	320	318	315	312	314	326	326	324	323	321	318	325	327	327	327	320	316	317	317	317	315	315	313	0	0	0	0	0	0	0	0
311	313	313	313	313	316	320	321	319	319	319	319	323	322	322	321	314	313	315	318	318	318	317	315	316	316	318	318	318	317	316	319	322	321	321	319	320	319	319	318	316	318	318	319	321	322	322	324	322	323	326	328	328	326	324	322	320	320	323	321	322	322	325	324	321	321	319	318	315	315	312	313	318	320	322	322	323	329	330	330	330	330	330	325	325	321	319	318	320	322	323	326	327	321	321	323	322	320	318	319	320	321	321	321	321	318	317	317	318	321	323	325	324	322	321	321	320	317	319	324	324	324	322	321	319	319	318	320	322	322	323	321	322	322	323	326	326	320	316	316	317	317	319	321	324	325	327	328	331	330	327	323	320	322	320	319	318	318	319	319	321	321	325	328	328	326	328	325	322	322	322	318	323	325	332	331	329	327	327	328	327	329	331	326	325	325	323	330	331	331	327	325	325	325	328	328	329	327	319	317	317	317	318	322	319	319	318	319	323	321	319	319	320	321	320	322	318	319	320	320	321	321	322	322	320	319	328	330	329	327	324	321	318	323	322	320	319	321	322	323	324	324	322	321	318	316	318	321	321	323	322	322	322	322	327	327	328	327	321	320	319	318	316	321	325	330	320	316	314	315	313	313	311	312	315	315	315	316	317	319	319	318	323	324	322	316	314	316	319	316	319	318	317	316	311	314	315	319	323	325	326	325	326	326	324	316	316	318	322	323	324	322	321	320	321	320	322	324	324	325	324	321	315	313	309	308	312	320	321	324	325	325	320	319	318	320	319	316	314	315	322	324	322	322	320	316	318	320	320	315	309	311	314	318	324	324	317	314	312	315	317	319	322	324	323	321	319	318	317	319	315	316	317	320	321	322	320	319	313	312	312	313	315	317	320	322	324	323	320	319	316	319	320	319	315	315	323	323	318	318	315	314	314	317	319	316	323	319	316	313	315	313	314	318	319	318	317	316	316	313	311	312	313	314	314	314	312	309	310	312	314	314	313	317	318	320	318	320	319	317	319	321	321	318	315	317	313	312	313	314	314	312	319	312	315	315	317	313	312	317	318	319	318	315	313	315	318	319	319	315	313	313	314	314	312	313	314	311	309	308	307	306	305	310	317	321	321	319	316	313	310	314	314	315	317	318	317	316	315	314	312	309	309	312	316	317	317	311	311	313	313	312	307	306	306	302	305	307	310	309	316	316	315	315	317	317	317	316	314	313	312	310	312	310	307	307	309	312	314	318	315	309	307	307	309	309	310	311	310	316	310	309	308	310	311	313	313	314	315	312	312	312	314	318	314	310	307	307	307	308	306	307	309	310	312	312	312	314	317	319	311	311	311	308	311	313	313	310	311	312	312	313	314	315	312	312	313	314	314	311	311	311	311	312	312	314	318	306	312	316	315	313	310	314	312	312	311	311	310	310	314	314	316	319	317	313	315	313	311	311	311	311	0	0	0	0	0	0	0	0
307	309	311	312	312	313	315	316	314	314	313	311	312	313	313	313	305	303	311	315	315	315	314	312	312	315	317	317	318	317	318	320	320	320	320	321	319	318	317	315	314	316	319	319	320	318	317	318	320	323	325	326	326	324	320	317	315	317	319	320	319	320	321	320	316	316	315	314	315	315	311	315	317	320	322	322	322	320	323	323	323	321	319	319	319	319	315	314	317	318	319	319	318	319	320	320	317	314	312	314	315	316	318	318	316	313	312	315	318	321	324	316	317	319	321	319	317	314	315	318	321	319	318	317	314	314	311	312	311	315	314	317	318	320	321	322	322	319	315	315	313	314	315	319	321	320	321	327	331	328	326	322	318	316	322	320	319	318	317	318	320	318	321	321	324	318	316	317	317	313	316	313	317	322	329	332	330	327	327	326	326	323	318	316	318	319	322	321	324	324	319	317	317	317	325	326	319	318	320	321	318	315	314	315	314	317	318	317	320	319	318	317	317	315	315	315	315	318	320	322	317	317	320	321	320	319	320	321	325	326	320	317	316	317	317	311	309	310	315	317	316	321	319	318	315	314	317	310	317	316	320	321	321	318	316	315	316	318	319	320	317	315	315	318	321	321	320	316	315	313	312	308	310	310	312	311	313	313	314	315	314	316	317	316	316	315	313	316	319	316	318	317	316	314	309	311	314	318	322	323	321	314	314	315	315	315	314	318	322	322	323	323	321	319	314	316	320	321	322	322	321	320	315	313	314	315	309	308	308	309	311	315	311	317	318	317	314	310	307	312	317	318	315	321	319	317	318	318	316	315	312	313	316	319	318	318	313	311	309	311	317	319	321	322	318	314	313	314	313	315	315	316	316	318	318	318	316	316	314	312	311	312	313	314	320	322	323	321	319	314	313	319	319	318	314	314	314	313	316	312	311	309	311	313	314	315	315	313	309	308	311	314	312	313	315	314	311	311	312	312	314	314	312	313	312	312	310	311	312	313	312	313	315	313	308	308	314	314	315	315	316	317	318	312	313	314	314	313	313	312	310	307	310	312	313	313	314	312	311	311	310	310	309	307	310	313	316	317	316	312	311	313	312	312	311	311	311	307	311	310	309	309	308	307	306	309	313	313	311	310	310	308	312	312	315	315	316	314	313	312	310	309	309	310	310	307	308	307	308	309	310	309	308	303	303	303	305	307	309	309	310	311	311	310	310	311	307	309	311	310	309	305	303	303	303	305	309	310	312	315	312	304	302	302	304	304	305	306	307	307	308	306	307	308	310	311	311	312	315	314	314	313	314	311	309	305	304	304	305	308	312	310	307	305	305	306	308	307	305	308	307	306	305	306	307	310	313	305	304	312	313	311	308	305	305	305	306	311	312	312	308	306	308	307	306	304	309	303	302	310	311	312	314	312	309	310	310	310	311	309	313	313	310	311	306	308	307	306	306	306	308	309	0	0	0	0	0	0	0	0
304	307	306	307	307	308	311	311	309	309	308	310	310	309	307	307	300	301	306	309	310	310	310	309	310	314	317	317	318	317	318	318	320	319	316	316	316	316	316	315	314	315	316	316	317	315	311	314	317	313	314	323	321	321	316	312	311	313	316	318	316	316	316	316	312	312	307	306	308	314	315	316	318	319	320	319	312	319	321	321	321	320	320	319	316	316	313	312	315	317	317	317	316	316	316	316	311	306	307	309	311	315	315	315	312	311	308	307	306	309	311	313	313	316	319	317	314	312	312	315	317	315	313	314	312	312	311	308	309	310	313	314	315	316	317	318	320	317	314	313	313	312	313	313	314	314	318	324	329	329	325	318	316	313	313	321	319	318	318	319	319	316	318	320	314	311	311	312	310	312	313	311	311	310	322	323	322	322	320	321	321	319	313	314	311	315	318	320	319	317	314	314	312	313	313	314	312	316	313	312	317	323	314	310	311	316	316	316	320	317	317	318	315	313	310	310	315	314	314	314	316	314	309	308	308	314	316	317	315	314	316	313	310	315	314	311	310	310	311	312	314	315	313	313	311	306	306	308	309	309	314	315	318	317	315	314	315	316	319	318	315	312	311	311	315	316	316	312	312	311	311	309	309	311	312	311	309	311	315	314	311	310	307	311	313	315	315	313	318	317	310	309	310	310	308	311	312	316	320	319	317	314	313	313	313	312	313	316	313	315	315	317	317	316	309	312	314	315	317	318	316	311	309	308	304	306	307	308	308	309	312	314	307	309	314	316	309	307	309	310	311	312	315	316	317	317	319	314	312	311	312	314	314	317	317	317	314	310	309	310	310	316	318	318	312	310	311	312	314	315	315	314	314	315	312	315	310	309	312	311	312	310	309	309	310	310	307	306	306	310	308	312	310	312	313	313	314	313	308	306	305	309	307	311	311	313	314	311	311	307	310	314	310	309	310	309	309	309	310	312	314	316	314	309	310	310	310	311	311	312	311	313	315	313	311	306	306	312	312	313	312	314	310	310	310	314	314	314	313	307	306	306	311	311	311	308	310	310	309	309	309	307	304	302	303	303	305	305	304	305	308	310	310	311	307	307	304	310	311	311	310	311	308	307	306	306	309	311	311	312	308	307	305	306	310	312	311	314	312	312	307	305	299	300	306	303	302	304	307	308	307	306	303	301	301	303	304	307	309	307	306	305	309	311	307	307	305	305	305	305	307	306	304	303	303	305	308	309	309	313	304	301	300	300	301	300	300	302	304	306	306	306	306	306	305	309	308	309	308	307	307	306	302	305	304	303	301	302	304	311	311	310	306	305	303	304	306	305	304	304	302	302	305	305	303	306	309	301	298	299	299	299	304	304	302	302	303	303	303	306	302	301	299	300	302	302	302	302	304	307	310	311	312	309	310	307	307	307	313	309	307	307	307	306	306	305	304	302	303	305	306	309	0	0	0	0	0	0	0	0
302	305	303	305	305	304	306	307	305	305	306	310	309	307	303	303	300	300	301	303	303	303	305	306	309	312	319	317	317	318	318	317	315	314	312	312	313	315	316	316	315	315	315	315	308	306	308	309	306	308	310	313	318	318	312	309	308	309	311	311	310	314	315	312	310	308	308	304	302	303	308	311	313	315	314	313	312	313	317	319	319	319	317	317	313	313	313	313	314	316	316	314	311	312	313	313	311	306	305	307	309	313	315	315	312	311	309	307	306	308	310	310	310	311	311	312	311	310	311	311	313	311	309	307	307	306	307	303	306	309	314	312	314	315	316	314	312	315	315	313	310	311	311	308	308	310	319	318	318	317	316	315	315	313	311	312	317	314	309	307	307	306	308	310	307	304	307	307	309	314	316	312	310	307	308	312	313	318	318	317	316	311	314	313	314	314	316	318	318	313	309	310	313	309	308	309	312	311	308	308	311	315	315	307	307	310	308	310	313	315	315	315	308	303	303	307	309	312	313	313	314	310	307	303	304	307	308	310	312	311	309	305	310	314	315	312	309	309	311	309	310	311	309	307	307	306	306	305	309	311	316	317	316	314	310	312	313	313	312	311	311	310	308	310	313	314	309	310	307	308	308	309	310	310	311	309	309	311	312	309	306	305	305	306	306	309	311	310	309	303	303	305	306	307	309	310	310	312	315	316	315	312	311	311	309	309	309	313	311	313	314	314	312	312	310	307	308	309	309	312	309	307	306	305	301	303	305	313	313	311	311	307	307	309	309	309	309	310	308	306	303	302	303	306	313	314	313	310	307	309	310	309	310	310	317	317	312	307	305	308	309	311	314	314	311	308	307	307	312	313	313	312	309	309	314	305	306	307	308	310	308	307	309	308	309	308	307	306	306	305	300	301	301	302	306	307	305	305	304	305	305	305	305	308	307	308	307	307	310	312	313	307	308	307	306	307	306	304	307	311	312	312	310	306	307	308	309	309	309	309	307	313	314	313	311	307	305	309	309	308	308	307	309	307	305	306	313	309	305	300	300	303	307	306	306	308	308	305	302	301	305	303	304	301	300	298	297	302	303	303	305	304	307	303	302	304	308	309	311	310	310	308	308	307	306	306	308	313	315	312	307	306	304	303	304	307	306	305	307	306	304	301	298	296	300	300	301	305	306	307	304	301	299	298	297	296	303	306	306	305	303	303	308	309	302	303	301	301	301	302	302	301	304	304	306	309	311	310	309	298	295	303	303	301	301	297	295	297	302	305	307	307	304	302	301	302	304	306	303	302	299	299	301	299	301	301	301	301	308	310	311	310	306	304	302	302	304	304	304	303	302	300	300	300	299	302	300	298	297	295	295	297	294	302	300	300	300	299	299	296	292	289	290	294	297	300	301	299	295	305	306	302	303	304	306	309	307	308	303	301	301	298	296	303	304	305	302	293	292	302	304	305	0	0	0	0	0	0	0	0
298	300	302	301	301	301	300	300	302	303	303	307	307	304	302	302	301	300	299	302	301	301	302	303	305	311	311	309	309	310	311	310	309	309	309	309	309	312	313	313	312	312	310	308	304	302	304	303	303	305	307	310	310	310	311	305	304	302	305	307	309	313	312	309	307	306	306	305	300	300	300	302	306	310	313	313	311	311	311	312	315	317	314	310	308	309	309	311	311	311	310	310	310	311	312	310	301	298	303	303	307	312	314	313	312	311	309	307	306	306	307	308	306	309	310	312	312	310	311	309	309	308	306	305	303	303	303	302	303	304	309	315	312	311	307	307	306	308	311	314	303	303	306	307	307	308	312	307	309	313	313	312	312	312	310	313	309	307	310	302	303	305	304	303	302	303	305	307	312	313	308	305	304	304	305	306	308	307	307	306	303	310	312	310	306	306	307	310	314	309	307	305	305	302	305	307	309	310	306	307	310	310	310	306	301	301	305	307	311	312	311	309	302	302	303	306	307	307	307	309	310	310	306	303	303	304	302	308	309	304	301	301	304	305	305	308	309	310	309	309	307	307	305	304	305	307	306	308	310	311	312	309	308	306	303	302	302	304	305	306	304	305	305	304	305	308	309	308	303	302	302	302	308	310	308	307	305	305	301	301	303	302	304	304	306	307	307	308	302	304	306	307	305	304	309	309	309	307	310	310	302	300	307	307	313	311	310	305	310	309	309	307	309	308	304	306	306	307	313	311	309	306	304	306	305	304	309	311	310	311	310	303	303	303	304	307	310	309	307	304	303	301	301	300	300	300	306	309	303	299	301	305	306	307	305	310	308	309	308	304	306	309	312	311	307	305	303	306	310	310	311	309	303	303	304	305	308	308	308	308	306	306	304	303	308	306	306	307	306	304	301	300	300	302	303	306	305	302	302	302	304	301	300	303	301	300	298	301	307	309	309	302	305	305	306	306	306	305	303	307	311	308	305	305	306	302	304	305	305	306	306	309	310	303	306	302	298	301	306	306	306	305	302	306	295	298	299	302	300	298	295	296	299	302	305	305	303	302	301	304	302	305	304	302	301	298	296	295	298	301	302	302	301	303	302	301	301	302	304	305	304	304	304	306	306	306	306	308	310	309	304	305	304	303	301	300	305	306	302	303	303	303	299	296	295	295	299	302	300	299	303	300	296	295	295	294	293	296	300	301	299	300	301	299	296	294	294	296	296	296	295	296	302	302	302	305	307	307	304	296	300	300	300	301	299	297	298	300	304	307	309	304	303	299	297	298	297	301	300	298	296	296	297	299	299	299	300	304	307	308	309	309	305	302	301	303	302	300	301	302	301	300	297	297	295	298	298	298	295	293	291	290	291	292	299	298	297	297	296	296	289	287	288	291	296	295	295	294	292	293	295	299	303	305	306	306	304	301	300	299	299	298	297	299	301	299	295	293	291	292	299	300	0	0	0	0	0	0	0	0
296	296	297	298	298	298	297	297	298	301	301	304	301	302	302	302	300	299	298	299	298	297	297	295	300	308	306	306	306	304	303	303	304	305	304	304	306	309	309	306	308	306	305	301	301	301	302	302	302	305	307	309	307	305	305	298	297	299	300	305	310	310	307	300	298	301	301	305	301	300	301	302	306	307	308	307	304	301	303	304	304	303	304	300	305	307	309	309	309	306	303	302	301	302	303	300	300	300	302	303	306	309	310	310	310	309	308	305	304	303	304	303	299	303	307	311	310	310	307	305	308	301	301	301	302	302	302	302	304	307	311	310	310	308	305	305	307	314	314	308	306	306	307	306	305	301	301	303	306	308	309	309	309	309	309	308	307	306	304	302	300	301	300	300	299	301	305	309	310	309	301	298	303	304	306	308	309	307	308	306	303	303	302	303	305	306	304	304	307	305	306	303	301	299	301	305	308	307	307	307	308	307	305	304	301	300	302	306	300	301	300	300	300	301	303	303	303	302	302	300	305	310	308	301	300	307	306	304	301	298	297	296	303	302	302	303	301	307	306	302	300	304	303	305	307	307	307	308	308	310	311	309	305	304	303	302	300	300	302	301	301	303	304	302	302	303	304	306	305	299	297	294	296	299	302	303	304	303	299	296	299	301	303	303	302	300	303	302	302	304	306	307	301	300	299	303	299	298	298	299	297	301	301	305	305	310	309	301	300	302	300	301	303	301	302	303	307	306	306	310	306	302	300	300	298	297	299	301	301	301	300	297	304	301	302	303	306	307	306	304	301	301	300	299	301	303	303	303	302	298	296	299	302	304	306	307	308	306	304	304	304	305	309	308	304	302	300	300	303	302	311	304	299	300	301	306	308	308	307	305	306	305	302	297	295	295	298	299	296	299	300	300	302	301	302	302	304	303	299	298	300	299	298	297	296	296	297	300	300	300	301	299	299	298	299	302	303	301	300	302	302	303	304	305	303	304	300	302	303	302	302	303	300	304	304	304	300	297	299	303	303	302	297	297	297	298	304	302	300	297	296	299	301	301	302	303	302	301	300	301	297	302	305	306	303	298	294	295	293	293	295	295	295	297	295	296	297	296	296	300	302	302	302	301	301	300	299	296	300	300	301	302	300	300	295	294	295	295	295	297	299	300	299	293	295	296	299	298	298	296	295	301	300	297	295	294	293	293	295	299	297	297	299	299	293	291	292	292	291	291	292	293	296	296	296	299	300	300	294	297	300	298	298	298	297	297	294	298	301	305	306	305	299	297	292	292	294	295	295	293	292	293	295	297	301	299	299	298	299	301	302	300	296	295	294	294	294	296	300	300	298	295	293	294	293	295	295	296	294	291	290	289	290	292	293	295	295	295	294	294	294	294	296	297	295	293	293	289	289	290	293	294	300	304	306	305	301	298	296	296	296	298	299	300	302	298	294	290	289	293	293	294	0	0	0	0	0	0	0	0
295	295	294	295	294	294	294	296	295	293	293	296	298	299	301	300	297	296	294	295	294	293	293	294	297	305	305	303	303	301	296	296	296	296	300	302	302	303	303	303	303	305	303	299	299	299	299	301	304	305	306	308	306	297	297	295	296	301	302	304	306	306	301	300	299	298	298	298	297	297	299	301	305	305	304	301	299	301	301	301	300	293	293	295	299	301	298	298	299	301	303	304	304	302	300	303	299	299	300	302	301	302	303	305	302	302	302	303	301	300	300	298	296	300	303	306	308	307	309	303	299	297	299	299	301	302	302	297	302	305	306	303	305	306	306	304	303	305	306	304	304	305	307	306	301	298	298	300	302	305	305	304	304	306	304	306	306	302	298	300	301	300	300	299	295	299	306	311	311	301	294	294	296	298	302	301	301	305	301	299	301	302	303	301	301	303	302	301	300	302	303	302	300	298	295	301	302	306	303	303	300	300	303	300	301	300	300	300	297	297	299	299	298	298	299	299	300	299	296	297	303	306	303	299	296	300	304	303	301	301	298	297	294	295	295	297	297	294	297	299	297	296	296	298	306	307	307	305	306	308	309	306	303	302	301	300	300	294	295	295	296	297	301	302	302	302	300	300	302	294	293	291	292	294	299	300	300	298	292	289	293	299	301	301	298	296	295	299	299	298	300	299	299	297	298	300	298	298	295	295	294	293	298	300	298	303	302	298	297	299	299	298	298	299	299	301	304	302	299	293	291	294	296	296	293	293	291	293	298	297	298	293	294	294	295	295	297	299	302	299	299	300	300	300	301	301	301	301	300	297	296	297	300	294	293	294	296	297	300	299	294	297	299	301	299	296	294	293	293	303	300	288	289	298	300	307	302	303	301	300	299	297	296	293	293	292	292	293	295	291	298	300	300	299	299	299	301	297	297	297	297	297	298	297	298	297	294	296	300	300	299	298	298	298	298	297	298	298	296	292	294	295	296	306	301	299	300	302	301	301	298	295	295	297	302	302	296	297	294	296	297	297	297	297	299	299	303	303	301	299	300	303	301	299	298	299	295	294	295	295	293	297	302	304	302	297	293	293	294	293	289	289	297	296	294	292	293	294	294	293	298	300	299	293	291	291	293	292	295	290	287	287	288	290	292	295	293	292	286	290	292	296	296	291	296	295	295	296	295	295	296	302	301	296	294	293	290	290	290	296	297	297	297	296	293	291	291	290	290	290	291	293	293	293	293	295	295	296	293	295	290	297	295	294	294	294	295	297	298	296	290	289	290	289	290	291	291	292	292	290	290	290	292	295	295	294	295	295	293	289	290	287	290	294	294	292	293	294	295	297	292	292	292	291	290	291	293	295	293	291	291	290	290	292	293	293	293	289	289	291	292	294	298	297	293	292	283	284	286	287	288	292	294	298	303	303	299	291	288	288	289	292	294	293	292	295	292	285	283	283	288	291	291	0	0	0	0	0	0	0
288	292	290	288	288	288	292	295	295	293	293	293	295	296	297	297	291	288	288	289	291	291	291	291	297	304	302	299	296	296	292	293	294	296	296	300	300	301	302	301	300	301	300	296	296	297	297	298	301	305	305	305	301	300	300	297	298	297	296	297	298	299	298	298	297	295	296	296	296	293	295	299	299	299	298	297	298	298	297	297	290	289	293	295	292	293	295	298	298	303	302	302	301	301	300	302	297	297	297	297	296	295	298	299	295	297	297	296	297	298	300	298	299	302	304	306	306	304	303	298	295	293	289	288	290	292	294	299	299	298	297	301	299	300	301	301	300	300	301	301	302	304	304	305	302	299	297	298	299	302	302	300	298	297	303	301	296	297	294	296	299	299	298	296	295	296	303	303	302	294	295	294	293	296	296	298	299	299	299	298	298	294	292	297	300	299	299	298	296	297	301	301	298	296	295	298	298	298	299	300	299	297	298	301	300	300	297	295	295	296	297	298	297	294	296	296	297	296	296	298	301	303	301	298	296	296	300	301	299	296	288	290	290	291	291	291	293	295	295	294	291	289	290	291	303	304	303	302	302	304	307	304	301	294	300	299	296	294	294	293	292	295	298	301	302	300	305	300	298	295	292	290	293	296	299	298	299	297	293	289	292	297	298	299	297	295	294	297	297	299	298	296	293	295	297	296	297	296	294	291	289	291	291	291	291	295	295	297	294	297	298	296	297	298	298	299	300	300	297	293	293	296	296	295	293	291	291	293	296	297	296	292	292	293	292	295	296	299	299	298	296	292	291	302	300	299	299	299	299	297	296	290	290	290	298	293	293	298	295	293	291	294	298	298	296	294	292	291	290	290	287	289	293	293	290	289	289	292	289	290	298	297	296	293	291	290	290	292	293	290	291	298	297	297	296	295	293	297	296	296	297	297	298	299	298	297	293	296	296	298	298	297	297	296	297	295	296	295	293	291	292	294	294	295	298	299	300	301	298	296	293	292	293	292	295	297	295	290	293	292	293	297	295	295	297	296	298	300	293	293	294	295	291	296	296	299	291	291	292	292	292	292	292	290	289	292	292	293	291	290	289	290	293	293	293	293	292	292	292	292	293	296	294	290	288	290	286	289	288	288	288	289	290	292	293	294	292	290	284	284	287	289	291	293	294	294	292	293	293	294	294	295	294	290	291	290	288	289	290	292	294	294	293	290	290	291	289	289	294	293	290	292	291	291	291	290	291	292	290	288	286	288	290	290	292	294	295	294	294	293	289	287	286	287	288	288	287	289	290	289	287	288	284	284	287	289	292	291	289	289	288	289	291	291	287	291	292	292	292	292	291	292	292	290	287	287	292	290	286	288	291	290	290	289	287	287	287	287	288	289	288	290	291	293	292	283	281	281	282	284	288	288	290	293	298	296	294	288	287	287	287	288	287	288	288	289	287	285	287	283	280	282	282	0	0	0	0	0	0	0
283	285	284	283	285	285	291	294	293	293	293	293	293	293	293	291	283	282	280	284	286	286	286	289	289	290	290	291	289	289	287	288	290	292	294	296	296	299	299	298	297	295	293	294	294	294	289	290	292	296	298	299	299	297	297	297	297	293	291	291	293	293	294	294	293	294	293	293	294	290	292	293	294	294	296	298	299	299	296	291	288	289	291	294	288	290	293	294	297	297	299	299	298	299	299	294	294	295	295	294	292	293	295	297	293	294	296	298	298	299	298	299	301	300	305	306	306	303	302	297	295	292	289	287	288	289	289	299	298	298	297	296	295	296	296	295	297	300	299	298	297	294	296	297	299	298	296	297	299	299	297	295	292	292	295	295	294	294	295	296	294	294	294	294	296	297	296	292	288	287	290	291	292	292	294	297	298	295	295	293	293	292	291	291	289	286	288	294	294	297	296	294	294	295	294	294	295	295	298	299	299	297	297	297	299	293	293	292	293	295	295	295	293	292	292	291	293	293	293	292	298	298	297	295	293	292	299	298	297	290	287	288	288	290	291	291	291	293	291	290	286	286	286	288	295	298	300	299	298	296	294	286	287	288	290	290	296	293	293	293	292	292	295	299	299	302	300	300	297	297	290	289	292	295	296	296	295	293	291	290	287	292	295	294	291	288	288	296	298	298	297	292	290	295	295	295	292	288	290	290	290	289	289	289	290	291	291	291	290	289	291	294	295	295	298	298	296	297	296	293	294	296	296	293	292	290	290	293	295	296	294	293	291	291	294	294	297	298	298	296	295	291	290	300	294	296	295	296	295	293	295	294	292	294	291	291	288	288	288	286	287	291	294	295	295	292	290	288	285	283	286	289	286	285	284	292	291	292	293	293	295	297	296	293	290	289	291	292	294	292	288	289	292	291	292	295	294	293	293	294	295	294	295	294	296	297	292	294	293	293	292	293	294	297	296	294	293	292	292	290	288	290	291	290	293	294	295	295	293	292	290	291	289	290	294	287	288	288	287	287	286	284	289	289	286	290	292	288	286	291	295	293	291	288	291	292	288	290	292	289	290	290	289	282	283	289	292	292	292	291	290	291	289	289	290	292	292	290	288	290	289	290	290	289	287	286	286	287	286	286	287	289	289	290	290	291	288	285	283	283	286	287	289	291	291	293	292	291	290	290	289	286	285	284	286	287	287	288	290	289	286	289	289	286	288	289	291	290	290	291	288	285	286	287	288	287	288	291	288	285	286	287	290	291	293	291	294	290	290	290	289	285	284	279	285	281	285	285	287	287	283	281	282	283	288	289	289	291	289	288	288	287	289	287	286	285	291	292	291	291	289	289	287	285	284	285	288	288	287	288	290	289	283	287	287	285	285	284	283	286	287	289	288	292	284	283	280	279	281	284	286	288	287	289	287	294	290	285	285	285	286	286	285	286	284	284	284	287	288	284	281	282	282	0	0	0	0	0	0	0
280	280	280	281	283	283	287	292	289	292	292	292	292	291	291	283	280	277	284	285	284	286	288	288	286	288	290	288	287	287	288	287	282	280	284	290	291	291	293	290	290	292	289	286	285	285	286	288	291	293	293	295	294	295	294	294	293	292	291	290	291	292	293	291	291	292	291	294	294	290	289	289	290	293	296	298	298	295	294	290	288	287	287	291	288	289	291	291	292	292	297	296	295	292	292	293	293	294	294	292	291	290	291	292	292	293	295	298	299	297	297	299	302	303	300	306	303	299	298	297	295	290	289	289	286	288	288	293	295	295	295	295	294	292	290	292	293	291	295	293	292	292	293	292	293	295	295	295	296	297	294	290	289	289	294	296	293	290	293	294	293	292	294	295	296	297	294	290	286	287	287	288	285	292	295	295	295	291	289	285	290	290	289	287	286	284	284	285	281	285	282	291	292	292	291	293	295	296	296	297	295	292	293	292	293	292	290	289	287	289	290	291	293	293	291	288	287	288	288	288	286	285	286	290	289	289	296	298	296	287	287	287	289	290	290	290	287	291	290	287	288	284	285	286	287	291	293	295	294	292	290	287	287	287	287	287	282	283	285	291	291	291	292	293	291	289	287	286	286	289	288	284	283	285	287	289	289	289	288	287	286	284	283	282	283	281	282	286	293	294	293	287	287	292	287	282	281	283	283	287	289	288	288	289	289	290	289	292	293	287	284	286	286	290	291	291	289	294	295	295	294	296	291	291	289	289	289	290	293	293	293	292	291	292	294	293	295	295	296	294	293	290	289	289	291	291	291	292	292	295	294	293	292	293	290	289	288	288	287	285	285	289	291	288	287	285	285	283	281	281	285	290	285	286	287	291	290	291	294	295	290	293	297	292	289	290	293	292	292	285	282	286	286	290	291	294	292	288	289	290	291	292	290	286	283	291	290	290	291	292	291	293	293	297	293	291	292	291	289	288	286	289	291	290	289	290	286	288	293	290	287	287	291	289	289	286	286	287	287	286	286	286	285	284	284	281	279	282	285	287	292	291	289	288	287	287	287	288	289	290	286	283	282	282	282	282	286	289	288	289	289	289	288	288	289	290	287	288	286	286	286	284	285	284	285	285	285	285	285	285	286	288	288	287	288	285	284	283	282	281	286	287	286	287	285	283	289	289	288	286	285	285	283	283	281	281	283	285	287	284	284	283	284	285	285	286	289	289	289	288	286	285	283	284	280	281	281	282	278	279	279	279	290	292	290	294	288	288	289	291	288	286	281	280	281	280	284	285	283	283	280	280	282	282	290	290	291	291	289	287	287	287	287	285	285	285	290	292	291	288	281	283	285	281	281	283	287	287	288	288	286	286	279	279	283	288	282	280	282	284	285	287	288	284	282	281	279	280	281	284	285	283	282	286	286	283	282	284	284	284	283	283	283	282	282	282	280	283	284	284	286	286	284	0	0	0	0	0	0	0
278	278	279	281	283	284	284	288	287	287	289	289	289	290	287	280	283	283	285	286	285	285	286	286	284	286	288	288	290	290	291	289	282	280	281	282	284	284	284	284	286	287	282	282	284	284	285	288	287	288	289	290	290	290	288	288	289	290	288	288	290	293	291	290	290	293	290	288	288	288	288	288	289	289	289	292	290	291	292	289	284	285	285	285	287	287	289	291	290	289	289	292	291	291	290	292	292	293	293	291	290	288	289	288	287	290	294	296	290	291	292	298	299	299	296	292	290	290	293	296	293	290	289	288	287	287	287	288	290	294	293	295	295	292	290	290	292	287	290	287	289	286	287	288	289	290	292	292	293	292	292	289	288	289	294	292	290	289	290	290	289	289	289	288	287	286	291	289	284	278	281	281	282	288	290	291	291	287	286	287	284	288	288	286	283	282	282	281	285	284	283	280	281	283	284	288	288	289	294	293	291	289	287	288	289	289	288	283	281	282	285	291	293	291	287	288	283	283	284	285	286	285	286	284	284	287	290	292	289	285	285	286	285	287	287	284	285	288	286	288	287	284	285	286	286	288	286	290	290	293	294	292	291	287	284	281	283	284	285	287	289	289	285	283	282	282	282	281	280	284	286	272	279	280	283	286	287	286	285	285	283	283	282	283	281	282	285	284	285	286	286	285	291	290	284	281	280	282	287	287	287	284	285	287	289	289	289	291	283	283	288	291	292	292	285	282	281	281	281	281	283	285	284	282	282	284	285	286	286	285	286	286	285	290	291	292	291	292	292	290	288	289	289	288	288	290	290	290	293	290	293	292	289	289	288	287	285	285	286	284	282	282	284	285	286	283	283	279	277	280	280	287	287	286	284	289	286	289	294	292	292	287	288	288	286	286	287	292	292	285	282	285	281	281	281	281	282	284	286	288	287	288	289	285	287	284	286	287	288	290	292	291	294	291	289	287	288	288	288	286	288	290	291	286	283	283	281	291	292	290	285	286	283	283	287	285	287	288	289	290	289	286	284	283	281	280	277	278	279	289	288	288	287	285	286	285	285	286	287	289	284	281	280	281	280	279	281	282	284	281	280	288	288	287	288	288	285	283	282	277	280	286	286	287	286	284	283	285	284	282	283	284	284	281	283	281	282	283	282	280	286	285	284	279	279	280	280	282	283	283	284	283	282	282	279	278	279	278	285	284	283	282	285	283	283	283	280	279	279	280	283	284	285	286	279	277	274	279	276	279	281	282	286	288	287	287	282	281	288	292	289	280	278	279	280	278	279	282	281	278	278	278	281	281	282	288	283	285	283	283	285	284	284	283	284	281	288	286	287	286	280	279	278	280	280	282	284	287	285	286	287	283	283	278	280	283	281	280	281	284	285	283	281	275	275	277	278	280	281	281	282	281	280	281	280	275	274	282	282	280	281	282	282	283	285	284	282	276	276	277	277	277	282	0	0	0	0	0	0	0
274	274	278	281	283	285	285	286	282	283	286	286	288	288	283	280	283	283	286	287	287	284	283	283	283	283	284	287	290	291	291	291	285	281	282	282	282	282	281	280	282	281	277	279	284	286	286	287	287	285	285	287	288	288	284	282	282	284	285	287	289	292	290	288	289	291	286	284	285	285	287	289	291	289	289	289	287	288	287	283	281	280	282	286	284	285	285	284	282	282	282	286	284	285	286	286	289	288	288	288	292	292	291	290	287	287	287	287	287	287	288	290	292	288	285	286	280	288	289	291	293	292	289	288	286	286	287	286	287	293	291	289	291	291	289	283	280	281	286	284	285	286	285	284	284	285	286	283	285	287	289	290	288	289	291	288	286	283	284	285	285	286	287	285	284	283	282	281	281	281	280	280	283	285	286	288	288	285	284	286	285	285	284	282	280	281	280	280	285	284	285	281	281	283	284	283	284	285	284	285	284	285	284	285	288	289	288	284	278	280	283	288	291	290	287	285	282	281	284	283	285	284	284	285	284	283	284	285	285	281	280	278	276	278	280	280	282	285	283	285	285	283	284	285	282	282	280	281	281	280	279	281	284	284	283	281	280	282	284	285	285	284	283	282	282	280	281	281	280	286	282	281	275	279	280	282	286	285	284	283	282	282	282	281	286	284	284	284	285	287	286	286	289	288	284	279	280	281	284	282	283	279	282	286	287	286	290	283	283	283	279	283	288	285	284	277	278	279	280	279	281	284	286	284	282	278	279	279	279	284	285	286	282	282	284	281	282	283	284	285	280	281	285	282	286	282	282	285	285	287	281	279	281	281	282	284	284	284	283	285	283	283	281	281	283	280	277	276	276	279	282	288	286	285	283	283	287	286	290	289	288	287	287	288	287	287	287	286	287	286	284	282	281	280	282	279	280	282	285	285	286	283	284	286	282	285	286	286	287	290	291	291	289	283	286	283	285	284	283	285	281	281	281	282	282	284	285	286	284	285	283	286	286	285	283	283	284	288	290	291	288	285	282	281	277	279	276	275	275	276	276	278	280	280	284	283	284	283	284	287	287	280	278	277	276	276	277	278	279	279	278	285	285	285	284	287	277	275	275	275	279	285	285	285	285	282	281	282	279	279	281	281	279	276	276	278	279	279	278	278	278	278	275	277	276	276	279	281	281	282	282	280	281	280	279	278	279	279	278	282	281	283	282	281	280	280	279	278	277	277	275	279	281	283	280	280	272	271	277	279	280	281	286	286	284	281	277	279	279	281	280	278	276	274	275	282	280	276	279	277	277	277	279	279	278	279	275	276	278	274	278	282	281	280	277	277	279	284	281	280	274	273	272	274	277	280	280	282	281	280	281	279	279	276	278	280	281	279	276	280	279	278	278	279	278	276	278	279	279	280	279	277	275	274	273	271	270	270	274	275	277	278	283	285	286	282	282	280	273	273	274	274	275	0	0	0	0	0	0	0
271	271	278	275	279	282	282	283	277	278	282	284	284	282	280	281	283	279	282	284	284	283	280	280	280	281	281	284	286	289	289	289	286	287	288	287	278	278	278	277	277	277	277	276	278	280	280	285	283	283	281	282	286	285	283	281	281	282	281	283	282	282	282	280	279	277	273	276	278	278	281	286	290	290	287	288	284	282	278	278	279	280	279	281	282	283	284	283	279	278	277	277	276	273	278	282	284	282	282	285	286	288	297	292	288	284	284	285	287	286	287	288	289	286	285	283	283	280	280	285	287	287	287	286	282	282	284	285	285	285	285	286	287	288	284	282	282	284	287	286	287	287	285	282	282	281	282	281	283	284	287	285	286	286	283	282	284	282	281	282	284	283	284	283	279	277	272	275	279	279	279	278	278	282	281	281	278	284	285	285	286	284	282	279	278	277	278	278	279	283	286	281	281	281	281	279	280	281	281	282	277	280	280	283	286	287	286	282	276	278	284	288	289	289	287	286	283	282	284	282	281	280	281	284	283	281	281	281	281	281	279	278	278	278	278	277	279	279	282	283	282	281	281	279	279	279	275	279	280	279	275	274	274	277	281	281	281	281	284	284	283	283	282	281	279	278	282	281	282	281	280	279	279	281	283	283	282	282	282	282	281	279	280	278	280	281	285	285	285	283	283	284	287	287	284	278	279	282	279	279	279	281	281	281	280	276	276	277	277	280	280	280	280	280	279	279	278	278	277	278	276	277	284	283	279	276	276	275	277	281	278	277	276	277	280	280	279	280	283	275	276	279	278	276	276	277	278	282	283	280	276	276	279	280	281	281	282	281	280	281	278	281	284	283	274	274	276	273	273	276	278	277	276	275	273	281	283	288	284	283	281	282	282	282	283	281	278	281	281	279	280	280	280	280	278	275	274	279	283	283	279	284	283	283	280	282	287	288	281	279	278	278	277	282	281	279	282	282	279	276	278	278	278	281	283	283	281	283	283	282	282	284	285	283	282	283	283	281	285	282	280	281	279	278	277	278	275	275	274	274	273	275	276	276	276	281	282	279	279	281	277	275	276	277	277	277	276	277	277	277	278	281	283	274	278	276	274	273	273	278	280	279	281	283	283	283	278	277	279	277	279	278	277	275	275	275	276	276	278	277	275	275	276	275	275	275	277	278	279	280	279	278	274	271	277	278	279	279	277	279	278	277	276	277	279	279	279	276	275	276	275	274	275	279	281	279	269	270	274	273	273	274	275	274	277	279	277	276	276	279	275	274	273	274	276	280	281	277	277	276	276	276	277	273	269	268	270	274	274	274	278	273	278	277	274	273	276	279	279	277	273	269	270	271	274	276	277	278	277	278	278	278	278	277	277	277	278	275	277	273	275	278	277	277	276	276	276	276	273	272	275	274	271	269	269	269	266	266	264	270	272	274	279	280	280	280	276	275	278	275	275	273	274	0	0	0	0	0	0	0
270	270	274	274	274	275	275	271	272	270	273	279	279	279	278	278	279	275	279	281	281	279	278	279	279	275	272	275	278	284	284	286	287	284	278	275	276	275	275	276	276	277	276	275	278	277	277	277	279	279	278	279	282	282	280	279	279	278	279	281	281	281	280	280	279	277	274	274	277	277	277	280	284	281	283	281	283	279	278	274	277	277	278	282	282	282	282	277	279	279	279	278	278	276	277	278	280	281	278	276	274	274	284	282	282	278	280	283	285	286	280	282	284	285	284	282	282	280	279	279	282	284	286	285	286	287	285	282	282	282	283	285	285	286	285	282	282	284	284	287	288	286	283	281	279	281	280	278	281	282	286	286	287	284	276	281	284	283	277	279	279	278	280	280	278	275	273	273	275	276	278	279	278	278	277	278	278	283	284	281	278	278	278	279	278	274	274	275	275	278	278	281	278	276	275	276	276	278	279	274	275	278	275	281	280	280	283	279	276	277	279	288	287	286	287	284	282	280	281	281	280	279	280	278	280	278	280	280	281	279	277	277	277	277	276	277	275	272	277	281	280	279	279	278	277	276	276	275	276	275	273	273	272	273	274	276	278	280	281	281	282	282	281	280	277	278	280	285	284	280	278	278	278	287	282	280	278	277	269	268	268	269	272	276	276	281	281	285	283	281	283	283	283	280	277	278	279	280	281	281	281	280	277	276	272	272	274	274	274	274	275	280	281	282	281	280	277	276	276	275	273	274	278	281	276	274	274	276	277	276	277	276	274	274	276	277	278	278	281	276	274	277	273	272	275	275	275	275	274	279	274	273	275	278	278	278	278	278	279	279	279	275	282	282	274	268	268	271	269	277	278	275	275	271	272	273	273	272	273	277	277	278	278	273	278	277	277	277	279	279	277	273	271	268	270	267	269	270	280	280	279	280	280	279	280	280	279	279	280	277	276	274	277	278	280	278	278	279	274	273	275	274	278	278	277	277	274	272	281	281	281	282	282	282	282	280	275	276	278	279	273	276	275	275	276	276	275	275	271	273	274	274	275	276	273	273	277	275	273	272	272	273	277	280	279	277	276	276	276	273	277	270	264	262	266	268	273	275	274	274	276	279	278	280	280	279	277	275	275	273	276	277	274	274	275	276	275	275	276	274	274	274	276	276	274	274	276	276	277	276	277	276	274	272	272	271	276	279	275	273	272	272	272	272	275	277	276	275	274	275	275	274	274	276	278	277	277	266	272	273	274	275	273	273	271	272	273	274	276	276	276	272	269	269	271	276	277	273	272	273	274	276	276	270	269	268	267	270	274	275	274	271	272	274	272	272	273	277	276	274	270	270	272	273	272	269	271	273	276	277	277	277	277	276	275	274	274	272	272	275	273	274	273	270	269	274	275	275	270	272	272	271	269	267	268	267	267	265	263	263	264	266	267	271	276	276	272	275	275	273	273	271	272	0	0	0	0	0	0	0
