527	522	522	522	524	526	522	520	518	518	518	518	519	512	512	509	515	520	525	527	531	531	533	519	518	519	523	517	517	512	509	514	520	522	526	526	529	531	534	535	534	531	534	534	536	536	540	542	536	535	535	541	539	538	540	539	539	537	536	532	534	536	536	534	533	529	529	526	523	521	525	533	539	539	544	544	543	541	541	537	537	535	536	530	532	535	539	544	545	544	534	534	541	542	540	544	540	531	519	515	515	519	525	529	532	535	541	543	542	538	535	532	530	532	534	537	537	535	541	540	529	528	524	522	528	531	533	529	533	532	532	537	538	534	534	533	532	531	532	532	532	530	537	540	540	530	533	533	532	531	528	523	522	522	519	517	518	522	533	537	534	537	541	541	534	536	538	537	539	541	543	543	535	524	513	510	517	519	524	525	534	536	536	531	527	538	540	540	541	541	544	541	535	534	533	532	527	523	524	525	537	540	538	542	541	543	548	546	541	536	535	532	529	533	537	536	538	539	537	538	540	543	544	543	540	537	534	537	539	543	546	548	551	552	546	544	545	543	543	544	542	538	532	532	535	539	544	544	540	533	529	527	531	535	535	533	533	535	538	533	532	528	527	533	539	539	538	535	534	529	530	532	532	534	532	530	536	539	542	547	545	542	539	538	537	536	544	550	555	554	552	551	552	552	551	553	553	551	538	533	533	541	546	548	549	550	552	553	556	558	556	553	553	556	556	553	547	546	546	552	553	554	553	552	554	556	553	547	546	548	552	553	551	549	547	545	544	540	535	537	550	556	555	556	550	547	545	543	543	548	551	553	553	550	552	552	555	558	561	561	558	556	552	541	546	549	551	551	552	551	550	546	543	550	552	552	549	547	548	553	558	562	562	560	558	554	550	547	547	551	553	555	552	547	550	554	558	555	532	533	548	554	558	553	549	545	543	543	541	541	543	543	546	548	548	552	554	551	542	543	546	549	548	547	550	551	553	549	547	545	542	540	539	540	543	546	543	541	543	544	545	545	551	553	560	565	566	559	556	561	558	558	564	556	552	553	557	554	552	554	556	557	560	562	567	561	553	552	549	555	561	561	559	555	549	544	531	534	541	547	551	549	544	543	543	548	545	547	547	544	543	543	541	545	549	552	550	548	547	547	546	542	534	538	547	548	547	548	550	547	548	546	543	538	540	542	546	553	553	551	550	549	549	547	545	544	547	545	539	535	535	536	536	537	539	545	548	550	551	550	552	552	550	536	533	535	538	540	543	542	542	546	548	547	546	547	546	544	539	538	539	542	547	551	553	574	574	569	561	556	554	550	551	548	552	557	549	544	552	556	556	553	557	560	566	565	563	559	557	555	556	561	566	570	566	563	563	560	558	556	555	556	558	557	554	550	549	547	546	545	546	546	546	546	553	562	563	563	557	557	556	559	564	563	562	564	567	567	563	560	560	561	0	0	0	0	0	0	0	0
517	516	515	515	512	508	507	512	512	512	512	507	502	498	498	502	508	516	520	522	527	527	520	511	511	512	513	511	511	509	504	503	505	508	508	512	512	518	521	519	519	519	519	525	530	530	533	530	527	521	512	504	506	514	525	530	530	530	530	529	526	525	524	525	528	521	523	521	518	516	522	522	529	529	530	529	526	525	520	520	518	517	516	517	519	522	527	532	529	516	516	518	522	518	517	521	521	518	512	507	508	513	517	523	523	528	531	536	534	529	524	523	515	509	508	508	514	515	512	512	517	519	518	513	515	516	515	516	525	528	531	533	533	530	529	526	525	525	526	528	527	524	518	515	516	519	525	530	530	528	526	525	521	518	516	514	511	510	512	508	515	520	526	527	522	515	513	516	521	527	518	512	512	511	504	508	510	514	518	524	531	527	521	519	518	515	517	521	521	518	520	519	514	513	515	521	519	518	518	517	518	519	521	519	517	533	540	535	531	526	523	520	519	524	530	528	532	531	532	532	534	537	538	534	530	527	521	528	532	539	535	530	525	528	533	539	536	534	534	536	535	529	525	525	527	534	534	535	531	526	524	521	524	528	524	522	523	525	527	527	526	524	523	524	527	529	522	516	516	521	524	525	525	524	522	519	519	522	521	529	535	541	539	536	534	532	532	545	549	550	543	535	530	526	523	524	527	531	534	534	533	535	538	541	543	539	540	547	547	548	544	539	543	546	546	543	537	532	531	536	537	536	535	537	546	544	539	535	535	542	544	546	545	541	537	536	535	535	536	542	543	542	537	538	542	548	551	549	548	548	548	548	547	544	540	538	539	543	546	547	545	540	537	535	538	541	542	545	546	547	543	541	542	541	541	543	542	541	541	543	548	552	550	549	550	546	541	538	535	536	535	536	534	531	533	534	530	526	523	523	529	537	539	540	538	531	529	531	531	533	536	538	540	544	546	545	544	540	540	538	541	546	548	547	546	548	542	540	539	536	532	527	526	531	532	534	532	531	530	533	532	536	540	544	546	546	544	536	537	539	543	544	547	548	546	544	543	542	541	542	543	545	545	544	545	545	545	544	535	540	548	551	547	539	529	526	529	532	535	540	541	537	530	531	532	530	529	528	534	530	527	529	532	537	540	542	540	537	533	537	539	533	528	530	543	544	541	541	541	538	538	540	540	537	537	539	543	540	538	537	538	539	542	538	539	535	536	532	529	529	528	530	530	532	533	539	544	547	548	548	539	539	540	530	524	529	536	537	539	538	538	540	542	541	541	543	544	541	535	534	538	540	540	542	542	546	545	547	549	548	548	546	544	543	543	543	537	535	536	537	540	538	543	548	550	553	552	549	545	546	548	553	556	560	556	556	556	553	548	543	546	544	542	544	546	546	545	542	539	538	540	538	538	535	536	543	551	555	552	551	549	549	549	546	546	549	554	554	552	550	550	549	0	0	0	0	0	0	0	0
507	511	508	508	505	502	503	507	507	507	502	499	491	492	497	497	503	509	517	520	522	522	511	503	497	499	505	508	508	508	505	502	497	498	501	504	504	504	501	495	491	491	498	504	511	511	514	519	519	513	503	497	492	497	504	512	512	524	526	524	521	518	514	510	514	517	519	518	513	510	509	510	517	517	524	525	520	512	510	509	512	508	511	513	514	515	520	519	509	509	511	510	508	509	508	509	515	517	511	505	503	506	512	517	519	523	528	530	529	525	520	516	508	498	501	505	506	507	509	508	509	509	510	508	511	513	507	508	514	524	532	534	532	527	523	519	517	518	522	523	520	516	511	507	507	509	511	514	517	517	516	514	514	514	515	515	510	503	501	504	507	510	513	519	521	515	505	502	505	509	509	508	505	505	513	516	522	522	519	521	519	514	513	508	506	507	510	509	509	508	508	506	508	506	507	513	512	511	509	507	507	506	505	503	504	506	504	505	520	515	509	507	510	519	515	517	519	521	525	524	527	529	530	529	522	516	511	515	521	523	520	518	518	521	526	528	527	525	526	528	526	522	518	515	516	524	526	527	524	520	515	515	520	523	520	518	517	517	520	522	521	519	518	518	519	518	515	510	512	516	517	517	515	512	510	509	508	510	514	524	530	534	531	525	519	514	529	540	542	539	533	528	523	522	519	518	519	523	528	530	530	530	534	536	536	532	531	535	537	534	535	535	537	538	538	537	530	525	522	525	529	531	527	526	523	523	522	524	528	535	536	537	536	536	533	531	528	531	532	534	536	533	528	529	534	537	540	540	542	541	539	538	537	534	529	530	531	534	535	536	533	531	527	523	524	530	534	538	539	535	536	534	536	535	534	533	536	533	533	536	540	540	536	537	538	540	540	535	527	525	522	516	517	520	518	521	521	519	516	516	517	524	527	528	523	520	515	514	517	521	526	532	537	541	537	531	527	524	523	525	527	529	533	531	530	529	524	529	528	525	519	517	519	522	522	521	521	523	524	524	528	531	539	541	535	526	515	513	514	514	515	523	524	526	529	530	531	532	532	532	531	533	535	534	533	531	534	529	528	533	542	539	535	528	526	525	527	529	528	531	531	528	523	520	519	518	520	516	514	515	516	519	523	526	531	533	531	527	525	526	527	524	520	521	527	532	532	534	533	526	519	521	529	531	527	524	519	518	515	509	511	518	527	529	528	528	525	523	523	522	522	526	524	524	524	530	535	539	539	531	531	532	529	518	522	525	530	535	532	533	531	533	534	534	537	538	540	535	531	532	537	538	535	532	531	539	536	536	536	539	541	538	538	536	533	533	530	530	532	530	528	529	531	533	532	537	540	540	537	540	544	549	550	547	532	534	540	547	540	541	538	534	531	533	539	541	540	539	536	537	538	535	535	530	524	527	531	540	543	543	544	544	542	541	540	545	549	550	545	542	542	542	0	0	0	0	0	0	0	0
499	499	497	497	495	495	497	499	498	498	495	490	487	489	495	495	500	504	508	513	514	496	496	491	485	485	490	500	500	502	499	491	490	490	493	496	496	496	493	489	486	485	488	491	497	497	499	502	509	507	499	493	491	485	483	490	498	498	504	510	510	502	498	498	504	510	513	514	509	499	496	497	503	503	510	511	509	505	504	506	507	509	511	511	510	509	509	506	502	506	505	505	504	502	504	507	513	515	511	502	497	501	503	503	506	512	516	515	513	508	505	504	500	498	501	505	503	503	504	502	500	502	502	504	506	509	502	503	507	515	519	519	519	517	514	514	513	513	511	511	509	507	504	502	503	503	503	506	508	508	508	508	508	509	509	507	505	500	498	499	503	505	510	514	518	504	496	494	496	498	502	502	501	501	507	518	524	523	519	516	504	498	492	498	502	503	503	501	502	502	499	496	498	495	500	503	505	503	499	496	494	495	497	499	503	503	502	499	493	490	492	494	506	507	506	505	504	509	510	513	515	517	523	520	515	507	500	500	508	514	516	517	516	518	519	521	519	518	518	518	516	511	509	504	503	504	513	515	509	508	509	513	517	520	517	511	507	505	505	498	499	501	507	509	511	512	508	510	513	514	513	509	504	500	500	501	500	503	511	509	507	508	508	507	504	497	494	493	521	521	523	520	519	518	516	513	512	512	503	505	509	522	526	528	530	525	523	522	523	525	528	529	532	532	534	533	524	518	518	518	522	523	516	510	509	511	509	516	526	528	529	530	531	532	530	525	523	522	525	527	528	523	519	519	521	524	525	527	531	529	527	528	526	524	520	520	520	521	521	524	524	520	518	518	518	518	524	524	531	523	520	517	521	526	523	520	520	520	519	517	520	523	525	522	522	522	522	518	516	516	504	505	499	510	515	515	512	509	507	509	511	515	518	516	513	507	505	505	508	513	518	522	521	519	519	517	517	518	519	518	518	520	523	523	521	517	513	513	516	516	507	506	506	514	514	509	513	516	518	521	522	525	517	510	508	509	507	505	508	510	508	507	508	515	519	520	522	526	526	524	521	523	526	526	527	525	525	522	522	521	525	528	523	505	506	523	523	524	523	522	520	517	516	509	510	510	511	509	503	505	511	515	516	517	518	522	521	521	518	518	517	513	510	511	517	523	525	523	504	499	498	498	515	520	518	514	511	508	505	503	503	505	507	513	521	519	518	515	511	516	517	521	521	521	519	520	523	524	518	519	522	519	517	511	520	522	525	528	528	523	525	525	527	528	530	534	533	527	527	530	535	535	530	521	521	530	524	524	524	525	527	529	531	530	528	526	526	529	528	525	524	518	512	514	520	522	527	533	535	538	541	541	534	527	523	523	522	526	527	528	527	526	524	522	523	528	531	538	541	537	535	532	532	525	520	521	532	536	533	533	535	535	537	538	538	539	545	544	537	534	534	532	0	0	0	0	0	0	0	0
489	486	483	481	481	484	487	491	490	490	490	487	488	492	493	493	497	488	489	490	496	483	483	480	478	476	478	482	482	487	489	488	482	479	483	490	490	485	481	479	480	483	485	488	492	492	498	500	499	500	497	497	494	484	478	478	487	487	494	496	491	486	488	490	494	497	496	499	500	500	498	496	497	498	498	496	496	492	490	487	487	491	496	505	506	506	509	512	507	501	499	498	499	501	504	505	508	505	493	484	485	489	494	493	494	498	496	495	495	495	492	496	497	500	504	503	501	500	500	499	495	493	491	495	500	502	491	488	491	496	501	506	503	503	503	504	504	502	498	496	493	495	495	498	499	498	494	493	502	503	501	501	502	502	501	501	499	497	495	496	498	499	497	501	502	495	492	492	492	487	488	493	494	494	495	501	510	516	512	506	492	492	492	493	496	500	499	497	497	498	495	493	490	488	492	494	497	495	493	487	487	489	492	497	501	503	501	500	497	491	487	488	498	503	500	494	491	492	495	500	503	502	500	499	496	494	491	491	495	504	513	512	508	505	505	506	504	498	494	496	497	496	493	496	494	494	494	499	503	505	507	509	510	504	501	497	491	488	488	488	490	494	496	497	502	500	506	508	509	506	505	503	499	497	499	499	502	503	504	500	493	488	498	500	501	496	489	489	504	509	511	510	511	509	510	504	498	498	495	496	501	507	517	521	521	518	516	515	506	505	503	507	517	526	527	521	507	502	505	509	511	511	506	506	507	508	511	512	522	523	521	515	516	521	519	516	515	513	515	520	522	512	509	512	513	512	511	513	517	519	518	518	517	515	513	514	514	514	511	513	516	514	513	509	505	504	504	508	509	508	504	505	506	505	508	507	503	498	495	497	507	512	516	520	520	517	514	513	512	509	499	494	501	507	509	500	496	493	494	501	506	509	508	505	500	497	497	498	503	509	506	501	496	493	492	495	498	499	504	511	514	515	516	515	511	505	502	501	503	503	494	495	492	496	498	496	494	507	509	513	510	507	505	502	499	498	499	500	499	503	501	501	502	505	508	511	514	516	518	515	514	513	513	513	519	523	520	514	513	511	509	500	490	485	490	499	517	518	516	515	511	509	506	504	504	505	505	504	500	500	507	512	511	506	508	509	512	516	513	509	506	498	495	500	511	517	516	505	500	494	490	491	500	504	506	503	505	507	507	504	500	497	498	503	505	507	504	507	507	509	514	518	518	516	514	517	518	512	507	506	510	512	513	507	505	513	517	517	514	512	509	515	519	522	524	519	518	518	506	513	511	510	506	508	507	507	504	500	500	500	504	515	515	512	505	500	500	508	509	503	496	491	491	498	502	505	509	513	514	525	525	528	523	515	515	514	513	514	517	518	519	517	517	516	510	507	507	510	517	530	522	514	514	510	513	526	528	524	520	515	515	523	529	533	529	524	519	515	511	512	512	522	0	0	0	0	0	0	0	0
479	474	472	470	470	474	478	481	485	485	487	488	489	489	490	490	483	483	483	481	479	479	474	474	473	474	475	478	478	484	487	484	480	473	473	473	473	475	474	473	476	480	483	487	489	489	492	489	484	485	483	479	479	478	477	478	480	480	484	485	479	473	470	476	481	489	492	492	489	486	486	487	487	488	488	488	487	486	484	481	480	482	484	490	499	498	494	495	492	492	491	487	485	488	497	498	498	490	479	478	479	483	487	487	490	490	488	485	483	481	481	483	492	496	499	500	499	498	497	497	494	490	486	486	486	487	483	485	488	491	494	491	489	493	494	496	493	490	488	488	492	489	491	492	493	493	494	494	495	495	492	492	493	492	492	492	494	490	484	480	481	485	481	481	485	491	491	489	484	483	484	484	485	487	488	491	497	501	499	493	484	485	485	485	488	492	493	492	490	493	495	492	487	483	483	484	482	483	483	483	481	483	487	489	491	493	494	495	496	491	484	484	488	487	486	489	489	492	492	495	497	497	496	495	494	493	493	492	498	510	507	501	499	497	494	494	493	492	493	496	498	493	486	483	489	494	500	501	502	502	501	503	503	497	494	491	487	486	487	487	487	487	488	490	493	492	501	504	504	500	495	496	498	499	495	496	492	494	499	495	489	483	483	486	489	489	486	487	491	502	500	496	490	500	498	499	497	495	494	494	497	500	507	511	506	502	499	496	488	495	498	499	500	508	509	506	496	490	492	497	499	500	497	500	500	503	499	501	505	510	503	502	507	501	506	505	503	501	497	495	498	501	502	503	505	507	504	502	504	511	514	513	511	511	512	509	505	503	500	507	511	510	504	500	497	499	500	501	501	498	496	495	497	499	499	499	493	492	491	492	493	499	507	512	510	512	505	505	496	489	486	487	492	494	492	493	491	490	487	489	489	492	495	494	492	490	492	494	499	497	495	494	495	493	490	488	486	487	485	498	505	510	510	509	502	498	493	494	498	488	485	486	489	491	491	489	486	490	492	497	500	500	497	491	491	490	491	492	494	487	488	488	490	493	493	495	500	504	510	506	505	493	490	492	486	488	500	502	504	501	492	485	481	483	487	494	505	508	510	507	504	500	498	497	498	498	498	498	495	495	497	501	499	500	498	494	491	493	503	501	493	488	489	489	492	497	495	492	491	491	489	492	493	492	493	493	494	500	502	501	498	496	492	494	496	500	499	493	486	493	500	509	509	508	508	509	507	506	503	505	506	506	509	502	496	497	499	500	494	495	492	492	491	494	493	492	489	494	494	489	490	489	487	487	487	489	491	491	493	493	498	505	506	502	497	491	493	495	495	492	487	486	484	489	497	496	492	489	491	496	498	498	496	497	499	497	497	504	505	505	507	506	508	504	504	504	501	502	507	510	514	514	509	509	512	514	510	509	505	502	503	507	509	507	506	504	503	505	503	499	499	496	0	0	0	0	0	0	0	0
475	470	466	463	463	466	468	473	477	477	481	486	488	485	475	475	476	481	481	479	472	472	471	471	474	473	475	475	475	480	480	482	478	472	470	468	468	469	466	466	469	474	478	476	475	476	476	476	477	478	476	476	471	470	472	475	478	478	480	476	471	468	467	469	472	479	483	484	483	483	483	481	477	477	477	476	478	481	479	479	479	480	482	479	478	477	478	479	481	483	484	482	480	478	482	486	488	478	476	473	480	479	481	484	489	491	488	482	476	475	474	474	475	482	490	490	492	495	495	495	493	493	489	485	480	476	482	482	484	485	486	483	480	483	486	489	488	486	486	487	489	491	491	491	492	492	493	496	489	485	484	483	483	482	483	482	483	482	478	473	475	476	475	474	474	487	487	485	478	479	476	479	483	487	486	488	491	494	487	480	474	476	478	479	482	486	484	481	481	479	477	473	471	469	471	476	478	476	477	479	482	485	487	486	487	484	486	490	491	487	481	479	480	481	480	475	474	485	487	488	488	488	487	488	490	490	492	494	499	489	489	493	491	490	488	488	489	489	493	494	493	488	481	481	487	494	497	494	490	484	483	483	486	489	486	484	483	484	487	488	485	481	476	476	480	486	491	496	496	493	490	490	494	492	491	490	487	488	494	491	483	482	483	482	484	483	481	480	484	485	481	485	486	480	485	492	495	493	493	492	495	498	501	501	499	491	487	484	484	487	491	492	492	494	495	494	489	488	484	483	490	487	488	488	490	483	488	492	495	495	490	489	491	492	492	498	497	493	490	491	493	492	492	494	497	502	502	500	496	498	502	507	508	508	508	501	496	493	489	487	490	491	493	492	492	496	495	495	492	487	487	486	489	492	495	493	489	486	487	486	485	488	495	496	492	491	484	482	480	483	482	484	486	485	485	483	482	478	474	473	473	478	478	476	478	479	481	481	480	480	480	480	489	487	486	483	480	477	475	479	485	486	490	493	492	489	485	482	481	481	482	484	487	487	489	486	480	475	481	484	489	491	491	486	482	478	477	477	481	481	480	481	478	475	474	474	475	488	499	506	499	489	483	480	480	481	482	497	491	489	483	477	478	481	487	489	487	499	503	504	501	496	491	490	490	490	491	489	489	486	482	482	484	486	488	484	477	476	482	482	482	481	484	486	490	492	491	489	488	487	485	488	481	480	479	482	484	491	494	494	492	489	484	485	489	490	488	482	478	472	479	486	490	493	499	502	502	500	500	499	498	487	489	485	481	483	494	496	493	486	484	483	486	488	487	482	477	473	471	474	478	480	480	479	478	481	483	487	487	488	486	486	486	486	487	488	490	493	495	489	486	482	481	484	489	490	486	483	485	486	488	489	489	486	486	487	487	488	489	490	491	490	491	498	498	499	497	496	499	503	506	506	500	499	502	503	502	498	493	494	498	498	498	495	496	498	501	502	500	500	498	501	0	0	0	0	0	0	0	0
474	468	463	461	461	460	462	464	465	465	474	477	474	471	470	470	471	478	478	472	469	467	467	469	470	470	470	465	467	467	473	473	473	469	465	464	464	460	458	462	466	471	472	470	467	467	467	469	471	474	473	470	468	467	469	474	479	479	480	475	471	470	470	473	475	474	474	480	480	480	480	478	475	473	473	471	472	474	476	478	478	477	475	473	469	466	466	468	471	475	475	474	473	472	476	478	466	466	467	471	470	469	468	465	472	472	471	470	465	458	450	450	451	454	460	464	467	468	475	479	479	478	475	475	470	465	468	470	476	476	472	477	475	475	479	480	476	479	481	484	487	488	485	486	486	489	487	475	465	468	472	474	476	476	474	474	477	480	478	475	474	471	469	466	466	476	483	477	476	471	472	473	480	486	487	486	485	483	480	471	467	466	469	471	470	471	474	475	473	473	472	471	469	467	470	474	477	474	476	479	481	481	478	476	474	475	479	484	483	482	479	472	472	479	479	479	472	469	471	479	480	479	477	479	480	481	489	489	479	481	479	476	478	480	481	482	483	487	490	491	489	485	482	479	478	482	489	488	485	478	476	473	475	475	474	474	478	480	485	485	484	480	474	474	476	480	480	484	487	486	483	484	487	488	485	478	475	477	477	478	476	476	477	478	480	480	478	477	477	476	472	470	474	480	479	482	484	489	490	488	491	493	495	490	487	484	482	481	481	483	483	482	480	480	480	480	477	476	478	479	479	473	471	472	472	473	474	479	487	485	481	480	481	481	482	485	481	483	484	488	490	488	487	488	490	494	498	493	490	489	489	494	502	510	501	497	490	488	474	473	482	488	489	489	483	485	485	483	482	482	481	481	483	484	490	490	487	483	478	480	478	479	482	479	480	482	480	477	474	473	479	480	479	477	475	472	471	472	473	475	474	471	469	469	471	475	476	478	478	479	479	479	477	472	473	474	475	473	473	473	472	470	474	474	479	476	473	473	475	477	476	476	475	474	473	470	469	466	467	477	480	486	488	483	476	474	472	470	475	478	482	479	478	477	474	470	471	474	478	482	469	470	473	476	475	471	468	468	468	471	470	469	472	477	480	482	480	477	476	478	485	488	486	487	486	486	486	485	485	482	481	479	479	479	477	474	471	469	474	475	476	476	476	479	484	485	485	483	482	481	481	477	480	480	481	484	484	487	486	486	481	479	479	480	482	484	485	480	473	471	473	480	482	482	485	479	480	483	482	480	479	480	480	480	480	481	486	488	486	480	480	481	488	493	491	483	475	468	464	465	471	476	475	470	474	474	478	478	477	476	471	473	476	482	480	478	481	484	492	489	483	476	474	476	480	484	481	477	475	477	478	477	478	479	478	478	480	483	481	478	476	482	487	487	485	482	482	497	499	499	495	495	489	489	493	493	493	488	486	488	491	493	487	488	488	489	490	493	494	494	492	494	0	0	0	0	0	0	0	0
467	463	457	454	454	452	455	459	460	460	468	468	464	463	466	466	472	476	476	465	458	459	459	463	463	459	454	453	453	453	461	463	464	465	459	455	451	451	453	458	464	468	466	463	459	461	461	465	469	472	469	468	466	466	469	473	477	477	477	474	471	470	473	472	471	470	470	471	474	477	476	475	471	468	466	466	467	468	470	474	471	467	463	462	459	459	458	460	462	458	459	460	461	457	457	458	460	462	458	457	456	454	455	459	465	469	469	469	465	457	453	453	446	444	444	440	441	443	450	458	467	467	467	465	460	457	461	464	463	469	465	464	460	455	454	453	453	456	459	461	473	471	471	476	475	474	466	462	460	465	469	470	470	470	471	471	471	473	474	462	460	462	461	459	460	465	470	463	460	458	459	464	468	470	475	477	478	477	473	469	464	460	463	463	462	465	467	469	468	468	468	469	467	467	468	472	475	469	468	469	473	474	471	466	464	465	469	473	472	469	463	459	462	477	479	475	464	459	465	467	465	466	469	471	470	471	471	470	469	469	470	467	469	472	476	478	480	480	478	483	481	481	478	475	470	470	474	482	480	475	470	468	472	473	472	474	476	481	484	481	478	474	471	470	473	475	475	478	478	477	478	477	476	466	458	456	459	462	466	466	467	467	469	472	473	473	476	474	472	469	466	463	462	463	459	465	469	465	467	464	478	483	484	483	481	479	479	479	479	479	479	478	476	475	474	466	466	467	465	472	470	463	464	464	465	463	465	472	477	478	475	471	470	471	471	471	471	476	478	482	483	481	480	477	476	480	484	486	484	479	479	486	487	488	485	478	466	464	467	469	471	476	484	480	481	485	481	482	480	483	481	480	480	479	477	479	483	481	478	471	472	468	470	469	471	470	469	469	467	465	459	458	457	460	462	464	466	468	463	464	464	464	464	466	464	466	471	474	474	476	477	478	478	475	470	471	471	470	469	469	472	475	474	465	461	460	463	464	466	473	472	472	471	470	467	467	465	463	462	462	458	455	454	459	470	467	469	470	474	477	477	476	476	477	473	466	467	469	462	460	461	463	467	471	471	462	457	456	457	464	467	464	461	462	463	467	470	464	462	460	461	463	474	482	486	484	479	475	470	471	474	476	474	473	470	467	464	464	468	470	470	470	469	474	476	478	476	474	475	475	475	472	475	475	478	481	482	481	479	475	473	473	473	474	476	481	480	475	468	467	463	465	467	468	464	461	464	465	468	470	471	471	474	477	475	476	480	480	477	475	475	481	490	491	488	481	472	464	459	461	467	470	470	465	466	473	475	472	470	465	463	466	467	468	464	473	474	478	481	479	474	470	467	464	464	468	471	468	468	466	466	465	467	471	472	471	472	471	468	466	469	475	481	481	480	478	474	475	475	472	472	479	478	481	483	485	483	482	480	482	485	485	480	483	487	486	482	480	480	480	478	479	0	0	0	0	0	0	0	0
455	452	449	446	446	447	451	452	456	455	455	450	450	456	464	464	471	475	446	445	448	447	447	445	445	445	444	443	448	448	451	455	457	460	459	450	446	446	447	452	460	461	459	456	452	454	454	461	467	468	464	462	462	466	464	469	469	468	468	460	460	462	465	465	465	466	467	467	468	471	471	468	463	460	460	460	460	463	464	466	465	460	458	457	456	456	453	451	449	452	453	453	448	446	445	449	456	458	457	453	451	451	453	456	462	464	466	464	458	453	453	452	449	447	438	434	434	439	446	453	456	456	455	448	445	440	445	447	451	451	449	445	449	451	451	452	449	450	454	455	452	452	450	451	457	456	462	455	454	464	466	464	460	461	466	467	464	463	460	452	452	452	453	453	454	457	457	457	453	451	450	455	461	465	465	470	474	475	470	466	461	460	458	455	454	456	457	462	461	462	465	466	465	463	463	467	471	465	461	461	464	463	459	455	454	458	462	464	463	458	457	459	459	452	450	451	453	454	451	453	461	461	463	462	464	462	460	461	459	464	463	462	465	470	470	470	468	468	468	468	469	468	468	462	461	460	464	472	473	471	466	466	469	467	459	459	465	470	475	473	470	465	464	463	462	469	471	469	461	462	462	461	463	457	454	453	454	457	459	458	457	457	457	460	462	465	469	472	471	460	458	458	458	455	454	451	453	458	459	454	450	450	473	471	468	469	471	470	471	477	478	475	474	471	468	466	466	464	461	455	455	458	461	463	464	461	461	465	470	473	469	465	462	461	463	463	464	465	469	473	470	465	465	464	464	461	466	464	462	459	460	459	461	462	463	464	468	467	464	469	470	473	475	476	480	482	480	472	471	473	480	476	472	474	475	475	477	480	451	459	461	464	464	460	457	457	461	464	463	461	451	451	457	454	450	450	453	455	454	454	454	457	460	459	461	461	462	463	465	465	466	471	467	469	468	467	466	462	461	464	465	472	463	458	454	452	463	465	464	462	469	468	465	463	462	460	458	458	460	459	456	455	451	451	457	458	457	456	460	467	470	472	473	474	472	466	462	462	461	459	459	460	463	463	462	458	445	449	455	462	465	466	463	460	459	457	462	458	461	461	461	460	459	470	477	477	467	457	459	462	465	465	464	464	463	462	459	459	462	466	465	464	463	466	470	470	465	463	466	469	469	468	469	471	475	475	475	474	470	468	466	467	468	470	468	470	460	464	461	458	456	458	460	462	461	457	456	460	462	463	463	462	465	464	463	464	467	470	471	469	471	482	482	478	476	468	462	459	458	461	466	468	466	465	465	472	471	468	463	460	458	460	460	459	458	457	456	469	470	470	462	461	461	461	460	460	462	463	462	459	458	459	460	460	462	463	459	455	456	461	464	470	474	475	474	473	471	471	473	473	473	471	474	477	480	482	482	480	480	480	475	467	471	477	481	484	480	476	472	472	471	473	0	0	0	0	0	0	0	0
440	438	438	441	441	444	446	445	446	445	445	446	447	447	449	450	450	448	441	442	443	443	443	443	443	443	443	442	443	443	446	450	455	452	452	448	445	445	446	450	450	452	450	446	447	452	452	457	462	461	456	455	456	462	462	460	454	453	453	448	447	449	454	457	459	460	461	461	458	457	460	460	453	448	446	446	447	455	459	459	450	449	449	450	453	453	453	449	447	448	447	447	443	439	440	443	446	443	453	450	450	450	452	456	459	461	460	456	452	448	448	448	443	444	440	433	431	434	439	442	442	441	441	443	439	435	431	436	437	440	444	441	443	447	448	445	444	444	449	446	442	440	441	442	444	446	446	444	445	445	446	445	453	455	461	463	461	459	453	452	452	451	451	449	453	457	456	451	447	442	445	450	455	458	453	453	465	469	464	461	456	451	450	449	447	448	449	455	456	457	456	455	452	451	456	457	453	448	448	448	452	454	453	451	451	451	452	452	450	449	452	452	450	445	437	438	442	445	446	448	448	450	449	450	450	450	454	453	454	458	448	451	460	462	467	464	462	463	460	459	457	458	457	454	455	457	459	460	464	462	458	459	461	459	456	442	446	453	459	460	458	456	453	450	450	452	455	456	456	450	449	449	449	449	447	450	452	453	454	452	448	447	446	449	456	459	460	459	456	455	450	448	454	453	449	444	446	450	447	445	445	446	446	447	448	460	460	459	465	467	474	469	467	463	463	462	454	456	456	456	452	451	455	458	461	458	458	460	461	464	464	460	457	456	456	453	453	457	458	463	466	467	463	457	452	449	447	453	455	454	453	457	457	457	457	460	460	461	464	469	467	464	459	461	465	468	465	462	461	461	461	462	468	472	471	445	443	443	444	447	448	453	453	452	449	449	451	451	451	453	452	454	453	453	453	452	452	451	452	453	455	454	455	449	452	456	455	455	455	459	460	460	461	457	454	454	455	455	454	454	457	456	455	452	451	453	460	464	458	458	456	456	455	456	453	452	449	455	453	453	454	453	450	446	446	445	448	445	442	447	455	465	466	468	459	458	455	456	457	456	455	455	456	454	452	450	443	445	450	454	459	464	460	458	455	453	447	442	441	446	458	458	456	456	455	453	454	451	454	457	458	456	454	452	451	454	456	454	456	460	465	465	462	461	463	463	460	457	456	461	466	464	463	461	464	462	466	464	463	462	463	461	462	460	456	456	448	447	450	446	439	440	450	454	456	454	449	455	461	461	457	455	456	458	456	456	456	457	459	459	464	465	458	456	461	457	455	457	460	464	465	465	464	461	461	459	461	460	457	456	456	456	455	454	455	450	450	459	460	456	454	457	456	454	455	456	459	458	454	451	450	450	453	453	452	453	455	456	453	456	460	457	452	461	467	469	467	466	468	468	468	466	465	465	465	462	461	476	473	469	460	458	460	466	475	479	478	474	469	469	469	470	0	0	0	0	0	0	0	0
425	426	432	437	437	435	436	437	438	440	440	441	443	444	444	444	444	442	434	437	440	442	442	442	442	442	442	442	441	441	444	447	447	447	446	444	444	444	445	445	445	444	443	441	444	449	449	455	452	449	447	442	440	441	443	444	439	433	433	440	444	444	445	447	450	452	455	453	450	448	449	452	450	442	437	437	438	437	444	445	444	444	445	446	448	449	447	444	448	448	448	445	439	436	437	440	442	439	435	444	447	449	441	442	443	449	452	450	446	442	439	440	439	436	434	432	432	434	438	440	439	437	436	436	434	431	427	426	431	435	435	439	441	444	443	440	438	439	439	437	433	433	434	437	437	441	444	445	445	438	436	441	442	444	449	454	458	450	449	451	451	452	452	451	453	455	446	439	436	436	441	447	451	452	449	447	447	457	457	452	448	446	447	443	440	437	431	435	444	446	446	445	443	442	441	443	442	440	441	442	444	448	446	441	441	443	447	447	446	446	443	441	442	439	434	437	441	443	438	436	436	435	437	439	438	435	436	436	444	445	448	449	455	456	453	452	449	447	450	453	454	454	452	450	451	451	451	452	452	450	450	451	455	453	449	440	443	449	448	449	450	450	449	447	446	442	440	441	446	443	444	444	441	441	442	445	447	447	440	442	442	442	442	445	450	454	455	450	440	434	434	440	449	447	446	444	442	442	440	440	442	441	441	442	443	446	450	447	453	458	460	462	459	456	455	451	445	445	446	455	454	456	452	445	447	447	446	444	445	450	455	456	453	449	446	445	448	451	456	461	468	465	461	457	454	449	453	452	450	445	445	451	453	454	453	451	442	443	446	451	447	446	447	449	450	450	450	454	454	451	445	447	440	442	442	440	440	441	443	443	441	438	433	436	442	442	439	442	444	449	451	450	449	450	448	449	449	448	450	450	448	443	440	441	444	449	448	447	447	446	447	454	454	452	450	450	450	448	448	451	453	452	451	449	446	450	449	448	447	443	442	442	443	436	439	444	443	444	448	449	449	448	445	443	443	440	441	436	436	444	451	456	460	463	460	454	450	450	450	452	451	449	448	444	441	442	442	441	444	447	450	453	457	455	451	446	439	435	437	438	448	454	453	449	447	447	448	448	451	453	456	456	451	449	447	447	447	448	455	458	461	461	459	457	456	460	459	458	456	458	452	450	450	450	451	450	450	451	451	455	459	462	462	457	454	439	439	440	443	444	442	442	443	447	450	448	445	442	447	454	448	446	452	454	454	454	452	453	449	446	447	448	447	446	446	446	451	457	457	461	462	462	460	458	456	453	453	452	450	449	450	451	450	449	450	453	451	451	451	450	453	457	454	450	451	450	448	447	451	447	447	448	449	449	449	452	454	455	457	455	452	452	446	446	448	451	455	452	453	454	454	457	460	461	454	445	442	443	450	454	454	454	457	454	456	460	463	467	467	465	462	460	0	0	0	0	0	0	0	0
423	428	434	433	431	431	429	429	429	434	434	436	440	439	436	436	436	436	428	430	433	438	438	439	440	439	439	439	440	440	441	443	442	440	439	439	441	441	441	442	441	440	437	438	446	451	446	446	444	441	439	436	436	436	437	433	423	429	429	438	443	442	442	444	445	446	448	447	443	442	443	443	444	435	428	426	426	431	436	439	437	436	437	441	442	440	436	432	432	433	435	436	437	435	434	437	436	429	427	427	440	441	433	430	429	436	440	443	439	436	434	433	434	433	432	431	432	432	435	435	434	433	430	427	427	426	423	428	432	433	432	431	437	440	436	434	434	433	431	428	426	425	428	433	437	439	441	444	442	435	431	429	429	430	430	431	430	433	435	434	433	446	449	445	441	439	431	435	436	437	436	438	442	443	442	441	441	441	449	446	442	444	443	439	434	430	429	432	438	438	435	435	435	436	437	441	442	441	434	432	434	434	431	429	422	431	438	442	441	439	435	434	434	435	434	437	436	437	434	433	431	431	431	429	424	423	429	433	440	440	447	445	446	447	444	443	438	436	445	450	451	452	449	446	447	447	445	445	445	446	448	447	448	448	445	439	442	443	442	442	444	444	443	441	439	438	436	434	439	441	444	442	441	440	441	441	442	432	431	433	440	442	442	443	449	453	450	446	440	436	437	437	440	442	442	441	438	436	434	436	440	440	438	439	439	440	442	442	443	443	442	439	448	449	449	444	438	435	440	451	454	451	445	445	448	449	448	440	438	435	438	450	449	439	439	443	444	443	442	448	457	460	450	450	449	450	448	448	446	441	440	444	447	444	444	439	439	441	440	441	442	443	444	445	446	447	446	447	445	440	439	436	435	436	435	436	437	438	440	440	437	433	428	424	423	431	431	435	444	446	447	446	445	445	445	446	445	445	444	445	441	438	435	436	437	440	439	440	441	440	439	440	441	446	442	442	440	440	440	436	439	442	446	445	443	444	444	435	432	433	435	435	436	439	438	439	439	442	443	443	443	441	439	437	433	430	430	428	431	438	446	455	461	460	456	451	446	434	431	434	443	439	438	432	430	431	436	439	440	441	446	451	452	447	443	439	435	437	435	435	435	437	435	431	430	429	431	437	444	448	451	451	448	445	441	438	440	444	453	454	451	447	450	450	443	442	441	442	446	453	454	441	441	443	441	440	437	435	433	436	441	444	446	447	442	436	436	437	438	440	439	441	451	448	446	446	441	435	435	436	433	433	440	442	448	449	445	440	441	444	443	444	443	442	441	441	445	447	450	454	453	455	453	450	449	447	447	445	445	442	443	444	445	445	449	451	448	447	446	446	448	448	446	446	446	443	438	439	442	448	447	447	445	444	447	450	451	451	453	456	456	447	442	439	439	444	444	444	444	447	447	453	452	447	442	443	442	442	446	447	448	448	453	447	445	446	451	459	459	458	452	446	0	0	0	0	0	0	0	0
432	434	434	431	428	428	426	425	421	425	425	433	434	432	430	430	430	421	422	423	427	433	433	434	436	435	436	437	440	440	439	439	438	436	435	436	438	438	440	439	439	439	438	439	442	440	438	438	438	436	434	431	432	433	430	422	421	425	425	432	436	435	435	438	440	439	441	441	439	438	436	432	432	432	431	432	432	430	434	432	427	424	425	432	437	438	433	429	424	425	427	429	427	429	430	430	430	427	425	422	429	431	428	427	429	430	430	428	430	428	426	425	424	423	424	427	429	430	431	431	429	427	425	422	418	419	418	425	427	428	428	425	426	426	432	430	431	431	429	424	420	416	418	422	426	433	436	432	432	430	429	427	426	426	424	424	425	427	429	429	428	427	428	430	431	426	432	437	440	441	439	439	437	438	434	434	433	427	427	438	438	429	428	426	424	423	423	428	433	433	429	428	429	429	430	434	437	439	435	431	433	433	426	421	417	416	418	431	433	431	426	422	422	425	425	426	430	431	429	427	428	427	424	422	419	419	424	427	432	437	437	434	440	442	443	442	438	435	435	438	439	437	438	439	440	437	432	431	435	439	439	439	442	441	440	442	438	436	435	429	431	431	435	434	433	432	431	431	431	438	441	440	438	437	436	436	431	428	429	426	431	442	441	441	445	446	440	437	435	433	432	432	431	437	438	437	435	434	429	430	430	433	434	434	433	434	436	439	439	433	431	430	428	429	431	436	438	435	445	448	448	439	438	436	439	440	431	428	430	432	435	442	438	434	436	437	437	439	438	432	436	438	437	434	432	436	443	443	438	436	436	437	437	436	432	429	431	434	437	437	437	439	440	440	440	431	434	436	439	437	434	431	430	428	429	430	431	435	434	432	430	429	427	424	424	428	428	436	439	441	442	442	440	442	444	442	441	440	440	439	436	434	433	433	433	433	435	435	437	437	435	437	436	431	429	433	431	428	428	431	434	436	438	439	434	433	434	430	429	429	429	430	431	435	437	438	437	436	438	439	438	435	434	431	426	429	432	432	432	432	428	428	432	433	434	435	433	431	431	431	432	431	430	424	424	429	432	434	434	433	430	428	431	437	441	440	438	436	434	432	432	426	424	420	421	417	419	426	431	432	435	436	436	433	431	431	436	442	443	440	435	432	436	441	439	436	434	432	430	430	429	428	425	427	430	429	426	425	426	426	429	434	436	435	432	435	435	435	436	435	439	448	448	451	445	441	438	433	428	428	435	440	448	445	439	434	432	433	433	435	438	440	437	435	438	436	436	438	442	441	438	436	435	436	442	445	443	438	437	439	441	442	445	448	447	442	439	439	439	440	441	440	440	439	436	435	436	438	440	443	447	445	442	441	441	438	436	434	434	441	441	438	431	430	434	439	440	440	443	443	446	446	441	436	438	439	440	441	441	438	440	442	441	440	441	441	441	446	446	451	452	448	0	0	0	0	0	0	0	0
431	432	429	425	422	422	421	421	421	426	426	427	425	425	422	422	422	414	415	419	422	426	425	425	424	428	431	436	439	440	440	438	436	434	428	429	432	433	433	435	430	424	419	415	415	420	429	429	433	433	430	427	430	430	429	424	421	422	428	428	432	433	429	429	430	435	436	436	436	426	421	420	420	419	419	423	423	427	425	424	422	421	419	421	422	421	424	421	420	421	426	426	424	421	425	427	427	425	423	422	423	425	423	420	422	423	425	421	414	407	407	411	414	416	418	419	419	423	424	425	421	419	416	416	415	415	419	423	424	425	423	421	419	415	417	429	429	427	420	421	420	417	414	414	414	416	417	421	424	427	427	424	424	423	422	420	421	424	427	427	424	423	426	428	428	425	422	424	432	432	429	426	425	426	429	429	425	420	415	418	421	422	425	425	425	424	419	424	429	431	427	425	425	424	424	427	426	426	428	425	423	420	415	411	411	412	415	417	424	422	421	419	420	424	422	415	415	416	418	423	421	421	416	417	415	415	419	423	425	426	427	427	428	426	437	437	432	422	424	428	431	435	437	439	437	433	425	424	429	428	428	424	424	424	426	428	422	422	422	423	424	425	425	424	425	425	428	430	430	429	429	430	430	430	427	428	429	429	426	422	425	428	437	436	436	426	420	421	421	421	421	422	425	430	434	433	422	424	427	429	427	425	428	423	417	422	425	429	429	428	427	428	429	429	430	430	428	426	426	429	438	434	433	432	433	427	427	428	429	427	426	423	426	429	430	429	429	437	435	429	432	433	434	431	428	428	433	437	433	432	433	433	434	433	427	423	422	429	433	433	432	425	423	424	423	426	428	432	435	431	426	425	425	422	421	424	424	430	431	425	423	424	424	423	425	429	435	434	434	434	431	428	426	434	440	438	435	433	431	423	429	430	430	431	431	428	432	442	441	436	436	435	434	433	428	423	424	421	422	426	432	433	432	431	427	425	428	426	423	421	424	424	424	433	437	436	433	433	435	435	435	431	428	425	423	428	426	427	430	430	424	420	420	423	425	427	433	429	430	430	429	429	425	423	423	425	429	433	435	434	427	424	425	429	441	443	440	434	428	425	422	421	421	416	413	414	413	416	425	429	431	428	427	427	426	428	431	437	438	436	435	433	437	437	436	435	434	432	431	428	427	428	430	430	428	425	424	424	420	417	419	429	433	433	431	432	432	433	431	426	428	432	438	443	439	434	434	427	422	421	425	433	447	443	437	430	425	424	427	430	433	434	431	429	430	430	431	431	433	432	428	426	428	429	434	440	437	432	434	438	442	445	447	447	443	437	435	434	434	436	435	432	429	430	432	432	433	434	436	440	443	443	441	435	435	434	432	429	428	425	431	434	426	422	425	428	433	435	436	436	432	431	430	431	431	434	436	435	433	433	436	438	437	436	432	434	439	440	440	441	446	443	0	0	0	0	0	0	0	0
426	424	422	418	416	416	416	419	422	422	422	416	416	417	416	415	415	409	410	414	414	416	415	415	414	419	426	430	433	431	431	426	421	420	419	424	425	427	427	424	417	414	411	408	409	414	417	417	420	421	417	418	419	421	419	419	418	416	420	420	427	427	426	423	424	426	431	420	419	413	412	413	414	414	411	413	413	418	417	416	416	417	417	416	417	415	414	412	413	412	415	418	416	413	414	418	418	414	414	416	420	423	419	415	412	412	411	409	407	406	406	409	414	415	412	412	414	418	420	421	420	413	409	411	415	418	417	418	418	420	419	418	414	411	410	411	413	414	416	419	421	418	415	413	413	413	410	415	418	422	422	421	421	419	413	407	407	415	417	415	418	419	420	424	423	419	415	417	418	419	416	416	417	419	424	424	424	418	412	412	414	417	422	424	422	412	413	418	419	419	417	413	417	419	421	424	423	423	426	423	421	418	415	409	410	411	413	413	414	414	418	419	422	422	416	415	415	414	415	417	418	418	412	414	413	415	416	419	422	422	424	425	426	411	408	410	420	419	417	419	425	432	435	435	430	421	418	420	422	423	423	422	422	420	417	415	418	418	422	423	423	421	421	423	421	421	420	418	419	421	420	423	423	421	419	421	424	425	424	424	425	422	420	418	418	419	419	418	416	414	414	419	421	427	429	418	418	422	427	429	427	425	422	417	418	419	422	424	425	424	422	416	418	420	422	424	420	418	421	423	427	426	426	426	423	423	423	426	430	426	416	417	419	423	423	421	418	418	421	426	429	431	430	426	423	422	422	430	431	431	431	431	431	430	421	417	421	426	428	425	420	415	413	411	411	408	404	407	414	417	420	419	418	418	418	417	417	420	421	421	417	419	420	421	421	425	426	426	427	426	424	421	424	425	428	427	426	425	423	419	421	422	420	418	414	413	415	420	422	427	427	426	426	426	429	427	422	414	420	420	422	423	425	425	422	418	422	421	419	416	418	417	421	422	425	425	426	429	430	433	432	430	424	419	413	418	421	423	425	425	421	413	410	415	418	423	426	428	428	429	428	425	423	424	426	432	435	430	431	432	427	420	420	421	428	436	437	430	424	422	417	417	416	416	411	412	411	417	424	430	428	426	424	422	421	424	430	433	434	434	432	426	429	432	424	427	422	421	423	422	415	414	416	419	422	425	424	422	420	417	418	421	427	431	426	423	426	423	420	417	418	417	423	429	426	421	420	420	417	415	419	423	436	434	429	424	421	422	425	428	430	430	428	426	425	426	428	426	427	423	420	421	422	425	427	429	429	431	432	434	437	442	442	436	434	432	432	429	428	426	426	425	418	419	428	428	427	428	430	434	437	436	435	433	430	429	426	421	422	424	424	425	424	420	420	425	428	426	425	425	422	418	418	419	423	427	429	425	422	426	429	428	427	427	426	424	424	437	437	438	435	437	0	0	0	0	0	0	0	0
410	409	412	410	407	407	409	410	409	410	408	408	410	411	411	410	410	405	403	401	404	406	406	406	405	411	419	422	420	416	416	411	408	406	405	411	415	416	416	411	406	405	407	407	416	421	418	418	415	413	414	414	411	410	413	413	413	412	413	413	414	414	414	413	413	407	407	406	400	392	392	398	404	405	403	404	406	406	405	407	406	406	407	411	413	411	408	405	401	401	404	403	403	404	402	402	405	408	411	413	417	417	414	408	406	405	407	406	408	412	413	413	411	409	408	407	409	413	415	416	414	410	406	406	408	410	410	412	414	415	415	414	412	408	407	409	410	411	412	417	421	421	416	414	412	410	407	410	414	417	419	416	415	412	408	406	406	404	408	406	406	411	415	416	410	409	410	412	411	411	407	405	405	409	414	417	416	411	409	409	413	418	420	419	411	408	408	413	415	416	414	412	412	414	416	418	418	419	420	421	419	418	413	410	410	412	412	413	413	410	409	409	403	402	405	409	411	410	412	413	416	415	412	411	411	412	415	417	417	417	416	416	416	411	404	408	410	413	417	417	416	419	421	419	417	418	416	418	418	417	414	416	419	418	414	411	408	412	417	417	413	415	415	417	418	416	412	412	413	409	421	422	420	416	417	417	417	420	420	420	420	416	415	415	414	407	412	412	412	413	413	413	416	415	414	414	415	420	427	429	426	422	416	415	416	417	419	422	421	419	415	412	411	412	415	420	418	415	412	414	417	418	420	419	417	416	417	418	415	412	412	408	407	402	400	405	413	413	418	425	428	429	429	423	419	418	416	417	420	418	411	405	407	411	413	413	415	420	424	418	414	409	406	406	408	408	409	396	396	402	410	413	414	413	413	412	412	412	415	411	414	414	414	416	416	415	419	419	419	419	419	417	415	413	411	410	410	413	411	408	407	406	410	412	410	408	411	415	414	415	415	412	411	412	413	416	420	416	408	409	412	416	417	415	415	411	411	416	414	412	411	411	412	419	421	421	423	421	419	426	418	415	406	407	410	411	416	414	415	419	418	414	410	407	406	409	409	413	418	424	422	420	419	420	425	426	425	422	420	421	417	412	410	413	409	410	415	422	420	420	417	416	416	414	413	410	413	416	421	428	426	420	418	417	416	420	423	426	426	425	423	417	419	421	418	416	411	414	416	417	414	413	411	412	415	419	417	416	418	418	416	416	421	419	418	411	412	415	413	413	410	411	414	419	418	418	416	417	416	415	416	420	427	424	421	418	414	414	423	426	428	427	426	420	418	414	414	415	418	422	419	418	413	412	415	422	426	428	428	428	428	428	418	421	425	429	428	426	425	424	423	415	414	417	415	418	418	420	423	423	423	427	427	423	421	419	417	417	418	419	421	419	417	413	412	416	419	416	416	416	415	414	412	412	414	415	419	419	418	417	419	421	421	416	412	411	415	415	419	426	425	425	0	0	0	0	0	0	0	0
403	397	394	393	395	395	394	395	399	402	403	403	405	406	409	408	400	400	398	397	395	395	395	395	398	405	411	414	415	411	411	406	403	401	399	399	399	400	400	401	401	402	405	408	401	405	417	417	413	413	412	412	409	406	404	405	405	404	410	410	408	412	408	403	403	407	407	405	399	393	394	397	398	400	401	402	401	401	400	400	400	402	404	405	405	403	400	397	397	393	393	394	396	397	397	397	399	402	403	404	403	403	405	404	402	401	401	404	403	405	405	409	408	405	404	405	407	410	412	407	405	405	408	408	406	404	405	404	409	411	412	411	409	406	406	407	408	409	407	410	415	418	417	412	410	405	403	402	404	406	408	408	409	410	409	405	404	402	400	398	399	402	403	405	401	397	396	403	402	403	400	399	403	407	409	408	407	407	407	410	413	416	418	415	409	402	401	405	409	409	410	410	409	412	413	413	414	414	413	418	418	413	410	407	410	411	414	413	411	406	403	399	398	400	398	402	402	404	403	405	407	409	408	406	407	409	407	403	401	400	402	403	408	407	404	405	404	408	409	408	412	409	408	410	412	413	414	414	413	409	409	408	408	409	409	410	404	410	406	405	410	412	413	416	416	412	408	407	406	407	408	411	412	411	412	412	414	414	414	414	415	414	413	407	404	405	408	409	412	410	408	409	410	408	408	405	406	410	412	410	413	418	415	407	408	411	415	417	418	417	411	409	406	406	407	411	409	408	405	404	406	405	407	415	416	409	402	413	408	410	410	406	404	402	398	399	402	401	404	406	413	411	411	414	416	416	415	405	401	398	398	398	399	403	408	412	412	408	402	399	400	402	401	403	407	407	397	387	383	385	394	399	408	408	408	408	411	415	414	412	411	408	407	413	409	407	407	413	413	414	413	412	413	410	409	409	408	409	411	411	410	410	407	409	412	412	411	410	411	411	410	408	406	407	410	413	415	418	418	411	408	411	409	408	413	412	411	413	411	407	405	407	408	411	414	415	415	414	412	414	407	408	414	403	403	406	409	408	405	408	409	408	409	407	407	408	408	408	414	416	416	416	415	412	413	414	417	414	414	414	415	410	406	404	402	405	411	416	414	409	410	415	417	416	414	413	414	408	407	416	422	418	415	411	407	415	418	417	408	412	415	416	417	417	416	410	407	406	412	416	412	411	407	406	408	411	412	412	412	415	413	412	414	413	406	402	404	412	413	412	409	408	411	415	416	415	415	415	418	419	415	419	424	419	414	410	405	401	405	412	413	412	414	414	413	408	408	411	416	417	419	415	409	412	415	419	418	421	419	419	419	412	407	411	409	410	418	420	420	419	416	409	410	412	412	410	409	408	408	409	410	413	421	418	415	414	411	411	412	413	416	415	409	406	403	401	407	408	408	411	411	411	408	406	407	409	414	415	414	410	414	415	414	410	406	409	410	410	414	415	415	419	0	0	0	0	0	0	0	0
396	392	388	389	387	387	388	390	393	394	395	395	397	400	402	403	396	396	394	392	389	384	382	382	384	392	400	405	402	397	397	399	398	398	398	397	398	398	398	398	400	399	397	395	396	401	406	407	407	409	411	407	401	398	398	396	396	398	402	402	407	405	399	400	402	404	406	402	398	397	395	396	396	395	394	396	395	395	396	398	398	400	400	400	398	397	395	395	395	393	392	394	395	395	396	397	399	399	399	396	396	395	399	400	399	399	397	396	394	395	396	398	404	402	404	407	408	408	407	404	401	397	403	402	401	396	396	400	403	404	405	409	409	405	404	404	402	400	402	407	409	412	410	408	407	405	402	401	401	401	403	405	407	406	405	404	404	400	398	395	394	395	400	400	399	397	396	392	394	396	397	400	402	404	403	405	405	404	404	404	399	410	411	410	405	395	395	397	400	402	402	406	406	410	410	409	408	409	403	408	410	405	401	400	404	410	412	411	402	398	395	394	395	396	395	394	394	395	395	397	399	400	403	402	402	404	403	400	398	396	398	400	403	402	398	398	398	401	402	402	400	397	401	401	408	409	410	408	404	402	401	403	403	405	406	407	405	402	398	403	408	411	414	414	412	409	405	404	403	404	406	405	407	406	402	405	410	411	409	407	405	402	403	404	400	402	405	406	406	402	403	406	409	405	404	403	406	407	406	403	402	403	400	399	397	394	394	397	399	401	399	397	400	405	406	405	405	401	396	398	398	400	402	408	413	408	401	398	404	404	402	398	399	400	398	398	399	400	402	402	403	405	408	409	412	411	399	391	391	393	392	394	397	401	405	407	406	398	393	390	391	396	399	402	405	405	388	384	382	383	383	389	394	401	406	406	408	410	410	407	405	406	407	404	402	396	401	406	409	410	409	408	408	407	406	407	404	401	409	410	409	404	407	412	415	415	409	405	405	405	405	402	398	401	406	410	412	410	410	408	406	405	406	407	408	405	410	402	401	403	401	403	405	407	407	407	408	409	403	404	403	404	407	407	399	405	406	404	395	394	393	392	396	403	405	406	406	407	408	412	410	407	406	403	402	402	403	404	404	405	413	410	405	395	398	402	408	410	409	402	401	402	407	409	409	412	409	403	402	402	405	411	406	403	407	403	407	410	413	414	416	415	414	413	412	407	406	405	403	400	401	404	404	403	402	401	405	402	405	407	408	406	407	408	400	399	401	410	412	411	408	408	410	412	413	413	414	411	409	408	405	406	420	418	412	406	400	398	398	398	402	407	408	406	405	400	402	405	410	414	414	412	411	412	411	417	413	411	411	405	406	406	408	407	407	403	397	404	413	414	411	407	408	410	409	407	405	402	405	404	402	403	403	404	405	404	405	405	406	407	409	408	403	400	396	395	398	401	401	404	404	406	405	400	401	405	409	409	410	409	408	410	406	404	404	406	406	406	409	411	411	411	0	0	0	0	0	0	0	0
393	389	386	386	389	389	389	391	389	389	387	387	390	394	396	397	392	392	391	389	387	383	379	379	378	384	391	390	389	386	386	388	392	395	396	396	397	398	395	395	394	395	395	396	395	393	394	391	391	390	392	391	393	393	394	395	393	393	396	399	392	394	396	391	391	390	392	391	391	392	394	395	395	394	391	390	392	394	394	395	397	397	396	391	392	391	390	391	394	391	390	391	392	393	395	396	396	396	395	392	391	391	395	397	397	395	393	392	391	391	392	391	393	395	390	391	392	399	399	396	393	391	391	391	387	386	388	396	393	396	402	403	402	404	404	402	398	392	394	399	403	405	405	404	404	404	401	397	395	394	393	397	401	399	399	400	400	402	396	394	393	393	397	398	396	396	397	394	391	391	394	396	398	397	397	394	398	400	397	389	388	389	394	396	397	391	389	391	394	396	397	399	403	405	406	406	404	397	394	398	396	390	391	396	397	403	404	398	396	394	393	394	393	393	394	391	388	387	389	391	393	393	396	397	400	402	402	398	394	391	395	395	400	399	397	393	394	395	396	396	394	394	391	394	399	401	400	401	402	401	400	397	400	402	404	404	402	393	395	399	404	407	410	411	408	405	402	402	404	404	405	407	406	402	397	398	399	400	398	392	391	391	394	395	398	402	404	403	398	397	402	403	400	399	398	396	401	404	399	396	395	393	394	393	391	390	391	394	397	399	397	395	395	397	401	402	401	398	393	394	394	394	395	403	406	408	396	399	402	401	400	396	394	398	398	398	398	399	400	400	399	398	397	399	401	396	388	388	389	391	392	391	395	399	399	397	398	393	391	388	389	391	397	400	400	402	388	381	382	381	383	383	381	393	398	402	397	399	404	404	402	404	406	404	396	395	388	389	390	392	395	398	400	397	398	398	394	390	391	400	399	399	407	401	401	402	399	393	394	394	395	395	394	396	398	400	402	406	407	405	403	402	404	406	404	404	401	399	397	392	399	401	402	402	402	405	405	403	399	396	396	400	402	402	398	399	397	393	394	396	395	391	392	399	401	404	404	400	399	402	401	405	400	397	397	395	395	394	392	393	396	399	394	397	400	402	402	402	404	401	399	397	398	405	408	410	405	402	400	400	404	406	407	401	400	399	401	404	407	410	412	411	409	406	405	403	401	400	398	392	393	394	395	399	399	399	399	400	401	403	400	400	403	403	396	397	399	406	407	405	406	407	406	405	404	402	403	403	402	403	399	398	399	407	410	404	400	396	394	396	399	403	404	403	401	396	395	399	404	408	409	409	409	409	409	401	407	404	399	400	398	406	406	405	405	400	396	396	408	408	408	405	405	403	402	407	405	403	402	397	397	399	400	399	397	398	400	400	401	401	401	399	396	395	393	388	387	387	393	395	398	400	399	398	396	398	399	396	398	401	402	404	399	397	396	401	402	402	403	406	407	406	0	0	0	0	0	0	0	0
384	384	386	385	384	385	385	386	387	386	385	385	386	389	392	390	386	386	387	387	386	380	374	374	374	378	381	383	381	383	384	384	388	389	391	389	388	388	388	388	388	388	392	393	393	389	386	385	385	386	386	387	388	389	392	393	393	392	391	374	374	375	377	377	381	385	386	386	385	386	389	390	390	390	387	386	386	386	386	388	392	394	392	389	385	383	381	384	390	390	385	388	389	392	393	393	391	393	391	389	388	388	391	392	393	388	386	386	386	387	387	387	386	386	387	388	390	389	390	393	391	388	388	383	382	383	384	387	388	390	396	401	400	400	399	398	395	390	386	388	394	398	399	400	400	403	397	391	388	388	389	394	396	395	394	396	396	396	399	396	394	393	394	393	393	392	394	391	387	388	387	385	388	385	385	387	388	391	391	388	386	388	390	392	393	391	390	392	392	392	392	395	398	395	397	398	398	395	391	391	393	386	386	384	389	391	388	391	392	392	392	391	389	388	386	385	384	384	385	388	394	393	392	395	400	402	399	396	392	387	390	391	391	392	391	389	391	391	391	392	393	393	391	392	390	388	393	395	396	394	392	392	395	396	397	396	387	385	391	395	398	397	402	403	402	401	399	400	401	401	397	398	400	398	390	391	393	385	379	379	384	388	392	394	396	397	397	395	394	393	397	397	393	393	393	390	389	392	389	390	390	388	386	384	384	385	388	389	391	394	396	393	392	390	390	394	394	391	388	388	388	388	390	393	399	396	387	392	398	399	398	394	394	397	398	396	393	394	396	397	395	382	383	381	383	383	384	386	388	388	384	382	384	395	393	394	394	395	391	389	389	390	395	397	398	386	383	378	381	381	380	382	378	379	381	385	392	398	400	402	401	396	399	400	397	388	384	382	386	391	394	396	396	395	392	391	388	387	383	383	387	395	394	394	394	395	396	392	391	391	389	387	387	386	387	388	400	402	402	403	395	397	400	398	398	401	400	397	394	392	392	396	398	400	398	399	398	398	396	392	394	394	397	396	393	393	391	391	395	395	395	391	393	395	398	398	395	394	393	393	398	401	396	388	394	393	393	391	390	391	393	389	390	394	395	397	395	384	386	396	395	394	391	400	404	404	401	399	396	395	399	402	402	400	395	395	395	397	401	404	407	405	402	399	397	395	394	394	388	391	389	386	386	393	395	395	397	398	400	400	400	397	394	394	392	390	391	397	396	397	398	403	404	403	399	398	396	397	398	393	387	388	390	390	394	394	398	395	394	394	394	394	396	398	401	398	389	387	392	398	399	398	397	397	399	398	393	390	391	394	401	403	404	400	400	397	396	395	401	406	405	399	395	395	394	393	396	395	393	393	393	397	398	397	397	396	397	399	397	391	387	388	388	388	384	384	385	385	386	389	390	392	394	393	391	393	393	394	396	399	401	398	392	390	386	388	388	396	400	398	396	393	0	0	0	0	0	0	0	0
382	382	382	380	377	378	378	381	383	384	384	384	383	385	386	385	381	381	379	381	382	376	374	374	374	377	381	380	380	380	379	379	379	381	379	378	377	380	380	380	380	382	385	387	387	382	381	381	381	382	383	384	386	387	388	388	382	379	375	373	373	372	371	371	377	383	384	384	385	386	384	384	384	383	381	379	383	385	385	386	385	386	386	385	382	377	377	381	386	382	379	381	384	389	390	388	387	385	388	386	388	387	389	390	387	383	381	380	380	382	383	382	382	383	386	388	388	389	390	390	388	386	382	382	381	381	382	387	387	389	394	397	395	393	393	391	388	385	383	382	382	386	386	384	385	386	387	379	380	383	387	391	389	390	390	391	393	393	392	391	390	390	388	380	381	385	388	387	387	388	387	388	387	388	386	387	389	388	387	385	384	384	387	388	388	383	384	387	387	389	392	392	388	388	390	392	395	394	391	388	392	389	385	381	379	380	384	388	388	389	391	391	390	387	386	381	379	383	386	387	396	394	391	389	389	389	386	383	384	383	383	383	387	390	390	386	389	392	394	392	393	391	389	386	385	383	383	384	391	391	390	388	388	390	392	387	384	379	379	384	385	387	388	389	395	394	395	396	390	388	390	392	382	383	382	386	385	381	378	378	381	387	391	392	394	393	392	391	389	388	392	391	388	387	386	388	387	387	387	386	385	382	380	376	379	383	384	384	384	381	382	387	389	385	384	384	386	383	385	383	382	383	383	384	385	382	382	383	391	392	387	384	383	393	392	388	384	381	382	382	381	380	380	376	374	374	374	378	379	379	381	380	379	381	387	390	392	392	394	390	386	385	386	386	382	383	378	382	377	379	380	374	375	376	376	378	392	392	400	399	396	394	393	394	391	384	382	382	386	392	394	394	393	391	391	391	391	382	380	379	385	388	387	388	388	389	391	390	390	390	387	386	387	388	387	389	389	395	400	401	394	393	395	395	397	398	399	398	393	389	386	392	383	393	394	393	395	396	396	389	390	392	393	393	392	389	389	391	391	392	391	387	387	390	390	385	386	389	388	383	384	385	386	383	385	392	394	395	392	392	389	384	387	388	389	389	378	374	375	388	390	389	386	387	391	392	394	385	386	388	393	397	399	398	391	389	389	391	395	398	397	395	392	388	389	385	387	387	388	387	383	380	381	387	390	390	393	394	396	396	395	391	386	384	382	382	383	386	389	392	395	398	398	393	391	389	388	386	387	384	379	381	385	387	386	384	385	387	390	392	391	392	389	389	391	389	388	384	383	383	385	394	393	393	393	386	384	385	388	391	389	390	399	396	397	395	393	393	393	393	391	390	391	392	391	389	388	389	390	390	391	391	390	388	385	384	385	386	381	374	372	378	380	380	384	387	386	386	384	383	384	386	387	388	387	386	381	380	383	388	391	392	386	380	381	378	378	378	380	381	379	379	0	0	0	0	0	0	0	0
377	377	378	375	372	371	371	374	377	378	378	379	379	380	382	381	371	371	371	373	373	372	373	376	376	383	382	379	377	375	373	373	373	373	372	370	371	374	377	377	373	375	378	382	382	378	375	374	379	379	382	385	385	380	377	379	380	379	376	372	372	369	368	370	375	380	381	381	383	384	381	379	379	378	378	377	380	382	382	382	381	378	373	371	370	372	372	375	375	375	375	378	377	378	382	383	381	379	378	377	381	385	385	385	381	376	375	374	377	377	376	378	379	381	386	387	387	385	386	386	384	382	379	380	380	379	381	386	387	387	389	391	387	384	384	383	381	378	377	377	378	378	377	377	377	378	376	373	377	382	385	380	382	383	381	380	381	385	386	387	386	385	380	379	376	379	382	383	385	386	384	384	385	386	385	385	384	385	384	381	378	378	383	385	383	380	378	380	382	385	384	384	384	385	387	388	391	389	382	382	389	389	390	390	385	379	380	382	380	383	382	388	389	386	383	380	375	381	384	391	377	375	376	377	377	378	380	375	375	381	380	380	381	382	386	384	390	393	392	386	387	389	385	384	384	382	378	378	381	382	388	386	384	385	387	384	381	379	377	376	379	380	382	383	386	389	389	388	386	382	384	380	378	379	381	384	384	382	379	378	381	384	386	387	388	385	382	385	385	385	387	385	382	379	377	378	385	386	366	367	368	374	377	376	381	383	384	384	381	380	380	382	382	383	381	378	379	380	380	379	378	376	376	375	377	377	379	380	380	379	377	372	370	378	374	372	366	367	373	376	380	379	377	377	374	373	371	370	370	374	379	379	375	375	377	386	388	385	384	384	383	383	381	383	383	375	374	374	376	381	378	372	372	372	374	376	377	389	389	396	389	388	389	386	387	387	382	382	386	380	380	383	384	387	391	392	390	387	381	380	381	380	372	376	381	383	388	389	389	388	385	386	387	386	387	387	386	385	386	392	393	391	389	393	393	392	391	388	385	380	376	377	379	383	389	391	392	389	387	389	385	387	387	387	383	387	385	384	386	388	387	383	377	372	373	375	385	387	385	382	380	380	377	379	382	382	387	394	396	394	384	382	382	383	382	380	371	370	374	381	381	380	380	380	384	379	376	380	380	379	379	380	383	383	376	371	375	384	386	387	387	385	383	380	377	375	372	378	380	375	378	383	386	387	387	387	385	384	381	381	383	383	378	376	367	371	374	375	380	386	391	392	385	382	381	382	382	382	383	381	378	374	376	376	378	379	381	383	385	383	382	385	384	385	386	384	383	381	381	381	381	382	384	385	385	380	377	376	378	386	386	385	386	388	392	390	387	385	386	386	388	388	388	387	385	385	384	382	380	381	383	385	384	383	383	383	383	383	374	373	373	373	375	381	386	387	387	386	384	384	384	384	384	385	385	383	378	374	371	374	380	381	377	376	377	379	379	378	378	376	377	377	0	0	0	0	0	0	0	0
373	373	374	370	368	365	365	366	368	372	372	375	375	377	378	372	362	359	359	360	363	368	374	377	377	378	377	373	373	374	373	373	373	372	370	367	368	373	373	373	373	372	372	373	373	373	374	375	379	379	380	378	377	373	372	374	374	377	373	371	368	368	366	369	373	376	377	378	379	376	374	374	373	371	370	374	378	379	378	378	374	371	366	363	365	369	375	374	373	373	374	375	374	374	377	376	375	375	374	375	377	380	382	381	378	373	370	370	373	373	375	377	379	380	382	385	385	381	380	380	379	378	376	375	375	377	381	382	383	384	385	385	380	377	375	374	372	372	373	373	374	375	375	375	375	375	366	369	372	376	381	381	382	381	379	377	380	382	381	383	385	384	382	377	375	379	382	383	381	379	380	379	375	379	381	383	382	382	379	377	374	371	372	374	376	374	374	371	370	371	374	377	378	380	380	384	383	377	378	382	387	386	383	381	381	381	378	376	380	380	380	376	364	362	362	370	374	379	377	376	375	374	375	376	376	378	379	381	380	379	375	376	376	377	375	375	377	375	374	373	378	376	375	382	382	379	376	375	376	378	378	373	383	383	382	380	382	378	376	376	377	377	378	381	382	386	384	385	377	379	378	377	376	377	379	381	383	382	381	379	381	381	379	383	381	381	380	376	373	375	382	380	379	378	380	378	379	379	372	366	368	370	372	375	378	379	380	380	381	381	378	378	381	372	373	375	374	375	377	375	376	374	373	369	368	367	373	377	377	377	377	381	376	375	377	374	373	372	370	373	375	376	374	374	374	372	367	365	366	369	372	374	374	371	372	374	374	370	377	376	374	373	373	373	374	373	370	373	375	380	378	369	368	369	370	372	374	375	382	379	376	376	375	376	379	380	373	373	373	374	374	374	376	381	385	391	389	387	381	378	376	373	373	369	371	371	375	382	386	382	376	376	380	386	388	383	380	379	379	380	381	379	380	390	392	391	380	378	372	375	376	372	369	374	372	374	372	371	374	377	389	390	391	375	370	367	371	378	381	382	374	373	370	365	364	365	371	373	374	375	376	375	372	372	376	379	379	384	387	388	382	375	372	376	376	374	371	371	373	376	376	376	366	366	368	370	374	376	374	372	370	373	375	379	373	364	363	363	368	385	387	388	385	379	375	373	371	371	373	374	378	380	383	383	380	380	382	379	377	371	372	373	373	370	367	362	362	365	368	374	381	383	382	380	378	374	376	378	379	380	377	372	372	370	372	373	378	378	378	377	374	371	373	377	380	379	378	377	379	378	378	378	380	382	381	376	375	374	375	377	380	382	384	386	388	382	380	381	382	383	383	382	382	375	375	374	375	376	373	372	372	373	374	378	377	375	375	375	376	376	374	375	379	384	388	388	388	385	383	381	382	383	385	385	384	377	374	371	371	372	375	375	374	375	378	380	380	380	377	376	375	374	0	0	0	0	0	0	0	0
369	369	371	369	364	358	358	357	360	364	368	369	369	366	362	360	361	358	358	353	353	361	368	370	370	367	366	367	367	368	366	366	369	369	367	366	368	368	368	370	370	370	368	363	364	368	370	373	376	376	375	373	371	369	367	367	368	369	370	369	367	367	367	368	371	372	375	375	374	372	369	367	366	364	368	373	376	376	375	375	372	368	363	365	365	369	372	373	373	373	373	374	375	374	373	370	370	369	370	371	371	371	375	377	378	376	376	376	377	378	378	379	379	379	376	373	372	372	374	376	374	374	374	372	375	376	380	379	377	379	380	381	378	374	371	369	369	369	370	371	373	373	372	372	372	363	362	365	369	374	379	377	380	379	376	374	375	375	375	376	375	376	380	378	376	380	381	380	380	373	369	371	377	379	382	383	382	381	377	373	369	367	369	370	371	370	366	367	367	368	370	369	370	365	367	365	365	367	377	381	384	382	380	379	376	375	374	374	375	377	377	374	370	365	362	358	362	367	373	374	374	374	375	376	377	377	377	379	377	373	372	372	375	376	377	376	376	375	374	374	375	376	374	373	373	372	371	373	374	371	368	369	365	359	377	379	381	379	377	376	376	380	380	379	377	374	370	369	373	373	375	375	375	375	378	382	382	378	378	379	374	374	374	374	377	380	381	371	368	365	366	366	369	378	380	382	381	378	375	373	373	377	379	376	376	375	373	374	376	377	374	369	364	364	362	364	366	366	369	366	367	368	370	372	375	375	382	383	377	377	377	376	373	370	367	368	374	372	374	376	376	372	371	369	372	370	366	363	364	367	367	368	365	364	365	368	365	364	364	364	369	367	368	366	365	367	367	367	370	369	367	365	362	362	365	368	369	368	373	374	374	362	362	365	367	369	376	374	372	372	372	372	368	368	369	379	382	382	380	377	372	370	368	368	365	368	371	375	378	379	373	374	378	380	389	389	384	379	374	370	366	368	372	382	380	378	357	357	360	369	370	367	362	364	369	366	368	367	370	372	377	389	383	371	367	362	363	363	368	369	370	371	371	368	365	363	364	366	366	367	369	369	368	369	371	373	375	374	373	370	368	366	366	368	373	376	376	372	374	376	368	367	363	360	363	368	370	373	374	369	371	370	371	368	370	369	366	363	365	370	376	382	385	379	376	371	370	370	374	375	375	376	377	372	370	368	369	370	369	366	365	364	358	366	365	362	359	361	365	367	371	373	373	371	368	367	368	370	374	378	372	369	367	366	366	370	372	375	370	369	367	369	371	372	374	375	372	372	373	372	370	373	373	378	378	372	373	372	372	371	375	377	375	375	376	377	376	373	373	375	375	373	371	367	369	370	371	371	371	371	371	371	374	375	373	373	371	369	369	372	371	372	376	376	377	377	373	373	374	381	381	375	371	372	373	375	372	370	371	372	373	371	372	373	376	376	378	376	367	366	367	368	0	0	0	0	0	0	0	0
363	363	360	356	353	354	355	355	356	361	364	363	363	361	361	363	358	356	356	355	354	355	355	357	355	355	356	357	360	361	362	361	361	357	356	356	359	362	358	354	354	356	357	358	362	365	366	365	367	367	370	369	369	364	364	362	362	361	363	367	367	367	367	367	367	362	361	359	357	355	361	363	361	363	366	369	370	370	370	369	369	366	363	359	362	367	368	368	368	368	372	375	377	375	370	366	364	360	364	364	366	368	371	370	373	374	373	372	372	372	373	373	376	375	370	370	367	370	376	377	372	369	368	374	375	376	376	375	371	372	377	379	378	375	375	376	374	367	366	365	361	359	360	361	359	359	362	365	369	372	376	376	373	373	371	373	371	371	369	369	371	371	372	375	377	377	378	376	377	366	365	372	375	378	376	378	379	377	374	369	366	365	369	369	366	363	365	367	366	364	365	365	366	369	368	365	361	362	367	372	379	379	376	376	374	372	374	374	375	375	373	370	367	363	362	362	364	362	371	373	374	374	375	376	376	375	375	375	372	370	369	370	373	375	376	376	375	363	363	364	365	367	366	367	364	364	363	365	367	366	365	364	363	362	361	360	368	370	369	374	376	381	378	376	375	370	359	358	361	369	373	374	375	375	375	375	373	366	368	371	372	371	369	367	368	369	365	364	363	362	361	361	364	370	373	375	378	376	375	374	372	373	375	375	374	370	367	371	372	373	370	364	361	360	360	358	357	359	364	365	368	371	372	371	371	375	377	378	375	376	375	373	370	367	364	361	359	361	362	366	366	366	364	365	367	366	363	362	363	365	367	366	366	366	366	367	360	359	358	359	360	361	363	363	363	361	366	367	366	364	363	361	358	358	362	366	367	361	362	364	363	354	356	360	363	365	365	372	370	370	368	364	361	358	359	365	371	375	373	369	367	361	361	363	363	364	370	372	374	375	374	376	376	376	377	386	381	377	373	366	365	368	369	370	362	357	355	357	359	359	361	361	361	362	361	357	362	360	361	362	368	368	365	366	364	359	363	367	366	366	366	368	369	368	364	362	361	362	361	360	357	364	368	371	371	372	372	372	371	369	365	362	358	360	360	364	364	361	358	358	363	362	363	362	363	366	369	371	369	369	368	370	369	366	361	359	356	354	358	362	365	368	369	368	369	370	367	363	364	363	361	361	362	363	363	363	364	365	359	360	361	356	357	364	363	363	363	364	368	368	369	368	366	367	364	361	358	362	362	363	370	367	364	361	362	364	368	368	367	365	364	368	369	369	370	367	366	367	367	367	369	370	371	373	369	370	370	370	368	368	370	372	373	371	370	375	374	364	362	363	367	365	363	365	366	366	366	366	366	367	367	369	371	370	369	368	368	362	364	366	366	366	367	371	373	373	372	371	371	371	369	366	365	365	367	368	366	369	369	370	368	366	364	367	371	371	373	367	364	361	362	364	0	0	0	0	0	0	0	0
357	354	354	352	353	351	352	352	354	357	359	360	360	359	360	361	357	359	359	357	357	358	358	358	360	360	360	362	361	361	360	357	357	356	354	353	356	360	356	354	354	355	356	357	361	363	363	365	366	366	367	367	362	362	362	361	358	358	357	358	358	358	359	362	360	358	357	355	355	351	350	360	360	361	364	363	362	363	361	363	363	361	358	358	359	360	365	366	366	366	366	366	368	368	366	360	358	356	360	360	360	362	364	366	366	366	365	365	363	362	364	365	364	366	368	370	370	372	373	370	367	363	361	365	366	366	367	367	366	364	367	370	372	372	374	375	376	372	367	362	358	358	359	363	364	364	362	365	368	371	373	372	369	366	364	368	364	362	361	363	365	368	368	359	362	364	367	367	366	362	365	371	373	371	371	370	368	366	364	364	365	366	367	368	365	358	364	364	363	362	363	365	366	368	368	365	359	359	360	364	364	363	362	369	376	373	369	368	368	368	369	367	365	361	360	360	361	358	363	369	370	371	372	374	373	372	370	369	368	368	367	367	367	367	374	374	363	360	360	361	366	367	365	365	358	359	360	364	364	364	363	362	360	360	359	359	358	358	361	363	366	371	374	373	368	360	357	355	354	354	357	362	364	369	364	364	363	364	365	365	361	360	359	360	360	359	360	356	358	359	361	360	360	362	366	365	365	365	366	368	367	361	360	357	356	357	361	365	368	369	366	363	360	359	357	356	355	356	353	360	362	364	362	360	360	363	366	365	368	369	368	367	364	359	350	348	350	357	360	358	357	357	359	361	361	363	362	361	360	365	368	367	365	360	359	364	358	356	355	355	355	353	353	359	359	359	359	365	365	363	361	358	355	354	357	361	356	357	359	357	353	351	357	359	363	363	363	361	362	364	361	359	358	357	358	360	365	369	368	366	361	359	360	361	362	363	365	370	368	367	364	368	367	369	371	374	375	374	372	369	367	358	360	362	362	360	354	353	353	354	356	359	358	357	358	358	352	352	354	357	358	357	358	358	363	359	365	365	365	363	359	360	361	363	363	362	359	359	356	355	356	361	365	367	370	371	371	368	369	367	363	353	351	352	360	354	354	352	354	354	357	359	358	360	363	361	361	366	363	362	363	364	364	361	357	352	352	352	353	356	363	366	368	366	366	364	363	360	361	360	358	356	357	359	359	355	355	349	353	357	357	353	352	360	361	360	360	363	361	362	361	366	365	361	357	357	355	351	347	355	363	363	361	360	359	362	363	360	358	361	363	366	367	367	365	361	359	355	355	363	367	369	367	359	359	361	361	365	366	365	367	368	361	362	362	359	356	350	351	354	359	362	363	361	361	362	360	360	361	362	362	364	366	366	366	366	359	357	357	360	360	362	362	365	366	366	369	370	370	369	368	365	363	363	364	361	363	366	368	368	366	361	358	362	365	365	364	362	359	357	358	357	0	0	0	0	0	0	0	0
348	347	347	347	350	350	348	348	352	354	352	353	353	356	358	354	355	358	358	354	355	354	354	354	355	355	359	361	361	361	358	355	355	353	351	351	353	358	355	355	355	355	356	357	356	355	358	362	365	364	364	355	355	355	354	350	349	347	350	353	355	356	356	355	355	356	357	355	354	351	347	348	357	361	363	362	359	355	355	356	356	355	354	355	355	355	357	360	362	361	361	361	361	362	364	361	357	357	357	357	358	360	362	363	363	363	361	361	359	357	352	348	348	356	357	356	361	366	364	360	357	357	356	357	359	361	361	363	367	367	366	364	363	364	363	366	365	364	363	358	356	357	359	362	363	363	362	361	363	364	368	363	365	363	363	362	359	359	359	360	363	358	358	360	359	364	367	367	366	364	367	369	368	366	366	366	363	361	362	362	366	366	365	360	356	359	359	359	359	359	359	363	360	364	366	364	359	356	359	360	360	359	357	356	359	363	363	363	363	364	365	365	363	359	356	355	357	355	355	361	364	369	368	366	359	359	355	356	362	364	361	360	364	365	364	364	361	360	357	358	359	363	362	358	358	355	355	361	362	361	361	361	359	357	357	357	357	355	356	355	353	358	360	360	360	355	356	355	355	353	355	359	365	368	365	361	361	361	361	360	358	356	356	358	358	357	358	356	357	356	357	358	359	361	362	360	357	355	358	362	362	358	355	354	354	353	354	361	364	367	367	361	358	357	356	356	355	353	356	363	360	358	357	355	352	358	354	356	363	364	354	352	355	351	347	348	348	352	356	354	352	354	354	355	357	358	361	360	357	355	364	367	363	360	358	361	355	355	354	353	348	348	348	348	356	355	355	356	362	360	358	355	352	352	353	352	352	354	353	356	355	354	352	351	350	350	351	350	354	359	358	357	356	356	357	358	360	362	362	361	358	359	360	360	363	360	360	360	360	360	360	361	362	363	363	363	361	368	370	357	357	356	356	355	362	360	354	352	352	352	353	353	353	353	355	355	354	350	351	353	355	354	353	357	358	354	355	357	358	357	350	350	351	357	360	359	355	353	352	353	354	359	361	362	367	367	366	367	367	364	352	343	344	345	348	347	347	348	351	352	354	355	355	357	351	350	350	353	354	355	354	355	353	351	348	350	348	351	353	351	358	362	365	365	363	362	361	357	358	357	354	353	354	357	357	355	351	349	351	354	352	349	352	356	358	359	357	355	355	357	356	356	361	359	355	355	355	353	348	350	357	356	355	361	361	360	354	352	354	358	360	359	359	354	352	350	348	347	345	346	348	350	350	349	350	349	345	342	341	344	356	355	357	360	357	355	351	349	350	353	359	362	364	360	357	356	357	356	357	358	357	359	363	364	363	357	352	353	351	354	355	354	356	360	360	356	359	365	368	367	367	366	364	360	354	355	359	362	359	358	358	354	351	352	352	354	355	355	355	352	350	349	0	0	0	0	0	0	0	0
339	340	340	344	346	345	347	347	349	349	350	350	351	351	352	350	351	350	351	351	351	351	349	349	351	351	352	356	358	358	354	352	352	351	349	348	350	356	355	355	355	355	358	352	350	349	350	350	353	354	347	347	346	343	342	342	342	341	341	343	348	351	351	352	349	348	351	349	349	345	345	345	349	354	360	361	359	355	350	348	348	348	347	346	347	350	353	355	357	357	356	357	357	356	357	358	355	354	353	354	357	358	359	358	358	359	360	360	358	356	354	354	354	353	351	348	349	352	356	354	355	354	356	360	364	364	361	356	359	361	362	359	357	359	361	361	357	354	356	356	356	355	357	361	362	363	360	358	358	360	352	356	359	358	355	352	353	360	361	361	357	354	355	358	361	360	362	363	354	366	367	367	365	363	363	361	357	352	353	362	361	363	360	360	361	360	361	361	357	356	356	357	356	361	363	360	355	354	358	358	357	353	348	347	349	350	355	359	360	360	360	361	359	354	353	354	355	356	356	357	359	353	353	354	355	358	356	352	349	350	354	355	358	356	358	361	358	358	354	357	358	359	359	358	357	353	353	356	357	354	354	354	353	350	352	351	352	353	347	346	348	349	354	354	348	349	352	351	354	355	356	356	360	363	363	359	357	356	357	355	354	350	350	351	354	353	355	354	352	353	355	356	358	358	358	358	355	353	354	356	355	353	353	352	352	351	350	350	356	360	365	365	360	354	351	349	349	350	358	361	360	355	355	352	350	355	349	350	349	350	346	343	342	344	345	346	348	349	348	346	344	347	350	351	352	354	354	353	346	345	350	360	361	359	358	351	353	348	347	347	346	345	346	346	351	353	351	350	349	353	353	353	352	351	349	348	348	351	351	353	355	351	349	345	347	347	346	349	353	355	355	355	355	355	356	353	354	357	358	356	355	355	357	359	360	360	359	357	356	356	355	354	352	352	356	356	356	351	352	357	360	352	348	348	350	356	353	352	350	350	349	346	348	349	352	352	345	338	339	348	353	353	353	352	351	345	345	348	348	347	347	348	349	354	354	353	352	351	348	349	350	348	348	356	357	359	363	362	362	359	349	345	345	344	344	339	340	349	355	353	351	352	351	345	347	347	349	349	350	350	349	351	351	347	343	343	346	349	354	353	356	356	352	352	352	355	355	354	357	357	353	351	350	345	346	353	352	352	349	350	351	349	351	353	355	355	354	353	351	346	351	352	352	350	353	353	353	354	353	348	348	350	347	350	349	347	345	343	343	346	347	343	343	342	347	349	347	345	338	339	339	347	347	346	347	347	343	337	336	337	340	341	344	345	348	347	345	342	342	351	357	355	353	357	354	352	353	353	354	354	353	356	358	357	356	352	348	347	347	349	350	350	349	351	351	350	352	352	358	356	354	353	358	355	352	351	353	347	347	355	353	351	348	349	349	350	351	352	351	349	346	348	0	0	0	0	0	0	0	0
334	335	335	337	340	342	343	343	346	344	343	344	345	345	348	343	344	344	346	346	347	348	347	345	344	344	346	346	346	350	348	347	345	345	345	348	351	353	353	354	355	355	351	349	349	349	346	349	348	347	344	343	343	344	345	345	344	342	342	343	345	347	347	348	347	348	346	343	342	344	345	348	350	353	351	352	353	352	349	347	347	347	350	349	348	347	351	354	356	354	353	353	353	350	349	352	351	351	350	348	347	347	352	355	355	356	354	356	355	354	351	353	351	351	347	344	345	348	349	350	351	352	353	356	360	359	359	356	348	346	346	355	355	359	362	358	354	351	346	349	354	356	356	358	361	361	359	356	353	352	351	352	354	355	356	354	352	352	352	353	353	349	349	352	352	356	357	360	361	355	351	351	351	353	353	356	353	345	342	342	342	351	354	356	357	351	355	359	359	353	351	353	352	344	343	342	346	348	350	350	354	351	347	350	350	349	350	351	350	349	357	357	357	354	351	352	354	357	359	354	351	350	350	352	355	356	356	354	353	353	353	355	355	354	348	346	353	352	346	351	351	354	356	357	356	356	354	352	349	348	348	351	349	348	346	346	345	341	339	340	341	345	347	354	354	352	351	352	348	347	353	354	359	359	355	352	351	352	352	352	353	347	344	348	350	350	351	352	351	350	350	354	354	352	351	349	346	349	349	349	350	348	349	348	349	350	349	348	348	353	355	355	352	348	345	347	347	348	351	357	352	351	351	350	348	346	345	345	345	344	343	340	338	338	340	344	346	347	346	344	340	339	340	343	346	349	349	346	340	346	345	349	349	349	350	339	341	342	345	344	344	345	344	345	345	348	349	350	348	346	346	345	341	341	340	343	346	348	350	349	344	343	345	345	347	345	343	344	348	347	353	352	353	353	356	349	350	354	354	353	353	355	354	354	355	352	352	351	354	352	350	349	348	347	346	345	346	340	348	348	353	354	343	343	343	346	347	346	345	348	347	342	340	345	344	347	339	338	340	342	348	348	348	346	346	347	344	343	347	346	345	346	348	350	351	351	350	348	348	347	345	345	344	344	346	349	350	350	349	346	347	346	345	345	343	338	339	349	352	352	350	349	335	337	340	342	346	346	347	347	345	345	347	345	341	341	344	347	348	353	354	353	349	347	345	346	345	341	342	342	348	347	339	341	343	353	353	352	349	349	350	348	349	350	352	350	350	349	348	347	348	349	349	343	340	349	346	344	344	348	352	350	352	350	348	346	343	341	342	344	343	340	337	336	337	338	338	338	337	339	339	337	343	343	346	343	338	333	334	338	338	341	343	345	344	344	343	339	335	336	329	325	336	342	341	345	345	345	344	350	348	345	349	352	351	347	345	343	341	340	343	345	344	344	345	345	345	346	346	346	344	346	346	351	349	347	343	342	337	340	350	348	344	343	343	342	347	348	350	347	346	344	0	0	0	0	0	0	0	0
330	328	328	331	333	336	338	340	340	337	338	340	343	343	344	339	340	341	345	345	345	345	344	339	336	336	336	334	337	340	342	340	338	338	341	343	348	350	351	351	347	347	348	348	345	345	346	348	346	340	341	341	341	342	347	350	348	344	343	344	345	347	348	348	348	347	346	342	340	339	337	336	339	346	348	342	344	345	346	345	346	347	347	341	337	335	340	345	347	347	346	341	340	340	342	347	350	351	351	347	343	344	347	351	350	348	349	350	352	350	348	348	347	345	345	343	344	345	347	348	349	350	350	349	348	348	350	351	349	348	348	349	351	354	354	351	346	343	344	346	347	346	346	346	346	347	348	349	350	349	349	351	353	354	355	355	355	353	345	340	343	348	352	353	353	349	346	347	345	347	349	351	352	354	356	357	354	351	350	349	349	351	352	354	357	350	355	354	356	351	349	348	347	345	345	346	347	347	346	345	344	345	347	348	348	348	347	345	342	342	345	348	352	348	346	346	353	356	348	349	348	347	349	351	352	352	354	354	351	354	352	352	352	350	345	343	345	345	340	344	348	347	349	353	356	355	352	349	344	344	342	342	344	343	343	343	342	339	337	336	337	342	342	343	343	341	340	346	345	343	343	348	349	348	348	348	348	349	345	343	344	343	342	343	348	350	350	350	347	347	345	344	343	346	348	351	350	347	343	344	345	344	347	346	348	345	345	345	346	341	343	344	351	344	343	344	348	348	346	350	350	350	348	346	345	343	342	340	343	342	342	339	339	339	339	341	346	345	343	341	338	338	339	341	342	344	345	341	342	343	345	346	343	339	335	335	336	336	331	335	335	344	345	345	341	342	343	349	348	347	343	343	336	335	335	337	344	349	348	344	345	343	344	344	347	344	342	337	338	336	332	335	336	341	348	344	344	345	347	345	346	352	351	349	352	348	349	349	348	348	348	346	345	338	338	341	335	340	337	344	345	347	340	338	339	333	336	338	339	341	345	341	337	337	344	332	331	333	335	342	342	335	335	336	348	346	342	341	341	342	342	343	343	345	345	345	346	345	342	338	343	343	342	341	341	346	334	334	336	338	344	348	345	344	341	339	339	349	350	349	339	333	331	334	335	334	335	335	334	333	338	340	339	341	342	340	343	345	347	351	351	352	347	343	341	340	337	335	336	338	338	341	340	338	337	339	341	345	347	345	344	339	339	346	343	344	344	346	347	348	342	345	342	340	339	342	342	340	338	339	346	345	342	341	341	344	343	342	342	331	330	334	335	334	333	335	338	340	339	338	338	337	336	336	337	336	335	333	332	335	338	341	342	341	341	341	337	337	336	332	326	326	335	335	334	335	336	339	340	339	337	338	340	342	344	343	341	339	337	335	337	342	342	342	342	341	341	342	341	339	340	341	342	341	343	340	339	334	333	332	333	334	335	335	337	339	339	338	339	338	338	340	0	0	0	0	0	0	0	0
328	327	328	328	330	332	333	331	331	333	336	337	339	339	340	338	339	339	340	340	341	341	337	333	330	328	328	333	338	340	339	337	337	337	340	343	347	348	346	341	338	338	341	342	341	341	342	342	335	335	336	336	337	343	346	344	344	342	342	342	342	346	348	348	346	346	344	345	340	338	338	339	340	340	342	341	339	342	341	342	341	338	338	336	334	336	337	338	338	343	343	339	337	336	339	343	347	350	351	347	343	342	344	347	346	345	344	345	348	350	347	345	343	340	332	332	335	337	336	339	339	340	340	339	339	338	335	334	337	340	343	342	334	333	335	337	338	334	332	333	336	338	337	337	343	346	347	348	348	348	348	348	351	350	348	348	345	340	340	340	341	349	353	354	351	346	345	346	345	348	349	350	352	353	351	350	353	352	352	351	349	346	346	346	346	345	349	351	352	349	348	347	346	344	344	342	341	341	342	344	342	339	338	345	347	343	342	341	339	338	341	346	346	344	342	343	343	345	345	347	345	343	344	346	349	350	349	351	350	349	349	349	349	345	344	343	337	338	339	344	346	343	340	340	342	348	350	345	343	340	338	338	338	341	342	340	339	339	338	336	335	338	336	337	340	340	340	340	338	334	341	342	340	338	338	342	344	345	344	343	335	336	338	338	341	340	339	339	336	339	340	338	337	339	343	343	344	344	343	344	343	342	340	339	341	340	340	341	336	337	331	336	348	345	343	341	345	345	346	348	348	349	346	344	341	340	337	337	337	341	338	338	340	340	341	340	343	344	341	335	335	337	336	337	339	341	343	342	341	342	343	341	339	337	333	329	328	329	330	332	334	335	335	336	339	340	343	344	339	340	340	339	337	328	331	333	338	344	336	340	340	344	344	344	344	343	340	330	330	329	332	334	334	337	338	341	340	337	333	333	336	344	344	343	348	342	342	339	337	337	332	332	336	337	337	330	330	332	334	340	341	340	338	337	332	333	332	339	339	341	337	335	334	332	330	328	327	327	331	335	337	333	332	343	336	334	335	335	335	334	335	337	337	339	339	339	336	342	342	340	342	341	340	338	333	330	332	329	332	333	336	337	334	333	333	333	338	337	337	339	338	335	332	330	330	329	330	331	332	335	334	331	330	328	337	341	340	341	343	346	348	348	347	342	340	338	335	335	332	333	333	337	337	339	337	336	334	337	340	340	339	338	336	338	339	336	337	338	339	334	337	335	334	337	338	338	339	338	337	337	342	342	340	339	339	340	338	335	331	327	327	328	332	333	332	335	338	338	338	336	335	337	336	334	334	333	331	329	329	333	336	338	338	336	335	334	331	334	335	326	331	327	323	327	328	329	330	332	332	330	330	329	331	341	343	341	337	335	332	331	331	335	335	340	337	339	338	339	339	337	336	338	338	337	336	335	331	331	330	329	330	331	331	331	333	335	336	333	334	333	334	337	0	0	0	0	0	0	0	0
329	323	322	322	323	325	323	326	326	332	336	337	338	338	338	334	334	333	331	331	326	325	323	323	325	328	328	333	337	335	332	329	333	333	336	338	338	338	335	335	335	335	335	333	331	335	337	336	333	332	335	335	336	336	337	340	339	341	340	338	338	340	343	343	342	342	344	345	344	339	342	343	342	340	339	338	337	340	341	341	339	339	339	338	337	338	337	336	337	337	339	337	337	337	338	341	344	346	346	343	344	344	343	340	337	334	335	341	346	348	349	347	342	338	332	330	326	328	329	333	334	333	335	336	336	336	333	334	339	340	340	336	333	332	333	336	335	332	332	334	333	333	334	335	337	337	344	344	345	346	347	347	345	343	343	342	340	338	339	343	346	349	350	349	349	344	340	345	349	349	350	352	351	350	349	349	350	352	350	345	344	344	347	344	345	344	345	348	349	346	343	343	344	343	342	335	333	335	336	339	339	339	338	337	337	338	339	336	334	334	338	343	344	338	335	331	331	343	344	344	341	343	342	340	341	342	343	343	344	344	341	340	335	334	335	336	336	336	337	339	341	340	339	334	337	339	350	346	343	338	335	335	333	333	333	332	343	340	339	335	334	332	332	333	337	339	339	338	336	330	329	333	337	330	333	339	342	344	343	336	334	333	333	333	334	333	331	332	333	327	335	335	336	338	339	339	340	342	344	341	340	331	329	330	331	333	332	333	330	331	331	337	348	337	340	339	340	338	338	343	344	345	345	340	337	334	333	332	332	335	338	339	338	340	339	338	335	339	338	333	334	332	333	332	333	338	340	342	343	345	342	332	331	330	329	327	326	330	332	332	335	335	337	337	338	338	340	342	340	331	330	330	329	330	331	333	334	332	331	337	335	336	343	343	342	343	337	328	326	329	334	335	336	338	338	335	333	329	327	328	330	333	334	340	339	336	334	334	331	334	334	335	333	330	328	325	331	331	333	337	337	337	335	332	330	332	332	334	337	336	334	330	330	332	331	329	325	325	329	332	337	332	332	331	333	333	332	332	331	331	330	328	329	332	333	340	339	341	345	341	336	339	327	328	329	330	330	329	331	330	330	324	323	322	322	329	331	333	339	338	338	335	330	327	325	327	327	337	337	335	335	331	324	324	328	342	340	338	335	333	331	330	335	339	336	335	331	330	328	331	330	331	334	337	336	334	331	332	336	337	338	335	332	334	334	335	335	333	332	333	334	333	332	332	333	336	336	336	336	337	337	337	338	337	339	337	333	327	325	324	325	326	330	330	332	334	336	336	336	335	335	334	332	332	330	327	325	326	327	329	330	333	332	331	329	327	325	324	327	330	326	325	323	320	323	324	327	328	329	327	323	322	320	325	328	341	335	331	330	328	328	331	331	333	332	334	337	337	336	334	332	334	334	330	329	328	328	326	329	330	328	328	329	329	330	334	336	340	333	330	330	332	0	0	0	0	0	0	0	0
322	320	323	323	325	326	326	329	329	331	333	337	338	337	337	333	330	328	329	324	324	320	322	323	326	327	327	329	328	325	325	328	332	332	333	331	328	332	334	335	335	333	333	331	329	329	330	331	330	332	330	330	330	334	334	333	335	337	337	335	335	336	338	337	337	336	343	344	345	344	343	344	342	338	336	334	335	336	336	337	335	334	334	334	335	337	335	334	334	335	335	336	336	337	336	335	340	341	341	339	340	344	341	337	332	327	329	331	333	334	334	339	337	333	329	325	323	324	327	331	333	331	334	334	332	329	328	331	338	338	337	334	331	330	331	333	333	333	331	334	334	333	334	335	336	335	334	334	338	341	334	333	329	332	331	333	335	336	335	333	340	340	341	340	339	337	337	337	340	342	345	345	350	347	347	347	347	347	345	341	338	344	347	345	344	344	341	347	346	343	341	340	341	339	330	328	329	330	333	337	337	336	336	337	337	337	335	333	330	328	334	340	338	336	333	330	330	329	331	341	339	336	335	337	337	337	337	335	335	333	333	331	330	332	335	335	335	335	336	338	336	336	328	328	330	335	334	344	346	341	337	331	332	331	331	332	344	342	333	332	332	331	330	328	330	334	334	329	331	329	326	326	327	327	332	334	338	341	336	334	328	328	328	330	331	331	329	328	325	328	327	331	333	337	338	338	338	338	340	340	336	328	322	323	326	329	329	327	327	336	332	333	335	340	338	336	341	339	338	338	331	332	331	333	332	331	332	331	329	328	335	336	337	335	334	332	330	332	330	330	326	331	332	330	331	332	336	337	335	333	331	336	330	329	329	325	326	326	330	335	335	338	338	337	335	334	329	331	333	337	331	330	329	329	329	331	331	328	330	332	332	332	331	340	341	340	334	329	327	326	332	330	331	334	335	332	328	326	327	328	329	330	328	329	327	326	322	323	326	333	334	330	327	324	323	330	331	329	327	327	336	337	334	329	328	330	328	330	332	332	330	328	328	328	329	328	326	327	325	332	333	332	328	329	330	330	329	329	329	330	330	328	329	331	332	336	338	341	344	338	333	331	323	321	330	329	329	328	329	329	327	324	321	320	322	329	333	334	338	338	334	329	322	323	325	325	327	337	337	337	335	325	326	327	328	328	336	336	332	329	329	328	329	330	332	333	329	328	330	329	329	328	331	336	334	332	329	329	328	328	322	327	325	328	327	327	325	327	327	329	330	330	330	330	330	330	331	332	331	332	333	334	337	339	337	331	323	321	321	322	321	318	320	326	330	331	333	333	332	332	333	331	328	324	325	324	324	325	326	327	327	326	325	325	322	321	319	325	326	328	328	326	320	318	318	322	325	325	324	322	320	320	319	324	327	328	326	321	325	325	325	325	327	328	330	331	331	333	333	331	328	328	330	329	328	328	327	326	328	328	327	326	326	328	329	332	332	338	333	326	326	329	0	0	0	0	0	0	0	0
316	317	319	319	323	324	327	325	325	325	324	325	332	334	334	330	327	326	326	323	323	320	320	323	325	324	324	324	322	322	324	327	327	325	325	324	325	334	335	337	334	331	331	328	327	328	330	328	330	329	326	327	327	330	331	331	332	334	335	333	331	331	332	331	331	331	336	343	342	338	341	342	338	336	333	332	333	333	332	332	331	331	331	331	334	332	331	329	329	330	326	325	325	327	331	333	334	337	332	329	327	330	328	327	324	317	320	326	327	326	326	326	324	325	326	322	320	320	323	325	327	329	331	331	327	325	326	328	329	333	331	327	324	322	324	328	331	330	327	329	334	335	334	334	334	331	331	337	334	331	331	331	327	326	326	326	326	324	326	332	336	339	339	339	337	336	335	338	339	341	342	341	342	346	343	342	341	341	338	334	336	339	347	340	340	339	339	339	339	338	335	330	331	327	325	321	327	327	328	329	326	327	329	334	340	339	335	331	325	323	330	329	332	332	332	328	327	327	323	322	323	333	334	333	328	334	332	330	330	327	328	330	333	334	336	334	334	334	335	335	333	323	323	327	328	331	331	334	338	338	333	327	328	329	329	323	324	327	329	331	331	331	331	326	327	330	327	324	323	324	325	326	326	326	327	327	329	330	328	327	327	328	328	325	327	327	328	324	324	324	327	329	331	334	332	329	332	334	336	333	324	321	320	322	327	325	325	324	325	326	325	324	325	327	329	331	334	337	339	338	330	329	326	324	326	328	329	328	326	325	325	330	331	331	328	327	325	325	316	323	326	326	326	326	327	330	330	330	330	322	323	324	324	325	328	327	327	327	325	326	327	327	327	326	325	324	323	324	327	328	328	330	330	328	327	327	329	329	326	327	327	328	327	326	332	336	331	326	324	327	325	328	330	330	334	331	328	326	327	328	329	329	326	317	318	320	324	323	318	317	317	316	320	322	322	323	327	325	323	324	326	328	329	329	325	326	326	324	328	328	327	327	327	327	325	327	326	329	326	326	327	328	326	327	330	331	329	328	326	329	331	329	322	320	321	333	331	330	332	330	328	324	323	322	320	325	323	324	325	327	325	321	319	318	319	323	325	324	326	329	328	325	321	322	324	330	333	336	336	335	321	320	323	325	327	328	327	327	328	326	325	325	325	327	327	327	328	328	325	321	320	320	320	319	325	329	328	328	326	321	320	321	322	319	321	323	323	325	326	326	329	329	329	328	326	324	325	329	329	324	322	324	325	326	324	321	320	321	321	322	320	318	320	325	328	329	327	329	328	328	329	326	323	321	322	321	321	319	318	319	326	325	324	323	321	321	321	323	325	327	326	324	317	315	316	317	324	325	324	316	314	318	319	322	320	318	320	321	321	320	321	321	322	324	327	329	328	328	329	326	325	323	326	328	328	328	327	327	325	326	327	326	326	325	328	329	328	326	323	321	322	324	0	0	0	0	0	0	0	0
312	313	314	314	318	324	324	322	320	320	320	323	330	331	331	323	324	325	326	322	322	315	316	319	322	322	322	322	322	323	323	323	321	321	321	322	325	327	328	326	327	327	327	324	322	324	325	328	328	324	323	326	326	328	329	328	327	331	332	331	328	326	327	327	327	327	331	335	335	330	323	323	326	325	330	329	332	332	329	329	330	330	330	331	331	328	325	325	325	326	326	324	325	326	327	329	329	327	324	322	323	324	321	320	318	316	319	322	322	322	322	322	321	321	323	321	319	320	323	325	326	327	327	326	323	322	324	325	328	327	325	321	320	320	322	326	330	324	325	327	331	333	333	332	330	329	328	330	329	329	330	331	326	324	323	324	323	323	323	322	325	326	332	334	336	334	335	332	325	328	329	341	339	341	340	338	337	337	332	333	335	339	344	335	334	334	335	334	331	328	325	325	329	327	325	323	322	323	323	323	323	324	322	326	336	336	332	326	322	317	317	320	322	324	328	325	324	323	322	321	322	324	326	324	329	329	327	329	328	327	328	330	332	333	334	335	334	331	328	326	327	323	323	323	322	325	326	328	328	329	327	327	329	329	325	322	322	322	325	328	330	329	323	322	323	325	328	326	322	320	324	323	323	323	322	324	327	327	325	327	327	329	326	322	320	325	322	321	323	323	322	322	322	323	325	323	324	328	334	328	324	321	320	320	321	317	318	321	323	326	322	322	322	323	324	324	322	322	326	325	325	324	322	320	319	318	318	319	322	318	318	318	322	328	327	324	326	314	319	318	321	325	324	324	323	322	324	322	324	320	318	316	321	321	327	327	328	323	324	323	325	325	324	323	323	323	324	324	325	325	321	321	320	322	325	323	328	327	326	326	325	326	319	319	323	326	327	326	325	325	325	326	324	317	322	324	326	324	323	326	321	318	314	312	314	319	319	315	315	315	315	316	318	321	322	320	320	321	318	321	321	323	321	321	325	322	323	322	321	323	319	319	324	324	323	323	328	327	326	324	322	318	320	322	323	325	327	325	323	321	321	320	319	318	319	318	321	325	328	327	324	322	320	317	316	316	320	325	326	323	324	322	324	323	319	319	318	320	322	326	328	325	323	321	322	326	331	333	332	332	318	318	320	323	324	322	325	324	321	321	321	321	321	322	318	321	328	328	325	322	317	317	315	315	319	320	319	317	319	318	318	319	312	312	313	316	319	321	323	326	327	326	327	326	320	321	325	323	322	324	321	321	322	320	321	320	320	322	324	321	318	316	321	323	327	327	324	324	317	315	314	314	321	318	320	312	312	314	314	317	317	318	323	322	315	316	317	321	323	323	318	321	318	314	315	320	320	320	320	319	315	316	316	312	312	317	320	322	320	319	319	311	320	324	326	328	326	325	324	324	322	321	318	321	326	326	326	325	323	324	326	324	324	321	322	325	323	323	322	320	322	323	0	0	0	0	0	0	0	0
309	309	312	315	315	321	322	320	320	320	320	322	323	325	325	323	319	322	322	316	316	312	314	318	323	321	321	321	320	322	323	321	323	323	323	321	321	322	323	326	326	324	324	323	317	320	323	325	321	321	320	322	322	325	325	326	323	322	328	324	324	324	325	321	319	319	319	319	318	317	319	319	322	321	320	324	324	327	327	328	328	328	329	328	328	326	323	322	322	323	325	325	324	323	323	323	321	317	316	319	320	319	317	317	318	318	322	321	320	319	319	319	317	317	320	319	319	318	320	324	324	324	324	322	321	321	320	322	324	325	323	320	319	318	318	322	323	319	319	325	330	330	330	331	331	331	327	326	326	327	329	328	326	323	320	319	319	322	322	322	324	326	327	325	322	320	325	323	324	326	327	331	337	338	336	332	329	327	335	332	335	338	332	331	331	329	325	326	326	325	325	327	328	328	327	325	322	321	320	320	321	315	315	317	331	323	322	321	318	318	316	315	317	322	323	322	323	321	321	317	317	316	318	321	320	319	325	327	326	325	324	327	330	319	319	320	321	325	326	326	322	322	320	320	320	321	323	324	325	329	333	332	328	324	323	321	321	323	323	323	322	321	318	318	320	321	323	323	320	319	319	319	320	320	319	318	322	323	324	323	323	320	320	318	319	320	321	322	322	321	321	320	320	322	323	323	323	326	326	326	326	323	323	321	321	315	316	318	322	321	321	318	317	319	321	322	321	318	319	321	320	319	319	319	317	316	316	315	313	315	317	320	318	321	327	326	317	314	315	316	314	321	322	322	319	319	318	317	319	319	317	317	318	323	324	327	320	320	320	320	321	322	322	322	321	323	324	323	323	320	318	317	319	322	318	318	317	318	322	323	324	321	320	320	321	322	321	321	323	322	322	322	317	320	318	319	321	319	317	320	319	316	314	312	310	311	312	314	312	312	313	316	318	321	320	319	319	318	319	321	320	320	318	317	316	318	319	320	319	319	318	315	313	316	317	320	321	323	324	323	318	318	319	321	321	321	319	320	320	319	319	318	318	314	315	315	317	320	321	321	319	317	314	313	313	318	323	324	320	317	315	323	325	325	318	313	314	316	318	323	328	327	320	316	316	322	326	329	326	325	319	319	319	321	318	320	322	322	319	317	318	319	321	319	314	315	318	317	317	318	317	316	315	315	315	313	314	313	313	314	313	311	312	312	312	313	316	317	320	320	317	317	316	317	316	318	322	321	319	320	318	318	315	316	319	319	319	324	324	320	316	313	319	322	325	324	320	315	315	315	314	313	312	315	311	309	311	310	310	312	313	315	315	313	314	315	317	318	320	312	311	313	314	315	315	318	318	319	318	317	315	314	312	310	308	310	311	318	317	310	310	314	316	319	322	323	322	322	318	320	317	315	314	317	322	323	322	322	321	320	324	324	320	319	317	319	319	318	317	316	315	316	0	0	0	0	0	0	0	0
