155	155	154	154	155	155	154	154	153	153	153	152	153	153	153	153	154	154	155	155	156	158	157	155	155	157	157	158	157	157	158	157	157	156	156	157	158	160	163	160	160	160	160	157	158	160	160	160	160	158	158	159	160	160	159	159	160	160	160	160	160	160	160	160	162	161	159	159	159	159	159	159	160	161	162	161	161	162	164	164	163	163	164	160	161	163	163	163	163	163	159	160	159	158	159	159	160	159	160	160	161	161	159	159	158	159	159	157	160	160	162	162	163	162	162	163	161	163	162	161	161	161	163	162	165	162	162	162	163	162	162	163	165	165	166	163	163	162	163	163	163	159	162	162	163	165	166	164	164	165	163	162	166	163	163	163	164	166	165	164	165	166	164	163	162	164	164	164	165	165	166	166	166	162	163	163	165	167	164	164	165	165	166	163	163	164	165	166	166	166	166	165	166	166	166	167	167	167	167	165	165	165	167	167	167	166	165	165	166	168	167	167	165	165	165	165	168	165	167	168	166	167	170	169	169	169	167	167	167	168	167	168	168	169	168	169	169	168	167	168	167	168	169	170	170	170	170	170	171	170	168	169	168	168	169	170	169	170	170	170	170	170	171	169	169	169	171	170	169	168	170	171	171	170	169	168	168	168	167	167	171	168	170	171	171	170	170	171	171	172	169	168	168	169	168	171	171	169	169	170	170	170	171	172	170	171	172	173	173	172	171	170	170	170	168	166	167	170	171	172	172	171	170	170	169	172	171	171	171	169	171	172	171	170	170	170	170	173	172	170	170	169	171	170	169	169	169	168	166	167	168	168	169	168	169	168	168	170	170	170	171	171	172	170	167	168	169	170	171	170	171	169	171	171	172	170	171	171	172	173	173	173	171	170	171	172	172	173	171	171	170	171	168	171	168	171	173	169	171	170	171	171	170	168	169	169	170	168	169	169	172	173	173	171	171	171	169	168	168	169	170	171	171	173	173	173	169	172	171	171	171	168	166	165	169	170	170	170	168	168	168	171	169	168	169	169	167	169	169	168	168	168	169	168	169	169	169	167	168	169	168	168	170	170	169	170	168	167	167	167	168	169	168	167	168	166	167	168	168	170	168	168	167	167	166	166	168	169	167	166	164	164	165	167	167	166	166	165	164	165	165	165	165	165	164	163	163	165	164	164	164	166	163	163	162	163	164	164	166	165	164	164	167	164	163	164	164	164	161	162	161	161	161	161	162	161	162	161	162	164	165	163	162	163	167	166	166	165	163	162	162	161	162	160	161	159	155	157	163	161	160	160	160	162	161	161	164	161	161	161	160	157	159	158	158	158	158	158	158	159	158	158	158	156	157	157	159	157	160	162	162	161	159	158	158	157	158	156	156	155	159	161	160	158	157	158	157	157	156	156	157	157	157	155	155	156	157	157	158	159	159	159	159	158	157	157	157	157	157	156	156	156	156	156	157	157	156	156	156	0
151	153	153	155	154	154	154	153	152	150	150	151	153	153	156	156	154	156	156	156	156	157	156	156	156	156	157	158	157	157	158	157	156	155	157	157	159	159	159	160	160	160	157	157	158	158	160	160	159	157	159	160	160	161	161	160	159	159	159	160	160	161	161	162	162	159	159	160	160	158	158	158	160	161	162	160	159	161	164	162	162	162	157	156	159	162	162	160	161	161	160	157	157	157	158	159	160	162	163	163	160	159	159	158	157	157	157	158	159	160	160	162	163	162	162	163	162	161	159	161	163	161	162	162	163	162	161	161	163	162	162	162	163	162	160	160	159	161	163	164	164	160	163	164	164	164	165	166	163	161	161	158	165	160	161	163	163	165	166	164	167	162	163	164	164	164	164	164	165	164	164	165	164	164	163	163	166	166	166	163	163	165	166	163	163	164	164	166	167	166	166	165	167	167	167	168	168	169	167	165	164	164	165	168	166	166	164	164	166	167	166	167	166	165	166	165	167	167	166	165	167	166	169	167	168	167	166	167	168	168	168	167	168	167	167	168	167	167	165	166	166	167	169	170	169	169	168	168	169	168	168	168	168	168	168	168	168	168	168	169	169	170	168	168	169	168	166	165	166	167	168	170	170	171	170	170	171	169	169	169	166	169	169	169	169	170	170	171	171	172	172	170	172	170	173	172	171	170	169	169	170	169	171	172	169	170	173	170	171	171	170	170	169	167	165	166	166	167	171	172	172	171	171	170	171	172	173	173	170	170	170	170	170	170	169	169	170	173	170	170	170	169	170	169	169	169	169	168	167	165	167	167	167	168	168	167	169	170	169	172	170	169	169	169	171	169	169	170	171	171	171	170	170	170	170	167	167	168	171	172	171	169	170	168	169	172	171	172	172	172	169	168	169	166	170	171	172	171	172	170	170	168	168	169	169	169	169	169	169	171	170	171	171	171	170	170	168	168	167	170	171	171	172	171	171	169	169	170	171	172	172	170	169	168	170	170	170	170	169	169	168	170	168	167	167	167	166	168	169	168	167	167	168	168	168	169	169	169	167	167	166	167	168	169	169	169	167	167	167	167	168	168	168	166	166	165	163	167	167	167	168	168	166	166	165	165	166	167	166	165	164	165	167	169	168	168	166	164	165	165	167	168	168	168	167	164	164	164	163	164	164	166	163	162	161	163	163	163	163	163	163	165	167	167	166	163	164	165	164	164	161	160	161	161	161	161	163	162	164	163	161	159	157	157	162	162	163	160	163	162	162	161	160	159	160	159	156	156	162	160	161	161	161	161	161	159	160	160	162	162	159	159	157	157	157	158	158	158	156	158	158	158	157	156	156	157	160	157	159	159	160	162	157	157	156	156	155	153	157	155	156	159	158	158	158	157	157	157	158	159	158	158	157	156	155	155	155	156	158	158	159	158	159	158	157	157	156	156	157	156	156	156	156	158	158	154	155	156	156	156
152	153	153	155	154	154	154	153	152	151	153	153	153	153	153	153	154	155	156	156	156	157	156	156	156	156	157	156	156	157	157	157	156	159	158	158	158	158	159	159	158	158	157	158	158	158	159	158	158	157	159	161	161	161	160	160	159	159	159	159	159	161	161	162	163	155	157	158	159	160	160	160	160	160	160	159	159	161	159	158	158	158	157	158	159	159	159	159	158	160	160	157	158	158	158	158	160	161	161	161	160	160	159	158	158	158	158	158	158	158	162	160	162	161	161	163	160	160	160	161	163	163	161	161	162	161	161	161	160	161	162	162	163	163	159	159	161	162	162	164	164	164	164	163	163	163	165	165	163	162	161	161	161	162	161	164	166	164	165	163	161	160	163	163	164	164	164	164	164	164	162	164	164	163	165	165	165	166	166	166	162	165	164	166	165	165	167	165	166	165	164	164	164	166	167	167	167	168	166	167	164	165	165	165	165	164	164	164	164	167	166	165	166	165	166	166	166	166	166	166	166	166	167	166	165	168	168	167	166	168	168	168	167	168	166	166	166	166	165	165	169	169	170	168	168	168	168	167	168	167	168	167	166	167	168	168	169	168	169	169	169	167	167	168	168	166	166	166	166	167	167	170	170	169	167	168	168	169	167	168	166	167	169	169	168	168	168	168	168	168	168	168	170	172	170	170	169	169	169	168	169	169	170	172	169	170	173	170	172	170	170	169	167	166	166	166	167	168	169	169	170	171	171	169	167	166	165	167	169	169	169	169	171	168	167	168	169	171	170	169	169	168	169	168	167	169	169	167	167	165	167	166	166	167	167	168	169	170	169	170	170	170	171	169	171	172	172	171	170	171	168	168	168	167	168	163	164	169	167	168	169	169	170	170	169	169	169	168	170	170	171	169	168	169	170	172	171	173	172	168	170	168	169	171	170	170	169	171	172	170	171	170	169	170	169	170	169	169	167	167	167	169	171	171	169	168	168	168	168	168	169	169	169	168	169	169	171	169	170	169	170	169	166	165	165	165	166	166	168	168	166	166	167	168	169	169	169	167	168	168	166	166	166	166	167	168	168	167	167	167	168	167	167	164	164	164	163	164	165	165	169	167	166	165	165	165	164	164	166	165	164	164	166	167	168	166	166	166	166	166	167	166	168	166	165	164	164	165	163	163	164	166	166	163	160	165	164	162	162	161	162	165	167	167	166	165	163	164	164	163	163	162	159	161	162	163	163	162	161	162	162	162	161	159	158	158	160	161	161	161	161	161	161	158	160	160	159	159	158	160	162	162	161	161	161	159	159	158	158	161	159	161	157	157	157	157	158	159	158	158	158	157	157	157	156	157	161	161	160	159	160	161	161	159	155	155	155	157	156	155	157	156	155	155	155	155	155	156	157	159	159	159	157	157	154	154	155	155	156	156	157	157	157	155	155	157	157	157	156	155	155	156	156	155	154	155	155	154	155	155
153	152	152	152	154	154	153	153	152	151	154	154	154	156	148	150	150	156	156	156	156	156	156	156	154	154	156	156	153	154	156	156	158	157	157	157	157	157	159	159	158	157	157	159	159	159	157	159	159	158	160	161	161	161	157	157	157	158	158	158	159	159	159	159	157	155	159	159	160	160	161	162	162	161	162	159	158	158	157	156	157	157	157	158	158	159	159	159	159	158	160	158	159	159	159	157	160	160	160	160	160	160	160	158	158	158	158	158	160	160	158	160	162	162	160	160	159	158	159	160	159	160	159	160	161	162	160	159	160	162	162	161	163	163	164	162	162	163	164	163	163	165	165	164	165	160	160	162	162	161	161	159	159	158	161	160	161	160	160	161	160	160	161	163	164	164	164	163	162	163	164	164	168	168	166	165	165	164	165	164	164	163	165	166	166	165	165	165	164	165	164	164	164	165	165	166	166	166	167	166	166	163	164	161	163	164	163	164	165	168	168	166	165	165	164	166	166	166	164	165	166	166	166	165	164	167	166	165	166	166	168	169	169	169	167	166	166	166	165	167	167	166	166	167	167	168	167	168	168	167	166	167	166	167	167	170	171	168	167	168	167	168	167	166	166	167	165	164	165	165	165	167	167	168	166	167	167	168	168	168	166	168	168	168	168	168	167	166	166	167	167	167	168	168	168	167	168	168	169	168	168	168	170	170	170	170	169	168	169	167	168	168	169	166	168	166	164	165	166	167	170	171	169	168	166	166	165	165	169	170	170	169	169	167	166	168	168	168	167	167	167	167	168	168	169	168	169	169	169	168	167	166	166	168	167	166	166	168	170	172	171	169	169	168	171	171	171	169	169	169	168	168	166	166	166	167	169	168	169	168	169	168	169	169	169	169	168	168	169	169	168	168	167	169	170	170	170	168	169	169	168	169	169	171	170	171	172	172	171	170	168	170	169	168	168	168	168	168	168	167	169	167	168	167	167	168	168	168	168	167	165	166	166	168	170	170	170	172	171	169	169	165	164	163	164	165	165	166	167	168	167	166	167	168	168	168	167	166	166	166	167	167	165	166	168	168	168	168	167	167	167	166	164	163	164	163	162	163	163	164	166	165	166	163	163	164	166	163	165	166	164	163	164	167	167	164	166	166	165	165	166	165	162	165	165	165	166	168	168	164	163	165	165	160	158	160	162	163	162	163	163	163	164	164	165	165	163	163	163	163	162	161	160	159	159	161	160	163	161	162	162	161	161	160	158	160	161	161	160	160	161	162	159	160	162	162	163	162	161	159	159	158	156	158	161	161	159	158	159	159	162	156	159	156	156	157	158	159	159	158	158	157	156	157	156	159	160	161	162	159	160	160	158	157	155	155	156	154	156	155	157	157	155	155	155	155	156	156	156	157	158	158	157	156	156	154	155	154	155	155	155	155	155	155	155	157	156	156	156	156	155	155	155	154	153	155	155	154	154	155
151	151	152	152	153	154	153	153	153	152	153	155	155	148	148	152	152	154	156	155	155	155	156	156	153	155	155	156	155	155	154	154	158	157	157	156	157	157	157	159	158	157	159	159	159	159	157	158	157	157	157	157	157	157	157	156	156	157	156	156	156	158	159	158	158	159	159	158	160	160	159	161	161	159	159	159	158	155	157	156	156	156	156	156	155	155	158	158	159	160	160	160	160	160	160	159	157	157	157	156	158	158	158	157	156	160	161	158	160	159	159	157	161	161	159	159	159	159	159	160	159	160	159	159	160	159	156	156	160	159	159	160	160	161	161	163	164	162	162	165	164	163	162	163	163	158	158	164	162	161	162	161	160	160	160	161	159	161	162	162	160	160	161	161	163	163	163	163	164	164	165	165	162	162	168	166	164	165	164	164	165	166	166	166	166	165	161	163	164	163	163	163	163	164	164	165	165	164	164	166	166	162	160	160	163	162	164	164	166	167	165	166	163	164	165	165	166	163	164	165	165	165	164	163	163	164	165	165	165	166	168	168	169	169	167	166	166	165	167	165	166	166	167	167	166	167	167	166	165	165	167	166	165	166	168	168	169	169	167	166	167	166	165	166	167	167	167	163	164	164	164	164	164	166	167	165	167	167	168	168	167	167	166	167	168	167	168	165	165	167	168	170	166	166	167	168	170	170	170	169	169	168	169	169	170	170	168	168	168	167	167	167	169	170	168	166	164	166	166	166	166	166	169	168	167	167	167	168	169	169	168	167	168	168	167	169	168	169	168	166	167	168	167	167	169	167	169	169	169	168	168	165	167	168	167	167	166	168	170	173	170	169	168	167	170	168	168	168	168	167	168	168	166	166	164	166	169	169	169	168	168	169	169	169	168	168	169	169	169	169	168	167	166	166	168	169	168	167	167	165	166	167	169	170	168	169	170	169	168	168	168	168	167	167	167	167	167	168	168	169	170	167	167	166	165	167	167	167	167	164	165	166	165	165	167	168	167	170	172	169	168	166	163	164	163	163	165	166	168	168	168	168	167	167	167	166	166	165	166	168	166	166	165	165	167	168	166	166	167	167	165	164	163	163	163	163	162	163	163	164	166	165	164	164	163	165	164	166	165	166	165	163	162	164	164	164	162	162	165	164	164	167	165	165	165	163	165	167	167	164	162	165	163	162	160	163	163	163	163	161	160	162	162	163	164	161	161	161	162	162	161	162	160	159	159	161	162	161	161	162	161	161	163	163	159	160	161	160	159	160	160	160	160	160	161	161	163	162	159	159	158	159	158	159	161	161	160	158	157	157	159	159	157	157	157	159	159	157	157	158	158	156	156	156	157	159	161	161	161	161	161	162	162	156	155	155	153	153	155	156	157	156	156	156	155	154	155	154	154	153	156	158	156	156	156	155	155	155	153	152	155	155	155	155	156	157	157	154	154	153	153	154	153	153	152	152	152	152	152	152
151	151	151	152	152	154	153	154	154	151	151	151	151	148	150	152	150	150	152	153	155	155	155	155	153	156	156	154	155	152	154	158	158	157	157	156	156	156	156	156	156	156	157	157	159	157	157	157	157	155	155	155	155	154	155	154	156	156	156	156	156	157	158	158	158	158	159	158	158	158	158	158	158	158	159	158	154	154	156	154	154	157	160	160	160	157	157	159	160	162	160	160	160	158	157	157	156	156	157	158	158	159	158	158	156	161	161	158	158	158	158	158	158	158	158	158	159	159	160	160	160	160	159	158	158	159	157	159	157	159	160	158	161	163	161	164	163	162	161	162	162	162	162	160	159	160	159	163	163	161	159	160	158	159	160	158	161	159	161	160	161	161	160	161	161	161	161	164	163	162	162	162	161	161	166	165	165	165	165	166	166	164	165	165	162	165	161	161	163	163	164	164	163	164	165	166	165	164	164	164	164	161	160	160	160	164	164	165	166	163	163	163	163	163	164	164	164	162	163	164	162	162	164	165	162	162	164	165	164	166	168	168	168	169	166	167	166	166	168	167	169	166	166	166	166	167	166	165	164	166	165	164	164	165	165	165	168	166	167	168	166	167	164	166	167	168	167	167	168	167	167	168	169	166	165	164	165	167	167	166	166	167	166	167	168	168	168	168	166	167	167	168	166	167	167	171	170	170	168	168	168	170	171	171	170	169	169	168	168	166	165	168	169	169	167	166	165	166	166	166	166	166	165	167	166	167	166	168	169	168	168	168	169	168	169	168	168	168	169	169	166	167	166	167	167	166	168	170	168	167	166	166	166	168	166	166	167	167	168	172	172	168	168	167	166	168	167	167	167	167	166	167	166	165	164	165	169	169	167	169	168	169	169	168	167	167	168	169	169	168	168	167	166	168	166	166	168	166	164	165	165	167	166	168	168	167	167	167	168	167	168	167	167	167	167	167	167	167	167	167	168	169	166	166	165	170	166	167	166	166	164	165	165	166	167	166	167	166	167	168	168	164	164	164	165	166	167	168	167	166	165	165	167	167	166	165	165	165	165	166	167	165	164	167	167	166	166	165	166	166	165	164	164	164	163	163	163	162	163	162	164	163	163	163	164	163	163	166	165	165	163	163	161	161	161	161	160	161	162	161	164	164	164	164	164	164	167	161	165	165	162	163	164	162	161	164	164	165	164	163	163	163	163	165	165	160	160	157	158	159	159	162	161	161	162	164	161	158	161	161	160	159	159	160	162	159	158	158	159	160	158	158	158	158	160	161	161	163	158	157	158	157	158	159	159	161	160	159	157	157	157	157	157	157	158	160	159	157	158	157	158	157	156	156	158	157	158	155	158	158	158	158	154	155	156	155	155	153	155	155	156	156	156	155	154	153	154	154	155	155	155	159	156	156	153	155	154	151	154	153	152	156	156	155	157	157	157	154	154	154	154	153	153	153	152	151	150	150	150	152
150	150	150	150	150	153	153	154	152	152	155	154	151	151	148	151	150	150	153	154	154	154	154	154	155	156	153	153	154	153	152	153	153	155	157	157	157	156	156	157	154	152	158	158	158	160	157	155	155	155	155	156	157	155	153	154	156	156	156	157	156	158	158	157	156	156	156	156	156	155	155	158	158	157	157	154	153	155	155	154	155	156	159	158	158	154	156	157	159	162	159	161	161	158	158	157	157	157	157	157	158	158	160	160	161	160	160	158	158	155	156	155	157	157	157	159	158	158	159	158	158	158	159	160	160	158	157	158	157	158	159	160	161	159	159	163	160	160	162	162	161	162	161	161	159	160	159	159	160	159	159	157	159	159	159	158	159	161	160	160	161	161	161	161	161	162	162	162	163	162	162	159	165	166	165	166	165	165	165	164	164	164	164	164	161	165	162	161	164	164	166	166	166	164	163	166	166	166	164	163	163	161	160	159	160	164	164	164	163	164	164	163	162	165	165	165	166	166	166	164	162	162	163	162	162	162	163	160	161	162	166	166	167	168	164	164	163	164	168	165	166	166	166	167	166	164	165	164	166	165	163	163	164	164	163	166	165	166	167	167	166	167	166	164	166	167	167	167	167	167	168	168	168	169	168	167	164	164	164	164	166	166	166	165	166	166	168	165	165	164	166	167	167	166	169	170	167	167	165	166	167	169	168	166	169	170	168	168	167	166	165	165	167	169	166	165	165	166	166	167	166	166	168	166	166	166	166	167	170	168	168	168	168	169	166	168	168	168	168	169	168	166	167	167	165	165	167	168	169	167	165	165	165	166	167	166	166	165	166	167	170	168	167	166	166	167	167	167	165	165	166	166	167	166	164	167	164	166	168	168	169	169	168	165	165	166	169	169	168	168	168	168	168	168	167	169	167	167	165	163	165	166	166	167	167	167	167	166	167	167	167	167	167	165	167	167	167	168	169	167	167	167	167	167	166	166	167	166	163	165	165	166	171	167	166	166	166	167	167	166	165	165	165	167	167	167	166	164	165	165	165	165	165	166	166	165	165	164	165	165	166	164	164	164	166	166	164	164	164	164	164	165	164	164	163	164	164	161	162	163	164	163	164	161	161	163	160	164	166	165	165	163	162	161	161	161	161	161	160	163	161	163	163	164	163	162	162	161	164	164	160	160	163	163	159	162	164	164	164	164	162	163	164	165	165	163	160	159	158	159	159	160	161	161	164	160	159	158	158	159	159	158	158	157	160	159	157	158	162	160	159	158	159	159	160	161	157	159	158	158	158	158	157	158	158	160	158	157	155	157	157	156	157	158	158	157	157	157	156	157	158	157	156	156	158	158	159	156	155	155	156	155	158	155	155	155	153	154	154	155	156	157	157	154	153	153	152	152	155	154	155	155	155	154	152	154	153	151	151	151	152	152	156	157	157	157	156	154	154	154	153	152	152	153	151	149	149	149	152	152
150	150	150	150	153	153	153	152	152	152	152	151	150	150	150	151	150	155	155	154	154	154	154	154	154	155	155	155	152	153	152	152	155	155	156	157	154	159	159	159	156	155	154	157	157	160	158	155	156	156	156	156	157	156	155	152	156	156	156	155	156	156	157	156	156	155	155	156	156	154	153	152	153	153	152	152	154	155	155	155	156	158	159	158	153	153	155	159	159	159	161	158	158	158	157	157	157	157	158	158	158	156	158	158	160	160	160	158	157	155	155	156	156	159	159	158	158	159	158	158	157	158	158	159	159	158	158	159	159	157	159	161	157	158	158	158	159	160	161	161	161	159	158	158	159	160	161	159	159	159	159	158	159	157	156	156	156	155	157	160	161	161	162	162	161	162	161	160	159	159	158	160	165	165	161	161	164	164	165	163	163	165	164	161	162	160	160	163	162	163	162	161	165	162	164	165	165	164	165	164	162	161	161	163	163	164	164	162	161	161	162	163	166	166	167	165	164	163	163	162	161	162	162	162	164	163	165	159	162	162	165	163	163	166	163	162	162	163	163	163	165	163	164	165	165	164	163	165	163	165	163	163	164	164	164	163	162	164	165	165	166	167	166	166	164	168	164	165	165	165	165	166	168	167	167	165	164	164	164	165	165	166	166	167	164	164	163	165	165	164	164	165	167	166	167	166	166	165	168	167	168	168	166	166	166	167	167	167	166	166	166	165	165	165	165	165	165	165	165	166	166	166	165	166	166	166	166	168	170	166	168	167	167	166	167	168	168	168	166	168	168	167	165	165	165	163	164	164	169	169	165	164	165	165	165	165	165	165	165	165	167	168	167	166	166	166	166	166	165	165	166	166	167	167	165	163	164	166	167	168	168	168	166	170	167	167	166	168	168	167	166	166	169	170	171	168	168	168	165	164	164	166	166	166	165	165	165	166	166	165	166	167	166	166	167	168	169	169	168	167	168	166	166	167	167	168	167	166	166	165	165	166	166	168	166	166	166	167	166	166	166	165	165	165	165	166	164	164	166	165	167	166	165	165	164	164	164	163	163	164	163	164	163	164	164	165	163	162	163	163	163	164	165	164	163	164	162	163	163	162	163	162	164	163	159	159	160	160	163	164	164	164	161	162	162	162	161	162	161	161	162	161	160	160	162	162	162	160	159	159	158	159	158	159	160	162	161	162	161	160	161	163	164	163	163	161	160	159	158	159	159	159	160	159	160	159	159	159	159	159	158	157	157	158	157	157	158	158	158	160	161	160	158	158	158	158	159	159	159	158	157	158	156	157	157	157	157	157	155	155	156	157	157	158	158	156	156	156	156	155	155	157	156	155	152	157	156	156	155	156	156	155	157	157	155	153	153	153	154	156	156	156	153	154	154	153	152	153	152	153	153	153	152	153	155	153	152	152	151	152	152	152	154	154	154	154	156	154	154	153	152	152	151	151	151	149	149	150	152	153
150	150	149	150	150	150	151	149	152	152	151	151	149	150	150	150	151	155	153	155	154	153	154	154	154	153	155	155	155	155	153	153	155	155	155	154	154	153	155	155	156	156	155	157	157	157	158	157	157	157	158	157	157	157	151	152	155	156	156	156	153	153	154	154	152	155	155	156	156	154	155	153	152	152	152	152	153	154	155	156	156	156	155	154	154	157	157	158	158	159	157	157	158	158	155	155	156	158	158	157	157	158	158	158	157	157	157	156	155	154	154	155	159	155	158	158	157	156	158	157	157	158	158	159	159	159	158	159	159	160	158	156	157	157	157	154	154	158	160	160	160	158	159	155	155	161	158	158	158	158	156	159	159	159	159	156	156	157	157	159	158	160	162	162	163	163	160	160	159	159	160	160	160	165	160	161	162	162	165	164	163	162	161	163	160	160	162	163	164	159	160	159	166	161	162	161	160	163	164	162	160	160	164	165	165	163	163	160	161	161	162	164	162	161	162	164	163	164	161	160	160	161	163	162	164	165	164	167	166	165	165	163	163	163	162	162	162	162	163	164	163	162	163	163	164	165	162	163	164	164	163	164	163	162	162	161	162	164	164	164	164	164	166	166	164	166	164	165	165	164	163	162	168	167	166	164	163	164	165	165	165	163	166	166	163	160	162	161	165	163	164	165	165	168	168	167	165	165	168	167	167	168	167	166	165	165	165	166	166	166	166	166	165	165	166	165	164	165	165	165	166	167	166	167	167	167	167	168	165	167	165	165	165	166	168	168	167	164	166	165	168	168	167	165	165	164	165	165	165	167	167	165	165	165	165	166	167	166	165	165	164	167	166	166	166	166	167	166	166	166	167	167	165	167	167	165	166	168	167	168	168	168	169	167	167	167	167	166	166	166	166	165	165	166	167	170	167	168	167	167	166	167	168	166	164	165	165	165	165	164	164	167	168	167	167	169	170	168	167	167	167	166	166	167	167	167	167	166	165	165	166	166	166	166	166	166	166	167	166	165	165	165	165	164	163	163	163	163	164	165	165	166	165	163	163	164	164	163	163	163	162	162	163	163	163	163	162	161	163	163	163	163	163	164	163	163	164	162	162	163	163	163	164	164	160	159	159	162	163	163	164	163	161	162	162	162	161	161	160	161	160	162	160	160	162	163	162	160	162	162	162	162	159	159	161	161	159	159	160	160	161	161	162	162	161	161	161	159	159	159	160	158	160	160	160	159	160	159	159	159	158	158	157	158	158	159	159	158	159	161	159	158	157	156	157	159	155	159	160	160	158	156	155	157	157	158	158	158	156	156	155	155	155	154	154	154	155	154	154	154	155	157	154	154	156	156	156	155	155	155	155	158	158	155	154	153	154	153	154	154	154	153	152	154	155	156	153	153	152	153	153	153	152	151	154	154	153	152	152	152	152	152	152	151	152	152	154	153	153	153	152	151	151	152	152	152	150	151	152	152
150	149	146	148	148	146	146	148	145	151	149	149	150	151	151	151	152	153	155	152	152	153	154	154	154	156	154	155	152	152	152	152	153	153	153	153	154	152	154	156	156	155	154	153	155	156	156	155	157	157	156	155	155	152	152	151	153	156	156	156	153	154	154	154	153	154	154	154	153	154	155	155	154	154	154	153	153	154	154	155	156	153	155	154	153	154	154	153	158	156	155	156	157	157	155	155	153	155	157	157	156	156	155	156	155	156	156	157	155	154	157	158	158	158	157	156	156	156	156	156	156	158	158	159	158	157	158	159	159	160	158	155	156	154	154	154	153	152	158	158	157	155	157	155	159	158	160	158	158	158	157	158	159	159	159	159	158	157	157	159	156	160	162	161	160	159	160	160	159	159	160	160	160	162	160	160	159	158	158	161	163	160	160	159	159	160	163	163	159	160	158	160	161	162	162	159	159	160	159	160	162	160	163	163	164	163	161	161	161	162	162	163	162	163	162	162	162	161	163	160	160	162	162	163	164	165	165	165	165	165	165	164	163	163	164	162	162	162	162	163	161	163	163	162	164	164	161	163	164	164	164	164	164	162	162	162	163	163	164	164	164	164	164	165	165	163	164	164	164	164	163	164	166	163	167	163	164	164	165	164	166	166	165	165	164	163	160	162	164	164	164	164	166	167	166	166	165	164	161	162	164	167	166	165	164	163	164	165	166	166	166	164	164	165	165	165	164	165	165	165	166	166	165	166	167	167	167	166	165	164	165	165	165	165	166	165	165	165	164	164	166	167	164	165	163	163	165	165	167	166	166	164	163	164	164	166	168	167	165	164	164	164	165	165	166	166	166	166	165	164	164	166	164	164	167	166	166	166	166	167	166	169	169	169	168	166	166	165	164	163	164	164	165	165	165	166	167	167	166	167	167	167	167	166	164	165	165	165	164	163	164	164	164	165	165	165	166	167	168	165	164	166	167	168	167	167	167	167	168	166	166	166	165	166	166	165	166	166	166	165	166	166	163	164	164	164	162	164	164	165	165	165	164	164	163	164	164	164	164	163	161	163	163	163	163	162	161	161	161	162	163	162	162	162	163	164	162	162	162	162	162	162	162	162	160	159	160	162	163	163	164	164	162	161	161	162	160	162	161	160	160	159	160	160	162	163	160	160	160	159	160	160	160	160	161	159	159	160	159	159	159	160	160	160	161	162	159	159	160	159	160	161	160	160	160	159	159	159	159	158	158	158	157	159	158	159	159	157	157	160	161	159	159	156	155	155	155	155	158	158	157	157	156	155	157	157	157	157	155	154	154	156	155	153	153	155	155	154	154	154	152	155	155	155	156	156	156	156	156	155	158	158	155	153	152	153	153	155	154	154	153	152	153	154	153	153	154	152	152	151	151	150	150	151	154	152	152	153	155	155	152	151	152	152	151	151	151	151	151	153	152	152	152	152	152	152	150	149	150	150
146	146	146	149	149	149	149	148	148	149	149	150	151	151	151	151	152	152	152	152	152	153	153	154	154	156	154	153	152	153	153	152	153	154	154	152	152	152	151	153	153	154	152	151	152	154	154	155	155	155	155	154	153	153	151	152	152	156	156	153	153	153	153	153	154	154	154	154	154	154	153	155	155	153	154	153	153	153	153	153	157	153	152	154	153	153	154	154	156	154	155	155	157	156	155	153	154	156	154	156	156	157	157	156	155	155	155	154	154	154	155	158	157	158	157	156	156	155	155	156	156	155	158	158	158	157	156	159	159	158	157	155	155	155	158	154	153	154	155	154	155	157	155	155	158	157	157	158	157	158	159	159	158	158	159	158	158	159	158	157	159	160	160	159	159	160	158	160	160	162	160	161	161	162	162	161	160	158	157	158	162	162	160	155	156	160	160	162	162	160	164	163	163	162	159	159	158	159	161	161	161	161	162	163	162	161	163	161	162	162	161	161	161	160	162	162	161	161	162	162	162	162	162	162	164	165	164	165	164	165	165	165	164	164	164	162	162	161	161	161	162	163	162	162	162	163	162	163	164	163	163	163	164	163	163	164	164	163	164	163	164	164	164	166	165	164	164	163	163	165	165	164	161	164	163	164	163	163	164	164	163	163	165	165	164	163	163	163	165	164	164	164	165	165	166	166	164	160	161	164	167	167	171	163	163	161	163	164	164	164	165	165	164	164	165	165	164	165	165	166	165	165	167	166	166	167	167	167	164	163	164	165	165	165	164	165	165	165	166	166	167	166	164	163	163	163	163	164	166	166	166	162	163	164	163	164	165	166	166	166	165	164	164	164	165	165	165	166	164	162	163	163	163	165	165	165	165	166	166	166	164	165	164	166	168	165	165	164	165	163	164	163	165	164	165	164	165	166	167	166	167	168	168	168	168	167	164	166	167	164	164	166	167	167	166	164	164	164	166	167	166	165	165	166	166	166	167	165	164	168	166	164	165	166	166	165	166	166	164	165	166	164	164	165	162	163	163	163	163	165	165	163	164	164	164	164	164	164	164	163	162	163	161	163	160	160	161	162	162	163	161	161	160	161	162	162	162	162	161	160	162	161	163	162	162	161	161	162	161	161	161	161	159	159	159	159	160	161	160	160	159	159	159	160	160	160	162	161	160	158	160	159	160	160	160	161	160	160	159	158	157	158	159	159	160	159	159	159	159	157	157	156	157	160	158	158	158	158	159	159	159	157	156	159	158	158	158	158	155	158	156	157	158	156	155	158	156	156	155	155	155	157	157	155	155	155	156	157	154	154	154	155	154	154	154	154	154	154	153	152	152	153	154	154	154	155	155	155	153	152	153	154	152	152	151	152	155	154	154	154	151	153	153	153	153	153	153	152	149	149	152	150	149	149	150	151	152	151	151	154	151	151	152	151	151	152	152	151	152	152	152	152	152	151	151	151	150	148	148	150
146	147	149	149	150	148	150	150	149	147	150	150	151	151	151	151	151	151	152	152	152	152	153	153	153	153	152	153	153	154	154	153	154	155	154	154	151	151	151	152	153	153	151	151	151	153	154	154	155	155	154	153	153	153	153	153	153	155	155	154	151	151	152	153	154	154	155	154	153	153	153	155	155	153	153	153	151	153	153	152	152	152	152	154	152	153	153	152	152	152	156	156	156	156	154	153	154	152	156	156	156	156	155	156	156	155	153	154	155	154	155	155	156	157	156	155	156	155	155	155	155	155	157	158	159	158	159	158	159	156	156	157	155	155	158	157	152	154	155	154	155	156	157	157	157	157	157	157	157	158	159	159	158	159	159	158	158	159	159	159	160	160	160	160	159	159	161	160	161	161	160	160	163	161	161	160	160	160	158	161	160	160	155	154	156	159	160	159	160	164	161	162	162	159	160	159	159	161	160	161	161	161	162	161	161	160	162	161	162	162	162	161	161	161	160	161	161	161	162	163	162	161	162	161	164	164	163	163	163	163	164	164	164	163	163	162	161	161	161	162	162	162	162	162	163	162	160	160	162	161	163	163	165	163	165	164	165	164	163	164	164	165	165	166	165	164	164	164	164	164	163	162	163	163	162	162	163	165	163	164	164	164	164	164	164	162	162	163	164	162	165	164	165	164	164	164	164	162	165	166	167	168	167	169	163	164	161	163	163	164	165	165	164	164	162	165	164	165	166	165	164	165	165	166	165	165	165	165	164	164	164	164	166	165	165	164	165	165	165	167	167	162	162	163	163	163	163	165	165	166	165	162	163	163	163	164	164	164	165	164	165	164	164	164	164	164	164	164	165	164	163	162	164	165	165	165	165	166	166	166	164	164	163	164	166	166	163	164	163	164	164	164	164	163	164	164	165	165	164	164	165	165	165	165	163	165	167	167	164	163	165	165	166	166	166	163	162	163	166	166	165	166	163	165	167	166	165	164	164	163	165	165	164	164	164	165	166	165	165	164	163	164	164	164	165	165	165	164	167	165	165	163	162	162	164	163	163	162	161	163	162	161	162	162	163	162	161	162	163	163	162	160	160	161	161	162	162	162	162	160	160	161	161	161	162	162	161	160	160	158	159	159	159	157	157	158	158	160	160	159	159	160	159	159	160	161	161	160	158	157	158	158	158	160	159	161	159	159	157	157	158	158	158	159	159	158	158	158	157	157	155	157	158	158	158	157	157	157	158	158	158	157	157	157	157	156	156	156	155	155	155	156	154	155	155	158	158	157	155	155	154	156	157	157	155	155	155	156	154	153	152	155	153	155	155	155	154	154	154	154	150	152	153	153	154	154	154	154	152	152	152	153	153	153	151	151	151	151	151	154	151	153	152	151	153	153	151	152	152	148	149	150	149	149	151	151	152	152	151	154	152	149	151	151	150	150	150	150	151	151	152	151	150	150	150	150	150	148	148	149
148	149	151	151	150	150	148	148	149	148	150	150	151	153	153	152	152	151	152	152	152	152	152	151	153	153	151	153	154	154	154	152	153	154	154	154	154	150	149	149	151	151	150	149	151	150	151	154	154	156	155	154	153	153	153	154	154	153	154	154	151	151	151	153	156	154	156	154	153	153	153	151	152	153	153	151	152	152	152	154	155	155	152	154	151	152	154	154	154	154	154	156	156	156	153	154	154	154	157	156	155	155	155	156	156	155	153	152	153	154	154	158	155	157	156	156	156	155	154	154	154	155	156	157	159	158	158	159	158	157	156	156	155	154	155	153	155	157	156	155	158	157	157	155	158	157	158	156	157	158	158	158	158	158	157	157	158	160	160	159	159	161	159	159	160	158	160	160	160	160	160	160	161	161	161	160	158	162	161	160	160	160	155	154	155	160	160	159	164	160	160	159	158	159	159	159	159	161	159	160	158	160	162	162	162	160	161	160	161	161	161	161	161	161	161	162	161	160	161	163	161	161	161	161	161	161	163	162	162	163	163	163	162	161	163	161	161	162	161	162	162	162	162	162	162	161	161	161	161	159	160	163	162	163	163	163	165	165	162	162	163	161	163	163	162	163	164	164	165	164	163	164	164	163	161	164	164	164	165	165	164	162	164	163	162	162	163	163	164	164	163	165	165	165	164	162	162	162	163	164	165	165	164	165	163	161	161	162	163	165	165	164	164	161	165	165	164	164	164	165	164	165	167	166	164	165	164	164	164	163	164	165	166	164	165	164	165	165	165	164	165	162	161	162	161	162	164	164	164	164	164	163	162	163	163	162	162	161	161	161	163	163	164	164	163	164	163	164	165	165	165	165	165	166	164	163	163	163	163	166	164	162	163	162	164	164	163	163	164	163	163	163	163	163	164	163	163	163	163	164	165	164	165	165	164	165	164	166	166	164	163	163	163	163	163	163	162	163	163	163	163	166	165	165	165	165	165	164	162	163	165	165	164	165	165	165	165	163	164	163	164	164	165	164	165	161	164	164	167	166	164	162	161	164	166	164	165	162	160	160	161	161	162	163	163	161	160	162	164	163	162	159	158	160	161	161	161	162	160	160	160	160	161	162	162	161	161	160	159	157	156	157	158	158	156	158	158	158	158	159	159	160	159	160	159	160	161	160	158	157	158	158	158	158	160	160	160	157	159	156	158	157	157	157	157	156	157	157	157	157	158	158	157	157	156	156	156	157	159	159	159	157	156	156	156	155	155	155	155	155	154	155	154	156	156	156	157	155	154	154	154	154	153	157	156	155	155	155	153	153	153	151	155	156	156	155	155	154	154	154	153	152	152	154	154	154	153	151	149	153	152	153	153	151	150	151	151	150	151	150	152	150	150	148	150	151	151	151	150	150	149	149	149	150	151	152	152	152	152	152	151	150	150	151	151	151	150	150	150	150	151	150	150	151	151	149	149	148	148	148
149	150	150	150	150	149	151	148	148	148	149	151	151	153	152	148	148	149	150	152	152	152	152	151	153	151	151	153	153	154	152	150	151	153	153	152	152	150	149	149	149	149	149	149	149	150	151	155	155	156	154	154	153	155	155	155	154	152	153	152	151	153	153	151	152	155	157	154	154	153	153	151	151	151	153	153	152	151	152	152	155	154	155	154	152	152	152	154	154	153	153	154	156	155	153	154	154	153	156	158	156	156	155	155	155	155	157	152	151	151	156	158	157	156	157	158	155	156	156	155	155	155	155	157	158	157	158	159	158	156	156	156	154	152	151	153	154	156	157	158	158	155	157	155	155	157	158	159	157	159	156	157	157	157	158	159	159	161	159	156	160	160	160	159	157	160	160	161	157	158	156	158	160	162	160	160	159	160	163	160	159	158	155	155	157	159	160	160	159	160	161	160	159	159	158	158	158	159	160	159	158	158	160	160	160	160	160	161	160	160	160	160	160	158	157	159	161	162	163	163	161	161	161	160	159	159	161	161	162	162	162	162	162	162	161	161	161	161	162	162	161	162	161	161	161	162	163	162	162	159	160	161	162	162	163	163	165	163	162	162	161	161	161	162	162	163	164	164	164	164	164	164	164	163	162	163	164	165	166	165	164	164	163	165	160	160	162	163	163	164	163	166	167	163	160	162	163	163	163	164	164	164	164	164	164	163	162	162	165	165	164	163	163	164	165	165	165	165	163	164	164	165	164	165	164	164	163	162	163	164	165	165	166	167	165	165	165	165	164	164	164	163	161	161	161	163	163	164	165	164	164	163	163	161	162	162	162	162	162	163	163	162	163	163	164	162	163	161	164	165	166	164	164	164	162	163	163	163	165	164	163	161	161	162	162	163	162	162	163	164	163	163	163	162	161	162	163	164	163	163	164	164	164	163	163	164	164	166	164	165	163	165	163	163	165	165	165	165	163	163	163	164	164	165	165	164	163	162	162	163	162	164	164	164	167	166	163	164	163	162	163	164	164	164	164	161	164	166	164	166	165	162	161	164	164	164	164	162	161	161	161	161	161	162	162	160	159	160	163	161	161	160	160	160	160	160	159	161	160	160	159	159	162	162	162	163	161	160	159	157	157	157	156	156	156	159	158	157	156	158	158	159	158	160	159	159	160	158	157	157	157	158	158	158	159	159	157	157	158	160	157	157	157	157	157	157	157	158	158	157	157	157	156	157	156	151	153	156	157	157	155	156	155	155	154	154	154	154	154	154	155	156	154	153	155	155	156	154	154	154	155	150	150	155	153	154	154	153	153	153	152	150	152	155	156	154	154	153	154	154	153	153	152	153	153	155	153	152	151	151	152	152	152	151	152	152	152	152	151	149	148	149	150	151	151	151	151	151	150	149	150	149	149	149	151	151	151	152	152	152	151	151	150	150	150	149	150	150	150	150	151	151	151	151	152	151	151	151	151	148
147	146	150	149	149	149	150	149	149	149	151	153	153	153	149	149	148	148	150	151	152	152	152	150	152	153	153	152	151	151	150	150	151	153	154	152	151	151	149	149	149	148	149	149	149	151	153	155	155	155	154	151	151	154	155	155	154	154	153	152	151	152	152	152	152	157	153	153	153	151	151	151	151	151	151	153	152	151	150	154	154	154	154	152	153	152	154	154	155	155	155	155	153	154	154	154	154	155	154	153	153	153	154	155	155	156	155	152	152	152	156	158	157	157	158	157	156	155	155	155	155	155	152	152	156	157	159	159	156	157	156	156	153	152	151	155	155	155	155	155	155	155	155	155	155	155	156	155	155	155	156	155	155	156	157	159	159	158	157	157	156	156	159	158	160	159	160	158	159	159	157	156	158	158	160	156	160	160	160	160	159	155	157	158	159	159	157	158	157	157	161	160	158	159	159	159	160	159	161	161	160	160	159	160	159	160	159	160	160	159	159	160	159	160	161	163	164	163	162	162	160	163	163	159	160	161	162	162	162	162	162	161	162	161	161	162	161	161	159	161	162	163	162	162	162	162	161	163	163	162	161	161	162	162	162	162	164	165	163	163	160	161	161	161	162	163	163	164	164	163	164	164	163	162	163	164	164	165	164	164	167	167	164	165	163	163	162	162	162	163	163	165	165	160	161	161	162	165	166	165	165	163	163	163	164	164	165	165	164	164	164	164	163	164	164	163	163	163	164	163	162	163	163	165	165	166	164	161	162	163	164	165	165	167	166	165	165	165	162	163	162	164	161	160	161	164	162	162	162	164	163	162	163	163	165	162	160	161	162	162	162	163	163	162	161	162	161	162	164	163	164	163	162	163	161	161	164	162	165	166	162	162	161	162	163	163	160	162	163	161	163	164	162	162	162	162	165	164	164	166	164	164	166	164	164	165	164	166	166	165	165	166	164	164	164	164	163	165	162	164	164	165	165	161	161	161	163	163	161	162	162	162	162	162	163	162	161	162	160	163	164	166	162	161	163	163	163	163	164	165	164	165	164	163	162	164	163	162	162	162	161	162	161	161	162	159	159	160	161	161	160	160	162	160	160	159	159	159	160	159	159	158	158	161	161	161	160	158	157	157	159	158	158	157	159	159	158	156	156	157	158	158	158	159	159	160	157	157	156	157	156	157	158	158	159	159	157	158	158	157	157	157	157	157	157	157	158	158	157	158	158	157	158	158	154	155	152	155	156	156	156	154	155	155	154	154	156	155	155	154	154	154	153	153	153	152	154	154	154	154	154	150	150	151	152	152	151	151	154	152	150	151	151	152	155	154	153	152	152	153	153	153	153	153	152	154	154	152	150	151	149	152	151	152	152	151	152	153	150	150	150	148	151	151	151	150	151	151	151	151	150	149	148	148	147	147	150	152	152	152	151	150	151	151	150	149	148	147	150	149	151	151	150	149	150	151	151	150	150	148
147	147	149	146	148	148	150	147	146	146	148	152	151	151	149	151	149	149	150	151	152	152	152	151	150	152	151	151	150	149	149	151	151	151	153	153	150	150	149	149	148	148	150	150	151	152	153	154	154	154	153	148	150	151	151	153	153	152	152	155	151	152	151	151	151	152	153	155	158	157	151	151	151	154	150	150	151	150	152	153	154	154	152	152	153	153	154	152	153	154	154	155	155	152	152	151	152	155	153	151	150	151	153	153	153	153	154	154	154	154	153	155	157	155	154	155	155	156	155	155	153	152	154	155	156	156	159	157	156	157	157	156	154	155	156	156	156	156	156	155	155	155	155	156	155	155	154	154	155	155	157	155	155	155	156	157	158	158	157	155	154	154	156	156	156	159	158	161	158	158	156	156	157	157	156	159	159	159	160	160	158	157	157	159	157	159	157	158	155	154	156	157	158	158	158	158	158	159	160	160	159	159	159	159	159	159	158	160	160	159	160	157	157	157	161	162	162	161	158	161	160	161	160	159	160	161	160	161	161	160	161	162	161	161	159	159	158	160	160	161	162	163	162	160	160	160	160	161	162	162	162	161	161	161	161	162	162	164	162	163	161	161	161	163	163	163	163	163	163	162	162	161	161	162	163	163	162	162	164	163	164	163	162	163	163	163	162	163	162	162	160	161	160	161	161	161	161	163	163	165	163	162	162	162	163	164	164	164	163	161	163	163	163	163	164	164	164	163	162	162	162	163	164	166	165	166	161	161	160	164	164	166	165	167	164	164	163	162	162	163	162	163	161	161	163	165	166	165	165	164	164	163	163	162	161	163	161	162	163	163	164	164	162	161	159	158	161	162	162	162	164	163	162	162	161	161	161	162	165	166	165	163	161	162	163	161	159	160	163	161	163	164	162	163	161	162	164	165	164	164	164	164	164	164	165	165	162	163	162	164	165	164	163	161	163	162	162	162	163	162	162	162	161	160	161	160	161	163	162	161	161	162	162	161	159	161	160	160	161	161	162	162	161	160	162	163	162	161	161	161	161	160	160	160	160	160	164	164	162	163	162	161	161	161	163	159	161	160	162	161	161	162	161	160	159	159	158	158	159	160	158	161	160	159	160	159	156	155	155	156	158	158	157	157	157	159	159	155	156	156	157	157	157	156	156	157	157	157	156	158	158	158	156	156	157	159	159	158	158	156	157	157	155	157	158	158	158	157	157	157	156	157	156	154	154	156	154	156	156	156	155	155	155	155	153	154	156	155	154	154	153	153	153	153	153	152	152	150	151	153	153	154	150	151	151	151	150	150	150	152	152	150	150	153	153	152	154	153	152	152	152	152	152	152	151	150	153	153	150	149	148	148	151	151	153	152	152	150	149	148	147	148	149	150	149	151	150	152	151	151	149	150	147	146	146	148	149	151	151	150	151	151	150	150	150	152	150	150	149	150	150	150	150	148	149	150	150	150	150	149
149	149	149	150	150	150	149	147	146	146	149	148	152	149	149	151	150	150	150	151	152	151	151	151	149	150	150	150	150	151	150	151	151	149	148	149	148	149	149	149	150	149	151	154	154	155	155	154	149	150	150	148	151	152	151	151	154	154	153	152	154	151	154	152	152	151	153	156	150	153	154	150	150	154	151	150	150	150	153	154	154	154	154	152	153	153	154	153	154	154	154	152	152	152	151	151	151	152	152	152	152	153	153	154	153	153	153	153	153	152	152	153	157	154	153	153	155	154	154	154	150	148	154	152	154	155	155	155	156	157	153	153	153	153	155	156	156	155	154	155	156	155	157	155	155	154	153	153	154	155	156	157	154	155	155	156	158	157	159	158	153	154	154	155	156	156	159	155	155	156	156	157	157	158	158	158	158	158	158	156	156	156	154	156	157	158	157	158	156	155	155	158	158	158	158	158	158	159	159	159	158	158	158	158	158	157	158	158	158	160	159	160	157	159	161	161	161	159	157	159	160	159	159	158	158	158	159	158	159	161	160	160	161	161	160	158	159	158	159	161	162	165	162	159	159	159	158	158	160	161	162	162	162	162	161	161	162	162	161	161	161	161	161	163	162	162	163	163	161	162	161	161	161	162	165	164	163	161	162	162	166	162	160	163	164	163	163	164	162	162	161	160	160	161	161	161	162	163	163	164	163	162	163	163	164	163	162	163	163	161	162	162	163	163	162	162	163	163	161	162	164	163	163	164	165	166	166	164	163	164	164	165	165	165	166	164	163	162	161	162	161	161	162	162	163	164	164	164	163	163	164	163	163	163	162	162	162	163	163	163	163	164	164	162	163	161	161	159	162	160	161	162	161	159	162	161	161	162	164	164	163	164	160	161	159	162	159	160	162	162	162	162	163	163	162	162	162	163	162	162	162	162	163	163	162	162	161	163	162	163	161	164	163	161	160	161	161	161	162	163	164	162	161	160	161	161	161	162	161	160	161	162	162	160	159	159	160	160	160	161	161	161	161	161	161	161	161	159	159	160	160	160	161	161	161	161	161	161	162	162	162	160	160	160	162	162	160	161	160	159	161	160	160	160	158	158	158	157	159	159	161	160	160	158	156	158	157	156	156	157	157	157	157	154	158	160	156	155	159	156	159	157	156	155	155	155	157	159	158	157	155	157	158	156	155	156	156	155	157	154	155	154	154	155	155	155	157	157	157	156	157	157	156	155	154	155	154	155	156	154	154	154	154	154	153	155	154	153	153	153	152	152	153	154	154	153	152	153	153	151	151	154	153	151	151	151	150	150	150	151	151	151	153	152	152	153	152	153	153	152	152	151	151	151	150	150	151	152	151	151	150	148	148	149	151	151	151	152	149	148	148	148	148	149	150	149	150	151	151	150	149	149	147	148	148	148	149	151	150	150	149	148	148	149	150	149	151	150	149	150	150	149	148	150	150	150	150	150	150	148
149	152	152	152	150	145	145	145	146	148	148	152	155	153	153	150	150	149	149	146	148	150	151	151	149	149	149	148	148	146	151	152	149	149	149	150	149	149	148	148	150	150	151	154	154	155	154	153	149	150	152	152	151	151	152	151	152	153	153	152	153	154	154	151	152	152	150	154	149	152	151	150	150	150	149	149	150	153	154	153	152	152	152	154	153	153	152	153	153	151	151	152	153	153	149	152	151	151	152	154	153	152	153	154	153	153	153	153	153	153	152	154	155	154	152	154	154	154	153	154	150	148	150	152	152	152	153	153	153	155	153	153	154	154	155	156	155	154	152	153	154	154	156	155	154	153	154	154	154	154	156	151	154	151	152	152	155	158	157	155	154	152	154	154	155	156	154	153	156	154	156	156	158	157	160	159	158	156	155	156	156	154	154	156	158	157	157	157	155	155	155	158	158	158	157	157	158	158	158	158	156	158	157	158	159	158	157	157	158	158	158	158	160	160	164	160	159	159	159	156	157	159	159	158	157	157	157	157	158	159	160	161	161	160	159	159	156	157	160	161	161	161	161	159	157	158	161	159	161	161	162	163	163	162	161	161	162	161	161	160	160	161	161	162	162	163	161	162	161	161	160	160	161	160	161	163	166	163	160	161	161	161	162	162	163	164	164	164	164	163	163	162	162	162	162	161	162	163	163	164	161	163	162	164	162	161	161	162	162	161	162	163	163	163	163	162	163	162	160	162	163	163	163	163	164	166	164	164	163	161	161	163	164	163	163	163	162	161	160	160	160	160	162	163	163	162	162	161	160	163	164	164	164	163	162	162	161	162	163	164	165	164	161	161	162	162	160	159	160	160	161	163	162	162	162	161	161	161	162	163	164	162	161	160	159	158	159	160	161	162	162	162	162	160	162	162	162	161	161	161	161	161	161	162	160	160	163	160	163	163	162	162	163	163	162	161	160	161	162	161	163	163	162	162	161	162	161	161	158	160	160	161	161	160	160	159	159	159	160	160	161	160	160	160	160	160	159	158	159	159	159	161	162	162	160	160	159	159	160	161	160	160	161	160	161	162	160	160	159	158	159	159	159	159	158	157	157	158	159	159	159	160	158	155	154	157	159	159	158	159	159	155	155	156	156	155	157	157	157	156	157	158	156	155	154	155	158	159	157	156	155	158	158	158	154	155	157	156	155	155	155	154	154	154	154	157	157	158	158	156	155	155	156	155	155	155	156	154	155	155	153	153	154	154	154	153	152	153	152	151	152	152	152	153	154	153	153	152	153	152	151	153	150	151	151	151	151	152	152	150	151	151	150	152	152	153	153	152	153	152	152	151	149	149	148	150	151	152	151	150	150	148	148	150	150	150	153	149	148	149	149	149	148	148	149	150	150	150	148	148	149	148	146	146	146	148	150	149	151	150	149	149	147	147	149	151	151	150	149	149	149	149	148	148	150	149	150	150	149	148
151	152	146	149	148	147	147	146	147	151	151	151	150	151	150	150	149	149	149	149	146	147	149	149	149	149	145	144	145	145	148	148	149	149	149	149	149	149	150	150	149	150	150	154	152	152	153	150	149	150	149	149	150	151	151	151	153	151	151	152	152	152	150	151	151	151	151	150	149	151	150	152	150	149	149	147	147	150	151	151	151	152	153	153	153	152	152	152	153	153	152	153	150	149	149	147	153	154	154	154	153	152	155	155	153	153	153	154	154	155	155	152	153	154	153	152	154	153	152	151	151	149	148	151	151	152	153	152	152	152	153	153	154	153	156	157	152	154	152	152	153	153	154	152	151	153	153	153	152	151	151	152	153	151	152	152	156	157	158	156	156	150	154	154	154	156	157	157	156	153	156	156	158	157	160	160	158	156	155	157	156	156	155	155	156	157	157	156	157	157	158	158	159	157	156	158	158	158	158	157	156	157	157	159	159	159	159	157	156	155	159	157	158	160	160	164	159	159	157	157	157	157	159	159	158	157	156	157	158	160	160	161	160	159	159	159	159	159	160	161	160	161	161	161	160	160	160	161	161	161	163	163	163	161	160	159	159	160	157	157	158	158	161	162	160	161	159	159	159	162	159	161	162	161	160	162	159	166	166	164	164	159	158	161	159	160	159	161	161	161	163	162	162	162	163	163	161	161	161	162	162	162	162	161	161	161	161	161	163	162	162	160	160	160	164	165	163	162	162	162	161	163	162	162	163	163	163	163	160	160	160	160	161	163	162	163	162	162	162	160	159	160	162	161	162	162	162	162	163	163	162	164	162	162	160	161	161	162	161	163	162	162	160	160	161	161	161	163	161	160	162	163	163	162	162	162	162	161	162	162	164	161	161	162	161	161	159	160	160	161	161	161	162	160	162	161	161	161	162	160	161	159	161	162	160	159	158	161	161	161	162	161	161	161	161	160	160	160	161	161	162	162	163	164	162	161	161	159	160	158	160	160	161	161	160	159	159	159	160	160	160	159	159	159	159	158	158	158	159	159	158	160	161	159	160	160	159	159	159	160	159	159	160	160	160	159	159	158	157	156	157	158	157	157	157	157	157	159	159	158	157	159	155	155	157	156	157	155	156	158	157	157	156	155	156	156	157	157	157	157	155	155	156	155	154	155	156	156	155	154	157	157	157	157	154	154	156	155	155	155	155	154	154	156	156	157	156	155	153	154	156	155	156	156	156	156	155	154	154	156	154	153	154	154	154	154	154	152	150	151	151	152	152	153	153	153	152	152	152	151	150	152	153	153	153	154	152	152	152	151	150	149	150	151	152	152	153	153	153	152	149	148	149	148	148	149	151	151	151	151	150	150	150	149	150	150	152	152	148	148	150	149	149	148	150	149	148	148	148	148	151	149	149	148	148	148	148	150	146	149	148	148	147	146	148	148	151	145	145	148	148	148	147	146	146	146	149	149	148	148
144	146	149	148	149	147	146	146	148	151	146	146	149	148	150	150	149	149	146	148	148	147	147	147	147	147	145	145	145	145	147	148	149	149	149	148	148	149	149	151	151	151	151	147	152	151	151	150	150	151	149	151	151	151	154	152	150	151	151	151	151	150	150	150	148	149	149	150	149	149	150	150	151	149	147	147	148	150	150	150	150	151	151	151	151	151	151	151	151	152	152	152	149	145	146	146	147	148	152	153	152	151	149	152	150	151	151	153	155	155	154	152	151	151	153	152	154	153	152	150	151	149	150	151	151	151	152	151	152	152	153	153	153	153	155	155	153	152	152	152	153	153	153	153	151	152	152	153	151	151	150	155	153	155	155	154	153	154	157	155	154	151	151	152	155	155	157	156	154	155	155	156	157	158	158	157	157	158	158	157	157	156	156	157	157	158	155	160	157	157	158	159	159	158	157	156	158	158	159	157	157	158	159	160	159	159	160	160	158	156	156	157	157	159	161	159	158	157	158	157	157	158	158	160	158	158	158	156	159	158	159	159	159	160	160	159	158	159	159	159	160	158	159	159	161	161	161	161	159	160	162	161	158	157	156	157	160	160	158	157	158	159	160	160	160	160	159	159	159	159	160	159	159	161	159	159	160	165	162	161	163	159	159	159	162	161	161	160	160	161	161	160	160	161	160	160	161	160	161	161	162	161	161	162	162	164	162	160	160	160	159	159	159	161	162	164	162	163	162	160	160	161	162	162	163	162	162	162	162	161	159	159	160	162	162	163	162	162	158	158	160	161	161	161	162	162	161	162	161	160	160	160	160	159	160	159	160	160	161	162	161	159	160	160	160	161	161	160	161	161	162	163	162	161	162	162	162	161	162	162	165	161	161	161	162	160	161	159	159	160	161	162	161	162	162	161	162	161	161	160	160	158	158	161	161	161	158	160	160	162	161	162	160	160	160	160	160	160	161	160	160	161	162	163	161	159	160	159	160	159	159	160	159	159	157	158	158	161	160	160	160	159	160	158	157	158	159	158	160	159	158	158	158	157	156	157	158	159	158	159	159	158	159	159	159	159	160	159	158	157	157	158	159	159	158	157	157	156	158	158	159	158	157	157	157	156	157	157	156	156	154	157	156	158	156	156	156	157	157	157	155	156	156	156	157	155	155	155	155	154	155	157	157	157	157	154	155	154	154	155	155	153	153	153	153	155	155	153	154	154	155	153	152	153	153	153	155	154	153	152	152	153	154	154	154	154	154	152	152	150	151	150	152	152	152	153	152	152	151	150	150	150	150	152	154	153	152	152	153	151	150	149	149	150	150	152	153	152	152	152	148	148	149	148	150	153	152	151	151	151	151	150	149	149	150	150	150	150	148	151	148	148	148	148	149	148	148	148	148	150	150	150	149	148	148	147	149	147	147	146	146	146	145	146	147	148	146	146	147	146	147	148	146	146	146	146	149	149	148	148
144	147	148	148	144	144	143	143	144	145	146	145	148	148	148	152	152	152	146	145	145	149	147	146	145	145	144	148	147	148	148	147	149	149	148	148	146	146	147	148	146	146	146	146	150	147	147	149	149	150	150	150	151	151	154	150	150	151	151	150	150	149	149	149	148	148	148	148	148	148	148	148	150	149	147	147	148	148	147	150	150	150	150	150	149	149	149	151	149	151	151	150	147	147	147	147	147	148	153	153	152	152	148	148	150	151	152	153	155	154	151	151	151	152	152	151	151	152	151	150	151	149	149	151	151	153	154	152	151	152	153	152	152	153	152	155	152	152	151	152	153	153	153	152	153	151	152	154	152	154	154	154	155	154	154	155	155	154	153	156	154	150	150	150	155	154	156	151	152	152	154	154	156	156	156	156	157	157	156	157	157	157	156	156	156	156	155	157	157	157	158	158	158	158	157	157	158	159	158	158	158	159	160	160	160	158	160	160	158	156	156	158	159	159	155	158	159	158	158	159	159	159	158	160	158	159	157	158	159	161	159	159	159	159	160	158	158	157	157	159	159	159	157	155	159	160	160	159	158	159	160	158	158	157	156	160	157	159	157	156	157	159	160	160	160	159	158	158	157	157	157	158	160	159	164	159	158	161	161	160	162	160	160	160	161	160	160	160	161	159	158	158	160	159	159	159	160	161	160	159	160	161	161	160	159	164	161	161	160	159	158	158	159	161	162	162	163	162	162	161	160	160	161	162	163	163	163	163	163	161	159	159	160	161	162	163	164	161	161	161	160	160	161	161	157	159	160	161	159	159	160	161	159	160	162	161	160	158	159	160	159	161	161	162	160	160	159	158	159	160	162	162	161	162	162	162	161	161	161	163	159	159	159	160	159	159	160	160	159	159	159	160	161	161	161	160	161	161	161	161	161	159	159	159	161	163	160	159	161	160	162	161	160	160	159	160	159	159	160	160	161	162	162	160	160	160	160	159	159	159	159	160	161	161	158	157	158	160	160	159	159	161	161	161	157	159	159	159	159	160	161	157	158	155	157	156	158	158	158	159	157	156	156	156	157	158	158	158	157	158	157	155	156	156	157	157	158	157	157	160	163	160	156	157	157	158	158	157	154	156	156	154	154	157	155	156	156	155	156	157	156	156	156	156	156	154	154	153	154	154	155	156	155	155	157	155	153	152	153	153	154	156	154	154	155	153	153	153	154	155	155	153	152	153	152	152	151	152	152	152	152	152	153	154	152	152	154	153	151	151	150	152	151	151	153	150	150	149	150	150	150	150	149	150	151	152	153	154	151	152	153	150	150	150	152	152	151	151	151	151	150	150	151	150	149	148	151	151	151	151	151	150	150	152	152	151	150	150	149	151	151	149	148	148	147	147	148	147	147	149	149	149	150	150	150	147	146	145	146	146	145	146	149	146	147	147	147	147	145	145	148	148	148	148	146	144	145	148	148	145
145	147	145	144	144	144	144	143	143	144	145	148	145	145	146	147	147	149	150	145	149	149	147	145	146	146	145	148	148	148	148	147	146	147	144	146	146	145	151	151	152	152	148	148	146	147	145	145	146	146	150	149	153	153	151	150	149	152	153	153	153	150	149	149	149	148	147	147	147	147	147	147	148	147	147	148	148	147	150	150	150	150	151	149	150	149	149	149	149	149	149	148	149	150	148	149	151	151	151	152	152	150	149	149	149	151	152	152	153	153	152	151	151	151	151	151	151	152	152	151	154	149	149	151	152	152	153	151	150	151	152	152	152	152	152	153	154	152	153	153	151	152	153	153	153	152	153	154	154	155	154	154	155	153	153	153	154	154	152	152	153	153	149	150	152	156	151	150	151	152	152	152	155	154	154	155	155	156	157	157	157	157	156	156	155	155	155	156	155	157	157	157	158	158	156	156	156	157	158	158	157	158	160	159	160	159	159	159	154	154	155	155	155	155	155	157	159	160	162	159	158	159	160	159	160	159	159	158	158	161	159	159	159	158	158	159	157	157	157	159	156	157	157	156	156	159	158	158	157	160	158	158	157	155	156	158	157	156	155	157	157	157	157	160	160	160	157	158	157	157	157	158	159	161	164	161	158	160	160	158	158	159	159	160	161	161	160	161	159	158	158	158	159	159	158	158	161	160	161	161	161	161	161	160	157	158	159	161	160	160	158	158	159	161	163	163	162	159	159	161	162	162	161	162	162	163	163	163	159	158	159	158	159	160	161	162	160	160	160	162	163	161	160	159	160	159	160	160	159	159	160	160	162	162	162	162	159	158	158	159	160	161	161	161	162	160	158	159	159	160	162	161	161	162	162	161	162	161	162	161	159	158	158	160	158	159	161	162	160	159	159	159	159	159	159	160	159	159	160	161	161	161	159	159	162	161	161	159	161	160	160	159	160	159	159	159	159	158	159	160	162	162	160	159	159	159	159	159	157	158	158	159	160	161	158	157	158	160	160	158	160	160	160	160	159	160	160	158	160	160	157	157	157	158	157	159	156	157	158	157	156	155	155	155	157	159	158	158	157	157	154	155	156	157	157	157	158	156	158	161	162	159	158	158	158	158	158	154	154	156	156	157	157	153	156	155	156	154	155	156	157	157	156	156	156	155	152	153	154	154	154	155	155	155	155	155	153	152	152	151	154	155	155	153	154	153	153	152	155	154	155	154	153	152	151	150	152	152	154	152	152	151	152	152	154	153	152	153	152	151	151	151	150	150	150	149	149	149	150	150	150	150	149	152	152	151	151	152	152	153	152	152	152	153	151	152	152	151	151	150	149	148	149	149	149	146	146	150	150	151	150	149	151	148	147	147	146	150	150	151	151	149	149	148	146	147	146	145	145	144	144	147	148	150	150	149	147	145	145	145	143	143	144	145	146	146	146	146	145	145	146	147	148	148	148	146	147	147	145	145
146	146	145	144	144	146	145	144	144	143	144	145	145	145	146	146	145	145	145	149	149	147	146	146	146	147	147	145	148	148	147	147	145	144	145	146	146	145	151	152	149	148	148	146	147	146	145	145	145	146	150	148	148	147	147	147	147	150	151	152	151	151	151	148	148	146	147	149	147	147	146	146	148	149	150	148	147	147	150	149	150	152	151	150	149	150	150	150	150	152	151	148	149	149	150	150	150	150	150	151	152	150	148	150	150	150	150	150	153	151	151	151	153	153	153	150	151	152	152	152	149	152	154	152	153	153	152	151	150	152	153	152	151	153	157	152	152	153	153	154	152	152	153	152	153	152	153	154	154	154	155	155	154	151	153	151	154	155	154	155	157	155	153	151	153	152	151	152	152	150	151	152	152	153	154	155	156	157	157	158	157	156	156	156	154	155	155	154	155	155	156	157	158	158	156	155	154	154	154	154	157	156	156	156	157	159	160	159	158	156	157	156	156	156	156	158	158	159	159	159	159	158	158	159	158	158	158	157	156	158	158	159	159	159	159	158	158	156	156	156	158	157	156	155	155	155	157	157	159	158	158	157	154	153	155	156	158	157	157	156	157	158	157	157	159	158	158	159	158	157	156	157	159	159	163	162	159	160	158	159	158	159	158	161	161	160	161	160	161	161	158	158	157	157	157	162	161	159	159	160	161	161	160	157	157	158	158	160	161	160	159	159	161	159	161	163	161	161	159	159	159	159	160	161	161	161	161	161	160	158	158	158	158	159	161	160	161	161	161	162	162	161	161	160	158	160	162	161	159	158	159	160	159	161	161	161	161	160	162	161	161	161	162	161	161	158	159	159	159	161	161	160	161	163	163	159	159	161	162	161	159	159	159	158	159	161	161	162	161	160	160	161	160	159	159	158	159	158	161	161	162	159	159	159	157	160	159	158	160	159	159	160	160	158	158	158	158	158	158	160	162	161	160	160	160	158	158	159	157	158	158	158	160	160	161	159	159	158	157	157	158	159	160	160	158	159	158	158	159	161	157	158	158	159	157	158	157	155	155	154	155	156	156	155	156	158	157	154	157	157	154	154	152	155	154	157	156	158	158	160	160	160	159	158	157	158	153	152	155	156	157	159	159	156	155	154	157	157	157	157	157	156	156	157	155	155	156	154	153	154	154	154	155	152	151	151	154	153	153	150	154	154	154	153	154	154	152	154	153	153	153	152	152	152	149	149	151	152	153	154	152	152	152	152	154	152	152	152	152	152	151	149	148	149	148	149	149	150	151	150	150	150	150	149	149	149	151	151	153	150	150	151	150	150	151	152	153	151	151	150	150	148	148	147	149	146	148	148	150	150	151	149	147	149	148	147	146	145	147	147	146	150	149	148	147	146	147	146	143	143	143	143	148	147	147	147	145	145	144	144	143	143	143	145	145	145	145	146	145	144	145	146	146	148	146	146	147	146	145	145
147	147	148	147	146	146	149	147	145	145	144	145	145	145	149	147	145	145	144	147	147	146	146	147	147	146	144	144	148	148	146	143	143	144	144	146	147	147	146	150	149	147	147	146	147	146	145	145	146	148	150	148	148	147	147	147	147	148	149	149	149	151	151	147	146	148	147	149	148	148	146	147	149	149	149	147	147	150	150	149	150	152	150	150	150	149	150	149	149	152	152	149	148	150	149	150	151	150	149	149	149	149	148	149	151	149	149	150	150	150	150	151	150	150	150	150	151	151	151	151	152	155	153	153	153	152	151	151	152	152	154	152	151	153	152	153	153	156	156	149	150	150	151	154	154	153	154	154	153	153	155	153	153	152	153	151	154	154	155	155	155	156	154	153	153	157	155	154	152	152	152	153	153	152	153	154	155	157	155	154	156	156	154	155	153	151	151	153	153	156	158	157	156	155	158	154	151	152	154	154	155	154	155	154	154	158	159	158	156	156	155	156	155	156	158	159	158	158	157	157	157	156	157	158	157	157	157	156	156	156	158	158	157	157	157	156	156	156	157	157	158	157	156	155	157	157	157	158	158	158	158	154	155	154	154	155	156	155	157	157	157	156	159	159	160	157	157	158	157	157	156	156	158	158	159	158	157	159	158	158	158	158	160	161	161	160	160	161	161	161	160	158	161	160	161	158	161	159	158	157	158	161	159	158	158	158	160	159	158	161	159	160	158	159	160	160	160	158	159	158	159	159	161	161	161	161	160	159	158	158	158	159	159	160	159	160	160	160	160	161	162	162	163	160	160	161	159	161	160	159	160	158	159	159	159	160	159	162	161	160	161	162	162	161	161	159	159	159	159	161	160	160	161	162	158	159	159	159	160	160	159	158	159	160	161	162	161	160	159	159	160	161	159	159	159	160	160	161	160	161	161	159	158	156	157	157	158	161	159	157	158	159	160	159	158	158	158	158	158	157	159	160	161	158	158	157	157	157	157	158	157	158	157	158	159	157	158	159	158	157	158	156	156	158	159	158	157	158	156	156	157	157	158	158	158	157	156	155	154	154	155	157	157	156	157	156	156	155	153	153	151	152	151	152	152	152	153	156	156	156	155	156	157	157	156	158	153	156	153	156	158	158	158	156	155	152	153	154	156	156	156	156	155	154	154	156	156	155	153	154	157	154	152	151	149	150	153	153	153	153	151	154	153	154	154	154	153	155	153	151	150	153	152	150	149	150	150	151	152	151	154	154	154	154	155	152	152	152	152	152	150	150	151	152	149	149	151	151	151	151	151	150	150	150	149	149	150	150	151	151	148	147	150	151	152	152	152	150	151	150	149	147	147	147	146	146	146	146	149	150	149	149	149	149	148	147	147	145	145	147	146	146	150	153	152	149	148	146	146	144	142	143	146	146	147	143	143	143	142	141	142	143	143	144	144	144	146	147	147	145	144	145	146	145	145	145	145	144	144	143
146	146	146	146	147	149	149	143	143	143	144	145	148	149	149	150	145	143	143	145	146	146	146	147	147	147	150	150	151	148	146	145	145	145	144	145	146	146	146	144	145	144	146	146	146	145	146	146	147	147	148	147	148	147	147	147	147	148	148	149	148	149	149	149	146	147	147	149	150	149	149	149	150	148	146	146	149	150	149	148	150	152	152	150	150	151	151	150	150	152	151	150	150	149	151	151	150	149	149	149	149	149	148	146	147	151	149	149	149	149	150	150	150	146	147	147	150	150	151	152	150	149	153	151	150	151	151	150	154	154	157	153	153	151	151	155	155	150	149	149	149	150	151	152	153	153	152	152	151	151	151	154	153	153	151	152	153	154	155	155	155	154	155	155	155	154	154	155	154	154	151	153	153	153	154	155	155	154	155	153	154	154	154	155	154	152	152	154	153	156	156	155	155	155	157	154	151	151	154	153	154	153	153	154	157	159	157	157	156	156	155	155	155	156	158	157	157	157	155	154	153	154	156	158	156	156	157	156	156	157	156	158	157	156	157	156	155	155	156	158	158	158	158	157	156	155	156	156	156	158	159	158	156	155	155	155	156	156	157	157	158	159	159	161	160	157	156	156	156	156	156	158	158	158	158	158	157	158	158	159	159	158	159	160	158	158	160	161	160	161	159	161	159	160	161	158	159	158	159	159	159	160	159	158	158	158	159	158	158	159	162	160	158	158	159	160	156	159	158	158	158	158	160	159	159	160	159	158	157	158	157	157	159	159	159	159	159	159	159	161	159	163	161	161	161	160	158	158	161	162	159	160	157	158	159	160	159	162	159	158	160	160	162	161	161	159	159	159	160	160	161	161	161	161	159	157	158	159	159	159	158	159	160	161	162	162	161	162	160	159	161	159	159	159	161	160	157	158	161	158	159	160	160	154	154	158	162	160	159	158	157	157	159	159	158	158	159	157	157	157	157	157	158	159	159	157	156	158	159	159	158	157	157	157	157	157	156	156	156	158	158	155	155	156	158	157	157	156	156	157	160	160	158	158	158	156	155	154	155	154	155	157	156	157	157	156	155	153	154	154	153	153	149	149	152	153	153	154	154	156	156	156	157	155	154	154	158	156	157	157	157	158	158	158	158	155	156	153	155	156	156	154	155	154	156	156	156	154	157	154	155	153	152	150	150	150	150	152	152	154	153	153	153	153	153	153	152	153	153	151	149	148	148	149	150	150	150	151	152	151	151	151	150	151	151	152	151	151	151	152	149	151	153	152	152	150	149	150	151	151	150	149	151	150	149	149	148	148	148	147	147	146	147	151	150	149	149	150	150	150	150	148	147	147	147	146	147	146	148	149	149	146	147	146	148	148	146	146	148	147	145	145	149	151	150	150	148	148	146	144	144	142	145	145	144	143	143	142	144	144	141	143	143	144	144	144	144	144	143	144	144	144	145	146	145	145	145	144	144	143
146	141	141	141	143	143	143	143	145	145	145	147	148	149	149	147	144	142	142	144	146	146	147	147	148	144	146	148	148	147	146	145	144	144	143	144	144	144	144	144	145	145	144	146	146	147	147	147	147	149	149	150	147	147	147	147	147	148	148	149	150	150	146	146	145	145	147	149	150	148	148	148	148	148	147	147	148	150	148	148	149	151	152	151	148	148	148	150	150	150	151	150	150	151	150	151	151	150	150	148	146	146	146	146	146	149	149	149	148	150	150	151	150	150	148	149	150	150	150	149	149	149	148	149	149	150	150	151	151	151	153	153	152	151	151	151	150	150	149	150	150	151	151	153	153	152	151	151	151	151	151	153	154	153	153	153	151	152	153	153	153	153	153	153	154	152	154	154	154	154	152	152	154	154	153	153	152	153	152	151	151	153	155	155	155	153	152	153	155	155	156	155	154	154	155	156	154	152	153	155	153	154	154	155	156	155	156	156	156	157	156	156	156	156	157	156	156	156	155	154	154	154	153	153	154	154	156	156	157	157	158	157	155	155	157	156	155	156	156	157	157	157	157	156	156	157	156	157	155	157	157	157	157	157	155	156	156	157	157	156	157	156	157	157	157	155	155	155	156	157	156	157	157	158	157	158	158	157	157	158	159	159	159	158	157	157	158	159	159	160	160	159	158	158	158	158	159	159	159	159	158	158	157	159	160	157	158	158	158	159	161	159	157	158	157	158	159	159	159	159	159	159	160	160	159	159	158	156	158	157	158	158	158	160	160	159	159	159	159	159	161	161	161	161	161	161	158	159	159	159	160	157	157	157	159	158	158	156	161	160	160	161	162	158	158	160	160	161	160	161	159	158	158	157	156	156	157	158	156	155	156	158	159	161	162	163	162	162	159	161	160	159	159	160	159	160	158	158	160	161	160	160	155	159	154	159	162	158	159	157	157	157	158	159	158	157	158	156	155	156	157	157	157	158	158	157	159	159	159	159	157	158	158	156	157	157	156	158	157	157	157	155	155	155	155	157	156	156	156	155	157	159	157	157	156	157	156	156	155	156	156	156	155	154	155	157	157	155	153	154	153	153	153	153	152	154	155	152	155	154	156	155	156	156	154	153	153	159	158	155	154	154	155	158	158	156	153	153	154	155	155	154	154	154	155	156	156	156	154	153	151	152	152	152	152	152	150	150	151	150	151	152	152	152	152	152	152	151	153	153	150	150	150	149	149	150	150	152	152	150	150	150	149	149	149	151	151	151	150	150	150	151	151	152	150	149	149	150	150	150	150	149	149	150	150	150	150	148	147	147	146	146	144	147	148	148	147	147	149	149	146	146	146	146	147	147	147	147	147	148	146	145	146	148	146	146	146	149	148	147	146	145	147	150	150	149	149	148	146	146	144	143	144	144	146	146	143	143	145	145	146	142	143	143	144	143	145	144	143	143	143	144	144	145	146	145	144	144	144	143
143	142	141	141	139	140	144	144	145	146	146	146	147	148	147	147	144	142	142	142	144	147	147	148	145	145	146	147	147	147	145	145	145	145	143	143	145	145	145	145	145	145	144	146	146	146	149	151	149	149	150	150	147	144	147	147	147	147	145	148	150	150	147	147	147	147	149	148	150	147	148	149	149	148	148	150	149	148	146	149	146	150	151	150	147	146	146	148	148	149	149	150	148	147	146	148	147	147	147	148	148	147	147	145	147	150	149	147	148	149	150	151	149	150	150	151	150	150	150	148	149	148	149	149	147	150	149	148	149	150	151	152	150	150	149	150	149	152	148	149	151	151	152	151	151	151	150	151	151	151	153	150	152	150	151	148	149	151	152	153	153	152	152	151	151	152	154	154	154	153	154	153	154	153	153	153	152	153	153	153	153	150	154	153	153	151	152	153	153	153	155	156	153	153	155	153	153	152	152	152	153	154	155	156	155	155	155	156	156	155	155	155	155	155	157	156	156	155	155	155	153	156	153	154	154	154	155	155	156	157	158	157	156	155	155	156	156	155	155	156	156	155	156	155	155	155	155	155	155	156	157	159	159	159	156	156	157	159	157	157	157	159	156	155	155	155	155	155	156	157	157	156	156	156	157	157	157	156	156	158	157	158	157	157	157	158	159	159	159	159	159	158	158	159	158	158	158	157	158	159	158	157	157	158	158	156	156	158	158	159	157	156	159	156	158	158	158	157	158	159	158	158	158	160	159	159	157	157	158	158	157	158	158	161	160	159	158	159	159	159	161	161	161	161	161	159	158	158	158	159	159	161	160	159	158	158	157	156	156	156	160	161	160	159	159	159	159	158	159	159	157	156	156	158	157	157	157	157	156	155	155	158	159	159	161	161	161	161	161	159	158	158	159	157	155	157	157	158	160	159	158	160	155	160	155	158	157	156	157	157	158	157	158	158	156	156	155	155	156	156	155	157	158	157	157	158	159	160	158	158	158	159	159	157	156	156	157	157	157	157	158	158	156	156	156	155	157	157	155	155	155	157	158	158	157	158	158	157	156	156	156	154	154	154	154	156	156	156	155	153	153	153	153	154	153	153	154	152	151	152	152	153	156	156	156	152	152	152	159	155	154	153	153	154	153	152	151	153	154	151	154	150	154	151	152	155	156	155	152	152	151	151	153	152	152	152	152	151	150	152	151	152	153	152	152	151	151	152	152	151	151	151	150	149	149	150	149	152	152	151	150	149	148	150	150	151	151	150	149	149	150	151	151	150	149	149	148	149	149	150	150	149	149	148	148	148	149	149	148	148	148	145	144	144	147	146	147	146	147	146	145	145	145	145	146	144	147	147	147	146	145	145	146	148	147	147	146	148	148	145	145	146	147	148	149	149	148	148	146	146	144	144	144	143	143	143	144	143	145	144	146	143	143	143	142	143	143	143	143	141	143	144	144	143	143	144	144	144	143	143
143	142	141	141	141	139	143	143	144	142	144	144	145	147	146	146	144	141	141	144	144	146	146	145	145	145	144	145	143	143	143	145	145	145	145	145	146	148	146	146	145	145	145	144	147	147	148	148	149	150	150	149	147	144	144	144	146	146	146	148	148	149	148	148	149	149	149	150	147	147	146	146	146	148	148	150	149	147	148	146	150	149	150	151	149	147	146	146	145	146	148	148	149	148	146	145	147	146	146	147	148	146	148	148	147	149	148	148	149	148	151	152	152	150	150	149	151	150	148	150	147	147	148	149	149	147	148	147	148	148	149	149	150	149	149	148	149	150	147	148	149	152	152	151	151	149	149	151	153	153	150	149	150	150	147	146	148	150	150	151	151	152	150	151	151	151	151	151	152	154	153	155	154	153	151	153	152	154	151	152	154	151	153	152	152	151	154	153	152	155	154	155	154	155	154	153	152	152	153	153	154	154	154	155	155	155	155	155	156	156	156	155	155	155	155	156	155	154	157	155	155	156	153	155	155	155	155	155	155	156	156	157	156	155	155	156	156	155	155	156	156	156	156	155	154	155	155	154	155	156	157	158	157	158	155	156	156	156	156	162	161	158	156	155	155	154	154	155	156	157	158	156	156	155	156	156	155	156	156	155	159	154	156	155	156	157	158	156	159	158	159	158	156	155	158	158	157	158	158	157	157	157	158	157	157	157	155	156	156	156	156	155	157	157	157	158	158	158	158	159	158	158	158	159	159	158	158	156	156	157	158	158	159	160	159	159	159	158	157	160	161	160	160	161	160	159	159	158	158	158	159	159	160	159	158	158	155	155	156	157	159	158	160	160	161	160	157	159	159	159	157	157	156	155	156	157	157	156	156	154	158	159	158	158	157	159	158	157	157	158	157	157	158	155	155	155	158	159	159	160	159	159	158	154	157	159	157	155	155	157	157	157	159	157	156	155	155	155	156	155	155	156	157	157	156	157	158	160	158	158	159	159	159	157	155	156	155	157	158	157	157	158	156	157	157	158	158	156	156	156	155	155	157	155	158	158	157	157	156	155	156	154	154	154	154	152	155	155	154	153	153	153	155	153	152	151	152	153	153	154	150	150	152	153	152	151	149	153	154	151	152	153	154	154	153	152	151	152	154	151	151	149	153	151	153	153	154	153	153	152	151	152	152	153	152	152	152	151	150	151	151	152	154	151	152	151	151	152	152	152	152	150	149	148	150	151	151	151	151	151	147	147	147	148	149	151	151	149	149	149	149	151	152	149	147	147	148	149	149	148	148	146	146	146	146	148	149	148	147	147	148	145	145	146	145	146	145	146	149	149	149	149	149	148	147	144	145	145	146	145	144	146	145	148	148	145	145	148	147	145	145	145	146	147	147	147	147	147	146	146	145	143	144	142	142	143	142	144	144	144	146	145	145	143	142	142	142	141	141	143	141	142	144	144	143	143	142	141	139	140
143	142	141	140	140	140	142	143	143	142	143	145	145	146	147	144	144	141	139	143	143	145	146	146	145	145	145	144	143	141	141	145	144	145	145	145	146	148	147	147	147	145	144	146	146	143	143	148	148	147	149	147	147	145	145	145	148	147	147	148	148	149	148	149	150	150	150	149	148	147	146	146	146	146	147	150	151	147	147	147	149	150	147	148	150	147	145	147	145	145	149	149	149	146	145	143	147	147	147	150	149	148	148	149	149	149	149	148	148	149	148	152	152	152	150	150	149	149	150	147	148	146	146	146	147	147	147	149	148	149	149	150	148	148	149	150	147	147	148	148	149	150	152	151	151	152	152	153	153	153	151	150	149	147	148	146	148	148	150	150	150	149	151	151	151	153	150	151	154	150	154	153	153	151	150	152	154	151	151	151	150	151	151	152	151	150	150	151	153	151	154	154	155	154	155	156	154	154	154	155	153	155	156	155	155	154	153	154	155	156	155	154	154	155	155	156	155	155	155	155	155	155	155	155	154	155	155	154	154	155	155	155	155	155	155	154	155	156	156	156	156	156	156	155	154	155	154	154	154	155	157	157	157	157	154	156	156	157	154	155	157	159	159	157	155	155	156	155	156	158	158	156	154	152	153	156	156	155	155	156	156	153	154	153	154	156	156	158	158	158	160	158	157	158	157	156	157	157	157	157	156	158	157	158	158	157	157	158	158	155	155	155	156	157	158	158	158	159	160	158	157	157	158	157	156	157	158	156	155	155	156	156	158	159	159	160	160	159	157	159	160	158	158	159	159	159	158	158	159	157	158	159	159	159	159	158	155	157	158	158	160	160	161	160	159	160	157	159	159	158	156	156	157	157	158	158	156	156	156	156	156	158	159	157	158	158	158	157	158	155	158	158	157	158	156	155	159	159	159	158	157	159	159	159	158	157	154	154	155	156	158	159	159	158	156	155	154	155	157	156	155	156	157	158	158	157	157	156	157	158	160	159	158	156	155	155	156	156	157	158	158	157	155	155	155	157	157	154	156	156	156	154	154	154	154	155	157	157	154	154	155	155	155	155	154	156	156	154	153	153	154	156	155	153	153	153	153	154	155	153	152	152	152	152	153	154	152	154	151	152	153	154	154	153	152	153	154	153	152	151	150	153	151	150	151	150	152	152	151	151	151	150	151	152	151	151	151	149	150	150	151	152	152	152	152	151	151	151	152	151	151	150	147	147	148	149	150	150	150	150	147	146	147	147	149	150	150	148	148	149	152	151	148	147	147	145	147	147	148	148	147	146	146	146	145	147	147	147	146	148	149	146	145	144	142	144	145	146	149	149	149	149	148	147	147	146	143	145	144	144	144	144	146	146	146	146	144	144	147	145	144	143	142	143	143	145	145	145	146	144	144	143	143	143	142	145	145	144	143	145	145	145	145	145	144	143	142	141	141	141	141	141	143	144	144	144	142	140	139	139
143	143	142	140	141	140	141	142	142	143	143	143	143	144	144	142	142	140	139	138	144	144	146	146	147	147	147	143	141	141	141	144	144	145	145	144	144	144	147	148	146	146	144	145	146	146	146	144	147	145	147	147	145	148	145	147	146	146	146	146	146	149	148	148	148	149	149	149	149	146	146	146	146	146	146	146	148	149	146	146	146	147	146	146	148	149	147	146	146	146	148	147	146	146	145	145	145	148	148	149	150	148	148	149	149	149	149	149	149	148	148	149	149	149	147	149	149	148	150	148	148	148	148	146	146	146	149	149	149	150	150	150	150	146	148	150	146	146	149	149	149	150	150	153	152	152	152	149	150	148	149	149	149	149	148	150	148	148	148	149	149	148	149	151	153	154	153	150	152	149	151	151	153	151	150	151	152	153	151	149	152	152	149	151	151	148	151	151	150	151	153	153	154	155	155	155	154	154	154	154	153	153	153	154	154	155	154	154	155	156	156	154	152	155	155	155	155	155	155	155	154	153	153	155	153	152	154	154	153	153	155	154	153	152	153	155	156	156	156	156	155	156	156	156	156	153	153	155	155	157	157	157	156	156	156	156	156	153	153	154	156	157	159	156	154	154	156	156	157	157	156	154	151	152	151	153	156	156	159	156	156	154	153	153	154	156	157	155	155	158	155	160	158	157	156	157	157	156	154	154	157	158	158	159	158	157	158	155	156	155	156	157	157	158	157	156	157	159	158	157	156	157	156	156	156	156	157	156	156	156	156	156	157	157	158	157	156	160	157	159	157	158	157	158	158	158	157	157	157	156	157	158	158	160	159	158	156	158	158	159	160	160	160	160	159	157	158	158	158	156	156	155	156	158	158	158	158	156	155	155	156	157	157	159	157	156	157	158	157	157	156	155	157	158	157	159	155	160	159	158	156	158	158	156	156	154	155	155	157	157	158	159	159	158	157	156	155	156	157	155	153	156	156	156	157	153	153	153	156	157	156	158	158	155	154	155	155	156	155	159	157	158	155	155	155	156	154	155	154	155	155	154	154	154	154	153	152	152	152	150	152	155	155	155	155	155	154	153	153	153	154	154	153	153	153	154	156	155	154	153	153	152	151	152	153	153	155	155	152	153	153	154	154	153	152	153	153	153	152	150	151	153	153	150	149	151	152	152	151	150	152	152	149	151	148	150	149	149	148	152	151	152	151	152	151	151	151	150	151	149	148	147	146	146	147	149	150	150	149	148	147	147	146	149	149	149	147	148	146	146	147	147	147	148	146	145	145	147	147	147	147	147	146	147	148	148	147	147	146	147	149	147	146	144	141	143	145	145	145	145	144	145	146	146	147	146	145	144	144	143	144	145	145	146	146	144	144	145	145	143	143	143	141	141	142	143	143	145	143	145	146	146	146	143	142	146	145	143	143	144	144	145	144	144	144	144	142	142	141	141	142	141	143	143	143	143	143	140	140	139
143	143	142	141	140	139	141	141	142	142	143	143	145	145	144	143	140	140	139	138	141	141	143	144	144	147	147	143	143	142	145	145	145	144	144	144	144	145	145	146	145	145	143	145	146	144	144	144	143	145	145	145	148	146	147	147	146	146	146	147	147	147	147	146	147	149	151	151	148	145	145	145	143	144	145	145	148	148	147	145	145	145	146	143	143	144	144	146	144	147	147	147	146	145	145	145	145	147	147	147	148	147	148	149	148	149	149	148	149	149	149	150	148	148	146	146	148	147	149	148	148	146	145	145	146	146	147	148	148	149	150	150	147	148	143	143	147	148	150	148	149	149	149	149	151	152	150	149	149	149	150	149	149	150	150	150	149	148	149	149	148	148	149	150	150	150	151	151	149	149	149	149	148	150	149	151	152	151	150	153	150	151	151	149	149	148	151	149	150	151	152	152	153	153	153	152	153	153	153	153	153	153	153	153	155	154	154	155	155	156	156	155	155	157	157	155	154	155	155	154	153	153	152	154	154	153	152	152	153	157	156	154	154	152	154	155	156	156	155	156	154	154	156	156	156	155	155	155	155	156	155	154	154	156	157	157	155	153	153	153	154	155	154	156	154	154	156	156	155	155	154	152	153	152	154	154	156	156	155	157	154	154	154	153	155	157	157	157	156	156	156	155	153	155	155	156	155	156	153	153	154	157	158	159	159	159	156	158	156	155	156	157	157	157	157	156	157	157	157	156	157	156	156	156	155	156	156	156	157	157	156	156	157	158	158	158	157	156	156	157	160	160	158	158	157	157	156	157	158	155	158	159	159	158	158	158	157	158	158	160	160	160	160	158	158	158	159	158	157	157	155	154	157	160	159	158	158	155	155	155	155	156	157	159	158	156	157	157	157	157	156	155	157	157	157	159	158	159	156	159	158	156	156	156	156	156	157	156	154	155	154	156	156	156	156	156	154	155	156	154	154	154	157	157	156	155	154	155	156	158	159	158	157	157	155	154	156	156	156	154	157	156	154	155	153	155	155	153	155	156	155	154	154	155	154	154	153	153	153	153	154	155	156	155	154	155	154	153	153	153	154	153	153	154	154	154	154	154	154	154	154	153	152	153	153	154	154	154	154	153	153	154	153	153	153	153	152	152	150	149	152	151	152	150	150	152	150	152	151	150	152	151	152	148	148	148	151	151	150	148	150	151	150	151	150	150	152	151	149	148	148	147	146	147	148	147	147	149	148	147	147	147	147	147	147	146	147	146	147	147	146	148	148	148	146	145	145	145	146	146	145	145	148	148	149	148	147	147	145	146	147	147	147	145	143	140	143	143	143	145	145	145	143	146	147	146	145	145	144	143	145	145	145	144	142	144	145	145	147	145	144	143	143	143	142	144	144	145	143	143	143	143	143	143	146	148	144	143	142	142	143	141	143	144	143	143	141	142	141	141	140	140	141	141	142	143	143	141	140	140
142	140	140	140	139	139	141	142	142	142	141	145	145	145	144	141	138	138	138	138	142	143	143	140	143	143	143	143	142	143	144	144	146	147	144	144	145	145	146	142	139	142	142	143	146	144	145	145	145	144	144	145	146	147	146	145	144	145	146	146	146	147	147	145	147	148	149	147	147	150	147	145	143	144	147	148	148	147	148	147	147	143	144	143	146	146	146	144	143	147	146	146	146	144	145	148	149	147	146	145	145	147	146	146	146	147	148	148	148	148	148	147	146	146	147	147	146	147	148	149	147	143	144	147	147	146	147	147	147	148	149	147	147	147	143	143	147	147	149	149	148	145	146	149	150	149	149	150	148	148	148	151	149	151	150	151	150	150	150	150	150	149	148	150	150	150	150	151	148	148	148	148	148	148	150	151	150	152	150	151	151	151	150	149	149	151	151	152	150	150	150	151	152	152	151	151	152	153	153	151	152	153	153	154	153	153	153	153	154	154	155	155	155	155	155	156	155	154	153	153	153	154	155	155	154	153	151	152	153	155	155	155	153	152	152	155	157	155	156	155	153	155	156	156	158	156	156	155	155	153	154	154	154	156	156	156	156	153	154	153	154	155	154	154	153	152	153	156	152	151	153	153	153	153	153	155	156	156	155	155	155	155	153	154	155	156	157	155	156	156	155	156	155	153	155	155	155	156	155	154	154	155	155	156	156	157	158	156	156	157	156	156	156	156	157	155	157	157	157	157	155	156	156	155	155	156	156	156	158	157	157	158	158	158	158	156	158	158	159	157	159	159	159	156	156	156	157	158	156	154	158	158	158	157	158	158	158	158	158	159	160	159	157	156	156	157	158	158	157	155	154	155	156	159	156	158	156	155	156	155	155	157	157	157	155	158	155	155	156	156	157	155	155	155	156	159	158	157	156	158	159	160	156	156	156	157	157	157	155	156	155	154	155	155	155	156	153	154	155	155	153	155	155	157	157	157	155	156	156	157	158	157	157	156	156	155	157	157	156	155	156	157	156	155	155	154	152	151	154	156	155	155	155	154	153	152	152	153	153	153	153	154	154	153	153	154	153	153	153	153	154	154	152	153	153	153	153	154	154	154	154	152	153	153	153	154	154	154	152	154	154	154	153	153	153	153	153	151	150	152	150	150	152	148	147	149	152	151	151	151	150	150	149	151	148	151	151	150	149	146	149	151	150	151	149	148	148	152	151	150	147	147	147	148	148	147	147	147	147	147	147	147	147	147	146	146	148	148	147	147	147	147	146	148	147	146	145	145	145	144	144	146	147	149	148	147	146	144	144	146	146	146	146	144	143	142	139	139	144	145	144	142	143	145	145	145	145	145	144	144	144	144	144	142	142	145	146	145	146	146	145	145	143	144	143	143	144	144	145	143	143	143	143	143	143	145	144	141	140	140	140	140	140	143	143	142	143	141	140	140	140	139	140	140	141	143	141	141	141	141
140	140	140	140	139	141	141	141	141	141	141	144	145	144	140	140	140	139	139	140	142	142	139	139	140	141	141	141	142	143	145	148	148	146	145	145	145	147	144	141	139	141	142	142	144	144	143	144	144	143	144	145	145	146	146	144	144	145	146	146	146	146	145	145	146	148	148	148	148	146	145	143	142	144	144	144	144	144	146	148	143	144	142	143	146	144	145	147	147	147	146	144	146	148	148	149	147	146	144	143	147	147	146	146	145	146	147	148	144	144	143	144	145	145	146	149	150	149	149	147	146	143	143	145	145	146	146	146	147	147	149	150	150	149	148	147	147	147	149	149	147	146	146	147	148	146	148	148	150	148	151	151	150	151	151	151	150	150	150	150	147	148	151	151	151	151	149	149	149	148	148	148	148	149	150	152	152	151	152	151	150	150	149	150	151	153	152	150	149	149	149	150	151	152	150	150	150	151	151	151	153	152	153	153	154	151	153	153	153	154	155	155	156	154	154	154	153	150	149	152	153	153	154	155	154	152	151	152	153	154	154	152	151	150	153	152	153	155	155	155	155	152	153	155	156	156	156	155	155	152	152	151	151	152	154	154	152	154	154	153	152	152	156	157	152	152	154	154	154	153	155	156	155	154	153	154	154	155	153	154	156	154	155	154	154	155	156	158	155	155	156	156	155	154	156	155	156	155	156	154	154	155	156	157	156	156	157	156	156	156	156	156	155	154	153	155	156	156	156	157	157	157	155	154	156	156	155	155	156	156	158	158	159	158	156	155	157	159	157	157	156	156	156	155	154	154	154	155	154	153	158	158	158	157	157	157	157	157	157	158	158	157	156	156	156	156	157	157	156	156	156	155	155	156	158	157	157	156	156	155	153	155	155	155	155	155	155	155	154	153	155	156	154	154	154	158	154	155	155	158	158	157	157	157	157	157	158	157	154	156	154	156	156	156	155	156	153	153	155	155	155	154	155	156	157	156	156	155	155	156	158	158	157	156	155	155	153	158	156	154	153	156	156	154	155	154	152	154	156	154	154	151	155	154	153	152	153	153	153	153	153	152	152	153	153	152	153	152	152	153	153	153	152	151	152	152	153	153	154	154	154	152	152	152	153	153	154	152	152	151	151	152	151	152	152	152	151	152	152	150	150	150	148	149	148	148	148	149	150	150	151	150	149	150	150	152	152	152	151	148	148	150	150	149	149	148	148	148	150	148	146	147	148	147	147	147	146	147	146	147	148	149	149	147	147	148	148	147	147	147	148	145	145	148	147	147	147	146	144	143	144	145	147	147	146	146	145	143	144	144	145	144	146	144	143	142	142	142	143	143	142	143	141	141	142	143	143	144	143	143	144	144	144	143	142	143	145	144	145	146	146	144	143	143	143	143	143	144	143	143	143	143	143	143	142	145	147	140	140	139	139	140	141	142	140	143	142	141	140	140	139	139	139	139	139	142	142	141	141	141
140	139	140	140	140	142	141	141	139	140	140	141	143	140	140	141	141	141	142	142	142	142	139	139	140	143	142	142	142	143	144	146	143	143	145	146	147	144	145	139	140	141	142	142	144	143	143	143	144	144	145	146	146	146	144	145	146	146	144	144	147	145	145	145	146	146	146	145	146	146	144	142	141	142	144	144	145	145	146	146	143	142	144	146	144	145	145	147	147	146	146	144	145	147	147	147	146	145	143	146	147	146	146	146	145	145	148	145	144	143	143	144	144	145	147	145	147	146	148	148	147	144	143	144	143	143	146	146	146	148	149	150	151	148	149	149	149	148	149	149	145	147	147	147	145	144	146	147	147	150	151	150	151	150	150	150	149	150	150	149	147	150	151	150	149	148	146	147	145	147	149	149	150	149	150	152	152	151	151	151	150	149	148	150	151	151	152	150	149	149	149	150	150	152	150	150	150	150	150	151	153	152	152	152	151	152	152	153	153	153	154	154	153	153	154	152	152	150	151	149	151	154	153	151	151	151	152	154	154	152	153	151	151	150	151	152	152	154	155	154	153	151	150	152	151	155	155	156	156	153	152	151	152	152	152	151	154	154	154	153	152	157	156	153	153	153	153	155	155	154	156	156	156	155	153	155	157	156	155	156	155	153	153	153	154	154	155	154	154	154	155	156	157	157	157	157	156	156	155	154	154	155	154	156	159	156	155	155	154	155	156	156	155	154	155	155	156	153	153	156	156	154	155	156	156	156	156	154	156	156	157	159	159	158	156	155	156	157	156	155	156	154	155	156	155	155	154	154	154	154	157	157	158	157	157	157	156	155	155	157	156	156	156	154	155	154	155	156	155	155	155	155	157	158	157	156	156	155	155	154	153	153	153	152	153	154	155	153	155	155	156	155	154	154	153	155	154	153	156	156	157	156	155	155	155	156	157	158	156	154	154	157	156	156	157	155	155	155	155	157	157	155	155	157	156	155	155	154	154	155	155	155	156	155	155	155	153	153	153	153	153	152	152	152	153	153	152	153	152	151	151	152	153	152	152	151	152	151	151	150	150	151	151	153	152	152	150	149	151	152	154	154	153	150	152	153	152	153	154	154	151	150	152	152	151	152	152	151	153	153	152	151	151	152	151	150	151	151	150	151	149	149	148	147	148	149	148	149	149	148	149	149	149	150	148	151	151	151	150	148	149	149	149	148	148	147	148	148	148	146	148	147	147	147	146	147	146	147	146	146	147	149	149	149	148	147	149	147	146	146	146	147	144	144	144	143	146	145	145	145	144	146	146	146	144	145	144	144	143	143	144	143	143	142	142	143	143	143	143	142	143	143	142	142	142	142	143	143	143	143	143	143	143	143	143	144	144	142	143	143	145	144	143	140	143	143	143	145	145	145	145	143	142	142	142	144	145	145	140	141	140	141	140	141	141	140	139	140	140	140	139	139	139	140	139	140	140	141	141	139
139	139	140	140	140	141	139	139	135	140	143	143	143	142	141	141	139	141	142	142	142	141	139	142	142	143	142	141	141	141	144	141	141	141	144	146	145	145	145	141	142	141	142	143	143	143	143	144	145	144	144	145	146	146	145	146	145	144	144	145	148	146	144	144	145	146	145	145	144	142	142	141	143	145	144	145	146	145	145	146	145	140	143	144	145	145	146	146	147	146	144	143	144	145	145	143	145	145	145	144	146	145	146	144	145	146	144	145	144	143	143	143	144	145	146	146	145	145	147	147	147	148	145	143	144	144	145	147	148	148	149	148	147	146	146	147	148	149	149	146	146	147	147	146	145	142	145	146	147	149	150	150	150	150	148	148	149	146	149	149	148	149	149	147	147	147	146	145	147	148	148	149	147	148	150	152	152	149	151	150	149	149	148	150	151	151	149	149	148	148	149	148	149	152	151	151	151	149	147	149	152	152	151	151	151	152	152	153	152	154	154	154	152	153	153	152	149	152	149	150	150	151	151	152	153	151	153	153	152	152	151	151	151	151	150	152	151	154	154	154	153	152	152	152	152	153	153	153	153	154	152	152	150	151	152	152	154	154	154	155	154	152	155	153	153	156	152	153	153	154	154	156	155	153	153	154	155	155	154	156	157	157	157	154	154	154	153	153	153	154	155	156	158	157	157	156	155	154	154	154	153	152	153	155	156	156	155	153	154	155	156	156	155	154	154	154	156	154	154	152	153	155	157	157	156	157	157	157	156	156	156	157	158	156	155	155	155	155	154	155	155	156	156	155	155	155	155	155	155	155	155	156	156	157	157	155	154	154	155	156	156	156	155	155	154	155	155	154	154	156	155	155	156	156	157	157	156	155	155	154	152	152	151	151	152	152	153	153	154	155	156	155	154	154	154	154	153	153	153	153	156	155	154	154	155	154	155	157	156	156	156	155	155	154	153	153	153	155	155	155	155	154	158	158	156	154	154	153	153	154	153	153	153	156	155	153	152	154	154	155	155	154	152	151	153	152	154	152	151	152	152	152	151	151	150	151	150	150	150	150	150	151	151	152	150	150	149	150	150	151	152	153	153	152	151	152	153	151	152	150	152	150	151	151	151	151	150	150	152	151	151	149	150	150	149	150	150	150	150	150	150	149	147	147	147	149	150	150	149	149	148	148	147	147	146	150	150	150	150	150	150	149	148	147	148	147	148	148	147	146	146	146	146	146	147	146	146	145	144	146	147	148	148	149	148	148	148	146	146	146	146	144	144	144	142	145	144	146	145	145	145	144	143	143	143	143	143	144	143	143	144	143	143	143	142	140	142	142	143	143	143	142	141	142	142	142	143	143	143	144	145	145	143	144	144	142	142	141	141	142	142	142	142	140	142	141	142	140	140	140	142	141	141	141	142	144	144	145	142	139	139	139	140	139	141	138	138	138	138	140	140	140	140	140	140	139	139	139	139	139
140	140	140	139	139	137	136	135	135	140	143	144	144	142	141	139	139	142	141	139	139	140	140	142	143	144	143	141	141	141	143	140	143	144	144	145	145	143	141	141	142	140	141	143	143	143	143	144	145	145	145	146	146	146	146	145	144	143	144	145	147	145	144	144	145	145	140	144	143	141	142	142	142	143	143	145	145	145	145	145	146	142	145	144	145	147	146	145	145	145	142	141	144	144	144	144	144	145	144	144	145	146	145	144	145	143	143	143	143	143	144	144	144	145	146	145	145	145	146	146	147	147	144	143	144	144	145	146	147	147	147	146	144	145	146	147	147	147	146	146	145	146	146	146	144	144	144	145	145	150	150	150	149	149	147	147	146	147	149	149	148	148	148	147	147	146	145	146	147	148	148	149	147	148	148	149	150	147	149	149	147	149	150	150	150	151	150	149	148	148	149	149	150	150	150	152	149	149	148	148	150	151	150	152	152	151	152	151	152	154	153	150	152	151	153	148	148	148	149	150	151	151	151	152	154	152	152	152	152	150	152	152	152	151	150	151	152	154	153	153	152	151	152	151	153	154	153	153	152	152	150	150	150	151	154	155	154	154	154	155	155	152	155	153	150	150	151	151	153	154	153	156	154	153	153	154	155	154	154	153	154	154	154	154	152	153	151	152	153	154	154	156	157	156	157	157	154	154	153	154	152	151	152	154	156	156	155	154	153	156	156	156	155	155	154	156	154	155	154	154	152	153	155	156	156	156	155	154	156	156	156	155	155	155	155	154	153	154	155	155	155	155	156	154	153	153	154	153	156	155	154	155	154	156	156	153	153	153	154	155	155	157	157	157	156	155	155	154	154	157	155	156	158	156	156	157	156	156	156	153	152	152	150	151	151	152	153	151	152	152	154	155	155	154	154	154	153	152	153	155	156	155	153	154	155	156	156	154	154	153	154	155	153	153	154	152	153	156	155	156	155	156	155	154	152	152	153	153	152	154	152	152	152	154	155	152	151	155	155	156	156	154	153	152	152	152	152	152	152	152	152	151	152	151	150	151	151	151	151	150	150	150	150	150	150	151	150	149	150	151	152	153	152	153	152	151	151	149	149	150	150	147	151	151	151	150	150	149	151	152	151	150	149	149	149	150	150	149	150	150	150	148	148	147	148	147	147	148	149	150	148	148	148	147	147	146	150	148	148	148	149	148	149	147	146	147	147	146	148	147	147	147	146	144	147	146	143	144	146	146	146	147	147	148	147	148	144	145	145	145	144	146	144	144	143	144	145	144	146	146	146	144	145	143	144	142	143	143	144	143	143	143	143	143	142	142	143	141	143	143	143	142	141	141	140	140	140	141	143	144	144	143	144	143	143	143	141	141	142	140	141	140	140	140	140	142	141	141	143	139	141	139	141	141	141	141	144	140	141	139	139	140	139	140	139	140	138	138	139	138	138	139	140	140	138	139	139	138	139	139
140	140	140	137	136	136	136	136	136	140	144	144	144	142	141	139	139	141	139	138	138	140	141	143	144	145	142	142	142	142	142	140	141	143	143	143	142	142	142	142	139	139	141	140	142	142	144	145	145	145	145	145	145	144	145	141	143	143	141	142	143	143	144	145	145	145	140	140	141	142	142	142	142	142	143	144	145	145	144	144	144	141	143	145	145	145	147	145	144	144	141	142	143	144	144	144	144	144	144	146	146	145	143	143	142	142	145	145	145	144	144	146	145	145	145	144	145	146	146	145	144	143	144	144	144	144	145	145	147	146	146	145	145	144	147	148	149	149	146	146	145	145	145	144	144	144	143	144	147	148	149	149	148	148	146	145	147	147	147	147	149	146	146	144	145	146	146	146	147	147	147	149	146	147	147	148	147	147	148	147	147	149	147	150	151	151	151	149	149	149	151	150	150	150	150	149	150	150	148	150	149	147	151	151	151	151	151	152	149	150	151	150	151	152	151	148	147	150	149	151	152	152	151	151	153	154	152	152	152	151	150	152	152	152	150	150	151	152	151	151	151	149	150	153	154	151	152	151	150	149	150	150	151	153	154	154	152	153	154	153	152	153	156	152	151	149	149	150	153	154	154	153	152	153	153	154	154	154	153	152	154	154	152	152	153	152	152	152	152	153	154	154	155	155	157	157	154	153	153	152	152	151	151	154	154	155	154	154	153	154	156	156	155	154	155	156	155	155	153	153	153	153	154	156	155	154	154	155	154	154	154	157	155	154	155	154	153	153	153	153	155	156	155	153	153	153	154	155	154	154	154	153	154	155	154	153	153	153	154	154	154	155	154	156	156	156	154	153	154	154	157	157	158	159	156	156	155	155	154	153	151	152	152	152	151	151	150	150	151	151	152	152	152	153	153	154	153	153	153	155	155	154	154	153	154	154	153	154	155	153	153	153	153	153	154	153	153	153	157	155	153	152	155	154	152	150	149	153	155	152	149	151	152	154	153	152	152	154	154	154	155	155	154	153	152	153	153	152	152	151	150	151	150	150	150	149	150	150	151	150	150	149	149	148	148	149	151	149	151	151	153	153	153	153	152	148	149	149	149	148	148	148	150	147	150	148	149	150	151	151	148	150	149	148	148	148	148	148	149	149	150	148	146	146	147	149	149	149	148	149	150	149	148	146	145	147	147	148	147	146	146	146	147	145	145	144	147	148	149	146	146	146	145	144	144	143	144	145	145	146	146	146	145	146	147	147	146	145	144	144	145	144	144	143	143	143	146	145	146	146	145	145	144	143	145	142	141	142	142	142	143	143	143	144	144	142	143	142	142	143	143	142	141	139	139	139	139	139	139	139	140	143	143	143	143	142	142	143	141	141	140	139	140	140	139	143	143	140	140	140	141	142	141	142	141	141	140	140	139	139	139	141	140	139	139	139	138	138	137	137	139	139	141	140	138	138	137	138	138	139
