381	381	375	371	374	376	376	379	379	381	382	382	385	385	379	375	369	369	371	371	372	374	376	376	369	369	372	375	378	378	378	379	379	378	372	369	367	367	366	367	370	375	375	378	380	375	375	374	371	371	373	376	378	379	378	378	378	379	379	376	372	373	376	376	378	377	375	374	371	371	373	377	379	380	380	374	371	371	370	371	369	368	364	364	365	368	369	363	366	367	367	367	365	364	362	363	370	371	365	365	368	370	369	361	356	360	367	373	374	370	365	363	365	365	368	372	373	367	363	362	364	364	360	362	365	365	364	367	368	370	368	368	367	360	356	355	362	367	365	364	363	360	361	359	355	357	367	366	363	364	370	369	365	363	363	365	359	359	363	365	366	369	368	363	361	358	358	356	358	358	357	356	354	354	357	360	361	361	362	363	367	369	366	359	357	356	357	361	361	361	360	352	361	362	362	360	352	352	351	352	353	356	354	351	350	355	359	356	353	353	353	350	352	351	353	356	356	358	361	362	364	364	363	362	360	357	358	360	359	355	356	356	356	356	357	358	356	361	362	362	359	355	353	352	353	353	353	354	355	356	354	356	352	352	353	353	351	351	349	352	355	358	356	355	356	355	356	359	359	357	358	363	350	349	350	356	356	353	363	363	362	359	359	356	354	352	347	346	345	344	347	351	352	353	354	353	351	349	347	345	347	348	349	348	347	345	341	342	345	348	353	350	352	352	354	354	351	351	352	352	351	353	355	356	356	354	349	346	344	350	355	354	353	354	355	351	351	350	346	344	343	346	350	352	354	355	353	349	349	349	349	349	350	349	347	345	346	348	348	349	348	349	350	350	353	352	354	354	361	360	358	357	353	356	348	347	356	356	354	352	352	352	352	351	349	349	350	344	343	343	355	351	354	352	353	350	350	350	350	347	346	346	348	350	354	357	360	355	353	353	358	362	363	355	352	349	345	346	348	354	357	355	357	358	355	352	351	350	341	340	343	350	355	357	353	350	347	346	346	350	354	356	351	343	343	345	346	346	347	348	349	352	353	353	351	351	352	351	349	347	344	342	347	352	355	355	353	351	350	353	353	351	349	352	358	361	348	346	345	346	347	349	347	345	346	347	352	351	349	349	351	352	352	351	349	348	347	351	353	351	350	349	348	347	344	342	343	344	344	348	350	351	350	350	351	346	346	344	340	346	349	351	351	351	350	348	349	355	353	350	348	348	347	350	352	346	346	345	347	347	347	349	350	352	352	353	352	355	354	352	349	348	346	346	345	343	345	347	349	350	352	354	355	352	356	356	356	355	352	350	349	348	351	351	350	349	350	354	356	353	348	345	344	345	345	344	344	346	349	349	349	349	349	348	355	355	353	349	346	349	351	353	355	356	353	349	348	347	346	349	352	354	353	354	354	354	352	352	353	347	349	350	354	354	357	359	360	359	357	356	353	353	352	0	0	0	0	0	0	0
373	373	369	366	372	373	373	374	375	376	375	377	377	375	372	371	369	359	359	358	360	360	358	358	361	364	365	368	368	370	370	373	375	372	370	366	366	366	364	364	365	365	370	371	371	366	366	364	365	366	370	372	371	368	367	363	363	363	365	367	369	371	375	371	371	370	366	367	368	368	369	370	371	370	363	361	359	359	356	355	357	359	359	361	362	363	364	365	360	359	361	361	359	359	360	362	366	364	361	364	359	361	362	365	356	358	365	367	370	367	365	362	363	365	366	367	367	360	359	358	357	361	361	362	358	359	362	364	364	364	367	358	358	358	355	355	356	358	361	361	363	356	352	349	349	350	355	356	359	362	362	357	357	355	354	354	352	352	351	359	363	362	360	352	348	354	353	352	352	352	355	355	354	356	357	358	357	358	360	360	360	364	358	356	355	354	353	354	353	351	349	348	349	358	357	354	353	353	356	356	354	347	344	340	344	352	357	353	350	351	350	349	344	346	349	351	353	357	356	360	363	363	359	359	358	356	355	354	352	350	353	354	352	350	349	347	347	351	357	358	352	351	350	351	350	350	349	352	353	353	351	349	348	352	350	351	351	351	350	350	353	353	353	352	349	348	350	348	349	353	354	352	347	345	344	344	347	351	350	349	346	344	346	347	345	345	348	349	347	339	341	347	349	348	350	349	348	347	346	344	344	346	346	347	346	344	342	341	343	344	344	344	347	349	351	351	350	351	348	348	348	349	351	350	343	335	334	333	336	343	348	346	346	348	349	348	340	340	342	342	343	344	347	349	350	348	346	346	346	346	345	345	344	345	344	342	342	345	345	347	346	346	345	344	344	348	350	349	347	353	356	351	347	345	343	342	346	350	353	350	350	349	347	347	348	348	348	342	342	340	344	347	350	351	350	349	348	346	344	342	342	342	344	349	352	356	352	347	348	350	352	352	354	352	349	345	342	342	341	345	354	353	352	347	346	343	344	344	345	342	344	345	346	353	350	347	342	343	344	342	343	345	344	342	342	343	343	346	347	348	349	350	348	347	348	350	347	343	343	343	346	345	348	350	346	353	352	351	348	351	353	354	356	351	347	346	346	345	345	345	346	347	346	346	346	344	344	345	346	347	349	350	353	352	348	344	345	346	351	347	347	348	350	349	349	346	349	346	343	342	343	345	344	341	343	343	342	340	334	336	344	347	348	345	347	346	344	343	345	349	348	348	347	347	350	349	347	344	340	338	338	340	348	348	348	348	346	350	351	348	346	340	339	341	343	342	343	345	346	347	346	346	348	348	349	350	350	349	349	346	347	347	350	350	347	347	347	352	350	350	347	344	345	344	345	343	342	343	346	347	346	346	344	346	350	352	348	344	343	344	344	345	342	348	347	345	344	344	347	349	349	347	343	342	341	343	352	352	351	348	346	344	347	351	353	355	359	358	355	351	351	347	347	0	0	0	0	0	0	0
368	368	366	368	369	370	370	370	368	368	366	366	366	366	364	362	359	353	356	357	357	355	354	354	354	357	359	361	363	368	368	369	370	371	370	366	364	358	358	358	359	364	368	368	363	362	362	361	362	362	364	365	363	359	358	357	357	358	362	363	364	361	360	364	363	362	361	362	365	365	365	366	366	361	358	354	355	352	355	356	358	359	358	359	359	360	360	358	355	351	354	355	355	356	357	357	359	360	359	359	357	361	361	361	357	356	361	365	365	362	362	362	361	362	362	362	358	353	353	353	353	353	358	355	354	359	361	354	352	349	350	354	355	355	355	356	356	357	355	356	358	360	357	353	349	351	355	356	358	359	357	355	355	354	353	352	351	350	349	349	348	352	350	347	346	348	352	349	345	345	346	349	344	345	350	351	348	349	350	356	356	356	352	345	344	345	344	342	341	339	342	347	351	351	356	355	346	347	348	349	348	344	344	342	340	341	352	352	350	350	347	346	344	342	342	343	344	351	353	355	356	356	358	359	358	356	350	346	345	342	345	345	347	346	344	343	343	347	345	349	348	348	345	345	346	345	346	345	350	350	350	345	341	345	348	347	356	350	347	338	340	342	343	344	345	346	347	348	351	349	344	339	345	343	342	338	341	343	345	344	342	339	339	342	340	341	343	342	340	337	337	341	341	345	344	346	343	351	352	353	346	344	343	345	345	345	344	345	343	343	342	339	341	343	346	343	340	340	342	340	339	338	340	341	338	336	335	335	338	342	345	344	343	342	340	337	337	338	340	342	341	343	343	345	343	339	336	339	340	341	341	339	340	338	335	339	338	341	342	343	343	343	341	340	343	343	342	337	343	350	350	348	344	342	341	341	342	343	343	345	343	339	341	340	345	346	348	343	340	337	338	340	340	338	347	346	343	342	341	339	340	340	340	348	351	351	355	342	342	345	348	347	352	350	345	342	342	341	341	341	344	350	345	340	340	342	337	340	343	344	342	345	345	349	350	342	341	338	340	340	339	342	342	342	340	338	343	344	343	346	348	346	347	344	345	344	342	334	331	334	337	342	344	344	346	353	349	348	347	349	352	332	334	334	338	341	344	345	343	343	344	345	344	344	342	342	340	339	342	344	348	349	349	349	344	343	344	343	344	346	346	347	352	352	350	346	348	343	340	339	338	339	339	338	338	339	340	338	335	335	335	337	339	342	343	338	335	335	337	345	347	347	346	344	343	345	348	348	339	337	336	340	342	344	345	343	342	341	342	348	343	340	340	341	343	342	342	344	344	345	343	343	346	345	343	343	345	344	345	339	343	345	345	346	344	343	345	347	347	347	342	342	343	345	345	342	340	340	340	340	340	343	344	344	345	346	347	346	344	340	337	337	337	338	340	336	339	341	342	342	342	342	341	341	340	342	342	344	345	336	339	337	335	346	349	350	346	344	346	345	345	344	346	0	0	0	0	0	0	0
366	364	364	364	365	362	358	358	357	359	359	358	358	359	355	354	353	355	355	356	356	356	352	354	354	356	360	360	358	362	365	365	366	367	363	358	353	353	353	356	360	359	359	358	358	359	360	360	360	360	360	359	357	355	354	355	356	356	358	359	358	358	359	358	357	357	356	357	358	359	359	358	353	354	353	350	350	352	354	356	358	358	357	357	357	357	358	357	355	350	350	351	351	353	352	351	353	353	349	352	352	353	358	350	349	352	355	354	355	355	358	360	360	359	355	354	349	348	343	347	350	350	351	352	354	353	349	346	345	343	347	351	353	355	357	357	357	357	354	355	353	354	354	350	349	354	357	356	356	356	353	351	349	348	350	350	350	349	349	346	343	343	346	345	346	347	346	344	337	337	337	339	340	342	346	344	343	343	343	345	345	344	343	337	337	336	336	338	339	339	341	342	341	340	341	341	342	344	344	342	342	342	341	342	343	342	342	341	343	349	347	342	340	339	338	336	340	344	347	349	351	346	352	353	354	352	349	343	340	335	335	339	342	343	343	343	341	338	339	339	338	338	339	343	342	341	342	344	340	339	335	335	335	335	336	338	342	339	341	337	339	340	341	343	344	345	347	348	350	350	342	339	343	341	338	333	336	338	340	337	335	336	337	338	339	340	340	340	336	337	338	334	340	342	343	345	347	344	346	346	343	344	342	343	343	343	344	341	341	338	337	337	335	341	340	340	337	337	335	333	331	335	339	336	335	335	336	338	339	339	344	343	339	336	337	335	331	328	329	330	331	336	338	339	336	333	331	328	328	335	335	335	337	336	334	333	332	334	332	327	331	332	332	334	336	331	329	327	331	338	339	337	340	340	340	341	341	339	339	344	337	337	335	336	339	341	343	343	330	335	332	333	331	332	333	333	333	339	339	334	336	339	343	342	338	338	337	339	340	342	345	348	348	347	347	343	343	340	341	341	345	344	340	337	336	335	334	336	331	335	336	335	346	346	342	341	336	336	340	339	339	341	341	338	337	336	336	340	341	341	341	341	341	340	340	339	337	335	333	333	336	341	342	342	341	342	335	335	335	335	329	332	333	334	335	339	341	342	341	339	337	342	343	340	338	337	338	339	340	342	344	343	344	340	338	337	342	343	342	342	345	349	346	350	347	343	341	336	337	337	335	337	337	335	340	339	337	336	335	336	335	332	332	332	331	331	333	336	337	338	341	344	343	342	340	337	336	341	342	339	334	330	334	335	332	332	332	330	330	330	332	333	333	337	337	335	335	336	337	336	335	334	336	336	339	336	337	336	335	334	336	341	341	339	340	339	341	345	346	343	341	339	340	344	344	341	340	337	337	338	339	340	340	341	342	340	344	343	343	340	336	335	335	334	331	331	335	338	335	336	336	335	337	340	340	341	341	342	336	333	334	331	333	334	341	341	340	339	341	343	343	342	341	0	0	0	0	0	0	0
358	357	357	359	359	356	353	353	352	352	357	357	357	354	350	349	352	354	354	355	353	349	350	353	353	356	359	358	358	359	360	360	360	361	354	349	348	349	349	356	358	355	357	355	353	353	353	353	354	356	358	356	354	352	351	352	353	353	355	356	355	356	355	353	352	351	348	349	351	352	352	354	349	348	346	345	347	349	351	355	356	356	355	354	354	355	356	355	354	353	345	349	346	346	346	347	348	351	345	343	344	346	347	346	346	348	348	347	343	347	351	354	355	352	349	342	336	336	340	343	346	347	345	347	345	339	339	338	336	337	340	344	349	354	356	356	354	355	354	352	346	342	341	342	347	349	353	356	354	347	346	347	345	345	344	350	350	349	345	343	341	337	340	342	343	346	346	341	335	336	337	338	339	341	344	343	343	342	342	341	339	336	335	335	332	334	336	338	337	337	337	340	340	339	338	337	338	342	341	341	342	341	338	340	342	341	338	340	337	339	342	340	340	340	339	337	338	341	344	345	337	341	346	350	351	348	344	340	339	335	332	338	341	343	343	343	337	341	343	341	338	336	337	339	342	341	339	340	338	339	338	337	335	333	335	334	335	335	335	335	335	335	338	342	344	346	348	348	344	342	338	335	334	335	332	329	333	334	334	333	332	331	333	334	336	337	338	335	332	332	332	336	344	345	338	337	337	339	340	337	333	337	338	339	339	338	337	340	337	334	333	327	331	336	338	337	335	333	333	332	332	333	332	333	334	333	334	336	332	329	329	329	331	335	335	336	334	332	332	331	329	326	327	329	330	323	322	327	326	325	334	321	321	321	329	330	329	329	327	325	325	326	327	330	333	331	327	327	324	326	328	329	331	333	334	337	338	335	334	333	334	336	337	335	335	341	331	330	330	328	327	328	329	330	331	328	331	333	334	333	334	336	335	335	334	334	337	339	340	339	338	338	339	341	343	347	342	341	339	340	335	337	338	338	337	334	333	332	330	332	331	332	332	334	333	333	335	336	337	338	335	333	334	335	335	334	335	337	338	334	337	338	336	335	336	335	335	333	334	334	334	335	338	338	341	338	334	332	331	335	335	332	333	334	334	338	339	339	331	332	333	333	339	336	335	334	336	339	340	340	337	334	333	336	336	337	338	336	333	332	331	336	339	341	342	339	335	332	335	336	335	336	336	335	338	337	337	335	334	333	333	333	334	334	331	325	325	335	336	336	337	336	336	334	332	332	332	338	338	336	331	327	324	325	329	328	328	330	330	329	328	330	329	331	331	335	334	335	335	334	330	326	325	326	329	332	333	335	332	336	332	335	334	333	334	335	337	341	343	340	340	341	339	341	344	342	339	339	338	339	339	336	336	335	338	336	340	341	339	334	331	332	332	330	328	329	332	334	333	333	334	334	334	334	337	337	337	336	333	330	329	328	328	335	336	335	332	335	337	337	340	340	338	0	0	0	0	0	0	0
350	351	351	353	354	351	348	348	347	351	354	355	352	352	348	349	351	349	349	349	345	343	346	349	349	355	357	356	354	353	354	354	355	355	350	348	347	348	351	351	354	349	352	350	348	346	345	345	346	349	355	353	350	347	347	350	351	351	351	352	352	353	352	350	349	348	346	346	347	349	350	348	347	346	346	345	344	345	348	349	351	350	350	348	349	350	352	350	348	345	340	342	342	343	343	343	345	345	342	338	341	343	343	343	342	341	342	342	343	344	346	350	344	345	343	340	338	337	339	342	343	343	344	345	344	339	338	337	333	332	334	339	343	345	349	348	348	346	346	342	339	339	337	336	332	346	349	346	343	342	343	343	343	341	342	349	346	343	342	339	338	335	335	338	340	342	343	338	336	337	337	338	339	341	342	342	342	342	341	336	332	334	332	335	336	338	339	338	337	335	336	338	338	336	336	335	335	337	339	340	340	335	335	337	337	331	335	331	330	330	333	332	337	338	340	339	338	339	340	336	334	328	340	347	348	344	340	339	335	335	330	330	338	337	338	335	336	338	340	337	334	333	334	336	338	337	334	330	337	336	336	337	336	334	331	331	330	329	330	333	333	331	328	330	334	333	334	336	341	339	338	336	333	332	330	329	330	332	332	332	331	328	328	331	332	333	339	337	331	330	332	333	333	337	334	332	333	335	336	335	331	328	326	327	333	335	334	329	329	330	330	326	328	332	336	334	333	332	333	334	332	332	334	334	335	333	331	330	328	327	327	328	328	332	334	335	334	332	332	331	328	326	325	326	326	319	320	321	318	324	321	321	313	314	318	325	328	326	325	322	322	327	330	329	331	331	329	325	326	326	327	325	323	331	332	333	332	333	333	333	334	335	335	339	336	330	327	326	326	325	325	327	322	319	324	326	330	333	334	334	332	332	331	332	332	331	334	333	333	331	328	325	326	329	336	331	329	327	327	326	333	335	337	337	337	335	333	331	329	328	329	331	333	334	334	333	334	336	336	336	334	331	332	330	327	327	330	329	329	332	333	335	334	334	334	333	333	333	333	334	333	334	336	339	339	339	336	332	331	329	333	333	331	330	333	333	329	328	329	331	332	333	333	333	333	329	328	323	326	325	327	326	325	325	329	331	330	327	328	327	328	330	326	325	325	326	329	329	329	329	335	335	336	333	334	333	331	324	327	331	331	332	336	334	330	331	327	325	329	329	330	325	323	329	330	329	330	322	321	323	328	324	325	327	326	324	324	326	326	326	330	330	328	328	328	330	330	334	334	332	330	325	322	323	325	330	331	330	332	333	333	328	330	331	330	330	330	330	332	334	334	338	336	339	341	338	338	339	339	339	335	335	334	332	330	333	334	334	329	328	328	330	331	329	326	325	329	330	331	330	326	328	332	328	330	330	333	332	330	329	330	332	333	336	337	335	330	333	334	334	331	331	329	0	0	0	0	0	0	0
342	345	345	348	347	345	340	340	343	347	351	349	346	346	347	348	350	335	338	338	339	340	343	346	349	349	353	352	349	347	348	348	350	352	350	349	349	348	348	348	347	339	341	343	343	341	340	342	342	346	346	348	346	345	346	347	348	348	348	349	349	350	350	349	347	346	345	345	345	346	348	348	348	348	348	345	345	345	345	345	347	348	349	348	348	348	347	345	343	340	335	339	340	340	342	342	343	342	339	337	339	339	339	339	339	338	339	340	335	332	331	333	337	340	340	339	336	334	336	336	338	341	343	344	344	344	337	333	331	330	333	336	339	340	337	335	332	330	330	332	336	336	335	333	331	333	335	334	337	338	337	338	338	338	339	341	342	341	341	337	334	333	334	336	336	337	336	334	333	335	336	338	340	341	338	334	328	328	328	330	329	329	333	334	335	338	338	337	336	334	333	335	336	335	335	336	334	335	338	338	338	334	332	331	331	331	330	328	326	328	329	328	327	325	330	330	333	338	337	335	327	328	328	332	334	335	335	333	334	334	331	329	330	331	333	332	331	331	330	330	328	328	331	335	335	333	329	328	327	328	331	326	332	333	324	325	327	329	328	328	328	329	326	326	325	325	327	334	335	337	336	334	332	330	327	329	329	329	330	330	330	327	325	327	328	336	333	329	326	325	328	329	329	327	327	327	329	330	333	331	328	328	327	327	327	330	331	329	328	329	325	325	327	332	333	333	331	332	332	334	334	333	332	332	334	332	331	325	322	322	324	322	322	328	328	332	327	322	321	324	326	324	323	322	323	329	321	313	324	316	321	316	318	318	321	325	324	324	327	325	322	319	327	328	328	328	326	326	325	326	325	321	321	327	328	331	329	330	331	331	332	332	332	333	330	327	324	323	323	323	323	324	323	322	323	325	330	333	335	333	331	328	329	330	329	327	327	331	333	332	329	326	326	322	324	325	320	321	323	328	332	333	333	338	338	336	333	329	326	326	326	329	332	335	335	335	332	329	325	332	332	331	328	323	323	323	323	323	325	325	329	335	332	331	330	328	328	329	330	332	332	324	326	329	330	331	329	329	329	329	329	328	330	331	327	328	327	327	327	327	331	331	330	328	325	326	324	322	317	318	322	323	325	326	327	328	323	322	325	328	330	327	324	324	322	325	327	327	328	327	324	322	320	321	320	318	316	318	323	327	323	323	322	323	328	327	323	321	323	323	324	323	321	327	328	326	327	321	320	319	321	322	326	326	322	321	318	323	323	323	328	329	328	326	328	327	327	323	328	326	326	325	323	323	326	328	322	323	325	329	331	326	327	326	324	322	322	328	329	328	327	329	331	329	329	332	336	337	334	332	331	335	336	332	329	327	326	328	329	328	326	329	331	330	327	324	326	326	322	321	317	324	325	326	322	322	325	329	327	326	327	327	332	332	333	326	327	328	328	332	330	329	329	0	0	0	0	0	0	0
341	342	340	340	335	333	334	337	337	342	347	344	342	342	340	341	339	332	334	334	335	337	340	344	347	347	348	347	345	342	343	344	344	348	346	344	342	343	344	344	338	337	338	339	339	337	337	338	338	341	344	344	344	342	344	345	343	342	342	342	345	347	344	343	342	344	341	342	345	345	345	344	344	345	346	346	344	342	342	337	338	342	343	343	340	339	340	339	337	335	333	334	336	338	337	338	338	338	337	335	336	336	336	336	336	338	339	340	340	331	327	328	333	336	336	336	335	331	334	334	335	336	334	334	336	341	335	332	329	329	332	334	337	334	336	332	329	331	328	330	331	330	329	327	328	330	333	334	334	334	333	332	335	335	336	337	338	339	335	336	333	332	332	330	328	329	328	330	331	332	334	336	335	331	330	326	325	325	326	326	328	329	330	331	333	337	338	337	335	331	332	333	333	332	333	334	335	330	334	338	339	338	329	331	331	331	330	328	328	328	327	324	323	321	324	326	324	326	330	334	330	327	327	330	331	331	332	330	330	332	331	328	327	330	331	331	330	328	326	325	324	324	329	330	328	327	328	328	329	321	322	324	324	324	325	323	325	327	324	322	324	327	325	324	326	323	325	325	325	325	332	330	330	327	325	331	329	328	328	328	324	323	322	324	327	328	329	324	323	324	323	320	326	326	325	324	324	329	331	329	328	327	327	325	325	325	327	328	327	325	324	322	323	326	327	326	325	323	325	326	326	326	326	329	317	320	321	321	320	321	321	320	320	322	323	324	323	318	317	321	325	324	322	320	318	316	315	314	315	316	322	317	319	321	318	317	324	317	319	317	322	321	324	325	326	326	325	325	325	326	325	323	319	322	324	327	328	327	328	327	326	329	330	329	330	324	320	320	321	322	323	323	322	322	322	320	330	331	332	326	325	324	325	330	329	326	325	325	332	330	321	321	321	319	320	321	320	321	322	326	327	326	324	320	317	333	328	322	321	323	322	322	324	326	328	329	329	325	322	321	323	322	321	322	323	322	322	323	325	324	325	332	331	330	332	332	334	333	332	322	317	318	323	323	325	328	325	321	319	315	318	320	322	325	327	326	324	326	326	325	325	325	325	331	330	317	314	317	320	320	313	315	321	321	320	319	318	321	320	319	318	326	323	322	322	323	324	323	322	324	324	323	319	319	319	318	315	316	316	315	313	313	316	319	323	322	321	320	317	320	320	314	314	317	328	327	324	319	316	315	316	317	319	321	321	319	317	318	321	319	322	325	325	322	325	323	319	319	322	323	324	320	318	320	321	321	321	320	322	324	326	324	323	325	326	325	323	322	326	326	325	323	323	326	327	326	327	327	323	325	329	330	327	324	319	323	324	329	329	327	325	326	328	325	323	322	323	323	319	315	315	317	319	322	322	323	322	323	323	322	323	326	327	331	321	321	325	328	328	329	329	330	330	0	0	0	0	0	0	0
340	337	333	333	331	329	330	332	332	341	344	337	335	335	332	330	328	332	331	331	332	335	339	341	342	342	343	342	341	340	341	344	344	343	339	338	340	342	342	338	336	336	337	340	340	338	334	331	331	331	334	337	338	339	340	341	339	337	337	337	337	337	340	340	341	340	339	339	342	339	337	336	336	330	325	326	331	331	334	333	332	332	333	332	329	327	331	336	336	333	331	332	333	331	330	330	330	331	331	329	330	331	332	333	331	333	334	334	332	330	327	328	329	332	333	332	332	330	327	328	330	329	328	331	332	329	330	329	325	325	328	330	332	331	329	327	327	327	327	327	327	327	325	325	325	327	328	328	327	326	323	320	319	332	332	332	332	335	332	329	325	326	328	327	326	326	326	325	327	327	330	334	331	329	327	332	329	325	321	323	326	327	328	329	329	333	333	325	326	328	332	330	328	324	323	320	320	320	323	326	327	327	325	326	327	327	327	327	327	326	326	325	321	319	320	320	323	320	317	318	318	320	326	328	328	328	329	329	329	325	324	324	326	327	325	323	320	318	319	321	319	321	324	325	326	325	327	328	327	324	319	318	323	322	321	321	322	324	319	320	322	320	320	320	320	321	321	320	321	320	324	324	323	324	322	323	322	319	315	317	317	317	314	316	323	325	327	326	323	322	322	318	323	318	321	321	321	321	323	323	323	321	321	318	315	318	321	327	328	327	321	320	321	323	321	319	319	320	323	323	323	322	320	317	315	319	320	319	318	319	318	317	317	319	320	319	320	316	316	320	323	326	319	318	317	318	313	314	315	312	316	318	318	320	318	316	322	316	315	315	319	319	321	322	323	333	315	320	319	321	324	320	316	319	320	323	324	323	325	324	323	320	319	320	318	318	320	320	322	322	322	320	320	316	316	317	319	319	321	322	320	322	323	328	327	324	325	325	327	316	318	319	320	320	317	318	319	320	321	323	321	317	322	321	323	314	322	317	317	319	321	321	316	315	312	313	313	313	313	314	313	313	315	315	315	319	321	321	322	322	323	328	326	328	328	325	319	318	314	315	316	317	321	321	319	322	320	314	311	312	310	313	316	325	326	323	323	320	323	323	321	321	316	319	314	310	312	315	318	319	305	310	310	318	317	316	316	316	316	317	315	316	317	320	320	321	321	320	321	321	323	321	319	319	317	316	313	312	314	314	312	310	311	311	312	315	318	318	317	317	315	312	310	310	319	322	320	316	314	313	315	316	315	315	314	315	315	312	312	311	313	319	323	321	322	316	314	313	312	319	313	312	317	322	322	322	320	320	321	323	324	322	322	325	326	324	323	317	317	318	319	323	322	320	324	325	325	322	317	321	323	324	324	318	317	315	320	325	331	329	322	318	318	320	320	319	317	317	316	316	315	316	316	315	315	314	315	319	320	319	319	320	320	318	318	321	323	326	326	326	329	328	328	0	0	0	0	0	0	0
335	332	327	327	327	326	327	333	333	332	332	330	328	326	326	325	326	328	325	325	324	327	331	335	336	334	334	334	337	338	341	339	339	336	334	335	338	339	339	336	336	333	330	333	336	336	334	331	328	328	335	339	341	339	337	334	335	334	329	329	329	333	337	337	333	335	336	336	330	330	329	327	327	322	323	321	322	324	326	325	326	328	330	330	328	326	326	328	329	330	330	331	334	331	324	324	323	323	322	327	328	330	330	330	327	329	330	332	332	329	329	329	330	330	326	325	324	320	322	323	325	329	331	331	329	326	326	326	322	317	316	317	319	321	322	323	323	322	322	325	326	328	328	325	326	326	326	326	324	317	318	318	318	319	322	321	322	323	321	320	322	323	325	325	325	326	325	323	323	323	325	326	323	321	321	323	327	322	319	320	325	326	326	323	321	319	319	318	318	326	327	327	326	326	325	324	321	315	315	316	315	317	320	322	322	321	323	323	325	325	323	318	322	321	323	322	320	319	317	317	317	320	321	321	326	325	328	327	325	314	313	313	314	317	319	320	314	310	309	313	311	316	320	323	323	323	326	329	327	325	318	317	316	318	318	317	319	319	320	319	319	316	317	317	318	317	314	315	314	318	318	322	318	313	314	314	319	318	314	311	311	311	314	316	324	325	326	325	324	323	322	319	318	315	316	318	318	317	319	319	320	319	316	316	315	314	320	321	321	320	320	320	318	320	319	317	314	314	313	315	319	318	316	312	312	315	316	317	317	317	316	316	317	319	319	319	316	309	303	305	308	316	319	319	318	311	311	311	313	311	308	307	312	310	311	309	307	309	312	312	316	317	319	318	319	314	316	317	316	320	314	316	317	316	317	317	318	318	318	318	319	318	317	317	316	316	316	317	318	320	320	317	316	313	312	313	315	316	316	317	318	321	317	319	317	316	319	319	313	313	309	312	317	318	316	317	317	316	318	318	317	317	318	320	320	319	314	315	315	318	318	315	312	311	312	314	314	312	311	312	313	315	315	309	308	311	315	317	318	317	322	320	325	325	319	316	315	313	312	314	314	314	316	316	314	310	311	309	309	310	308	311	314	316	317	313	312	315	319	321	317	315	313	310	309	311	311	312	310	307	306	308	308	315	313	313	314	316	314	311	316	314	315	313	319	318	318	315	318	320	319	318	317	317	315	312	310	311	314	315	314	311	307	309	311	313	314	314	314	313	311	312	312	316	318	321	320	312	306	311	313	313	314	315	315	313	313	316	318	316	315	313	309	308	308	308	309	310	307	307	308	314	317	320	321	321	317	318	317	316	314	315	314	314	315	316	316	314	312	313	316	317	317	319	318	315	315	315	314	316	320	320	318	318	315	314	318	323	321	317	312	314	318	314	315	316	316	311	308	314	316	315	315	315	314	315	315	316	315	315	316	314	315	318	318	320	322	322	324	324	323	320	321	0	0	0	0	0	0	0
327	323	321	321	319	323	327	329	330	330	330	327	321	321	321	323	325	326	324	324	324	327	330	331	329	324	324	322	327	332	335	327	327	327	328	323	326	336	337	336	325	325	326	331	334	335	331	329	330	330	331	331	331	328	326	325	326	327	327	327	327	328	331	332	330	331	332	328	325	325	323	321	318	318	317	317	319	325	325	324	322	323	327	326	326	325	324	323	323	323	327	328	324	320	318	317	317	318	318	323	324	325	326	325	327	328	328	330	331	330	325	324	322	322	322	321	315	313	312	319	322	325	320	321	325	322	323	320	315	312	316	315	317	318	319	320	319	319	321	320	320	324	321	319	317	317	324	322	314	314	315	316	317	318	318	319	318	317	317	319	317	317	317	321	322	323	326	324	321	321	320	320	320	318	318	317	317	317	318	320	317	322	322	316	318	317	316	316	317	318	321	321	316	320	321	322	322	314	314	312	312	313	315	318	317	317	318	321	320	320	315	313	315	318	317	320	319	317	316	315	316	316	316	318	317	313	311	324	321	312	311	312	313	314	319	318	316	309	309	309	309	312	317	319	319	317	314	316	319	321	321	316	311	311	311	314	314	317	318	318	316	312	311	311	312	312	311	312	314	312	313	313	313	312	311	313	313	312	310	309	310	311	314	316	322	321	320	318	321	322	323	319	316	313	312	312	312	312	316	317	318	317	315	314	314	316	319	316	317	318	320	320	317	310	317	316	314	312	312	312	312	313	309	308	310	313	316	317	315	313	316	319	320	318	322	319	315	309	303	303	304	312	314	315	313	312	311	309	310	310	310	309	309	308	308	309	312	311	309	311	311	313	316	316	314	312	312	317	319	315	312	316	316	315	314	314	313	312	314	316	316	317	315	315	316	314	313	313	315	316	317	315	314	312	312	312	312	313	313	313	314	313	313	311	312	313	314	313	311	308	307	312	315	313	312	308	309	311	313	313	313	315	315	319	320	319	316	315	314	317	312	310	310	310	312	316	314	313	311	309	311	312	315	314	313	314	315	318	317	314	315	311	312	313	312	311	311	310	311	311	311	311	311	310	311	307	308	309	309	310	306	310	308	305	305	308	310	311	312	314	312	310	310	308	308	310	311	308	308	308	307	307	309	311	311	311	313	315	311	308	311	315	316	310	309	308	305	308	309	316	315	315	312	311	310	310	306	306	313	315	315	307	307	309	310	311	312	311	310	310	310	312	313	316	314	311	307	301	302	305	307	310	312	313	313	310	311	313	317	313	310	310	310	308	307	307	304	309	310	308	310	314	316	316	317	313	306	309	306	311	313	311	311	311	310	314	313	311	309	310	312	310	312	317	317	315	313	312	309	309	312	315	315	316	315	313	314	317	317	315	312	312	315	316	312	307	305	306	306	308	313	314	315	315	313	313	312	311	311	311	311	311	312	312	319	319	318	318	318	318	319	317	316	0	0	0	0	0	0	0
321	319	315	314	314	319	322	325	325	325	324	322	320	320	320	322	325	325	322	322	322	325	326	325	322	321	321	320	321	322	324	323	321	321	321	322	322	323	324	325	326	326	326	325	328	330	329	325	322	322	325	327	327	327	326	325	324	323	324	324	324	326	328	330	326	319	320	321	320	318	317	316	316	316	316	315	318	321	321	321	320	320	319	320	324	324	322	318	318	318	319	318	315	315	316	317	316	316	321	321	322	321	320	323	326	327	327	328	329	330	325	322	320	316	318	317	316	313	311	310	319	318	316	315	317	319	319	315	311	310	309	310	312	315	318	318	319	320	322	318	320	320	319	317	317	315	319	311	312	314	316	317	318	316	316	315	314	313	313	314	314	314	316	316	317	318	320	317	314	314	319	319	317	314	313	314	317	319	317	316	315	311	312	317	318	318	315	314	314	315	314	312	313	312	318	321	322	316	313	311	310	309	306	308	314	314	316	316	311	311	311	312	312	310	309	312	316	316	315	311	314	313	313	313	311	311	310	310	311	311	311	311	313	311	314	315	315	310	309	313	312	311	311	316	316	316	313	315	312	312	320	314	312	314	308	308	311	314	314	316	315	308	305	306	308	308	310	311	310	310	312	309	310	309	309	310	311	311	308	306	306	308	311	316	319	318	316	314	314	319	322	317	312	312	312	312	311	308	310	311	312	314	314	315	315	315	314	312	312	316	317	318	311	308	309	311	307	309	310	309	309	307	306	307	309	311	313	313	313	309	308	310	314	323	322	318	312	307	301	302	302	305	310	313	313	312	310	310	309	309	311	310	309	307	305	309	309	311	310	309	311	313	314	317	315	312	311	315	314	314	318	316	309	312	312	310	309	308	312	313	309	309	312	310	310	312	311	310	308	312	313	312	312	311	310	311	310	310	311	311	311	313	312	312	310	310	312	310	308	307	307	310	309	311	306	306	306	309	310	308	309	310	314	318	319	318	315	313	314	309	310	308	309	311	311	314	312	311	308	307	308	310	312	315	315	315	315	316	313	310	309	308	309	309	309	307	306	308	309	309	308	309	306	307	308	307	306	306	307	308	305	307	308	305	304	304	305	308	311	311	308	307	305	304	307	309	310	309	309	307	308	308	309	311	309	311	314	314	310	306	301	304	308	308	308	307	306	306	309	311	312	309	307	305	303	304	305	306	305	308	305	304	304	310	310	309	308	307	306	307	309	310	309	307	304	304	298	299	300	303	303	305	310	313	311	309	308	309	314	310	307	305	304	300	300	300	304	304	307	309	312	313	312	309	307	303	305	305	305	308	309	309	310	307	309	309	308	308	308	308	308	308	310	312	314	312	311	311	311	310	307	307	309	307	309	311	311	312	314	313	309	312	312	313	313	308	305	305	304	306	309	314	314	312	310	310	307	309	309	308	302	306	306	306	305	312	312	315	314	315	316	316	314	0	0	0	0	0	0	0
317	314	310	311	311	315	317	317	320	320	318	318	319	321	321	320	321	323	319	319	319	322	324	323	321	320	320	319	319	320	320	320	319	319	320	321	320	321	323	324	325	325	325	323	323	323	320	319	318	320	320	320	321	322	324	324	323	325	325	323	323	322	321	321	319	321	321	314	314	314	315	314	313	314	314	315	315	317	316	317	318	316	314	316	319	320	317	315	316	316	317	316	316	315	314	317	315	316	320	321	321	319	317	319	322	318	316	322	322	322	320	319	314	310	310	314	316	313	310	307	306	312	313	310	307	316	316	314	310	309	308	308	311	315	317	316	318	319	323	318	319	320	321	306	301	302	304	312	313	313	315	316	312	311	310	312	311	310	310	308	311	313	314	316	316	317	315	313	309	307	307	313	313	310	310	312	318	320	318	315	313	309	312	315	317	316	312	313	312	311	311	310	310	310	313	313	311	310	309	309	308	308	305	304	305	308	308	308	306	310	312	313	309	309	307	306	308	312	311	311	312	310	309	308	307	310	310	308	308	308	308	306	308	309	310	311	309	305	302	309	310	309	309	310	312	312	313	310	315	314	310	313	314	313	311	301	307	308	312	312	307	304	302	305	307	308	309	309	308	309	306	309	307	302	304	308	308	307	306	302	303	304	310	314	315	314	314	312	309	307	309	307	307	308	308	308	303	303	302	303	304	304	305	309	308	312	312	311	311	311	312	312	307	306	306	311	304	299	298	298	304	304	305	306	307	307	307	306	306	307	305	308	312	313	321	317	310	305	301	301	301	300	303	303	310	309	310	314	308	308	311	308	308	305	303	305	308	311	312	305	306	310	317	317	315	307	302	303	313	316	319	312	309	309	308	305	304	307	306	301	301	305	305	310	309	310	306	304	304	304	307	310	311	309	301	297	299	309	312	310	308	308	304	311	309	309	309	307	307	305	305	305	306	307	312	312	312	310	305	302	303	304	312	315	313	309	312	313	308	308	308	307	307	308	312	311	307	307	306	305	307	308	311	314	314	313	309	308	309	308	309	306	308	309	308	307	306	306	304	307	306	306	306	304	305	305	305	305	305	305	304	305	306	305	304	303	303	304	303	300	299	299	305	306	307	307	309	311	309	307	306	307	309	310	311	312	313	300	305	297	298	301	305	307	307	307	306	305	306	308	307	305	305	304	304	303	303	303	302	301	300	297	296	298	307	307	304	303	302	303	302	299	299	298	300	300	300	299	302	303	302	304	306	311	310	308	305	304	306	306	305	302	300	299	299	299	304	304	303	303	308	310	307	306	301	303	303	304	304	306	307	307	304	304	305	306	305	306	305	305	303	304	304	307	304	304	306	307	308	305	303	302	302	302	305	306	307	308	308	309	308	307	308	309	309	310	310	310	306	306	307	304	304	306	305	306	305	308	306	300	303	305	306	305	301	306	306	307	306	305	304	305	304	0	0	0	0	0	0	0
311	309	307	308	308	311	310	311	315	315	317	319	320	318	316	316	316	319	319	315	318	318	321	321	319	319	315	315	318	320	320	319	319	319	319	319	319	320	322	324	322	322	313	311	314	318	318	317	315	315	315	312	312	314	314	315	319	318	319	317	316	316	315	317	319	320	311	312	314	314	313	308	310	311	311	312	314	314	314	313	315	309	311	317	318	319	316	313	313	313	314	314	314	310	308	309	312	312	313	313	316	316	315	317	315	310	310	308	312	314	312	311	309	309	305	309	309	309	308	307	306	308	308	310	301	312	310	311	310	307	306	306	310	313	315	315	316	318	319	317	314	311	305	305	304	305	307	310	311	309	313	310	308	305	306	309	308	307	307	304	306	307	308	309	311	310	311	310	306	301	300	305	307	306	309	312	313	314	313	316	313	311	311	304	305	307	309	309	304	303	305	308	307	305	306	308	310	309	308	306	307	307	305	303	303	304	305	306	306	308	309	310	305	304	305	305	305	307	307	310	310	308	307	304	302	302	307	308	306	305	303	305	304	303	300	306	307	302	307	308	304	304	304	307	310	312	311	313	319	318	311	307	312	311	300	304	305	315	316	310	302	303	301	303	307	307	307	307	306	307	306	305	306	301	305	305	305	305	303	303	307	307	305	300	309	313	311	304	304	304	304	304	304	305	306	305	303	302	302	302	304	303	301	307	300	302	302	302	304	306	306	305	304	302	301	303	299	299	298	296	301	301	303	306	306	306	303	303	302	301	304	306	306	305	306	307	307	306	305	304	298	298	302	298	306	307	306	304	315	307	308	307	302	302	303	302	307	307	311	305	307	310	318	318	316	306	303	303	309	313	309	309	309	309	302	302	303	302	302	300	300	302	302	299	298	303	303	305	302	302	303	304	301	298	295	301	302	300	303	304	304	300	293	298	308	308	307	307	305	303	303	304	306	309	305	306	308	307	304	303	304	305	306	305	304	304	301	307	308	307	307	305	305	305	306	304	302	301	303	305	307	309	310	312	311	310	309	309	308	306	307	308	309	309	308	307	306	304	302	305	303	300	300	301	304	303	304	304	304	304	304	303	306	307	301	299	300	300	301	298	298	303	304	301	303	302	302	304	306	305	305	305	307	304	308	299	299	297	298	295	295	297	300	304	306	305	305	303	304	304	302	301	301	301	301	302	301	300	299	299	297	296	295	296	304	302	302	300	299	299	301	299	298	299	299	299	299	301	299	295	301	300	303	299	295	297	298	301	301	301	299	298	297	299	301	300	301	304	303	298	297	297	298	300	302	300	299	298	303	305	304	301	301	301	301	303	304	308	305	303	300	300	301	304	306	302	307	303	299	297	300	299	297	299	302	303	303	303	303	305	302	304	306	307	306	307	306	305	306	305	304	304	302	303	302	302	302	301	298	301	301	302	304	303	299	297	299	297	298	301	302	304	303	0	0	0	0	0	0	0
307	304	303	307	310	310	311	313	315	319	319	320	320	316	312	312	311	312	315	307	311	311	315	319	315	310	311	311	314	314	314	316	318	320	320	319	313	312	316	321	316	314	314	306	306	310	313	315	313	310	310	309	307	309	311	311	309	311	315	315	314	314	314	315	317	316	307	308	310	300	298	298	302	308	311	311	311	312	311	311	306	307	309	312	313	315	311	310	310	310	309	309	310	307	308	309	310	310	311	311	315	316	312	312	308	306	306	307	309	306	304	302	305	307	307	307	303	303	305	307	305	304	304	303	300	307	308	308	309	307	304	305	307	308	311	309	308	309	310	310	310	309	308	309	305	306	305	305	304	304	309	309	307	304	303	306	307	307	305	304	302	300	302	305	305	305	307	305	303	301	298	298	303	305	308	302	302	311	309	305	306	306	304	303	300	299	299	301	302	302	302	305	305	302	302	305	304	305	305	304	305	302	302	301	300	299	302	304	304	302	302	309	306	303	302	304	305	304	304	303	302	306	302	300	298	298	299	300	302	298	298	303	304	302	300	297	302	300	302	308	305	301	301	300	302	302	303	302	303	308	314	307	304	299	298	300	304	306	312	309	303	304	303	304	304	305	304	303	305	304	302	304	302	302	303	303	302	303	302	301	306	306	302	297	297	299	301	302	302	301	301	298	298	303	305	303	302	301	301	305	305	304	302	301	300	299	298	298	305	307	306	301	298	297	301	300	299	298	297	297	296	301	300	304	304	303	303	300	299	299	299	302	301	302	300	300	300	303	302	303	298	294	300	294	296	297	299	301	296	295	300	304	301	299	300	299	300	306	304	305	305	308	305	304	303	294	296	300	305	304	301	300	308	308	299	297	297	298	298	300	300	302	299	297	297	296	290	294	300	301	302	301	299	299	298	300	302	302	301	298	296	294	292	291	299	301	303	305	304	302	302	304	306	301	298	297	298	299	300	302	304	305	305	304	301	298	298	306	309	306	305	303	301	298	294	293	294	297	296	298	302	301	305	307	308	307	307	297	301	305	304	305	308	308	308	306	305	304	302	299	296	289	298	298	302	300	301	301	299	298	299	300	295	295	298	301	301	300	298	297	299	301	300	298	297	297	299	298	298	303	292	291	293	293	294	297	295	295	297	295	298	299	298	300	298	297	298	300	301	297	295	295	296	298	300	300	299	298	297	296	295	294	293	298	296	295	296	296	295	292	299	296	295	295	292	290	296	299	292	294	296	297	297	296	294	294	296	297	297	296	296	295	295	298	300	298	298	298	297	296	296	299	302	302	299	299	298	297	296	303	300	298	297	297	299	301	309	305	302	300	297	297	298	299	294	293	297	297	297	295	293	294	297	297	299	303	301	301	300	300	300	302	303	302	301	304	304	303	303	300	301	301	302	300	300	298	296	295	301	301	301	301	303	299	297	297	297	294	294	296	300	303	304	0	0	0	0	0	0	0
307	303	305	310	312	312	314	314	314	315	315	317	315	311	308	308	308	309	308	304	305	305	304	305	308	310	308	308	310	311	310	312	315	318	318	313	311	310	311	315	312	311	311	307	305	305	304	306	308	304	304	304	306	309	308	305	306	307	311	311	312	312	313	313	312	303	302	303	299	298	298	299	299	302	309	309	308	306	302	302	304	307	307	306	308	306	306	306	306	306	306	307	308	308	306	306	310	307	308	311	314	309	307	307	304	304	305	306	308	305	301	299	297	301	298	298	298	300	302	297	295	296	302	300	303	305	306	305	305	307	301	298	296	303	306	305	306	306	308	307	306	304	302	301	303	305	304	303	303	301	298	302	301	300	302	302	304	305	305	303	302	301	301	302	304	303	303	302	301	300	297	296	296	298	297	299	300	302	304	301	302	304	304	302	300	298	298	299	302	302	302	303	305	301	300	301	300	302	303	303	303	301	300	297	294	292	296	295	296	298	299	301	304	301	300	301	302	302	300	299	299	299	299	296	296	297	299	300	301	297	298	299	302	301	299	298	303	302	302	299	305	301	300	300	303	303	299	301	302	302	301	298	295	294	296	297	299	304	308	303	299	299	297	299	301	302	302	302	299	300	299	301	299	302	297	296	290	298	296	297	292	294	294	294	295	297	296	297	299	301	300	297	296	300	303	302	299	299	301	303	303	302	300	298	299	297	297	297	298	307	305	300	299	298	301	301	298	297	298	300	296	296	299	298	300	302	302	295	297	295	298	298	297	292	291	293	297	293	300	297	296	298	296	293	296	295	297	293	294	293	295	298	299	300	302	299	297	293	293	295	299	301	300	300	302	299	296	299	301	302	300	298	299	300	298	297	296	296	295	294	295	300	292	290	289	290	291	289	297	298	301	301	298	301	299	300	301	301	300	299	299	294	293	293	301	300	304	304	303	297	297	302	298	297	297	296	296	298	298	302	300	300	302	301	300	298	299	305	306	304	301	298	296	290	291	292	294	296	296	297	298	298	298	297	299	302	290	294	298	301	303	303	301	306	307	305	298	297	296	295	292	290	290	297	298	298	297	296	292	291	294	296	294	294	293	295	300	293	295	297	299	300	298	296	295	296	295	291	291	288	284	284	286	290	292	291	291	290	296	297	296	295	296	295	295	292	292	295	296	293	294	294	294	294	294	294	297	295	295	293	291	291	290	294	294	297	299	295	295	290	290	293	291	291	293	293	293	291	291	291	295	296	295	293	292	293	294	294	293	293	293	292	293	294	295	297	298	298	297	296	294	296	299	301	298	296	294	295	295	294	291	296	295	293	296	300	303	300	298	296	295	293	293	291	290	289	294	294	293	293	293	293	298	298	298	299	300	299	297	297	297	298	299	299	300	301	301	299	298	298	298	298	299	298	296	294	294	297	297	294	294	299	300	296	295	295	294	292	293	292	294	298	300	0	0	0	0	0	0	0
301	305	306	308	313	313	314	312	311	311	311	311	312	307	305	307	307	306	305	302	301	301	299	302	302	305	306	305	305	307	308	309	309	308	308	308	309	310	310	311	303	303	303	300	300	301	301	302	300	300	301	301	304	305	303	302	302	306	308	308	309	309	309	307	304	300	299	298	298	298	299	300	300	302	306	303	303	300	297	297	304	306	305	306	305	301	301	302	298	298	306	308	306	303	302	298	300	298	297	298	301	300	300	301	302	302	302	303	304	302	297	294	294	292	293	296	298	300	301	301	296	301	300	301	300	299	301	303	301	300	299	298	298	299	302	298	297	300	303	304	300	298	298	299	298	300	302	302	301	296	295	296	297	296	299	298	300	303	304	302	299	298	296	298	299	300	300	298	301	300	297	293	294	294	298	299	301	301	300	299	299	300	301	298	298	298	297	292	292	293	302	302	303	302	298	295	297	299	302	302	300	299	294	291	291	293	293	293	293	294	295	303	303	294	294	297	297	296	295	294	296	297	296	296	296	297	299	301	300	296	296	297	297	299	299	297	299	297	298	294	296	296	294	300	301	298	296	297	299	300	299	296	294	291	293	296	297	301	305	301	296	295	295	297	297	299	300	296	293	292	296	299	300	295	294	294	294	295	291	293	289	293	294	294	295	297	295	297	298	300	297	294	294	292	292	297	294	295	297	297	295	297	297	294	295	294	293	293	292	298	299	299	298	299	299	301	297	298	299	300	296	292	294	292	294	299	294	293	293	294	294	294	291	291	291	293	289	296	295	294	298	297	295	290	284	286	289	292	291	291	289	295	296	302	302	299	299	294	294	294	295	299	301	301	299	296	295	295	298	298	299	296	299	299	298	296	294	291	286	287	290	293	292	291	290	291	290	291	295	296	297	297	297	299	301	300	299	297	297	297	297	292	292	296	299	298	298	299	299	297	297	296	295	295	295	296	294	295	295	298	296	298	296	296	296	297	299	302	302	301	293	291	290	291	290	293	294	296	296	297	296	294	295	295	291	290	288	294	296	298	298	301	297	295	296	295	292	291	289	287	286	285	285	288	290	290	290	290	291	294	296	295	294	291	290	288	289	288	291	296	300	299	298	295	289	289	290	290	290	290	285	286	288	289	291	290	286	286	288	287	286	284	288	289	289	290	291	290	291	292	292	292	292	291	290	291	290	291	290	292	291	291	290	285	285	289	291	289	288	288	290	290	290	291	293	293	294	295	291	292	294	294	292	291	288	291	292	289	289	291	291	292	292	291	292	292	293	295	295	294	292	294	298	299	298	295	294	294	290	288	281	286	288	288	289	296	291	293	295	292	289	290	290	287	287	288	292	290	289	290	293	295	289	291	293	292	294	292	293	289	293	294	294	294	293	295	296	295	294	294	294	291	291	291	290	290	292	297	296	293	291	290	288	289	289	291	290	292	290	291	292	294	292	0	0	0	0	0	0	0
305	304	304	307	310	310	312	311	308	308	308	308	301	300	303	305	305	306	305	300	297	295	295	296	299	300	301	299	299	299	302	301	301	302	304	304	303	302	302	303	304	302	300	300	300	299	300	301	298	296	296	299	299	301	301	298	300	303	305	306	308	307	307	305	297	298	297	296	296	297	296	295	295	298	299	299	299	295	294	295	301	304	304	304	303	300	299	293	295	296	299	302	304	302	301	302	303	302	297	298	299	299	299	299	299	299	300	300	300	298	294	293	292	294	293	293	296	298	300	297	294	300	302	300	297	299	296	299	298	298	296	297	297	295	294	296	296	295	292	291	292	292	291	294	295	297	299	298	296	292	292	292	294	294	294	297	294	295	293	296	295	291	292	292	294	296	298	300	300	298	295	290	290	289	294	299	301	297	296	298	299	296	296	294	292	297	292	292	292	292	296	298	298	301	298	295	295	297	299	300	298	296	294	290	290	292	292	291	290	291	298	298	296	295	294	295	294	294	293	293	293	290	290	294	295	294	296	298	297	295	295	296	295	298	297	296	294	291	289	290	294	293	292	290	289	296	295	296	296	296	297	295	293	293	290	290	294	298	300	294	293	293	290	294	294	297	296	295	292	289	293	295	293	293	293	294	292	292	291	289	288	292	292	290	291	293	293	294	295	298	292	286	287	291	292	294	293	294	294	296	297	295	296	296	293	294	292	289	291	291	293	294	295	298	299	296	294	296	298	296	300	294	292	291	289	289	298	292	293	291	289	289	291	291	288	292	295	289	294	294	294	297	295	287	284	286	288	289	289	287	287	288	293	299	299	297	292	292	295	294	294	295	296	299	296	294	292	293	296	296	296	293	292	293	289	285	285	289	286	287	288	291	288	288	289	290	290	292	293	293	293	293	289	292	293	293	293	293	294	298	293	289	291	290	295	298	295	298	295	298	294	295	295	295	294	294	293	290	290	292	293	292	292	291	295	294	296	298	297	295	291	289	289	287	286	290	294	295	296	296	295	291	290	291	289	289	288	290	294	295	295	294	289	294	294	290	288	286	286	285	286	285	283	283	285	285	288	290	290	294	295	294	293	291	288	288	288	288	289	292	293	286	284	283	283	286	286	288	288	289	289	289	290	291	291	288	284	284	286	284	283	282	284	286	287	288	290	290	290	291	290	290	291	288	289	290	290	290	289	288	288	290	288	287	286	286	289	285	282	280	287	288	287	284	289	291	295	294	292	290	291	291	288	287	286	286	289	289	289	290	290	290	289	286	284	283	287	289	293	289	291	291	292	294	294	294	290	290	290	288	285	282	283	283	284	287	288	291	291	289	289	288	287	288	288	288	287	290	289	289	290	288	288	286	287	294	293	293	288	285	283	285	286	287	286	286	286	286	287	287	287	290	290	284	282	288	291	291	293	290	289	287	285	284	284	285	284	289	284	286	287	286	289	0	0	0	0	0	0	0
304	304	302	303	305	308	308	308	307	304	296	296	294	296	301	305	305	305	304	300	290	292	292	293	295	297	296	294	294	294	295	297	298	298	300	300	299	299	300	301	303	302	301	301	299	297	300	301	299	294	295	296	296	299	299	295	298	300	301	302	306	304	297	297	297	297	297	294	296	293	291	292	290	292	294	291	291	291	290	294	299	300	303	303	303	300	297	293	294	296	298	298	297	294	295	300	301	299	297	297	296	293	290	294	295	290	289	290	291	291	291	291	292	293	294	293	293	296	296	294	291	293	298	298	295	291	293	295	292	292	288	292	294	293	293	296	296	295	292	289	289	290	289	289	292	295	296	296	293	290	289	290	292	291	292	294	294	292	289	289	288	289	290	291	292	295	297	299	298	295	293	288	288	287	290	297	297	296	293	294	294	292	290	289	287	286	295	292	295	293	293	291	293	293	295	294	295	296	296	296	296	294	292	290	288	288	287	289	287	292	294	292	291	291	292	293	293	292	293	293	290	286	285	289	292	293	295	297	297	295	295	294	290	294	297	296	294	290	288	289	291	292	290	288	286	287	289	292	294	292	290	290	290	291	288	287	290	290	292	292	285	283	284	287	291	294	287	284	283	285	290	293	299	292	290	294	294	292	291	291	286	289	289	288	288	286	287	288	291	292	286	285	284	286	287	288	286	285	289	291	297	293	291	290	285	286	287	287	288	288	287	289	290	288	286	295	294	291	289	293	289	296	292	290	286	284	289	288	288	289	289	288	289	289	290	294	291	288	289	289	291	291	288	286	286	286	288	288	287	286	284	283	292	298	297	295	290	289	292	295	295	293	292	294	294	291	289	286	286	288	291	292	292	292	288	287	284	285	285	283	284	286	285	282	284	286	293	288	290	292	290	289	287	291	292	293	292	292	293	294	289	287	287	289	292	293	296	294	293	295	292	292	293	291	292	294	288	289	289	287	292	291	291	288	290	291	291	293	294	293	290	287	284	284	284	285	288	291	292	293	292	292	291	290	289	289	286	287	290	288	288	288	287	287	289	289	288	286	285	285	284	280	282	282	282	289	292	293	293	292	288	285	284	290	290	291	287	289	286	289	284	285	283	283	283	286	286	286	287	288	289	290	291	290	285	282	282	280	281	283	284	281	281	284	284	286	290	290	290	290	290	289	285	283	284	288	289	289	289	283	281	283	288	286	284	285	287	287	284	281	278	278	275	277	278	282	293	292	290	286	287	286	285	285	286	286	284	287	289	285	291	289	284	282	278	280	283	286	288	289	288	286	287	289	285	285	284	283	289	288	286	285	286	285	284	285	285	284	283	289	288	287	289	288	287	288	289	288	287	284	283	284	285	286	289	292	293	291	287	283	281	283	285	283	281	280	280	282	282	284	284	287	286	285	286	285	285	287	289	286	285	283	281	281	281	278	277	283	286	286	285	286	289	0	0	0	0	0	0	0
303	303	296	297	295	294	294	297	296	296	290	290	293	297	300	304	305	305	303	293	288	288	288	290	291	292	293	292	292	292	292	293	294	294	296	296	296	297	298	300	297	298	297	297	296	297	300	300	299	297	295	297	297	296	296	297	291	288	286	292	292	300	296	296	295	295	298	294	291	290	290	291	291	291	291	294	295	295	289	293	295	297	299	300	301	296	293	294	293	294	296	294	291	289	288	287	297	297	294	292	287	286	285	292	293	290	289	289	290	291	290	290	291	291	292	291	290	292	293	285	283	285	286	287	286	285	285	288	287	286	286	287	291	290	291	291	293	292	288	287	288	288	288	288	286	289	290	287	283	282	285	287	290	290	290	293	294	291	289	286	286	290	290	288	288	290	291	287	287	290	289	287	286	286	288	288	292	291	289	288	287	287	286	285	284	284	283	284	284	285	287	290	291	292	294	293	291	289	286	284	292	291	290	290	288	286	285	287	285	289	290	290	288	291	288	291	292	292	291	292	287	285	286	287	292	288	288	297	298	298	291	282	282	284	289	294	293	289	287	287	289	290	287	285	285	286	288	289	289	289	284	285	286	286	286	287	290	290	289	292	286	287	287	288	290	287	285	283	281	280	285	286	287	290	290	286	290	292	290	287	283	288	288	287	286	286	291	291	292	292	286	285	284	287	281	280	279	278	286	287	291	292	288	287	283	284	284	282	283	284	283	285	289	290	287	288	286	282	283	284	285	287	288	287	287	286	286	285	284	284	286	287	289	290	289	288	284	284	285	288	289	287	286	286	285	285	284	283	284	285	282	277	278	281	285	292	290	289	289	288	289	291	286	286	291	290	288	283	282	282	279	288	290	293	290	288	290	283	282	283	283	283	285	279	279	281	285	287	285	287	289	287	286	286	287	291	291	287	290	290	287	287	285	285	287	290	294	294	293	288	285	288	290	289	288	288	285	285	286	286	285	290	289	286	291	286	288	289	290	288	287	287	283	283	282	284	284	284	288	288	288	281	279	280	284	285	284	284	283	283	285	285	286	285	289	288	289	285	285	284	281	280	281	282	290	291	289	288	286	286	285	282	283	285	287	286	286	285	286	290	284	282	283	282	284	285	285	285	286	285	290	290	282	280	280	280	278	278	280	282	280	277	282	285	282	282	281	284	288	289	289	287	284	283	285	285	287	285	283	281	280	278	280	283	281	282	286	286	284	281	280	279	278	277	279	281	284	285	281	282	283	283	283	283	284	284	284	285	287	283	283	281	280	280	279	279	280	284	287	286	287	286	285	282	281	278	281	281	282	283	284	286	285	285	282	281	281	280	276	283	285	288	288	287	289	291	292	291	289	286	282	282	282	285	285	286	284	287	285	280	281	282	283	283	284	284	282	284	284	283	287	288	288	288	285	284	284	284	284	282	280	280	277	277	277	277	275	277	282	283	283	283	287	0	0	0	0	0	0	0
296	296	296	286	288	288	288	289	290	289	289	289	290	295	298	297	293	293	292	290	290	288	288	288	287	288	292	292	291	291	291	290	291	294	290	292	292	295	297	298	297	297	294	292	292	293	294	294	290	289	288	290	290	290	289	290	291	287	284	283	292	295	295	294	294	294	297	293	289	288	289	289	288	288	290	292	294	289	289	290	291	293	294	287	288	287	289	293	292	288	293	292	289	289	288	286	293	295	292	290	285	283	283	283	286	289	289	289	287	284	285	286	289	290	290	289	289	288	287	286	284	287	287	284	281	280	281	285	285	283	283	284	287	286	288	287	288	287	287	286	287	287	288	289	289	288	285	280	281	283	285	287	288	290	292	293	291	288	286	284	286	286	284	288	286	286	286	288	288	287	286	285	285	284	285	286	288	289	287	283	283	283	282	282	282	280	281	281	283	284	285	288	290	291	292	292	293	290	285	283	281	281	282	286	285	284	284	286	285	285	284	284	286	294	287	287	287	286	286	290	290	287	288	291	287	279	280	286	289	289	280	281	282	281	285	286	285	289	288	286	287	286	286	286	286	285	286	288	287	280	280	285	286	289	287	283	288	286	286	286	284	283	281	280	282	281	282	280	283	284	287	288	286	281	284	286	289	290	291	287	281	286	286	286	285	286	285	295	292	291	288	287	281	281	280	279	278	278	280	284	288	288	287	283	282	281	281	280	282	283	282	282	281	290	289	288	282	281	282	285	286	288	288	288	289	282	281	281	282	281	282	285	285	286	286	285	283	286	288	285	284	280	286	282	278	279	279	277	277	279	280	280	281	285	288	289	289	287	287	286	287	286	282	283	284	288	288	280	280	283	279	288	291	294	293	290	290	286	285	285	284	283	282	280	280	279	282	285	285	281	283	285	285	284	284	289	287	283	285	284	285	285	282	281	282	290	292	290	293	286	282	281	282	281	285	282	282	284	286	286	286	286	287	287	280	280	281	287	285	285	283	282	281	281	281	282	281	281	283	284	282	279	278	278	279	280	278	278	278	281	283	283	285	288	284	284	286	286	286	283	283	281	281	282	289	289	285	285	284	284	284	282	280	281	278	282	285	286	288	287	287	282	281	279	278	278	285	286	284	283	280	279	279	278	277	274	270	278	280	281	279	273	279	282	282	281	279	282	284	285	277	278	274	278	283	286	285	284	281	280	279	279	278	279	279	284	284	285	283	281	281	279	279	278	278	279	283	285	279	279	279	281	281	282	282	280	282	282	283	283	279	281	281	280	279	278	278	283	283	281	279	286	286	282	280	276	279	279	279	278	280	281	284	285	283	279	277	277	279	279	284	286	291	286	283	284	284	282	284	284	280	276	274	278	281	279	281	285	281	279	279	281	281	281	281	281	283	283	283	282	287	285	286	285	285	283	281	277	277	280	278	277	277	280	279	278	275	272	278	281	281	280	280	0	0	0	0	0	0	0
291	289	289	283	286	289	290	290	292	292	291	289	289	287	289	289	287	287	291	292	287	285	286	286	287	287	288	293	291	291	289	288	289	291	286	285	285	289	291	294	298	293	287	284	284	284	284	285	285	286	286	287	289	289	287	291	291	290	285	289	291	294	295	290	290	287	284	283	282	284	289	286	285	282	285	287	286	286	286	286	287	286	286	288	289	289	292	293	290	288	291	290	289	284	283	279	285	285	284	280	280	279	281	282	283	284	284	281	278	277	282	284	287	288	285	286	289	288	288	286	284	285	286	283	281	283	284	287	283	281	281	281	283	283	284	284	284	285	285	285	286	287	288	291	294	290	282	282	281	281	285	287	281	284	286	285	290	288	288	287	285	284	283	283	286	286	287	287	288	288	289	285	285	284	286	286	285	286	283	285	281	281	280	281	275	279	279	280	281	283	284	287	284	291	291	289	287	289	285	284	282	280	278	280	280	280	282	285	284	284	284	283	284	284	286	285	285	284	284	283	284	287	286	283	281	278	280	285	283	280	280	281	282	282	284	283	283	285	288	289	286	285	286	287	286	287	287	287	279	278	277	278	279	282	282	280	279	286	285	281	284	282	282	281	281	281	279	282	279	282	283	285	284	283	281	283	285	286	289	286	279	283	285	284	285	285	276	281	282	282	280	281	279	278	279	281	280	280	281	281	287	287	286	281	279	278	278	280	283	284	282	281	280	279	279	281	281	281	281	284	286	287	287	286	281	279	279	281	277	276	281	283	281	284	281	282	284	286	284	284	282	281	278	283	279	277	278	276	280	281	282	280	282	284	286	288	284	287	281	281	280	283	281	278	278	285	279	284	278	285	286	284	281	289	291	290	291	287	285	284	283	283	283	282	281	278	278	279	281	280	280	282	281	280	281	281	281	281	280	280	282	282	280	279	276	287	289	289	288	282	280	278	278	278	281	281	282	281	284	288	288	288	286	278	278	277	280	279	281	281	283	281	280	280	281	277	279	280	281	281	281	273	276	277	277	275	278	278	278	280	279	277	278	274	274	283	285	287	287	280	279	275	275	285	285	282	282	281	281	281	280	276	278	275	276	281	283	285	287	288	283	281	279	276	275	276	281	284	282	281	278	275	272	274	273	272	270	276	276	275	273	269	271	273	276	276	274	276	276	283	278	278	275	279	284	284	285	282	274	274	276	279	281	278	279	283	283	277	276	279	280	279	277	279	280	279	280	278	279	277	276	277	278	280	281	280	277	279	281	281	281	280	282	281	279	277	280	282	282	280	279	275	285	278	278	279	276	277	277	276	279	280	282	284	282	280	278	278	278	280	279	280	283	282	281	280	281	281	281	280	281	279	278	279	279	277	276	278	278	280	281	279	279	277	278	279	281	281	283	282	282	284	284	283	283	280	274	274	274	277	277	275	275	275	279	278	275	269	275	275	278	276	277	277	0	0	0	0	0	0
286	283	283	279	281	284	290	290	292	291	289	286	286	282	285	285	285	285	287	289	287	283	285	285	286	287	288	291	294	290	290	288	286	285	286	287	288	288	290	293	292	286	286	284	282	282	284	283	282	276	274	278	285	285	285	288	290	285	286	286	289	291	290	277	280	280	282	281	281	285	289	285	282	279	279	282	283	284	283	283	284	280	283	291	289	289	287	287	286	291	291	280	275	276	277	280	281	283	280	279	279	280	279	283	283	283	281	279	275	273	277	281	280	280	281	278	284	285	277	275	282	282	284	281	282	285	285	287	284	282	281	281	279	280	282	283	283	283	283	284	283	283	282	285	287	289	285	287	290	287	287	283	281	282	284	282	280	281	283	285	282	282	281	281	283	286	286	286	287	287	287	288	284	283	284	286	287	285	282	281	280	279	276	273	279	279	277	278	279	280	281	281	281	281	285	286	283	287	286	284	283	281	277	274	278	277	276	277	277	282	284	279	280	282	284	284	284	283	282	281	276	277	281	279	274	276	277	281	283	279	280	281	281	278	281	282	283	285	286	287	283	279	278	277	278	282	285	286	277	277	277	279	283	279	279	279	280	281	281	279	280	282	280	280	279	278	277	277	277	281	285	286	283	282	281	281	283	283	284	280	279	281	283	286	285	276	272	279	280	280	280	278	280	278	280	281	282	280	281	281	283	284	281	281	277	280	281	283	283	281	282	275	274	272	271	279	281	281	280	279	279	277	277	277	279	280	278	277	276	278	281	275	274	280	282	281	283	281	283	284	283	280	275	274	274	275	276	275	274	274	280	280	277	279	282	283	282	278	275	274	283	283	283	280	276	277	277	278	283	277	274	272	273	276	282	284	285	285	283	282	281	285	285	282	279	275	275	275	275	278	280	281	282	282	277	280	278	276	278	278	280	280	278	279	275	279	287	286	278	275	272	275	276	277	280	279	281	281	283	288	288	286	283	277	277	275	275	277	278	279	278	278	280	279	280	279	278	278	278	278	277	275	273	276	274	274	278	279	285	285	278	272	270	270	273	282	285	270	275	270	269	273	278	272	273	275	272	273	275	275	274	272	271	273	276	280	281	283	281	281	280	277	276	273	271	275	280	279	277	276	274	272	271	272	272	272	273	277	276	273	271	269	270	272	273	273	271	272	274	280	283	280	280	281	281	283	283	277	275	269	276	278	281	282	276	276	277	276	275	276	279	279	277	279	279	279	277	276	276	275	275	275	277	278	280	277	276	277	281	281	278	277	277	280	277	276	278	279	275	276	276	272	275	275	272	276	277	275	272	273	275	277	277	276	277	276	274	275	278	281	277	277	278	277	276	276	275	275	273	278	278	278	278	277	276	274	274	273	272	272	278	276	275	273	272	277	277	277	277	277	279	278	277	276	275	273	272	272	272	274	275	275	273	271	272	271	266	265	267	274	275	274	275	275	0	0	0	0	0	0
277	276	276	279	280	284	286	286	290	290	287	284	284	282	282	281	283	283	283	285	284	283	284	285	285	285	287	292	287	288	288	289	287	286	285	285	287	287	289	290	286	285	284	283	281	281	280	278	273	272	271	272	278	280	280	281	282	284	285	286	286	283	275	277	279	279	280	281	282	281	281	284	275	275	277	278	282	279	280	283	283	287	283	286	287	284	288	284	282	284	283	279	275	278	278	278	278	277	278	279	279	279	280	280	280	279	277	274	275	270	275	279	278	281	275	278	270	270	274	272	272	277	281	281	282	284	286	287	285	281	281	281	280	278	278	281	280	280	279	280	281	282	282	283	285	280	280	278	282	285	283	282	281	283	282	281	275	277	280	282	281	279	279	277	277	282	284	285	285	285	285	284	286	285	284	283	282	284	285	281	279	278	275	273	278	278	278	278	278	280	279	276	274	275	279	282	278	285	284	285	283	280	277	275	276	273	272	274	277	278	278	277	279	281	284	284	281	277	275	274	275	277	280	277	276	274	277	280	280	277	277	279	279	277	274	278	277	279	278	275	278	279	278	278	278	281	281	277	277	277	279	281	275	277	280	281	280	278	277	277	277	275	274	278	277	274	273	274	276	281	283	283	282	280	280	281	280	281	283	279	279	281	277	280	276	277	275	272	280	279	280	275	276	276	278	278	279	272	274	279	282	280	280	277	277	277	278	280	281	281	280	278	274	272	270	277	278	278	276	275	278	277	281	279	283	283	280	275	275	278	277	281	277	274	275	274	274	276	275	284	277	275	276	274	271	270	271	271	270	268	268	276	271	271	272	273	272	269	271	272	274	277	281	279	275	275	278	278	280	274	275	276	275	277	278	281	278	278	280	278	275	278	278	276	274	271	271	265	274	277	278	278	279	277	276	273	274	275	277	276	277	275	275	275	276	279	285	276	276	275	272	274	274	278	280	280	280	279	277	277	277	275	272	274	274	273	274	275	275	275	276	279	278	278	279	278	278	277	276	278	276	274	273	273	271	274	275	278	278	278	273	277	272	271	274	273	266	268	267	269	268	267	271	268	269	262	270	271	273	271	269	268	269	272	276	279	279	275	277	278	271	273	270	269	267	272	275	278	276	273	271	271	271	272	271	271	273	277	274	272	270	270	270	272	277	276	275	274	272	275	276	275	268	269	264	271	275	271	270	271	276	280	279	275	273	270	270	269	270	270	272	279	277	278	278	278	277	276	275	277	275	273	271	271	274	275	275	276	280	279	274	274	273	270	270	272	275	274	275	275	276	274	273	267	271	275	276	274	271	270	270	272	274	273	276	276	276	276	276	273	271	273	273	273	272	272	274	272	272	271	277	277	277	273	271	274	273	272	269	271	270	273	273	272	271	271	271	271	275	275	271	272	271	274	273	272	272	271	272	270	267	267	269	268	267	266	266	265	267	270	275	276	276	276	0	0	0	0	0	0
272	272	277	277	276	282	284	284	285	288	286	283	280	280	280	280	280	281	281	280	283	277	276	276	276	265	271	276	282	283	283	283	284	283	281	276	278	281	281	285	283	282	280	278	276	276	275	273	273	274	274	274	277	277	277	280	280	283	284	280	280	274	277	278	279	279	279	280	283	281	278	274	275	276	274	275	277	277	273	277	277	275	273	275	281	278	284	276	279	280	280	278	276	277	277	276	275	274	274	274	275	276	279	277	275	273	272	271	268	270	268	277	276	278	272	273	269	268	272	272	275	280	280	280	280	282	285	285	276	279	281	283	283	282	280	280	281	277	277	277	278	280	281	280	280	279	277	277	277	279	282	282	282	280	281	275	271	272	273	276	276	276	275	276	273	276	281	282	282	283	284	284	282	281	280	278	279	279	277	275	275	276	274	274	277	278	277	278	275	280	278	275	274	274	277	276	276	275	285	283	275	274	275	276	278	274	273	270	272	275	275	279	279	279	278	281	276	276	274	274	276	277	277	277	277	277	279	279	274	274	277	277	278	276	274	277	272	273	274	272	277	279	278	279	278	281	280	275	270	266	268	270	273	273	276	280	279	274	272	272	269	272	268	268	268	270	269	268	270	274	277	280	279	279	280	279	276	275	276	276	275	273	277	276	276	276	277	277	275	278	278	275	274	275	276	275	273	270	271	275	278	280	280	277	279	277	277	277	278	279	277	278	274	270	274	276	275	274	276	275	275	276	277	281	283	283	280	278	274	276	277	276	277	273	274	269	275	268	273	272	276	274	276	275	271	270	272	272	270	268	266	269	268	267	267	272	271	269	271	271	273	276	278	276	274	273	274	276	275	272	271	272	275	277	279	278	278	275	278	278	275	275	277	275	270	269	270	270	271	274	277	278	279	276	276	273	268	269	274	272	272	271	271	273	275	278	275	274	274	275	271	272	274	272	273	273	275	276	276	275	275	276	273	273	274	273	273	276	275	275	270	270	272	271	276	277	278	275	274	277	277	279	271	268	272	274	269	274	275	276	275	276	279	273	264	261	263	263	265	263	265	258	263	265	269	271	265	271	273	270	270	270	272	275	276	278	278	275	271	273	271	271	269	267	266	268	270	270	270	271	270	269	269	270	270	270	276	277	275	273	270	271	270	273	272	271	269	270	272	274	267	264	266	264	267	266	270	271	271	270	269	269	272	270	271	270	268	267	268	271	270	273	279	275	277	277	275	277	277	272	272	271	270	270	270	271	274	277	280	276	273	270	269	269	269	271	272	273	273	275	273	273	272	271	265	266	266	268	268	267	269	270	271	272	276	275	275	274	274	272	271	270	272	271	272	271	270	269	268	270	273	274	272	271	271	269	272	268	269	267	267	270	270	270	269	269	270	271	271	270	269	268	270	271	271	270	271	270	269	267	267	265	266	265	266	266	266	265	265	270	273	275	275	274	0	0	0	0	0	0
268	269	272	272	276	280	282	279	279	273	272	275	275	275	278	278	277	276	276	276	277	273	269	269	269	270	273	278	280	281	281	281	279	278	278	277	276	279	279	282	278	277	277	275	272	272	272	274	275	277	277	277	274	273	276	276	279	280	277	280	280	274	272	274	280	280	280	278	279	277	276	274	277	278	278	273	273	271	270	271	272	272	272	272	272	273	276	277	270	268	269	275	273	273	273	272	265	265	270	273	274	273	273	274	273	272	268	266	268	267	266	265	271	267	270	270	272	269	272	274	278	277	278	277	277	282	284	283	275	277	278	278	279	279	280	280	277	276	276	277	276	279	279	279	278	276	274	275	273	273	273	279	281	279	277	275	271	270	272	275	276	272	273	271	272	277	278	281	279	277	279	277	276	274	274	276	277	277	276	274	271	272	275	276	276	276	276	276	275	275	274	273	274	274	277	276	275	275	272	271	268	267	272	274	276	274	269	270	275	275	274	275	275	274	272	271	272	275	275	272	269	268	276	277	276	276	272	271	273	274	274	276	274	271	277	277	273	271	270	271	271	277	277	278	278	277	279	267	267	266	267	268	271	272	278	278	274	273	271	267	270	270	271	271	269	268	267	265	267	268	270	273	273	273	274	272	266	270	272	273	274	273	273	275	276	276	274	276	272	276	270	275	270	274	275	274	270	267	267	268	277	280	278	279	280	276	277	273	275	275	274	271	270	271	273	274	274	276	276	275	275	275	275	277	269	269	270	271	271	274	275	273	272	272	272	268	272	268	272	271	275	272	272	278	275	275	274	272	272	267	267	266	267	268	268	269	271	270	270	270	271	274	273	274	273	272	274	274	273	270	270	270	270	272	272	270	269	271	275	279	277	275	278	273	268	267	268	271	271	271	272	278	276	276	272	272	269	269	273	267	266	265	267	269	272	273	272	273	274	269	268	267	266	270	270	275	276	276	272	272	274	270	273	275	274	274	275	275	275	273	269	268	271	269	269	272	275	275	274	275	275	280	275	276	271	272	267	267	265	272	277	277	270	265	262	261	261	262	267	264	258	256	265	264	268	267	259	266	270	269	268	266	271	272	271	269	267	264	263	266	270	270	270	264	265	264	267	267	267	270	270	268	269	269	268	269	274	277	274	273	272	269	267	269	269	270	269	270	270	272	265	263	267	266	262	263	266	270	271	268	268	269	270	269	270	270	269	268	268	270	269	269	269	273	275	270	272	269	272	273	273	271	271	268	267	267	268	271	272	271	269	268	268	269	270	270	271	271	268	268	269	271	271	267	265	267	267	269	272	271	269	268	269	274	273	268	271	270	271	270	269	267	264	263	262	262	264	266	268	267	269	269	269	269	269	272	271	268	268	265	265	263	268	268	268	267	267	268	269	268	267	267	267	269	268	266	268	267	267	267	267	266	266	265	264	265	266	265	264	266	266	266	266	269	0	0	0	0	0	0
266	268	270	270	272	278	276	269	269	267	267	269	272	272	273	275	276	276	277	277	275	273	270	270	270	270	272	274	274	274	274	274	275	276	276	276	276	277	277	279	270	268	268	269	271	272	272	273	274	274	274	272	272	273	277	277	280	278	277	278	278	277	266	266	273	275	275	277	277	276	273	270	271	273	274	275	272	273	271	272	273	273	273	272	272	270	273	273	274	270	268	270	271	269	269	268	265	266	268	272	271	271	270	273	270	269	268	266	266	266	265	265	264	262	263	267	270	271	268	271	264	267	268	272	271	275	275	278	272	268	268	269	267	273	273	276	275	273	274	275	276	271	277	279	277	276	273	271	270	270	270	271	274	277	274	274	273	272	269	269	269	269	269	268	270	272	275	276	279	273	274	278	277	273	273	275	276	274	273	266	266	266	271	274	275	276	274	274	272	275	272	273	274	275	275	276	274	272	267	265	266	269	272	274	273	272	273	271	273	272	272	274	274	273	271	269	274	267	266	267	266	266	268	270	275	273	272	271	272	273	273	272	270	270	274	273	272	268	268	268	269	272	273	276	278	276	272	266	267	266	267	268	269	273	276	272	269	267	268	265	268	271	266	268	267	268	265	264	263	269	273	272	272	273	273	274	271	267	268	269	272	273	274	271	274	276	272	273	267	273	270	270	273	268	267	269	268	265	267	267	274	270	267	267	270	269	270	271	272	272	273	270	270	270	270	272	268	268	270	274	273	271	270	276	269	268	267	270	271	272	272	272	271	270	270	267	269	268	270	266	269	273	276	275	272	272	272	272	272	266	264	268	268	269	270	272	272	271	270	269	269	270	270	271	272	272	273	272	269	268	267	267	269	269	271	270	269	267	267	272	274	275	274	269	266	268	269	272	273	271	271	277	273	273	269	270	267	268	267	273	272	267	266	267	268	270	269	270	267	267	266	263	264	267	268	270	271	268	274	270	267	268	270	272	276	274	273	274	268	267	268	271	273	273	266	263	270	272	270	273	272	265	264	275	270	270	268	269	269	270	271	272	268	263	261	261	265	263	266	260	260	265	264	262	262	266	262	267	269	268	267	267	266	271	268	267	265	263	263	266	266	268	264	264	263	263	264	266	267	268	267	269	265	263	264	265	267	269	272	272	270	265	266	265	267	270	269	267	264	262	261	261	260	261	262	262	261	262	265	265	266	265	263	259	265	259	261	261	258	261	263	263	262	258	265	268	262	263	266	266	267	268	269	269	267	265	264	263	264	269	267	266	267	267	266	267	268	267	266	266	269	269	269	269	268	267	266	268	270	271	271	271	273	266	269	268	266	266	266	261	261	262	261	260	260	260	262	262	266	267	267	268	268	268	266	269	271	270	265	262	260	261	261	262	263	265	265	267	268	268	267	267	267	269	264	265	264	266	268	268	268	266	266	263	261	262	264	264	263	264	263	263	262	263	0	0	0	0	0	0
265	266	269	269	275	271	267	265	265	264	263	265	269	272	272	273	278	278	275	275	274	273	265	266	266	266	267	270	271	270	272	272	272	273	273	273	273	274	275	275	266	264	265	266	270	272	272	272	274	269	269	267	268	269	273	273	273	273	271	271	268	266	257	259	260	271	272	272	270	270	269	269	270	272	272	272	273	274	276	276	274	270	270	265	268	270	268	271	272	269	271	269	269	267	266	265	263	263	264	266	268	267	269	271	270	272	269	266	266	266	266	265	264	262	262	263	261	267	264	262	259	264	265	267	270	270	268	271	272	274	273	270	266	264	266	269	265	266	268	270	270	269	275	275	273	269	266	264	266	266	267	269	273	273	273	273	273	272	268	269	269	269	269	268	270	272	275	277	274	272	271	270	272	271	271	273	272	267	264	262	264	264	262	263	267	263	263	270	270	270	270	270	269	268	268	269	272	272	271	264	271	273	272	273	271	271	270	268	268	266	268	272	271	271	271	268	272	265	265	265	266	270	267	266	267	267	270	270	273	274	272	270	267	270	273	271	268	266	267	268	268	271	276	276	275	274	270	269	268	268	267	268	270	272	273	271	268	266	266	263	266	264	270	269	267	265	267	263	262	268	270	268	271	270	267	267	268	266	267	267	269	268	270	268	268	274	271	269	265	263	268	267	269	265	264	264	264	266	267	266	267	264	264	265	262	267	267	268	263	264	273	274	269	269	269	269	263	263	264	267	266	267	267	266	269	269	268	269	271	271	272	272	269	267	266	267	267	266	265	265	265	268	269	267	268	269	269	271	265	261	263	264	265	269	269	271	271	268	268	268	267	265	269	269	271	273	273	268	265	262	264	263	269	269	268	268	267	267	268	269	271	274	272	266	268	269	269	270	267	267	268	268	273	264	265	268	269	266	264	268	271	267	267	267	268	270	270	266	266	266	265	261	265	266	266	266	265	267	265	264	263	260	259	268	272	273	268	266	264	265	268	269	269	271	264	263	264	264	264	264	264	262	269	259	260	265	269	268	269	269	268	269	270	261	266	265	271	262	260	260	258	258	258	258	266	269	261	271	264	266	266	267	266	263	266	266	263	263	264	265	267	267	262	263	260	259	262	267	267	267	265	264	264	265	265	264	259	259	261	262	267	266	264	263	265	269	267	266	265	263	262	260	259	261	262	261	261	260	260	261	262	262	260	257	262	255	260	261	258	262	263	262	261	256	258	261	261	261	263	264	264	264	267	266	266	263	261	261	262	264	263	262	262	263	263	265	265	264	264	265	266	268	266	268	268	267	265	267	270	271	269	263	265	266	266	266	264	264	261	264	262	260	260	258	260	263	263	262	261	262	267	268	269	269	267	268	269	265	264	262	262	263	261	261	261	262	265	266	267	265	261	261	262	265	263	262	264	266	267	267	268	266	264	262	261	260	261	264	264	265	264	264	263	260	0	0	0	0	0	0
263	265	270	273	273	271	266	263	262	262	260	263	268	269	269	274	272	274	272	272	272	269	264	264	267	267	268	269	270	271	271	272	272	270	270	270	269	268	268	268	265	263	263	263	267	269	272	272	269	268	268	263	261	263	266	267	267	271	271	268	266	264	264	265	265	263	263	263	268	268	268	269	270	267	271	271	263	270	269	269	268	265	267	267	271	273	270	267	268	266	266	265	267	266	265	264	263	264	263	260	260	258	264	269	272	276	275	267	265	265	267	270	269	267	259	261	260	264	262	260	263	266	268	269	268	263	266	268	269	270	269	268	266	265	264	264	264	265	268	269	267	267	268	268	270	266	264	262	264	265	266	268	270	268	269	269	271	271	268	269	269	269	269	264	266	268	272	276	276	272	271	269	268	267	268	270	267	263	261	262	263	265	261	261	263	258	259	263	265	266	266	266	265	266	262	264	263	264	264	260	265	266	265	266	266	266	263	261	263	264	268	269	267	267	269	267	265	262	263	264	267	268	269	268	266	265	265	270	272	274	271	271	266	265	267	267	266	266	268	268	272	272	275	270	269	267	265	267	264	263	265	269	269	270	271	270	267	265	263	261	263	262	262	269	270	269	267	265	264	264	264	268	268	267	266	266	265	267	264	266	265	265	266	265	267	267	267	265	264	264	267	266	269	264	262	264	263	264	265	265	260	268	263	261	263	264	265	263	264	264	270	271	272	267	261	260	265	264	263	264	266	266	262	261	266	265	268	269	269	271	271	271	270	266	263	264	266	265	263	262	264	265	269	270	269	270	268	264	263	261	263	266	268	268	268	267	269	266	265	264	264	264	264	267	271	272	270	266	262	260	259	260	266	268	269	269	270	269	267	267	267	269	269	267	266	266	266	265	264	262	260	262	261	262	265	274	273	269	265	261	258	258	262	265	265	265	265	263	266	266	263	260	259	261	263	264	264	263	262	265	266	262	260	261	266	266	264	263	262	264	268	268	267	266	260	261	262	262	260	263	261	261	258	260	258	259	263	262	262	261	264	258	259	266	266	263	256	258	256	257	259	254	255	256	262	263	263	252	253	259	259	261	264	263	263	262	263	261	257	254	263	261	259	261	265	266	262	265	265	265	263	263	262	261	261	260	260	260	261	260	255	263	260	259	258	259	262	263	263	258	259	259	257	260	262	260	260	260	258	258	258	261	259	259	259	259	253	261	263	262	254	255	255	255	256	260	260	259	256	257	262	263	264	266	265	262	260	259	263	261	260	258	257	254	256	258	261	261	264	266	265	266	266	267	267	264	264	265	268	269	259	257	259	262	265	264	260	259	260	257	261	261	260	257	259	262	263	263	261	261	263	266	267	268	264	264	263	264	260	262	264	262	262	261	260	260	264	265	263	259	259	260	260	262	261	259	259	265	265	265	265	263	262	261	258	259	263	264	263	264	264	264	262	260	0	0	0	0	0	0
262	263	267	268	268	266	263	264	261	261	262	265	267	268	268	267	267	267	266	264	264	263	263	264	267	269	269	263	263	264	268	269	269	269	269	267	266	267	265	265	262	256	253	260	265	269	270	270	269	265	262	262	257	258	259	268	269	269	268	269	268	266	265	265	265	264	262	265	265	265	262	263	265	266	266	262	262	260	260	261	263	267	270	270	269	270	271	266	267	265	266	265	263	263	263	262	262	262	258	258	255	255	260	266	267	269	268	255	255	257	257	264	265	266	262	261	255	259	262	261	265	268	268	265	266	263	263	265	268	270	268	265	265	263	263	266	263	266	267	267	266	267	268	268	266	266	265	263	264	265	266	266	265	264	266	267	268	267	264	265	265	264	263	263	264	266	268	271	272	266	267	266	267	265	264	264	263	262	261	261	265	264	262	262	262	262	265	263	263	264	264	262	259	260	263	263	262	262	259	262	265	265	269	263	264	264	263	261	261	262	263	265	265	265	267	265	264	264	264	264	265	268	269	269	268	263	264	263	265	264	272	267	266	264	266	266	265	265	270	271	269	266	267	265	265	263	262	265	264	264	265	266	265	266	268	266	266	261	261	260	262	263	263	265	262	265	266	265	264	264	263	266	267	266	265	265	263	264	264	262	261	261	261	263	263	266	263	263	263	268	265	264	264	261	261	261	263	262	264	263	263	256	261	263	263	263	263	265	265	265	268	269	269	264	257	263	265	262	263	267	262	264	262	258	260	261	262	261	260	262	263	264	265	261	264	264	264	265	262	263	262	264	267	268	271	269	268	262	261	263	265	269	267	269	263	264	265	262	261	260	260	263	264	267	268	270	270	266	262	260	258	259	265	267	266	266	265	265	266	265	266	268	267	265	263	262	261	263	262	261	261	260	261	261	268	269	269	265	261	259	258	259	259	263	262	261	261	263	265	263	262	255	258	260	262	262	262	263	261	264	262	261	260	260	261	261	260	260	259	264	264	263	260	261	258	259	259	259	261	262	264	264	259	258	261	261	260	263	258	263	260	260	263	266	261	261	255	251	252	257	257	255	255	258	261	258	256	261	260	249	257	257	250	257	258	259	262	261	255	260	263	258	255	263	263	265	256	252	254	263	263	262	261	260	260	260	260	259	257	257	256	258	259	257	259	260	261	260	256	256	257	261	258	258	257	255	255	260	257	258	257	257	258	258	257	255	254	256	256	256	250	255	257	257	258	258	258	257	256	255	256	261	263	265	262	262	260	256	257	259	256	256	254	254	256	255	256	258	264	263	261	264	264	264	263	263	260	260	260	259	258	256	257	259	262	263	257	256	258	255	258	256	255	258	258	262	263	263	263	260	259	259	258	257	258	256	257	258	258	259	261	261	260	261	262	255	258	258	257	257	257	258	260	262	260	259	258	257	257	262	262	261	257	255	255	258	261	262	261	259	264	260	259	258	0	0	0	0	0	0
260	261	263	263	263	263	263	260	261	261	262	264	266	266	262	262	263	263	263	262	262	263	263	265	269	268	268	262	261	263	264	264	265	265	263	263	265	265	264	262	263	260	257	260	260	262	264	265	265	263	263	258	253	255	259	267	267	267	267	266	266	265	266	265	263	263	261	259	259	259	260	263	265	264	265	260	260	259	259	260	261	266	268	268	268	268	261	265	266	262	263	264	262	261	262	262	260	260	259	258	255	256	257	264	267	268	255	253	252	257	258	262	263	262	261	258	257	261	265	266	267	267	265	264	263	263	265	264	264	264	264	265	265	264	265	265	261	263	260	262	264	264	266	266	266	266	267	266	265	266	264	261	260	261	262	264	266	265	262	260	259	260	261	262	261	261	262	265	264	266	266	264	262	260	260	260	261	261	261	261	265	262	262	262	263	264	261	260	260	262	262	263	263	263	260	260	260	258	257	263	266	265	266	266	263	263	262	261	262	263	262	261	261	261	261	263	260	260	262	262	262	268	266	267	266	261	262	261	263	267	269	268	265	265	266	266	270	264	266	266	264	264	263	263	263	263	261	259	260	259	262	259	260	263	267	265	262	259	258	261	263	262	263	266	266	263	260	264	263	261	260	260	265	263	265	264	262	262	260	258	259	258	258	259	262	263	255	254	256	262	263	265	264	263	261	261	260	260	262	263	264	265	266	264	262	262	262	262	264	263	265	266	264	262	259	256	261	263	267	266	261	261	260	259	259	261	261	260	261	258	259	261	260	261	262	261	260	261	265	262	261	260	258	259	263	268	258	259	258	255	266	265	265	260	261	261	263	262	261	260	261	263	267	267	268	268	266	263	260	253	255	256	264	267	265	265	264	264	264	265	265	263	263	262	261	262	262	260	259	260	263	262	258	260	260	266	266	261	258	257	259	259	262	261	263	260	258	265	264	262	254	258	259	260	260	259	258	258	258	261	259	260	259	259	260	260	259	259	257	257	261	259	260	260	259	259	259	259	260	261	263	258	259	257	256	258	261	262	264	259	265	265	263	259	256	258	257	255	255	255	256	258	258	257	256	254	252	252	255	250	254	252	257	257	260	259	260	254	256	261	264	258	261	262	261	257	254	257	257	255	260	260	254	255	256	258	259	258	257	255	254	253	254	255	256	260	260	260	255	255	255	257	257	257	253	253	255	256	255	253	255	252	252	255	256	255	255	255	254	254	250	254	256	257	258	259	257	255	256	255	257	259	262	262	263	263	260	258	255	255	254	254	254	253	257	257	258	261	258	257	258	253	251	249	258	259	260	261	262	261	258	255	257	259	262	262	261	256	256	254	255	255	255	258	253	257	259	262	262	259	256	257	257	256	255	254	255	253	260	260	259	259	260	259	258	259	255	257	257	257	257	258	260	257	257	256	257	257	258	258	261	260	255	256	255	257	256	254	258	258	259	259	259	256	0	0	0	0	0	0
259	259	259	261	261	261	260	257	259	261	261	263	264	263	261	261	260	261	260	260	261	261	262	262	266	267	265	265	259	259	258	260	261	261	262	263	263	264	264	263	263	264	263	262	260	260	262	264	264	264	261	256	258	260	266	267	268	266	266	264	264	263	263	263	261	257	256	257	258	258	257	256	258	260	265	265	259	259	259	259	256	256	254	258	259	259	263	262	261	261	262	263	259	259	259	256	253	259	259	259	263	262	260	264	265	256	254	256	264	265	266	262	261	261	261	260	260	259	262	265	266	265	264	262	261	261	263	263	263	263	264	265	264	259	257	257	257	255	256	261	262	261	261	262	263	263	264	264	263	261	257	257	256	254	255	256	259	258	256	254	255	259	259	258	259	260	259	261	262	264	266	264	261	260	259	259	259	259	260	260	261	262	263	263	262	259	260	259	259	261	263	263	263	264	260	260	258	258	257	258	262	263	262	265	264	263	263	264	266	266	262	260	259	259	260	257	257	257	260	261	262	266	266	265	264	263	261	257	257	259	264	265	262	263	264	265	269	268	261	261	263	262	261	261	261	260	259	258	254	260	260	259	259	260	263	264	260	259	257	259	261	259	263	263	265	261	259	259	259	258	257	258	261	262	263	264	265	266	259	257	258	259	257	258	261	262	261	254	254	257	260	261	261	262	264	261	262	259	260	261	264	265	265	265	259	261	258	260	260	260	259	261	262	262	262	264	265	266	264	260	259	260	259	258	255	259	258	259	261	259	259	260	258	256	256	257	259	261	258	258	259	256	255	253	256	261	257	260	259	267	257	259	259	259	261	261	262	262	263	261	258	259	262	266	266	264	261	257	257	261	262	261	259	262	264	262	262	262	263	259	259	259	259	259	261	261	255	255	256	256	261	259	259	259	255	257	263	264	264	263	256	260	262	261	258	254	254	258	258	256	258	258	257	253	253	254	254	255	254	257	258	257	257	260	260	259	256	256	255	255	258	257	259	260	259	258	258	260	258	262	262	255	255	253	256	258	260	261	266	263	262	261	253	255	255	257	257	256	256	255	255	257	258	256	254	253	251	251	254	254	249	254	254	256	257	260	255	250	256	256	258	257	255	261	259	256	254	259	257	254	255	253	251	253	254	255	257	258	257	252	253	253	252	253	253	253	252	252	252	254	254	254	254	248	251	252	253	253	253	253	251	253	252	255	253	253	256	256	255	255	254	255	254	254	257	258	255	255	256	258	257	252	252	252	259	259	258	255	252	251	252	254	254	252	248	245	246	247	249	252	250	251	251	248	249	250	256	256	257	258	256	255	258	262	263	259	260	257	255	250	251	253	252	252	255	255	259	260	256	256	256	255	256	256	256	254	252	252	254	257	257	256	258	253	254	257	254	257	257	254	252	252	253	254	255	256	255	255	258	259	258	257	255	255	251	254	253	253	253	253	256	255	254	254	0	0	0	0	0	0
259	258	256	255	258	258	258	258	257	259	259	261	260	260	258	258	257	259	259	259	260	260	261	263	264	260	258	258	259	260	261	260	258	258	256	259	261	260	261	263	264	259	262	260	257	257	259	260	260	260	259	257	261	260	265	266	266	264	264	262	263	261	261	261	259	258	257	259	259	259	257	256	257	258	258	258	254	261	262	263	258	256	255	258	258	258	262	257	257	259	258	258	261	263	263	254	254	259	261	262	262	263	258	258	257	253	254	262	262	261	259	257	260	259	259	260	259	258	259	265	264	262	262	262	261	260	260	261	262	264	266	264	260	257	256	255	250	248	250	252	257	259	260	262	262	260	257	256	257	255	257	257	256	256	255	258	257	256	255	254	254	253	258	258	259	256	256	256	255	256	257	257	256	255	255	258	258	257	257	260	260	258	261	262	262	262	260	259	260	254	254	254	256	258	258	260	258	255	256	256	261	261	261	260	259	260	262	265	266	267	265	260	253	253	254	254	255	254	254	259	260	264	265	263	256	255	258	259	258	258	261	262	260	258	259	258	260	259	259	259	256	255	256	259	260	259	258	257	254	258	261	264	258	264	263	263	258	256	256	258	259	256	257	262	254	259	256	255	255	256	259	259	258	261	255	254	254	256	254	257	256	259	255	256	259	259	260	256	256	258	258	257	260	261	259	259	259	257	256	262	266	266	264	261	259	259	256	259	258	259	257	259	263	263	263	263	265	265	257	259	258	251	253	255	254	255	252	252	257	257	256	256	256	256	256	257	257	257	259	259	257	256	254	255	254	254	258	257	256	255	253	255	258	261	262	262	261	263	262	259	257	256	256	259	259	259	256	258	261	261	256	257	258	259	260	260	258	258	256	258	256	258	258	257	257	256	254	257	255	256	260	259	254	256	257	258	258	259	259	257	254	254	253	253	252	251	255	255	258	257	258	260	258	256	254	253	253	253	254	256	258	257	258	260	259	256	253	253	251	253	255	255	259	260	259	257	256	259	257	257	256	255	254	254	252	251	251	250	250	253	256	256	252	253	255	250	249	248	249	253	253	252	251	247	247	251	254	249	249	247	252	250	252	256	257	256	249	249	255	254	253	252	250	251	251	252	254	254	252	250	253	250	250	250	250	251	253	253	251	246	251	251	252	252	253	252	252	252	252	249	253	254	252	248	250	250	253	252	252	252	251	252	253	252	251	248	250	252	254	255	253	252	252	252	256	256	256	256	253	253	249	250	249	253	254	254	251	249	249	249	248	251	252	248	246	247	247	247	248	248	249	248	251	250	248	248	250	253	255	255	253	249	249	257	253	255	255	253	248	249	251	252	254	253	255	255	254	257	256	254	253	254	254	251	251	250	251	251	253	253	254	255	252	249	249	250	256	254	252	251	252	252	252	252	253	253	253	255	258	258	258	256	254	251	253	247	247	247	247	248	255	254	253	253	0	0	0	0	0	0
258	258	256	255	258	258	258	258	256	258	258	256	256	256	257	255	255	254	258	259	259	259	260	258	259	258	256	256	257	259	261	258	256	256	256	256	257	256	256	256	259	257	259	257	256	255	254	255	256	256	256	255	254	258	260	260	258	261	262	262	262	259	259	259	257	256	256	257	256	254	254	260	263	262	255	254	249	250	255	255	255	259	260	262	263	259	261	257	257	256	253	254	255	261	259	254	260	260	258	258	262	262	262	259	258	258	258	263	261	259	258	256	256	260	260	258	258	257	257	260	260	260	260	260	257	258	258	257	259	261	262	262	257	254	251	250	250	248	245	249	252	256	256	256	254	253	254	251	253	256	257	257	258	257	256	258	258	256	253	253	252	253	256	257	256	256	256	257	254	252	253	254	256	257	257	255	252	256	258	259	258	257	256	257	259	258	258	256	254	254	251	250	252	257	256	254	257	255	256	256	258	259	260	259	258	253	262	265	267	266	258	253	253	253	254	255	254	254	251	258	257	264	260	255	254	254	257	258	259	260	264	259	256	255	255	251	253	255	257	259	258	255	256	256	256	259	258	251	255	251	254	264	261	260	263	262	260	259	255	255	259	256	254	252	254	259	254	254	253	255	257	258	258	254	253	251	253	255	256	255	254	253	254	255	257	256	258	253	254	254	254	255	256	260	259	258	258	257	255	257	255	254	254	251	253	256	255	256	257	257	258	261	260	262	262	257	256	253	255	256	256	255	252	253	253	252	253	252	252	258	255	255	255	255	256	262	260	259	259	259	256	256	255	256	256	254	256	256	256	255	255	255	257	259	262	262	264	264	255	258	257	256	255	253	251	252	252	254	254	256	255	255	256	256	256	257	256	256	256	256	256	256	256	255	256	257	256	258	257	258	259	258	254	254	256	256	258	259	259	256	252	253	252	252	251	250	254	255	255	256	257	257	257	257	254	251	252	252	254	253	253	253	254	255	257	253	251	250	250	253	254	256	260	259	258	253	252	252	253	254	255	254	254	252	250	246	247	250	249	250	251	254	256	251	251	254	250	249	252	255	255	254	254	254	254	254	254	249	248	250	251	252	253	253	254	250	249	248	250	254	248	250	248	244	243	248	250	251	248	248	249	248	247	248	250	250	252	253	253	247	246	250	252	253	252	252	254	254	254	254	253	251	250	248	248	249	250	252	252	251	252	252	251	251	249	248	247	247	250	248	249	249	249	249	253	254	251	253	253	251	249	248	248	249	250	249	249	247	247	250	251	248	246	248	248	247	245	244	245	247	246	248	247	250	247	246	250	250	247	248	252	247	245	247	252	252	251	247	247	248	249	250	252	252	254	255	254	253	254	253	253	251	252	251	251	249	248	250	250	251	252	253	249	248	249	247	246	250	250	250	252	250	251	249	249	252	252	253	252	254	254	254	251	249	250	245	243	244	244	245	249	251	250	250	0	0	0	0	0	0
258	258	261	260	258	257	257	257	255	256	253	253	254	255	256	254	254	255	255	256	256	258	258	258	260	252	254	255	255	256	257	256	256	255	255	255	258	257	256	257	257	256	257	252	252	252	254	253	254	253	253	252	254	253	256	257	257	261	262	262	261	259	257	257	257	256	257	258	257	256	257	257	258	259	252	251	251	256	255	255	253	253	251	255	260	261	255	255	255	255	255	256	255	255	253	253	253	253	254	254	258	261	261	258	255	256	257	259	259	258	257	251	254	256	258	257	256	256	254	255	255	258	258	255	255	255	256	256	257	257	257	256	254	253	251	250	249	248	247	249	252	254	254	252	251	250	249	251	253	255	255	256	257	257	257	256	256	255	253	253	252	252	254	252	250	250	253	254	253	248	249	250	251	250	252	256	256	257	257	256	255	252	248	246	246	252	252	255	256	253	250	259	254	249	254	252	252	255	255	256	257	258	255	254	256	251	262	256	259	261	258	257	255	253	253	254	254	254	253	252	258	260	261	258	254	254	256	255	253	252	254	254	252	252	251	251	253	254	254	255	252	250	249	247	248	251	252	248	250	251	248	248	252	256	254	254	259	259	255	252	247	252	258	259	259	255	251	252	252	253	254	254	251	254	252	252	252	254	255	255	254	253	251	256	256	252	250	249	253	254	254	254	255	256	261	256	255	256	252	252	255	249	250	251	252	254	253	254	254	254	252	253	256	259	252	255	254	252	255	256	256	255	252	256	257	254	252	252	252	250	257	254	253	254	255	257	257	257	259	259	257	255	252	252	259	256	256	255	255	255	255	255	256	257	259	257	257	257	256	253	255	254	253	250	250	249	251	252	253	252	253	254	256	256	254	253	253	255	254	254	255	255	254	254	254	253	256	258	259	259	257	252	253	254	255	256	256	258	255	252	252	251	250	252	252	252	254	256	256	255	253	252	253	251	250	252	250	251	250	250	251	249	251	252	251	246	245	247	249	251	253	258	250	250	252	252	253	253	252	254	254	250	252	252	250	248	248	248	248	248	249	252	251	252	250	248	247	249	249	252	252	252	251	253	252	251	248	245	245	246	249	248	247	253	253	251	248	248	254	255	252	252	251	248	241	240	245	248	246	247	248	247	246	246	249	248	246	250	251	252	247	248	249	249	248	245	246	248	248	248	247	249	248	248	248	249	247	250	249	248	249	251	251	249	247	245	244	245	248	247	248	247	247	248	253	253	249	249	249	249	248	247	247	247	248	248	248	248	245	248	248	248	246	246	244	244	243	243	243	246	246	249	251	250	250	251	247	246	242	244	245	244	245	247	247	249	249	246	248	245	247	247	248	249	249	251	251	250	250	249	251	250	251	252	254	252	248	249	249	248	249	247	248	248	246	245	245	243	244	248	249	249	248	249	250	250	245	245	246	250	249	245	244	246	246	245	241	241	240	242	247	248	247	247	0	0	0	0	0	0
256	256	264	262	256	257	257	256	255	253	251	251	251	253	253	254	254	255	254	254	256	257	257	258	249	250	253	256	256	257	257	256	255	252	254	254	251	254	255	255	256	249	249	251	250	252	253	253	253	252	252	252	255	253	252	254	257	259	261	261	260	254	254	255	254	255	255	256	255	256	253	253	251	252	246	249	250	250	252	252	250	250	250	251	254	250	252	252	253	255	255	255	253	252	251	251	252	253	255	255	255	254	255	255	255	254	254	256	257	257	255	249	253	253	254	254	254	254	253	253	253	253	252	256	254	254	249	249	251	254	253	253	252	251	251	250	248	248	247	249	250	250	250	250	251	250	249	249	252	252	252	251	254	256	249	246	247	252	251	251	252	246	246	247	248	250	252	253	251	249	249	249	252	251	250	252	252	251	249	254	251	253	246	245	246	249	253	249	251	249	251	259	254	248	252	249	251	251	251	252	253	248	249	249	247	248	249	253	256	258	247	249	249	250	251	253	252	252	255	253	255	254	259	257	252	252	252	257	258	251	250	249	250	249	251	251	251	253	254	254	250	250	249	250	251	252	248	247	246	248	247	246	247	249	249	249	253	253	254	250	253	253	252	255	250	255	254	250	250	251	251	252	253	253	252	250	251	252	254	256	254	253	251	250	250	250	249	251	251	251	253	253	254	251	251	252	250	249	249	251	250	249	249	251	252	252	253	247	247	248	247	247	252	248	249	247	250	250	250	252	252	249	252	255	252	251	247	251	251	249	248	254	253	253	255	254	257	255	253	253	253	253	251	252	259	257	255	254	254	255	255	254	254	253	253	254	255	255	253	251	250	251	254	253	251	249	247	248	251	253	253	254	254	253	251	251	252	252	252	254	252	252	252	252	252	250	253	256	257	257	251	251	248	252	251	246	247	248	254	254	252	251	249	249	250	253	254	252	253	252	252	251	252	250	250	251	250	251	251	250	249	250	251	250	251	251	249	248	248	249	248	248	246	246	248	251	252	252	251	249	249	250	249	250	249	248	248	248	247	248	248	245	244	254	255	253	248	244	245	249	249	249	254	249	248	248	246	245	245	247	247	246	246	252	250	250	241	252	250	250	245	245	246	249	246	246	247	244	246	246	248	246	245	244	246	243	244	244	245	247	247	245	247	246	245	241	242	243	245	246	246	247	246	247	246	244	245	246	248	247	247	246	246	247	248	242	240	242	247	248	248	245	244	248	249	249	245	246	246	247	246	244	245	245	247	245	244	243	242	248	248	247	245	243	242	242	242	242	242	245	245	248	248	249	248	248	244	244	241	243	244	244	244	244	243	246	248	245	245	243	245	245	245	244	244	245	246	247	249	248	247	242	242	251	253	252	250	250	246	245	245	245	248	247	246	246	246	245	243	244	246	248	248	246	248	248	249	249	250	248	247	244	242	239	242	242	239	239	239	241	243	245	246	246	0	0	0	0	0	0
251	260	260	263	259	252	252	250	252	252	248	248	248	249	248	249	250	250	250	247	246	249	249	251	249	249	251	255	255	255	254	253	253	250	247	247	250	253	255	255	255	249	249	248	249	249	256	256	251	251	251	253	253	253	251	252	254	256	258	255	255	252	253	253	252	251	251	252	252	251	249	245	245	246	248	249	249	249	251	250	250	250	250	250	251	250	250	253	253	254	253	253	251	249	249	246	252	253	251	253	252	248	249	249	250	250	249	252	253	256	254	250	251	250	250	253	254	253	251	251	251	250	248	247	246	247	249	250	250	252	253	253	252	252	248	245	244	243	246	248	248	249	250	251	252	253	251	248	248	246	244	243	245	248	247	245	243	248	249	249	245	244	248	249	249	248	249	249	249	247	247	248	251	248	247	247	248	247	249	249	247	249	248	246	248	251	252	252	251	251	253	254	253	249	249	249	251	250	250	252	252	249	247	248	248	249	249	249	249	249	251	250	252	250	251	251	250	249	252	251	251	252	253	253	251	250	251	257	256	251	249	249	249	249	248	249	249	250	253	251	249	248	248	250	251	251	246	244	244	246	248	251	245	245	246	246	247	247	251	252	253	253	248	251	251	248	253	250	248	248	249	248	250	248	245	246	248	251	252	251	250	250	251	249	248	249	249	250	249	250	251	252	249	248	249	249	248	249	251	248	250	250	250	249	248	250	249	247	244	244	244	245	247	250	249	248	251	252	254	252	251	247	250	250	248	248	246	244	243	241	247	246	246	247	248	248	248	247	246	247	249	250	249	248	247	248	246	251	251	250	249	246	246	249	248	247	249	252	252	248	247	250	252	253	251	246	243	247	248	251	251	254	252	251	248	250	250	252	252	250	248	249	249	251	250	250	251	248	249	249	250	247	248	250	249	249	247	248	248	254	254	249	248	243	243	246	248	249	250	246	246	251	250	250	250	250	250	249	249	249	250	247	248	249	250	252	249	246	246	244	243	241	246	245	248	249	250	249	247	248	247	248	249	247	247	249	250	250	247	247	248	247	247	248	247	247	248	245	244	247	247	250	248	248	248	248	247	247	248	248	248	245	245	245	246	246	246	242	242	247	244	240	242	244	249	247	245	244	247	249	246	245	245	245	242	241	242	242	244	243	244	243	243	247	245	242	241	240	242	245	246	246	245	244	246	244	243	246	245	247	247	245	244	248	245	242	241	241	244	247	246	245	244	246	247	247	246	244	244	243	242	243	243	243	242	242	242	242	242	242	247	245	244	241	242	241	240	241	242	242	242	242	245	246	248	246	245	241	240	239	243	244	240	240	243	245	246	245	244	246	245	245	244	243	244	244	244	246	246	242	242	241	240	246	248	247	247	246	245	244	243	242	244	243	242	243	242	247	243	243	244	244	240	240	240	241	244	246	248	248	245	244	241	240	239	238	238	239	240	239	241	243	244	246	0	0	0	0	0	0
