403	403	404	400	397	398	398	400	399	397	397	397	398	400	403	401	396	396	400	406	408	406	404	402	402	402	400	396	392	390	389	389	391	395	399	403	406	408	409	409	406	398	398	399	401	402	401	401	401	399	398	399	401	400	401	400	399	398	398	399	399	396	391	386	390	394	401	402	400	400	398	398	399	396	391	391	393	394	394	393	386	388	388	386	385	386	389	391	392	393	393	394	398	397	394	391	390	389	390	390	393	395	395	397	397	389	387	380	379	379	380	382	388	393	396	395	393	394	391	390	392	392	391	389	385	381	380	390	394	394	392	397	401	401	394	391	384	383	384	387	389	390	390	390	391	389	388	380	379	379	392	393	393	391	389	382	379	380	384	389	387	387	382	376	376	378	380	379	376	377	379	377	377	381	385	387	385	384	382	379	377	376	378	377	380	375	372	373	373	374	381	383	385	382	378	375	379	380	381	382	385	385	381	379	375	375	375	378	376	378	378	379	376	374	376	377	376	377	381	381	382	379	379	381	380	378	379	382	382	380	381	379	383	384	375	373	378	378	374	374	371	370	373	377	380	378	375	369	373	373	374	375	382	385	387	382	376	375	380	382	376	376	379	379	379	382	383	377	375	374	373	375	374	372	366	368	367	373	376	377	379	381	382	382	382	381	378	377	376	377	377	375	375	374	368	365	366	371	373	375	369	369	375	380	378	374	374	374	376	371	378	377	377	374	372	370	371	373	374	370	366	367	364	364	369	375	375	372	372	369	365	360	359	360	361	360	362	365	368	367	364	365	373	373	373	368	364	362	362	360	365	370	370	369	367	366	363	363	365	367	367	369	368	366	363	361	365	365	356	362	361	360	360	362	362	362	362	363	368	366	365	364	366	367	368	365	362	359	360	354	358	358	362	363	360	360	355	359	357	359	362	361	366	366	364	357	359	361	358	360	360	360	358	356	356	355	357	360	361	362	359	360	359	357	356	357	359	362	363	360	359	359	354	355	357	357	358	357	354	354	353	354	355	356	356	352	348	350	351	352	353	352	356	354	350	350	352	352	355	351	349	346	346	346	345	349	348	348	348	347	346	344	350	352	355	354	353	352	349	349	351	351	348	348	349	349	347	342	342	343	343	343	346	349	346	345	344	341	339	339	340	341	344	343	342	340	344	344	338	340	342	343	343	345	345	345	344	342	340	343	347	347	344	342	343	342	340	338	336	338	340	343	343	339	338	337	336	333	338	336	336	334	338	341	342	339	333	328	327	329	338	341	345	343	340	339	338	339	340	343	344	345	344	345	341	332	335	337	333	339	339	340	341	339	337	337	338	331	331	328	330	331	330	331	334	338	338	333	333	333	332	335	331	331	331	334	338	337	332	326	325	328	335	335	331	328	326	326	325	329	332	335	335	334	332	327	325	328	328	326	324	323	325	327	325	325	325	327	327	328	324	323	0	0	0	0	0	0	0	0
397	397	398	395	396	397	397	397	395	394	391	392	392	394	393	391	392	392	394	399	403	402	401	400	400	399	397	396	393	388	385	385	384	389	394	399	402	402	400	400	396	394	395	394	394	395	397	397	398	398	397	397	396	396	398	397	396	397	397	396	396	393	387	386	387	390	394	396	395	397	401	403	404	401	393	384	382	379	379	379	381	384	382	380	378	377	378	379	380	382	382	385	383	380	380	383	385	387	386	386	390	389	388	387	382	377	377	371	368	368	373	381	385	388	388	388	387	384	386	388	386	386	386	386	380	378	377	379	380	381	382	386	391	390	388	383	381	381	383	384	382	382	385	387	387	385	379	378	376	381	384	386	384	382	375	377	381	381	379	378	376	374	374	374	373	376	378	378	371	371	370	370	367	370	374	381	382	380	378	375	372	370	367	368	371	370	367	365	364	367	375	376	375	377	371	367	368	375	377	379	380	378	377	377	375	373	372	375	376	374	374	372	372	372	373	373	370	369	368	366	369	373	375	375	376	376	378	378	377	378	375	373	371	368	367	367	373	374	373	369	370	370	369	374	378	376	373	368	367	370	373	375	383	379	380	377	372	370	369	368	373	374	377	378	379	377	377	375	371	369	371	373	373	372	368	368	366	368	374	376	377	379	378	377	376	374	373	372	373	369	371	371	370	367	366	365	366	366	359	361	360	359	365	365	366	367	372	370	366	366	365	369	371	368	367	366	368	366	362	362	363	362	362	364	364	365	367	368	363	361	361	360	357	359	360	363	365	360	361	362	361	361	365	367	366	366	360	358	359	360	362	365	365	365	363	362	360	360	364	364	365	366	369	367	364	362	363	352	357	357	358	357	358	358	361	360	361	362	361	363	361	360	362	363	363	361	357	354	353	353	353	355	356	358	352	352	350	354	358	359	358	359	361	361	352	352	355	356	357	359	359	358	357	353	352	355	358	359	359	355	356	357	358	358	357	358	360	359	357	357	346	345	353	354	356	358	358	356	353	355	355	352	350	353	345	342	341	330	349	352	350	349	345	346	347	346	351	357	356	353	348	345	347	343	343	346	349	349	349	348	348	345	349	352	354	353	352	351	348	349	349	347	346	346	347	340	339	340	342	340	339	339	339	344	339	333	333	334	337	340	341	340	340	340	340	339	336	334	338	339	340	340	341	342	341	343	341	338	335	336	339	345	342	341	339	337	338	336	336	335	339	340	339	337	336	336	335	333	334	340	340	337	335	336	339	334	330	327	327	330	331	333	333	340	339	336	334	335	337	340	341	342	342	338	336	331	334	337	336	329	328	329	332	335	335	336	332	329	326	324	324	327	330	331	332	332	331	326	323	324	325	327	326	328	328	330	333	333	326	325	323	323	324	326	329	326	326	326	327	329	331	332	332	330	333	329	325	323	323	322	320	320	321	323	324	326	326	326	326	322	321	319	0	0	0	0	0	0	0	0
390	390	392	391	395	397	397	394	391	388	388	387	387	387	388	389	388	388	388	390	391	390	393	393	393	393	394	394	392	385	380	380	380	384	391	393	396	395	392	392	392	392	394	394	395	394	396	397	398	398	396	392	393	393	394	392	392	393	392	392	387	387	384	384	385	385	383	385	386	386	385	383	383	376	376	379	377	374	374	374	377	379	378	377	377	377	375	377	378	383	383	378	374	373	375	375	375	373	366	369	376	382	385	382	382	377	372	370	368	368	372	379	384	386	386	385	383	379	381	384	386	384	380	376	373	373	372	372	373	377	378	382	380	379	378	378	376	372	373	373	376	378	380	383	384	381	371	370	373	379	381	381	377	368	370	374	378	378	374	373	372	370	372	371	373	375	377	375	367	366	364	363	364	367	370	374	374	373	371	369	370	367	365	365	367	366	365	364	365	365	365	372	370	365	363	364	364	369	374	375	373	373	373	373	375	372	372	373	375	374	374	374	372	372	373	371	369	366	365	363	367	370	373	373	371	372	371	368	367	370	376	373	367	366	367	367	372	373	371	367	366	366	368	371	376	375	373	371	370	366	364	363	373	376	376	375	372	370	365	362	364	373	376	376	373	376	375	373	370	368	367	370	371	370	369	365	363	363	363	365	367	366	364	370	369	364	360	359	358	360	365	365	363	364	365	364	367	365	356	360	361	359	358	358	359	362	363	364	363	363	362	363	364	363	365	362	358	359	362	360	360	362	361	362	361	359	361	362	359	358	357	360	361	360	364	365	360	356	357	360	360	359	358	364	360	354	353	351	348	348	350	355	358	355	359	358	356	356	360	361	360	359	358	353	349	352	350	350	351	353	353	354	355	358	358	358	358	360	361	359	356	356	358	360	350	349	354	353	352	356	354	356	356	352	352	351	351	350	356	352	353	355	355	359	352	351	353	357	357	356	355	356	355	350	351	352	358	361	356	354	352	353	354	354	355	357	357	352	347	350	344	344	345	352	350	346	344	345	350	352	348	349	347	341	338	337	330	337	326	335	339	343	340	340	336	337	344	346	350	349	344	339	340	342	343	346	347	348	346	347	347	345	345	341	344	344	345	345	346	346	345	345	338	339	339	337	337	338	337	336	336	335	335	335	330	328	331	330	331	334	338	338	338	337	340	338	336	332	334	337	338	338	337	338	338	339	337	334	331	331	334	338	339	335	333	329	326	325	324	333	333	334	333	332	333	332	332	331	332	334	335	332	332	331	334	331	328	326	325	329	330	331	331	332	336	334	326	328	332	336	337	338	337	336	331	329	332	333	333	329	329	330	332	333	333	334	332	328	327	325	324	324	326	324	319	314	314	319	321	321	320	322	325	324	323	323	327	329	328	326	324	324	324	323	328	328	328	327	326	328	329	329	327	328	326	325	322	321	320	318	316	316	316	317	317	320	320	319	320	321	319	317	0	0	0	0	0	0	0	0
388	388	391	391	393	392	392	390	386	384	385	384	384	384	384	383	381	381	381	377	377	378	382	384	384	386	389	391	388	381	375	375	375	380	386	388	388	387	386	385	385	387	391	393	392	391	387	381	386	386	389	390	391	391	379	375	375	377	379	379	375	375	373	373	373	373	375	377	379	381	381	379	369	367	369	372	373	374	376	376	375	375	373	375	374	373	376	382	385	386	385	383	377	373	374	375	375	368	362	363	363	367	373	376	378	379	373	368	367	369	370	376	379	383	383	380	378	376	377	380	380	375	376	375	375	374	372	369	368	371	373	371	369	369	369	369	365	364	365	369	372	372	372	372	372	372	370	370	371	373	375	368	364	364	366	369	371	372	365	360	361	365	370	372	372	373	374	373	370	362	360	361	362	363	362	365	363	364	364	367	366	366	366	364	364	366	365	365	364	362	362	360	364	359	356	356	358	364	370	372	371	359	358	361	362	361	360	363	366	369	370	369	369	366	362	365	366	366	363	361	361	367	371	370	370	369	360	363	363	362	362	362	369	367	367	366	367	367	364	360	357	355	356	359	363	365	366	366	367	367	363	362	364	365	373	375	369	366	358	358	361	365	367	370	371	368	368	368	369	367	367	368	370	370	365	361	361	362	362	365	367	366	363	360	361	362	362	361	359	360	361	360	360	362	364	365	365	356	357	360	358	357	357	357	359	360	358	359	360	360	361	359	359	360	359	351	349	355	356	359	360	362	360	357	354	355	357	357	348	355	354	357	360	360	360	358	354	350	348	354	356	355	353	352	352	350	351	349	348	346	346	349	348	345	350	352	354	354	350	349	348	347	346	345	348	350	351	349	349	348	347	350	350	353	355	352	352	354	355	354	351	353	355	351	349	350	352	354	352	356	350	349	349	348	350	350	350	347	343	352	350	349	347	343	346	346	345	348	350	353	350	350	350	346	345	345	351	348	350	356	346	346	349	348	349	349	334	338	343	340	340	339	338	339	338	339	336	342	344	345	345	345	342	342	340	331	327	337	325	334	339	343	342	338	336	332	330	336	339	340	338	338	340	341	341	342	343	344	343	341	339	338	338	337	338	332	328	331	339	340	332	332	334	338	336	336	336	337	337	334	333	332	334	331	328	327	327	330	334	333	334	334	335	333	331	334	332	331	331	332	333	334	335	334	335	333	327	324	323	329	331	333	332	329	328	329	329	327	328	330	330	329	328	328	327	327	326	325	328	331	328	325	324	327	330	331	326	323	323	325	327	327	329	331	333	325	322	323	328	331	331	331	330	332	327	322	325	326	328	329	329	331	331	331	334	334	332	332	329	327	325	324	323	321	319	319	319	319	320	320	320	319	319	318	319	322	324	323	322	321	320	318	320	318	314	314	313	315	319	324	324	322	321	320	318	315	315	316	316	316	315	316	316	316	316	316	314	315	317	317	317	316	0	0	0	0	0	0	0	0
389	389	389	387	388	386	378	378	375	374	375	380	380	381	379	380	374	371	371	368	366	370	375	378	381	381	385	386	382	376	372	372	372	377	381	382	378	372	373	377	377	377	379	382	383	379	372	366	370	370	378	383	383	379	377	373	372	372	372	376	374	374	372	374	374	375	369	370	372	373	371	368	366	368	371	371	370	369	369	369	369	369	369	370	369	371	369	371	372	371	369	370	370	374	376	374	372	365	362	361	361	363	368	371	374	378	376	369	366	368	370	372	373	373	372	372	369	370	374	376	370	367	371	372	374	373	372	370	366	367	366	366	367	369	367	363	361	360	362	365	365	364	365	365	367	368	369	370	372	373	372	364	361	363	363	362	359	355	355	354	358	362	367	369	368	367	367	363	362	357	357	356	355	355	355	357	358	360	362	362	366	365	367	366	364	365	365	365	363	360	359	357	355	355	354	354	356	362	368	368	369	360	359	362	361	356	357	360	363	363	366	365	364	358	359	358	360	364	362	360	360	359	361	363	364	363	356	358	359	359	359	358	360	358	357	355	358	360	356	354	351	350	350	352	356	359	358	354	356	360	363	364	369	368	365	360	359	357	354	355	356	360	363	361	361	361	357	358	362	364	365	367	370	366	360	358	359	361	364	365	353	352	356	355	358	361	361	361	360	358	358	360	364	359	359	359	359	357	357	358	355	353	353	354	355	354	354	358	357	358	357	353	356	355	354	351	352	351	351	357	362	360	358	355	351	351	351	346	347	347	348	353	355	349	350	351	350	349	347	348	350	349	348	346	346	347	347	347	346	346	344	344	344	345	346	347	345	345	347	348	347	347	345	344	344	348	348	347	347	346	346	342	340	344	348	347	347	349	349	349	347	350	351	351	349	348	348	348	345	352	350	344	338	338	343	343	342	340	339	336	340	341	341	342	342	342	342	343	348	348	349	348	347	345	342	339	339	342	347	345	339	335	334	334	332	331	331	335	338	337	336	334	331	332	335	332	334	335	335	331	338	339	339	341	338	331	335	333	341	334	332	332	338	339	335	331	327	333	336	338	336	335	329	337	339	338	337	338	338	336	333	332	332	333	330	327	326	326	327	330	333	328	328	333	332	332	334	336	334	329	330	330	329	330	326	325	326	327	333	330	330	332	332	328	325	323	326	325	325	327	328	329	332	331	330	327	324	322	321	323	328	330	327	321	320	321	323	323	324	324	324	323	323	326	325	322	321	321	324	326	317	318	319	319	326	327	328	329	329	328	326	324	327	328	323	320	320	319	318	320	322	323	324	328	326	320	323	321	322	323	324	327	329	330	330	327	325	325	325	326	325	322	321	321	320	321	321	321	320	319	316	316	316	317	317	318	320	323	320	318	316	315	316	316	316	316	309	309	315	318	320	318	317	316	316	310	307	311	310	310	312	315	315	316	315	315	309	310	311	314	314	316	0	0	0	0	0	0	0	0
384	383	383	380	377	374	370	370	370	371	370	371	371	372	372	374	369	366	366	362	365	368	373	377	376	376	378	380	380	380	378	376	376	376	374	371	368	365	368	369	369	371	368	366	363	361	361	365	367	367	371	374	380	382	375	371	366	363	362	362	367	367	368	369	371	370	367	359	359	364	361	361	359	359	361	362	363	365	365	367	367	368	368	368	368	365	365	366	367	366	364	362	363	365	367	369	366	362	361	360	359	361	363	368	372	375	374	368	363	362	365	365	367	366	365	364	364	367	370	368	363	363	361	366	372	372	370	367	359	360	360	361	363	366	356	357	359	359	360	361	358	359	360	361	363	365	366	371	371	372	368	361	361	361	361	361	357	353	351	351	356	363	362	358	355	356	357	355	353	355	355	355	353	354	354	355	355	354	353	356	360	366	367	367	363	363	361	360	361	359	356	354	355	355	356	356	353	355	355	356	354	352	352	361	360	359	354	354	356	358	354	360	359	359	355	355	355	361	361	357	357	355	355	354	352	351	351	353	354	355	354	349	350	350	348	348	351	351	353	352	354	354	352	351	352	351	350	349	352	352	354	354	362	363	362	360	354	352	352	351	351	349	350	351	350	346	344	351	350	356	360	364	363	355	353	353	357	360	363	351	346	345	352	353	354	356	360	358	356	356	354	355	355	356	352	353	352	353	352	352	355	353	353	352	353	349	347	347	349	352	351	351	354	354	353	354	356	357	357	359	354	353	351	346	345	345	343	345	347	348	345	342	343	344	345	347	345	343	343	345	346	346	345	345	345	344	349	349	348	343	341	342	342	343	344	343	340	342	343	345	345	345	343	341	340	343	343	345	346	346	339	337	341	345	346	344	343	345	345	344	342	343	346	347	344	344	342	340	338	340	340	339	339	340	343	345	341	336	335	337	334	338	340	340	342	343	341	341	340	340	344	345	342	343	343	337	334	338	342	346	343	336	328	328	328	333	334	335	334	333	333	330	329	329	332	333	331	333	333	329	330	335	336	336	333	330	332	332	329	331	330	329	329	329	328	327	328	330	328	329	333	326	332	332	333	333	332	330	329	328	328	329	327	329	329	324	325	319	319	323	325	326	323	322	325	327	330	328	325	325	325	329	327	327	326	323	324	321	328	326	327	328	329	326	321	318	321	321	321	324	323	324	324	325	324	321	321	319	320	322	325	327	324	320	318	321	321	324	323	323	321	321	321	325	325	323	320	317	314	315	321	321	319	319	320	321	324	327	326	325	321	318	318	320	319	316	315	317	316	317	317	317	319	320	321	321	321	319	318	319	320	322	325	325	325	323	319	311	309	315	320	321	321	320	320	321	320	319	319	317	317	314	315	315	317	314	315	315	311	312	312	313	314	314	313	313	308	309	309	314	315	314	315	314	310	307	305	302	304	305	310	314	315	314	313	313	307	304	306	310	313	313	0	0	0	0	0	0	0	0
371	370	370	369	367	367	362	362	363	362	362	362	362	365	367	366	366	364	364	364	365	367	370	367	367	367	363	364	371	375	378	375	375	371	370	368	367	370	370	369	369	368	366	364	362	362	365	366	368	372	372	375	375	370	367	363	365	365	365	362	364	365	365	365	367	365	364	361	360	361	361	362	361	359	356	357	359	361	363	366	366	367	366	364	362	361	359	358	357	360	359	359	359	361	364	363	361	359	359	359	357	358	361	363	367	369	368	365	360	358	355	360	361	363	361	360	360	354	354	359	353	356	358	364	368	367	366	363	358	357	357	357	356	355	355	356	356	356	356	351	350	352	357	358	361	357	359	364	368	369	363	357	355	354	354	351	351	351	351	352	357	357	356	354	352	348	345	344	349	351	353	352	353	353	353	354	350	348	351	352	357	361	364	361	356	350	352	354	359	356	353	352	350	346	346	350	352	349	349	351	352	348	349	349	350	355	350	349	351	353	353	351	355	356	354	354	355	357	358	351	351	354	353	350	346	342	347	347	349	349	347	347	349	350	349	348	348	348	346	348	350	350	350	348	344	346	348	347	348	350	353	349	351	352	351	351	351	351	351	354	344	350	347	348	348	345	344	343	343	341	340	344	352	354	354	351	351	357	348	343	341	341	344	348	351	352	356	354	352	350	350	349	349	348	348	347	350	349	348	347	349	354	354	355	352	349	345	346	347	351	352	356	353	354	354	357	359	366	357	355	350	345	342	344	339	340	338	340	345	348	349	348	343	344	343	341	338	338	340	342	344	346	344	342	341	345	346	348	348	342	338	336	337	336	337	338	339	341	342	342	339	338	340	339	338	337	340	342	345	343	340	340	341	341	341	340	331	338	340	340	339	340	340	339	340	336	338	334	333	338	339	338	338	339	342	344	338	334	334	333	331	335	337	337	341	340	340	339	338	337	335	336	341	342	341	339	334	335	340	333	334	335	332	329	328	329	329	329	330	330	329	328	328	328	329	328	329	329	327	325	326	331	324	328	329	323	323	324	327	329	330	326	324	325	325	325	326	324	322	325	326	323	322	325	328	328	327	328	329	325	322	321	321	321	322	322	320	318	318	322	323	321	318	318	320	323	321	320	319	318	317	326	323	323	323	324	323	318	315	313	323	324	325	327	322	319	320	319	318	320	321	319	317	319	319	318	319	319	319	319	320	320	320	316	316	317	320	321	323	319	318	317	320	320	321	326	322	318	315	316	320	320	319	319	315	314	316	316	317	318	317	314	311	306	306	307	310	311	313	314	315	316	321	319	320	318	317	314	310	306	315	316	319	324	319	316	307	306	309	314	320	319	320	319	319	319	320	319	317	314	311	307	309	309	311	310	308	308	308	309	310	311	312	314	314	308	307	309	308	309	309	309	311	310	308	306	305	301	304	303	309	313	314	314	314	310	307	302	300	304	310	308	0	0	0	0	0	0	0	0
361	360	360	362	361	361	360	360	356	353	351	352	356	356	364	364	366	372	372	372	371	369	367	365	362	362	358	362	368	372	372	372	372	370	369	368	370	370	368	367	367	366	364	362	362	363	366	368	368	372	371	363	352	350	352	356	363	364	365	366	366	368	368	363	361	358	359	357	359	360	361	360	360	359	355	356	358	360	359	358	357	357	360	362	361	360	359	358	356	353	355	357	357	357	359	360	359	358	358	357	357	355	356	359	363	365	365	364	360	358	358	357	357	357	356	354	351	349	350	349	349	351	357	362	366	366	365	362	356	355	355	354	354	354	355	356	351	349	347	343	341	340	342	348	353	356	357	358	356	353	351	350	351	351	351	351	350	351	353	353	354	353	353	349	346	345	342	342	341	345	348	348	351	350	350	352	346	346	348	351	352	359	355	352	350	346	347	347	351	352	349	347	340	337	339	346	347	346	347	345	346	345	346	345	345	344	345	348	350	351	351	350	350	351	353	351	350	349	348	349	346	347	345	342	339	340	344	342	342	342	342	344	346	349	349	347	347	345	343	341	344	346	347	344	343	344	345	346	344	344	348	345	345	346	346	345	346	347	345	341	340	339	342	346	346	348	345	342	342	342	342	343	345	348	352	348	347	349	347	340	338	336	339	346	346	346	348	346	346	347	346	345	344	345	344	342	345	350	351	351	348	353	354	355	355	350	345	344	345	346	353	360	358	357	359	350	347	349	352	353	349	343	338	336	338	337	338	338	341	344	346	347	346	343	339	338	338	337	336	334	335	339	342	340	340	342	342	342	340	339	334	333	332	330	330	332	335	338	338	337	337	333	332	331	329	332	334	337	341	342	341	336	334	338	335	327	327	332	335	334	331	333	335	334	332	332	329	327	327	338	338	338	336	340	343	342	338	335	332	330	333	334	334	334	335	335	330	328	329	329	331	332	334	341	341	332	332	327	325	329	333	333	332	329	331	331	327	328	330	328	329	326	325	326	325	327	328	327	327	324	324	323	323	323	324	321	322	324	326	327	326	324	321	322	323	324	324	321	314	322	323	321	321	322	325	325	327	326	326	322	318	316	316	316	318	320	320	317	318	319	320	320	318	317	318	317	319	316	315	312	311	312	320	320	319	322	320	316	313	311	319	321	318	318	318	320	320	317	316	315	316	315	315	315	314	317	317	316	313	317	317	311	307	311	312	313	314	314	320	317	317	315	311	314	319	320	320	318	316	317	318	318	312	313	313	311	307	306	305	303	303	303	302	302	303	304	307	309	307	308	307	310	308	306	303	312	314	312	311	310	308	308	308	309	310	304	304	306	306	314	308	309	310	311	310	314	317	316	313	308	304	303	306	308	308	308	306	305	306	306	307	307	307	306	306	305	305	305	305	305	303	303	307	308	307	304	303	301	301	307	309	313	313	308	308	307	306	304	300	301	302	302	0	0	0	0	0	0	0	0
354	351	351	359	359	358	358	358	355	350	347	349	358	358	362	364	369	371	371	371	369	367	365	362	358	358	355	356	360	364	360	359	362	362	362	365	367	367	365	363	363	363	361	360	363	365	365	370	371	371	356	351	347	348	353	360	362	363	364	365	364	365	365	361	359	356	355	355	357	359	359	357	356	356	354	355	356	355	353	352	353	353	355	358	359	358	356	356	355	352	348	347	349	354	356	358	357	357	359	359	358	356	353	353	352	354	356	362	360	361	360	357	355	356	360	361	362	354	349	348	345	342	348	352	356	356	359	356	346	345	354	354	354	354	354	352	350	350	347	344	341	341	342	343	343	345	350	350	348	344	341	341	347	351	351	350	347	347	347	348	348	348	346	345	345	344	341	341	335	343	345	346	345	345	345	349	345	344	344	346	345	343	343	340	340	345	342	337	338	340	338	338	334	336	342	343	344	341	339	339	343	343	343	343	342	338	340	342	343	342	347	346	346	343	341	341	338	339	343	345	343	342	343	341	339	340	343	340	338	336	340	341	344	344	344	346	343	343	341	337	337	341	343	343	341	341	342	342	340	339	341	345	344	344	342	342	340	340	340	338	337	340	341	338	340	345	344	343	338	335	336	338	341	341	342	342	343	340	336	333	333	331	328	338	342	346	347	344	343	344	342	343	342	343	342	342	345	350	349	349	347	346	350	347	346	341	339	340	339	344	346	353	357	357	342	341	342	341	343	343	346	342	337	334	335	337	336	337	338	341	343	344	343	341	334	333	334	335	333	331	329	329	336	336	336	336	335	336	331	333	334	332	330	330	332	329	325	326	329	331	332	332	334	334	332	330	329	330	338	336	332	331	330	329	326	323	323	328	332	328	325	325	331	333	334	333	330	328	328	330	332	335	334	332	331	328	326	326	328	328	329	331	330	328	328	328	328	324	326	326	326	327	326	326	327	321	322	322	323	327	330	329	326	328	327	328	321	320	320	325	326	325	324	321	322	322	324	324	321	321	321	316	324	327	324	320	320	322	325	326	325	323	321	320	320	322	323	318	315	315	323	320	320	321	320	320	323	324	315	313	309	310	317	318	317	315	313	312	315	317	317	317	315	315	316	316	314	308	307	307	310	319	312	310	306	306	308	308	305	305	305	308	310	314	314	314	314	303	302	301	308	311	312	307	306	310	311	307	303	307	303	301	307	309	309	310	309	314	316	317	313	311	312	312	315	318	317	316	316	316	310	308	309	309	309	306	304	303	304	302	302	301	300	301	301	303	304	308	305	305	301	299	296	297	306	307	305	306	308	309	306	306	312	312	307	304	301	302	303	304	301	300	304	305	301	302	303	302	303	303	300	298	301	305	306	305	303	302	303	302	301	300	299	299	298	300	302	302	301	300	299	301	303	306	305	300	298	297	301	307	310	311	309	304	304	304	304	303	302	300	299	301	0	0	0	0	0	0	0	0
342	352	352	351	351	351	354	358	358	359	358	357	357	357	358	364	366	364	368	368	368	365	363	359	354	352	352	354	355	356	355	356	357	357	360	362	363	361	357	351	354	354	357	358	360	363	367	370	365	352	347	347	345	346	355	359	360	355	355	359	360	358	357	357	356	354	352	352	351	354	355	354	354	353	351	352	353	352	352	351	351	352	352	352	353	348	347	349	349	349	349	347	350	351	353	353	352	354	357	355	355	353	351	350	352	354	354	355	359	359	357	354	349	349	349	347	345	345	345	345	343	343	346	348	347	345	347	345	342	341	340	343	345	349	350	353	352	352	345	348	345	343	343	343	342	341	342	343	345	344	345	348	348	347	338	339	340	343	343	345	345	344	343	341	339	338	334	332	335	336	342	342	343	341	336	333	336	346	346	344	341	337	335	335	337	342	333	333	335	337	339	336	336	335	333	331	332	335	336	336	335	335	331	331	327	334	334	331	330	331	340	339	338	337	337	339	337	331	334	340	344	341	341	340	340	335	334	331	334	335	336	339	340	341	339	341	343	340	339	335	336	337	340	340	334	335	337	338	340	338	341	342	345	343	341	337	339	338	331	331	332	333	333	333	335	339	338	336	332	334	334	336	337	337	334	336	337	335	333	332	334	334	334	334	334	335	344	340	343	338	335	338	341	341	340	342	343	343	339	339	340	342	340	337	335	336	336	336	338	338	337	337	340	338	337	337	337	338	338	338	338	339	336	335	336	337	337	336	337	338	339	340	339	338	331	331	330	328	328	328	328	327	327	326	328	330	329	333	330	329	329	335	334	333	328	323	323	323	322	326	327	327	329	333	334	331	331	328	329	333	329	327	326	326	325	323	321	323	328	325	324	324	325	327	328	331	331	328	328	328	330	323	321	320	320	321	322	324	324	326	322	324	326	329	327	325	324	322	320	319	323	322	322	317	317	318	320	321	323	326	327	324	323	322	323	324	321	317	319	321	327	324	322	318	318	317	318	319	318	319	321	313	317	315	314	314	316	320	324	326	322	321	320	318	318	320	321	317	315	312	320	321	317	315	309	313	312	311	310	309	309	309	310	311	310	310	309	310	310	309	309	309	311	313	311	310	310	308	306	305	306	309	309	307	305	302	303	306	308	308	308	308	309	312	312	308	308	305	304	301	301	305	307	306	305	307	304	306	304	306	301	301	306	306	305	308	305	305	310	313	304	304	304	305	302	301	303	305	309	313	309	306	305	305	304	303	302	301	301	300	300	300	300	300	301	302	304	304	304	298	298	296	296	298	305	305	304	299	295	292	293	298	303	304	303	302	300	297	301	303	301	301	301	301	299	297	296	297	299	302	301	296	298	303	304	304	301	300	296	295	297	299	298	298	298	300	301	300	299	293	295	297	301	299	299	297	294	295	296	298	304	301	301	301	299	300	301	298	297	297	299	299	0	0	0	0	0	0	0	0
347	347	346	346	346	348	350	351	351	352	354	354	354	354	358	360	355	355	345	345	345	343	348	350	351	350	350	351	355	355	357	358	358	358	361	361	360	353	345	348	348	348	351	352	353	356	360	361	354	350	347	347	345	347	353	355	356	352	352	353	353	350	350	350	349	349	350	349	346	347	350	354	354	352	349	349	350	352	349	349	349	347	347	347	340	342	343	345	347	348	346	342	342	343	346	346	347	348	352	351	345	345	347	348	349	350	351	349	347	346	344	342	342	343	342	340	340	341	339	339	335	335	340	343	342	339	339	342	339	338	336	332	334	336	337	337	336	334	337	337	341	343	341	340	339	338	339	341	343	345	345	346	339	339	339	340	343	345	343	342	341	342	340	338	335	334	333	333	335	336	339	341	341	335	338	339	343	344	344	343	339	336	333	330	328	330	328	330	331	334	337	339	333	331	329	330	331	335	337	338	335	331	329	326	329	328	330	324	324	329	332	335	334	331	330	331	335	334	337	338	333	332	331	333	334	333	332	331	329	329	332	335	337	339	338	339	339	339	336	334	336	336	333	330	327	330	335	339	338	337	341	342	342	342	336	331	326	329	329	327	328	328	330	329	330	335	336	335	332	331	332	334	338	338	333	334	333	333	334	334	334	333	335	335	334	335	335	335	335	333	336	332	333	337	338	337	338	337	337	338	336	336	334	333	333	333	335	336	336	336	334	333	334	335	335	336	337	337	337	335	335	338	338	337	337	337	337	337	337	336	336	336	337	329	329	325	325	325	326	325	325	324	323	325	325	330	326	327	329	329	329	328	327	330	328	327	325	322	323	322	324	324	324	324	325	326	328	328	327	327	328	320	320	320	323	325	326	329	328	325	324	323	323	324	327	329	326	326	326	325	325	320	317	316	316	322	323	325	324	320	319	317	316	320	321	319	319	318	316	314	312	312	312	314	315	317	316	315	317	318	319	320	315	315	320	319	315	318	320	324	323	322	320	316	317	314	312	313	316	313	313	313	314	312	310	309	311	315	317	320	318	317	317	316	313	312	316	314	313	309	309	309	310	309	309	307	311	309	309	308	308	308	309	309	309	310	309	307	307	308	307	307	305	305	304	309	309	307	307	308	307	302	301	299	298	299	302	305	307	308	308	307	310	311	312	309	305	306	303	302	301	306	301	301	300	301	301	303	300	299	301	307	308	304	302	299	301	304	307	303	304	303	304	301	302	300	302	302	301	303	304	304	303	301	300	301	301	300	301	299	297	295	296	298	300	301	301	297	301	299	294	295	294	298	304	306	303	298	293	292	292	296	298	299	300	301	301	300	302	303	301	299	299	299	298	296	294	293	291	291	291	292	293	293	293	292	292	292	292	292	295	296	296	296	297	298	299	299	299	297	294	296	293	291	292	292	295	295	295	296	297	298	294	294	295	293	293	292	289	290	291	295	0	0	0	0	0	0	0	0
347	343	342	342	343	342	342	342	342	349	350	351	353	353	359	346	344	342	339	339	331	335	339	343	348	348	348	349	354	356	357	358	362	362	366	363	355	347	345	344	345	345	347	348	350	353	355	356	350	348	347	347	349	349	348	349	348	351	349	349	343	343	343	343	342	343	345	345	344	344	348	354	352	349	346	346	346	347	346	347	346	345	345	339	339	341	340	342	344	345	343	339	340	343	345	346	342	341	341	340	341	343	342	338	334	334	337	338	338	336	336	335	334	335	337	330	330	335	335	333	331	329	333	339	339	338	337	339	334	333	329	331	333	334	336	336	333	330	328	329	331	330	330	329	331	331	336	338	340	341	344	342	338	338	335	339	342	341	339	336	334	331	338	336	333	333	332	334	335	334	336	339	340	341	340	342	340	340	340	340	335	335	334	326	328	329	327	328	330	331	333	327	331	331	330	329	331	334	336	334	331	331	329	329	330	328	329	324	328	331	332	332	331	330	330	330	330	333	331	330	327	327	327	328	329	331	333	329	328	328	325	324	327	337	338	332	332	331	333	334	334	331	327	324	325	328	331	334	337	339	336	335	333	332	325	322	324	327	325	326	325	324	326	327	328	329	334	334	329	328	326	333	334	332	330	327	328	329	333	334	333	333	334	335	334	335	336	336	333	332	327	327	332	332	333	335	332	333	333	334	334	332	328	329	329	327	327	329	332	333	332	331	332	330	332	333	334	334	334	337	338	337	337	337	334	333	328	327	325	324	326	328	324	326	323	323	321	321	320	317	318	320	323	323	322	322	322	325	326	326	325	321	321	321	322	325	325	324	322	320	321	318	319	319	320	321	324	325	323	321	317	311	310	315	320	323	327	324	321	322	322	319	319	321	323	325	321	317	315	315	315	319	318	316	312	316	319	319	320	317	317	316	316	307	312	316	317	312	312	310	310	310	310	311	313	315	316	317	315	317	317	316	315	313	313	311	312	314	318	320	323	320	314	313	315	314	312	312	311	311	313	313	311	310	309	307	308	310	312	312	313	312	313	313	311	307	308	309	308	306	307	306	305	306	305	307	305	305	302	301	302	301	299	299	304	309	308	307	308	305	305	305	304	302	302	302	306	306	305	304	303	299	297	296	293	295	301	305	308	307	306	304	306	310	310	308	303	302	301	302	301	302	304	304	301	299	299	301	300	298	299	296	292	292	296	298	301	305	302	301	298	299	301	303	301	300	301	300	300	303	302	299	295	296	296	297	298	298	301	300	299	297	297	296	299	299	297	297	298	297	292	293	294	296	298	302	301	297	294	293	293	295	295	298	298	299	300	299	297	297	298	296	295	292	292	291	289	286	285	286	288	290	289	289	287	287	290	292	291	291	293	294	294	291	292	295	297	298	298	297	295	292	290	290	291	293	293	292	295	296	295	293	290	290	290	291	291	291	289	289	289	288	0	0	0	0	0	0	0	0
341	340	342	342	344	345	344	342	342	346	349	351	353	353	353	342	340	337	334	327	327	328	330	335	335	334	334	334	339	345	349	353	349	349	347	342	341	342	343	345	344	345	345	346	348	350	352	348	348	347	348	348	349	346	342	339	340	341	340	340	340	339	338	339	339	339	341	338	337	337	338	342	347	345	340	337	335	333	334	337	338	334	335	335	337	338	338	338	341	335	335	336	336	338	341	341	345	339	339	340	341	341	333	332	329	330	336	337	335	335	334	333	332	331	328	328	323	329	333	329	326	325	325	332	336	335	334	334	329	327	327	327	330	333	333	333	331	327	322	324	325	325	326	325	324	325	330	331	334	337	337	332	328	336	333	336	339	338	333	331	329	323	321	325	332	331	332	334	335	333	334	334	333	333	330	331	331	332	332	332	334	335	328	327	325	326	326	329	330	331	326	326	327	329	329	328	331	327	331	330	328	327	326	327	327	330	328	327	327	328	328	330	329	328	328	327	326	325	325	329	327	327	327	328	327	328	329	328	328	327	325	323	321	324	328	330	331	331	331	330	327	324	323	323	325	325	327	331	333	335	334	328	329	326	327	322	321	323	324	324	322	321	322	315	319	328	327	331	326	324	321	322	328	321	324	323	325	326	325	323	320	318	327	327	328	334	333	334	333	333	327	330	330	332	332	330	330	329	327	328	326	322	321	319	317	317	320	323	326	327	327	328	327	328	321	323	325	330	329	328	329	324	330	331	324	322	322	322	321	316	317	317	317	313	318	318	319	319	320	315	314	318	321	323	321	320	321	323	324	321	318	316	315	315	313	309	316	318	318	319	314	312	313	317	317	315	316	317	316	316	313	312	311	313	315	318	317	311	310	313	313	319	316	318	319	321	319	315	312	311	315	317	319	316	312	309	309	313	315	317	315	314	305	304	307	307	306	309	310	308	307	307	309	309	311	315	314	312	310	310	312	316	314	311	310	309	306	305	308	312	313	305	307	310	311	312	310	312	309	310	310	310	307	308	308	307	306	306	307	307	309	306	305	304	307	305	305	303	305	306	305	305	304	303	303	303	303	305	301	301	302	301	299	298	298	306	308	307	307	307	305	305	305	304	302	302	303	302	301	299	297	297	294	292	291	291	298	302	304	305	306	302	301	303	302	302	300	300	300	302	302	300	301	300	299	298	297	298	302	297	290	294	290	293	297	293	301	301	303	293	295	292	296	298	297	292	293	291	290	299	295	294	290	292	292	293	293	294	296	295	291	289	288	289	291	294	295	296	296	294	291	291	290	289	291	294	295	293	291	290	289	290	291	294	297	297	296	294	294	293	292	290	288	286	283	283	287	285	287	286	287	287	287	286	284	284	282	281	289	287	287	287	288	289	290	289	290	295	296	291	288	289	289	289	291	290	289	291	290	291	292	289	289	287	287	292	294	293	290	286	286	286	0	0	0	0	0	0	0	0
338	340	342	342	345	346	344	344	344	346	347	349	349	345	345	340	339	338	333	327	327	328	329	329	327	327	327	328	329	330	333	337	335	336	336	338	338	341	343	344	344	343	343	345	348	351	352	336	338	343	342	340	340	339	337	335	334	335	338	340	339	337	336	335	335	335	333	332	330	333	337	341	345	345	344	338	335	335	337	337	336	335	336	336	334	333	331	331	332	332	331	331	330	331	333	335	337	343	332	331	331	329	326	327	327	327	329	333	334	333	331	330	329	324	325	321	321	322	326	326	323	320	323	325	323	320	322	324	328	328	325	327	328	330	330	329	328	325	320	322	323	325	325	324	324	330	330	331	331	332	331	325	325	323	320	319	318	319	326	323	320	318	317	320	322	327	330	334	334	333	331	329	330	329	329	327	326	328	330	331	333	328	327	324	323	325	327	325	326	324	321	321	321	321	321	326	327	327	329	329	326	325	324	323	325	328	325	321	316	316	321	325	326	326	326	324	322	322	321	323	326	325	325	327	326	325	327	327	327	326	327	327	324	323	323	324	325	330	330	327	323	321	322	323	324	324	324	325	326	329	325	325	327	328	325	321	319	318	322	319	320	321	317	322	320	325	323	320	319	319	317	319	319	319	318	320	325	323	323	321	318	322	322	322	323	322	322	325	334	332	329	329	328	330	330	330	327	327	330	329	326	325	324	323	319	317	318	317	314	313	315	319	320	321	321	316	319	323	326	326	322	321	317	315	316	318	317	318	319	318	318	316	315	314	314	315	316	317	316	314	314	314	315	312	311	312	314	319	319	316	314	313	312	311	309	305	309	310	310	311	310	309	310	309	311	309	310	314	313	313	312	312	312	313	314	317	313	309	308	309	310	312	312	314	314	313	314	312	307	309	311	314	315	312	312	309	309	310	313	314	313	311	307	305	303	305	307	308	308	307	307	304	303	306	309	310	306	303	302	303	306	305	307	306	307	307	306	305	302	304	302	301	298	301	308	309	308	308	308	311	306	304	300	303	305	306	304	303	302	304	304	304	301	302	300	304	304	293	297	299	306	299	298	299	300	302	302	300	298	298	299	297	297	296	297	305	305	304	304	302	301	300	299	297	298	297	297	297	297	296	295	291	289	287	288	292	293	298	302	303	298	297	297	298	298	298	297	298	298	297	294	297	298	294	292	290	295	295	295	293	288	286	288	290	292	299	291	298	293	294	292	292	293	292	293	291	291	290	289	291	291	292	292	293	292	291	290	287	283	281	279	279	280	283	285	288	288	290	292	291	289	288	284	284	285	288	289	288	286	284	283	282	286	285	285	285	287	287	289	285	289	288	281	280	281	281	282	285	286	285	285	285	285	285	283	280	281	281	283	284	286	286	286	286	288	286	284	284	288	287	288	288	289	291	290	289	286	286	283	282	288	290	290	290	289	293	294	288	281	281	280	282	0	0	0	0	0	0	0	0
334	335	335	335	335	335	341	343	344	344	343	344	346	342	342	335	337	336	333	330	330	326	326	325	325	327	329	329	329	331	331	331	332	333	333	336	339	340	341	341	341	339	339	339	340	343	330	335	335	333	335	335	335	334	335	333	330	333	335	338	331	331	331	331	331	332	330	328	327	325	324	326	335	337	337	335	335	335	335	334	332	331	331	334	334	334	334	332	332	330	330	328	325	327	328	325	324	325	329	329	328	327	327	327	330	327	329	328	330	330	328	324	321	322	318	317	317	321	322	321	319	320	322	320	317	314	316	321	326	326	326	325	327	327	326	329	329	326	323	321	323	324	327	329	330	331	331	330	325	322	320	321	323	322	319	316	317	318	316	313	313	314	320	324	324	323	323	323	320	320	320	323	324	327	326	326	323	325	326	327	324	325	321	321	322	324	325	321	320	319	319	321	320	321	322	320	320	320	322	323	325	323	321	320	324	321	319	317	313	314	317	320	321	323	321	320	318	319	322	322	324	320	318	319	319	318	319	320	321	324	321	317	316	318	318	318	320	324	326	324	323	323	322	320	317	319	320	323	325	325	322	322	323	323	321	318	316	313	314	316	317	318	318	325	322	324	323	321	314	315	313	317	317	317	316	316	323	323	321	321	322	319	320	323	322	319	322	324	328	329	326	322	321	321	327	322	323	327	328	327	326	323	323	322	314	317	316	316	314	314	315	316	320	321	316	314	315	318	321	319	317	313	313	313	313	313	313	313	315	317	315	310	309	312	313	313	313	314	317	308	313	317	314	312	310	310	313	315	315	312	311	309	310	311	305	307	308	310	310	308	307	306	307	312	307	308	308	310	308	310	311	309	311	314	314	314	312	309	307	306	307	307	309	309	310	306	307	309	306	306	308	311	313	311	311	310	310	310	307	307	304	306	306	309	305	305	305	304	302	301	303	302	303	304	307	303	299	297	295	296	296	295	297	306	306	307	305	304	303	299	296	295	295	297	299	305	305	300	301	304	303	301	299	298	303	304	303	300	300	297	300	301	301	299	299	298	293	293	296	297	295	293	293	296	294	293	292	291	289	286	289	291	292	290	291	294	293	293	295	295	296	296	294	294	295	295	295	293	294	294	296	291	290	291	291	291	293	292	295	295	295	294	294	294	296	295	295	295	296	294	291	291	290	291	291	286	284	284	285	287	290	287	286	287	289	287	290	290	292	292	291	290	291	290	290	290	291	290	288	290	289	289	290	289	290	287	285	281	281	279	279	278	280	283	285	287	285	286	287	286	288	287	281	281	281	282	283	283	283	280	277	276	280	280	280	281	282	283	281	280	281	280	279	278	278	279	281	285	286	285	285	283	283	283	282	281	281	279	280	283	283	283	285	285	285	284	279	279	280	279	279	283	285	287	288	287	285	284	281	281	285	288	288	285	287	291	288	285	281	281	280	283	0	0	0	0	0	0	0	0
330	332	333	333	333	335	337	339	339	339	340	339	340	336	336	335	333	331	330	327	327	325	325	326	327	328	330	330	330	330	330	332	334	335	335	333	335	338	339	339	335	330	330	329	330	329	326	329	328	329	331	333	333	333	332	331	329	331	332	328	329	329	328	324	324	324	325	323	322	321	321	320	327	331	331	331	329	333	332	331	330	328	331	334	334	334	330	329	331	330	329	328	324	317	319	320	321	319	320	322	324	324	323	326	333	331	329	324	321	320	325	323	321	319	313	315	320	322	324	327	326	321	318	316	315	316	316	318	323	324	323	321	323	324	323	322	321	317	317	317	318	318	321	323	326	329	322	322	318	315	313	318	318	320	317	315	314	317	315	314	315	316	315	316	315	317	319	318	317	313	310	318	321	318	317	321	322	324	324	323	324	322	320	320	321	321	321	320	318	319	319	319	321	321	319	317	313	313	314	317	325	318	316	317	321	314	315	313	313	314	313	319	320	319	318	317	317	319	321	318	315	317	314	317	315	315	317	319	320	319	317	314	313	315	314	315	316	320	323	325	324	322	319	317	316	316	318	321	322	322	320	319	318	319	316	315	315	315	313	314	316	316	317	318	320	317	315	313	310	313	315	315	316	315	314	313	315	316	317	316	313	314	319	321	320	321	323	325	325	323	320	318	318	318	317	321	319	321	321	318	319	320	320	318	313	313	313	314	315	315	316	316	318	317	314	312	312	314	314	316	315	314	311	311	310	309	308	306	306	311	311	309	307	308	310	310	310	302	304	303	308	315	309	309	308	310	312	313	314	311	309	308	310	307	307	307	308	306	304	303	302	305	310	308	307	306	306	305	307	308	309	309	308	308	307	312	308	309	304	306	306	306	307	306	306	308	308	310	309	303	304	305	303	306	310	310	309	308	303	302	303	304	303	302	300	298	297	296	292	291	293	299	300	302	300	300	300	300	299	297	293	295	298	299	299	299	299	301	301	300	294	291	290	297	297	298	295	298	297	299	297	296	293	293	295	295	300	296	296	296	297	299	300	295	296	293	295	294	296	297	295	293	294	293	292	293	294	291	288	286	286	289	290	289	288	288	289	292	293	294	293	292	294	293	294	293	293	292	292	292	297	296	293	292	292	292	291	290	292	295	292	291	290	290	293	292	290	286	284	284	289	289	286	287	288	283	283	284	287	286	285	284	284	284	286	286	286	287	289	286	286	288	289	289	289	288	288	287	287	283	283	287	289	289	290	288	284	282	281	278	279	279	276	275	276	281	280	280	283	284	284	282	280	279	279	278	281	280	280	277	273	274	277	277	278	281	280	281	278	276	275	276	276	275	277	279	280	282	284	285	284	283	281	278	278	278	281	280	276	279	279	278	278	279	283	279	278	276	278	278	281	280	279	281	282	283	283	283	282	281	280	280	280	279	277	282	283	282	281	281	279	278	0	0	0	0	0	0	0	0
327	328	326	328	328	331	333	336	336	336	334	334	328	330	332	332	325	326	325	325	324	324	323	323	325	327	330	330	332	328	329	331	334	335	335	336	334	336	337	336	332	330	328	328	318	317	321	323	325	327	329	331	331	331	329	324	322	320	322	321	321	322	324	322	323	323	324	323	321	320	318	320	321	324	328	327	324	326	328	322	323	323	324	325	325	325	319	313	319	322	317	318	317	319	318	318	317	317	315	313	318	314	317	321	326	328	326	321	323	328	328	325	321	316	316	317	318	319	319	321	321	319	317	316	314	316	317	317	320	323	320	319	320	323	320	317	313	312	315	314	313	311	310	311	314	318	317	317	318	317	317	316	312	310	309	312	314	315	315	315	319	315	313	310	311	306	312	315	315	315	313	314	316	315	315	316	320	321	314	316	317	317	315	314	318	318	316	320	314	314	316	317	320	321	319	315	310	309	311	314	315	313	314	315	312	313	313	311	311	309	308	314	312	309	309	306	306	308	310	310	309	310	309	313	314	313	314	311	317	317	316	314	311	312	313	313	313	313	320	321	322	319	315	315	311	315	314	317	318	309	313	314	315	314	313	311	313	315	314	313	313	313	314	313	313	312	312	313	310	309	312	312	315	313	311	309	311	314	310	311	304	309	308	308	309	316	322	323	323	320	317	317	317	316	312	310	310	312	313	317	313	315	314	313	308	309	311	315	316	316	314	314	314	311	309	308	311	311	306	308	306	303	305	309	307	302	303	306	305	307	308	308	308	308	309	305	303	301	303	304	306	305	307	308	307	305	305	305	308	308	307	307	308	308	308	307	304	302	301	301	303	304	305	307	305	304	303	303	304	307	309	309	303	303	305	304	301	304	307	307	307	307	304	303	305	307	308	308	303	299	298	300	302	305	308	306	305	301	299	294	295	295	294	294	294	296	297	298	295	296	296	300	300	296	296	300	301	305	302	303	304	301	300	298	295	295	295	294	292	297	295	294	295	297	297	297	293	293	296	297	296	292	290	292	292	293	294	293	295	296	296	295	294	293	293	295	296	293	293	292	291	291	293	293	293	293	293	291	291	290	289	288	288	289	287	286	286	288	290	291	292	289	290	292	292	292	291	288	292	296	299	297	294	292	288	291	291	292	290	291	290	289	288	284	282	282	285	282	279	287	287	287	285	281	284	283	281	284	284	286	284	284	281	276	275	279	281	279	283	282	283	284	281	282	284	286	286	284	281	279	280	284	285	285	286	286	282	281	280	280	279	279	276	275	275	279	279	277	278	283	284	280	280	277	276	276	278	273	273	276	275	277	277	275	276	278	278	276	274	274	272	272	269	271	273	276	278	276	275	275	276	274	271	268	268	269	271	273	276	276	277	276	275	274	271	272	275	275	277	278	281	280	279	280	280	281	281	282	283	279	277	277	276	275	276	276	278	275	275	280	278	276	0	0	0	0	0	0	0	0
324	321	322	326	326	326	327	328	331	331	331	329	325	325	326	326	319	318	323	324	321	321	320	321	321	324	325	325	327	327	327	329	333	334	329	329	328	326	329	331	330	327	316	316	315	315	315	318	321	323	327	328	326	326	324	317	315	315	317	318	318	321	321	320	320	320	321	321	320	317	318	318	318	319	320	322	322	327	321	320	321	322	323	317	312	312	312	313	315	317	317	317	317	316	313	315	314	314	314	312	310	313	314	315	315	315	315	318	319	320	319	316	313	313	313	313	314	314	315	311	312	314	315	315	315	315	317	318	316	315	314	315	314	314	315	314	313	312	313	313	312	310	309	310	312	311	314	314	313	312	313	313	310	305	309	310	312	314	315	316	313	311	310	310	306	304	304	304	314	317	317	313	310	304	314	311	311	309	311	313	314	314	314	313	313	313	318	318	314	309	312	314	318	319	311	310	308	307	306	308	310	311	311	309	310	310	309	307	310	303	303	306	307	308	309	310	304	303	302	307	308	307	304	305	312	313	314	313	311	312	314	312	308	309	310	309	308	307	306	306	313	316	310	307	307	308	308	310	309	304	308	311	311	311	308	309	311	315	315	312	309	310	310	310	311	309	309	307	306	307	308	309	312	312	310	302	303	305	307	307	305	307	308	309	313	312	308	306	319	316	314	314	314	315	310	309	309	309	313	313	312	310	313	310	307	307	309	308	308	310	309	306	301	302	304	306	306	304	303	303	302	301	299	303	302	304	306	306	305	305	307	308	307	305	300	298	297	298	303	302	300	305	303	306	304	304	303	304	303	301	302	306	307	307	307	306	304	299	298	301	299	304	307	305	301	303	302	299	300	302	302	301	298	295	297	296	298	297	303	306	307	306	302	301	303	305	306	306	304	298	296	299	295	300	303	303	302	300	295	294	295	294	293	293	294	296	297	299	300	297	295	293	293	296	294	293	292	289	290	294	298	300	295	293	291	290	289	289	290	289	294	294	294	296	297	296	296	292	294	295	294	293	291	293	292	291	291	293	294	291	289	287	291	292	292	292	293	292	290	286	287	284	284	284	286	286	287	281	287	289	289	287	288	287	283	282	281	281	282	283	282	288	288	286	289	290	290	290	289	297	298	295	292	289	286	286	290	289	290	288	281	280	281	281	279	279	275	272	279	284	284	284	281	277	276	277	278	281	282	281	282	280	279	278	277	278	282	281	280	279	279	281	277	279	279	273	274	276	277	277	275	277	279	280	280	282	279	278	278	279	279	280	279	275	278	279	277	272	278	284	285	282	277	274	274	276	274	270	270	271	274	278	276	277	274	272	272	273	273	271	268	269	269	269	273	274	276	275	273	275	275	273	271	268	268	270	270	270	270	274	274	271	271	268	268	270	273	275	272	274	280	280	274	273	273	278	279	281	280	277	274	274	274	273	273	273	272	272	272	273	274	276	0	0	0	0	0	0	0	0
320	321	320	323	323	322	322	324	326	326	327	323	321	320	321	321	319	317	314	318	316	316	318	318	317	318	321	318	318	320	322	324	322	323	326	326	324	323	321	324	327	320	316	316	314	314	314	316	318	319	321	323	323	323	316	314	314	314	316	316	318	317	314	313	318	319	319	317	315	313	314	313	312	316	320	325	326	318	318	320	319	316	317	317	311	312	312	313	316	318	317	316	315	313	311	309	307	307	309	309	309	309	313	316	317	315	313	311	311	311	307	304	306	307	311	309	309	309	303	306	307	309	309	308	311	313	316	318	308	309	311	311	312	311	310	315	314	313	312	312	305	305	306	307	308	309	312	311	309	308	308	309	307	306	308	310	310	311	310	309	311	309	309	307	307	304	305	306	307	313	315	315	306	302	305	305	305	307	308	312	314	313	311	311	312	313	315	317	314	307	310	312	313	311	312	312	309	307	305	306	305	306	305	305	305	307	306	302	300	298	302	303	305	308	309	303	303	303	303	304	306	307	307	304	304	310	310	311	309	310	309	303	300	307	309	308	305	303	302	300	300	302	308	305	306	308	308	304	305	303	304	307	308	307	307	308	311	312	314	311	308	308	308	309	309	308	305	307	303	303	303	308	309	308	302	294	296	298	303	303	302	300	300	303	304	306	301	299	299	300	301	310	308	308	311	308	307	307	307	308	305	307	308	306	303	304	306	304	300	304	303	300	299	303	305	305	302	302	302	300	299	298	297	298	298	300	301	302	302	302	307	305	304	299	297	296	296	298	298	299	298	301	304	302	303	303	303	301	300	300	299	300	304	302	304	304	302	299	296	298	299	300	301	299	296	294	293	293	294	297	298	298	296	295	293	292	295	294	295	301	301	303	299	298	300	303	300	295	298	294	287	286	289	293	300	302	300	297	294	294	293	291	292	293	293	288	290	293	296	295	293	290	287	294	292	290	289	288	291	290	293	293	292	286	287	287	287	289	288	289	287	287	290	290	292	291	292	288	293	292	293	294	293	294	291	289	288	289	289	289	287	286	287	287	286	290	291	288	287	286	282	281	283	284	283	282	283	281	286	279	280	286	282	282	285	284	285	280	279	278	279	278	275	278	286	285	284	281	289	288	289	288	282	281	279	283	284	278	279	277	279	279	278	280	274	274	272	268	269	269	276	279	278	275	275	275	279	280	281	279	279	278	278	273	277	280	281	281	279	278	276	277	277	277	280	272	271	274	276	276	275	275	279	274	277	272	275	270	271	274	279	279	277	275	278	277	277	278	277	278	275	267	271	272	271	270	272	269	268	270	275	278	277	276	273	270	269	270	268	266	266	267	268	270	268	267	271	269	270	270	270	266	270	270	268	268	269	270	270	274	274	271	263	267	266	264	266	268	268	272	273	272	272	266	269	272	276	279	274	274	274	272	271	271	270	270	270	269	271	272	273	271	0	0	0	0	0	0	0	0
311	313	314	317	317	318	319	319	320	321	321	318	315	316	320	320	318	314	312	314	314	314	315	313	312	313	313	314	314	315	318	318	318	320	319	319	318	317	317	317	319	318	316	314	313	310	309	310	312	313	319	321	319	319	314	311	311	310	311	315	313	312	312	314	314	313	313	313	311	312	311	310	309	312	314	316	313	314	317	313	313	313	313	312	308	308	308	311	312	311	310	310	312	309	306	305	298	303	305	303	301	301	304	304	308	307	306	308	308	308	307	306	304	308	307	306	304	303	304	304	305	305	306	306	305	300	302	304	302	304	310	312	312	309	306	306	305	308	308	305	303	303	303	305	305	305	310	308	305	304	305	308	306	306	309	312	309	307	306	306	306	307	306	305	306	306	305	306	310	311	311	313	307	303	303	302	303	302	305	305	305	307	307	307	310	312	313	310	307	307	310	311	311	309	312	312	309	307	306	306	303	303	305	306	304	304	304	300	300	300	300	302	304	302	300	301	301	302	302	304	307	306	309	301	301	305	306	307	306	307	302	297	297	301	301	305	301	301	299	297	296	296	297	302	304	305	305	308	305	303	301	302	304	302	300	302	308	308	310	302	293	296	302	305	308	307	306	304	302	303	303	303	303	304	298	298	297	297	299	301	301	298	298	299	300	300	298	296	298	299	300	300	301	301	306	305	303	303	303	300	301	302	298	297	303	305	304	300	298	300	297	298	297	300	302	301	299	296	297	297	295	295	296	299	299	297	300	297	292	295	299	300	300	299	296	296	296	296	295	295	296	294	299	299	291	293	299	300	293	295	295	298	299	299	297	300	299	299	297	297	298	297	297	293	293	290	290	290	292	295	296	295	291	287	293	293	293	293	291	293	297	298	295	295	298	290	286	289	289	289	285	285	288	287	288	294	295	293	294	291	291	289	291	287	286	287	289	292	293	293	291	287	283	291	293	290	288	290	290	289	289	289	288	287	287	286	285	286	287	288	288	288	285	281	285	284	285	286	287	290	288	292	294	295	288	286	286	287	284	282	283	285	285	288	289	287	288	281	284	281	280	280	280	283	282	282	280	278	279	279	282	282	280	281	281	279	277	275	275	276	276	274	274	278	280	276	276	278	278	280	276	281	281	280	279	278	278	274	273	273	277	279	279	278	274	274	274	272	269	268	268	269	270	270	270	273	279	278	278	276	274	266	278	268	277	276	276	278	278	277	276	276	276	276	271	271	275	274	274	274	274	271	269	271	270	266	265	265	270	267	269	273	275	271	273	276	279	278	277	277	271	262	262	267	267	269	270	271	273	274	272	273	273	272	270	269	267	267	266	264	265	267	269	269	267	270	269	267	265	266	266	265	265	265	267	269	270	270	270	271	271	263	263	263	263	263	264	266	266	265	262	271	272	268	268	271	276	264	265	266	266	269	269	269	270	268	268	267	264	264	267	270	0	0	0	0	0	0	0	0
308	308	307	307	306	306	306	307	308	311	311	313	313	316	319	319	313	312	312	311	313	311	311	308	309	308	309	308	308	313	313	314	314	316	315	315	313	312	313	314	316	316	316	311	311	309	305	304	306	310	317	318	317	313	313	303	302	304	309	309	311	311	311	309	309	309	309	310	309	311	311	310	307	306	307	308	310	307	307	309	310	310	309	301	301	303	303	303	303	301	300	303	304	306	305	304	302	302	303	300	301	300	300	302	305	304	302	303	305	306	308	306	305	304	304	304	306	305	304	303	302	303	304	304	302	299	299	299	300	301	303	312	312	308	305	303	305	305	306	303	299	300	301	301	302	300	299	298	298	299	302	303	304	302	309	310	310	310	304	302	302	302	303	303	303	303	302	301	303	303	304	306	304	303	301	299	298	297	302	304	304	302	300	299	307	310	312	309	305	307	307	306	306	305	303	302	303	305	306	306	303	301	297	304	303	302	301	299	300	300	298	296	297	298	297	298	300	301	303	302	306	307	306	300	297	300	304	305	305	301	296	297	298	297	297	296	297	297	296	295	293	293	293	296	299	303	304	304	301	300	300	299	300	301	299	297	296	302	298	294	297	301	301	299	297	295	295	295	292	298	301	300	302	302	301	298	298	295	297	297	298	297	295	295	297	294	293	293	297	298	298	299	299	300	300	299	297	292	296	296	296	298	297	296	300	304	305	302	295	299	297	297	295	297	300	300	299	296	294	292	292	296	296	296	295	297	295	291	294	294	296	298	298	299	296	295	293	294	294	294	294	293	289	288	285	286	290	292	291	288	288	291	293	291	290	297	294	295	296	296	295	294	293	291	288	288	289	289	290	291	293	291	289	285	290	291	291	291	288	289	292	292	288	285	285	285	286	284	286	285	285	281	282	277	276	284	285	289	291	291	289	290	285	283	284	285	288	290	291	289	288	281	281	291	293	288	290	290	287	287	285	285	284	283	285	285	284	285	286	288	288	286	281	280	281	285	284	283	286	286	286	290	284	282	281	280	280	278	275	274	276	279	282	288	289	286	286	278	279	277	275	276	278	281	282	281	279	278	277	277	279	281	278	279	278	277	277	275	275	274	275	274	274	277	279	278	278	278	280	281	280	280	279	278	275	275	275	273	271	271	272	278	278	275	272	274	273	272	270	267	265	266	268	268	269	277	277	276	274	277	274	268	265	269	271	273	274	269	273	275	276	276	276	276	276	276	274	271	271	271	269	268	271	268	265	264	263	267	266	268	266	270	272	269	268	266	265	264	265	262	259	259	261	262	263	265	272	277	273	269	268	268	265	269	268	268	265	265	264	263	263	267	267	267	268	269	270	269	265	264	263	262	261	262	261	268	268	270	269	266	265	265	263	263	263	263	264	262	263	261	261	264	268	268	269	265	260	260	262	265	265	267	268	268	267	266	263	263	262	262	262	263	0	0	0	0	0	0	0	0
307	307	301	300	301	301	303	306	307	308	308	311	313	314	317	313	311	305	303	304	303	302	302	303	305	307	307	306	306	307	308	309	311	310	312	308	308	307	309	312	314	315	314	306	306	304	301	303	306	308	313	314	310	306	306	303	299	301	302	305	307	311	310	310	308	308	308	308	308	308	312	310	307	302	301	301	299	301	301	302	302	295	296	296	299	301	302	302	302	301	300	298	298	302	303	303	301	300	298	299	298	297	297	299	299	299	300	299	302	304	307	304	300	300	299	300	303	307	306	300	299	299	296	296	298	299	298	298	297	298	300	303	306	306	303	303	303	305	304	303	301	297	300	300	301	298	298	297	298	300	302	302	303	299	301	303	303	304	305	305	303	301	300	299	297	299	299	299	300	301	302	302	298	296	295	291	292	297	300	301	302	302	298	297	301	300	298	297	295	298	299	302	301	297	293	292	292	301	302	303	302	302	297	292	300	299	300	301	297	297	296	296	297	298	297	296	296	296	295	302	303	304	304	302	296	297	304	305	298	291	295	294	294	293	291	293	294	293	291	294	294	292	292	292	298	300	302	301	300	300	300	299	300	300	297	297	296	294	295	296	297	296	297	295	295	294	294	290	289	294	297	298	302	300	299	296	293	294	293	295	297	295	294	293	290	292	292	290	290	289	291	297	299	296	296	296	293	292	289	288	291	292	294	294	298	302	300	297	291	292	292	293	293	293	297	298	295	295	289	287	290	293	295	294	293	294	293	291	293	292	292	297	298	289	298	292	291	291	293	293	293	292	289	286	286	288	289	288	286	285	286	289	288	288	287	284	291	292	293	293	292	292	291	290	290	293	292	289	289	289	290	289	286	285	289	289	290	288	289	290	290	287	283	281	281	282	282	282	282	281	280	281	282	279	280	279	280	281	282	286	286	289	283	283	284	285	286	287	287	285	284	281	280	286	287	289	288	287	284	281	281	279	281	281	282	281	282	285	287	286	285	281	279	281	282	281	281	282	284	283	279	279	277	276	274	273	279	278	275	274	276	277	279	278	279	281	276	276	276	273	273	273	275	277	278	279	277	276	276	276	277	277	274	275	274	273	274	274	273	274	274	274	274	276	276	277	277	277	278	276	275	274	273	273	273	272	271	271	269	269	271	271	273	273	274	275	272	271	268	268	265	269	269	269	270	270	267	266	266	270	268	267	264	266	266	270	271	266	265	264	265	265	265	268	274	275	272	269	270	269	266	271	270	264	266	266	266	266	267	265	265	265	270	269	268	264	261	263	263	261	259	258	261	262	263	263	264	267	267	267	265	261	261	266	263	262	263	262	264	265	264	266	266	264	266	267	270	269	264	263	262	262	260	260	257	260	260	260	260	259	259	259	259	264	263	263	262	258	257	258	260	262	263	265	267	261	257	258	260	260	263	266	266	267	265	264	262	260	260	260	260	260	260	0	0	0	0	0	0	0
297	299	296	298	298	298	304	307	307	307	307	308	307	308	311	311	308	304	303	302	302	302	302	301	302	305	305	304	303	303	303	307	310	309	305	304	304	302	304	303	305	306	308	302	302	300	297	299	303	306	305	306	306	302	302	299	299	301	303	303	306	308	309	306	308	308	307	307	307	307	310	309	306	303	300	298	298	298	300	298	294	290	292	294	295	297	299	300	300	299	299	297	296	291	291	300	299	297	298	296	294	293	295	297	298	298	298	299	300	304	304	302	300	299	299	298	298	298	299	296	294	293	290	290	294	297	296	296	295	296	298	300	299	296	299	301	303	300	299	297	297	295	295	298	299	296	296	296	297	299	297	299	297	295	296	294	301	302	302	300	300	301	297	297	296	296	298	298	299	301	301	299	295	292	293	292	291	294	296	299	300	297	297	297	297	292	294	295	298	298	298	298	298	295	292	291	291	297	300	300	300	299	295	293	297	296	296	296	294	294	295	295	297	298	296	297	296	293	293	296	302	302	298	297	296	294	296	296	288	290	290	291	290	289	290	291	290	292	289	291	293	292	293	295	297	299	300	299	298	299	298	297	297	296	294	295	296	297	296	294	294	294	295	294	293	293	291	287	288	290	295	294	295	299	299	295	293	292	292	290	289	291	291	291	292	292	290	290	288	284	293	293	299	294	291	290	293	291	287	286	287	287	289	287	288	289	290	289	290	291	291	292	292	290	290	290	291	289	286	286	290	290	292	292	291	291	284	290	293	291	290	290	288	287	288	288	289	288	290	290	287	289	289	289	289	289	289	288	286	285	285	286	286	285	283	284	287	281	283	291	290	290	292	292	293	292	290	290	288	287	286	286	285	285	283	283	283	284	286	289	284	284	282	284	285	284	284	280	279	280	280	281	281	281	281	281	280	280	281	283	284	283	281	281	284	282	283	283	282	281	279	281	282	284	285	286	288	286	282	281	277	277	278	278	280	279	279	282	283	281	281	281	280	278	277	277	278	276	278	278	278	277	275	274	273	273	274	276	277	275	276	276	276	278	278	278	275	273	273	271	271	272	273	272	274	275	275	272	274	275	277	277	272	272	272	272	273	273	273	274	275	271	270	273	274	276	273	269	272	273	273	271	271	271	271	269	268	266	265	268	270	271	272	269	273	271	270	269	269	269	271	268	268	268	265	265	263	263	266	267	266	265	264	265	267	268	260	262	263	263	262	265	264	267	274	276	267	266	267	267	261	260	264	270	266	269	268	269	265	264	264	268	266	263	261	258	257	259	259	262	262	265	265	262	263	264	262	264	262	265	263	262	261	261	258	257	258	258	260	265	267	265	266	263	264	264	257	255	257	258	263	261	262	261	258	258	258	258	258	257	258	257	262	260	261	262	259	258	258	258	260	260	260	258	258	255	256	257	259	259	261	264	264	264	262	259	258	261	261	259	258	257	257	0	0	0	0	0	0	0
294	294	294	297	298	298	299	302	303	306	304	304	298	300	307	308	300	301	299	299	299	299	299	300	299	300	302	303	300	300	299	303	304	298	297	296	296	298	298	301	303	305	303	300	297	297	296	296	297	300	301	302	299	298	295	295	298	298	301	300	299	300	299	297	302	307	307	307	306	305	305	306	302	299	299	298	297	297	298	292	291	290	291	291	292	294	297	298	297	297	296	295	292	288	289	292	295	295	294	293	290	290	292	295	296	296	296	297	300	303	303	303	302	300	297	295	295	295	292	292	290	289	289	290	290	293	293	293	294	296	296	296	295	290	291	291	294	289	288	288	293	293	290	291	292	294	295	296	296	293	290	293	292	291	292	291	290	297	297	297	297	296	297	294	288	293	295	295	296	298	297	294	292	290	290	290	291	295	293	292	295	292	292	287	291	292	294	294	297	299	291	292	293	293	292	292	292	299	298	296	298	297	295	293	292	293	294	290	291	292	293	294	294	294	292	289	288	288	289	292	292	293	291	292	291	290	290	290	287	288	289	289	284	284	287	287	287	289	288	291	293	290	290	292	296	296	295	296	295	295	296	297	295	293	292	293	294	294	292	292	291	292	291	294	289	289	289	288	286	287	290	293	295	296	295	287	286	288	286	286	289	289	290	290	290	290	289	287	288	284	291	290	293	292	289	289	285	281	284	286	288	289	287	287	288	287	285	288	288	288	288	290	284	286	288	288	286	284	285	284	284	288	291	290	288	285	286	290	290	290	290	288	286	284	283	283	288	288	288	282	283	282	283	287	288	288	289	288	282	285	285	282	284	283	280	280	280	279	279	280	281	285	290	291	292	291	289	287	280	278	279	284	287	286	281	282	276	278	279	284	285	286	286	281	280	278	275	277	277	277	277	278	275	277	279	281	279	281	278	278	278	279	278	279	274	278	278	278	279	279	278	279	281	281	281	279	285	283	281	277	276	275	277	278	274	274	275	277	280	279	274	272	279	283	275	272	274	276	276	276	275	277	273	273	272	270	269	268	271	274	273	272	271	272	276	272	272	271	268	267	266	267	266	267	269	269	270	271	272	276	273	272	269	271	271	271	272	270	273	274	273	273	267	267	267	269	267	266	269	270	269	267	269	268	269	268	266	264	264	262	265	272	267	266	273	269	269	267	267	268	265	263	266	267	267	264	264	264	264	266	263	264	265	263	257	266	264	258	260	261	260	257	264	266	270	269	267	264	264	263	258	263	262	264	266	268	266	265	261	263	264	267	264	262	253	254	256	261	262	263	264	265	265	261	256	258	258	261	261	262	261	261	260	259	258	258	259	260	258	261	264	264	261	261	262	261	261	257	255	259	259	261	265	264	264	259	258	257	256	256	258	257	262	257	257	259	256	257	258	259	259	260	259	258	254	254	254	255	255	256	258	257	256	259	257	257	261	257	251	256	258	256	256	0	0	0	0	0	0	0
291	292	296	297	297	297	297	292	291	295	295	295	296	297	301	300	295	293	293	294	295	296	298	298	295	299	302	294	291	291	291	295	293	292	293	295	294	294	294	298	301	303	296	297	295	295	294	296	299	301	300	298	297	296	293	293	295	297	298	298	296	296	293	295	297	301	305	304	304	304	300	298	297	297	297	296	295	293	292	289	287	284	285	289	291	294	296	297	295	295	294	292	289	287	287	290	291	293	290	289	290	291	292	294	293	294	293	295	298	292	288	290	291	292	294	294	293	289	289	289	289	287	286	288	289	291	291	292	295	296	296	296	294	287	287	288	288	288	286	284	288	290	287	286	289	291	290	293	293	292	287	288	288	288	289	288	286	286	291	292	292	284	292	291	288	286	282	285	286	291	289	288	288	288	288	289	291	290	285	285	287	284	283	283	289	290	293	292	291	287	288	290	291	290	288	292	293	296	299	295	292	293	292	289	288	291	290	290	288	291	289	290	289	289	288	286	284	286	288	288	288	289	288	290	288	287	289	289	288	287	288	288	282	282	284	284	286	287	289	288	288	289	289	287	286	289	290	292	289	292	298	295	294	293	293	294	290	290	290	288	288	289	291	284	285	285	285	284	285	283	283	282	281	279	286	284	283	283	283	283	286	287	287	289	289	285	286	286	280	283	288	288	284	286	287	288	287	286	282	283	288	290	290	289	290	291	287	288	286	284	286	285	283	280	282	281	279	282	281	281	284	287	286	285	286	287	289	287	287	286	284	282	283	281	280	281	280	280	281	282	281	282	283	285	286	287	287	286	281	279	283	282	285	284	281	280	281	281	279	279	277	280	285	283	280	277	278	277	278	276	278	282	279	278	275	274	272	270	275	277	279	281	282	281	276	274	275	276	277	277	278	277	275	274	276	281	279	281	277	277	274	274	273	273	271	270	274	277	276	277	278	279	279	279	277	274	279	282	275	276	275	276	277	277	273	274	274	275	275	272	272	271	275	269	269	270	273	274	276	275	273	272	271	270	269	269	267	266	268	270	273	272	271	270	269	275	272	272	269	266	268	267	267	266	267	268	267	272	272	272	272	269	269	269	269	270	270	271	271	272	271	270	267	267	267	268	270	268	267	263	264	265	267	267	267	265	265	265	264	261	262	262	264	264	262	269	268	267	266	264	263	262	265	266	267	264	262	261	263	261	262	263	263	263	259	256	260	261	262	263	256	257	264	260	262	262	258	258	263	262	260	259	261	261	261	262	261	260	259	263	264	261	257	255	252	254	256	262	262	264	264	260	258	255	256	257	257	261	261	258	259	260	260	259	259	257	256	256	258	256	255	256	258	256	260	260	259	257	255	258	259	259	257	257	255	255	252	252	252	254	255	254	255	256	254	255	256	256	253	254	257	260	257	251	250	249	253	254	254	253	255	255	253	255	252	255	256	251	251	251	254	254	254	0	0	0	0	0	0	0
290	290	295	298	297	292	292	291	291	294	294	294	294	296	297	295	292	292	291	292	292	294	294	294	296	301	297	295	297	297	297	296	294	294	294	292	291	291	291	295	298	297	293	295	294	294	295	297	298	299	297	294	294	294	290	290	293	296	296	294	293	291	291	291	293	297	297	296	296	293	290	289	293	294	295	296	292	292	289	287	283	282	282	284	289	291	294	296	295	293	293	289	286	286	286	289	291	291	290	289	290	291	291	291	289	291	291	292	290	287	286	286	287	289	290	291	288	288	288	289	289	286	285	285	287	287	288	286	288	293	294	296	295	286	286	286	287	287	285	283	283	284	285	284	287	287	288	287	288	289	287	285	286	286	287	286	283	283	284	286	283	286	286	287	286	284	281	282	286	287	284	281	283	287	288	288	289	286	284	282	282	284	283	281	281	287	289	291	288	287	285	280	280	283	285	288	288	285	282	280	284	284	285	277	286	287	288	288	287	288	287	288	286	286	286	285	283	282	285	285	287	287	286	284	279	284	287	287	286	286	287	287	284	281	283	285	284	283	287	286	286	287	285	283	282	281	281	281	283	289	295	296	294	294	293	293	288	288	287	285	283	280	283	284	284	282	282	281	281	279	280	281	281	278	281	285	284	283	283	285	283	283	286	286	286	284	280	277	279	284	285	286	285	286	287	288	285	283	282	282	285	285	286	280	284	286	284	282	282	279	279	280	278	275	277	277	278	278	277	276	277	278	279	279	279	278	280	282	282	282	282	281	277	278	277	278	277	278	278	278	278	282	282	282	285	286	285	282	279	277	276	281	280	280	282	283	277	275	277	276	277	278	280	282	283	281	277	275	276	275	273	276	276	275	272	272	269	272	274	274	276	278	279	280	276	275	275	275	273	274	276	276	273	272	272	276	273	274	273	271	272	274	272	272	272	271	269	272	270	272	274	277	276	275	274	273	274	272	273	273	275	275	275	274	272	271	273	274	276	273	272	272	267	266	268	268	271	273	274	273	271	274	269	269	268	267	265	265	266	271	270	271	271	268	267	265	265	265	263	264	266	265	264	267	268	267	268	269	272	269	266	266	268	268	268	267	268	267	270	267	266	271	266	267	267	268	268	270	267	262	262	263	264	264	264	263	263	263	262	259	260	263	261	260	261	268	266	266	265	263	260	258	263	264	264	263	261	260	262	262	261	261	261	259	257	256	254	262	265	262	259	257	258	261	259	258	262	259	258	259	257	259	259	260	259	260	260	259	257	257	256	256	255	255	255	254	253	254	262	263	258	253	253	253	255	256	256	255	256	257	258	259	259	257	256	255	256	256	257	259	258	255	248	248	255	259	258	255	255	257	255	254	254	250	254	254	253	253	254	253	252	248	248	251	251	254	249	251	251	251	251	253	252	252	249	248	246	247	247	248	250	249	252	251	248	252	257	252	251	252	252	252	252	0	0	0	0	0	0	0
291	291	295	298	296	293	293	293	291	293	292	292	292	292	292	294	290	290	290	290	290	290	292	292	297	292	293	291	295	294	294	295	294	291	291	290	287	287	286	286	288	288	287	289	292	292	292	294	298	298	293	291	291	292	289	291	291	292	292	291	289	288	287	291	292	291	288	287	287	287	288	288	289	293	293	288	287	286	283	284	283	283	281	281	282	285	287	291	289	291	291	289	286	286	286	287	288	287	284	287	289	291	291	290	286	287	287	288	287	286	286	285	286	281	283	285	286	285	287	289	288	283	283	276	274	283	283	284	284	291	291	293	285	284	284	283	281	281	284	284	284	282	279	279	278	282	289	287	285	283	283	282	285	286	287	287	284	282	282	283	285	286	287	283	285	283	282	282	285	284	282	281	282	287	285	285	286	280	280	277	281	279	281	279	282	283	285	288	287	285	282	279	283	284	287	286	284	284	279	279	279	279	280	280	280	286	285	285	286	287	284	284	283	283	285	283	281	279	280	281	281	282	283	282	281	282	286	287	286	284	286	286	287	284	282	285	281	283	282	283	281	283	283	281	282	281	281	282	281	280	280	281	280	280	286	286	284	283	280	279	276	275	278	278	281	281	280	279	278	277	277	274	275	279	281	283	285	283	281	284	282	283	284	279	282	280	276	274	274	276	279	282	283	281	279	276	276	278	281	279	280	283	274	277	279	278	279	278	278	274	272	271	271	273	275	276	274	276	276	274	274	278	279	276	276	275	277	278	275	275	277	276	276	276	275	274	275	276	277	275	276	278	278	277	276	276	276	276	276	273	272	272	273	272	269	268	271	271	273	274	275	275	276	279	278	271	272	274	275	274	271	270	268	275	274	272	268	271	271	273	274	277	278	276	274	273	273	271	271	271	270	275	271	266	268	269	271	272	271	270	270	267	270	273	274	273	270	270	276	275	276	277	275	273	270	272	269	271	270	270	271	272	271	270	271	270	272	272	270	270	264	270	268	269	268	268	268	271	270	270	269	268	271	268	266	267	265	266	267	269	268	263	263	262	264	264	264	263	262	264	266	266	265	268	266	266	266	266	263	262	264	265	266	266	264	266	263	262	261	261	259	263	264	266	264	265	264	263	261	260	261	262	264	261	264	262	263	261	261	259	263	263	259	256	256	260	264	264	264	261	260	262	259	259	259	261	262	259	260	259	260	263	260	260	256	255	254	253	252	253	253	253	256	258	257	257	257	261	255	252	252	253	258	262	259	258	256	255	256	255	255	255	254	254	252	253	253	251	253	255	246	246	253	253	253	254	255	255	254	255	257	257	252	253	253	253	256	256	259	262	258	255	253	245	245	252	251	255	255	253	252	250	250	250	249	250	252	253	253	253	251	246	248	249	250	247	249	251	251	251	251	252	248	248	250	248	246	246	244	246	246	242	244	244	249	252	256	252	250	247	245	245	251	0	0	0	0	0	0	0
289	289	293	292	293	291	291	290	291	290	289	288	288	289	290	290	290	289	288	288	288	288	287	287	289	288	285	285	287	288	288	286	287	287	287	286	286	286	285	283	282	282	285	285	289	291	291	285	284	285	287	288	288	288	287	288	288	289	288	287	287	284	288	289	289	288	283	284	284	284	286	287	287	289	286	285	284	283	281	281	283	283	281	282	282	282	285	285	281	281	281	281	280	278	279	283	284	283	282	282	283	288	291	289	285	286	284	285	284	282	282	280	280	280	284	283	282	283	283	284	283	283	281	276	276	277	279	282	282	288	288	284	282	283	280	279	277	279	280	281	282	281	279	278	278	280	287	284	283	281	283	282	280	281	284	285	283	281	280	280	284	286	286	280	279	278	281	282	282	281	281	281	280	280	284	284	284	277	275	277	279	279	278	278	278	279	279	280	281	281	278	281	278	279	279	286	282	281	280	280	280	285	284	282	279	278	283	282	278	279	279	278	279	282	284	282	280	279	279	279	280	281	282	284	285	283	284	284	279	277	275	278	277	277	277	275	276	277	277	278	280	280	280	279	279	281	279	278	279	277	276	276	274	272	275	276	279	279	277	277	281	279	277	278	277	279	280	281	277	275	273	272	275	277	280	282	280	282	278	276	279	273	273	276	275	274	274	276	278	279	279	278	278	276	275	272	273	273	272	278	272	273	276	276	275	277	276	276	276	275	273	270	270	272	274	274	274	275	273	273	271	272	276	275	273	272	273	273	273	276	275	272	275	273	274	274	274	275	275	271	274	274	275	275	274	274	274	272	272	273	272	271	269	268	266	266	269	271	271	273	272	271	271	269	269	273	272	272	270	274	264	262	266	266	271	270	267	268	269	268	270	275	274	272	271	270	270	271	270	270	270	273	271	268	266	270	271	271	270	270	268	265	267	272	273	268	266	264	272	272	270	270	270	269	268	268	267	268	268	266	267	268	267	269	269	270	268	268	268	268	264	266	267	268	267	266	264	264	269	268	267	265	262	261	262	265	265	265	266	264	263	262	262	262	264	264	264	261	259	259	261	259	262	261	262	262	262	260	258	260	261	263	264	258	257	258	258	260	260	255	255	257	259	261	260	260	261	262	260	259	257	255	257	259	258	257	256	254	255	256	261	257	257	257	259	256	257	259	260	259	252	247	252	252	255	257	257	257	256	259	260	263	260	260	257	255	253	251	251	254	254	256	256	254	251	257	261	257	253	249	250	251	255	259	256	255	255	254	253	255	253	252	253	252	252	252	252	250	249	246	247	248	247	251	251	253	254	254	253	253	253	251	251	252	251	251	255	257	254	253	253	253	253	251	249	251	253	255	255	254	251	251	247	245	243	247	249	251	250	248	247	246	245	246	246	247	250	249	249	249	238	249	246	242	243	246	244	244	244	243	240	243	243	247	247	252	253	250	249	245	245	241	242	0	0	0	0	0	0	0
285	285	288	290	288	286	286	286	287	286	283	284	284	286	287	289	289	285	284	284	282	283	285	285	285	280	276	278	281	283	283	284	283	283	284	283	283	282	282	280	279	282	284	285	285	283	283	278	280	283	284	284	283	283	284	285	285	285	284	284	279	281	285	285	286	285	283	283	283	283	283	284	284	284	285	283	281	277	280	281	283	283	284	283	283	283	282	277	274	275	275	272	272	273	277	277	280	281	282	280	273	276	276	279	282	283	279	280	279	280	278	276	279	280	285	282	281	279	279	280	279	280	280	280	277	277	277	275	279	279	281	279	279	280	279	277	274	276	278	280	279	279	278	279	277	279	279	278	273	272	276	276	278	277	277	281	280	277	277	278	279	282	283	278	278	276	275	275	275	276	277	278	278	277	281	282	282	276	275	276	280	277	277	277	274	274	274	276	277	278	278	278	278	277	275	275	274	277	282	281	280	284	284	282	279	278	283	282	280	274	273	275	276	278	281	279	277	278	278	277	279	274	274	277	277	276	278	277	279	276	272	272	275	274	274	275	274	276	275	276	276	278	277	278	278	276	278	276	277	275	275	275	273	272	273	275	277	277	277	276	278	278	278	277	276	278	281	281	279	277	276	275	274	275	278	280	278	276	276	275	274	272	273	275	274	275	274	275	273	271	272	276	273	272	271	273	273	272	266	267	273	274	274	274	274	273	273	274	273	273	271	269	270	270	271	273	272	270	267	267	268	270	270	272	271	271	272	272	274	276	275	271	272	270	272	273	273	273	273	272	271	272	272	272	270	272	272	270	267	269	266	265	264	263	264	266	266	269	268	268	267	267	267	266	265	269	270	270	266	264	267	263	263	263	266	264	263	265	266	267	268	268	267	266	268	267	268	268	268	266	268	271	268	264	265	265	266	269	269	269	264	263	265	270	271	266	267	266	268	269	268	268	269	268	267	266	265	264	265	263	263	263	261	259	264	265	265	266	265	265	264	263	264	265	265	263	260	263	263	263	265	264	260	259	258	260	263	264	264	262	262	262	262	265	264	263	262	259	258	257	256	261	256	260	258	257	262	261	262	262	259	258	256	253	255	256	257	257	257	255	255	258	258	258	258	259	260	254	257	255	253	253	253	254	255	254	255	254	255	254	257	257	254	255	255	257	254	253	253	252	245	248	252	253	252	254	255	254	257	256	256	257	252	256	255	255	252	250	252	254	255	257	252	251	251	252	252	249	252	252	251	253	254	253	249	246	249	251	252	253	252	252	251	251	251	251	250	250	250	249	245	247	248	251	252	254	252	252	251	251	251	250	248	250	250	250	250	252	248	248	250	250	251	253	252	252	248	247	248	250	250	248	245	244	241	242	246	247	251	250	248	247	245	245	248	248	248	244	237	237	240	245	243	248	248	249	249	247	247	243	242	242	243	243	247	248	250	246	245	240	240	240	243	0	0	0	0	0	0	0
282	284	284	284	282	282	280	280	282	282	281	283	283	286	286	286	285	280	280	279	280	281	280	278	278	277	275	276	279	282	281	281	281	281	280	280	278	278	278	279	281	282	283	282	279	277	278	278	278	280	281	282	280	280	280	277	277	277	278	278	279	283	284	284	284	282	279	281	283	283	283	280	279	282	282	278	277	278	278	277	283	284	284	284	283	282	276	271	271	270	271	270	270	273	271	273	278	279	280	279	276	272	274	277	280	281	279	278	274	276	277	276	278	281	281	276	274	275	276	275	275	275	276	275	277	277	275	273	273	277	278	279	279	276	277	278	281	281	279	280	277	274	274	276	277	276	275	274	276	271	270	273	273	274	274	278	276	274	274	276	277	279	276	278	278	277	276	276	275	276	278	277	276	276	279	280	277	274	275	274	273	272	273	270	271	272	271	276	276	274	274	275	275	275	273	272	272	273	275	279	277	278	281	280	277	276	276	275	273	272	271	269	268	270	271	271	273	275	276	275	275	274	275	275	273	271	274	275	279	273	269	270	272	273	274	275	274	272	272	272	273	274	275	276	276	275	276	273	272	273	271	269	266	265	265	269	273	274	275	276	271	274	270	271	273	273	274	274	274	276	274	272	270	272	274	278	277	276	274	272	273	273	275	274	275	272	273	273	269	264	265	270	272	271	275	276	277	273	268	270	269	272	273	270	268	268	268	269	270	267	267	267	270	270	272	271	270	271	265	265	265	268	269	269	272	271	271	270	273	276	271	270	268	267	271	272	273	274	273	272	272	271	268	265	268	266	266	265	264	266	265	264	264	263	263	265	266	267	265	264	266	266	263	262	263	261	262	261	261	265	267	266	263	262	262	262	264	264	261	262	266	266	265	265	266	265	264	265	260	257	262	265	264	262	260	265	263	263	263	263	260	259	263	265	266	264	263	263	265	266	266	267	267	266	266	263	264	264	262	258	259	257	257	257	262	261	261	263	264	264	262	261	257	261	261	263	260	260	260	263	259	255	256	258	258	257	257	260	261	261	261	261	263	264	262	258	257	260	260	257	257	255	256	259	257	258	263	262	259	259	258	256	251	249	249	255	256	256	257	254	253	257	257	256	255	255	253	252	254	254	254	254	254	252	252	253	254	252	252	254	255	257	258	256	256	251	249	247	246	247	248	252	253	253	251	251	248	248	254	252	250	254	251	253	249	254	250	251	252	253	255	253	252	250	250	250	250	251	252	252	250	251	251	252	245	247	245	245	249	251	251	249	249	249	248	248	248	248	245	248	246	248	246	246	251	250	249	249	249	248	249	248	247	247	250	250	250	250	248	250	253	254	253	249	248	248	245	244	244	244	245	249	248	246	244	247	249	249	251	249	247	244	245	247	246	246	245	243	241	239	240	242	244	249	249	250	250	244	246	244	242	243	243	244	246	246	243	242	239	240	240	241	243	0	0	0	0	0	0	0
279	279	279	280	279	279	278	278	279	281	283	285	285	286	286	284	283	276	276	276	276	277	276	276	276	276	275	274	276	279	279	279	277	276	275	275	274	275	275	278	280	280	280	278	276	274	275	275	278	280	281	280	279	272	273	275	274	274	276	278	279	281	283	282	282	280	277	278	280	278	278	278	277	278	277	275	276	275	276	276	277	278	279	281	279	275	270	269	269	270	270	271	271	271	271	271	275	278	278	276	275	274	274	276	279	272	271	270	271	269	273	274	279	276	277	276	272	272	273	272	271	270	272	274	275	274	272	271	271	274	279	275	276	274	273	277	279	280	280	277	274	274	274	275	274	275	273	273	270	270	269	271	272	274	274	278	277	272	272	272	273	276	273	278	278	278	277	275	276	276	277	276	276	275	272	271	272	272	272	271	270	268	267	268	267	269	272	273	274	273	272	275	272	272	271	270	269	270	270	274	276	277	274	276	273	278	276	273	273	273	273	273	270	268	270	272	272	273	272	274	274	274	274	272	270	269	268	272	272	272	268	269	270	274	274	273	272	270	269	269	270	272	273	273	274	272	272	272	270	270	269	269	272	267	269	269	271	274	273	275	271	271	270	268	269	270	269	270	270	268	267	267	267	269	271	270	268	268	268	268	265	266	267	268	270	272	272	269	266	266	266	265	265	266	266	268	267	267	268	267	271	270	270	266	265	266	268	270	270	266	264	264	265	267	267	266	263	264	263	264	265	266	267	269	271	270	270	272	271	271	271	268	264	263	264	264	264	265	266	265	265	263	261	260	261	261	262	262	263	262	265	264	263	262	264	265	265	265	262	262	264	265	263	261	261	258	257	258	258	263	267	266	263	263	263	262	261	261	261	261	262	263	263	262	263	263	262	259	257	255	258	257	257	258	260	261	263	259	259	258	259	258	262	263	262	262	260	262	263	264	264	263	263	263	262	260	261	260	260	261	260	258	257	258	258	254	254	260	262	258	260	258	257	260	257	259	259	259	258	257	254	255	254	256	258	256	256	256	258	260	261	261	261	261	258	256	256	258	260	261	261	259	260	259	258	258	252	256	256	258	256	252	251	250	247	250	251	255	255	253	253	252	253	253	251	253	253	252	252	252	253	252	252	253	253	252	252	251	252	253	255	254	254	248	247	246	247	248	249	251	252	252	252	252	251	250	248	247	248	250	253	253	249	254	251	249	248	249	251	253	253	250	249	248	247	245	246	246	246	249	247	247	248	249	249	247	246	246	248	248	248	246	246	242	247	242	244	245	244	244	242	244	246	248	249	250	247	248	248	248	247	245	245	247	248	249	251	249	248	250	254	254	253	248	246	245	245	245	245	242	244	245	246	246	247	248	248	247	247	247	247	245	244	244	245	246	245	244	241	241	242	242	242	245	245	245	243	241	242	244	242	242	243	242	243	242	240	240	241	241	241	243	244	0	0	0	0	0	0	0
273	273	273	275	276	275	276	276	276	279	283	284	281	281	280	281	278	274	274	274	276	276	273	274	274	275	274	273	271	272	273	273	273	272	271	268	273	274	276	276	280	278	278	275	276	274	271	271	270	271	271	275	277	275	272	272	274	274	274	274	277	278	277	277	280	278	275	275	277	277	276	277	273	273	275	274	273	273	274	273	270	270	269	270	273	271	269	268	268	269	270	270	269	269	269	270	272	272	269	268	270	273	275	276	272	269	269	269	268	268	269	272	275	274	273	274	274	273	272	269	268	270	271	272	270	269	268	267	269	269	272	269	273	271	271	270	275	278	273	273	267	269	271	269	273	271	270	270	267	267	269	269	270	271	271	278	280	272	271	269	269	271	273	276	276	275	273	273	273	274	274	273	273	270	270	270	271	271	271	268	265	265	264	267	268	273	270	270	270	270	271	268	270	271	269	268	268	267	267	270	271	272	270	270	273	275	273	271	271	274	273	271	266	266	269	272	273	271	271	272	274	272	273	272	270	269	268	269	269	270	267	266	268	272	273	272	270	269	270	268	269	269	271	271	269	268	268	270	270	268	269	271	273	268	269	268	269	270	269	267	264	263	263	260	267	268	268	267	268	266	265	267	267	268	271	270	268	266	268	267	262	264	265	268	269	269	268	268	267	264	265	264	264	265	265	264	267	266	266	268	269	270	266	265	263	263	264	264	267	262	262	261	262	264	266	262	259	257	261	262	265	265	266	263	263	266	267	268	266	265	264	257	257	258	261	262	261	261	258	258	260	261	261	261	259	260	260	261	259	259	259	262	260	260	262	265	264	263	261	261	263	263	260	258	256	258	259	258	258	260	264	264	262	260	261	260	260	262	262	261	259	260	262	260	261	258	257	256	256	256	257	257	255	257	259	259	259	257	257	256	257	258	258	260	260	260	259	259	260	262	259	260	259	261	258	256	256	258	259	259	259	256	256	257	254	253	255	253	255	255	256	258	260	259	259	258	257	256	255	254	253	253	252	254	256	258	258	258	258	257	257	254	255	260	259	258	257	258	263	264	263	261	259	257	255	254	250	248	252	256	256	254	252	248	248	251	252	253	253	251	251	250	249	250	250	250	253	254	253	253	253	252	250	249	248	248	247	247	247	250	253	251	249	246	246	247	250	252	252	252	252	252	252	251	250	249	248	246	248	248	249	251	253	253	248	242	244	245	245	246	248	248	248	248	246	245	246	244	245	248	246	246	247	248	248	247	246	246	246	246	248	246	249	247	240	239	241	243	241	239	240	239	240	246	248	246	248	245	248	244	244	242	244	242	246	247	249	249	244	243	243	245	245	244	244	245	245	245	241	242	243	242	243	243	246	246	246	246	247	245	243	245	245	244	243	244	244	243	242	241	239	239	240	239	238	238	240	239	238	239	241	240	240	240	241	240	239	238	239	239	241	241	242	0	0	0	0	0	0	0
268	268	268	269	271	272	275	275	279	280	279	273	271	271	274	275	276	273	275	275	276	271	268	269	268	268	268	268	269	268	271	271	272	271	269	270	273	274	276	276	277	271	273	270	271	274	272	271	271	271	272	275	275	274	272	271	269	271	271	273	277	276	273	273	272	272	271	271	272	276	278	278	271	270	270	271	273	272	272	272	270	269	269	267	266	267	269	269	268	269	267	267	267	265	262	262	262	264	267	266	267	269	270	270	269	269	269	269	267	267	269	275	272	269	269	268	271	269	268	267	265	269	270	265	267	267	266	262	261	262	263	265	265	269	268	265	264	265	261	265	266	267	268	268	267	267	264	264	265	265	267	267	269	270	271	272	273	273	274	272	269	271	274	273	271	270	270	269	268	270	271	269	265	266	268	269	268	270	269	266	263	261	263	266	266	266	265	265	265	266	265	267	269	261	267	266	266	265	266	268	270	271	267	268	270	269	269	267	266	268	266	264	263	263	265	265	266	270	269	274	271	271	269	271	270	269	268	268	270	266	264	264	266	269	271	268	266	267	266	265	267	269	268	266	263	265	269	267	269	262	260	265	269	268	267	267	267	267	265	264	263	262	260	260	260	260	261	263	267	267	265	264	264	264	267	268	266	266	267	267	261	260	263	265	266	268	266	265	260	259	259	261	261	263	264	266	265	264	264	265	267	267	263	262	261	263	264	265	264	262	262	259	261	260	260	258	259	259	259	259	260	262	261	257	258	259	260	261	262	262	263	257	255	258	259	261	260	260	258	258	260	260	259	260	259	257	258	259	258	257	258	258	259	259	259	259	258	258	259	260	259	258	257	257	259	259	261	258	259	259	259	261	262	262	260	259	259	260	261	261	258	257	259	257	254	254	254	254	253	255	256	256	254	255	257	257	258	259	256	257	256	256	258	259	259	254	254	255	258	260	255	256	258	256	255	253	252	254	258	257	257	256	254	255	253	252	251	251	253	253	253	257	259	258	254	257	253	253	253	253	253	252	251	254	258	256	256	259	259	254	256	251	251	252	253	253	251	253	256	256	259	255	255	253	252	251	247	246	245	251	252	252	251	253	252	251	251	251	253	252	252	249	248	249	249	247	248	251	253	252	249	248	248	246	247	247	248	248	248	248	248	249	246	243	246	249	249	251	252	252	253	252	247	247	248	248	248	247	247	248	247	247	246	245	246	242	243	245	245	245	246	246	246	244	244	245	244	244	243	242	245	245	245	241	244	245	244	247	247	246	248	249	249	244	244	239	239	239	239	239	240	240	242	242	247	243	246	246	242	240	241	240	236	237	238	242	244	243	239	239	242	243	244	245	245	244	242	241	239	239	239	241	241	240	244	243	244	243	244	245	243	243	246	245	244	243	243	243	241	239	237	239	239	239	238	238	238	238	238	238	238	239	238	237	238	237	238	236	236	237	240	239	240	0	0	0	0	0	0	0
265	264	265	265	267	270	271	273	273	273	272	268	268	268	268	269	270	272	273	273	271	265	263	264	268	268	268	268	268	269	270	270	270	269	268	267	270	272	270	270	265	265	266	267	271	273	272	271	271	271	272	273	273	273	272	272	273	274	274	275	275	271	269	269	270	272	267	269	271	270	270	270	270	266	265	263	266	272	272	272	272	273	272	264	263	263	265	267	268	267	264	263	262	262	260	261	261	264	266	266	266	265	266	268	269	269	269	268	268	267	272	270	268	267	265	263	264	268	267	266	263	261	261	262	264	264	263	259	260	261	261	260	262	261	269	263	263	263	260	262	265	264	264	264	266	266	264	263	264	266	266	267	265	264	264	271	271	272	269	269	268	265	264	264	264	265	266	266	263	263	264	264	264	264	264	267	268	268	266	264	261	262	264	267	267	266	264	263	263	262	265	267	267	262	264	267	265	264	265	267	267	268	268	267	267	267	267	266	265	266	261	261	261	261	262	262	262	261	260	264	267	266	265	268	269	268	268	267	269	267	262	258	262	266	266	266	264	265	264	263	263	261	260	260	262	264	264	265	266	261	259	263	266	267	267	265	263	263	262	261	259	260	258	260	263	263	262	261	261	267	270	267	260	261	266	266	265	265	264	266	264	258	259	264	260	264	263	261	259	259	259	261	261	261	263	262	260	262	263	263	265	265	264	262	260	259	260	259	260	264	262	258	260	257	258	257	258	257	257	259	258	259	256	255	256	258	260	260	260	260	259	260	260	260	259	260	260	256	256	257	259	260	260	259	258	253	257	257	257	257	257	257	259	259	257	257	258	258	259	258	258	257	256	256	254	257	260	259	258	258	259	257	259	259	258	257	257	257	257	260	257	256	257	255	255	255	254	253	253	255	256	255	253	255	256	257	260	257	256	256	255	257	257	257	254	254	255	258	255	256	252	254	254	255	252	252	251	251	257	256	254	251	253	252	250	250	250	250	250	251	254	255	255	253	253	251	250	250	251	251	249	251	247	253	254	254	253	254	255	255	257	250	251	252	254	253	250	245	247	243	246	249	253	248	248	247	245	244	246	249	252	252	252	253	253	252	250	248	249	251	248	247	249	248	247	247	246	245	244	244	247	247	245	245	245	246	244	247	246	246	247	245	244	242	245	248	249	249	245	246	244	245	246	245	247	241	245	246	246	246	245	246	246	243	241	241	241	246	247	245	246	244	242	238	238	239	238	240	239	241	244	246	244	241	243	245	245	250	249	250	251	251	249	244	239	239	238	238	239	240	238	238	237	235	237	244	245	239	241	238	240	239	237	238	236	236	234	235	239	239	242	244	244	245	244	242	240	239	239	238	239	240	238	238	240	240	242	243	243	242	241	242	243	242	242	241	240	240	240	237	238	235	233	230	230	235	236	235	236	238	238	237	236	237	237	235	236	236	236	236	237	238	236	0	0	0	0	0	0	0
263	261	261	261	263	264	267	270	270	270	268	264	264	264	262	265	265	272	270	270	266	261	259	260	265	265	268	268	267	267	269	270	270	272	271	268	270	271	267	265	265	264	265	265	266	269	269	270	270	270	269	267	270	271	272	272	271	268	265	265	267	266	264	264	266	267	268	269	269	266	266	268	268	266	264	264	270	270	272	272	270	269	268	267	266	264	264	267	268	263	261	261	262	260	260	261	261	262	264	264	265	263	264	266	267	268	268	267	265	265	268	268	264	262	262	262	259	262	262	265	261	257	257	257	262	260	258	258	258	256	255	255	257	257	263	260	259	258	258	257	256	258	256	258	260	263	262	258	255	255	257	259	260	261	263	266	270	269	267	265	266	266	261	261	261	262	263	263	262	262	262	264	263	261	261	264	265	264	261	260	260	261	267	267	266	263	262	261	261	262	264	265	264	265	267	266	261	261	264	264	262	264	267	267	266	264	264	264	262	258	259	260	258	258	260	260	260	258	255	261	262	263	264	264	266	266	266	264	264	260	261	259	261	261	263	261	262	262	259	261	260	260	259	260	262	263	261	257	256	255	255	258	257	258	258	260	260	255	255	255	257	255	256	259	262	263	264	263	259	255	259	259	255	260	265	264	259	258	258	257	255	261	258	262	260	264	262	261	259	259	259	261	264	261	260	259	258	260	260	263	264	264	263	260	258	257	257	257	257	257	261	261	259	258	255	257	257	257	259	257	257	256	254	252	253	257	260	261	260	261	260	259	259	259	258	258	257	255	255	258	258	258	258	255	254	253	253	256	256	256	255	255	254	254	255	255	254	256	256	256	257	256	254	253	251	253	254	258	257	256	257	258	258	257	252	252	251	256	257	257	253	252	253	253	253	256	256	256	255	255	255	255	253	254	256	259	258	256	253	253	253	253	251	253	250	250	255	252	252	246	246	248	247	253	254	255	251	253	254	254	252	250	251	251	250	249	249	249	248	248	253	255	253	253	250	249	248	248	248	248	247	246	250	249	249	249	252	253	253	254	253	249	248	252	253	250	244	243	242	244	244	246	246	246	247	245	243	244	245	248	250	248	250	255	248	239	239	242	242	242	243	244	252	252	250	251	246	244	241	242	244	246	247	245	244	244	244	245	242	246	243	242	242	243	244	248	248	242	242	245	246	243	243	242	240	240	239	244	245	245	245	245	241	239	239	242	245	245	240	244	241	237	238	238	241	240	236	238	239	241	238	237	235	234	240	246	248	244	243	244	246	248	247	243	237	236	236	238	238	239	238	237	239	237	234	237	240	240	238	238	238	238	237	234	234	236	236	235	235	238	238	240	239	239	239	240	238	237	236	238	238	238	237	236	238	238	241	242	241	237	239	238	238	239	240	237	236	237	238	239	237	236	232	235	235	233	234	235	235	236	237	236	235	236	236	233	233	234	234	234	235	235	236	0	0	0	0	0	0	0
263	261	257	257	260	261	260	263	263	266	265	265	263	261	261	261	261	264	267	267	264	260	258	259	259	261	261	262	263	267	270	267	267	264	266	268	269	267	266	265	264	263	263	264	266	267	269	270	269	269	263	264	266	268	269	269	265	264	264	264	264	264	263	264	263	266	268	269	263	263	263	267	267	265	260	260	263	264	265	265	269	268	268	268	267	267	267	262	260	261	262	261	262	260	259	260	261	261	262	263	262	261	263	264	266	266	261	260	260	261	260	262	260	260	260	258	258	261	262	262	260	258	257	256	255	256	257	258	258	255	255	254	256	256	257	258	258	257	257	256	254	251	251	254	255	255	256	256	255	256	257	260	261	262	261	263	260	257	254	253	264	264	265	262	259	260	261	261	261	260	260	260	261	260	259	259	261	260	258	257	258	261	266	266	265	262	260	261	262	263	262	262	262	262	261	260	256	254	253	256	259	258	262	266	264	261	262	260	257	255	255	258	259	258	259	262	262	259	259	261	261	261	257	256	263	258	260	260	260	260	259	258	258	258	259	259	259	259	259	260	258	257	257	258	258	260	258	259	261	260	258	257	253	252	253	256	258	256	254	254	255	252	254	256	258	259	258	253	252	252	255	257	255	255	255	261	257	256	252	254	257	257	261	259	264	263	261	258	258	259	255	255	256	257	258	256	257	258	259	260	261	258	257	258	257	254	257	257	257	257	259	260	259	259	257	257	256	256	257	257	256	256	253	252	252	254	257	260	259	253	257	256	256	255	252	254	256	256	255	257	258	257	256	256	254	254	256	256	253	256	253	253	253	252	254	254	252	251	252	253	254	253	252	250	251	252	255	256	251	256	257	257	257	251	252	251	251	251	252	248	248	249	249	249	248	252	254	254	249	252	251	251	251	255	256	252	253	251	251	252	251	251	251	252	247	246	248	247	246	246	244	245	247	247	247	247	246	250	253	254	256	253	253	251	250	247	249	247	248	250	248	249	249	251	249	248	248	247	248	247	248	247	248	244	244	245	247	250	246	245	245	247	249	251	251	250	244	242	242	244	244	246	247	245	244	242	241	245	245	248	246	246	253	248	246	239	240	243	244	245	237	236	241	243	240	243	239	244	240	242	245	246	246	248	243	243	242	244	241	240	243	241	242	243	247	248	240	241	243	245	244	243	242	242	240	240	239	243	243	244	243	242	237	235	241	242	242	240	238	244	241	238	238	235	235	235	235	236	237	237	239	236	237	237	237	237	239	240	238	239	241	241	242	242	237	236	235	238	240	236	240	236	238	234	236	236	240	239	237	238	240	240	235	234	234	237	236	233	232	233	237	237	238	235	235	237	236	235	236	237	238	238	235	235	232	237	239	240	237	236	235	235	232	231	233	234	235	236	235	235	236	236	236	236	235	234	234	233	231	233	234	235	234	234	235	234	232	232	233	233	235	236	234	0	0	0	0	0	0	0
260	255	254	254	258	259	260	262	265	265	266	266	263	261	261	259	258	260	262	259	259	259	257	256	256	256	256	256	259	265	267	265	258	258	257	260	262	265	264	264	261	261	261	265	266	269	268	269	261	261	258	260	262	264	267	263	263	264	264	264	265	259	262	262	263	264	262	263	257	261	261	265	257	257	257	257	260	262	263	259	265	266	268	267	265	263	264	264	259	258	260	261	262	260	260	259	259	260	260	258	260	259	261	263	263	261	260	259	260	261	260	261	261	258	258	257	258	258	259	259	258	257	255	254	254	255	256	256	252	251	251	252	253	255	256	258	257	256	254	253	250	251	252	253	254	253	255	256	254	255	256	257	255	253	261	259	253	253	254	254	256	258	259	258	258	257	260	260	260	261	261	260	260	260	258	257	255	253	254	255	255	259	258	259	258	258	257	257	262	261	260	258	256	258	257	255	253	249	251	252	255	257	258	260	259	260	258	259	255	256	255	254	256	258	261	258	258	258	258	259	259	257	255	255	256	257	259	260	260	257	258	259	259	259	260	259	260	256	253	253	252	254	254	253	253	253	255	258	261	260	259	256	254	253	251	250	254	252	253	252	253	251	250	254	257	257	257	255	251	250	252	255	255	255	255	257	258	250	250	252	253	257	260	259	258	257	256	258	258	253	255	255	255	255	256	256	256	256	257	256	255	254	253	253	254	254	255	256	257	257	257	258	252	255	259	254	253	255	256	255	255	253	252	250	252	253	253	254	255	252	251	255	253	252	253	252	251	250	248	250	250	253	253	253	253	254	250	252	254	253	253	253	254	253	254	252	251	251	249	250	249	249	249	248	248	250	252	250	251	251	255	253	252	251	251	250	251	250	251	250	250	249	250	249	251	250	249	250	251	251	251	249	249	249	251	250	250	250	249	250	250	251	251	248	246	247	245	243	242	244	246	246	246	245	241	240	240	244	244	246	249	250	250	250	249	246	246	245	244	246	248	247	248	248	248	248	246	245	245	246	247	245	245	245	243	247	247	247	247	248	244	243	246	249	246	247	244	241	241	242	242	246	245	244	244	241	243	243	245	247	245	246	249	250	244	237	239	243	244	245	236	235	238	240	240	242	242	239	238	242	245	245	246	245	242	241	242	242	242	240	243	242	243	236	236	238	239	240	240	243	242	242	242	240	240	239	239	239	241	243	236	234	234	236	235	238	239	239	241	242	237	236	235	235	234	234	234	229	233	236	236	234	234	238	237	234	237	237	238	239	239	239	238	230	231	232	234	236	234	234	236	236	237	234	231	230	235	236	235	238	243	238	238	235	234	235	234	233	232	235	238	238	237	236	235	235	235	237	238	237	236	232	234	232	230	237	239	240	235	232	235	234	235	233	234	233	234	235	235	235	235	236	235	235	234	230	228	227	229	231	233	233	229	229	233	231	231	231	232	233	235	236	234	0	0	0	0	0	0	0
