397	397	400	398	400	404	404	405	405	403	403	403	403	406	408	407	394	394	396	399	403	404	399	399	399	399	402	403	403	402	399	399	397	400	404	405	408	408	404	404	404	409	409	410	411	408	407	405	405	406	407	403	396	396	399	403	408	407	407	401	401	399	396	394	393	395	400	403	406	409	407	403	395	395	398	404	406	407	407	407	406	406	403	401	401	404	405	393	390	388	390	392	397	399	400	400	399	398	397	396	393	394	395	395	400	399	402	404	403	400	394	392	395	395	397	398	396	391	393	398	396	393	393	390	392	393	390	387	389	391	394	396	395	394	392	386	385	384	381	377	374	373	378	384	387	388	387	388	390	392	388	386	387	388	393	395	395	392	392	391	396	396	391	387	384	382	380	383	384	388	387	389	390	391	390	388	384	383	382	380	375	371	372	376	386	390	391	390	387	385	384	383	384	384	384	383	382	381	384	389	383	380	380	380	378	378	380	381	385	386	388	389	387	385	382	380	375	372	373	376	376	378	380	382	379	376	373	374	376	380	380	387	386	385	386	384	382	380	380	380	381	381	384	382	381	374	376	376	385	387	385	383	383	385	388	391	389	385	383	380	378	378	380	384	387	384	380	380	380	379	379	373	371	371	372	383	383	380	378	376	376	374	374	372	374	374	374	372	370	368	376	380	382	380	373	371	368	369	369	369	372	373	374	376	379	378	381	377	379	378	375	373	373	374	375	378	377	375	375	373	372	372	374	376	381	381	379	377	376	375	375	373	370	367	365	363	364	366	367	365	363	367	371	370	367	364	364	365	368	368	371	371	371	371	370	367	368	369	366	364	362	364	362	363	363	367	366	365	366	365	363	362	362	359	358	358	363	366	367	364	361	358	370	364	367	370	369	366	365	366	364	363	367	367	367	368	367	366	365	363	364	363	367	368	368	366	364	360	357	357	359	363	364	364	363	365	370	373	371	369	364	361	365	367	366	367	366	362	361	358	356	354	353	355	351	353	354	358	359	359	359	358	357	356	353	352	350	350	351	353	355	354	354	356	358	363	362	360	354	359	359	359	358	352	353	353	355	356	356	353	353	353	352	354	355	355	351	350	347	350	351	350	348	348	348	350	354	357	361	359	360	357	354	347	339	344	344	350	350	349	349	347	347	344	344	345	346	346	344	347	344	339	336	339	340	342	343	340	336	338	341	343	342	343	340	341	344	343	344	346	348	350	349	343	343	341	343	345	346	345	347	344	344	344	343	342	340	351	353	338	336	335	336	338	340	340	342	345	345	345	343	340	338	339	340	338	337	337	340	344	340	335	332	330	333	340	344	342	343	340	339	335	335	336	338	340	347	347	343	343	338	337	337	338	337	337	337	335	332	330	327	335	336	337	339	339	339	339	337	335	335	335	335	336	337	339	338	336	337	336	339	339	337	338	336	336	336	336	334	331	330	329	0	0	0	0	0	0	0	0
394	394	395	395	397	399	399	402	401	399	399	399	398	398	400	396	389	389	388	394	398	393	390	392	392	391	391	393	393	394	394	394	394	396	398	401	401	394	392	392	395	394	396	400	404	403	398	397	397	400	400	394	391	391	395	398	400	398	397	397	397	396	393	390	392	393	397	402	403	402	397	393	391	390	390	393	400	403	403	406	406	404	399	393	389	389	391	388	387	387	387	388	393	397	398	399	398	392	390	391	393	392	389	388	387	386	388	390	389	388	385	383	386	392	394	394	392	388	386	391	392	389	388	388	389	389	387	381	384	387	390	391	389	389	384	379	380	381	379	379	376	376	376	380	384	384	384	383	385	385	386	385	383	384	384	383	381	378	378	382	387	388	383	380	380	378	377	375	377	380	382	384	386	388	387	383	377	379	380	378	374	368	368	369	383	386	388	384	380	380	384	384	381	379	378	376	375	376	378	380	383	385	383	380	376	376	377	381	380	380	381	382	382	381	380	377	374	368	368	367	373	376	379	380	376	373	373	373	375	376	377	376	379	379	379	380	380	378	379	379	367	363	371	372	369	370	369	370	378	376	372	375	381	382	384	373	372	374	371	368	372	374	376	377	375	376	377	377	375	370	368	367	367	369	369	375	378	379	378	374	372	370	370	370	371	372	370	371	370	369	373	374	378	374	371	370	369	366	367	370	370	368	369	369	372	370	371	371	372	370	369	368	366	367	369	373	373	368	370	370	370	367	367	370	373	376	374	372	372	372	372	371	368	367	365	361	360	360	361	361	361	361	360	358	356	356	356	357	361	362	370	368	368	367	363	363	364	366	365	363	361	360	360	360	358	356	358	360	357	359	359	359	358	360	361	359	356	353	360	358	358	359	367	360	359	362	363	364	363	361	361	359	358	362	365	365	362	360	361	360	360	360	365	366	365	357	355	356	355	354	355	360	360	360	361	362	362	366	370	367	361	356	356	358	364	365	364	359	356	358	356	351	347	348	350	351	354	356	356	356	356	355	355	356	353	349	347	348	349	351	353	353	351	350	353	360	361	354	356	355	357	357	351	349	348	352	353	355	349	347	350	352	353	353	353	350	345	343	342	345	350	350	348	345	344	340	339	344	346	347	346	343	338	336	336	340	344	346	342	344	345	343	340	338	340	341	343	344	336	335	337	337	337	339	341	341	340	336	333	333	335	338	341	340	337	337	338	340	343	345	347	350	350	341	338	336	336	332	330	337	338	340	345	347	348	347	350	344	341	339	336	337	338	338	339	339	338	340	342	341	340	338	335	335	339	337	336	338	340	342	339	335	329	327	329	331	334	337	337	331	330	330	334	335	335	339	340	341	336	334	336	335	335	334	330	331	335	333	329	330	327	325	326	332	330	330	332	332	332	334	330	330	330	331	333	332	331	328	325	325	328	331	329	330	332	335	335	334	330	329	325	323	0	0	0	0	0	0	0	0
391	391	393	394	396	397	397	398	399	397	390	387	387	390	393	390	384	384	385	390	392	389	388	387	387	388	388	391	392	393	393	393	393	394	395	395	389	385	382	382	382	384	387	390	392	392	390	390	394	394	394	390	387	388	392	395	395	395	392	391	391	388	386	389	388	389	392	393	393	393	391	389	387	386	387	386	392	398	403	403	402	394	391	384	384	386	387	386	384	383	384	386	386	389	391	393	391	385	382	384	389	387	386	385	384	383	383	380	377	374	375	379	383	386	388	390	388	385	383	381	384	387	386	385	385	387	385	375	370	371	373	376	381	380	372	373	375	377	379	379	379	377	376	375	378	382	381	379	380	379	382	385	382	378	370	371	374	374	374	377	383	382	378	377	375	374	374	374	372	373	373	370	369	364	370	372	372	372	370	365	363	363	366	368	375	376	374	373	370	373	376	376	375	375	374	371	371	371	375	378	381	381	381	379	373	374	378	380	379	377	375	378	378	376	374	376	372	369	364	363	367	372	374	378	377	374	373	373	373	373	374	373	371	369	371	373	376	377	376	374	364	360	361	363	366	369	369	370	373	374	372	374	380	367	366	367	366	365	362	361	367	372	375	375	376	374	374	375	373	369	366	366	364	366	368	374	374	374	376	372	368	366	365	367	369	367	370	371	371	367	368	370	373	373	370	369	368	365	359	361	362	364	364	365	366	366	366	365	364	363	362	363	359	358	359	359	361	363	367	366	365	361	361	361	363	363	364	365	365	367	369	369	366	366	364	358	351	350	354	360	361	358	356	357	356	356	353	353	355	358	359	360	358	356	356	359	359	362	362	359	358	358	359	358	354	353	355	355	354	357	359	358	359	358	361	361	360	357	355	358	359	359	360	356	355	357	359	359	360	358	358	357	355	354	358	357	356	358	357	357	357	359	361	358	356	353	353	353	353	353	353	354	358	356	356	359	357	358	364	363	356	354	352	353	355	355	356	354	352	356	348	345	345	348	350	351	352	353	351	355	355	356	354	354	348	341	337	325	343	344	348	348	346	344	349	353	356	356	356	355	355	353	347	344	344	348	353	352	347	344	345	349	353	354	348	346	341	339	342	346	349	348	343	345	344	343	342	341	341	341	340	339	339	339	342	341	340	336	333	336	338	335	334	335	337	340	340	339	332	331	334	336	338	336	337	337	337	333	329	327	333	337	336	336	335	337	340	342	343	340	340	341	341	339	336	335	334	332	329	326	327	335	336	341	347	348	341	339	339	337	335	332	331	337	337	338	337	336	337	339	337	334	332	332	335	329	330	334	338	338	337	333	327	325	328	329	333	333	331	325	322	325	327	332	334	334	336	330	325	326	328	334	332	330	329	329	329	330	328	328	325	323	323	325	325	324	324	327	327	329	329	329	327	327	327	321	320	320	320	323	327	324	323	323	326	327	327	332	328	324	322	321	0	0	0	0	0	0	0	0
388	388	389	389	393	393	393	393	392	388	384	382	382	385	391	390	387	384	384	385	383	385	384	385	385	386	387	389	390	390	390	390	390	389	390	385	382	380	379	379	379	382	385	389	391	390	388	386	387	387	388	388	386	386	388	390	393	383	377	376	377	377	381	384	386	389	387	378	376	377	379	380	377	374	376	379	385	392	394	394	393	390	383	383	383	384	383	384	383	382	382	383	382	379	379	379	377	374	373	376	382	385	385	383	382	380	377	375	373	373	373	376	380	381	381	381	382	379	379	379	380	382	382	381	379	377	374	369	370	374	376	374	373	366	366	369	371	373	376	378	374	368	372	370	372	377	372	369	372	376	381	380	371	368	367	367	371	373	371	375	381	381	378	374	373	370	373	375	372	368	363	359	360	365	367	371	374	374	368	364	362	363	365	366	369	368	369	367	367	365	364	368	367	361	360	370	363	367	372	375	379	379	377	371	373	374	377	376	374	373	370	368	365	366	367	368	369	361	363	362	363	367	368	371	371	372	373	375	368	366	367	367	369	367	368	370	373	374	373	370	368	360	360	363	366	368	372	374	374	368	363	358	365	363	363	362	362	362	364	364	360	368	372	371	370	369	370	372	370	369	366	364	361	362	365	367	367	366	363	360	360	360	366	366	366	369	372	370	364	362	364	366	368	372	370	367	367	361	357	359	362	361	361	363	364	364	363	363	360	362	365	365	361	359	359	355	354	357	362	363	361	358	358	359	359	358	360	360	359	361	361	365	366	364	357	351	346	346	349	353	356	357	355	354	354	353	352	353	352	353	352	354	353	350	353	356	354	356	357	355	355	351	351	351	352	354	354	353	351	354	356	358	358	360	358	357	354	351	352	354	359	359	358	356	351	350	352	353	353	355	355	359	358	355	355	355	354	352	357	349	350	357	358	358	356	354	353	353	352	352	353	354	354	355	357	356	355	355	355	355	353	350	348	347	350	349	349	348	342	343	342	339	339	343	348	350	347	345	348	352	352	350	349	340	335	333	327	337	333	335	341	337	334	333	335	341	349	354	355	354	353	344	345	342	341	343	347	346	343	339	337	340	347	348	336	336	335	336	340	344	345	345	338	337	340	341	338	336	336	335	337	336	336	339	338	338	336	330	326	327	329	329	326	327	337	337	336	335	329	327	330	335	334	332	331	332	332	330	326	327	331	335	336	330	336	338	337	336	336	336	335	335	335	335	336	334	333	332	328	325	324	324	324	324	332	336	338	338	337	337	334	331	330	331	334	333	330	331	333	333	333	330	331	333	331	328	330	325	334	334	334	332	327	326	326	329	329	329	325	321	321	323	328	328	325	322	321	320	322	323	323	326	332	330	328	326	327	327	327	327	324	323	326	327	326	323	323	322	325	327	328	327	326	322	317	313	317	317	320	320	320	318	316	318	321	320	320	318	317	319	319	318	0	0	0	0	0	0	0	0
381	381	381	380	383	384	384	384	381	379	378	378	378	381	388	387	384	377	377	376	376	379	380	382	382	383	385	388	386	386	384	384	382	383	382	381	379	378	377	378	378	381	385	389	391	388	379	370	371	371	374	380	384	384	382	380	381	377	366	366	367	367	370	376	379	380	377	372	373	374	377	379	373	369	367	370	376	380	382	382	386	385	381	381	380	378	379	377	375	373	372	374	378	376	374	373	371	371	373	373	372	371	373	376	380	380	377	373	372	371	371	372	377	376	375	372	373	375	375	376	376	378	378	377	374	371	373	370	370	373	377	376	370	365	363	361	365	369	371	371	370	365	363	364	367	366	364	365	367	371	373	371	366	365	364	363	365	366	370	374	378	381	379	375	372	370	371	374	375	359	358	358	360	364	367	371	372	369	366	362	362	363	364	365	365	364	363	361	364	362	361	358	358	354	352	350	354	357	366	370	375	370	368	363	361	361	363	364	367	367	367	365	363	357	354	356	359	358	360	361	359	360	365	368	371	371	371	369	363	357	356	358	365	369	369	367	367	369	366	367	366	366	363	362	360	363	368	369	369	365	361	358	356	353	355	357	360	362	364	363	358	359	364	367	366	362	365	364	369	368	366	363	361	362	363	365	364	362	359	360	360	361	362	362	365	368	364	363	363	361	361	362	366	369	367	365	360	355	355	358	358	358	359	360	361	361	359	359	356	362	365	364	363	362	365	357	355	355	358	358	358	355	355	356	357	356	357	357	355	355	356	357	360	358	349	345	344	343	345	348	349	351	353	353	352	352	351	352	351	352	351	349	345	344	347	351	352	351	351	349	349	348	347	349	352	352	351	347	346	345	351	355	356	357	355	351	346	348	351	353	355	359	356	348	346	346	346	349	350	350	352	351	354	354	355	355	350	349	345	354	347	348	350	350	349	349	350	350	350	349	350	346	346	346	352	352	351	347	345	348	343	343	347	345	344	342	344	343	339	338	338	338	338	340	342	342	340	337	338	341	342	343	339	337	337	330	330	336	334	335	341	337	337	332	334	332	334	339	340	339	335	335	340	340	338	339	339	338	335	333	331	330	336	335	334	332	331	332	339	341	336	330	330	332	336	334	335	335	333	330	330	331	333	331	329	329	328	326	324	326	325	325	328	326	328	332	332	332	327	325	326	332	333	332	328	327	326	327	328	329	332	333	329	315	323	326	326	327	332	333	333	333	334	334	332	330	330	329	328	325	322	318	319	322	328	334	336	338	336	335	332	331	330	330	330	328	325	326	328	327	327	327	328	327	324	324	325	321	323	328	329	328	325	324	322	324	326	325	315	315	318	322	323	321	317	315	315	317	323	323	321	321	327	329	326	323	327	325	321	321	319	320	320	318	315	315	313	314	316	318	318	318	320	319	317	313	313	314	316	316	316	314	312	315	317	317	316	314	314	315	314	313	0	0	0	0	0	0	0	0
375	375	376	378	378	377	376	376	375	374	373	375	375	380	385	388	371	369	369	370	372	375	379	382	381	381	382	383	383	381	381	381	381	381	380	379	377	375	374	375	375	379	384	386	380	376	373	366	365	365	370	377	381	379	381	378	375	371	372	374	373	373	368	361	359	367	372	370	371	375	377	378	375	372	366	363	362	360	366	373	373	376	377	377	379	379	379	375	371	368	366	368	368	372	371	369	369	372	372	371	369	369	372	374	377	382	381	375	373	371	370	369	368	368	366	367	367	367	371	371	370	369	371	372	371	369	368	370	370	377	375	373	369	368	366	366	367	368	369	369	364	361	360	361	363	364	362	363	366	371	372	367	364	364	362	362	364	367	370	373	378	381	380	375	361	358	358	359	358	355	354	355	356	358	358	361	363	366	365	363	364	360	362	361	362	360	360	357	358	357	357	355	352	351	350	351	351	355	359	360	368	362	362	363	363	360	363	365	364	365	365	362	359	356	355	355	355	357	357	358	360	361	362	364	363	363	356	355	355	355	358	360	363	363	363	362	362	364	365	361	358	359	356	356	356	356	357	354	355	357	359	360	359	357	355	353	357	361	362	361	359	360	359	357	355	362	360	358	358	361	364	365	364	360	360	365	364	362	360	361	360	360	358	355	358	358	360	359	358	360	362	358	356	354	351	348	349	350	352	356	357	356	357	358	356	356	355	355	356	361	361	355	361	367	369	362	360	356	355	358	356	354	354	356	355	356	355	350	351	351	350	352	352	346	344	344	344	343	342	343	345	347	349	349	349	343	340	340	342	347	347	347	346	346	346	346	343	340	341	342	342	347	351	352	352	351	346	344	345	344	350	350	346	339	338	337	338	345	349	352	354	353	347	341	340	340	339	341	342	348	348	346	348	346	343	346	348	345	342	339	341	341	337	338	340	340	342	343	343	342	341	342	343	345	346	348	347	348	342	340	338	342	342	342	338	337	338	337	338	337	337	336	338	338	338	337	338	337	335	332	331	334	332	335	334	328	330	332	336	332	331	335	338	338	332	330	331	336	338	337	335	337	338	336	335	334	333	332	331	329	329	329	329	330	329	330	328	329	327	330	326	325	324	327	328	331	334	335	334	331	330	330	325	322	324	323	323	319	322	323	324	326	325	322	323	326	327	326	321	321	324	328	333	330	325	322	322	322	325	326	325	319	316	319	319	322	326	325	323	322	322	322	327	326	327	325	323	324	326	325	318	320	321	322	325	327	330	331	331	330	330	331	329	330	325	323	323	323	321	320	321	322	324	325	322	321	321	316	317	317	317	315	314	314	315	319	318	315	314	317	319	320	319	318	316	312	313	314	318	319	318	317	320	320	318	327	327	324	322	318	317	314	314	315	314	314	312	314	315	316	316	317	317	317	316	313	314	314	313	315	314	311	309	311	310	310	312	313	314	313	313	312	0	0	0	0	0	0	0	0
371	374	374	374	374	372	371	371	370	371	371	375	375	377	382	380	366	370	370	372	373	375	378	378	372	372	370	372	374	377	375	368	368	368	369	368	371	371	370	371	371	374	374	375	373	370	366	369	370	370	374	376	374	374	373	370	369	377	379	377	367	367	361	362	361	358	357	356	358	362	363	366	366	360	359	356	354	356	357	363	363	370	373	375	378	380	377	373	368	367	365	363	362	362	368	366	369	368	369	369	367	367	365	368	373	381	380	376	374	372	368	366	364	363	363	363	364	366	367	367	365	364	366	366	366	367	367	367	370	372	364	365	366	365	363	365	366	365	368	363	356	357	356	357	360	360	362	363	366	370	369	364	363	362	361	360	361	364	366	363	369	374	372	368	362	358	355	352	350	351	351	353	353	354	355	358	360	362	361	360	362	362	360	357	360	358	356	356	355	353	352	350	350	350	351	350	348	352	356	357	355	355	357	364	364	363	362	362	363	363	362	361	359	358	356	355	355	354	356	357	355	358	358	354	352	351	353	350	351	353	353	353	355	355	354	353	354	357	362	357	352	345	340	343	352	352	352	352	353	352	353	353	355	354	354	355	355	352	355	354	355	348	354	355	354	353	352	353	353	355	356	356	355	354	355	356	362	358	357	358	358	359	358	356	354	353	353	352	352	352	353	355	354	351	348	345	345	347	348	353	355	353	353	353	351	349	346	346	346	347	345	356	362	364	363	360	358	359	355	355	350	348	348	350	349	350	345	344	345	346	344	343	343	343	343	344	343	342	340	340	342	345	345	345	340	339	340	342	344	350	349	347	346	345	345	344	343	341	340	342	342	341	345	348	348	348	346	345	346	349	349	344	340	339	337	334	334	339	344	350	343	342	341	339	338	338	336	338	339	345	346	342	336	334	337	342	346	345	341	340	339	336	336	336	338	339	340	340	339	340	340	342	341	340	341	342	343	344	342	338	335	332	334	334	334	334	335	335	337	336	336	336	337	336	335	334	334	334	332	330	327	327	325	333	331	327	327	325	324	324	326	330	329	330	329	329	330	332	331	332	332	338	336	333	331	330	330	329	331	333	328	327	324	326	327	320	320	319	321	324	325	324	320	319	325	329	332	335	334	331	330	328	324	321	316	318	319	318	318	320	321	322	322	321	321	320	323	320	318	319	321	327	329	327	322	318	320	318	321	323	322	317	316	319	320	324	323	322	321	317	315	317	320	322	317	319	319	320	321	327	320	320	320	320	319	316	317	319	320	323	325	326	326	324	322	320	320	320	319	317	317	319	320	319	316	318	316	311	310	310	310	310	312	312	315	318	316	313	315	317	318	317	317	315	312	311	311	313	316	317	317	314	313	312	309	311	313	316	316	313	311	311	311	311	309	309	311	314	315	315	315	315	315	315	314	312	311	314	313	314	314	311	307	306	309	309	310	311	312	311	312	312	0	0	0	0	0	0	0	0
369	375	375	375	370	365	364	364	368	372	371	369	369	371	371	363	367	370	370	368	365	368	371	366	361	361	364	363	363	366	368	365	365	366	367	368	369	368	369	371	371	374	369	366	364	365	366	367	367	369	369	366	366	368	367	365	364	361	360	361	361	365	365	366	364	361	360	359	360	359	359	362	364	364	358	356	353	350	353	358	358	361	360	358	360	362	364	365	367	366	365	362	358	358	363	366	363	364	365	366	366	364	362	363	370	374	374	374	372	370	367	363	361	357	357	361	363	363	362	362	360	360	361	358	360	361	364	367	366	361	359	358	360	360	362	363	362	361	353	345	346	350	353	355	355	353	354	361	365	368	362	353	353	353	355	351	353	354	358	352	353	357	359	364	363	347	350	351	348	348	349	350	351	351	352	356	356	355	351	356	361	362	358	357	357	355	351	348	347	348	347	348	348	347	346	348	350	353	356	354	352	350	349	350	355	361	355	357	353	351	352	356	359	356	357	355	354	350	350	348	350	358	357	353	349	348	348	347	347	348	349	351	351	353	350	348	349	351	352	348	345	343	344	348	350	349	347	347	347	350	351	349	345	349	347	350	348	345	342	341	343	346	348	351	351	348	348	348	346	347	347	350	352	351	352	350	354	358	352	349	354	355	356	355	352	348	347	347	348	349	352	353	352	350	344	344	344	344	344	346	348	352	351	350	348	347	345	344	345	344	346	357	358	361	360	359	356	359	358	353	349	347	347	347	344	345	342	340	343	343	342	343	342	343	342	343	341	341	340	337	340	343	343	342	340	339	341	346	344	343	346	345	345	339	340	340	341	342	341	341	340	337	336	337	338	345	347	348	349	349	345	340	338	337	335	333	329	336	340	342	340	338	337	338	337	334	336	335	338	343	341	339	335	334	337	342	342	342	339	337	335	334	334	333	337	336	337	336	336	336	335	333	334	337	338	339	332	332	340	332	333	332	330	332	333	332	333	333	334	335	333	333	332	331	330	330	331	331	328	325	325	322	317	320	328	324	323	322	322	323	327	327	326	322	326	326	328	327	326	330	330	333	333	329	328	326	325	327	331	333	331	324	321	318	321	323	323	321	322	324	324	321	316	314	319	325	330	326	324	320	317	322	321	314	313	314	314	318	317	315	317	317	319	321	321	319	319	315	314	314	315	317	317	323	319	316	316	317	317	318	318	316	315	318	319	322	322	320	317	314	315	316	320	321	319	315	315	318	317	315	317	317	316	316	312	313	316	317	318	321	322	319	315	305	304	304	306	308	308	309	312	312	310	309	314	312	306	303	298	295	306	308	311	313	313	314	312	313	313	312	314	315	314	312	308	306	306	308	312	314	312	310	310	309	307	307	308	310	311	308	308	307	307	308	308	307	309	313	312	311	311	311	313	313	312	311	309	313	309	311	311	307	303	305	305	306	308	308	310	311	312	310	0	0	0	0	0	0	0	0
370	372	372	372	365	357	359	359	363	367	369	369	368	368	363	364	364	364	362	362	360	359	358	358	360	360	361	359	358	359	362	364	364	365	367	368	366	367	368	370	370	372	368	361	360	360	362	364	363	364	360	359	355	362	362	360	357	353	353	356	359	361	361	364	365	362	362	359	360	359	359	358	358	359	358	357	355	354	353	350	348	348	351	355	357	359	361	362	363	364	364	360	355	351	355	359	358	357	357	362	364	360	356	358	364	369	370	370	368	364	359	357	356	355	354	354	353	353	351	353	354	353	354	356	354	354	355	355	359	358	357	355	357	360	361	359	356	354	348	343	343	346	348	352	354	354	353	355	356	357	350	350	350	350	348	349	347	350	353	349	350	352	353	349	346	345	349	351	350	343	345	347	349	349	350	350	350	348	349	353	355	359	357	356	356	352	347	344	346	347	343	343	347	346	348	347	349	350	350	350	349	346	347	346	346	345	345	345	348	349	349	349	349	355	356	354	352	350	347	344	345	348	347	344	341	344	344	343	342	344	346	346	349	350	344	343	345	349	348	344	343	343	344	347	348	348	345	344	343	340	344	342	339	338	340	339	332	331	330	344	347	349	343	350	350	350	344	346	347	346	346	346	346	348	349	347	347	343	341	347	350	351	351	352	349	346	347	346	347	349	349	346	342	344	344	343	339	339	343	349	353	353	351	348	347	347	341	343	345	344	342	347	356	355	345	336	340	342	351	351	348	347	344	342	342	342	341	340	338	339	340	342	343	342	341	342	342	341	340	336	333	336	338	340	340	338	341	344	342	341	339	339	336	337	342	342	340	340	337	334	332	331	329	328	329	335	337	337	338	340	335	334	335	335	334	327	328	335	337	337	337	337	338	335	333	330	331	329	330	341	339	338	337	334	335	336	335	332	331	332	335	333	332	331	332	333	333	329	329	328	327	326	325	335	335	331	331	329	328	328	331	331	329	329	331	333	333	332	333	330	328	328	327	324	323	327	329	329	327	323	321	317	317	322	324	320	321	322	321	322	325	326	325	322	319	320	322	322	322	325	331	331	331	327	322	320	324	327	327	324	322	318	320	321	321	319	322	322	322	323	324	320	315	313	316	316	327	323	322	319	315	313	313	312	309	311	316	319	317	315	311	314	314	314	314	316	316	313	313	313	313	314	312	314	314	314	314	316	317	317	317	306	305	307	314	320	322	320	317	312	315	317	318	318	319	318	317	313	314	314	312	311	304	304	305	305	303	303	304	304	304	305	303	301	301	301	304	306	306	307	310	313	316	315	313	307	307	304	303	298	298	300	304	306	306	306	306	306	305	309	305	303	300	299	304	304	304	304	306	308	308	308	308	306	306	304	305	307	307	306	306	305	305	305	305	305	307	308	307	305	306	306	310	311	310	307	306	302	307	307	307	303	302	303	303	304	308	307	305	303	303	302	0	0	0	0	0	0	0	0
365	365	365	364	358	351	351	351	355	361	365	366	364	364	362	358	359	358	359	359	358	358	355	356	357	357	358	353	351	354	356	358	360	360	363	364	361	361	363	367	368	368	361	355	354	356	356	361	361	360	355	354	356	359	358	358	355	352	353	356	358	361	361	362	363	362	360	358	360	359	357	354	353	354	356	358	358	356	353	350	347	347	347	351	354	356	356	356	358	356	354	351	350	350	353	354	351	351	354	354	353	349	347	348	351	352	351	349	347	348	348	350	351	351	346	343	343	347	349	353	355	352	350	349	347	347	347	343	344	350	357	358	358	361	359	354	344	342	339	341	342	345	347	349	346	344	345	347	348	347	343	342	344	347	347	347	347	346	343	346	347	347	346	345	344	343	343	347	346	343	343	344	344	344	344	347	346	343	343	346	340	340	339	338	341	344	338	333	338	342	346	350	348	343	340	339	342	343	341	340	340	338	346	346	345	338	332	330	331	334	345	346	347	350	351	352	349	346	344	340	341	342	344	343	342	340	341	341	340	341	342	344	344	336	337	340	341	344	344	341	341	342	344	345	346	345	344	341	338	335	335	336	336	337	336	331	335	335	338	337	337	336	335	339	340	333	335	341	340	339	341	342	343	342	342	343	348	343	340	336	337	336	339	347	346	344	344	345	347	348	343	336	340	340	338	340	339	339	341	347	353	356	343	339	336	336	339	344	346	348	346	341	344	343	336	334	336	340	341	344	347	347	345	342	338	339	339	339	338	338	339	340	342	342	340	338	341	340	338	332	326	326	329	330	331	333	334	340	337	339	337	335	338	342	343	337	334	335	334	332	331	330	328	329	331	335	337	334	333	330	327	330	332	332	329	327	328	333	335	334	331	331	332	332	330	327	323	322	327	328	328	327	327	328	328	325	322	320	321	323	326	328	330	329	328	327	325	324	328	327	324	325	326	328	328	324	325	326	325	325	326	324	324	325	324	326	323	320	317	321	323	320	319	318	319	320	326	327	318	318	319	313	311	313	320	318	317	319	320	321	324	325	326	321	318	319	319	317	318	320	328	328	326	321	315	318	320	321	315	314	312	311	310	311	313	312	311	311	321	320	321	319	313	313	314	314	313	310	310	316	313	315	311	310	306	303	311	312	312	310	308	308	304	302	303	310	311	304	308	316	314	311	311	307	307	307	308	311	312	312	310	303	306	309	312	315	317	317	315	315	315	315	315	313	315	315	310	308	308	308	304	302	301	301	300	301	300	298	298	298	301	302	301	301	299	300	303	306	305	306	308	310	310	305	310	306	305	301	300	300	304	308	310	310	308	308	309	306	302	301	298	298	298	299	299	299	301	301	302	304	306	304	304	304	304	304	302	303	306	305	302	300	301	301	304	304	301	301	299	298	300	303	305	308	307	305	300	296	296	299	299	299	298	299	299	298	299	299	299	298	299	301	0	0	0	0	0	0	0	0
353	357	357	355	349	345	346	348	348	351	361	367	365	365	361	352	350	351	354	354	356	356	353	352	353	351	351	350	347	349	351	354	354	354	354	357	355	357	360	360	358	358	356	352	350	353	357	360	358	355	352	352	354	354	355	355	353	350	354	356	355	358	359	359	359	359	356	354	357	357	355	351	349	351	352	355	357	356	353	348	346	346	346	348	352	350	350	350	343	345	349	347	350	351	351	351	347	348	352	352	352	345	343	342	345	346	345	345	345	346	346	349	348	341	341	337	339	341	343	346	348	350	352	350	346	340	338	334	336	339	349	353	353	352	350	345	341	338	333	337	349	350	345	346	343	342	343	343	343	342	343	347	345	341	338	338	338	339	341	343	344	345	345	344	341	335	333	341	343	343	343	343	343	341	339	337	337	338	339	339	339	336	335	330	335	334	330	335	337	338	341	344	343	336	333	337	337	336	335	334	335	336	343	344	344	335	331	323	328	329	338	339	343	342	340	343	344	346	348	344	341	341	341	341	340	338	336	334	338	338	339	339	331	333	333	336	340	338	339	340	342	344	343	343	337	338	341	339	336	334	333	334	336	335	332	333	335	332	330	330	332	335	332	338	340	340	337	332	331	333	332	334	336	341	344	345	346	344	337	329	330	330	332	333	333	336	343	343	347	343	342	337	335	335	334	337	338	333	332	334	345	348	337	329	329	332	335	337	338	337	333	337	338	336	334	333	334	340	341	345	345	346	345	339	334	336	337	338	338	337	338	336	335	339	337	335	334	331	328	330	329	328	326	326	330	330	328	330	336	337	335	336	339	342	329	326	325	325	329	332	330	329	329	329	331	331	334	331	329	327	326	327	328	328	327	326	327	328	331	328	326	327	329	331	328	326	323	324	321	320	320	318	319	322	322	323	322	321	320	320	319	326	323	321	325	323	321	324	324	324	324	323	324	322	321	321	322	322	323	324	323	322	321	318	321	323	323	320	319	315	318	318	317	316	317	315	315	317	317	317	317	311	312	313	315	313	311	311	312	312	314	316	318	320	316	317	315	315	316	316	318	318	317	308	303	310	308	310	310	310	308	307	305	307	307	308	307	308	306	308	311	313	311	311	310	306	305	307	307	311	311	310	309	305	304	304	309	308	307	305	304	304	305	305	308	308	304	303	302	307	314	311	311	307	307	304	306	310	311	310	307	303	306	310	310	314	314	314	314	314	301	301	302	299	299	299	301	301	305	306	301	299	298	298	298	298	297	295	293	294	293	298	300	302	299	298	297	298	298	297	300	302	305	305	307	304	300	297	296	299	301	303	309	309	305	305	305	305	305	303	299	300	300	301	299	298	298	300	301	303	304	303	303	303	304	302	301	301	298	297	297	298	300	300	301	300	297	295	294	293	297	299	301	302	301	297	294	292	291	288	292	289	295	295	295	295	294	291	292	294	295	294	0	0	0	0	0	0	0	0
346	347	345	345	343	342	345	351	351	360	363	364	362	362	358	348	347	336	333	333	342	343	343	346	348	345	345	342	344	347	349	351	350	350	351	351	352	353	353	350	348	348	348	349	349	350	351	354	351	351	350	350	350	351	351	352	352	350	353	354	353	352	350	350	348	351	352	354	353	349	346	345	346	347	348	346	352	353	348	347	345	345	345	347	345	346	344	343	343	348	349	344	344	344	346	345	347	346	349	349	344	342	343	340	340	341	343	345	345	343	344	342	340	332	328	333	334	337	338	338	337	337	337	339	341	337	332	331	335	338	339	336	336	337	337	333	334	336	336	335	340	343	342	343	340	339	339	339	338	340	342	345	346	344	336	335	336	337	338	340	341	342	345	342	337	333	332	340	342	343	342	337	337	337	335	335	338	338	337	336	333	331	330	330	327	328	333	335	335	337	338	339	334	333	334	335	334	338	336	333	330	331	333	330	333	332	332	333	330	330	331	332	333	334	327	332	332	335	339	340	340	338	337	338	338	335	334	332	331	330	332	330	331	332	333	332	330	328	329	338	343	346	343	340	330	330	332	334	335	331	331	332	335	335	333	332	325	328	329	327	327	329	327	331	337	338	335	334	332	331	329	331	328	330	333	338	342	341	331	325	324	326	330	332	333	334	335	336	338	336	338	335	333	333	333	333	335	334	333	333	332	331	329	326	327	329	332	334	334	335	330	331	334	334	333	332	334	337	338	340	342	344	342	337	334	333	336	337	337	336	334	332	331	329	335	327	327	325	325	323	323	322	324	325	326	329	326	325	329	330	329	329	329	329	325	323	321	318	322	324	329	329	328	328	330	329	327	325	324	326	327	324	324	324	325	326	326	327	326	324	324	324	327	328	328	327	323	325	323	321	320	321	321	326	327	325	323	321	319	318	319	319	319	318	321	316	319	322	323	323	321	315	310	314	318	318	319	318	317	317	318	321	318	315	319	319	314	314	317	315	316	318	319	316	314	309	305	305	308	309	307	307	310	311	313	313	311	309	309	310	313	314	315	317	317	312	313	312	306	309	309	307	306	304	309	309	309	307	308	304	303	303	304	305	305	303	307	305	304	306	308	309	307	306	305	305	305	306	307	307	305	304	305	306	306	306	305	305	304	304	304	304	305	305	305	304	303	306	301	301	305	312	309	307	305	300	299	305	307	308	301	304	306	307	306	302	301	299	299	298	298	299	299	298	299	298	299	299	299	300	300	299	296	296	296	297	297	296	294	293	294	295	300	300	299	297	294	294	294	294	294	298	300	302	301	300	296	295	295	299	301	301	299	298	298	299	298	298	299	301	303	302	301	301	301	299	300	301	297	296	298	296	294	293	296	297	296	296	296	295	295	296	296	297	297	297	297	293	292	292	294	296	296	293	294	293	291	290	286	287	287	289	292	292	291	291	290	288	286	286	284	289	0	0	0	0	0	0	0	0
340	342	343	343	342	342	345	348	348	350	350	355	355	355	351	345	336	335	338	338	342	340	339	337	338	337	337	339	344	347	350	349	349	349	348	347	344	345	345	345	345	345	347	348	347	349	351	351	347	347	346	346	346	346	347	347	350	351	348	347	343	343	340	340	340	340	343	348	350	349	347	347	346	346	345	345	346	348	346	346	345	345	345	345	346	347	345	345	347	347	347	345	344	340	336	338	342	348	348	345	341	339	338	337	337	335	335	333	334	334	335	334	330	327	330	333	334	336	335	335	336	335	335	335	337	337	336	332	332	332	333	331	330	327	326	327	329	337	337	335	331	329	330	330	330	331	335	336	337	338	340	339	338	338	336	335	336	336	336	336	338	340	342	340	334	330	328	329	331	330	330	331	331	333	333	338	337	335	334	333	332	328	327	324	323	329	331	335	336	336	333	330	330	330	331	334	333	334	332	329	330	330	332	330	331	331	332	332	332	334	335	333	333	330	327	326	328	332	334	337	334	333	333	334	335	333	330	328	329	329	329	329	331	333	331	328	324	322	325	330	341	341	336	329	331	329	330	332	333	335	335	335	334	333	324	322	323	325	323	324	324	321	323	330	329	331	327	332	324	324	327	328	327	324	330	333	335	335	328	324	322	323	327	330	331	331	328	329	329	325	332	332	331	330	332	332	333	336	336	335	333	330	326	324	325	325	325	327	327	327	328	330	330	331	334	331	333	334	336	338	340	341	340	336	333	333	333	330	328	327	328	329	326	330	324	319	319	319	320	319	319	314	319	320	320	325	325	323	322	322	320	320	319	317	315	316	316	317	318	318	320	320	324	326	327	327	327	321	317	321	321	319	319	321	323	323	325	324	325	320	319	321	323	325	326	319	320	318	320	319	318	319	319	319	317	326	325	322	320	314	315	315	315	315	317	315	317	312	310	315	317	313	309	306	313	314	314	316	317	317	318	318	319	315	314	313	305	305	310	312	313	316	315	313	311	308	304	304	307	307	305	307	308	310	312	313	311	309	309	308	310	311	313	315	313	309	308	306	303	305	307	307	307	309	309	308	307	307	302	299	295	293	298	303	303	302	305	304	304	304	306	307	306	305	305	305	305	306	306	303	302	302	303	303	304	304	304	304	304	302	300	303	304	304	304	302	300	297	297	299	299	308	309	308	299	296	297	305	308	308	308	297	295	299	300	299	299	299	295	295	298	296	295	295	300	302	302	299	298	301	298	294	292	294	295	295	295	295	294	295	294	298	299	298	297	291	291	292	292	292	294	295	297	298	294	295	295	293	293	295	297	296	296	294	291	290	292	291	291	290	292	291	289	292	299	298	296	295	288	288	290	293	293	294	294	291	287	294	295	293	293	293	293	292	293	297	296	295	293	292	292	292	292	293	293	293	291	287	286	287	289	291	291	291	290	289	289	289	287	287	285	282	0	0	0	0	0	0	0	0
342	344	342	342	339	339	341	346	346	347	347	348	347	346	346	344	339	337	338	340	340	340	340	336	336	333	333	336	341	341	338	338	338	338	338	339	341	343	344	344	343	345	345	348	348	347	349	345	340	339	342	342	343	344	341	340	342	343	340	339	337	337	336	334	334	334	336	338	341	340	339	343	342	340	338	338	343	345	345	345	342	339	341	341	345	346	347	346	341	339	342	342	340	335	333	331	336	339	342	340	338	336	332	333	334	333	330	330	330	332	333	333	333	330	330	334	332	334	331	328	333	333	332	334	334	334	332	330	328	328	328	326	326	327	326	326	329	336	335	335	332	327	327	325	324	323	324	324	325	324	323	322	324	329	331	331	334	333	333	331	332	335	336	335	332	329	328	329	331	330	329	327	328	326	328	331	334	330	329	329	329	329	324	325	323	323	324	335	334	331	328	328	329	329	331	331	331	328	326	327	327	327	326	328	327	324	323	325	326	329	330	330	330	330	327	326	326	327	327	330	329	333	334	334	334	334	331	330	330	331	332	330	329	330	329	327	326	325	324	323	329	330	325	329	330	329	328	331	334	337	335	326	327	324	321	321	321	324	323	323	321	319	322	325	329	330	321	321	320	323	326	328	327	321	326	330	333	334	329	325	321	316	317	320	321	325	324	324	323	327	320	330	329	329	329	329	331	333	336	335	334	332	330	327	323	322	321	322	323	323	324	327	327	327	327	326	325	327	327	328	328	327	331	334	332	331	330	325	324	320	319	315	317	315	317	316	316	316	317	320	323	321	319	317	319	321	321	321	321	317	314	316	315	314	312	312	315	316	317	318	316	314	321	327	321	312	314	314	315	317	317	317	316	316	315	315	314	317	319	319	316	315	317	319	317	319	319	316	315	315	316	317	316	315	314	314	313	313	311	313	312	313	313	313	315	314	310	307	307	309	310	311	309	306	309	310	311	313	312	312	313	315	312	310	312	313	309	309	303	308	310	309	312	312	307	305	302	303	304	304	307	307	308	310	311	313	310	307	305	306	306	306	308	308	310	306	305	304	310	302	305	307	310	308	307	307	305	305	300	299	296	294	298	302	301	302	303	303	303	304	302	302	301	304	305	304	303	304	302	301	301	299	298	300	302	303	303	302	301	300	301	301	302	302	300	300	297	294	294	295	296	298	307	303	296	293	293	290	293	294	298	294	294	298	300	296	299	295	296	291	294	297	297	296	297	298	302	296	293	297	296	295	296	297	296	295	298	298	297	293	292	293	291	289	284	287	289	289	290	292	294	293	292	288	288	291	291	291	290	291	286	293	291	291	289	287	287	288	288	287	285	286	286	284	285	290	285	286	287	286	287	287	287	288	287	285	285	286	288	292	292	292	291	288	288	291	293	292	291	291	290	290	291	291	293	293	293	289	289	292	292	291	291	289	288	289	291	288	289	281	280	279	0	0	0	0	0	0	0	0
343	344	343	343	340	338	340	343	343	343	344	345	347	346	346	343	342	337	334	336	336	338	338	336	331	335	335	339	336	330	331	333	336	339	339	339	340	341	342	342	342	343	343	345	346	346	350	333	334	338	339	338	338	335	336	339	339	339	340	336	335	333	332	330	330	330	330	331	330	333	334	333	333	332	330	326	327	331	337	336	332	331	333	333	339	340	341	333	329	332	334	336	337	331	329	328	330	336	330	329	332	330	330	330	332	329	327	326	327	328	329	332	330	322	322	322	324	328	327	327	330	329	323	320	317	319	322	321	317	318	322	322	324	326	326	326	325	327	333	333	330	327	324	324	323	324	323	322	321	319	318	317	322	323	325	326	324	324	327	324	326	330	327	327	327	328	327	330	329	328	328	326	324	324	322	320	324	325	327	326	327	329	325	325	324	323	325	329	331	324	321	321	322	322	324	330	328	325	325	326	327	326	324	325	324	322	321	320	319	315	315	325	327	326	325	324	323	324	321	323	325	328	331	334	335	334	331	329	330	331	330	327	325	320	321	321	320	320	318	313	314	322	324	329	329	328	326	325	324	322	320	319	321	320	319	319	321	323	324	322	320	320	323	321	320	320	317	316	318	322	324	324	319	321	320	320	317	330	327	324	320	317	315	312	313	316	320	323	318	318	323	319	321	323	325	326	325	330	332	330	328	325	324	323	323	319	320	321	318	319	319	320	323	323	325	324	325	326	326	326	324	324	322	320	321	322	317	315	316	315	315	313	311	311	312	314	314	314	318	320	322	322	320	314	313	314	314	316	315	308	308	313	313	313	311	312	315	315	315	314	314	312	313	312	314	308	308	311	313	315	315	313	313	313	313	314	311	311	310	310	315	311	311	310	315	319	319	315	313	313	315	315	313	310	312	312	311	309	311	310	310	312	312	308	312	312	311	307	305	305	306	303	302	306	308	309	309	303	305	308	309	306	304	303	305	309	309	311	307	303	309	312	313	309	305	302	299	302	303	305	305	302	299	302	304	308	307	304	302	301	302	304	301	302	301	300	298	306	305	303	310	303	303	303	304	306	306	302	299	299	298	296	295	298	300	300	301	302	302	301	300	298	297	298	299	301	301	300	300	302	297	291	290	294	302	297	299	299	300	298	298	297	298	298	297	295	294	292	292	292	292	294	295	288	284	284	288	294	295	294	291	289	291	292	292	297	295	295	290	289	289	290	293	296	298	298	296	293	291	293	291	291	292	294	292	294	296	287	286	286	286	286	286	286	285	284	282	286	288	290	285	287	287	285	285	288	290	289	291	283	287	282	289	287	287	284	283	285	282	282	286	286	283	282	281	280	281	285	285	285	284	284	285	286	285	283	285	284	286	283	283	283	285	285	282	283	286	285	284	286	286	290	291	290	290	290	287	286	281	289	292	293	293	291	288	288	287	279	280	279	276	272	0	0	0	0	0	0	0	0
340	344	343	343	340	339	338	339	340	340	340	341	346	346	346	339	336	336	330	331	331	334	331	326	327	332	333	333	332	329	329	332	335	336	336	338	339	337	334	335	334	333	333	335	337	339	330	330	329	329	333	334	334	334	335	337	339	339	338	334	331	330	330	327	327	325	326	325	328	330	330	328	327	326	326	324	326	329	329	329	329	329	329	330	330	329	327	327	328	330	331	331	331	329	328	331	331	330	329	326	325	327	329	331	331	328	322	319	318	323	325	324	320	314	316	317	317	321	321	315	311	313	315	316	316	318	319	316	314	313	314	318	323	326	327	330	328	325	326	326	326	327	324	323	324	323	324	322	319	316	315	319	322	325	324	325	324	323	321	318	319	318	322	327	326	321	320	319	318	328	330	322	321	322	322	318	316	317	321	324	327	322	323	322	323	326	329	325	319	319	319	322	320	319	320	322	321	318	318	319	320	320	320	319	322	321	316	315	316	314	316	317	320	323	322	322	321	320	321	320	321	323	323	316	332	332	328	325	325	316	313	320	320	320	318	318	319	317	314	314	316	317	316	315	314	315	314	315	317	316	316	316	318	317	317	319	321	320	321	319	318	316	315	321	319	318	318	317	315	319	319	316	317	317	315	315	314	320	321	321	321	316	312	313	312	316	319	319	319	318	318	319	321	323	323	321	322	324	325	323	325	322	321	322	321	317	316	314	314	316	315	316	318	320	322	321	320	324	323	322	318	314	315	316	316	314	314	315	317	316	315	313	313	312	311	311	310	310	314	315	320	321	318	314	310	307	308	308	306	305	307	309	310	311	310	312	314	314	314	314	312	313	313	315	312	312	309	308	311	313	314	313	309	311	311	309	310	310	310	310	309	309	308	310	315	308	307	304	308	310	313	313	313	310	308	306	306	307	306	309	308	306	306	307	307	308	308	305	303	301	300	300	302	303	308	303	301	303	302	302	306	298	296	298	300	305	309	309	307	306	306	305	302	301	299	296	296	293	293	300	300	299	299	300	303	305	307	306	302	302	299	296	296	295	295	296	306	306	306	301	298	296	294	297	299	301	303	299	296	295	293	292	294	297	301	301	300	300	297	298	299	298	296	294	293	294	297	297	300	301	291	288	285	286	292	293	300	300	295	295	294	292	292	294	293	289	290	293	291	290	288	287	287	284	282	284	286	286	287	286	290	290	291	292	293	291	287	289	289	289	288	288	290	289	288	288	287	288	287	289	288	287	286	284	284	282	284	281	282	281	283	284	286	287	287	285	282	284	287	279	282	281	283	283	283	283	281	282	283	281	281	282	289	288	282	281	282	279	280	280	282	283	283	281	281	282	284	285	284	283	281	281	282	283	284	283	283	283	282	280	280	278	280	281	282	283	281	281	279	281	285	289	288	288	288	285	279	278	278	280	284	288	288	281	280	280	277	276	281	280	280	277	0	0	0	0	0	0	0	0
331	332	332	334	334	336	338	338	337	337	337	338	342	343	343	339	334	328	326	325	325	327	325	323	327	330	333	333	330	330	329	332	334	334	334	333	333	332	328	327	327	329	329	328	330	332	325	326	325	325	328	329	329	331	332	332	337	337	330	327	327	328	328	326	322	322	322	323	326	327	326	323	322	323	326	325	326	326	327	328	328	327	329	330	330	329	328	329	332	334	335	331	329	324	327	327	329	327	327	324	322	322	318	319	321	323	321	320	320	321	321	314	309	309	312	315	323	324	324	320	317	315	314	314	318	318	317	316	314	313	315	317	320	322	322	321	320	315	315	316	317	318	321	322	323	324	319	315	315	313	314	313	315	325	322	323	323	324	322	320	317	316	317	318	317	318	318	317	320	322	323	320	321	319	319	318	317	318	318	319	320	319	319	320	322	323	324	323	313	319	320	319	318	317	319	319	318	316	315	315	317	316	316	317	317	316	313	313	316	316	316	317	320	320	320	320	320	320	320	320	319	318	313	314	313	311	315	311	311	312	311	318	318	319	317	317	317	316	315	315	315	314	312	314	312	312	314	313	313	314	313	314	315	316	316	319	320	320	318	316	315	314	312	312	313	316	323	323	320	318	315	311	312	313	313	313	312	312	312	313	315	314	313	314	316	322	318	318	317	318	318	319	322	322	321	317	318	318	315	312	320	320	320	316	317	312	311	312	312	312	313	313	314	315	317	314	313	314	314	313	310	309	312	312	312	309	311	313	314	316	314	315	313	310	311	310	307	306	307	310	316	318	308	310	307	305	306	306	304	305	305	308	309	308	308	311	311	309	308	308	311	312	314	315	310	311	308	308	308	310	313	313	311	308	307	308	304	306	306	309	309	308	308	307	308	310	309	308	305	308	308	308	305	306	303	303	305	305	301	301	297	297	300	301	298	295	294	294	295	297	298	301	304	298	298	301	302	303	302	302	299	297	298	299	300	300	304	305	305	304	300	297	295	295	292	290	290	291	297	297	298	298	297	298	301	302	302	302	301	300	299	294	295	292	293	298	300	304	302	300	297	294	292	292	292	291	293	293	291	290	290	291	293	295	295	294	297	296	295	296	296	296	295	293	292	289	292	293	296	295	290	289	286	290	290	299	298	297	298	296	290	288	287	287	289	288	291	287	285	285	288	287	285	281	281	282	285	285	285	283	284	284	285	286	286	285	282	283	288	287	286	286	288	287	286	285	285	286	288	283	282	281	281	282	282	280	279	277	277	278	279	275	277	279	282	284	283	284	285	287	277	279	280	281	280	279	280	279	280	280	281	282	286	286	283	281	279	278	278	280	278	279	281	280	281	281	281	281	282	281	280	281	283	283	281	279	280	281	279	276	276	276	275	278	282	282	279	276	278	282	284	285	284	281	278	277	277	277	277	275	274	274	276	277	277	276	275	275	280	280	279	277	0	0	0	0	0	0	0	0
321	320	321	324	324	330	333	334	333	333	334	333	334	338	336	336	328	323	319	321	322	322	320	320	324	328	331	331	332	330	331	333	334	333	333	333	330	328	324	324	324	325	325	325	324	320	320	321	321	323	325	326	326	326	328	324	325	326	325	322	324	325	326	321	319	319	318	322	324	324	320	320	319	319	319	317	320	322	322	325	325	324	323	328	328	328	323	318	325	329	323	325	326	327	324	325	324	325	323	320	319	317	313	314	314	316	316	318	320	321	320	316	313	311	313	319	320	322	321	319	315	313	313	313	313	316	312	312	310	310	313	315	318	319	317	315	314	319	321	321	318	315	314	315	316	321	313	311	311	307	309	311	311	315	321	318	319	318	316	315	317	314	315	312	312	308	312	318	320	318	320	317	316	315	315	316	316	317	314	315	314	313	312	317	319	320	314	313	312	313	316	316	313	315	316	318	316	314	312	312	313	313	316	317	316	313	311	312	314	314	316	317	318	307	308	309	312	314	316	316	316	315	310	312	310	309	307	305	310	310	310	313	317	316	315	314	313	313	310	313	313	313	311	311	318	309	313	313	310	309	312	314	315	314	313	315	315	316	314	313	312	310	309	308	307	308	308	316	316	315	312	307	306	306	310	308	307	307	308	311	313	314	313	312	310	313	312	315	317	318	319	320	321	320	318	313	311	311	312	312	310	313	316	312	311	310	309	312	309	309	308	309	310	313	310	309	306	304	303	303	302	303	304	308	305	306	309	310	308	310	313	314	313	309	309	307	305	304	304	305	313	305	302	305	304	308	308	306	304	304	307	308	306	310	309	308	308	305	306	306	308	310	307	305	305	306	307	306	306	308	312	313	311	306	301	299	294	301	305	307	306	306	303	302	303	306	307	307	304	306	306	303	303	304	297	297	298	297	297	295	293	293	293	293	294	296	295	295	294	295	297	300	300	292	292	295	297	298	299	299	302	300	299	302	299	300	301	297	295	302	300	297	291	288	287	287	289	290	297	297	296	296	296	297	299	301	300	298	299	298	297	293	292	290	291	297	296	295	297	288	287	286	287	288	289	290	290	290	289	287	286	286	288	289	287	286	285	289	290	289	289	289	295	293	290	289	287	288	288	288	292	290	289	288	289	287	297	294	281	293	287	286	284	282	282	285	285	284	279	285	286	286	284	282	282	282	282	283	282	283	280	280	282	280	278	277	278	285	285	286	286	285	281	281	280	281	282	284	280	278	278	277	279	276	278	278	276	277	275	275	275	271	276	279	283	283	282	284	286	283	279	275	278	275	273	272	278	278	278	284	284	284	279	278	277	280	279	278	275	275	277	276	275	277	278	276	272	272	278	278	274	274	275	275	273	272	273	276	276	276	274	275	274	274	275	275	279	278	274	281	283	284	284	282	278	275	275	276	276	272	274	274	274	275	276	275	274	276	276	279	277	276	0	0	0	0	0	0	0	0
314	311	313	319	319	323	327	327	328	328	328	330	333	333	333	333	321	319	317	318	319	319	320	318	322	328	331	331	333	333	331	329	331	330	326	326	326	326	323	323	322	322	321	321	321	318	318	318	319	321	320	320	320	320	322	322	320	319	319	319	318	321	321	321	319	319	318	318	318	319	321	320	317	317	316	314	314	317	318	316	317	317	318	318	316	316	315	316	314	315	316	321	323	325	318	321	317	318	318	318	316	314	310	308	309	310	314	313	312	313	313	313	310	307	307	309	317	318	315	308	304	304	305	312	309	307	307	308	305	305	306	307	307	308	310	313	314	314	319	319	318	316	312	317	317	311	312	311	311	311	309	311	310	309	314	311	312	312	311	314	311	310	312	311	308	306	305	305	313	315	315	314	314	309	313	313	312	311	312	310	312	311	312	311	311	309	310	310	310	309	309	308	310	312	315	315	312	309	308	309	310	313	314	313	314	312	311	311	313	314	315	316	307	306	307	308	306	310	308	311	313	312	307	307	309	308	306	306	306	307	310	310	306	308	309	308	308	307	306	307	309	311	307	305	315	306	306	311	309	308	311	313	312	313	310	310	310	311	309	308	307	307	306	305	305	305	307	305	304	306	309	309	308	304	309	302	300	300	303	311	305	307	308	308	311	302	305	307	320	319	318	318	318	318	315	311	309	308	310	310	309	307	309	309	309	310	311	309	308	309	309	309	310	309	308	303	303	302	301	302	302	302	302	300	302	300	301	303	302	303	311	313	310	307	299	296	297	298	303	304	296	301	298	301	308	309	307	306	304	304	304	308	309	309	307	307	304	302	300	299	295	303	304	302	299	301	303	303	303	303	305	305	306	304	298	294	296	295	302	305	304	301	297	296	297	301	304	304	304	303	301	300	294	296	296	296	295	297	296	296	294	294	292	292	291	293	297	298	299	296	294	293	293	288	289	292	293	296	294	295	297	297	299	299	300	298	297	292	289	292	292	291	288	287	285	285	287	292	296	294	294	295	295	295	297	296	296	292	292	291	291	290	288	287	287	289	293	292	291	285	287	284	284	280	281	284	286	280	280	281	281	286	286	287	286	287	287	289	290	288	287	288	289	288	290	288	285	285	283	285	292	292	291	290	290	291	281	280	278	278	283	282	281	280	284	281	278	275	277	280	281	284	282	281	280	280	282	284	283	280	278	279	284	283	278	277	278	279	281	282	283	283	280	280	279	281	281	278	278	276	272	273	272	275	278	276	277	278	277	273	271	267	266	275	278	279	279	281	286	286	277	273	273	273	271	270	277	276	275	276	277	278	273	272	270	269	267	269	269	271	271	272	273	274	275	274	271	272	275	276	272	272	273	274	273	271	273	274	274	275	272	268	272	272	272	274	275	273	275	275	276	276	273	273	275	275	275	275	275	272	274	274	274	274	273	273	272	273	273	272	271	271	0	0	0	0	0	0	0	0
311	309	308	314	314	318	321	322	322	322	325	328	329	330	326	326	325	322	319	318	317	317	316	317	321	324	328	324	324	323	323	322	321	320	321	321	322	323	322	321	320	319	318	318	317	317	315	315	317	318	317	316	317	317	319	320	319	319	318	314	316	321	324	322	320	320	320	319	314	316	316	313	307	312	313	314	315	313	313	315	316	317	314	315	314	314	314	315	314	313	312	312	314	314	315	310	310	308	309	311	311	310	305	306	306	308	309	308	309	308	311	310	304	302	303	306	307	305	304	304	303	305	307	309	308	302	305	306	305	307	306	304	305	305	306	312	313	312	312	317	313	314	314	312	309	308	310	310	310	310	308	311	306	308	308	304	305	307	306	307	309	309	310	310	309	304	306	306	306	308	308	309	311	307	307	305	303	309	309	311	313	313	312	306	305	304	306	309	309	306	305	305	306	312	311	312	311	309	307	307	307	305	306	305	310	311	310	307	312	315	311	307	306	306	307	303	303	303	306	309	310	309	308	302	301	304	304	304	305	305	305	303	303	305	305	304	304	303	304	305	305	305	305	302	305	305	304	304	306	307	309	310	311	310	308	307	306	306	305	304	304	305	305	306	305	305	303	305	302	303	303	304	304	303	307	302	297	297	301	301	300	298	297	298	299	303	305	300	305	305	305	314	311	312	312	308	304	303	307	307	306	302	300	299	297	302	308	309	307	303	307	307	305	305	305	303	301	302	302	302	299	299	299	297	296	298	300	301	305	307	308	306	303	295	294	296	298	300	300	298	295	294	296	300	307	306	304	303	301	296	301	304	305	302	306	306	304	298	296	294	294	296	301	296	296	298	300	299	295	295	296	298	298	300	296	294	296	295	298	299	299	298	293	290	293	296	299	293	298	292	292	290	291	292	295	294	293	293	294	295	295	293	289	290	289	288	289	290	291	292	292	292	290	288	289	289	290	290	293	291	292	293	296	297	299	296	295	290	288	288	287	286	287	287	289	288	289	292	293	292	292	294	292	293	291	290	288	286	286	286	288	289	288	286	282	288	291	289	289	288	284	282	283	283	281	281	282	283	279	276	277	280	283	284	285	286	286	286	284	285	287	286	285	283	283	285	285	284	280	276	277	277	280	278	280	283	281	274	274	280	283	280	278	278	282	276	270	272	272	273	276	282	282	281	279	278	281	280	281	279	276	275	279	281	277	277	278	279	279	279	280	280	280	281	280	283	281	278	277	272	271	271	273	274	278	276	277	279	278	277	271	270	272	274	277	277	276	276	274	274	270	272	275	272	271	272	278	274	275	271	270	273	272	272	270	268	265	262	265	268	270	271	271	267	265	270	269	268	263	263	263	263	265	268	270	271	272	273	273	274	272	270	265	269	270	273	272	268	267	271	270	271	271	270	270	273	271	271	272	272	272	272	272	271	271	270	270	269	270	271	268	266	0	0	0	0	0	0	0	0
308	309	310	312	312	313	316	318	318	324	324	324	323	321	322	322	322	320	317	316	312	312	314	313	318	321	318	316	316	313	316	318	317	317	317	317	317	318	318	316	317	316	316	317	315	314	313	315	316	316	315	315	316	316	314	316	318	316	314	313	310	309	311	317	319	321	321	321	318	315	313	311	311	307	310	310	308	308	311	316	318	317	315	312	308	309	309	312	313	312	309	310	310	307	305	302	302	304	306	306	307	307	306	305	304	302	303	307	307	307	307	305	300	301	300	303	303	303	303	301	302	303	305	306	306	294	295	298	305	307	307	304	303	303	305	306	305	306	305	301	300	309	308	306	305	305	308	309	310	309	307	305	305	306	306	301	301	302	301	302	306	309	310	310	308	303	302	303	307	306	305	306	307	306	305	298	298	299	304	307	310	313	307	303	301	300	302	303	305	304	304	305	305	306	309	310	311	308	307	305	302	302	306	307	307	310	308	306	306	307	307	306	305	307	305	302	300	300	306	307	308	308	306	301	299	299	300	301	301	301	303	298	299	298	298	300	298	301	301	302	303	303	302	299	302	303	301	303	306	306	306	307	307	306	301	304	303	302	302	299	297	298	301	304	306	306	306	305	301	301	302	301	299	301	299	299	299	303	300	298	297	296	296	296	298	302	305	298	301	303	303	303	303	305	308	305	300	297	305	303	301	299	296	293	299	301	305	303	301	304	303	305	304	299	299	299	300	302	302	302	298	297	297	299	297	296	299	298	299	301	303	303	301	295	295	296	300	301	302	300	296	293	293	298	302	303	303	299	291	295	297	300	302	300	298	299	295	295	293	293	292	294	296	293	294	297	296	295	292	293	296	296	296	295	295	294	293	296	294	295	296	293	291	288	289	292	289	283	285	285	285	288	292	293	293	289	288	288	292	292	291	291	286	286	287	287	287	290	289	292	292	290	287	289	287	286	287	284	287	292	289	289	289	292	295	293	291	289	288	287	286	286	285	286	288	287	287	291	292	283	280	287	291	290	285	284	283	281	277	283	284	287	285	286	286	284	284	286	286	282	281	282	283	283	281	279	277	276	277	276	279	280	279	278	278	281	280	281	280	281	280	280	281	280	283	283	283	283	284	280	280	277	275	274	273	272	272	271	272	274	281	280	276	274	274	269	269	269	272	274	275	273	271	270	269	271	275	280	280	273	272	272	280	278	276	276	276	278	278	278	277	275	272	271	277	281	277	276	273	272	272	269	269	276	279	275	277	276	277	277	274	270	269	271	274	274	274	273	274	273	268	267	267	272	273	273	274	274	270	265	265	266	269	271	270	267	262	261	263	267	269	270	267	266	266	268	267	263	261	259	258	257	259	264	263	261	269	269	270	271	270	264	264	264	262	263	263	265	265	268	269	269	271	271	269	268	266	262	265	265	265	264	269	269	270	268	267	265	265	265	265	263	0	0	0	0	0	0	0	0
312	311	310	311	310	310	310	312	312	313	313	316	313	317	324	324	316	316	317	314	311	309	309	310	316	313	310	309	309	311	312	312	313	312	314	314	316	314	313	312	311	313	315	312	312	313	312	313	315	314	314	312	311	310	310	305	302	306	309	306	307	308	310	312	308	313	313	316	315	313	309	306	307	307	304	305	304	304	304	311	314	315	312	305	304	305	307	307	308	305	303	302	304	305	304	305	305	306	305	306	304	302	302	304	303	301	300	303	306	307	303	303	301	300	302	304	301	302	303	302	301	303	304	304	302	298	296	298	304	305	306	304	305	307	302	301	300	301	298	297	300	300	301	303	304	304	298	296	295	294	294	295	296	300	304	301	301	301	298	299	302	303	309	307	304	300	299	299	300	298	300	302	300	299	297	296	296	297	301	304	307	306	303	300	298	297	300	302	303	303	303	301	300	300	300	299	298	305	305	303	300	299	299	306	306	304	306	304	300	302	302	300	302	304	304	302	299	298	304	304	306	306	303	299	297	298	297	298	298	300	296	296	296	294	293	291	293	297	298	296	295	295	293	294	297	300	301	301	301	301	300	299	301	299	299	300	298	298	298	296	289	289	293	298	302	302	305	303	299	301	299	292	294	294	295	298	300	301	299	299	294	293	293	293	296	300	303	301	300	300	301	300	301	301	302	301	301	298	294	299	297	294	293	293	298	300	302	302	297	302	303	304	302	295	298	298	300	299	300	298	293	295	296	296	295	295	296	297	299	295	299	297	296	293	295	295	296	299	300	299	294	295	292	294	291	293	294	289	293	293	292	290	287	285	289	294	293	291	290	292	291	292	294	293	290	292	293	294	292	293	294	294	292	296	292	291	293	293	289	288	293	292	289	285	286	287	289	288	284	282	282	283	286	290	291	289	284	286	288	287	287	284	283	285	285	284	285	286	287	290	290	287	285	288	286	284	281	287	288	289	284	282	283	286	287	291	287	285	285	286	285	283	281	282	282	282	284	285	288	291	280	280	280	280	279	279	280	277	277	277	278	281	284	286	286	286	283	278	282	280	279	280	281	282	281	277	275	275	273	273	280	280	277	276	275	276	278	277	277	277	277	278	278	276	280	282	282	281	280	280	278	277	277	276	274	270	270	270	271	272	274	277	277	277	273	267	267	269	273	273	271	269	266	262	262	267	268	268	269	270	274	276	272	277	271	272	273	275	278	276	276	274	271	270	276	273	272	273	265	264	266	266	270	269	270	274	273	271	274	276	272	271	267	267	267	267	268	266	265	264	266	265	267	267	268	268	272	266	261	261	262	263	265	268	271	266	260	258	261	264	268	268	264	265	262	263	264	263	264	264	264	262	259	256	255	260	260	264	267	267	267	266	264	264	261	260	261	262	264	267	264	264	266	267	268	265	261	261	264	265	265	265	266	266	268	269	266	262	263	263	265	265	0	0	0	0	0	0	0	0
311	313	312	301	303	303	305	309	311	310	310	311	312	315	317	316	311	310	308	309	308	306	306	306	308	309	306	305	305	308	307	307	308	307	310	311	311	309	308	308	309	310	312	304	304	305	308	311	312	312	309	308	308	300	300	295	294	299	306	306	305	306	308	307	307	308	312	312	312	311	306	301	300	298	301	299	298	298	300	300	305	302	304	303	304	304	304	304	304	302	301	299	299	302	304	303	302	304	305	306	302	300	300	302	301	299	298	298	303	305	303	302	300	300	301	301	301	303	304	301	299	297	297	297	297	298	298	298	302	303	303	301	305	306	306	297	296	297	297	296	295	288	301	302	303	301	295	294	294	293	293	293	293	295	296	296	297	296	294	293	294	302	305	302	297	295	295	298	297	297	299	302	299	298	296	292	292	296	299	300	302	303	301	300	299	298	298	296	298	298	298	298	295	295	295	294	296	296	300	299	299	298	297	296	302	300	298	300	297	300	298	295	295	297	298	299	301	303	299	304	303	303	299	296	295	295	296	296	291	293	294	294	293	291	291	289	290	287	288	290	291	292	290	289	294	294	295	298	300	299	300	299	299	295	296	296	297	294	295	288	288	291	293	294	299	298	297	296	296	298	297	291	294	293	295	295	296	298	297	298	297	292	291	293	295	298	300	295	296	294	294	297	293	291	291	296	296	296	296	296	294	292	292	295	296	299	298	295	292	294	295	292	291	293	295	297	296	297	290	287	286	285	288	295	295	294	293	297	292	292	292	288	288	288	289	292	293	293	293	292	293	293	292	290	288	285	286	288	292	288	288	288	285	284	286	288	291	290	289	288	288	290	290	288	289	286	285	291	292	292	292	292	291	287	286	286	288	287	284	285	286	286	285	279	279	281	285	282	282	280	281	281	283	286	284	281	280	278	280	283	283	282	283	283	284	282	281	284	283	284	288	284	281	281	281	277	282	287	287	283	280	282	279	280	280	281	279	281	280	281	281	278	278	281	281	280	280	281	283	283	276	278	277	276	276	275	276	277	275	277	277	276	274	274	275	276	276	278	279	276	277	278	279	280	276	274	271	271	271	272	276	277	274	274	274	272	274	273	274	274	274	274	274	272	280	280	281	278	273	274	275	276	276	273	274	269	269	270	270	271	272	271	271	271	267	266	270	270	275	277	272	270	268	267	269	268	265	262	261	264	273	273	265	257	259	266	271	268	268	267	268	267	265	265	268	270	270	268	266	264	266	269	269	271	271	272	272	271	268	257	271	265	267	266	266	266	265	265	263	261	261	262	265	267	267	267	267	268	269	258	259	257	259	268	266	263	262	262	262	259	258	262	261	261	261	262	263	263	264	265	263	262	266	267	255	258	258	261	264	265	267	266	264	261	262	260	259	256	258	260	262	262	262	264	267	262	260	261	263	263	263	264	265	265	262	263	264	264	263	264	264	265	265	0	0	0	0	0	0	0
303	307	301	303	308	308	310	310	310	308	308	309	309	311	311	311	304	306	307	306	306	304	304	304	304	305	303	303	303	303	304	303	303	304	305	306	306	304	302	304	305	304	303	299	299	299	300	304	305	302	300	297	299	299	299	297	294	296	299	299	302	304	303	303	306	305	308	308	307	305	299	300	299	298	295	294	294	295	296	296	295	296	301	302	301	301	302	301	301	300	299	296	296	298	298	299	297	298	303	304	299	297	297	299	298	297	297	296	298	300	302	303	301	299	300	298	298	297	299	297	296	295	295	296	299	299	298	298	300	299	298	298	299	304	304	295	295	297	294	293	291	290	289	291	300	295	292	291	291	292	292	292	294	293	296	297	295	295	291	291	292	300	301	298	293	292	294	295	294	295	295	294	298	294	293	292	291	292	295	298	298	297	297	298	297	295	295	299	297	296	292	293	293	295	295	296	296	297	297	297	296	296	295	295	295	298	290	290	297	296	297	295	295	295	297	300	303	303	304	302	300	298	297	295	293	293	290	291	292	294	293	291	290	289	288	287	285	288	298	291	295	290	288	286	294	295	294	293	293	298	298	297	294	292	293	293	293	294	289	287	290	291	292	294	295	295	294	293	295	296	293	292	293	294	295	295	296	296	296	294	290	288	287	287	290	293	296	296	294	290	291	291	291	291	290	291	294	293	291	286	286	289	291	289	287	284	284	290	292	293	294	291	289	291	293	294	293	290	286	286	286	284	283	287	290	291	283	295	289	290	288	286	285	286	288	289	289	289	290	290	291	291	283	283	283	284	286	287	287	286	286	286	284	283	286	283	287	281	284	286	285	288	285	287	285	283	284	289	290	290	288	286	287	284	275	276	283	282	282	283	279	280	280	281	281	281	280	275	275	276	277	280	281	279	280	280	276	277	278	281	282	282	281	281	282	280	279	281	280	280	281	279	277	276	275	274	286	284	285	282	279	278	278	278	278	279	277	276	276	278	277	278	280	278	277	277	277	272	274	275	275	279	276	276	275	272	272	273	274	276	277	274	272	273	274	276	275	273	271	268	269	270	274	272	273	273	272	271	273	273	274	277	270	271	271	272	271	273	271	271	272	272	270	270	270	278	270	270	272	273	274	275	275	274	272	268	267	266	267	269	270	271	270	263	263	267	267	272	277	273	273	270	266	267	267	265	262	258	258	263	269	267	267	262	256	259	258	266	268	265	266	267	264	264	266	266	266	266	266	264	264	263	267	270	268	271	269	269	262	259	256	261	262	261	260	260	261	264	264	261	260	262	263	265	267	265	267	266	266	258	258	260	260	262	260	260	261	260	261	262	261	262	261	263	259	259	262	262	262	262	265	263	268	267	254	254	254	254	256	259	261	259	260	260	260	259	256	258	257	260	260	259	258	252	255	259	257	259	259	259	261	262	262	260	260	260	257	261	262	262	261	260	260	0	0	0	0	0	0	0
299	301	301	305	308	308	303	303	305	306	307	307	307	307	305	304	299	299	301	303	301	299	299	299	298	300	297	300	299	299	299	299	298	300	303	303	303	302	301	302	302	300	296	294	295	295	297	299	298	297	297	299	300	299	294	294	295	296	296	296	294	293	295	299	300	300	301	301	304	301	299	299	300	299	294	292	293	293	293	290	292	295	298	300	299	299	299	299	298	298	296	295	293	296	297	295	294	294	297	299	297	295	295	295	296	297	296	294	294	299	300	301	301	299	297	295	294	294	293	292	292	291	291	292	294	299	298	297	297	297	297	296	296	297	296	295	295	295	294	283	282	285	286	289	290	291	290	290	290	291	291	292	293	291	294	296	296	291	290	290	287	292	298	298	297	289	287	292	291	291	292	291	292	293	292	290	289	291	288	289	292	294	294	292	291	291	291	291	297	295	287	285	286	293	294	295	296	296	295	293	293	293	292	292	289	287	290	290	293	291	294	294	293	291	291	290	294	296	300	300	299	296	294	291	293	290	289	291	291	293	293	289	287	287	286	285	285	288	289	291	291	286	286	287	294	293	292	291	291	290	292	296	292	290	290	290	290	286	287	288	290	290	291	295	297	295	288	291	292	293	292	293	292	291	289	287	286	286	284	286	288	289	288	287	287	289	290	292	293	290	289	290	291	289	290	290	289	286	283	283	285	285	287	286	283	281	280	282	288	279	284	287	287	287	291	292	289	285	285	282	284	286	287	286	283	284	290	289	286	287	286	284	285	285	281	282	288	287	282	281	280	279	280	282	282	283	285	285	282	285	283	280	282	283	282	280	279	279	281	282	284	283	284	283	284	282	283	287	281	277	277	282	284	279	275	281	284	285	285	283	283	279	278	275	274	275	279	278	277	277	276	280	277	275	275	271	273	275	274	275	276	275	275	277	278	278	278	280	278	277	277	276	275	274	273	273	279	282	280	278	276	275	276	275	274	274	273	273	275	278	276	275	280	278	276	270	270	271	271	270	270	275	275	275	273	271	270	271	272	271	270	267	266	264	272	274	272	272	269	268	269	268	265	265	269	269	270	271	272	272	270	268	268	268	268	269	270	270	271	272	271	270	270	268	265	266	266	271	272	270	271	271	270	270	269	263	265	265	267	268	268	268	268	264	263	267	268	268	268	273	267	263	264	264	264	263	262	261	261	261	262	262	260	260	261	257	258	257	265	266	267	264	265	265	263	263	262	262	263	261	265	263	264	262	263	268	269	266	261	261	256	260	259	258	256	254	256	265	267	266	265	260	262	264	262	262	262	262	261	261	258	259	260	260	257	256	258	262	260	263	262	263	262	257	253	255	255	259	260	261	260	260	263	257	257	255	254	256	258	261	260	259	260	262	261	259	259	256	255	256	257	259	254	254	254	257	256	257	257	258	260	259	259	259	257	257	261	258	256	261	260	260	260	0	0	0	0	0	0	0
296	297	299	300	296	296	296	292	293	302	304	304	305	303	301	299	296	297	299	299	298	295	293	293	292	289	292	291	291	291	289	291	293	296	300	301	298	298	297	298	298	298	290	291	293	293	295	297	299	300	297	298	296	296	291	291	291	294	295	294	292	291	294	297	297	298	297	297	297	298	297	296	300	298	296	292	291	292	289	289	290	293	296	298	297	296	297	296	295	295	294	293	292	293	294	293	291	290	292	294	293	291	289	292	294	294	292	287	294	293	294	294	294	293	292	291	292	292	291	290	290	289	289	287	290	297	297	296	296	296	295	294	291	293	293	293	294	293	292	285	280	281	284	287	289	288	286	289	288	290	290	290	289	290	293	295	294	291	290	286	284	285	289	290	291	291	287	285	286	283	281	281	286	291	286	287	290	293	287	288	289	294	293	291	288	286	288	288	289	288	285	282	282	289	285	294	295	296	294	285	287	288	288	286	281	283	288	290	290	292	291	290	291	290	289	289	291	289	287	285	285	284	286	289	289	286	287	289	291	292	291	288	288	287	285	286	285	289	290	286	285	286	286	286	285	288	290	289	287	288	290	289	289	290	290	286	282	283	286	287	287	288	291	290	289	287	284	287	286	282	287	288	288	276	283	283	282	282	282	283	289	290	287	288	287	286	287	288	282	288	288	288	286	288	289	288	286	286	283	281	282	285	285	282	282	282	282	282	286	284	278	283	284	280	284	284	282	282	281	285	286	286	287	285	285	282	285	284	282	282	285	284	283	285	281	280	281	281	280	279	279	279	279	280	281	282	282	282	280	279	282	278	281	283	283	282	281	282	282	279	282	283	283	278	282	280	279	278	279	276	276	278	277	278	278	278	276	281	279	277	276	277	277	277	273	272	274	277	277	275	274	273	272	271	274	272	273	276	274	274	272	271	272	274	272	271	274	278	278	278	276	275	275	274	274	276	279	279	276	276	274	273	272	274	273	273	272	272	275	276	276	275	277	270	267	267	268	271	271	266	267	272	272	270	270	270	269	270	270	269	266	268	268	263	265	269	267	267	270	273	274	268	267	266	266	267	268	265	265	267	267	265	265	265	267	269	270	270	269	270	268	264	264	265	267	267	265	270	265	263	264	268	266	263	261	261	263	265	268	267	267	267	261	262	262	267	267	264	263	266	266	263	261	261	262	261	259	258	260	258	259	259	257	258	257	261	257	258	258	259	263	262	263	258	260	259	256	257	260	260	259	260	261	262	261	263	265	265	261	259	259	257	256	255	254	254	256	264	263	261	260	256	257	256	257	257	256	260	260	261	259	260	260	259	257	257	260	259	259	261	260	258	261	255	252	254	254	258	258	261	260	259	259	259	262	262	259	258	262	255	253	255	263	262	259	259	256	253	253	255	255	256	254	255	254	252	256	256	256	257	259	258	256	255	256	256	255	253	253	253	258	258	255	0	0	0	0	0	0	0
294	294	292	288	288	290	290	291	293	297	300	300	299	299	297	296	296	296	297	296	295	294	289	289	287	287	290	294	295	295	294	291	291	294	295	295	294	294	294	292	293	291	289	292	291	291	294	297	295	295	294	288	292	290	288	288	289	292	293	293	290	290	292	294	296	296	294	293	293	293	293	293	295	293	294	294	291	292	290	288	287	287	288	294	296	294	293	291	286	284	284	284	288	292	293	292	288	285	286	288	290	290	289	286	286	287	287	286	290	291	291	292	291	290	289	291	290	289	289	286	288	287	282	281	283	289	296	291	290	296	293	288	287	288	290	289	286	286	286	281	279	281	282	285	288	284	286	286	286	285	288	288	288	286	288	292	295	289	286	284	283	285	286	285	286	286	286	286	284	284	284	282	279	283	286	288	293	288	290	292	292	294	293	290	288	285	285	285	286	288	283	280	281	283	284	281	279	278	284	283	279	277	276	275	279	284	286	288	285	287	288	289	287	288	288	288	285	285	284	283	283	282	283	284	285	287	286	286	290	290	290	286	286	285	285	281	285	288	289	285	286	286	286	283	281	279	281	280	280	286	289	291	290	288	287	283	280	280	285	285	285	284	290	289	283	281	281	281	284	283	288	288	281	278	282	283	283	283	282	286	286	288	284	284	286	285	284	278	283	283	283	286	287	286	280	279	280	282	282	281	280	280	273	277	277	278	280	281	282	281	273	274	276	274	274	274	276	278	278	277	275	277	281	281	280	278	278	278	278	281	284	284	282	281	279	278	278	278	276	275	274	278	278	278	281	281	281	278	279	278	277	279	281	283	282	282	271	269	270	269	270	273	279	286	285	283	282	278	278	275	272	271	278	277	274	276	279	280	278	274	275	275	275	276	274	272	272	274	276	274	272	272	271	272	273	277	275	274	273	269	270	270	270	271	273	273	276	278	272	272	274	275	276	275	273	274	279	276	274	274	272	271	271	272	272	272	272	270	275	275	270	270	267	267	268	266	268	268	269	270	271	268	269	268	267	268	267	265	266	266	268	268	267	262	265	265	267	267	267	268	267	266	264	267	265	265	266	266	266	266	264	266	265	265	265	266	267	269	267	264	265	267	266	265	264	264	262	269	263	261	260	260	260	261	258	258	263	267	266	265	266	263	260	261	260	266	263	262	261	263	259	263	260	260	258	258	258	256	258	262	258	257	256	258	259	261	262	256	257	259	258	254	256	261	255	256	257	257	256	259	257	259	259	259	260	263	263	260	257	254	253	254	254	254	254	255	256	260	262	258	259	252	254	253	257	256	257	257	257	258	259	260	259	257	256	257	259	258	258	258	258	259	257	251	252	252	252	251	255	256	255	254	254	256	261	260	257	256	254	252	251	254	256	251	257	254	248	251	251	252	253	253	253	254	254	251	250	253	253	253	256	258	255	255	255	251	253	251	251	252	255	255	252	0	0	0	0	0	0	0
290	290	287	286	286	285	285	290	293	296	297	297	296	294	292	294	292	292	293	294	292	292	287	287	286	288	289	292	293	292	292	294	294	295	295	292	289	289	286	285	284	286	285	286	287	290	290	293	293	288	287	288	289	287	285	285	285	290	289	288	287	288	292	292	289	290	290	291	291	291	292	290	288	291	290	289	290	290	284	284	283	284	285	286	287	288	287	285	284	283	283	282	282	282	285	284	286	285	283	284	288	288	286	282	281	285	285	286	287	289	290	288	286	283	285	288	287	285	286	284	285	282	282	282	283	283	290	284	282	287	287	286	285	285	283	283	283	283	283	282	281	281	281	280	281	281	284	283	282	281	280	280	279	280	285	287	286	290	286	284	283	286	287	282	281	283	284	284	286	284	284	283	282	282	286	287	287	284	283	278	278	279	285	287	285	283	283	281	284	284	281	280	280	282	284	281	280	279	278	276	277	275	276	276	276	282	284	284	283	286	287	288	285	285	286	284	282	280	281	279	278	278	280	281	286	286	283	284	281	283	286	285	281	284	284	281	284	286	283	283	285	286	284	281	276	276	278	280	280	281	280	287	285	283	281	281	280	281	282	283	285	287	288	287	284	281	280	280	281	284	286	286	278	277	277	283	284	283	282	282	283	287	281	276	278	276	271	274	274	276	277	277	280	278	274	273	276	279	280	279	277	272	277	274	274	273	272	273	273	273	275	277	275	273	272	272	272	275	276	272	271	273	277	282	283	277	279	276	272	274	278	279	275	274	272	271	273	273	275	273	272	273	271	269	269	273	272	270	270	267	268	270	271	270	270	268	268	268	269	270	270	268	272	274	274	273	274	274	273	272	271	274	271	277	274	273	275	276	275	274	274	274	274	272	273	272	272	273	272	273	272	272	272	268	270	268	270	269	270	269	269	267	268	269	271	273	272	271	274	273	274	274	275	272	267	273	273	275	273	271	270	270	269	270	270	270	270	267	265	264	263	269	269	270	268	267	266	267	266	263	263	264	265	265	263	264	264	263	264	265	264	264	267	268	262	265	267	267	266	266	266	267	264	267	263	265	266	266	265	263	263	266	265	263	262	264	259	258	258	261	261	265	265	264	263	260	260	263	260	256	256	255	257	264	262	259	264	266	265	264	261	261	259	258	258	259	261	259	255	256	260	258	260	259	259	257	258	259	260	259	260	257	257	259	259	261	262	261	258	255	254	250	251	257	258	255	255	255	258	254	255	255	257	259	263	261	260	260	255	254	253	253	254	254	252	252	252	251	257	259	257	252	253	253	256	256	256	255	252	254	257	259	256	254	253	254	256	256	256	255	254	253	247	241	244	248	248	251	252	253	254	253	253	253	257	256	256	253	251	250	250	251	255	247	251	247	247	247	251	251	248	248	248	248	254	253	252	252	252	250	251	255	251	251	249	249	251	251	250	250	249	249	251	0	0	0	0	0	0	0
286	286	285	283	284	284	284	287	291	294	295	293	293	288	287	290	292	286	285	283	283	282	283	283	285	286	286	286	286	289	289	289	293	291	292	290	288	288	286	284	281	281	281	281	282	284	284	288	289	288	287	288	288	285	283	282	282	284	286	286	285	290	288	288	287	284	283	286	290	290	289	287	284	285	284	288	289	287	282	279	281	282	282	283	284	284	284	283	282	283	283	283	282	281	277	279	283	282	281	281	283	283	284	280	277	281	285	285	283	284	284	283	283	285	287	286	284	282	282	281	281	281	280	280	281	281	282	279	281	286	285	284	283	283	281	281	280	281	281	279	280	279	280	280	279	280	282	281	281	279	278	275	276	277	277	284	284	282	281	282	284	285	286	279	276	279	280	281	282	284	284	282	279	280	284	285	285	279	275	273	276	277	283	282	278	279	278	276	275	275	278	280	281	280	279	282	280	279	277	277	277	276	276	273	276	278	281	278	275	283	284	282	282	284	285	282	282	280	280	278	278	278	278	280	281	281	280	278	276	276	273	271	271	274	277	279	281	279	280	282	283	282	281	278	275	273	270	271	275	279	277	276	274	275	277	277	280	280	280	282	282	281	281	280	279	279	281	281	280	280	280	280	278	277	279	282	282	285	277	278	279	274	273	274	272	272	272	274	273	270	271	275	277	276	275	272	273	275	277	275	278	276	275	274	273	273	272	271	272	274	276	277	275	273	271	271	271	273	274	272	269	270	272	281	280	279	275	272	270	274	272	275	272	270	269	270	272	273	274	275	272	271	269	268	268	270	268	269	265	267	268	268	265	265	268	268	268	269	271	272	272	272	269	269	266	271	272	271	270	272	271	271	270	269	270	270	271	273	273	272	271	270	268	267	269	270	269	271	272	271	271	271	270	267	267	268	269	267	267	269	268	266	267	270	270	275	274	263	268	269	269	266	264	266	270	269	269	270	270	266	268	268	267	268	267	265	264	264	264	263	264	267	268	270	268	265	262	259	263	263	262	259	261	262	262	262	262	262	263	261	260	261	265	267	261	264	266	263	263	261	259	259	259	261	262	262	262	263	260	262	264	264	263	260	261	260	258	258	258	259	260	262	263	263	260	259	257	258	259	260	260	259	259	260	261	263	266	263	262	259	258	256	256	257	260	260	260	256	254	255	255	255	260	260	261	259	257	256	256	254	259	259	256	257	259	262	261	259	255	255	254	251	249	248	252	258	258	258	262	255	251	252	253	257	255	253	259	259	257	259	255	255	254	254	252	251	251	250	251	252	249	252	252	255	256	254	255	254	251	251	251	253	254	252	250	250	252	251	249	251	251	252	252	251	248	245	245	247	248	249	249	249	249	249	251	255	255	251	250	252	250	246	242	248	248	247	244	242	243	246	243	244	245	245	245	246	248	248	247	248	251	251	251	249	249	247	245	249	252	252	252	248	248	0	0	0	0	0	0	0
285	285	283	281	280	281	281	285	288	290	289	285	285	284	286	287	286	285	283	280	278	280	283	284	284	285	284	280	280	286	286	288	288	288	289	287	286	283	283	281	279	277	278	280	282	283	283	287	289	289	288	288	287	282	281	281	281	282	284	284	285	284	283	283	283	282	281	284	287	287	287	285	283	282	284	286	288	287	280	280	280	281	281	282	282	282	282	279	276	276	275	276	276	276	277	278	278	276	276	278	278	282	284	284	283	282	282	282	281	281	281	281	281	282	286	286	283	279	279	279	278	275	274	278	278	279	279	277	279	281	281	282	281	282	282	281	280	280	275	276	278	279	279	279	277	277	280	279	279	278	276	275	275	274	277	282	283	281	277	277	279	281	282	277	275	275	278	276	276	276	279	279	278	279	281	281	281	275	272	274	273	280	278	279	276	276	274	275	276	278	280	277	278	277	276	276	274	274	275	276	277	276	276	273	274	274	277	276	273	274	277	281	281	282	284	283	282	279	278	277	277	274	275	274	276	277	277	275	277	273	272	269	268	269	272	278	279	278	278	279	279	280	277	276	276	271	270	269	273	275	275	275	275	275	275	274	277	280	277	272	272	276	277	277	277	273	273	276	275	277	278	279	278	276	276	276	280	274	275	275	275	273	272	272	272	273	273	272	272	270	270	271	272	274	274	275	275	277	275	274	274	274	274	273	272	272	271	270	272	274	274	276	274	271	271	271	272	271	271	269	272	274	277	275	277	276	274	272	271	271	270	271	269	268	268	269	270	268	269	275	271	269	268	267	265	267	268	268	266	269	268	266	266	262	265	268	269	271	272	269	267	267	267	266	266	265	269	267	261	267	266	268	267	264	267	266	267	269	272	272	270	267	265	263	267	268	269	268	270	268	268	269	266	263	266	265	263	265	266	267	267	264	265	268	270	273	270	262	265	267	266	268	269	269	269	268	267	267	267	263	264	265	264	262	260	261	263	264	264	262	262	264	267	272	271	263	257	255	260	259	259	258	259	259	261	263	262	262	263	261	258	257	256	258	260	263	263	260	261	255	254	256	258	259	261	261	262	263	263	263	262	261	257	255	259	258	257	256	257	258	259	259	260	260	259	257	256	255	255	256	260	259	256	256	260	258	257	257	256	256	257	256	262	261	260	260	257	254	251	252	253	252	254	257	257	259	257	256	256	252	253	252	249	255	256	252	261	255	254	255	253	253	255	251	251	254	254	253	256	252	251	252	252	252	250	253	253	254	257	258	254	255	253	254	251	249	249	249	250	249	249	252	253	252	253	254	254	254	252	249	249	250	251	248	248	248	252	252	250	249	250	251	251	251	251	248	246	244	243	244	244	245	245	248	248	252	253	252	248	250	248	247	247	246	249	247	246	245	243	243	243	244	244	246	246	247	247	245	246	245	246	250	247	247	243	242	245	245	251	251	251	248	248	0	0	0	0	0	0	0
283	281	281	279	276	275	280	280	285	285	282	281	281	283	284	285	285	281	281	276	280	282	283	285	285	285	281	277	277	283	286	286	286	287	286	284	281	277	277	278	277	276	277	280	281	281	285	285	286	285	286	285	282	281	281	280	282	282	284	282	282	280	283	283	281	279	278	281	284	284	284	282	279	281	281	276	276	275	279	279	279	280	281	280	279	278	275	275	273	273	275	274	274	276	277	278	276	276	277	276	274	276	277	277	279	278	277	276	277	279	280	280	279	277	271	275	279	278	277	275	273	271	272	275	276	277	275	274	276	273	278	275	276	276	280	280	279	279	274	277	276	273	273	276	275	274	275	275	281	278	277	276	273	274	274	280	281	281	278	277	276	276	274	273	271	274	275	276	274	272	270	273	276	276	280	278	277	273	271	271	270	271	275	273	273	273	271	275	277	277	277	278	275	274	273	273	272	273	273	277	274	271	274	273	273	273	273	270	271	273	277	277	276	275	277	281	279	282	276	275	275	273	271	272	272	275	275	273	276	272	269	270	270	270	274	273	276	275	274	274	276	273	273	274	275	270	270	270	271	272	268	272	270	268	265	267	268	270	269	271	267	269	268	270	271	271	266	267	274	275	276	275	272	272	275	273	271	272	272	272	274	275	273	273	273	272	273	272	271	269	267	266	271	272	275	275	276	274	271	270	271	273	272	272	266	266	271	272	273	271	270	270	272	271	271	274	271	272	268	268	268	275	269	271	273	271	271	270	270	269	269	268	267	265	267	268	267	267	267	269	269	267	264	265	264	264	267	263	264	263	265	265	266	266	264	268	269	270	269	264	264	263	263	262	264	264	262	259	265	264	264	263	262	262	263	266	266	270	267	267	268	264	262	262	264	265	266	267	262	259	263	264	262	261	257	262	260	262	263	262	261	262	263	265	268	267	261	260	262	264	264	266	267	267	266	265	265	265	263	259	261	261	262	262	261	263	258	262	263	259	261	261	264	265	264	259	257	259	260	260	258	256	257	258	259	262	262	264	261	261	261	261	261	261	260	259	259	259	259	254	254	255	257	257	260	261	263	262	252	260	256	259	256	254	252	256	255	254	256	257	256	260	257	259	258	258	253	251	253	254	254	251	248	254	256	257	257	256	255	254	254	253	254	254	256	257	257	255	252	252	251	251	253	253	257	257	254	253	254	252	256	254	253	258	252	256	250	250	254	254	253	252	254	250	252	252	252	251	251	252	251	248	248	246	247	245	245	245	248	248	248	247	244	249	247	250	248	246	247	248	252	250	253	251	250	248	246	251	251	250	249	248	247	248	246	249	252	251	249	248	249	249	249	249	249	248	248	247	247	246	246	246	248	246	248	247	248	247	245	245	245	245	246	248	248	245	245	243	243	243	243	243	242	245	246	247	247	242	245	246	245	249	246	244	242	240	241	243	248	249	249	248	247	0	0	0	0	0	0	0
281	278	278	276	273	272	274	274	279	279	279	278	278	281	282	284	283	275	275	278	283	280	280	281	281	283	280	279	278	280	283	283	283	283	281	280	278	275	275	274	276	276	280	280	279	277	280	280	282	283	281	279	277	275	276	279	276	276	279	279	278	281	283	282	280	277	276	278	280	279	279	279	277	275	271	267	271	271	274	277	278	279	278	276	275	274	273	271	270	273	273	274	275	275	276	275	275	276	278	278	272	271	276	275	275	271	270	272	272	272	273	274	272	268	267	270	271	272	275	274	272	270	271	274	275	274	273	272	270	274	271	273	274	272	272	276	277	276	274	274	276	277	273	272	273	272	272	275	276	276	276	276	272	272	273	279	277	280	276	274	274	274	272	273	273	273	276	273	273	271	268	268	269	269	269	269	272	272	270	269	268	269	272	267	266	270	270	274	275	276	275	273	272	272	271	272	270	271	271	274	271	271	273	267	270	269	267	267	270	270	271	270	270	270	276	279	277	278	275	275	270	271	267	271	270	270	271	271	269	268	266	267	268	269	270	271	272	273	273	272	270	269	270	272	271	270	270	269	269	270	270	272	276	269	267	266	268	264	263	266	268	267	268	268	266	266	263	264	264	271	271	270	270	268	266	264	263	268	270	272	273	271	271	270	270	272	272	268	268	266	265	267	268	268	266	266	266	268	271	270	270	272	268	267	265	264	263	265	273	268	266	266	263	263	263	263	264	270	268	267	264	265	267	267	267	266	266	267	266	265	268	265	263	261	262	268	262	261	261	263	262	260	258	259	260	259	258	262	263	260	262	262	263	264	265	265	268	268	268	260	261	261	261	262	264	263	263	262	259	261	262	262	260	260	261	260	261	261	262	265	262	263	262	260	262	264	263	260	259	258	260	258	258	255	257	259	259	259	259	260	259	260	262	262	263	263	257	259	262	262	261	261	262	264	263	258	257	257	256	258	259	259	260	261	262	258	258	258	256	257	258	259	259	257	256	256	257	258	257	258	253	255	254	256	259	261	262	266	261	261	261	261	261	261	258	255	256	257	257	256	255	255	256	256	256	256	255	252	253	255	255	252	254	255	253	253	252	252	253	254	253	252	253	253	252	253	251	250	251	252	253	252	252	252	254	255	256	256	254	252	250	248	249	251	250	253	254	253	252	253	252	252	251	251	252	251	249	247	252	253	255	254	252	258	252	250	252	249	250	253	252	248	248	247	245	244	247	249	248	249	245	244	244	244	244	244	245	245	250	249	250	248	246	248	247	245	245	246	247	247	246	247	244	244	243	242	247	246	248	248	247	247	247	247	245	248	251	250	249	248	248	249	248	247	245	244	245	245	248	246	247	246	246	246	248	247	247	246	245	244	243	242	243	244	243	244	240	240	241	241	243	243	244	242	240	240	240	240	244	244	246	246	246	243	241	242	241	242	243	243	247	246	246	0	0	0	0	0	0	0
279	275	275	272	270	270	270	270	272	273	273	275	278	278	278	281	280	276	276	283	278	276	276	276	276	279	279	278	276	279	281	281	281	279	279	277	276	274	272	272	275	279	282	276	274	274	273	273	275	276	274	276	276	274	273	274	275	275	276	277	279	281	280	278	276	272	270	275	277	277	277	272	270	268	266	269	269	271	272	273	269	269	270	269	272	270	270	268	267	265	264	270	273	273	273	273	274	275	272	270	271	268	269	271	270	266	266	269	268	270	269	269	265	263	262	262	268	269	272	273	273	272	274	272	274	271	273	271	269	266	266	266	273	269	269	271	272	272	273	273	272	268	268	270	272	269	268	272	274	275	275	266	266	271	273	274	274	271	272	272	274	273	271	274	273	272	272	271	270	269	267	266	266	267	268	268	268	268	267	268	266	267	268	266	268	272	273	273	274	273	270	269	271	271	270	269	268	268	268	270	273	274	261	267	267	267	267	266	268	268	268	267	267	267	272	275	273	275	274	269	268	267	267	266	267	270	267	266	265	267	264	263	266	266	267	266	267	269	271	265	266	268	269	269	269	271	269	266	267	269	270	273	275	269	267	265	261	261	261	261	266	267	268	268	266	265	261	262	263	263	270	269	268	267	265	265	264	264	266	269	268	269	270	270	269	267	265	265	266	265	266	266	268	268	267	265	265	266	268	270	268	268	266	265	263	263	263	263	266	264	263	264	261	263	262	261	259	261	267	266	264	264	266	264	262	260	260	259	256	259	261	262	256	256	261	263	262	262	263	265	264	264	263	259	259	258	258	261	259	258	259	259	261	261	262	263	261	262	261	258	257	258	259	258	258	260	260	259	258	258	260	259	259	258	258	260	259	259	261	255	259	262	261	261	261	259	258	257	257	256	256	256	258	253	255	257	259	258	257	258	257	256	256	259	261	262	258	259	262	261	258	257	257	257	256	253	253	253	256	256	258	257	258	258	256	256	256	254	254	256	256	260	257	255	255	256	255	256	254	255	250	251	251	252	261	261	260	261	259	260	260	257	256	252	252	253	253	254	254	257	257	257	256	254	254	253	252	252	252	252	254	253	253	253	252	251	251	250	251	251	249	250	249	250	249	248	250	251	252	253	252	252	250	249	248	252	250	247	244	246	248	248	250	249	250	249	249	250	253	253	252	251	250	249	249	248	248	247	248	250	249	249	248	251	252	242	241	241	242	244	245	246	245	245	245	242	244	244	244	247	244	243	243	244	244	244	243	248	248	249	250	246	243	242	243	243	245	247	245	244	244	245	244	241	241	247	241	243	245	240	240	245	246	246	245	247	249	249	249	243	241	243	247	243	244	244	244	245	244	245	246	247	246	244	247	246	246	246	246	243	241	240	241	242	235	239	237	238	239	240	242	243	244	241	239	239	238	239	238	240	242	242	246	243	243	241	241	239	240	240	245	244	243	0	0	0	0	0	0	0
275	275	275	269	267	267	267	267	269	269	270	270	272	272	275	272	273	277	280	280	278	274	272	273	274	274	274	274	274	275	279	279	277	277	276	276	277	275	276	276	276	270	268	268	268	270	269	270	270	272	275	277	276	271	270	272	274	275	275	277	277	276	273	269	269	267	268	271	271	272	269	269	268	267	267	268	269	271	272	269	266	267	268	267	266	265	267	266	265	264	263	266	271	265	268	268	270	268	266	264	266	266	266	265	266	266	264	264	266	266	267	266	268	266	268	261	261	263	265	269	269	275	274	270	271	271	271	267	263	263	263	263	264	267	267	270	268	265	268	267	266	265	266	267	268	269	269	265	271	272	263	264	265	268	269	267	267	267	265	264	268	271	273	273	272	271	270	269	268	267	266	265	265	265	266	266	265	266	266	267	265	264	263	262	263	264	266	267	268	267	266	268	269	266	265	265	264	265	267	270	272	265	262	261	263	263	264	267	266	264	262	262	265	264	265	264	264	271	272	266	262	263	265	266	268	270	268	265	263	263	262	262	263	265	264	264	266	266	264	264	265	265	266	269	270	269	266	264	265	269	269	269	263	261	259	259	259	260	260	260	264	266	267	267	263	262	262	261	261	263	268	270	269	268	265	264	264	264	265	268	264	265	268	265	268	267	263	263	262	262	261	260	263	265	265	262	262	262	265	266	266	266	265	263	262	263	261	261	263	265	263	263	261	260	260	260	262	261	260	261	261	259	259	262	264	263	264	262	257	258	260	261	255	255	258	261	261	261	264	265	265	264	259	261	260	258	259	259	257	257	257	258	260	260	260	259	260	258	257	257	256	256	257	259	259	258	259	259	258	257	257	256	258	258	258	258	256	257	260	258	259	261	260	257	254	253	252	253	255	255	256	257	257	255	256	255	254	259	257	257	256	254	254	257	257	259	259	259	260	259	255	255	256	253	253	252	250	251	252	254	257	258	256	255	254	253	252	252	252	253	254	255	254	253	251	253	253	252	253	252	250	250	250	253	258	258	255	256	255	248	254	252	252	251	253	252	253	251	252	253	256	252	253	253	251	250	251	250	249	252	251	251	251	252	251	250	250	250	251	251	248	246	249	250	248	245	246	251	252	253	252	251	249	246	250	249	249	247	244	246	247	247	248	246	247	249	248	247	247	248	250	250	245	245	245	247	247	247	250	250	245	245	244	246	243	241	240	241	243	245	246	245	245	245	244	241	238	243	240	240	241	241	242	242	244	246	244	243	248	249	246	245	244	240	243	243	245	242	242	244	244	241	240	240	240	245	243	240	236	238	238	238	241	240	240	244	245	249	242	240	240	242	244	243	243	241	241	238	241	245	244	244	244	242	243	243	240	239	241	240	240	239	241	234	235	236	237	237	237	237	239	243	243	240	238	238	237	236	236	237	237	236	242	240	240	239	238	236	236	238	235	241	241	0	0	0	0	0	0	0
274	273	268	268	265	264	265	266	266	268	270	269	268	268	268	269	271	273	276	276	275	271	271	272	274	274	274	273	272	273	271	270	270	272	273	275	273	266	268	268	264	265	265	265	267	268	270	270	270	271	277	274	272	269	270	271	272	275	275	274	273	270	267	266	266	268	266	266	267	267	264	263	263	262	265	268	271	271	269	265	265	269	269	266	264	263	264	264	263	263	261	261	261	264	268	268	268	269	266	265	264	263	263	264	264	262	261	262	263	263	265	270	266	267	262	261	259	260	262	265	267	269	270	269	270	270	268	261	261	261	263	262	263	264	269	265	265	270	269	269	264	263	264	265	266	267	269	269	264	263	263	264	265	266	266	264	263	264	263	264	263	263	263	268	267	267	266	266	260	260	262	263	262	262	263	263	263	264	264	264	264	264	264	266	266	266	265	264	266	264	266	268	267	264	264	264	262	263	266	269	269	267	261	260	262	263	266	267	265	264	262	263	264	263	263	262	262	264	264	266	265	266	264	266	269	269	268	265	263	260	259	254	259	262	262	263	263	262	263	262	263	265	270	269	265	266	263	262	260	269	269	268	261	260	260	260	260	260	258	258	261	257	264	265	265	262	262	261	261	262	265	265	265	265	265	263	264	264	265	265	262	262	262	268	260	266	266	263	263	263	261	259	262	262	259	259	259	260	262	263	261	264	263	262	261	260	261	260	260	264	264	260	260	259	258	259	260	258	260	261	260	260	259	260	254	254	258	259	254	254	253	254	254	255	255	256	256	254	256	261	263	264	262	261	261	259	259	257	256	256	256	256	258	259	259	258	257	256	258	254	253	255	256	257	258	258	258	256	255	254	254	252	253	254	259	257	256	254	257	253	257	259	260	254	255	253	253	253	253	255	257	257	256	256	256	255	258	253	252	253	252	255	254	254	256	254	255	260	258	258	254	251	250	251	251	252	251	252	254	252	254	254	254	253	250	250	251	252	252	252	252	252	250	250	252	250	251	250	251	250	251	249	245	248	253	255	254	254	254	252	249	252	253	253	252	253	252	253	254	252	252	250	250	252	247	248	249	247	247	249	249	250	252	251	251	249	249	248	248	249	248	244	243	245	245	243	246	245	245	249	249	249	249	247	246	245	246	247	244	245	246	248	246	244	244	246	246	246	242	242	243	244	245	243	241	237	238	240	240	241	242	243	243	244	242	242	241	242	245	246	247	246	245	243	242	242	242	239	237	238	240	242	241	242	245	248	246	244	243	242	246	244	244	240	239	240	239	238	240	242	241	240	239	238	242	245	241	234	235	237	238	235	241	242	239	238	236	240	242	240	240	241	241	242	239	238	237	237	239	241	241	242	242	240	240	239	239	239	240	240	239	240	235	236	234	235	235	235	237	236	238	236	237	238	238	236	237	236	237	238	237	235	234	237	236	236	236	237	237	235	230	232	238	0	0	0	0	0	0	0
273	271	264	264	260	262	263	265	265	268	269	267	267	267	264	266	267	273	273	273	271	269	270	271	272	272	273	273	269	267	269	272	272	274	275	275	267	267	264	264	264	264	264	263	265	269	269	270	270	269	272	268	269	267	268	269	270	272	265	265	267	267	265	264	264	265	265	267	267	263	263	263	263	264	263	263	266	265	268	269	266	266	267	268	265	262	258	259	261	263	263	263	264	265	263	265	265	265	266	264	263	261	261	260	262	262	259	259	258	258	261	265	264	263	258	261	258	262	260	261	262	258	261	261	267	257	258	259	259	257	258	257	257	257	260	261	261	262	262	262	261	259	259	263	267	268	266	261	256	255	256	258	262	265	263	264	262	262	262	262	264	261	262	259	265	264	264	263	259	258	260	262	262	261	259	261	261	261	260	261	262	263	264	265	263	264	265	264	263	264	264	263	262	264	264	262	260	260	266	268	267	266	263	260	262	263	264	266	263	260	261	262	261	261	262	262	258	262	257	258	259	259	264	264	265	268	268	267	264	259	258	255	258	258	260	262	260	259	258	260	260	261	262	264	264	262	258	257	260	262	263	262	261	260	260	257	256	249	246	248	254	256	258	261	261	260	260	259	260	256	262	263	256	264	262	262	263	258	258	258	258	260	262	261	260	265	264	263	262	262	259	255	257	257	258	258	258	259	259	260	260	263	262	265	263	261	261	260	260	260	263	261	257	256	258	256	257	257	259	260	259	257	255	252	253	255	256	258	258	254	252	252	253	255	255	253	253	253	254	260	261	261	261	260	259	257	259	258	254	254	254	255	256	256	257	257	256	254	254	254	254	253	254	253	252	254	253	254	252	253	253	250	252	257	252	254	252	253	254	258	258	257	253	253	249	248	251	252	255	258	257	256	254	254	253	256	254	253	252	252	252	251	252	254	250	251	255	253	252	250	250	250	251	249	248	250	258	257	254	254	254	251	251	251	250	248	251	252	251	251	252	248	247	248	246	243	246	250	250	248	246	244	244	242	247	250	255	251	251	251	252	252	251	252	251	250	250	250	250	251	249	249	251	251	245	245	247	247	246	247	245	247	246	253	250	246	246	245	245	246	247	249	251	253	247	245	243	244	245	247	247	243	242	243	243	244	246	245	244	246	240	239	239	240	241	245	245	242	241	240	241	242	242	242	240	238	237	240	243	241	242	242	241	243	243	240	243	241	240	244	244	238	238	238	241	241	242	237	235	234	239	238	238	238	240	245	244	238	238	238	239	241	238	240	237	238	238	238	237	242	242	242	239	240	239	237	236	236	233	232	234	236	241	237	237	237	239	235	235	233	233	236	235	236	238	237	235	235	235	238	239	238	238	240	239	236	237	238	233	233	233	236	235	235	234	234	232	233	234	235	237	237	234	236	236	238	237	237	237	236	235	234	233	236	235	234	233	233	233	233	233	233	231	0	0	0	0	0	0	0
267	263	259	259	258	260	261	260	260	262	265	267	265	262	262	262	264	268	269	269	269	268	267	261	259	260	260	262	263	268	270	271	271	268	268	266	265	263	263	264	264	263	262	263	265	267	269	270	268	268	265	264	264	265	266	268	265	264	265	265	266	267	266	265	267	266	266	266	262	260	259	263	263	264	262	262	262	262	262	262	263	265	267	268	270	262	261	261	262	263	263	263	264	263	260	262	261	261	262	262	261	259	258	261	261	262	261	260	260	259	259	262	261	260	258	259	257	261	260	261	259	259	260	257	256	254	255	255	256	257	257	255	255	255	260	260	260	260	260	259	257	256	255	258	259	259	260	257	256	257	256	257	259	263	259	262	258	259	260	260	263	262	258	259	259	259	260	261	261	261	262	261	261	259	258	257	258	258	258	258	260	260	262	263	262	259	259	261	263	263	262	261	259	261	262	261	257	258	260	264	265	258	259	260	259	257	259	259	259	258	253	256	260	259	259	257	260	257	257	256	256	257	255	256	264	260	261	262	264	261	256	255	255	255	253	254	255	255	255	258	258	261	259	257	256	255	257	256	258	257	255	259	254	254	256	256	255	254	252	249	250	253	255	256	254	255	256	254	253	254	260	262	255	255	256	257	260	259	250	255	257	259	260	259	261	260	261	260	257	256	257	256	256	256	258	256	257	258	258	258	259	257	260	257	258	257	258	256	255	255	255	254	253	255	259	259	254	255	256	256	256	256	254	252	252	253	254	256	257	251	253	252	253	254	253	252	251	252	252	253	258	260	260	260	259	256	257	253	253	254	253	253	254	255	255	252	250	251	252	252	253	252	252	251	253	253	251	253	249	253	253	252	254	250	251	252	252	252	252	252	252	253	252	252	250	246	245	246	246	252	253	253	253	253	254	253	253	251	252	252	251	250	248	249	253	253	252	251	250	250	249	250	249	250	250	250	250	253	254	255	251	249	250	250	250	248	248	247	248	249	246	245	245	246	246	244	246	250	249	246	244	243	242	243	243	244	248	249	250	247	248	251	252	252	249	247	246	247	249	248	246	247	245	249	245	243	243	245	246	243	242	241	249	248	246	243	237	237	240	241	242	240	242	248	243	244	245	241	245	244	244	243	241	242	243	242	244	245	243	243	243	239	237	238	241	244	242	241	240	240	240	241	242	242	241	240	240	238	243	243	242	241	241	239	239	241	241	240	239	244	243	237	236	236	239	241	242	240	236	236	239	235	234	233	233	235	235	236	235	236	236	236	234	236	238	238	237	235	242	240	235	241	240	242	239	237	236	235	235	231	230	230	235	234	234	238	239	236	235	230	231	232	236	241	240	237	236	232	230	231	235	237	235	236	233	236	234	232	233	233	232	233	229	229	231	231	233	232	231	231	235	237	236	236	236	236	236	233	233	232	232	232	232	232	233	233	232	232	232	232	233	233	233	0	0	0	0	0	0	0
