481	476	476	477	479	479	476	475	476	474	474	477	480	480	481	482	482	482	485	489	485	479	479	474	472	474	477	478	477	477	472	470	471	475	483	486	488	488	487	482	480	480	481	481	483	481	477	477	481	484	488	490	492	490	487	487	489	487	487	487	486	485	485	486	490	491	495	496	497	497	490	473	477	477	473	469	469	465	467	468	469	471	475	479	484	487	486	474	469	474	478	481	477	474	471	473	475	475	476	476	477	479	482	486	483	478	476	475	475	475	480	483	483	475	466	461	461	465	471	477	481	484	484	483	482	483	482	477	476	477	480	478	477	471	473	478	483	478	470	467	473	473	473	475	477	481	477	477	475	472	470	470	470	471	474	479	481	479	466	466	470	466	464	460	461	471	470	467	466	467	466	467	470	474	478	482	483	480	480	477	478	468	469	469	467	466	467	468	472	470	465	464	465	469	472	474	479	478	478	469	462	459	458	456	457	463	463	462	464	466	465	465	467	467	463	465	465	465	465	462	464	464	464	466	469	472	473	472	470	471	473	469	471	473	472	474	477	484	489	489	481	478	478	481	476	468	463	468	476	482	483	481	475	471	467	465	466	468	472	471	466	458	457	458	460	460	462	465	464	463	458	456	458	467	469	472	470	467	465	466	472	478	475	464	458	455	457	459	459	461	461	462	458	455	455	451	449	450	448	453	456	463	466	469	468	460	463	462	461	462	462	461	463	462	460	463	463	462	462	461	463	464	464	464	470	476	475	465	463	461	464	464	462	464	464	465	464	463	464	463	463	466	468	462	455	452	453	458	468	468	468	469	471	472	471	466	461	457	464	461	463	466	471	472	472	452	458	461	463	463	465	463	458	455	456	458	457	456	451	451	457	462	465	464	461	464	469	462	460	459	460	461	460	459	462	471	468	468	467	467	466	467	470	469	465	460	456	450	454	453	443	447	450	454	456	461	465	464	465	463	464	464	464	463	467	469	470	466	463	463	462	465	466	468	470	472	472	471	470	466	465	463	464	464	465	467	469	475	472	470	467	463	461	462	456	455	455	459	462	463	461	459	459	461	457	455	456	460	463	463	462	459	456	455	457	456	457	458	460	458	454	447	452	449	454	458	456	450	450	447	458	456	452	448	448	452	454	455	457	461	464	465	462	461	459	458	457	453	450	446	445	449	451	455	458	458	457	457	452	451	451	450	452	460	463	460	458	457	457	461	463	461	460	461	459	456	458	462	457	451	454	457	458	457	457	458	453	445	445	447	445	444	449	456	463	463	457	451	450	453	467	469	469	466	465	456	460	460	462	458	454	452	449	447	450	454	454	457	458	463	466	466	468	466	467	462	462	461	458	454	452	455	461	460	456	452	454	454	454	455	455	452	452	458	462	463	462	459	460	460	461	464	467	466	465	466	468	470	473	473	475	474	470	465	469	467	463	465	465	467	470	469	0	0	0	0	0	0	0	0
474	471	470	470	469	469	469	469	471	471	471	470	472	475	476	481	481	480	484	480	472	469	467	467	462	465	469	469	466	466	466	464	465	469	471	470	470	470	470	471	471	473	476	477	477	477	474	474	474	477	480	484	488	489	486	480	478	479	483	483	482	477	472	474	477	481	487	489	490	476	470	464	463	470	469	465	465	457	452	454	458	465	471	475	478	474	474	471	473	476	481	482	479	472	470	471	471	467	463	459	460	465	468	476	477	471	465	462	462	463	466	466	464	459	460	461	461	460	460	462	475	482	481	480	472	472	473	473	473	474	474	474	472	470	471	472	471	466	460	458	459	470	471	471	472	472	473	472	472	467	463	461	461	463	471	474	475	465	461	458	460	462	462	460	461	462	467	467	466	462	462	460	463	463	469	477	480	479	477	474	466	464	464	463	461	459	460	464	466	466	463	460	459	461	463	468	473	476	469	458	455	453	453	455	457	460	460	458	457	462	462	462	462	458	456	456	457	457	457	458	457	461	461	463	465	470	469	467	466	467	468	466	463	460	466	468	473	480	478	474	469	466	459	465	462	455	454	459	466	473	475	468	466	463	463	465	465	466	469	469	466	459	452	454	454	457	465	467	464	461	454	449	447	449	454	460	462	462	460	455	456	457	460	454	450	450	453	456	454	457	452	450	451	450	448	450	450	451	449	449	451	450	453	449	450	452	455	457	455	455	455	454	453	453	453	451	449	448	449	450	457	458	457	461	464	464	464	467	464	460	455	452	453	457	459	458	456	456	454	456	457	461	464	455	450	446	442	445	447	453	455	456	459	462	460	456	457	459	453	446	449	444	445	445	444	444	447	457	460	459	457	455	453	451	451	454	457	457	455	450	454	457	458	458	455	454	461	452	457	462	466	460	456	452	450	449	449	447	449	450	456	464	467	466	462	455	447	445	441	440	444	446	447	447	448	450	456	458	459	461	461	461	462	463	466	468	456	453	454	454	454	453	452	449	453	458	462	462	462	459	459	458	460	460	463	464	448	452	450	450	455	454	453	451	449	445	442	442	450	453	452	448	443	446	450	455	455	455	455	459	453	451	451	450	452	454	454	454	455	454	447	445	445	443	444	450	447	444	445	446	447	451	450	448	445	448	449	449	448	450	452	454	458	455	452	452	452	443	442	442	440	437	444	450	450	449	445	442	439	441	445	446	448	450	450	451	451	449	451	448	444	448	450	455	456	453	457	455	449	449	451	452	454	453	454	452	448	441	438	437	438	439	439	445	462	460	453	448	444	442	443	446	446	447	448	446	448	445	448	448	447	447	445	445	443	446	452	454	457	460	462	460	456	452	449	454	454	449	440	441	445	450	453	452	450	448	445	446	450	449	449	450	450	449	452	460	459	459	455	455	449	448	448	450	450	453	455	458	461	462	460	458	450	447	448	452	457	460	460	462	461	462	0	0	0	0	0	0	0	0
466	464	464	461	462	462	464	466	466	461	461	460	463	468	471	476	476	471	472	466	463	461	461	461	462	466	465	463	462	460	460	457	454	455	459	464	464	463	463	466	469	470	472	471	472	472	467	467	464	468	470	475	478	473	477	477	474	472	473	473	476	471	470	470	471	473	478	473	476	470	465	464	461	461	460	458	458	452	448	450	456	462	468	471	473	467	464	467	474	478	477	469	467	464	467	467	469	469	467	464	459	460	461	460	457	452	453	455	457	457	456	458	459	460	459	459	457	457	457	457	463	472	469	463	456	456	459	460	457	451	451	456	459	460	463	467	462	454	450	451	453	457	459	460	463	466	465	467	466	459	453	453	455	456	458	466	461	460	457	457	458	461	460	459	459	460	463	465	462	458	454	447	448	452	460	468	472	475	471	466	461	461	462	460	458	458	458	461	460	458	456	455	454	454	457	462	467	469	461	455	454	452	453	453	455	457	457	453	453	456	461	460	459	458	454	445	444	446	450	453	456	463	461	460	460	465	464	462	461	464	466	463	457	452	452	454	465	474	475	470	458	457	457	456	456	456	455	459	457	453	453	452	449	449	454	457	458	457	460	461	459	453	449	449	446	445	448	458	460	456	449	448	449	448	448	449	456	454	451	451	450	453	449	445	445	444	446	445	443	442	443	447	447	445	443	446	449	449	446	445	449	451	450	448	446	448	449	448	445	446	447	447	445	444	446	446	445	444	443	441	442	446	446	449	447	453	451	451	451	450	445	431	426	429	432	443	449	450	449	449	450	451	451	449	443	439	438	439	444	444	447	451	455	456	451	443	443	442	440	438	439	440	440	440	439	440	441	446	455	455	449	446	446	447	447	450	454	455	451	447	443	441	441	442	442	443	442	442	450	458	458	458	454	450	444	441	439	438	440	443	450	451	450	447	443	443	444	446	442	441	442	443	441	443	445	446	448	449	454	456	457	457	461	465	463	449	450	449	448	443	448	448	442	442	441	440	445	454	452	453	452	451	455	456	434	437	440	439	439	439	442	439	442	447	448	447	440	438	440	444	446	439	436	437	445	452	453	451	448	447	445	446	447	449	449	450	449	441	441	447	447	444	443	443	440	446	443	441	442	446	445	446	449	447	440	443	445	445	445	444	444	444	446	448	441	439	435	439	439	443	441	434	434	439	429	429	428	430	433	437	440	441	441	445	443	443	442	439	435	435	439	440	443	442	437	433	434	437	441	447	449	450	443	445	447	446	443	440	439	437	433	433	434	439	443	447	445	440	440	441	438	438	440	440	436	434	436	436	438	439	442	442	440	438	440	442	445	447	449	450	450	448	446	446	444	441	438	435	435	440	445	448	447	447	446	444	442	441	443	446	447	446	447	445	448	451	455	452	448	448	444	440	443	447	449	450	448	446	445	440	435	435	438	440	445	445	446	452	452	454	449	446	0	0	0	0	0	0	0	0
448	447	448	451	454	454	452	454	452	452	452	452	455	459	465	469	469	460	461	456	455	455	455	455	456	456	456	456	457	454	454	452	449	451	454	460	462	465	465	466	470	469	469	469	465	463	456	456	454	454	459	461	456	460	469	471	472	469	468	468	467	464	463	461	466	451	453	452	452	455	461	464	462	462	459	458	455	455	449	452	456	461	463	461	461	461	462	464	470	473	469	466	462	460	460	462	465	469	469	467	463	459	458	453	452	446	448	452	454	453	449	446	453	456	458	457	456	453	452	454	455	457	459	457	455	458	459	453	448	446	448	452	457	457	459	460	460	454	448	446	448	445	437	436	442	448	451	452	456	459	453	449	452	450	450	454	457	455	457	455	457	455	455	452	452	454	457	459	456	455	449	442	442	447	446	448	447	445	452	455	456	458	456	455	450	452	456	457	455	453	450	446	440	438	445	452	456	459	462	454	451	449	449	451	453	455	456	453	451	457	462	462	459	455	450	440	437	437	440	441	448	447	431	430	434	452	459	456	451	449	448	448	446	443	435	440	446	452	457	455	452	451	454	454	451	451	453	454	452	450	448	450	448	443	444	449	453	452	451	453	455	451	446	439	436	436	440	438	440	441	440	442	443	445	445	443	441	442	444	445	446	445	443	437	438	434	440	441	439	438	439	445	446	442	438	439	443	444	442	437	447	450	449	447	443	441	436	435	436	438	438	440	436	436	440	442	441	440	438	437	436	437	433	438	443	444	442	440	440	440	438	430	429	429	432	436	443	446	446	447	447	447	446	444	440	434	435	437	440	439	440	434	429	434	437	437	439	440	437	434	435	434	434	432	434	436	436	435	440	439	437	431	435	441	445	447	445	444	441	433	422	421	421	436	435	432	430	432	430	446	449	448	445	439	437	436	432	432	435	441	444	446	443	437	432	432	433	435	440	440	440	440	440	437	439	442	445	446	448	448	447	450	448	450	446	444	442	445	441	440	437	439	441	442	440	436	437	442	445	444	444	441	430	430	430	430	432	431	433	431	431	435	439	440	443	448	446	440	437	437	438	435	433	431	437	438	436	432	430	429	434	437	432	431	434	436	436	434	438	444	445	444	436	433	436	441	441	440	444	447	444	441	439	438	435	440	442	441	441	438	437	436	435	436	435	434	430	433	436	443	439	434	425	423	423	426	427	429	430	433	433	433	429	426	435	440	437	430	426	430	435	438	437	436	430	428	428	428	431	438	441	441	439	440	438	440	436	437	437	433	429	426	431	433	434	436	431	433	438	439	435	434	427	425	427	428	429	430	431	432	433	432	431	433	434	439	441	441	439	438	432	430	428	435	436	435	434	436	439	441	437	436	440	440	441	443	440	440	440	443	441	438	439	442	445	448	448	446	446	440	439	438	440	443	446	443	438	436	436	429	429	430	433	439	441	441	442	442	442	446	443	443	0	0	0	0	0	0	0	0
445	444	445	447	448	448	449	449	452	449	447	447	448	452	456	457	450	450	450	448	445	445	449	449	450	445	448	449	452	450	450	447	446	450	453	458	461	464	464	464	463	464	463	462	459	455	452	452	446	447	450	451	448	452	457	462	458	455	458	458	455	457	455	446	442	438	436	436	440	446	449	454	459	460	458	458	455	455	453	451	452	453	450	445	447	450	453	458	464	465	464	453	452	450	449	448	447	445	446	449	453	450	451	452	453	449	447	450	451	450	448	439	439	444	448	448	448	451	453	452	453	453	455	456	454	456	456	447	443	442	442	447	450	452	454	457	458	453	450	447	442	436	435	437	441	444	448	448	448	449	450	449	446	440	441	445	457	458	457	453	450	445	442	445	449	450	448	445	435	436	433	433	435	438	442	439	435	433	438	444	448	451	452	447	443	442	445	448	448	444	440	436	433	442	445	444	444	445	450	451	448	446	445	450	454	458	456	448	445	449	451	451	448	446	440	430	429	431	434	441	431	426	432	422	423	425	429	430	432	434	435	436	431	432	433	433	433	436	437	439	443	442	442	442	445	445	448	448	443	437	433	440	442	439	439	444	449	446	447	448	450	447	440	435	430	427	431	433	435	435	434	436	439	440	441	440	437	436	435	440	442	439	435	432	429	430	436	435	434	433	437	441	444	440	436	436	439	439	434	433	434	438	446	444	440	432	431	429	429	430	430	433	431	434	437	440	436	435	434	434	434	432	428	429	432	432	430	428	430	428	429	427	426	428	431	435	438	439	434	426	425	424	425	428	430	430	433	433	434	433	425	426	429	430	428	430	433	435	431	430	431	430	429	427	424	424	425	426	428	427	426	425	424	428	434	435	436	438	435	433	430	430	430	427	423	421	420	422	432	432	430	429	434	431	434	432	428	428	429	431	430	428	429	430	432	432	431	432	431	434	437	432	431	430	432	435	439	440	441	437	435	436	438	432	433	437	439	439	436	433	429	436	441	442	440	435	431	431	437	438	426	421	422	426	427	426	426	428	428	429	429	432	436	437	438	437	439	432	428	424	425	426	424	425	428	432	435	433	427	428	430	432	429	428	427	433	437	439	436	442	443	433	430	429	425	420	424	427	433	438	437	435	434	429	430	434	441	439	424	422	421	420	420	421	423	425	425	428	435	435	423	422	421	424	427	427	428	429	430	430	427	423	420	418	426	424	420	418	420	423	426	428	431	435	433	426	421	418	417	413	417	428	428	427	428	427	427	423	422	420	421	419	423	430	429	427	423	424	430	437	440	432	427	428	428	425	424	427	428	431	432	429	423	421	425	429	436	436	436	433	431	426	423	422	424	426	428	432	438	437	430	427	425	426	427	430	430	432	434	435	438	439	436	434	436	433	434	435	435	436	432	433	436	437	433	432	430	431	428	427	428	428	427	432	439	440	433	433	432	434	432	437	0	0	0	0	0	0	0	0
446	443	441	443	444	444	444	448	452	452	450	450	447	448	448	450	442	442	441	438	436	435	434	434	436	440	442	447	448	447	447	448	446	446	446	451	457	458	458	458	455	451	452	451	450	448	444	441	441	442	445	444	443	446	450	451	446	448	450	450	452	450	443	441	439	436	434	435	439	444	445	445	447	448	450	450	450	450	451	451	450	451	446	442	444	447	451	451	449	444	440	437	440	440	440	439	440	435	432	432	437	437	438	442	443	445	446	445	446	445	441	437	437	439	443	444	444	447	450	450	447	447	449	450	451	450	451	448	445	440	438	436	437	441	444	450	452	451	444	439	434	432	432	435	438	441	444	444	446	445	443	443	439	438	437	435	434	435	435	438	437	433	433	436	442	447	443	431	429	430	429	429	431	434	434	436	432	428	430	432	441	447	448	437	437	438	439	437	437	431	429	430	432	437	438	440	440	440	440	442	443	440	439	436	439	443	444	444	439	432	429	431	437	436	431	427	424	425	429	430	433	427	431	423	421	423	425	426	429	433	435	430	430	431	430	428	428	429	429	428	428	432	436	435	436	439	440	441	435	430	426	435	443	439	437	440	440	441	439	440	439	434	432	431	429	428	426	430	431	430	430	429	432	436	435	437	433	430	423	426	431	435	432	429	422	427	428	427	426	428	431	434	438	439	434	430	432	433	431	430	431	435	445	444	438	427	422	420	420	420	420	426	430	434	436	433	429	429	431	432	432	423	424	427	430	430	427	426	425	424	426	423	423	425	429	431	431	428	425	425	423	421	423	423	425	425	422	422	421	420	420	423	428	426	425	424	424	427	428	428	426	429	426	422	422	422	423	425	425	424	420	419	420	424	430	428	424	431	430	429	430	431	427	424	422	421	423	426	430	429	429	426	425	426	426	423	422	419	418	419	421	420	423	420	426	429	429	423	422	425	425	427	423	426	427	431	432	430	430	427	423	423	428	429	429	428	423	423	422	423	423	428	441	442	435	431	428	427	420	418	418	418	415	417	420	424	424	425	425	426	427	430	432	430	433	433	428	425	421	420	421	422	419	419	421	422	421	422	423	423	422	425	419	420	422	430	437	440	441	435	429	426	427	424	420	418	421	421	426	428	429	428	427	428	424	421	423	424	425	420	418	416	415	414	416	415	420	423	423	421	419	417	419	423	426	425	428	424	425	427	425	422	420	420	421	420	415	411	413	414	415	415	419	428	430	421	415	410	406	412	418	423	422	422	419	419	418	420	419	415	414	416	418	423	424	424	420	420	422	425	425	420	413	413	415	420	419	419	425	426	427	421	415	410	411	421	421	425	424	427	427	426	421	419	420	424	428	425	426	426	425	422	419	421	425	424	424	426	422	422	425	428	427	427	424	420	419	423	423	426	428	429	430	429	426	427	426	424	427	426	423	423	423	424	428	428	422	422	423	419	420	422	0	0	0	0	0	0	0	0
446	441	435	434	428	435	435	440	445	447	444	444	439	439	441	441	434	434	432	431	432	433	432	432	435	437	439	438	441	444	444	444	443	442	444	444	449	451	448	448	443	444	442	443	443	442	440	439	439	439	440	440	439	441	443	443	440	438	441	444	436	439	439	437	435	434	433	435	440	444	445	445	444	441	442	441	441	442	442	442	444	442	435	434	438	441	444	446	443	438	433	434	436	437	438	437	431	432	432	431	434	436	435	436	438	439	439	441	443	443	442	440	437	435	436	437	437	436	435	438	437	437	440	443	442	441	444	445	440	433	430	432	433	431	431	437	437	444	440	434	430	427	428	429	434	437	439	438	438	440	439	438	434	432	431	428	428	430	432	433	431	431	428	428	429	429	428	428	418	419	423	425	429	430	431	430	426	423	420	427	431	430	431	432	436	436	435	433	429	426	424	426	431	433	434	434	435	435	433	428	424	423	426	429	435	435	439	439	436	430	428	431	430	428	426	420	420	423	425	432	430	430	423	422	420	421	422	424	428	431	431	427	425	426	426	426	425	424	422	420	417	418	417	422	429	431	430	432	427	420	422	426	443	444	437	435	436	435	433	432	432	428	426	426	426	426	428	431	430	428	428	427	427	426	426	425	422	416	411	414	418	416	418	424	423	416	418	420	422	422	423	427	432	431	427	411	414	426	427	426	425	427	426	428	434	426	420	418	418	418	418	418	422	430	428	425	425	426	427	425	423	418	415	415	417	422	424	422	422	421	423	421	419	420	422	428	426	421	421	422	416	415	416	417	420	422	420	419	417	416	417	419	422	423	419	408	412	415	421	426	427	425	427	422	418	420	419	418	416	413	414	416	419	425	428	425	417	416	422	423	424	419	422	420	419	421	422	425	428	428	427	424	422	420	419	417	415	411	415	415	414	415	414	416	421	424	422	418	416	414	414	417	420	421	425	425	426	420	417	417	416	417	420	419	419	420	421	423	423	423	424	426	433	433	428	425	414	413	414	417	416	415	414	414	416	422	422	422	418	418	417	418	420	422	427	428	427	421	417	417	419	422	422	414	415	413	408	407	407	410	414	416	414	417	422	428	431	432	435	428	424	423	423	422	421	419	418	418	417	419	417	414	415	410	415	414	416	418	420	418	414	412	411	411	408	401	403	404	407	407	408	413	416	419	423	415	413	416	419	421	422	420	416	415	418	418	412	406	406	407	411	413	412	415	419	408	404	402	407	408	415	413	412	409	408	413	415	415	414	413	412	411	413	418	421	415	413	416	418	417	414	410	409	407	410	408	408	414	414	414	415	417	412	407	407	408	412	414	417	419	421	418	415	412	413	419	423	423	423	422	422	420	417	418	420	421	420	419	418	417	415	415	413	413	412	412	412	412	415	416	415	412	412	414	412	415	417	421	424	423	419	419	418	414	412	414	414	414	415	413	413	415	0	0	0	0	0	0	0	0
436	436	431	425	423	425	425	436	441	440	437	437	427	427	429	431	427	427	430	430	434	435	435	435	435	436	435	434	431	436	439	439	439	438	439	437	441	440	439	439	434	433	432	432	435	437	436	437	437	438	439	438	438	438	438	436	432	431	433	428	428	431	430	430	432	432	432	433	438	443	446	444	436	434	434	434	435	436	436	439	437	432	431	432	434	433	435	436	434	429	427	430	434	434	434	427	427	429	430	425	428	430	432	430	433	432	433	432	433	436	437	436	435	432	430	430	429	420	419	422	423	423	426	430	431	431	434	438	436	431	429	431	433	429	425	423	429	431	433	431	427	423	424	429	431	432	429	428	429	429	434	431	430	427	426	423	422	424	426	426	430	427	426	430	429	427	424	420	414	416	420	424	427	429	430	429	425	421	420	423	426	427	428	425	430	431	422	426	425	423	424	427	430	430	430	431	431	429	427	422	426	422	425	426	427	428	427	428	430	428	427	428	428	426	419	416	418	420	421	421	421	423	423	422	420	419	418	418	424	425	423	422	422	423	423	411	409	411	415	411	409	400	402	404	408	408	419	419	417	416	417	424	424	426	430	422	419	420	423	422	418	414	415	416	419	424	427	429	428	425	418	410	418	420	421	421	419	413	409	409	408	408	416	417	422	421	421	420	419	418	419	422	425	417	411	409	408	410	409	410	413	415	418	421	421	428	422	420	421	422	418	414	412	415	417	418	417	412	411	413	413	413	413	411	415	415	417	417	418	417	417	414	414	419	424	424	422	418	418	412	413	410	406	407	410	411	417	416	415	413	414	417	419	417	405	405	407	412	415	417	416	417	414	408	408	412	416	417	416	413	412	413	418	423	421	418	413	411	414	417	418	416	419	417	415	418	421	423	423	425	418	419	420	419	418	416	412	409	408	410	412	410	413	414	418	422	421	416	412	410	408	407	416	419	422	420	418	415	413	410	414	414	412	413	414	419	421	424	425	426	420	425	429	430	421	416	412	411	412	415	417	415	413	413	415	413	409	407	406	408	413	413	411	413	419	423	421	417	415	416	419	422	421	408	405	405	404	403	402	402	399	400	406	410	411	421	426	428	426	422	420	418	419	420	419	416	409	406	405	404	408	408	407	404	411	413	411	412	413	412	410	407	407	405	399	399	401	403	400	404	404	400	399	400	400	399	402	409	415	409	405	407	408	411	416	411	409	403	403	403	407	410	409	407	405	402	397	398	402	402	405	407	407	406	406	406	411	412	410	410	407	406	407	409	407	407	408	412	415	415	413	410	406	406	406	408	407	406	404	404	415	415	410	404	405	404	407	410	413	413	413	411	408	407	410	414	416	415	413	416	417	409	409	412	418	423	424	423	415	408	406	406	407	408	401	404	408	408	409	404	404	403	401	400	401	410	414	411	408	410	408	408	405	404	405	405	405	405	404	402	402	401	0	0	0	0	0	0	0	0
431	431	427	422	419	420	420	429	434	434	426	426	422	427	429	427	424	424	422	428	433	436	436	435	435	435	433	430	426	431	431	431	431	431	431	432	434	435	432	432	431	427	424	424	427	428	430	433	433	434	434	434	436	436	436	430	422	417	419	423	423	425	425	422	427	429	430	432	436	442	444	432	430	429	429	427	430	431	431	432	428	428	428	429	424	422	424	425	424	423	425	425	428	430	429	425	425	424	425	419	423	423	423	426	426	425	427	430	430	429	432	433	433	432	428	425	420	418	416	419	431	430	425	423	423	423	426	430	431	430	428	431	432	426	420	418	418	424	426	426	423	420	421	426	430	427	425	425	426	425	425	427	425	424	422	420	420	421	422	425	426	428	429	428	427	425	426	421	412	415	419	425	427	428	427	429	427	423	419	410	410	415	417	418	419	418	418	417	413	411	421	426	430	429	428	426	419	416	416	421	426	423	422	424	421	422	424	426	422	419	417	425	424	420	418	419	420	417	414	414	416	421	419	415	414	416	416	416	419	414	416	412	411	414	416	409	405	405	404	401	399	401	403	396	392	392	395	400	406	406	407	409	412	413	413	411	405	403	409	408	406	404	407	412	416	419	420	427	422	414	402	407	410	416	413	419	415	412	407	407	407	407	415	419	418	419	412	409	408	409	410	410	410	409	409	409	409	406	405	403	405	406	410	410	411	410	411	414	422	422	417	413	408	405	408	411	411	406	406	404	408	408	408	408	408	410	412	413	412	410	408	414	413	412	412	408	406	404	403	414	413	408	405	405	407	407	406	406	411	412	416	418	418	406	403	403	405	412	415	413	407	405	404	403	403	407	411	409	410	410	411	413	411	409	411	414	412	409	411	415	415	417	416	411	409	407	411	415	412	412	414	416	418	420	418	415	411	407	405	407	409	411	413	415	410	408	412	410	405	405	406	405	405	410	416	416	413	413	411	408	407	410	409	409	412	414	414	410	411	412	413	422	412	416	415	412	409	406	409	413	413	410	409	412	413	410	405	403	402	405	408	408	408	407	407	408	411	414	413	414	415	415	411	406	404	405	403	402	400	399	403	406	408	410	409	406	405	412	415	413	413	412	412	413	411	405	399	393	394	398	402	401	396	392	397	396	394	393	403	404	402	401	399	395	398	399	400	401	397	399	401	399	397	398	396	396	394	400	408	405	403	404	405	400	397	395	401	399	397	400	403	406	405	403	399	398	396	397	396	394	395	397	401	404	405	407	409	408	407	405	403	402	402	401	401	401	402	405	410	413	412	411	406	405	404	406	406	404	402	401	403	405	410	406	406	405	404	406	407	410	407	406	406	405	406	409	411	408	402	399	403	405	406	407	411	414	414	411	403	401	400	401	400	396	398	401	404	404	400	399	399	398	399	404	407	409	410	410	409	405	402	401	399	401	403	404	404	405	404	406	404	401	0	0	0	0	0	0	0	0
423	423	422	419	417	416	416	421	428	427	419	420	420	426	428	425	417	417	418	422	429	430	427	426	426	425	423	423	424	424	425	425	426	426	426	427	429	431	431	431	429	427	425	423	423	424	427	426	429	429	429	429	431	433	432	424	416	415	417	418	418	418	417	421	423	424	423	426	429	429	428	428	428	426	425	425	426	425	426	426	423	423	423	424	420	416	416	416	417	419	421	423	422	422	422	421	423	423	420	415	415	414	418	421	422	422	424	425	425	424	426	429	430	430	426	421	416	414	417	427	429	429	425	419	418	418	415	418	418	422	424	425	424	418	415	412	413	413	415	413	413	415	418	423	426	425	423	422	422	421	421	425	424	423	419	417	416	417	415	422	416	426	425	422	421	422	425	425	414	414	419	419	417	416	415	418	417	410	405	403	403	407	411	411	414	413	413	413	412	410	408	409	413	426	422	419	416	415	416	412	409	416	421	421	418	417	416	413	413	413	412	409	408	412	416	420	418	416	413	413	411	410	408	406	408	410	410	409	406	407	407	407	409	411	411	408	401	401	400	397	398	396	395	389	385	385	389	397	397	401	401	403	406	407	406	405	404	403	405	405	400	401	402	407	411	415	415	412	410	393	397	401	404	410	412	412	408	408	408	406	407	407	411	413	414	410	403	403	405	406	409	408	409	409	408	408	409	406	400	398	398	398	401	405	407	409	408	410	415	419	414	409	405	405	407	405	402	400	399	400	403	404	404	404	403	402	406	413	416	415	412	406	397	399	400	401	400	397	394	395	406	406	404	405	405	405	404	405	407	413	413	410	406	406	406	405	406	408	408	403	403	403	403	401	402	402	399	399	403	405	405	406	405	408	410	414	415	414	411	414	413	414	413	409	407	407	405	405	404	408	411	413	415	416	417	414	409	406	404	404	405	405	414	406	399	395	400	399	400	403	403	403	403	406	409	410	407	404	407	405	402	403	406	408	408	410	409	409	409	408	399	400	403	409	410	407	405	405	402	403	403	399	397	400	405	402	400	393	396	400	402	404	404	403	401	395	399	405	407	404	407	408	407	402	401	401	404	403	400	400	401	405	408	408	405	401	397	397	398	397	400	405	408	407	404	395	392	393	396	396	398	394	387	390	390	391	390	388	389	394	394	392	390	393	395	399	400	398	393	395	397	399	396	394	392	392	390	387	394	397	396	394	393	395	389	389	391	393	395	396	400	403	401	399	397	396	395	394	394	393	395	394	393	396	398	402	404	404	403	400	398	397	397	397	397	397	396	396	398	400	400	401	401	402	403	405	404	402	398	398	397	395	402	404	404	402	399	396	397	399	400	395	393	403	402	403	404	400	396	393	396	401	402	405	406	408	408	404	401	398	396	397	394	395	398	399	399	398	399	398	398	396	398	401	406	408	408	408	405	403	399	397	395	396	399	401	401	404	405	402	402	400	0	0	0	0	0	0	0	0
414	414	413	411	412	413	413	415	420	418	414	416	416	420	425	422	415	414	414	418	422	423	421	422	422	420	416	412	415	418	419	419	421	421	422	424	427	428	430	430	428	426	424	422	420	421	424	424	425	425	423	423	425	427	427	415	412	413	410	411	410	410	412	417	419	413	414	415	419	423	426	425	423	419	417	420	422	421	419	419	418	418	419	416	411	410	410	411	411	417	420	421	417	416	418	417	417	414	411	413	409	410	412	416	418	419	420	420	420	420	423	427	428	425	420	413	410	409	417	422	426	424	420	416	412	411	410	410	409	411	414	417	417	415	409	407	406	408	410	410	408	409	414	418	421	420	417	415	417	419	419	422	422	419	414	410	410	410	406	415	407	403	400	398	402	413	417	418	416	414	410	408	407	407	408	412	414	409	403	399	400	401	404	405	405	407	407	407	406	405	403	401	398	394	393	412	410	408	406	406	406	406	408	410	410	409	408	410	412	411	410	407	404	407	412	409	406	401	405	409	406	408	409	409	407	408	408	399	398	399	401	403	404	406	407	405	398	397	396	392	391	386	388	384	383	382	381	388	396	394	392	394	402	403	403	402	402	401	401	401	397	397	398	401	405	406	401	398	393	391	392	396	400	402	406	405	402	403	404	405	407	408	408	407	401	398	400	401	402	402	404	404	406	404	404	404	407	405	397	398	396	395	396	400	405	407	407	403	408	406	408	403	401	401	403	401	398	395	395	398	401	401	400	397	395	393	393	396	397	397	395	392	395	397	396	394	393	392	393	394	395	399	401	400	399	397	397	397	398	399	398	387	383	394	400	406	407	408	408	402	397	397	399	399	399	391	390	392	396	397	403	402	403	406	407	408	409	409	404	406	411	408	401	399	401	403	403	403	403	403	404	409	409	408	408	410	406	404	402	398	396	401	402	394	395	394	394	396	398	399	398	400	401	401	405	408	403	403	404	402	398	399	402	406	406	406	405	400	396	396	395	395	397	400	400	401	400	397	390	391	391	394	398	406	401	399	393	389	387	391	396	398	396	394	394	389	389	392	396	398	400	401	398	392	390	392	397	394	393	397	398	402	399	402	397	395	394	394	398	399	404	407	396	396	396	394	392	393	396	396	394	390	384	383	385	386	385	383	382	386	387	387	387	388	394	396	397	393	388	383	386	395	393	390	387	387	385	384	383	385	389	389	387	384	384	383	387	389	391	394	394	397	396	395	396	392	389	388	392	397	398	389	389	386	392	400	403	403	390	392	392	392	394	394	394	393	389	389	391	394	396	398	398	398	400	402	400	398	395	391	389	389	392	396	398	395	393	391	393	394	395	394	390	388	394	398	395	390	390	391	389	394	397	399	399	398	402	396	393	392	390	389	389	386	388	388	388	390	388	396	394	393	394	396	397	387	385	385	387	396	396	393	391	392	395	397	397	400	401	402	400	397	0	0	0	0	0	0	0	0
407	407	403	404	404	407	407	411	410	408	408	409	409	413	419	415	411	411	411	410	413	416	416	416	416	412	407	407	410	413	416	416	418	420	422	424	426	427	426	424	424	418	418	418	419	420	420	420	419	419	418	418	420	422	412	404	402	403	405	405	404	404	408	412	406	406	408	410	414	418	418	417	414	410	408	407	405	407	409	409	410	410	408	408	406	407	406	407	408	411	420	420	417	413	411	409	408	407	405	402	400	402	408	411	413	413	414	414	414	416	417	418	416	412	408	407	404	406	412	416	415	412	413	412	412	410	408	408	407	407	407	408	409	406	404	403	402	403	404	406	405	406	407	410	411	412	411	412	410	409	409	416	417	415	408	403	405	405	404	404	400	397	391	388	392	397	400	402	402	401	399	397	394	398	402	407	407	404	397	395	394	395	396	396	398	396	395	397	399	397	398	398	396	394	392	390	393	396	401	402	401	402	405	407	408	406	405	405	408	408	409	406	403	402	403	402	403	401	400	400	403	405	412	407	400	400	396	395	389	390	394	394	396	398	400	397	396	391	389	385	384	384	386	383	381	381	382	382	387	386	395	398	398	397	401	400	400	400	399	398	393	393	395	398	400	401	397	393	389	387	384	385	388	390	391	392	393	392	397	404	406	406	405	396	397	401	399	397	396	396	396	396	394	392	400	403	406	403	396	396	396	395	396	397	395	400	396	396	395	403	400	396	394	396	394	393	393	394	395	395	395	396	397	397	395	396	395	392	388	387	388	390	390	393	393	391	390	389	390	391	391	389	392	395	393	390	391	390	387	384	384	380	391	390	393	394	393	394	394	394	392	393	390	390	389	388	387	386	388	393	395	400	399	400	401	402	402	397	400	400	396	395	394	395	397	400	399	400	400	401	401	399	399	399	398	399	401	400	395	388	385	387	388	391	391	390	390	394	396	397	397	397	399	398	400	399	396	396	397	396	391	397	401	402	393	391	386	385	392	393	393	384	381	381	384	388	388	387	383	380	384	392	393	396	394	389	386	380	381	379	378	384	392	389	388	383	384	386	393	394	395	395	394	391	388	388	390	390	390	390	395	392	386	389	392	391	389	388	387	391	390	388	389	390	389	386	384	383	384	386	391	386	384	377	374	377	379	378	377	381	382	382	384	387	390	393	395	394	381	380	381	383	387	389	386	384	384	385	386	388	382	380	379	375	375	380	384	385	387	388	388	387	388	388	387	385	382	378	385	386	384	383	379	382	388	400	401	389	386	386	387	389	389	392	393	392	385	385	389	393	395	395	397	396	395	395	393	390	388	388	385	384	385	386	388	387	386	386	388	390	389	388	387	387	386	383	384	385	387	389	389	389	392	394	393	393	390	386	384	385	384	383	383	383	383	383	381	381	382	383	385	388	387	386	387	386	384	381	382	385	385	386	386	388	391	391	392	390	391	393	389	378	0	0	0	0	0	0	0	0
402	402	396	397	398	401	404	404	404	403	403	405	405	406	410	412	407	405	405	407	409	413	413	412	409	409	405	403	406	409	413	417	417	418	419	422	424	424	419	416	416	410	407	411	413	417	416	414	414	414	414	415	416	409	405	397	395	398	403	407	408	408	409	404	402	403	405	405	404	403	409	413	411	409	407	404	401	402	404	408	408	409	408	407	400	401	402	404	404	405	414	420	418	413	407	405	405	405	403	400	396	396	399	399	402	407	409	409	409	408	409	408	407	404	401	400	398	401	406	410	409	406	407	409	411	409	406	403	402	401	402	402	402	398	401	399	397	394	397	402	403	400	400	399	398	401	404	406	406	407	404	408	409	407	401	400	400	400	401	400	400	395	391	388	388	393	396	398	400	398	396	394	391	394	399	402	403	401	397	394	392	391	394	393	393	391	390	392	393	389	387	392	394	390	389	389	389	391	393	395	400	399	401	403	403	399	401	402	403	405	408	405	401	397	400	400	400	395	397	398	394	391	396	397	393	390	386	386	387	389	390	392	392	393	393	394	394	388	385	384	383	383	381	380	381	380	383	382	384	378	383	391	392	393	392	384	385	387	389	390	392	394	394	396	399	400	394	393	395	395	392	388	386	386	387	388	391	393	395	395	397	398	394	393	396	398	396	394	393	394	395	395	393	389	390	390	402	401	401	398	396	394	394	395	389	387	390	390	390	391	393	393	392	393	385	390	392	394	392	395	394	394	396	396	398	396	393	388	386	384	384	385	388	389	389	386	383	386	389	391	389	387	385	383	387	383	383	380	382	382	383	381	389	391	385	383	381	384	388	389	390	391	389	388	385	382	378	384	385	389	394	394	395	396	395	393	392	392	390	392	390	389	389	390	392	390	392	393	394	393	389	383	383	384	384	385	389	394	395	391	388	382	378	379	381	381	393	397	399	396	394	391	395	397	398	398	393	391	387	385	385	395	396	391	384	381	380	380	381	385	385	382	377	377	383	384	382	371	372	375	378	383	393	388	386	384	383	381	376	374	375	380	385	390	387	381	381	385	387	387	385	391	391	389	388	389	389	389	388	387	385	389	381	387	386	386	386	383	380	379	380	386	380	376	377	377	378	380	379	379	381	385	380	369	368	370	369	373	375	379	379	379	379	377	383	386	384	381	377	377	376	379	382	381	379	382	384	385	385	380	379	378	377	373	375	378	382	380	378	378	376	376	379	378	375	372	372	376	374	382	381	380	378	374	384	387	388	376	376	381	384	389	391	388	387	381	381	378	384	387	388	389	392	393	388	390	386	385	387	385	383	380	383	385	387	385	382	382	383	381	378	382	382	382	382	381	380	381	384	386	387	390	390	387	384	383	380	378	378	378	379	378	377	378	379	379	377	380	380	381	380	379	381	381	377	381	379	379	379	381	381	378	382	387	388	388	383	376	377	377	373	373	0	0	0	0	0	0	0	0
398	393	393	392	394	395	400	400	400	399	399	400	400	401	407	411	404	402	402	403	405	409	410	410	405	405	402	403	406	410	411	411	411	410	409	410	412	412	409	404	404	399	401	407	408	406	407	406	408	408	413	416	408	405	401	396	398	403	404	403	402	402	400	401	402	402	403	400	399	397	400	401	399	400	398	398	398	399	398	402	402	402	401	398	396	396	396	394	395	399	403	402	402	399	399	399	403	404	404	400	398	397	398	399	400	404	406	409	407	404	401	402	402	401	397	394	396	397	401	403	404	403	405	408	408	407	403	395	395	396	397	398	397	397	397	395	392	389	391	395	394	395	394	393	390	390	391	401	403	402	393	395	402	402	397	396	395	393	393	397	398	398	394	388	387	389	392	394	396	395	393	390	387	391	394	398	400	396	392	391	391	391	389	387	384	388	388	388	389	381	381	385	384	387	388	388	386	387	387	389	387	391	394	400	400	399	398	397	396	399	397	395	393	393	389	389	390	387	389	390	386	386	377	376	381	383	387	383	385	386	388	390	388	388	388	389	390	386	385	384	383	380	378	377	376	381	383	383	379	377	377	385	387	390	389	387	382	381	385	386	390	389	394	395	394	392	392	394	391	386	383	383	384	384	385	387	390	394	397	397	393	393	393	392	393	393	393	389	389	389	390	389	386	385	384	384	386	387	392	399	396	391	380	382	384	383	384	385	389	390	390	389	392	387	389	381	384	393	393	388	387	388	390	391	392	391	388	384	383	381	380	381	382	380	380	380	377	380	382	392	393	391	388	385	376	374	376	377	378	380	380	380	387	387	380	379	377	380	382	384	386	387	388	381	377	372	370	376	384	389	387	386	386	385	385	383	384	382	381	383	380	381	383	387	388	387	387	388	388	377	379	381	382	383	382	382	384	388	391	390	383	379	377	377	380	387	390	394	397	394	388	386	391	390	390	387	383	380	381	383	382	381	382	380	378	376	375	374	374	378	381	381	377	371	370	367	367	367	369	370	375	377	382	383	384	381	380	376	375	380	382	386	385	386	385	382	380	380	379	380	381	378	377	381	383	383	379	377	380	382	383	379	376	379	377	364	360	360	363	366	375	374	370	369	372	372	370	376	376	375	376	380	367	364	366	365	369	372	373	375	375	373	372	370	371	373	375	367	371	374	371	368	368	368	367	367	372	375	378	377	377	375	374	371	372	375	375	376	376	377	376	376	378	376	372	372	371	372	370	370	375	375	374	374	375	376	378	374	372	375	375	377	378	378	378	375	375	378	383	384	382	382	382	380	386	378	377	382	383	381	376	375	378	380	379	378	373	371	369	367	370	372	375	379	382	382	381	378	379	379	381	381	382	383	382	382	378	376	375	376	375	374	374	375	373	373	375	378	378	379	380	382	382	377	373	368	375	377	376	375	370	368	370	375	377	377	374	371	369	367	368	378	0	0	0	0	0	0	0	0
393	389	389	388	392	395	396	396	398	398	396	396	396	399	403	399	399	399	399	399	400	403	407	408	404	404	403	404	407	408	407	404	404	402	403	403	405	404	400	397	397	397	398	400	397	396	398	402	406	410	410	397	396	397	397	398	401	402	401	398	396	394	394	395	397	396	397	395	394	395	395	396	399	397	392	389	389	388	390	395	395	396	395	395	395	394	391	389	389	389	389	388	385	386	389	395	400	404	406	403	398	396	396	397	400	401	403	402	400	398	397	397	397	396	391	388	390	394	396	394	393	394	397	399	404	399	391	385	389	388	389	389	393	395	393	392	387	384	385	385	390	393	392	391	388	384	382	383	382	382	385	391	393	393	393	391	389	388	388	394	397	396	392	389	385	382	386	391	393	393	391	383	384	386	379	381	395	392	390	390	392	391	384	378	379	388	388	386	378	373	374	377	379	381	386	388	387	385	384	384	380	380	386	387	390	388	383	386	392	391	391	392	391	391	390	387	386	384	386	386	384	380	375	373	374	380	382	384	384	383	384	386	387	383	383	386	385	384	383	381	381	377	375	374	375	376	377	378	378	377	379	379	384	383	382	382	381	382	382	381	379	388	395	392	384	379	381	388	386	382	378	377	376	376	379	382	386	392	395	395	392	389	386	388	389	389	388	386	383	385	385	385	381	381	380	378	375	375	383	384	384	375	372	372	375	380	384	387	385	385	386	390	385	383	380	378	379	381	382	383	375	373	376	378	377	378	376	375	376	369	367	368	369	376	376	374	375	377	381	381	383	383	383	382	379	377	376	374	374	373	377	380	383	377	375	373	371	373	378	379	377	378	378	377	365	364	366	368	381	385	386	386	386	386	382	379	372	374	376	381	378	379	384	388	386	381	382	378	370	373	373	372	376	381	384	381	380	378	379	380	379	377	378	378	382	380	378	385	390	387	384	379	375	372	368	376	373	374	377	374	375	371	372	372	371	368	368	373	372	371	370	373	373	367	366	365	366	367	367	369	371	372	374	379	377	374	373	370	370	371	373	374	374	376	375	378	375	372	373	376	378	371	372	371	371	369	366	366	370	369	367	371	375	368	369	368	361	355	357	357	360	368	365	366	368	368	365	367	368	367	368	369	364	363	362	363	364	367	373	371	369	367	367	364	363	367	369	365	365	369	370	370	369	369	368	364	365	367	371	378	374	372	369	370	372	375	374	375	373	370	373	374	376	375	376	371	371	369	368	367	370	373	375	375	373	374	374	373	377	382	380	374	372	368	364	361	360	362	365	366	367	368	370	368	368	364	361	361	360	360	365	363	372	375	371	367	365	364	364	366	365	365	369	371	371	373	373	369	372	374	372	373	376	379	380	380	377	371	371	370	367	364	362	366	366	369	375	374	374	373	374	378	377	372	369	367	367	368	366	361	359	358	358	364	364	366	367	367	366	364	369	375	0	0	0	0	0	0	0	0
391	388	388	388	389	394	397	397	400	399	399	395	395	395	396	394	395	397	396	396	391	396	399	401	400	400	398	398	400	401	400	397	397	396	398	398	400	399	395	395	395	396	397	397	396	394	396	402	404	403	394	388	387	391	393	393	390	385	382	382	386	390	390	392	393	392	394	388	388	386	389	394	395	395	391	388	388	387	389	389	390	390	393	394	395	393	392	389	388	388	387	385	383	379	382	388	394	400	403	396	388	385	384	390	394	398	396	390	388	386	388	390	390	390	388	384	383	384	384	383	378	379	383	387	387	383	379	378	379	380	381	378	379	388	389	385	381	381	381	380	384	388	390	389	386	384	381	381	383	384	384	390	389	388	386	385	385	386	388	391	394	391	389	385	383	377	377	380	384	379	372	372	375	375	375	376	374	381	387	384	381	381	375	372	372	375	376	375	372	368	370	375	376	377	383	386	386	383	383	378	378	375	383	389	389	388	385	386	388	387	384	383	383	386	386	386	380	377	383	384	384	380	374	373	371	378	381	381	378	369	369	367	366	367	371	372	374	380	378	377	376	373	373	373	374	375	374	376	377	374	375	377	376	375	374	367	371	372	370	367	368	370	371	373	372	373	373	375	383	380	376	373	372	374	375	367	368	372	375	376	376	373	372	375	386	388	392	391	380	379	380	376	378	378	379	375	373	371	375	375	373	372	376	376	378	377	375	372	379	380	378	385	383	380	375	373	375	378	378	377	372	373	377	378	374	375	375	373	371	371	371	370	369	369	368	368	371	374	375	374	373	371	373	374	374	372	370	373	374	374	374	375	371	371	371	369	367	366	365	372	370	365	363	361	362	363	365	364	375	377	376	375	375	375	375	371	369	372	374	378	376	378	384	383	381	379	372	364	366	368	368	367	367	368	373	379	379	378	369	371	374	375	374	373	374	373	373	371	380	383	381	374	370	369	370	371	370	364	369	370	367	368	369	369	364	364	365	364	366	367	366	366	366	365	363	364	365	365	368	368	366	367	370	371	370	367	367	367	365	364	364	365	367	369	369	368	367	367	367	366	363	363	369	369	369	366	367	364	363	365	365	362	367	368	368	368	367	359	362	365	365	366	367	366	365	364	362	363	365	365	366	366	362	359	359	355	355	363	366	364	362	366	366	361	357	359	364	361	363	366	368	369	368	367	366	364	368	369	367	367	367	365	357	368	370	373	372	373	372	366	368	366	365	364	373	372	371	369	369	368	364	367	354	358	363	361	360	362	362	367	368	367	367	361	356	358	358	359	359	363	366	368	368	369	369	368	366	363	362	362	361	357	356	356	359	359	358	358	360	363	361	364	367	368	368	367	364	365	371	374	372	370	370	368	368	367	361	363	365	365	365	365	366	366	366	365	368	368	368	367	366	369	371	368	366	360	359	359	361	364	359	357	360	362	362	363	365	366	366	365	367	366	0	0	0	0	0	0	0	0
393	390	390	387	389	391	394	394	398	398	397	394	392	392	392	389	391	390	388	388	386	387	386	388	389	389	387	386	383	389	390	390	393	393	395	396	395	394	394	394	396	396	399	397	393	390	393	399	399	394	388	382	386	389	390	390	388	384	383	383	384	388	388	391	392	392	386	383	383	381	380	381	391	390	387	387	386	386	386	387	386	386	387	389	391	390	388	386	385	381	380	380	379	378	379	382	387	391	392	387	383	382	380	382	383	385	383	385	382	382	381	384	388	388	384	381	380	380	379	377	375	379	385	387	388	386	383	379	378	376	375	373	374	380	378	378	376	376	376	379	380	379	379	385	383	381	380	383	385	385	383	380	374	380	381	381	379	381	386	390	390	386	382	381	381	375	368	369	371	373	372	372	370	369	366	369	370	370	374	377	373	373	370	363	361	366	376	377	376	369	372	380	382	379	380	379	380	383	381	378	376	373	369	376	383	384	378	373	368	359	373	371	376	377	377	376	370	372	375	382	381	378	375	373	373	374	374	369	368	365	365	365	365	365	367	366	366	369	373	373	372	371	370	370	371	370	369	369	372	369	370	377	375	373	364	364	366	367	367	365	367	370	369	367	369	372	371	370	369	368	370	370	371	367	366	367	369	368	369	369	371	372	371	373	375	377	372	370	369	377	376	374	372	371	373	373	371	373	374	375	374	367	368	367	368	368	366	369	367	370	370	366	378	376	372	372	373	375	375	372	371	366	366	367	368	368	370	371	369	370	371	372	372	369	368	368	368	367	366	364	363	360	359	360	363	365	365	364	368	370	369	370	361	360	361	360	359	361	362	364	366	366	363	361	360	361	364	365	365	363	363	370	370	371	362	356	364	373	375	375	372	373	380	371	371	366	362	365	365	366	365	364	363	363	367	370	373	367	361	367	368	371	371	369	368	368	362	359	371	378	373	368	366	363	361	356	357	361	364	363	362	356	356	362	362	363	360	359	361	365	366	364	361	355	353	358	365	365	365	364	362	363	364	367	365	362	359	357	360	358	358	360	363	364	365	365	365	363	363	362	357	359	361	365	362	363	363	361	356	358	359	358	362	366	367	367	363	361	364	367	367	368	367	366	365	362	360	360	363	365	366	366	360	357	357	353	352	352	353	359	359	359	362	359	354	352	354	353	358	360	366	366	365	364	358	359	362	366	366	364	363	363	361	360	367	369	369	371	369	369	366	364	363	360	359	362	364	363	363	360	354	354	354	356	354	355	355	351	355	360	360	361	360	356	354	354	356	357	354	360	362	361	359	363	368	370	365	362	362	362	361	360	359	358	358	360	359	358	357	357	354	353	355	356	354	363	360	361	362	365	369	367	365	359	358	357	358	360	362	364	363	364	365	365	363	364	364	364	363	364	360	366	365	364	358	357	354	355	356	360	361	361	363	361	361	361	361	363	363	362	362	353	0	0	0	0	0	0	0	0
390	388	388	384	383	381	384	390	390	392	396	394	391	391	388	382	381	377	380	380	380	381	381	382	382	376	376	374	371	377	381	383	386	386	392	395	393	392	391	392	397	397	397	393	386	386	388	391	391	379	379	379	383	386	387	387	386	382	383	382	382	382	382	382	382	382	381	379	379	378	378	378	379	383	385	384	384	384	384	383	377	375	375	374	377	376	377	375	374	375	375	374	377	377	379	380	381	379	379	376	375	376	376	375	376	377	375	377	377	378	378	383	385	385	381	377	374	373	372	373	377	379	382	386	388	388	387	377	375	373	370	369	369	374	375	375	373	373	374	377	378	373	372	368	366	368	371	375	376	374	375	375	372	368	368	367	364	369	374	375	376	376	376	377	376	373	365	366	369	371	371	372	371	366	364	365	367	367	370	372	370	370	368	363	363	367	372	367	368	368	368	368	369	366	369	373	372	371	371	374	373	370	366	365	364	367	367	366	362	359	359	359	361	362	364	368	369	370	373	380	380	376	376	373	371	367	368	367	366	365	363	364	363	364	364	366	366	366	369	371	370	364	356	356	358	362	364	368	368	367	367	368	373	363	361	362	362	363	363	364	365	370	367	364	366	368	369	369	367	364	364	367	368	368	365	365	369	370	368	366	367	367	366	363	368	366	366	365	365	365	366	363	362	360	360	363	366	370	370	370	371	372	363	364	363	362	359	365	362	363	360	366	374	373	373	372	373	374	368	368	366	364	364	363	363	363	366	368	366	367	368	370	370	369	367	364	363	362	362	361	359	356	357	359	362	363	363	362	360	366	365	363	361	361	359	357	357	358	357	360	361	363	363	361	359	359	362	364	363	362	360	364	363	362	357	354	354	362	367	361	358	361	365	365	364	364	361	359	360	362	362	357	356	359	360	361	361	358	358	357	358	363	367	362	363	360	360	358	362	367	372	365	362	352	353	353	353	357	357	358	355	353	352	353	357	358	360	357	354	361	364	360	356	347	345	344	354	360	359	358	357	359	357	357	358	356	355	353	351	353	355	357	358	359	360	361	361	361	360	357	356	357	358	358	358	359	352	353	354	353	355	355	355	357	360	358	357	357	358	364	367	367	365	365	364	361	359	357	355	355	361	365	356	353	352	348	348	348	348	355	355	352	350	351	352	351	351	351	355	355	355	360	363	356	354	354	354	361	355	356	358	361	361	361	359	362	364	366	368	367	352	357	357	356	354	353	349	350	354	354	355	355	353	351	350	349	346	347	350	355	356	356	355	354	352	353	354	354	354	354	354	355	357	359	364	365	362	361	360	360	358	357	355	357	357	360	359	356	355	355	354	354	354	354	356	354	352	348	344	346	356	357	357	355	353	355	355	356	358	359	361	362	358	358	359	357	359	362	362	361	363	363	362	357	354	352	352	353	352	349	348	349	349	349	351	353	354	357	358	359	349	349	0	0	0	0	0	0	0	0
376	376	375	375	374	376	380	385	385	392	394	389	385	385	382	378	378	373	374	374	376	374	375	377	376	370	370	368	372	373	374	377	383	383	386	389	385	384	384	387	388	388	388	385	383	381	382	381	375	377	379	379	382	384	385	385	384	382	378	378	380	380	379	379	379	379	379	377	371	374	375	377	378	380	377	377	375	374	373	373	371	371	371	374	374	375	375	373	372	371	371	368	374	376	377	376	377	376	376	374	372	372	373	372	370	370	370	371	372	373	375	377	378	369	367	367	369	370	373	376	377	375	374	373	367	359	354	360	376	377	372	366	365	366	365	363	363	366	371	372	373	371	367	367	367	367	368	372	373	372	373	373	372	367	365	363	364	367	367	368	370	372	373	371	371	367	361	360	363	368	371	369	363	361	360	362	364	361	358	359	362	366	364	365	366	367	361	362	363	365	366	365	362	359	359	361	359	356	355	363	367	369	368	359	360	361	362	363	361	358	357	357	356	356	357	364	366	367	375	376	373	370	367	364	365	361	362	364	365	365	363	359	363	363	361	358	357	363	366	366	364	358	354	355	357	358	359	357	360	357	363	362	362	360	357	358	359	358	358	358	358	357	363	363	363	366	361	358	357	355	359	362	362	357	354	362	364	367	367	358	351	350	350	359	356	362	361	359	360	359	361	361	359	357	355	355	358	362	364	367	367	365	361	360	358	358	358	357	362	359	354	357	362	365	364	361	358	359	362	365	365	362	360	360	360	361	362	365	364	361	359	361	367	366	364	362	360	357	357	355	357	354	352	353	355	359	360	361	358	360	359	364	363	362	359	357	355	354	356	356	359	360	360	358	357	358	360	362	360	358	354	357	355	353	351	351	352	354	351	349	346	350	357	360	361	358	353	353	353	355	357	355	350	350	353	356	357	356	355	353	352	351	357	356	357	356	358	357	355	361	352	353	352	354	353	351	349	348	349	350	352	351	349	349	353	354	352	355	357	350	350	353	353	349	346	341	343	352	354	353	353	350	351	352	352	352	350	350	349	346	350	353	355	356	356	355	357	356	355	352	351	351	352	352	345	343	348	348	345	345	349	350	351	351	348	352	351	349	350	359	364	363	364	363	362	359	358	352	348	348	350	349	349	350	349	350	347	345	344	347	352	350	349	347	347	348	350	351	354	353	352	359	353	354	352	349	348	349	349	351	354	358	359	358	357	356	355	354	349	344	348	353	354	352	348	345	344	349	353	354	353	353	351	346	347	347	345	345	346	350	354	357	355	352	351	350	351	352	352	349	351	353	355	357	358	357	359	359	356	355	354	352	352	353	357	359	357	354	353	351	352	353	353	353	352	350	346	343	340	342	343	350	352	355	355	352	349	353	351	346	350	354	354	358	355	352	350	350	357	359	361	363	361	357	352	349	351	351	346	345	344	345	346	346	348	348	349	348	350	349	347	348	0	0	0	0	0	0	0	0
372	375	374	374	372	374	378	381	381	382	381	377	377	377	377	375	374	370	368	368	366	368	370	371	368	361	361	365	369	369	363	367	378	378	381	380	373	374	376	380	382	382	382	375	373	375	376	376	373	370	371	371	372	376	377	375	376	377	372	371	371	374	377	377	375	377	377	375	371	368	371	377	375	375	375	374	371	373	370	370	369	373	373	376	377	377	375	373	372	370	368	364	366	367	369	370	372	374	373	372	370	370	370	368	368	366	367	357	358	360	361	362	362	364	365	364	364	368	373	375	375	372	371	369	363	359	357	359	364	370	370	365	361	362	361	360	361	365	370	371	367	363	363	363	362	362	367	368	369	369	368	361	369	367	363	362	362	364	365	367	369	372	372	369	362	356	355	360	367	368	362	359	358	359	358	362	362	360	359	360	363	365	366	364	362	357	355	353	357	361	362	363	363	362	359	354	356	355	354	355	356	357	356	353	354	354	359	358	352	349	349	355	353	350	352	350	349	361	372	370	365	362	362	361	359	354	354	358	361	362	356	354	352	359	358	355	347	349	360	363	359	353	352	352	355	357	358	353	350	349	354	357	354	352	352	355	357	356	351	352	352	355	358	360	360	359	357	357	348	353	351	351	355	349	349	352	359	361	360	355	351	348	348	349	350	350	355	355	353	354	355	357	356	354	353	353	355	358	360	360	357	356	355	353	352	356	357	356	354	353	351	347	348	346	347	348	350	354	355	357	355	356	357	357	355	354	355	350	350	350	357	358	357	353	354	357	355	354	353	351	350	346	348	349	351	356	354	346	347	355	364	365	362	362	358	356	352	351	352	350	353	350	352	352	354	355	355	354	356	355	352	346	344	346	347	347	349	350	347	344	345	349	353	356	357	351	347	346	347	353	354	356	354	353	353	355	355	355	354	352	350	346	348	349	351	354	353	352	342	346	346	346	346	346	351	350	346	346	347	348	349	340	343	347	349	349	349	349	346	346	345	346	346	346	345	342	337	342	351	351	346	348	350	349	349	349	348	347	347	345	341	344	351	354	352	349	350	354	352	348	348	348	348	343	342	340	344	345	345	340	340	347	342	339	342	347	348	347	349	348	354	356	354	352	351	348	344	342	343	344	347	344	343	342	342	344	342	342	343	344	344	346	345	346	345	344	344	344	344	342	339	343	347	352	349	342	341	347	348	350	352	351	350	349	353	356	354	345	344	345	344	347	349	346	343	343	343	344	349	351	351	352	348	343	344	343	341	341	343	347	354	348	344	342	341	344	348	350	350	350	352	353	351	350	351	348	349	355	354	352	351	348	349	350	348	346	344	343	342	342	346	351	353	349	344	341	340	340	339	341	342	349	350	352	351	352	350	348	340	336	338	340	340	342	339	336	347	347	348	352	354	353	352	344	341	346	346	344	345	346	342	340	342	342	345	346	347	349	346	343	343	344	0	0	0	0	0	0	0	0
375	375	372	372	370	371	375	374	374	372	373	373	375	375	375	373	369	361	359	359	359	362	366	366	361	360	360	361	362	361	362	368	372	372	373	372	364	365	369	373	377	370	370	368	368	370	370	368	371	372	373	373	372	369	368	367	369	370	371	370	372	373	372	373	373	375	375	373	371	367	368	371	372	371	371	371	370	370	369	368	366	367	371	371	374	373	370	366	365	365	360	360	362	363	362	365	368	369	369	369	365	363	361	358	356	355	351	353	356	359	361	362	362	361	361	362	361	364	369	370	366	364	364	361	357	356	357	358	365	362	364	360	358	358	357	357	359	364	366	369	363	356	356	354	354	357	357	359	362	363	360	358	360	366	363	361	360	360	363	364	368	368	369	362	357	353	353	356	361	360	356	353	355	358	359	365	363	357	359	360	362	364	363	357	355	355	350	351	353	357	361	361	360	360	358	354	350	348	350	352	352	352	352	351	350	350	348	346	344	344	346	350	351	350	350	349	349	348	343	363	360	359	353	352	349	349	349	353	355	354	353	350	348	349	354	350	346	347	360	361	353	352	350	351	353	354	353	350	346	346	351	350	349	347	348	350	352	348	346	346	351	353	352	349	351	355	355	354	347	347	347	346	346	341	345	348	353	355	357	352	349	346	346	347	348	347	347	347	349	350	352	352	351	349	346	350	349	350	353	353	352	350	346	345	349	357	350	342	343	343	344	344	345	345	344	345	346	350	352	353	350	351	352	353	352	350	349	346	350	351	351	349	351	350	351	351	350	351	351	348	347	348	347	348	349	345	341	345	348	347	356	364	363	357	350	345	346	351	351	349	348	346	345	343	342	341	343	346	345	344	342	340	341	345	346	347	348	347	344	340	342	346	348	353	352	344	342	341	345	349	354	354	352	352	351	350	350	351	351	351	351	351	342	342	345	344	339	339	337	340	341	340	338	342	347	346	345	344	345	346	336	335	334	340	344	346	340	343	342	342	341	340	342	343	341	334	327	342	344	345	345	347	347	347	347	345	345	345	343	340	339	342	346	350	346	342	344	344	349	351	347	347	333	339	338	339	341	342	340	335	335	337	341	342	341	345	346	344	345	344	342	341	342	341	339	338	341	343	344	344	344	342	341	340	337	334	335	336	339	342	344	344	342	343	341	342	340	341	342	343	342	340	340	340	341	339	340	337	340	344	345	348	345	344	346	347	345	344	343	343	341	343	343	342	340	340	341	342	343	347	346	346	346	342	339	340	340	338	338	346	347	343	342	341	339	338	342	347	347	342	344	342	349	344	342	344	341	337	337	337	338	339	340	342	340	338	337	337	338	341	343	344	343	341	337	335	338	339	341	341	342	347	347	346	342	341	339	338	335	335	336	336	339	342	341	336	335	343	346	347	352	352	345	341	340	340	342	343	346	344	343	341	341	341	345	347	347	346	341	341	339	343	0	0	0	0	0	0	0	0
373	368	358	358	354	355	358	361	361	363	367	370	374	374	374	364	362	364	363	363	363	362	364	363	360	359	359	360	358	360	363	366	367	367	367	366	365	366	367	368	367	366	366	366	368	366	367	368	371	373	375	373	373	372	369	367	370	370	372	372	374	373	372	372	372	373	372	370	368	365	364	366	367	369	369	365	363	357	359	361	360	360	364	364	370	368	365	360	359	358	356	357	359	360	358	358	363	364	358	360	362	360	358	356	356	356	354	354	355	358	361	360	358	356	356	355	354	353	355	354	355	354	346	346	345	348	354	357	361	360	355	350	354	355	353	351	351	352	358	359	355	354	352	353	350	354	355	358	360	360	358	356	357	356	353	351	351	353	357	357	359	362	362	357	353	353	353	356	355	348	350	351	353	357	363	358	356	351	353	357	361	359	358	353	353	351	347	346	351	351	353	355	357	357	357	354	351	349	349	348	349	349	349	348	348	348	348	349	347	345	348	351	350	349	349	348	348	347	344	343	345	353	354	349	348	345	345	344	341	342	342	341	348	348	349	346	346	346	349	355	353	352	351	346	345	349	347	342	342	344	339	343	346	345	345	345	350	346	344	350	348	345	342	341	343	354	353	352	347	344	343	341	341	340	339	342	349	351	352	350	349	347	344	341	341	341	344	348	349	346	349	348	349	348	344	344	347	349	352	351	347	344	340	340	343	344	337	336	339	340	342	343	346	344	340	338	342	345	351	349	346	348	350	350	347	344	345	345	346	350	344	344	344	343	338	338	340	342	341	341	345	349	348	345	343	341	342	342	344	345	351	363	344	338	334	335	345	346	347	347	344	339	340	341	341	342	341	342	340	339	337	337	339	344	347	350	345	345	339	335	333	340	346	348	341	339	338	335	338	342	342	344	344	340	340	341	345	347	344	345	346	349	345	335	334	336	335	334	333	331	331	332	332	334	344	344	342	338	336	332	329	329	330	332	339	339	340	342	340	336	335	338	339	338	337	333	332	335	342	341	343	345	344	345	342	340	340	333	329	332	334	335	335	338	335	332	335	333	337	344	341	334	331	330	329	336	337	336	332	331	332	334	338	339	337	343	343	340	340	339	338	335	332	333	335	337	341	343	343	342	338	337	338	338	334	332	332	333	335	338	341	338	338	340	340	337	337	338	339	340	341	337	339	339	338	339	338	337	335	338	340	342	342	339	337	339	340	337	333	332	332	339	343	341	339	340	340	340	339	344	341	343	342	329	324	327	333	335	338	339	338	339	339	339	337	335	334	334	334	337	341	341	329	329	334	341	337	333	332	335	331	334	339	340	340	338	337	334	333	333	336	337	337	337	337	334	331	329	333	336	333	342	342	341	340	338	338	337	335	333	334	334	335	338	337	336	334	340	343	349	348	342	340	339	339	340	340	343	340	339	341	340	340	341	338	339	339	338	338	338	337	337	0	0	0	0	0	0	0	0
365	358	352	352	351	353	355	358	360	360	361	363	366	366	366	361	364	366	365	363	363	365	365	364	361	359	358	358	355	358	360	362	364	361	361	361	365	365	364	363	363	364	364	365	366	366	365	368	372	371	374	373	373	372	369	369	369	366	367	370	371	371	371	370	370	369	369	368	365	362	363	360	361	360	359	357	355	353	355	357	358	357	358	361	361	364	359	357	356	355	354	355	356	357	357	356	355	354	352	352	352	351	352	353	353	346	352	354	353	356	358	358	355	354	355	355	353	352	353	353	351	346	344	344	345	346	347	352	355	353	352	347	346	344	343	343	343	345	351	352	349	349	349	346	345	351	355	357	359	357	351	344	346	349	348	345	345	348	349	347	349	350	356	353	348	348	352	349	349	346	349	351	343	345	349	350	344	346	346	352	352	354	351	351	350	347	343	344	344	347	348	348	351	353	354	352	349	342	342	344	347	347	347	348	347	347	346	347	347	348	350	350	349	349	348	347	346	344	343	339	343	348	331	330	344	341	340	340	337	339	339	342	347	348	346	345	348	346	346	347	346	345	343	342	339	343	337	340	341	343	343	332	334	335	338	347	347	342	344	345	346	344	341	339	340	346	349	349	341	336	337	337	338	338	334	336	338	337	337	339	352	348	343	340	334	334	333	345	349	348	346	341	339	340	340	341	346	348	350	347	344	340	337	336	334	337	335	337	338	337	340	344	343	341	339	339	339	343	343	341	339	342	343	341	337	336	337	342	345	350	344	344	342	336	335	335	331	329	336	338	340	347	352	351	347	344	344	343	342	340	338	347	340	337	334	336	347	345	343	340	337	336	338	340	341	341	340	338	338	338	338	337	338	341	347	345	342	340	334	334	333	333	334	344	335	334	335	335	339	341	342	340	342	336	336	336	336	338	339	336	329	329	331	331	331	333	331	330	328	327	328	328	327	327	331	332	326	325	324	326	328	328	329	331	334	336	338	340	332	331	333	334	333	333	333	333	326	335	332	338	340	340	342	335	334	332	328	328	330	333	333	329	328	330	329	326	326	327	329	337	335	333	330	329	330	332	332	330	332	329	331	334	336	333	330	334	337	336	331	330	331	332	331	331	333	334	339	339	340	339	334	333	331	333	333	333	333	332	334	334	337	339	339	336	334	334	334	335	336	337	330	331	332	334	336	336	334	333	333	329	335	332	329	334	330	331	337	334	333	331	332	333	334	342	343	341	340	337	330	327	332	330	329	325	321	322	328	330	331	330	332	334	335	336	333	333	331	330	330	330	329	326	321	319	327	335	333	331	331	330	329	331	336	335	334	334	335	336	336	332	333	335	335	331	324	324	323	327	330	336	338	331	332	332	335	335	334	333	331	333	333	332	333	333	332	332	333	335	343	342	339	337	334	333	334	330	332	336	334	332	339	339	339	334	325	329	330	336	336	334	332	329	0	0	0	0	0	0	0	0
356	353	350	350	350	352	355	356	358	358	359	360	362	362	362	361	354	356	357	356	356	356	359	362	362	358	356	356	352	354	356	358	362	362	362	362	363	362	361	358	358	361	361	364	364	364	364	366	364	367	372	372	372	358	356	356	359	361	364	365	367	368	369	368	367	367	366	359	356	357	357	355	357	356	355	353	349	349	350	353	354	354	355	357	357	357	357	356	355	352	351	353	353	350	349	349	346	348	348	347	348	349	351	352	348	345	345	351	353	355	356	356	355	352	350	350	351	351	351	351	349	346	345	343	342	343	345	350	350	348	347	345	343	343	342	344	343	340	342	344	343	343	342	344	343	343	351	355	352	341	339	343	344	345	346	345	345	346	346	345	347	347	340	341	343	340	346	348	344	344	342	339	329	333	336	343	337	337	339	347	352	348	346	346	347	343	340	339	339	343	343	345	347	349	350	349	344	339	339	342	343	333	329	338	346	345	342	339	347	348	346	336	336	333	333	335	339	341	338	335	332	330	326	325	326	330	333	337	337	337	336	336	336	338	338	341	342	345	345	345	342	342	341	341	336	332	333	334	336	341	340	339	335	333	332	332	334	336	340	340	340	333	331	329	332	335	337	335	330	334	337	334	334	334	333	334	337	339	338	339	335	331	338	337	336	335	334	333	346	347	342	338	337	336	337	334	334	340	341	341	341	337	336	335	335	334	334	334	335	336	336	332	335	331	333	337	338	340	339	337	336	337	338	338	339	338	335	336	338	340	341	341	336	334	331	329	328	327	327	331	342	345	346	346	344	339	337	338	337	339	336	335	337	338	338	335	339	339	335	331	331	335	337	337	338	340	338	336	335	336	336	338	339	341	342	341	338	338	332	333	332	332	334	335	335	337	335	333	337	337	336	337	337	332	333	331	334	332	328	328	325	322	322	328	329	331	329	328	328	328	331	331	329	328	328	330	326	324	324	326	326	327	330	330	332	332	332	327	326	328	330	329	328	326	329	329	325	321	333	335	336	338	340	332	330	328	325	323	324	332	329	326	327	322	322	324	326	328	327	328	329	325	326	325	325	327	328	328	330	327	328	331	331	331	330	327	327	329	325	327	326	330	330	330	330	330	331	334	335	335	334	334	333	333	332	333	334	341	341	336	330	330	332	337	335	332	331	327	328	329	328	328	328	328	321	321	326	328	329	327	327	331	326	325	327	330	332	334	331	331	331	332	331	330	329	330	332	327	327	325	325	325	325	324	327	325	325	325	326	326	328	329	330	330	330	330	330	328	328	329	328	326	323	322	324	325	330	328	328	328	328	328	329	330	331	329	330	330	336	328	328	332	332	327	324	325	324	327	329	332	336	334	328	328	326	328	329	329	328	327	327	328	327	326	330	330	327	335	339	337	334	332	330	330	327	330	332	333	333	331	331	331	328	328	329	326	328	329	328	328	328	327	0	0	0	0	0	0	0	0
350	351	351	351	351	352	354	356	355	355	355	356	356	353	355	355	353	352	349	350	350	350	353	355	356	354	352	352	351	350	351	355	355	360	360	363	363	361	355	353	351	358	361	361	361	352	352	354	356	359	359	356	356	353	352	352	354	357	359	360	360	359	356	354	354	354	353	353	355	355	354	353	351	349	351	352	347	345	349	351	351	351	351	350	353	353	349	351	353	350	346	348	351	349	348	344	341	339	341	343	345	347	348	348	347	345	344	343	349	355	355	355	353	352	350	349	348	349	349	348	345	345	343	341	337	338	342	347	345	344	343	341	340	343	343	341	340	342	343	344	344	341	340	341	342	342	342	339	339	337	341	343	342	343	344	344	342	342	343	344	344	338	337	339	340	336	335	337	338	340	341	336	337	340	344	337	338	334	336	339	340	344	345	347	345	341	338	335	336	338	338	341	342	345	347	345	341	335	335	340	336	331	330	330	335	343	340	337	339	337	335	333	331	330	330	331	332	337	336	334	331	328	323	326	327	330	333	334	337	336	336	334	331	332	335	338	337	342	341	340	339	339	338	340	331	332	332	332	332	337	339	337	333	331	331	330	330	331	332	332	332	331	331	331	333	336	336	335	332	333	334	331	329	327	329	329	333	335	335	332	331	330	329	328	328	332	334	331	332	339	338	337	336	335	331	331	330	334	335	338	339	336	335	332	330	333	334	334	331	327	331	327	334	329	331	331	330	330	331	333	334	336	337	338	338	339	338	337	335	332	333	335	336	334	333	330	328	328	330	334	341	332	331	332	333	334	330	334	333	332	335	336	337	340	339	327	328	322	325	327	330	334	334	335	337	337	337	333	332	332	335	338	338	338	338	331	331	333	332	331	330	331	331	333	334	335	335	334	331	332	334	335	334	333	332	334	333	328	329	326	321	321	319	326	329	326	327	328	329	331	333	331	329	325	324	323	323	322	324	323	325	328	330	330	329	329	321	321	322	322	325	324	323	323	323	324	322	325	323	329	334	334	328	323	322	319	319	318	321	323	328	314	315	318	319	322	325	325	326	327	326	322	323	323	323	324	326	324	324	324	326	328	329	327	327	326	326	326	325	325	326	332	332	330	328	328	328	329	329	331	332	334	334	331	330	330	334	333	336	333	330	328	332	330	334	324	321	316	320	323	324	324	324	323	326	328	328	327	326	326	327	324	325	326	324	329	330	332	330	329	329	324	325	325	323	321	321	321	324	326	327	325	323	322	323	323	323	323	325	325	325	325	326	327	326	327	325	325	327	327	325	325	323	323	325	327	326	325	326	326	325	325	325	325	328	328	329	328	325	324	326	328	329	329	327	324	324	325	327	329	322	322	320	320	320	322	324	324	319	319	316	320	320	320	328	331	330	330	330	334	333	330	328	326	326	327	328	329	325	323	324	324	321	322	319	328	327	327	327	327	329	329	0	0	0	0	0	0	0	0
348	349	349	351	351	349	346	345	349	349	350	350	347	348	350	350	350	349	344	344	345	345	347	348	348	348	349	349	349	349	348	347	348	349	351	351	354	351	349	348	347	348	356	356	356	350	349	349	351	351	353	352	348	348	346	348	350	348	347	347	345	343	347	350	350	350	350	351	352	353	353	350	345	346	346	347	344	346	347	349	351	350	349	348	345	345	346	349	343	336	338	341	344	347	343	340	338	336	335	336	335	338	341	342	345	345	343	342	340	347	355	355	354	355	345	342	344	344	344	343	341	335	337	338	338	337	337	339	340	339	338	335	337	339	341	340	340	340	341	342	342	340	338	338	338	337	341	340	339	336	338	342	344	337	343	341	342	334	334	337	337	334	336	337	334	332	331	331	334	335	337	336	340	335	345	343	329	329	332	334	336	342	345	345	344	339	336	333	334	335	336	335	333	334	334	336	335	335	335	336	332	332	333	330	330	329	328	329	332	332	330	327	326	325	326	328	329	334	336	330	330	326	323	326	328	331	332	332	333	333	335	332	330	330	332	332	332	335	336	337	336	332	330	329	328	329	330	332	330	329	334	332	326	328	327	327	326	328	329	331	330	327	328	329	329	327	327	325	323	324	327	326	325	325	324	324	326	323	325	327	325	326	325	324	325	325	326	324	329	330	331	335	335	333	330	325	326	328	333	334	332	331	330	329	328	331	328	327	326	326	327	327	332	329	328	328	327	324	325	327	330	332	329	328	327	335	335	335	334	331	329	328	331	333	333	330	327	325	330	331	329	328	328	329	329	331	334	334	326	328	332	336	337	339	335	334	324	324	328	329	328	329	328	328	332	332	331	330	326	330	333	329	336	331	327	330	332	326	329	331	329	330	329	328	329	329	334	330	327	324	327	330	327	329	328	328	325	321	319	320	318	319	319	321	323	331	326	325	327	330	327	324	327	321	319	320	319	323	324	320	321	326	326	326	327	325	320	319	320	322	321	321	321	321	321	320	320	316	319	321	330	326	329	324	323	321	326	324	324	316	312	315	315	314	319	320	322	328	325	318	315	313	313	320	322	322	322	321	321	322	323	324	323	320	317	321	323	326	324	327	327	329	329	326	323	323	323	324	325	327	331	332	330	329	326	327	329	327	335	331	323	323	324	325	327	321	317	316	317	320	320	321	321	322	326	328	328	327	327	325	324	320	323	325	323	323	324	325	326	326	328	330	327	325	323	320	319	318	319	322	318	322	320	319	321	322	320	322	323	326	325	325	324	323	322	325	323	324	326	327	322	322	322	323	328	329	324	322	323	324	324	324	322	323	326	323	324	322	322	325	325	327	328	328	328	326	325	323	322	319	319	319	319	318	318	319	321	320	320	319	318	314	314	316	321	324	324	320	328	328	327	326	325	323	323	325	325	323	325	323	319	319	316	315	309	317	323	324	325	325	324	323	0	0	0	0	0	0	0	0
346	351	350	349	349	344	343	343	343	343	345	344	345	347	349	349	349	345	341	340	341	341	343	343	341	341	344	346	346	348	347	346	345	346	348	348	347	348	347	346	346	348	350	350	349	347	345	345	345	346	346	342	342	342	343	342	342	345	346	341	339	336	338	339	343	345	345	344	341	341	340	336	333	340	342	339	342	343	343	348	349	349	343	341	337	338	339	337	336	333	331	332	335	337	340	339	338	336	332	330	332	333	335	339	342	343	333	331	332	336	341	347	347	344	338	335	335	335	334	329	328	329	333	337	337	334	334	335	335	336	335	334	336	339	339	338	337	337	337	337	340	338	334	333	332	334	337	337	338	334	333	336	340	337	335	333	332	330	329	330	332	331	335	333	332	327	330	335	334	334	326	325	328	325	323	321	324	327	330	331	333	336	342	342	341	336	332	331	332	332	326	326	327	328	334	335	331	330	328	328	327	327	331	328	321	322	321	320	321	330	329	327	321	321	322	322	325	329	332	330	326	322	322	326	329	331	329	328	329	329	330	327	328	330	330	330	329	327	334	333	327	325	325	327	325	326	328	330	332	328	325	324	325	327	328	327	325	325	326	329	327	327	328	328	326	326	321	322	319	320	319	320	321	321	319	319	319	321	323	324	323	321	317	318	322	321	319	317	315	317	317	324	325	325	323	321	324	325	327	328	329	329	328	327	329	329	326	323	327	324	325	326	327	328	329	327	326	325	326	328	328	328	318	317	323	325	332	331	331	329	330	329	329	328	326	322	321	320	320	321	321	322	323	325	327	330	331	331	325	324	327	330	333	331	329	329	327	326	329	330	328	325	324	323	323	325	325	323	317	323	327	329	325	325	328	327	328	320	319	325	326	325	322	324	329	329	326	327	324	318	316	319	322	322	326	327	322	320	319	318	319	319	321	318	315	315	317	316	316	316	318	321	319	318	317	318	319	323	324	320	322	322	322	320	322	321	322	321	319	317	315	316	317	315	319	320	317	314	318	318	316	321	321	328	320	319	320	317	314	313	313	316	317	321	318	319	325	326	322	315	310	308	311	317	319	322	318	315	316	320	319	319	318	316	317	319	319	319	321	322	325	324	324	319	317	318	318	321	322	325	328	325	321	317	318	321	323	316	314	313	314	320	318	321	321	322	319	318	318	319	317	317	318	316	318	325	326	322	322	321	319	317	320	321	322	321	321	321	322	323	324	322	324	322	322	321	318	318	318	319	319	317	316	316	323	322	319	320	322	321	324	320	320	320	321	320	321	324	326	322	319	317	320	324	326	327	324	320	320	321	321	322	323	325	325	321	317	317	317	324	325	326	325	326	327	327	324	320	316	315	317	317	317	316	317	318	319	317	317	313	313	315	314	315	319	321	321	319	318	325	321	318	319	319	322	324	323	320	317	317	317	311	309	310	307	316	321	322	321	317	316	316	0	0	0	0	0	0	0	0
345	345	342	341	341	342	342	342	343	342	342	341	343	344	346	346	342	343	339	338	337	337	340	339	338	337	341	344	344	343	340	342	342	342	340	340	341	344	345	345	347	348	349	349	341	336	333	335	334	330	339	335	336	336	334	333	336	335	341	343	339	337	337	337	337	337	337	337	340	334	332	330	330	331	334	336	335	336	335	336	334	332	334	336	336	337	337	336	333	329	332	335	336	337	337	337	335	330	329	327	328	329	333	330	331	331	331	331	331	335	336	338	333	334	332	331	331	333	335	328	325	326	332	334	334	332	332	333	333	333	334	334	335	337	338	335	333	334	334	335	334	331	330	331	331	331	334	331	327	325	327	332	334	334	334	333	331	330	329	328	328	331	331	330	328	328	330	332	331	328	326	324	326	324	323	321	324	325	327	327	324	338	341	325	325	325	327	329	331	325	324	323	324	329	332	333	329	327	326	325	325	325	322	322	319	319	319	317	318	330	330	327	320	317	318	320	323	325	329	325	326	326	324	323	323	324	330	331	327	327	324	321	323	321	321	327	323	327	326	327	326	321	318	320	324	325	325	328	327	325	319	318	321	324	326	327	324	323	324	322	320	322	324	324	324	321	320	320	319	319	316	318	317	317	317	316	316	319	321	321	319	318	317	311	315	316	316	314	314	314	313	314	321	323	324	322	321	320	323	325	326	327	327	328	329	329	321	318	318	327	327	329	327	325	320	322	324	324	325	326	319	317	317	318	316	315	324	329	328	329	329	328	328	326	323	321	319	319	317	318	320	322	322	324	325	323	322	323	320	320	325	327	322	321	317	323	323	325	326	327	325	322	321	320	318	319	317	316	317	320	324	322	320	322	325	325	324	321	315	314	316	318	318	320	328	328	316	316	317	316	311	314	318	319	322	317	316	314	315	319	320	319	313	311	311	311	314	317	314	315	317	317	315	316	317	318	319	321	323	322	318	317	316	314	318	317	319	321	320	318	317	312	308	313	314	314	316	314	314	315	315	320	321	321	301	305	313	315	312	307	307	318	319	319	316	318	321	321	316	311	307	310	314	316	314	319	310	312	312	315	318	318	316	315	316	317	317	317	317	317	319	316	309	310	312	313	316	317	319	323	326	323	318	315	316	313	313	313	311	310	309	315	315	314	317	318	320	319	318	314	307	306	306	309	312	317	319	316	316	315	316	315	314	315	318	314	313	315	320	320	318	317	316	317	315	317	317	316	317	317	310	310	311	317	318	320	320	318	318	317	316	314	316	316	318	319	320	322	321	319	312	315	317	320	323	320	318	316	315	312	311	310	313	312	314	315	314	313	315	319	322	322	322	321	316	316	320	317	314	311	315	314	315	313	314	316	316	316	314	309	309	310	315	315	316	317	316	315	314	314	315	317	318	318	317	320	320	319	315	315	315	312	309	308	315	314	318	317	314	313	314	315	0	0	0	0	0	0	0	0
339	339	338	339	339	339	341	341	339	339	339	339	341	341	342	342	340	340	338	336	339	338	338	334	332	326	326	328	328	333	334	336	330	332	335	335	338	340	341	340	340	342	344	333	333	334	333	336	336	332	328	328	330	332	332	331	328	329	335	338	337	337	335	332	330	330	330	330	333	335	330	329	328	325	326	329	331	332	331	330	328	330	332	334	336	331	325	325	327	328	331	334	335	335	333	331	323	319	320	323	325	326	325	325	326	327	328	328	331	333	333	330	327	325	329	328	327	330	330	326	322	324	330	329	330	329	329	333	334	331	330	331	334	334	334	333	330	330	333	331	329	327	322	326	329	329	330	328	325	324	325	330	332	332	330	329	327	329	330	328	328	330	329	327	326	327	328	329	327	324	324	323	323	322	320	319	321	317	321	321	321	318	316	314	316	317	319	319	319	320	320	321	323	326	325	328	325	322	323	323	325	323	322	320	319	319	315	313	313	315	317	317	314	315	317	319	322	325	323	323	320	319	321	319	316	318	325	330	330	320	317	319	320	321	319	318	317	320	325	325	319	315	315	316	323	325	326	326	324	320	319	317	318	321	323	324	322	320	315	318	317	313	312	319	318	317	318	317	315	314	312	311	316	316	316	316	318	319	321	320	316	312	311	312	316	314	314	313	313	313	312	313	317	320	319	318	318	316	316	318	325	325	327	328	328	322	316	314	318	330	332	327	324	321	320	318	320	317	318	321	321	320	318	314	312	316	314	317	323	324	324	324	320	320	319	318	319	318	318	318	319	320	319	320	319	318	318	317	315	313	314	316	317	317	317	316	318	320	321	322	321	319	317	318	314	315	314	313	316	313	315	315	316	320	321	321	320	320	317	315	317	315	313	314	315	313	310	314	315	315	314	307	309	312	312	311	312	313	312	315	316	313	310	308	307	307	306	308	314	315	314	310	311	313	314	314	317	320	321	320	313	313	313	312	312	314	318	316	318	319	316	314	313	310	310	310	310	312	312	311	311	312	304	301	301	304	305	306	310	306	306	310	311	313	315	317	321	318	314	308	305	309	313	315	315	307	307	310	309	311	316	318	315	312	312	313	314	312	313	313	314	314	306	309	313	314	316	317	319	319	318	315	309	313	312	311	310	308	307	307	311	311	313	312	311	315	317	313	308	303	303	304	306	307	309	313	313	311	311	313	313	312	312	311	302	305	308	310	316	315	315	315	314	314	312	312	312	314	312	307	309	308	308	310	315	315	316	314	312	313	313	313	312	313	313	312	313	316	317	307	308	311	312	311	310	306	312	312	310	309	310	311	308	307	309	310	311	312	314	316	317	312	311	308	309	312	311	311	311	310	308	308	307	309	312	314	314	314	310	308	308	310	315	316	315	311	311	310	311	309	310	316	318	318	314	311	308	308	311	315	315	315	315	314	314	312	312	313	311	311	311	311	0	0	0	0	0	0	0	0
337	338	337	337	337	337	339	339	338	336	336	338	340	339	339	340	328	329	333	335	334	332	332	328	325	329	330	326	326	324	325	326	327	327	332	335	335	335	332	333	334	334	333	331	331	331	331	331	330	329	327	328	330	330	330	324	325	328	329	332	335	335	334	326	325	324	326	326	329	332	330	327	325	323	324	325	327	327	326	327	329	330	332	334	330	325	320	320	319	321	324	326	324	324	321	322	322	319	318	321	322	321	321	322	321	322	324	327	328	331	328	324	323	322	321	322	323	326	327	323	320	321	324	323	323	324	328	326	332	329	328	327	323	324	330	329	325	327	323	321	321	319	313	316	321	321	324	326	326	324	325	328	330	331	325	324	326	328	330	327	326	326	328	326	324	324	324	321	316	314	316	320	323	320	311	308	309	315	317	318	318	316	315	314	313	317	318	318	317	316	317	319	320	321	321	321	321	320	319	319	320	323	322	319	319	317	314	310	309	310	313	314	314	312	314	316	319	316	320	318	318	317	317	316	313	316	320	323	321	317	318	317	318	317	316	314	314	312	311	321	319	311	308	308	324	325	326	318	318	318	318	312	313	317	317	318	318	311	313	312	314	313	312	311	312	310	314	313	312	310	309	310	313	313	315	315	311	312	311	310	306	309	310	313	316	312	313	313	313	310	311	312	312	315	312	313	314	315	312	311	314	317	320	318	315	313	310	307	310	317	312	311	315	318	319	318	316	318	313	313	315	320	320	315	313	312	312	311	315	316	317	316	313	313	313	316	317	318	317	317	317	316	315	318	316	315	315	314	313	313	313	314	314	314	312	313	315	316	316	318	316	315	315	314	315	314	314	311	310	313	313	312	316	316	317	317	317	317	317	320	315	313	312	310	312	309	308	310	314	314	315	314	309	307	305	302	306	306	304	309	311	311	309	306	305	304	309	311	311	309	309	305	306	309	309	313	315	316	318	309	308	308	303	303	309	314	315	316	316	310	315	313	308	307	307	308	307	309	312	308	306	304	304	309	308	307	307	307	310	308	308	306	304	308	314	321	311	305	306	303	303	305	310	312	311	306	304	308	308	309	311	313	312	304	305	305	308	305	303	303	310	311	311	308	308	313	315	312	313	305	300	302	303	303	307	306	303	303	303	305	309	310	312	310	305	309	309	308	305	302	303	304	304	304	307	312	312	309	307	308	312	311	309	302	300	302	306	308	310	309	306	312	314	312	310	310	311	314	307	308	308	306	304	303	309	309	311	311	312	312	310	307	307	308	308	307	309	312	306	304	305	310	309	308	304	302	307	308	308	308	308	305	304	303	300	301	307	308	310	310	306	305	303	302	303	308	307	306	307	308	307	306	305	306	307	310	310	308	307	306	307	307	308	312	310	308	307	306	306	305	308	310	308	314	313	309	306	305	309	309	309	310	310	310	311	308	307	308	307	306	308	309	309	0	0	0	0	0	0	0
334	338	334	335	335	335	337	337	337	336	336	338	338	336	329	328	324	323	324	324	322	319	319	319	325	330	330	326	326	326	326	329	330	330	328	329	329	327	327	327	328	328	330	329	329	327	327	327	328	327	326	326	327	321	321	321	324	323	324	324	327	328	331	332	329	326	326	326	328	329	325	324	322	320	321	324	326	328	329	328	324	323	327	328	326	323	320	319	319	320	324	326	323	322	321	321	321	319	319	321	319	320	318	320	320	321	322	323	324	324	325	325	325	320	316	316	317	319	321	319	319	321	322	321	321	321	325	324	326	325	325	322	320	322	325	323	316	315	318	319	318	316	309	309	314	316	319	321	324	324	323	325	328	328	322	321	321	323	325	320	320	320	318	315	314	314	309	310	312	313	316	314	318	313	309	307	306	310	316	319	317	314	313	312	311	316	316	315	311	310	312	315	317	319	318	319	318	318	318	317	316	316	318	317	316	317	314	308	307	305	306	308	311	311	311	309	310	313	312	312	313	315	314	313	313	312	312	312	318	318	317	315	315	316	314	311	311	311	310	304	306	309	314	315	321	323	322	318	317	317	315	311	305	308	313	312	311	308	309	311	311	312	312	311	311	310	309	309	310	311	309	309	308	313	313	308	309	310	310	309	307	309	309	312	310	310	310	312	311	310	309	310	310	309	308	308	302	303	300	300	301	303	305	308	308	308	309	309	311	313	313	310	310	310	315	316	315	312	308	309	310	310	308	307	304	301	303	307	311	314	314	306	305	308	310	311	315	316	317	316	311	311	310	311	314	311	307	307	308	310	310	310	311	312	311	309	310	312	313	314	314	313	313	314	310	308	305	307	308	308	309	311	312	311	309	305	305	306	312	311	307	306	308	307	304	301	300	308	310	310	310	304	304	306	304	304	303	305	303	308	310	310	308	306	306	306	311	315	313	308	306	302	302	300	307	309	311	311	308	306	306	300	299	309	307	311	315	314	310	308	303	304	304	305	304	306	305	302	304	305	306	305	310	309	306	305	308	307	304	309	310	305	302	303	305	319	308	302	304	302	302	303	308	312	307	294	300	305	307	305	304	306	305	304	302	303	303	304	303	304	309	312	310	306	304	305	300	301	303	300	300	302	302	302	301	301	300	297	300	303	305	309	310	306	305	304	307	307	304	302	304	303	300	300	301	310	310	309	307	306	301	302	304	304	300	302	305	305	303	303	305	307	306	308	309	308	306	308	307	307	304	304	302	304	304	305	306	308	306	305	303	302	303	301	301	303	305	306	306	304	306	308	306	304	301	300	302	308	309	305	304	305	305	303	301	301	306	307	307	304	303	300	300	300	301	302	307	303	306	300	301	302	301	299	298	298	297	298	297	297	300	302	305	309	307	306	303	302	302	302	303	304	306	305	305	305	304	304	308	308	308	309	308	308	308	305	302	302	304	305	305	301	301	0	0	0	0	0	0	0
330	333	332	333	333	333	334	335	334	331	333	333	334	332	327	324	321	320	321	322	318	316	316	317	321	327	326	324	323	323	323	326	320	321	323	325	325	325	325	324	323	325	322	325	326	326	326	325	325	325	325	323	319	319	319	319	321	319	321	323	325	326	327	328	328	327	327	327	326	326	326	320	317	317	319	323	325	326	326	321	321	323	326	326	325	321	319	318	320	320	323	323	322	320	320	320	319	319	320	318	318	317	320	316	319	319	318	315	313	314	319	322	321	320	315	309	313	316	317	317	317	320	320	320	319	321	323	319	322	321	319	316	312	311	312	312	311	310	309	304	302	300	304	309	313	314	314	312	316	316	308	317	318	316	316	317	317	318	317	317	317	313	310	307	307	309	308	311	312	315	315	313	310	310	308	306	304	308	315	316	312	312	307	303	303	302	305	307	310	307	301	299	307	313	315	316	317	315	311	311	310	314	315	313	312	312	313	309	308	306	304	305	309	309	308	305	307	310	307	304	308	307	309	310	309	308	309	310	310	311	313	312	313	317	312	308	308	306	305	304	305	303	303	305	313	317	312	313	316	313	310	305	303	304	305	305	303	306	305	307	308	311	311	313	312	309	307	305	304	305	307	306	305	305	306	306	307	307	308	308	308	309	310	309	304	308	307	308	309	308	308	305	307	304	304	304	302	297	301	301	303	304	304	306	307	307	305	308	309	307	306	309	309	307	306	309	311	301	302	301	306	310	308	303	302	298	298	300	305	304	305	304	304	303	302	302	306	310	312	311	308	306	306	306	305	308	304	305	305	307	308	309	308	309	311	307	307	309	308	310	306	315	314	312	308	304	302	303	306	305	305	307	309	308	305	303	301	302	302	302	300	298	302	303	302	299	300	308	309	308	307	300	303	302	302	303	303	302	299	302	304	305	305	305	306	307	310	310	310	306	305	303	297	299	307	306	307	307	304	301	298	296	298	304	299	298	310	309	308	303	302	300	299	300	301	299	299	300	302	304	307	307	305	302	304	305	303	295	293	300	308	304	301	301	301	301	304	304	298	295	296	299	295	293	293	298	301	303	305	302	302	304	306	304	302	302	301	299	299	302	305	306	307	306	296	299	297	297	300	299	298	301	304	301	301	298	296	297	299	302	305	304	305	305	304	305	305	303	301	302	301	300	297	296	295	300	301	303	305	299	298	301	299	295	293	295	298	299	299	302	302	302	303	301	304	304	303	302	301	304	304	302	300	300	299	300	301	302	304	304	302	299	297	296	296	300	303	303	305	306	307	306	305	302	300	300	301	308	304	302	302	302	303	302	303	302	303	305	308	308	304	299	298	298	300	302	302	301	300	300	301	304	303	302	302	301	299	297	295	296	297	299	305	306	305	304	300	300	298	301	299	300	299	301	305	303	299	299	299	300	301	298	302	303	302	301	300	299	298	297	298	298	298	0	0	0	0	0	0	0
328	328	329	328	325	325	321	321	319	326	328	328	331	329	323	321	309	312	317	320	316	310	309	309	313	319	321	320	315	315	316	318	318	317	319	321	319	319	320	319	318	319	318	321	323	323	322	322	321	317	314	314	314	317	317	317	317	319	319	323	324	325	325	325	322	324	325	325	325	325	323	321	315	316	318	321	322	320	321	320	320	321	324	323	322	318	316	316	318	318	317	317	316	316	317	318	318	319	319	317	315	315	316	320	316	313	311	309	307	309	313	316	316	316	314	308	311	313	315	315	313	314	316	318	319	321	319	318	319	320	319	316	313	311	310	310	309	306	304	301	305	305	303	304	308	310	308	309	309	307	308	306	310	309	308	310	311	313	313	313	314	312	310	307	307	306	305	305	309	313	311	308	304	305	306	307	308	307	308	310	311	308	305	302	301	303	306	307	305	304	301	297	298	305	307	311	311	312	313	320	317	311	311	312	312	311	308	310	310	308	303	305	308	308	309	306	306	305	302	300	304	305	303	306	305	305	306	307	303	304	306	304	306	316	309	306	304	305	303	304	305	306	303	303	305	306	309	311	309	307	307	304	303	303	304	303	304	305	304	307	305	310	312	311	308	308	305	304	301	299	302	302	299	297	299	302	302	303	306	307	308	311	308	301	303	304	306	307	304	303	301	299	302	305	304	305	300	304	299	302	304	304	304	303	303	304	305	305	308	306	303	305	303	300	299	298	298	298	300	301	303	305	302	301	299	295	292	293	297	300	302	302	303	303	302	303	302	303	305	303	302	302	302	302	301	302	302	304	304	305	307	309	309	309	309	306	304	302	305	304	308	311	315	313	309	300	299	298	298	299	302	306	305	305	304	302	302	302	302	301	299	299	299	298	302	299	300	302	306	306	304	299	302	301	302	304	299	301	298	299	300	299	298	298	302	304	306	307	304	305	305	302	300	304	304	302	305	303	302	301	300	299	297	297	296	296	297	303	304	300	297	296	298	296	299	300	299	299	298	300	301	300	301	301	303	304	302	295	293	293	302	308	306	300	301	299	297	295	297	301	302	300	297	296	295	299	298	303	302	301	301	303	304	304	302	300	300	299	299	302	303	298	292	292	292	295	297	298	298	297	297	299	301	303	299	297	295	293	294	296	298	301	299	300	302	305	306	305	303	302	300	296	293	292	292	291	292	294	298	305	303	302	300	297	294	296	297	298	298	299	298	301	298	295	293	299	298	294	298	302	303	302	302	300	296	296	298	300	302	301	302	303	304	302	302	298	300	302	303	305	305	304	302	301	299	299	300	302	298	297	297	301	300	301	301	301	302	305	306	307	302	298	296	295	295	298	293	293	294	297	299	301	296	296	301	302	299	296	295	294	293	298	301	300	296	301	297	293	296	299	299	298	298	300	303	298	298	297	297	296	297	296	297	299	300	300	299	298	297	296	296	296	295	0	0	0	0	0	0	0
324	324	318	317	317	316	316	313	316	324	327	327	323	318	312	309	308	308	311	311	308	305	304	304	309	312	312	312	315	315	316	316	315	315	314	313	316	316	318	316	315	317	312	312	318	318	318	318	313	313	311	311	314	317	318	318	317	318	317	317	320	320	319	318	319	321	321	320	320	317	313	311	311	310	311	314	309	311	312	313	314	314	311	309	304	302	305	309	313	314	314	314	312	311	309	310	317	317	316	314	313	312	313	313	312	308	308	307	306	306	308	311	311	311	310	306	307	310	312	314	315	303	303	304	314	316	311	306	306	314	317	318	316	312	309	308	307	303	300	302	303	306	305	306	307	306	308	308	308	307	304	309	308	305	305	305	307	310	310	311	310	310	309	306	304	304	302	304	308	310	308	300	300	306	306	307	305	305	307	308	306	306	302	301	301	301	304	303	303	303	298	297	297	298	303	299	297	302	313	319	317	310	310	309	307	304	304	307	310	302	301	305	306	309	308	308	303	300	301	299	299	301	301	302	304	304	304	300	303	305	307	305	306	308	303	300	296	299	302	305	306	306	306	302	305	305	307	306	306	306	306	304	302	302	301	301	304	306	307	303	304	304	304	302	307	307	303	299	298	298	300	300	299	298	296	293	295	295	298	299	302	302	297	300	301	301	301	303	301	302	300	297	298	303	304	305	302	300	299	296	295	294	298	300	302	303	302	304	303	299	301	300	300	298	297	297	296	294	293	294	299	299	299	295	295	293	291	294	295	299	302	303	303	302	302	302	301	301	302	301	303	300	300	300	300	301	306	310	310	309	310	310	310	309	306	306	296	295	296	299	300	313	306	305	304	306	298	300	295	300	299	298	302	302	299	297	301	300	302	299	299	298	297	298	297	298	299	299	305	303	300	298	296	297	301	302	302	299	297	297	298	299	297	293	293	303	300	298	298	302	304	303	304	304	303	300	300	299	299	300	297	297	294	294	293	294	297	302	301	299	296	295	291	294	299	298	298	298	296	298	305	306	301	298	298	295	295	294	292	292	294	296	301	304	300	299	296	296	293	293	295	296	297	297	299	299	299	298	297	299	298	300	302	298	297	298	299	299	301	300	298	299	296	293	292	293	295	297	297	294	292	297	299	299	299	296	295	293	292	292	291	291	292	296	298	299	304	305	303	300	297	293	293	293	290	289	292	293	295	296	298	299	297	296	296	296	296	296	297	296	297	296	293	292	289	287	290	291	294	300	300	302	301	300	296	293	295	296	296	296	298	300	300	299	295	295	296	296	299	301	302	302	301	301	300	297	295	294	294	293	294	295	295	297	290	287	290	294	299	301	298	294	292	292	293	293	292	292	291	291	294	290	290	294	298	300	298	296	295	293	292	297	300	297	295	295	287	291	290	288	289	294	294	297	298	296	293	293	293	292	295	296	297	296	296	296	295	294	294	294	293	293	293	0	0	0	0	0	0	0
310	310	311	314	315	314	314	315	315	319	320	320	315	308	304	305	307	307	308	307	306	305	308	308	310	310	310	311	314	316	316	315	313	312	307	309	315	315	314	310	311	313	306	304	306	312	312	314	312	310	308	311	312	312	311	312	312	311	310	310	313	313	313	314	316	316	315	313	309	309	308	307	308	308	309	311	310	310	308	310	310	309	307	303	302	301	302	305	307	308	308	308	306	302	300	302	305	305	305	306	313	312	312	311	307	308	307	307	305	306	308	308	311	309	307	307	304	301	305	308	309	307	306	305	307	310	306	302	301	301	300	302	304	308	310	309	306	299	299	302	306	306	306	306	307	307	307	307	304	303	306	304	304	304	304	305	303	307	308	308	308	307	308	306	302	300	300	301	306	306	300	302	304	305	303	304	303	303	303	305	304	303	301	300	301	302	301	300	300	299	303	300	297	297	297	298	296	297	296	296	298	302	304	300	300	302	304	304	299	299	299	304	306	308	306	303	300	299	300	297	297	298	301	302	299	302	302	301	301	306	308	309	298	295	291	291	293	300	303	305	308	302	300	295	296	295	295	298	296	295	294	292	293	302	304	304	304	304	305	304	302	304	303	303	303	302	298	296	298	299	298	299	297	297	296	295	293	293	292	292	294	295	294	296	296	296	296	294	295	294	298	298	299	299	301	299	298	298	297	295	293	291	291	290	291	291	290	294	295	295	295	294	295	297	297	298	294	289	291	288	290	300	300	299	297	292	293	294	292	291	292	299	300	297	296	293	294	299	301	301	302	303	301	298	298	302	300	300	300	301	299	299	299	299	293	294	294	295	297	298	300	306	302	299	300	293	295	295	294	296	296	296	295	301	298	296	294	294	293	293	297	297	297	296	296	297	299	298	296	299	295	294	296	295	297	299	296	297	294	295	296	297	297	295	294	298	297	298	296	297	299	303	303	302	301	299	295	298	298	297	295	294	293	292	292	296	301	302	293	291	294	295	296	297	298	297	293	291	289	289	288	288	285	287	286	291	293	293	289	290	291	293	293	299	299	297	297	293	291	291	292	293	292	292	295	298	298	298	296	298	297	295	294	292	292	295	292	296	297	297	296	296	294	292	293	295	294	293	292	290	290	291	299	298	294	294	293	291	290	291	290	291	294	295	296	297	296	295	296	291	294	294	295	290	290	289	290	291	291	287	290	293	292	295	296	296	296	296	294	293	293	294	292	290	288	285	286	286	290	293	297	298	299	299	296	294	292	288	292	294	295	293	291	289	293	292	293	294	294	299	299	300	301	301	301	297	294	292	291	290	292	293	292	292	285	286	288	292	294	294	292	291	295	291	291	291	290	286	285	286	288	289	289	291	296	296	293	294	294	292	291	291	297	295	295	290	286	287	288	288	288	293	292	295	289	288	284	284	291	289	291	294	296	296	295	293	291	288	288	289	289	289	288	0	0	0	0	0	0	0
306	306	309	304	304	302	302	306	310	314	313	308	308	305	303	305	307	304	305	304	305	307	308	308	308	308	308	308	311	311	311	311	309	306	303	309	309	309	308	307	305	301	299	299	303	304	304	303	302	303	305	308	310	307	300	299	299	304	304	304	305	306	309	312	313	310	306	306	304	304	304	304	307	310	301	303	305	306	303	301	303	302	299	300	303	304	305	301	301	304	304	304	302	300	299	298	299	299	301	301	305	309	311	310	303	303	303	303	303	305	309	309	309	304	301	300	300	300	298	298	306	306	304	304	304	308	308	301	300	299	296	289	292	295	304	303	300	295	298	299	302	304	304	303	303	302	304	302	302	303	301	299	298	296	296	302	303	301	301	299	299	304	303	300	297	296	296	297	293	293	295	299	302	302	303	302	300	300	299	299	298	298	297	297	300	308	298	295	294	296	300	302	297	297	296	296	296	295	296	299	300	300	289	296	296	297	302	299	285	285	299	298	303	304	301	300	299	296	296	294	296	298	297	299	297	297	303	301	299	299	302	296	296	290	289	291	293	297	299	299	299	297	296	295	295	294	292	292	293	292	291	289	289	290	305	304	304	303	301	299	301	301	301	301	301	301	295	294	299	298	296	295	295	294	293	291	291	292	293	292	289	287	290	292	293	293	294	292	292	293	296	297	298	298	299	298	292	294	295	290	290	289	288	288	289	289	288	288	293	295	295	295	295	296	293	296	293	289	288	286	290	293	299	295	292	291	291	291	289	289	291	294	294	292	291	290	290	295	298	299	298	299	297	294	293	294	295	297	298	297	295	295	295	291	290	288	291	294	296	297	296	296	292	295	293	291	292	291	291	292	296	294	298	293	291	293	292	290	288	291	293	297	296	294	297	297	295	294	294	295	294	293	293	293	292	293	296	295	295	292	293	296	297	298	298	297	296	296	296	296	292	294	297	299	295	295	294	292	293	292	292	292	292	293	293	293	291	294	293	290	291	294	293	293	294	293	290	288	288	287	290	290	289	285	285	285	284	283	281	284	288	290	291	297	297	298	294	292	289	288	292	298	296	292	290	293	295	296	295	296	294	293	292	289	289	288	289	290	294	294	294	292	291	292	292	291	289	291	289	288	289	295	294	294	294	293	291	290	289	288	288	288	292	293	291	293	293	290	288	288	289	290	294	286	287	289	288	288	286	285	288	292	292	290	290	295	293	292	292	292	291	292	293	291	288	282	284	285	290	290	289	288	296	295	293	292	292	292	294	294	294	291	289	287	287	285	290	291	294	290	291	290	286	284	292	300	296	289	285	288	290	289	289	289	285	285	287	291	289	288	288	288	292	290	290	290	288	285	283	284	286	286	287	290	292	290	292	293	292	291	291	291	288	287	293	291	287	289	290	289	287	284	278	278	277	277	279	279	279	288	289	292	294	293	290	290	290	288	285	281	281	282	283	0	0	0	0	0	0	0
304	304	303	301	298	298	298	303	308	311	306	304	304	304	304	304	304	305	303	299	299	301	307	307	307	305	304	305	304	305	305	303	302	302	307	305	305	304	304	305	303	298	297	297	302	301	301	301	302	303	303	305	303	298	297	298	298	297	296	295	296	300	304	308	308	309	305	305	303	303	302	303	304	298	300	299	299	296	295	295	296	296	297	298	297	301	300	299	300	301	302	303	303	301	299	299	299	300	300	300	297	300	301	301	301	301	301	301	300	303	307	308	305	303	300	300	299	296	294	297	300	302	301	302	299	305	303	300	298	294	289	289	289	291	293	292	289	289	288	291	294	294	295	297	297	299	300	298	301	300	299	298	298	295	295	298	298	299	298	298	295	293	296	296	294	294	294	292	290	290	294	299	300	302	300	299	297	296	294	295	291	294	295	296	299	306	297	296	293	296	300	302	296	294	294	291	292	293	297	299	299	293	293	296	298	298	301	299	286	284	296	297	301	302	294	289	287	290	290	289	291	290	294	294	295	294	296	302	301	298	295	293	294	294	293	292	291	292	297	290	292	293	294	295	293	292	292	292	291	291	289	288	290	291	289	295	295	292	290	290	291	295	300	301	294	294	294	293	294	294	294	292	290	291	290	287	287	288	290	288	288	287	290	296	294	294	295	290	290	288	292	293	295	295	294	295	289	288	288	289	289	289	286	286	285	287	288	289	290	292	294	293	294	295	293	291	288	287	286	287	289	294	294	293	291	290	291	288	288	287	288	289	291	289	288	286	287	290	294	296	295	295	294	292	291	293	294	295	295	294	291	288	286	284	285	287	290	293	295	294	295	292	290	294	293	294	292	286	286	291	292	293	292	292	291	289	290	290	288	293	291	296	294	293	294	295	294	292	288	289	290	291	291	287	290	288	291	294	292	287	289	293	294	293	295	295	289	286	287	291	289	288	293	293	293	292	288	287	285	282	282	281	284	282	286	284	287	291	290	290	289	289	289	291	291	289	286	286	285	287	291	292	289	288	286	286	287	284	282	282	287	284	288	294	294	292	293	290	292	292	294	297	299	298	289	289	291	292	293	294	292	284	283	285	285	285	286	286	285	284	284	284	286	287	288	285	284	285	285	286	286	289	292	292	293	291	289	287	287	287	288	287	287	288	289	291	291	287	284	284	286	288	287	286	287	288	288	286	286	285	285	285	285	284	284	291	290	289	289	289	289	290	292	290	288	284	282	284	290	290	289	288	291	291	292	292	291	290	290	284	285	287	285	287	287	284	287	284	286	278	282	279	277	274	275	286	295	298	294	287	285	282	282	286	284	283	284	285	285	285	285	284	288	288	288	287	287	285	282	283	283	285	286	289	289	289	290	289	289	290	289	287	288	287	286	286	286	289	285	284	284	281	281	283	282	281	281	278	280	281	284	288	287	284	285	285	284	283	283	281	281	279	283	0	0	0	0	0	0	0
