430	430	430	427	427	428	428	432	436	438	432	433	433	429	428	423	412	412	417	422	426	427	429	432	432	432	429	428	428	426	423	423	418	419	423	427	431	435	436	436	433	431	428	424	427	429	432	426	422	422	421	426	430	434	432	430	418	419	423	426	426	428	428	430	428	429	431	432	435	436	427	427	429	428	431	429	430	434	438	438	440	432	429	425	421	421	424	427	426	424	426	427	425	424	424	425	430	430	423	418	417	418	424	432	426	422	419	417	419	423	423	418	418	420	421	424	427	427	429	433	436	436	429	424	420	421	424	429	428	428	428	430	429	422	418	418	418	420	422	422	420	418	419	418	418	419	420	422	423	423	424	424	423	422	420	418	420	423	424	423	419	420	419	418	415	414	417	424	425	427	431	434	437	434	428	426	424	425	423	420	416	417	422	424	422	418	418	419	419	419	420	420	417	417	417	419	424	425	430	428	419	413	412	413	412	410	412	412	416	418	417	414	411	411	412	411	408	409	414	416	417	419	420	420	417	411	413	414	417	419	419	419	419	419	419	421	417	416	414	410	409	403	405	411	415	414	411	407	407	410	421	420	417	417	419	422	424	424	422	423	420	420	420	419	420	420	418	417	416	417	419	422	421	420	421	421	419	416	415	420	423	419	416	415	416	416	415	415	416	415	417	417	419	420	420	420	416	414	409	411	412	410	411	414	418	418	416	416	416	421	421	418	418	419	420	418	416	418	422	423	422	419	420	417	416	417	416	414	412	412	410	411	409	411	412	414	414	414	405	406	407	409	409	413	419	418	417	415	417	424	425	422	418	415	415	414	415	414	415	415	417	416	416	416	416	416	416	414	409	409	405	403	403	406	414	420	421	421	416	417	415	417	420	422	419	414	414	413	414	415	418	417	416	415	417	416	413	412	412	413	413	414	413	426	427	424	420	414	411	412	417	418	421	419	419	418	417	414	415	414	409	417	422	425	422	418	416	418	418	418	415	412	414	417	421	420	417	415	410	412	412	410	410	413	412	413	417	418	417	414	415	414	410	411	414	414	420	418	416	419	412	407	409	408	405	405	407	409	408	406	407	408	411	418	415	402	401	404	410	411	413	410	408	406	403	400	402	403	403	401	400	398	397	402	404	400	400	400	403	406	406	405	402	398	399	397	395	393	398	404	408	410	410	412	416	418	420	417	414	413	414	410	409	412	411	409	406	403	402	403	404	407	409	410	409	408	408	407	406	406	407	409	407	409	410	406	401	402	408	411	413	412	410	408	407	405	402	399	398	402	404	404	403	404	406	400	401	403	404	404	407	407	409	407	406	405	405	404	403	402	403	406	408	411	411	408	406	411	406	404	410	413	413	412	408	405	405	404	407	411	412	413	412	411	411	404	404	403	402	404	406	405	406	406	406	405	404	405	403	402	406	409	410	408	408	410	410	408	405	401	400	400	0	0	0	0	0	0	0	0
414	414	417	418	418	419	419	420	423	425	427	423	423	422	417	411	411	413	413	419	421	421	421	418	418	420	423	422	422	421	418	418	417	416	419	422	427	432	429	429	425	421	418	419	422	424	427	423	419	419	418	419	424	426	422	411	412	415	418	424	424	424	425	424	424	427	428	426	422	420	421	421	421	423	426	427	422	425	433	433	432	427	421	418	416	418	423	423	423	423	421	420	418	418	418	419	420	421	418	413	408	408	412	418	420	420	417	414	417	419	417	418	416	416	415	417	415	405	407	416	423	425	419	413	412	413	416	420	419	422	422	422	421	419	415	415	414	416	412	410	415	421	423	421	416	416	416	417	417	418	417	417	416	412	407	407	411	413	408	407	405	403	406	406	406	408	409	413	421	421	406	408	416	426	425	424	422	423	422	413	410	411	417	421	416	411	414	415	415	415	414	413	413	412	412	404	410	422	417	415	409	408	407	404	403	404	406	412	415	415	413	415	414	411	411	409	406	406	409	410	411	414	416	417	415	410	408	410	411	411	409	407	409	408	406	407	413	408	406	399	397	396	399	400	402	405	407	405	401	404	407	408	413	410	411	416	421	421	421	421	417	415	412	415	416	414	411	409	407	407	405	407	406	405	405	412	412	410	415	417	415	417	416	415	415	416	416	415	413	413	415	414	416	418	419	417	415	411	407	409	409	408	409	412	414	415	414	415	415	416	415	413	408	406	406	408	409	411	417	418	417	415	415	414	413	412	412	409	409	408	407	409	409	408	407	404	404	400	398	402	406	408	408	404	409	411	412	413	413	414	417	416	413	408	407	402	398	401	401	397	397	399	405	406	408	407	408	407	405	404	404	401	399	399	402	406	413	413	411	414	414	414	422	421	416	405	403	404	408	411	415	413	413	412	413	414	411	409	409	405	403	409	412	410	411	413	414	413	411	413	413	414	416	418	418	417	416	415	412	408	404	412	414	420	422	420	415	412	405	410	413	409	411	411	410	409	406	409	407	411	408	408	406	405	405	407	408	406	402	403	403	404	406	410	412	408	407	407	405	403	401	400	405	407	404	403	407	408	404	404	404	405	407	407	400	398	398	398	406	409	409	406	399	399	398	398	399	401	401	398	400	399	398	395	395	395	395	398	398	401	402	401	398	395	394	396	393	390	384	387	390	393	406	407	406	405	403	406	406	407	407	407	406	406	409	408	407	401	399	400	402	404	405	405	403	402	405	402	401	401	405	406	405	403	402	398	398	400	405	406	404	406	407	405	403	399	396	395	396	401	402	403	403	403	404	399	400	401	398	395	393	400	398	401	401	401	402	403	402	398	398	401	403	403	403	401	394	394	396	399	405	409	410	408	402	401	402	405	409	412	412	408	405	399	400	394	394	393	394	397	399	399	397	398	394	390	394	393	393	396	402	403	396	399	404	405	405	404	401	399	395	394	0	0	0	0	0	0	0	0
409	409	412	412	411	411	411	412	417	421	422	422	422	416	412	408	408	410	410	410	405	399	399	406	406	410	415	415	415	414	411	411	410	411	415	417	419	422	419	416	416	416	413	414	416	416	418	418	418	418	416	416	415	414	412	407	407	408	412	418	419	419	419	418	420	423	421	419	416	413	413	412	412	411	412	410	411	414	420	420	424	418	411	411	412	410	412	415	418	419	419	418	416	415	413	411	411	413	412	409	404	402	404	408	411	413	417	416	412	414	414	416	415	412	409	406	401	396	395	398	399	402	407	408	409	410	412	417	416	416	414	416	418	418	418	416	414	414	409	408	413	420	422	420	417	412	411	408	407	406	410	412	409	408	405	405	409	407	403	401	400	403	403	398	399	403	406	408	407	403	399	402	407	415	418	418	415	406	403	402	400	399	399	398	396	399	404	409	409	408	406	403	400	397	399	401	405	412	414	412	407	405	404	404	406	405	408	410	411	411	412	412	412	411	410	409	406	404	396	397	402	407	410	410	408	407	404	406	405	407	408	401	396	403	404	403	404	401	396	394	394	396	395	395	399	401	406	402	400	398	400	401	400	398	403	410	414	419	420	421	409	406	405	408	409	403	403	400	398	397	398	400	401	402	402	406	407	408	410	409	407	408	411	409	411	412	417	414	412	411	411	411	412	413	415	415	412	408	407	407	406	403	403	409	412	411	411	412	411	411	409	404	402	402	401	403	405	406	409	412	414	412	411	409	407	404	402	404	404	404	407	409	407	403	400	397	399	399	399	402	406	408	408	403	396	391	393	404	408	411	410	410	407	402	401	399	398	401	397	395	393	394	396	398	400	402	403	402	399	399	398	398	396	395	395	396	403	404	410	408	409	411	412	406	405	401	400	403	407	413	414	411	410	410	410	405	405	405	399	401	401	403	405	401	401	405	407	408	407	406	411	414	416	416	415	412	399	401	405	406	400	408	409	408	410	406	400	398	397	400	403	402	401	400	400	400	398	394	398	401	404	405	403	396	395	396	399	399	400	397	396	397	400	401	403	400	397	397	399	396	396	395	401	403	404	404	405	404	402	397	397	399	402	401	398	396	398	400	402	406	393	392	396	396	397	396	394	392	393	396	395	395	394	390	388	389	389	389	392	397	398	397	395	392	395	397	389	384	385	388	387	388	391	401	402	399	395	395	404	404	404	403	402	399	402	402	400	395	396	396	398	398	401	398	396	395	395	398	398	398	402	402	398	395	392	391	392	398	401	397	396	398	403	402	399	397	392	389	392	395	397	400	400	398	396	393	395	395	394	391	391	391	393	391	398	398	398	398	395	393	393	393	393	396	399	398	395	388	391	397	396	394	394	397	397	398	400	398	397	397	394	393	394	394	392	392	390	388	386	388	393	392	390	387	391	392	386	385	388	392	394	389	388	388	397	397	400	399	398	393	384	384	0	0	0	0	0	0	0	0
400	400	402	404	405	405	408	408	413	416	418	419	419	414	407	407	403	404	404	405	403	397	394	393	395	395	401	406	407	406	403	405	405	408	411	412	411	410	410	410	410	410	411	411	410	412	413	416	413	413	414	413	412	411	410	406	405	407	410	413	413	413	413	412	414	416	415	414	411	409	406	408	407	409	407	403	404	407	408	406	406	406	407	407	407	406	406	406	408	411	414	414	413	411	408	406	407	408	409	409	405	402	401	402	404	408	411	414	414	410	409	404	400	400	400	397	391	391	395	395	394	394	398	405	407	409	410	411	410	409	410	411	415	416	415	412	411	409	408	405	404	403	404	406	407	408	408	405	404	404	404	406	404	403	404	406	406	403	402	397	402	406	407	407	404	399	399	400	405	403	399	401	401	400	403	405	403	401	400	397	394	392	393	390	392	397	402	406	405	401	395	394	394	396	397	399	399	402	401	399	405	403	402	403	403	400	401	400	400	400	402	411	408	405	400	398	401	400	396	397	398	401	404	408	409	407	402	400	402	405	401	395	394	397	402	403	400	394	391	389	390	393	393	396	399	400	401	398	397	397	395	394	393	394	397	399	407	412	413	415	411	401	400	399	399	400	398	396	394	392	394	397	400	400	399	400	401	403	404	404	402	400	402	403	406	408	407	401	398	397	396	399	402	405	409	408	407	404	403	403	402	400	398	400	404	407	407	408	407	406	403	393	388	388	392	398	400	402	401	402	407	409	410	408	405	401	399	399	399	402	405	407	404	402	396	395	394	400	402	404	406	408	409	405	395	389	389	391	401	403	404	404	398	398	399	398	397	395	394	393	391	392	392	394	397	400	402	399	396	394	393	391	389	389	389	389	392	394	398	401	404	409	407	403	399	395	396	400	404	409	410	407	406	399	392	395	396	395	395	394	396	398	399	390	397	400	397	402	396	394	398	405	405	406	403	400	396	392	398	401	401	407	405	401	394	392	392	392	393	393	391	396	397	396	396	395	393	390	391	393	397	399	399	390	392	393	397	395	391	392	393	394	397	398	399	394	391	392	393	395	390	393	397	402	404	404	400	398	395	389	390	392	396	398	397	396	397	397	388	386	384	381	380	385	391	392	390	390	388	389	390	390	390	385	381	382	385	385	385	382	384	384	389	386	387	390	389	377	384	386	387	383	384	390	392	393	392	391	393	397	400	398	398	393	391	389	390	390	390	392	396	398	396	393	389	389	391	393	394	394	394	398	394	388	386	384	386	393	396	392	391	394	398	398	395	390	389	387	390	394	396	399	396	390	388	389	390	390	390	389	388	388	387	387	388	397	392	388	388	390	390	387	386	387	392	394	392	388	390	396	396	394	392	391	393	395	395	394	390	384	383	387	386	387	388	388	386	383	381	383	384	386	385	384	394	394	391	382	381	384	384	380	378	381	386	386	393	394	391	377	379	382	0	0	0	0	0	0	0	0
390	393	393	395	398	400	404	404	408	410	414	416	416	411	405	403	398	400	400	401	398	395	393	393	394	394	399	405	405	403	402	403	403	406	406	409	409	408	407	406	406	406	405	407	408	406	403	405	410	410	413	411	410	410	408	407	404	407	409	410	409	409	407	406	408	412	410	406	402	402	401	403	403	402	400	397	398	401	401	403	403	404	406	407	406	404	400	398	398	401	403	401	407	404	401	399	399	402	405	404	404	400	396	395	398	404	404	404	401	397	392	390	391	393	394	393	390	390	394	395	394	393	394	398	402	404	401	398	395	394	395	398	402	402	402	402	401	399	396	397	398	399	401	403	405	405	404	406	403	401	401	402	401	400	401	399	401	401	398	397	394	394	395	393	393	391	393	402	407	401	397	396	393	393	398	400	400	398	394	392	391	392	389	389	392	397	397	396	397	390	390	390	393	393	395	397	395	393	389	391	390	390	386	388	387	390	389	393	395	397	395	397	396	396	396	398	397	393	389	390	394	396	396	394	395	395	399	398	399	396	391	391	393	395	397	394	393	389	388	387	388	388	391	395	400	400	401	398	394	393	392	392	392	393	393	393	395	398	410	412	410	394	394	391	392	395	396	396	392	387	390	396	397	397	397	397	397	400	402	400	396	396	397	399	400	399	398	394	393	394	392	394	395	398	399	401	400	403	401	399	396	394	393	391	391	392	395	399	401	401	393	385	385	390	393	394	396	398	399	400	400	398	401	402	407	402	400	393	396	396	397	394	393	395	396	392	392	399	403	405	405	408	402	399	397	390	387	386	389	400	399	394	395	399	399	399	397	394	390	390	390	389	390	391	394	399	400	397	394	390	388	389	388	385	382	380	383	387	390	393	397	397	395	396	396	395	394	396	397	394	394	395	394	388	386	386	390	392	392	392	391	393	388	388	396	396	398	398	396	394	392	393	396	395	391	384	379	388	392	402	403	399	398	393	389	384	385	385	385	384	386	391	392	391	390	388	385	382	383	388	391	394	394	383	382	384	390	389	387	385	384	388	387	386	393	388	385	387	389	389	387	389	393	394	391	388	384	381	382	382	380	384	387	395	394	375	375	369	381	383	382	377	374	375	379	377	375	382	383	382	383	386	385	380	376	375	381	381	380	381	382	381	381	379	376	379	379	374	376	387	384	385	383	386	389	388	389	387	389	391	392	394	394	386	384	386	387	389	390	389	392	395	394	388	378	378	387	390	388	390	385	385	387	385	382	382	383	386	390	388	387	388	392	394	389	384	383	388	390	394	398	397	389	383	381	384	383	384	384	384	378	382	384	385	387	388	386	380	379	384	384	382	377	375	376	390	388	387	385	387	389	389	383	382	384	388	387	379	376	378	380	380	382	383	377	377	375	379	377	378	380	380	381	387	390	388	390	385	377	376	375	373	371	377	379	379	382	384	376	373	376	379	0	0	0	0	0	0	0	0
384	387	387	391	396	400	402	402	403	404	405	406	406	403	399	393	395	396	396	396	391	390	389	390	391	391	397	402	401	399	398	398	398	400	401	404	408	407	406	405	405	403	403	403	401	400	401	405	411	412	412	408	408	408	406	405	405	405	406	407	407	404	404	403	406	407	404	396	396	395	395	396	399	400	391	391	393	396	397	401	401	402	404	406	407	402	396	392	390	391	392	392	391	395	396	395	394	394	396	400	403	400	396	390	388	390	392	394	396	393	389	387	390	393	394	392	391	391	393	393	391	392	393	396	399	399	398	397	391	388	388	387	388	389	396	397	398	390	384	380	393	396	397	401	403	406	406	405	401	395	392	395	396	394	395	396	394	394	388	387	389	390	391	390	386	386	387	391	396	394	385	384	389	393	397	400	399	395	393	392	393	390	387	385	390	393	390	389	388	386	386	387	388	389	392	395	392	388	385	382	384	384	378	377	379	384	386	389	393	396	397	395	393	393	394	394	393	388	386	389	393	395	393	390	386	388	389	388	389	391	391	392	393	394	394	391	389	387	383	384	385	386	388	393	395	396	396	394	392	391	392	392	390	386	384	384	385	386	390	392	389	397	390	388	389	385	387	387	385	384	388	394	399	398	398	394	393	396	397	396	393	392	396	396	396	393	393	393	392	393	393	391	389	392	392	392	393	397	396	394	391	388	387	388	389	390	389	391	393	390	388	384	386	387	388	386	389	395	394	393	391	386	383	397	397	397	392	386	390	392	391	384	383	391	394	394	392	393	395	399	402	398	397	394	391	391	391	392	395	394	395	390	386	391	395	392	389	389	389	389	387	386	387	391	393	394	396	394	390	391	390	387	385	383	380	378	378	383	386	390	392	394	398	402	399	393	390	390	389	392	393	393	384	383	384	384	385	386	388	387	385	384	385	387	395	394	393	392	392	391	390	393	397	394	387	385	382	386	395	394	393	393	393	390	387	381	380	380	380	380	379	383	387	385	381	381	374	374	375	381	388	393	388	380	377	375	380	383	383	381	384	388	391	386	385	382	381	383	386	382	380	385	388	387	384	380	376	378	379	378	375	376	378	379	380	382	381	373	373	379	378	375	373	374	377	374	373	373	373	370	371	374	380	377	372	370	370	376	379	378	380	378	376	375	375	372	374	377	377	385	379	383	382	383	384	384	384	382	383	387	388	390	388	382	382	385	387	388	388	385	391	392	392	382	377	375	378	381	382	381	386	383	383	379	381	380	383	388	387	385	384	384	387	370	367	369	371	374	376	374	365	365	367	374	378	378	377	374	372	368	375	379	383	383	379	375	374	370	372	375	378	372	369	368	368	370	373	376	380	381	380	377	377	377	379	383	381	375	374	374	377	374	377	372	372	367	368	373	374	374	375	376	377	379	375	374	371	369	366	373	373	372	369	370	370	371	371	374	371	369	370	368	0	0	0	0	0	0	0	0
385	392	392	398	398	398	399	399	401	401	402	395	393	393	392	391	394	392	391	391	386	384	385	387	388	388	390	395	388	387	390	392	392	394	398	400	404	407	406	403	403	401	401	400	396	391	394	402	408	409	398	397	395	394	397	399	398	396	394	395	394	396	396	403	406	401	394	391	392	393	394	395	393	389	385	383	386	398	399	398	400	400	402	404	404	398	394	389	384	381	384	386	387	388	391	389	387	385	389	395	398	396	392	387	388	392	394	392	388	383	382	382	383	388	385	381	383	385	386	387	388	387	386	386	389	392	392	390	385	384	385	384	386	389	390	392	390	383	378	374	379	386	390	395	397	403	402	404	400	392	386	385	391	390	384	384	385	386	385	386	386	386	387	386	384	381	383	384	386	385	381	383	387	392	395	392	388	381	381	382	379	376	376	381	385	388	379	373	372	373	376	378	379	380	386	388	381	380	380	378	378	376	376	377	378	380	380	380	391	394	395	394	391	387	388	389	386	383	382	385	390	390	384	381	379	384	387	386	388	387	390	390	390	390	388	386	386	384	381	383	384	385	386	386	389	391	392	390	389	387	387	385	385	383	382	382	382	383	384	386	387	385	382	382	382	381	384	385	387	385	384	385	390	394	393	388	390	392	393	392	391	391	392	394	393	390	390	391	391	392	390	383	382	387	387	386	390	392	391	389	385	384	385	384	386	386	386	385	388	387	378	381	384	384	384	381	377	385	387	383	374	376	379	381	384	375	375	376	378	382	381	376	375	381	384	387	389	392	393	388	390	392	393	391	385	377	374	376	378	383	388	389	386	384	384	385	389	390	387	385	383	379	379	377	389	390	391	389	385	388	390	390	383	379	378	377	375	379	382	387	389	392	396	399	399	394	388	384	387	390	391	385	382	381	382	382	383	382	380	380	377	378	381	386	390	393	390	385	385	380	386	386	384	380	379	383	384	383	386	387	383	382	386	388	385	382	380	378	379	373	372	374	381	381	374	370	368	367	368	370	373	375	372	369	371	371	375	378	380	381	383	388	389	387	381	383	380	381	377	372	370	372	381	385	384	378	378	377	376	375	376	376	380	379	380	376	374	374	374	375	374	374	371	371	372	371	371	371	371	371	371	372	374	371	366	364	367	372	374	374	375	375	368	368	368	369	371	375	374	370	372	384	382	379	379	370	370	373	373	379	373	372	373	372	373	373	374	376	375	371	373	376	379	378	377	375	372	370	372	371	377	380	372	376	375	370	370	370	369	369	360	358	356	357	357	360	363	363	361	365	365	365	363	362	366	375	375	374	372	372	369	370	373	372	372	371	367	367	367	369	367	367	366	365	367	367	371	374	376	377	372	372	371	372	376	377	374	373	373	372	371	372	371	369	369	365	364	366	367	367	366	366	369	368	364	363	363	361	358	364	371	371	370	366	366	363	362	363	364	361	362	363	0	0	0	0	0	0	0	0
389	391	391	392	392	393	394	394	398	396	392	387	386	386	388	387	388	388	389	389	384	381	382	384	383	383	383	380	381	382	382	386	390	390	394	397	401	403	399	392	394	394	396	394	388	382	384	390	394	398	390	389	389	390	392	396	395	388	386	390	394	395	395	395	396	393	384	383	384	383	386	389	389	386	384	388	392	393	387	386	385	385	388	391	394	387	384	381	377	374	374	380	386	387	386	386	384	383	383	385	386	386	386	385	391	392	392	390	385	382	380	381	382	380	377	374	376	380	379	380	379	385	384	380	379	381	387	387	382	378	381	384	386	390	390	389	385	380	376	376	378	383	384	384	384	384	385	383	386	390	382	380	382	382	380	380	381	383	384	385	383	382	383	383	382	380	377	379	381	381	379	380	379	382	383	377	379	377	371	370	372	375	376	373	375	381	369	366	366	370	373	375	375	375	368	368	372	374	375	377	377	370	374	377	378	380	377	377	378	378	381	380	384	382	382	382	381	380	379	377	377	377	375	374	376	380	382	383	385	385	386	388	387	385	383	381	382	381	381	383	385	386	383	383	383	385	384	381	380	381	382	384	383	382	381	380	379	379	375	374	379	381	381	381	380	379	378	381	383	382	383	383	383	383	384	385	386	385	383	385	388	386	386	385	387	388	388	390	389	388	380	378	377	378	380	384	386	387	382	378	376	378	380	382	382	384	383	382	376	374	373	374	379	381	382	379	375	373	372	373	373	374	376	376	375	374	373	373	377	379	378	373	370	372	379	382	386	387	383	386	381	378	377	374	375	378	378	376	372	373	379	382	382	383	383	383	382	383	383	383	381	379	377	373	375	386	389	380	378	380	386	389	386	379	379	378	375	375	378	379	378	378	384	388	388	385	369	369	375	389	383	381	380	380	382	381	381	380	377	374	373	374	378	380	383	383	383	377	376	377	380	381	380	369	370	367	370	380	382	382	380	377	371	372	374	374	373	372	367	366	368	368	374	380	378	374	371	365	365	366	371	370	367	366	364	363	367	369	371	372	381	384	386	384	378	373	363	363	363	364	360	361	369	377	375	374	375	377	376	373	369	368	372	377	373	371	368	369	371	374	371	368	364	364	365	366	366	367	367	369	372	374	370	369	364	362	362	366	366	363	363	364	364	365	369	368	369	368	367	366	366	367	370	371	365	368	367	362	363	363	367	367	366	368	370	372	372	369	367	362	360	361	362	362	368	374	369	365	359	360	362	363	360	360	359	361	361	361	361	360	359	357	355	354	354	354	356	358	358	362	362	361	359	359	362	365	364	362	364	366	367	369	370	370	366	365	361	358	358	361	357	357	358	359	361	367	369	370	374	369	369	367	367	367	369	373	372	371	370	367	366	367	367	367	366	363	359	361	363	365	363	364	360	360	356	354	353	351	354	357	367	368	368	362	362	359	358	356	355	354	355	360	0	0	0	0	0	0	0	0
378	385	385	386	386	388	387	391	391	388	386	382	382	382	384	382	383	384	385	385	383	380	380	380	378	370	370	371	374	377	374	374	375	375	380	383	379	380	382	386	388	388	389	385	381	380	383	386	386	377	377	377	380	384	385	388	386	383	381	384	386	386	384	384	382	383	381	381	383	382	383	383	382	380	376	377	387	390	392	379	375	372	372	375	379	370	367	368	369	373	379	379	379	375	375	374	381	383	381	374	373	374	380	385	388	388	386	387	386	382	379	380	378	376	372	371	371	372	372	372	375	378	379	378	375	376	379	382	381	380	378	382	387	390	389	388	381	378	374	375	376	375	372	371	373	376	378	378	376	372	372	375	379	381	381	381	379	377	376	378	379	375	376	376	376	375	375	376	376	373	374	377	379	378	374	374	378	378	375	371	372	374	374	370	372	371	362	365	367	368	370	370	370	366	361	366	368	370	371	371	370	368	365	369	374	375	374	374	375	377	375	369	373	372	374	376	374	374	377	378	376	376	376	376	375	375	378	380	381	383	381	382	381	381	375	373	374	372	373	380	385	385	382	377	376	380	375	373	373	374	375	379	383	381	379	377	377	374	371	372	374	378	380	376	374	374	373	375	377	381	380	381	378	377	378	381	382	379	373	370	372	373	373	368	373	378	384	380	379	386	377	374	375	376	380	385	384	380	375	370	374	376	377	380	383	384	380	378	376	371	369	369	373	376	379	374	369	370	370	372	373	376	377	378	375	371	371	373	375	379	380	376	371	367	372	376	379	378	378	376	376	374	378	379	379	378	377	375	373	375	375	377	381	382	379	375	373	373	378	381	380	378	375	371	368	371	373	369	371	372	374	375	376	376	376	373	368	367	369	367	369	369	372	375	377	368	364	364	367	371	373	368	369	377	379	380	379	375	371	368	367	371	375	378	380	378	379	377	374	374	373	371	368	368	366	364	366	370	376	378	377	374	369	368	368	368	368	366	369	366	365	367	365	367	371	372	366	365	361	364	369	366	364	365	365	366	367	368	369	370	369	370	370	371	369	368	366	367	368	364	361	360	361	362	363	367	368	372	373	369	367	367	373	367	369	365	363	366	369	371	372	369	361	361	362	362	361	358	357	359	363	365	368	368	365	360	359	361	360	359	362	364	364	364	368	368	365	364	364	363	363	363	366	361	361	363	363	360	361	361	363	365	365	364	363	365	365	365	362	362	359	359	358	356	356	358	360	359	358	356	359	358	357	356	357	358	360	360	360	360	357	355	354	352	351	354	355	357	355	355	357	355	353	354	354	351	355	352	351	351	358	364	367	365	363	360	356	354	351	351	354	353	354	354	355	353	354	358	358	365	366	366	365	362	369	368	369	364	362	360	361	362	362	362	361	359	359	358	359	359	358	357	357	354	352	351	349	349	351	357	363	364	362	362	359	358	355	351	351	349	350	353	0	0	0	0	0	0	0	0
374	378	381	381	383	381	376	375	375	374	373	375	378	378	381	380	382	379	379	379	378	376	367	364	364	363	363	366	373	373	371	369	370	370	371	370	372	374	378	382	384	384	386	384	384	380	376	375	372	374	376	376	377	377	377	377	376	374	375	379	381	380	379	379	378	377	381	384	382	379	380	379	377	372	372	375	380	385	383	380	376	374	374	375	374	371	364	365	369	369	375	373	369	364	359	370	379	375	375	372	371	371	372	379	377	377	375	378	385	385	380	378	376	373	370	368	368	369	368	367	365	366	366	367	368	368	368	371	375	379	380	379	380	378	377	374	373	370	371	371	373	375	375	371	370	372	373	373	372	370	370	372	378	380	380	379	371	371	372	372	373	369	369	370	372	370	367	367	367	368	365	368	370	370	371	372	375	376	372	370	370	366	365	365	364	360	363	369	370	370	368	366	364	357	361	363	362	362	361	362	364	365	363	365	369	373	371	369	366	364	364	368	369	367	370	371	369	369	371	375	374	374	373	375	376	374	375	376	378	378	378	378	377	371	369	368	365	367	368	376	379	381	376	373	370	373	373	369	367	371	373	375	376	378	376	374	371	368	364	363	365	368	377	379	370	370	370	371	372	374	377	377	374	374	375	378	378	376	369	362	364	364	364	361	367	368	369	372	372	372	374	374	371	372	374	376	381	378	372	371	371	372	373	373	374	376	377	377	374	369	366	366	369	373	373	368	368	375	376	378	380	381	378	373	372	370	370	372	374	376	378	379	375	372	370	373	375	374	372	369	365	369	370	376	376	374	374	373	371	372	372	374	378	379	377	375	372	369	371	371	377	374	370	365	363	363	364	366	368	370	371	368	364	359	358	360	365	365	364	365	368	372	375	375	370	365	361	360	360	360	360	362	362	367	368	370	370	368	365	365	365	367	369	376	376	375	370	370	369	370	362	362	364	364	365	366	360	358	367	371	375	377	373	366	367	367	365	367	369	368	364	363	364	362	362	355	358	361	365	368	368	363	357	361	365	366	367	368	368	368	369	370	371	367	365	361	363	366	365	367	364	361	362	361	359	360	361	358	358	357	358	363	363	364	363	362	363	360	363	368	369	368	365	359	359	359	360	358	358	360	360	363	360	359	359	365	364	361	358	359	361	362	363	359	361	364	366	362	359	355	356	359	359	359	358	357	360	359	359	361	363	366	362	354	349	348	349	351	356	354	353	354	354	351	349	347	347	355	356	354	356	356	354	353	355	356	358	358	356	355	352	348	346	348	349	350	353	353	354	353	351	352	350	350	350	347	345	345	344	347	350	354	357	353	351	351	352	350	348	346	344	345	351	351	352	352	352	354	353	352	357	356	355	359	363	360	354	354	355	354	355	353	353	360	360	358	356	354	355	355	355	346	349	346	345	349	352	349	349	354	354	359	357	357	356	355	353	350	348	346	348	349	0	0	0	0	0	0	0	0
374	375	376	376	374	368	368	366	366	365	368	369	373	373	377	372	370	367	360	360	363	364	363	361	359	359	359	364	370	371	370	369	368	368	367	368	369	372	375	379	382	382	384	382	377	374	373	372	371	370	373	373	375	375	375	373	372	371	368	371	373	375	376	376	375	375	377	381	375	373	374	375	371	369	368	370	374	378	379	378	376	379	379	378	376	368	364	363	365	367	367	364	364	362	366	369	372	375	375	372	370	369	366	366	366	365	367	367	369	367	371	371	368	367	367	366	366	367	363	360	361	361	361	364	364	366	367	367	367	375	379	379	374	373	372	372	370	367	364	368	368	371	372	371	371	370	369	369	369	366	367	368	377	377	375	368	367	367	367	368	370	368	367	365	367	367	364	361	362	363	359	361	363	365	366	369	371	372	371	370	369	366	364	359	355	357	359	364	365	362	360	354	356	358	361	362	361	362	360	360	360	359	359	363	366	365	366	365	360	359	359	362	368	367	370	370	369	369	369	370	372	372	371	371	371	373	373	370	369	369	369	369	365	363	362	362	361	365	367	369	372	376	373	369	365	364	368	373	376	377	376	373	371	370	372	371	367	364	360	359	361	361	361	363	365	369	369	372	370	371	372	375	371	369	374	375	375	372	369	363	359	361	359	360	363	364	362	361	363	368	368	360	364	368	369	370	376	375	371	368	366	364	366	365	367	371	374	375	374	370	367	365	368	369	367	367	372	373	373	373	373	375	373	368	364	362	365	364	363	364	374	379	374	369	366	369	368	366	364	361	363	363	366	368	371	373	372	371	370	368	371	372	373	375	371	369	368	368	367	365	365	362	364	362	363	363	363	364	365	368	368	365	360	358	357	358	361	364	363	362	365	364	361	361	358	358	356	360	359	359	358	360	362	363	362	362	365	367	367	366	367	366	367	368	367	368	367	367	361	358	360	361	360	360	361	364	355	354	354	357	357	360	361	359	362	363	363	365	365	363	363	357	353	350	352	356	350	354	361	364	369	371	364	361	360	362	366	366	368	368	368	370	367	364	361	359	360	362	362	363	365	364	361	362	361	361	361	359	349	346	353	357	359	357	352	350	358	360	361	360	366	364	360	354	353	356	358	359	359	354	354	354	354	353	355	357	356	355	355	358	358	361	360	356	356	351	358	357	354	353	353	355	356	355	352	349	348	351	357	361	366	356	350	348	349	348	349	350	352	353	351	351	347	345	343	348	348	350	353	353	352	350	351	352	353	354	354	351	351	352	349	346	345	345	345	347	350	351	352	351	350	348	347	346	345	345	344	344	345	346	350	351	350	348	346	344	343	343	343	342	340	339	340	343	346	348	350	350	349	351	353	354	353	350	348	351	352	350	351	351	352	353	353	353	353	355	355	353	351	349	347	352	349	347	346	346	351	349	348	352	350	348	349	349	352	353	353	349	346	345	345	345	0	0	0	0	0	0	0	0
373	374	371	371	366	363	365	365	365	364	363	365	368	373	373	365	363	360	365	363	363	361	357	357	357	361	361	364	366	367	367	368	371	371	372	369	365	358	360	365	370	375	375	374	371	368	368	367	366	369	370	370	373	375	374	371	366	363	362	363	368	372	374	374	374	371	369	367	366	369	371	370	369	366	363	361	361	365	364	364	364	365	366	366	366	364	360	358	356	357	358	358	359	362	363	364	366	369	373	370	369	364	357	356	356	360	363	365	365	364	364	364	364	362	362	364	365	360	357	357	357	357	358	358	359	361	363	364	361	363	363	366	367	369	369	369	363	360	357	362	364	367	368	368	368	368	368	366	365	363	360	358	359	371	367	367	366	364	364	365	365	365	362	359	361	362	362	360	362	359	355	355	355	359	364	366	367	369	370	369	367	364	361	358	358	358	358	364	360	359	359	358	359	360	360	359	359	359	360	359	355	355	355	361	364	365	362	360	357	354	353	358	366	369	370	369	366	360	357	366	365	369	368	368	365	364	366	368	368	368	368	365	357	356	357	358	359	359	358	359	362	364	368	367	365	358	363	365	369	371	373	369	369	365	365	365	362	360	359	360	358	356	355	355	360	367	368	368	367	370	370	370	369	364	371	372	372	371	367	363	359	358	358	358	358	359	357	356	353	352	354	357	363	366	366	364	365	367	367	368	366	361	356	358	358	361	365	370	374	373	370	367	365	364	365	365	368	370	372	370	370	371	370	364	360	361	364	361	361	360	361	368	371	367	363	362	360	362	359	358	360	363	363	363	367	368	369	369	369	364	365	365	367	368	364	363	363	361	357	358	358	361	363	364	365	362	360	358	359	360	360	361	357	355	355	354	355	357	357	357	354	356	355	356	355	355	358	358	354	352	354	355	356	357	356	357	359	364	363	361	358	360	363	360	363	363	352	351	353	356	360	357	352	352	353	358	354	350	351	351	354	356	357	359	360	364	357	359	359	359	354	353	349	350	351	352	349	350	355	361	358	357	358	358	363	359	356	356	355	355	357	356	356	355	356	356	357	360	356	354	351	354	353	358	360	360	359	351	346	345	345	347	349	350	344	345	349	351	362	361	354	354	354	346	343	341	345	346	349	349	351	353	354	352	350	347	349	350	352	354	357	357	355	354	351	348	354	353	350	349	349	350	355	352	348	344	342	339	339	342	340	340	340	342	352	350	348	348	352	352	348	343	341	339	342	348	349	349	351	344	343	346	346	350	352	354	351	344	342	343	349	347	347	341	341	346	349	350	351	349	347	345	343	341	342	345	345	344	344	344	346	348	345	344	342	338	337	338	341	341	343	341	341	338	337	339	348	348	348	346	347	350	350	346	344	344	344	344	347	347	349	349	349	350	347	345	345	348	349	352	353	352	349	345	345	346	345	345	345	346	343	342	342	343	342	343	345	346	346	345	342	341	0	0	0	0	0	0	0	0
370	369	366	366	364	360	363	366	366	366	362	359	363	365	365	361	364	366	364	363	363	357	350	352	354	358	358	364	365	363	362	371	369	369	369	367	365	365	365	365	365	371	371	371	368	365	366	356	358	361	362	364	364	359	361	361	361	362	362	361	364	368	368	368	368	368	357	357	358	362	366	366	366	363	362	361	361	363	363	360	360	360	360	360	362	360	357	354	353	353	354	357	358	359	358	359	363	366	360	361	359	355	352	350	352	355	356	360	361	359	359	359	359	358	359	363	362	359	357	355	355	356	356	357	355	357	361	363	356	353	350	355	358	360	356	352	354	357	359	362	361	358	362	363	362	357	357	358	358	357	352	350	353	354	355	357	361	362	356	357	359	361	361	360	359	361	361	361	358	354	353	349	351	353	356	359	360	359	361	361	361	361	361	362	360	356	349	348	355	355	356	358	358	358	358	357	359	357	357	358	355	355	355	358	364	363	358	353	354	351	351	356	357	367	368	363	356	353	349	347	347	363	366	366	363	355	354	354	355	355	357	356	356	354	355	356	358	358	357	357	357	352	352	352	355	357	359	357	361	365	359	352	349	353	358	359	357	354	355	358	353	350	347	351	355	367	359	355	355	359	365	363	362	359	358	361	364	366	364	360	357	355	354	351	354	354	355	354	353	352	353	358	363	365	364	362	361	362	366	366	362	358	352	346	351	358	361	363	364	367	367	364	360	358	359	360	362	362	365	368	366	364	363	361	359	359	360	360	359	358	357	356	355	358	355	355	358	358	358	355	358	361	361	360	358	360	361	360	356	356	356	357	358	355	356	349	351	353	355	358	359	358	358	358	359	358	356	356	355	353	353	353	351	353	355	358	352	353	351	351	349	352	352	351	351	356	357	354	351	348	350	351	353	352	354	354	351	353	353	354	355	357	357	350	348	348	351	351	351	351	349	348	343	346	348	351	353	349	346	347	347	350	357	359	358	357	355	356	357	358	350	350	350	350	348	348	344	348	349	351	352	353	348	351	351	358	356	351	344	345	349	353	352	352	351	351	353	352	349	349	349	348	352	353	353	357	352	345	345	344	344	343	344	342	341	341	343	345	347	351	351	348	344	342	339	338	340	344	345	348	348	352	352	352	348	348	347	347	344	344	344	342	343	348	349	353	354	352	347	347	349	349	352	346	343	341	338	338	339	334	335	339	335	341	346	345	341	340	344	342	338	335	334	337	339	344	345	346	346	344	341	342	340	340	338	339	338	334	334	339	345	347	346	344	344	346	347	350	350	347	346	340	337	339	343	347	347	344	342	339	340	343	341	340	337	338	338	340	344	348	348	347	344	336	334	334	342	342	341	339	339	341	342	339	334	335	340	341	341	341	347	347	347	343	343	341	340	342	348	352	351	347	344	343	343	338	337	333	336	333	337	338	338	336	337	338	341	343	342	338	332	331	0	0	0	0	0	0	0	0
362	364	363	363	357	359	361	363	361	361	357	355	358	359	359	355	355	357	358	354	354	350	349	350	352	357	361	361	361	356	362	365	367	366	366	364	363	362	361	363	362	363	363	361	355	349	349	353	357	358	360	357	357	356	355	359	360	358	358	358	360	362	363	358	358	356	354	354	355	358	361	359	360	360	361	359	359	359	355	355	354	354	355	355	355	357	353	352	351	352	353	357	358	357	357	359	360	356	357	357	358	356	351	348	347	349	351	351	350	352	356	358	356	355	355	354	354	354	355	358	358	357	356	351	351	352	355	358	354	348	344	342	346	347	346	350	355	355	353	352	352	351	349	348	351	350	349	348	347	347	347	347	348	352	351	351	352	354	355	354	356	354	360	355	352	353	357	357	354	352	349	345	348	352	353	352	353	350	347	347	358	360	363	359	355	352	352	346	344	352	353	355	357	356	355	354	355	353	353	353	355	356	357	359	362	360	356	351	349	352	352	353	360	362	361	356	353	351	349	345	346	349	351	350	353	354	353	353	352	352	353	354	354	354	355	355	355	353	351	350	349	350	350	351	352	355	354	354	354	356	353	345	348	349	352	353	353	352	354	355	352	348	346	346	349	351	350	350	351	355	358	356	354	354	354	353	351	350	348	351	354	355	353	353	353	353	349	348	350	354	357	359	359	355	359	356	357	359	361	359	356	353	352	350	349	357	359	361	361	361	360	358	361	360	354	352	354	360	358	357	359	359	358	354	353	353	356	358	359	356	355	353	353	357	355	354	354	351	351	352	355	358	360	357	356	354	351	347	344	345	346	346	349	348	347	350	352	353	355	358	358	357	354	354	354	353	350	354	350	347	353	351	351	356	358	352	349	349	349	346	344	344	348	348	350	350	357	353	349	347	347	349	350	350	350	351	347	347	348	351	349	348	348	345	344	347	350	350	349	348	344	344	343	343	347	345	345	346	343	342	344	347	355	358	357	355	353	354	357	353	350	348	346	347	346	344	342	343	343	344	345	342	344	345	347	351	353	347	343	343	347	349	351	348	348	345	349	349	347	348	349	348	349	350	350	350	346	347	340	339	345	345	342	339	338	339	339	339	341	342	344	347	342	340	337	336	336	340	342	345	345	346	346	349	346	344	343	340	340	340	341	340	339	340	344	346	345	344	343	346	342	340	338	339	341	336	334	331	331	331	334	336	335	334	333	333	335	336	340	339	335	333	334	336	337	339	342	344	343	339	336	341	339	335	335	334	335	336	339	337	339	341	338	338	339	341	344	337	332	330	332	338	344	345	348	345	343	340	339	336	336	339	339	339	340	339	339	336	335	334	334	333	332	328	326	329	332	333	334	334	335	337	339	337	333	328	330	331	334	336	336	336	339	340	340	338	336	338	338	345	350	347	340	340	333	332	334	335	331	332	335	338	338	336	331	331	334	340	340	337	329	331	0	0	0	0	0	0	0	0
352	354	353	355	355	358	359	360	359	359	357	355	356	358	358	355	345	345	348	347	347	346	346	347	354	356	358	358	355	349	351	355	356	353	353	348	348	352	354	355	353	352	352	350	346	346	347	349	351	355	357	355	355	354	354	356	358	357	353	353	355	357	359	356	353	353	351	350	351	353	355	354	356	357	355	352	350	354	356	357	354	352	352	351	351	353	352	352	352	352	354	357	357	356	355	357	358	354	354	355	356	354	351	344	343	345	347	349	351	350	350	350	348	349	349	347	349	346	346	347	351	353	353	351	349	348	348	350	352	348	346	343	340	339	343	350	350	347	347	349	350	349	347	345	346	345	345	345	344	344	346	346	347	348	345	344	343	343	343	340	343	346	347	347	343	343	348	350	350	347	342	342	352	353	354	352	350	348	345	345	345	346	342	342	346	348	349	350	340	347	350	353	354	354	352	351	351	353	350	353	352	351	350	351	355	355	344	342	340	342	346	348	350	352	346	345	345	347	346	344	343	346	346	346	348	352	353	353	351	349	348	347	348	352	349	350	351	349	346	346	345	351	350	351	352	351	346	347	348	348	347	347	345	342	346	347	348	349	348	346	345	345	345	347	347	347	346	346	348	352	344	343	343	345	345	344	343	340	339	341	348	346	353	351	349	349	348	347	348	350	351	352	350	348	347	349	353	355	355	352	349	349	350	351	351	351	353	355	351	351	354	353	353	354	351	351	353	355	356	355	355	355	353	354	354	351	350	354	357	357	349	352	358	357	356	354	353	350	349	344	352	355	355	356	354	351	349	345	343	343	344	345	349	350	351	351	352	352	353	355	353	351	348	344	343	346	357	354	349	347	347	353	355	355	345	346	342	346	345	347	346	342	343	344	336	348	351	352	348	345	344	346	347	348	347	347	347	347	343	345	344	344	342	342	342	345	347	347	346	344	341	344	345	346	345	342	340	340	343	343	344	348	350	346	345	346	349	354	355	353	349	345	344	345	344	343	339	339	339	341	341	340	341	343	345	348	348	347	343	343	344	343	343	340	342	345	348	345	345	347	346	343	346	345	340	341	343	339	342	339	335	343	346	339	328	332	337	337	335	338	339	340	343	339	337	336	335	334	340	340	340	335	340	341	342	341	338	336	337	338	339	337	337	337	336	342	342	336	336	337	336	333	333	333	333	330	330	329	328	329	334	334	332	330	329	330	331	332	335	340	339	337	337	335	332	330	334	337	337	334	332	333	333	333	335	330	331	331	334	338	338	336	335	334	335	335	329	324	324	327	332	341	345	344	344	340	336	336	334	333	334	340	341	340	342	339	335	333	331	331	330	331	330	326	323	325	326	329	330	332	333	333	332	333	333	331	331	334	333	333	333	333	332	329	339	335	332	329	331	338	345	345	340	335	333	329	329	330	335	334	336	336	338	335	332	330	330	331	332	331	330	328	0	0	0	0	0	0	0	0
350	352	351	353	353	354	355	356	357	357	356	354	353	350	347	347	344	344	344	346	344	344	346	348	351	354	354	354	352	349	352	356	356	354	354	350	348	349	349	349	350	350	349	349	346	346	344	344	351	354	354	353	353	353	352	351	351	353	356	357	356	354	351	347	349	349	348	348	350	351	351	351	351	352	350	348	346	350	355	356	354	349	346	347	348	348	345	346	351	352	351	354	356	355	355	354	357	352	350	349	350	352	350	343	341	344	348	352	351	351	350	349	347	346	347	348	345	342	343	346	349	351	349	349	343	340	341	344	348	347	344	340	338	337	340	342	343	343	343	346	347	344	342	340	342	344	340	342	344	343	344	347	346	341	341	339	339	339	337	336	338	334	345	339	339	338	339	344	344	342	343	337	339	345	351	351	349	347	344	342	340	339	338	340	340	336	338	341	339	340	345	348	348	347	340	338	335	335	339	344	347	345	345	346	345	344	342	332	334	333	335	336	337	338	339	346	349	350	348	343	340	339	336	337	345	351	353	343	352	349	345	346	351	347	348	349	350	349	346	344	345	344	346	344	342	343	339	339	341	344	347	346	340	338	339	339	341	342	343	343	343	342	344	345	346	345	342	340	348	342	342	340	342	342	342	342	346	345	340	348	349	348	344	344	340	337	335	340	352	351	350	349	348	345	340	338	341	351	343	347	344	344	346	349	349	348	349	350	349	349	353	352	347	348	349	351	351	354	355	355	353	352	352	352	346	347	354	356	354	353	354	354	355	356	355	353	355	354	350	351	354	351	351	352	345	347	348	346	345	344	345	351	352	352	352	352	350	348	349	347	348	346	343	339	338	349	346	346	344	344	345	347	344	342	342	340	340	340	344	348	346	342	341	339	337	337	347	346	349	344	342	344	346	344	343	341	340	339	342	344	342	340	340	340	340	339	338	338	341	339	340	340	346	343	343	340	337	336	334	336	337	341	343	345	343	343	340	342	347	346	345	344	340	339	338	338	337	336	339	340	339	336	335	337	341	347	345	343	343	343	338	334	333	333	340	343	344	339	336	336	337	338	336	336	338	339	337	336	338	335	335	333	335	335	335	334	332	334	336	337	336	337	337	342	342	336	334	333	333	334	333	334	334	334	334	334	331	330	333	335	335	330	332	327	328	331	332	323	325	329	330	333	333	330	328	326	328	331	334	334	334	330	331	331	329	327	328	329	330	331	332	334	334	331	326	325	329	331	330	329	328	329	328	327	328	327	324	326	327	332	336	335	336	335	333	330	325	326	330	333	333	333	334	337	336	332	331	330	330	332	333	330	331	333	335	335	333	331	330	328	328	328	327	325	322	322	324	327	327	326	326	327	327	327	328	328	331	331	331	331	331	329	326	326	323	325	326	328	329	333	341	345	342	339	332	328	328	329	331	335	336	336	323	322	319	322	322	322	324	323	326	328	0	0	0	0	0	0	0	0
347	347	346	348	348	348	350	349	352	352	354	350	347	345	344	344	345	344	340	340	343	343	346	347	349	355	353	353	351	350	350	353	356	352	349	349	349	347	346	346	347	346	343	343	345	345	346	343	345	350	347	347	345	345	339	339	342	347	351	353	350	344	342	342	344	344	345	346	347	348	347	347	348	349	345	344	341	346	348	347	346	343	342	340	338	338	338	340	341	345	349	348	352	355	351	346	340	339	342	343	340	337	336	336	344	348	350	348	344	347	349	348	347	346	345	345	338	336	338	342	342	342	339	336	334	337	340	343	345	344	341	339	337	336	341	342	343	342	341	342	342	339	335	335	335	335	338	340	342	342	343	344	346	341	338	336	335	336	335	336	333	331	331	342	335	337	338	339	340	341	341	336	338	337	341	346	347	346	343	342	340	336	337	338	335	334	336	339	333	328	335	337	338	338	338	336	335	334	335	340	342	343	346	345	345	336	333	330	331	330	330	330	332	336	345	345	343	339	336	337	336	332	329	333	339	346	345	340	334	332	346	336	335	340	341	340	334	335	336	342	343	342	342	339	334	328	328	330	337	338	345	340	337	339	338	339	338	340	341	341	337	334	341	342	343	341	341	337	337	341	340	339	338	339	340	340	341	344	349	349	348	337	333	332	334	336	338	341	347	350	350	348	346	342	337	335	334	335	343	342	342	342	343	343	341	343	348	348	348	351	351	345	344	343	342	347	352	355	354	344	343	342	342	340	343	347	355	357	356	354	355	353	353	351	355	354	354	352	357	350	345	344	343	343	345	345	346	345	344	345	347	351	351	351	349	350	346	343	342	345	342	342	338	335	338	341	343	342	339	341	343	344	343	340	335	335	340	339	344	347	347	341	338	336	335	336	341	345	343	341	340	342	335	338	336	338	338	339	339	338	335	334	332	334	338	338	337	333	330	331	334	337	340	334	328	329	333	331	334	336	336	340	339	338	339	339	336	338	337	338	339	338	336	336	334	333	332	337	339	340	341	336	334	334	336	337	337	336	334	332	330	330	332	333	333	335	333	333	333	333	331	332	332	333	335	333	332	327	332	336	332	333	334	333	333	333	331	334	338	339	339	339	339	338	334	334	332	328	325	329	331	332	331	332	333	332	331	329	329	330	325	323	324	323	323	323	320	320	322	326	327	325	326	326	326	323	324	330	335	333	330	333	327	328	325	323	325	326	326	326	326	326	326	326	327	328	325	324	325	326	324	325	322	322	322	320	319	321	325	326	328	329	329	329	328	328	322	322	325	332	332	331	329	330	331	330	327	325	324	325	326	326	324	325	333	331	327	326	328	327	326	325	324	321	322	321	323	325	323	322	321	325	325	324	323	327	328	330	330	326	326	322	319	316	320	319	322	319	324	327	334	333	332	332	328	327	327	328	328	323	320	320	320	316	314	316	318	321	323	324	323	322	0	0	0	0	0	0	0	0
342	342	337	341	341	340	343	345	346	346	347	347	345	345	344	344	343	343	340	340	339	339	344	344	340	346	350	347	347	348	349	351	344	337	336	336	337	335	339	339	341	340	339	339	339	333	336	339	339	340	339	337	336	336	336	336	340	342	347	346	343	341	342	341	342	343	343	344	344	341	339	336	337	343	343	342	341	340	341	341	340	339	336	336	333	333	333	336	340	339	343	343	344	344	342	337	336	338	339	336	338	338	338	339	342	342	342	341	340	340	341	337	338	337	336	336	336	333	333	334	336	333	334	332	332	331	336	337	339	340	339	337	335	334	337	340	341	341	340	337	337	334	333	333	333	334	336	336	338	337	336	337	340	343	338	335	335	335	334	332	331	329	329	330	338	336	339	339	339	340	340	340	336	336	337	340	341	344	344	342	342	338	336	336	336	334	337	340	335	326	328	333	336	338	339	338	334	332	331	333	335	333	335	334	333	337	336	334	333	332	332	331	336	339	340	339	339	336	335	332	331	328	327	333	337	340	339	337	334	330	330	327	330	328	333	334	336	336	339	342	346	339	337	334	329	327	324	322	331	336	339	339	338	337	337	339	338	339	340	338	337	332	337	339	336	337	336	335	337	337	338	339	338	335	337	331	325	329	338	339	338	334	330	330	331	333	333	335	337	340	342	348	346	341	339	331	330	330	336	337	338	340	340	335	338	340	343	345	347	343	340	343	339	343	343	346	350	353	352	343	340	339	339	339	339	346	351	353	354	351	349	346	349	346	347	345	350	354	350	346	342	340	340	341	343	344	344	340	339	341	344	345	347	346	345	346	341	340	339	341	337	334	334	332	337	338	339	338	336	337	339	339	340	339	334	332	333	339	341	344	344	346	337	335	335	335	336	340	341	332	331	332	332	331	335	335	336	335	335	335	334	332	330	333	332	334	333	332	328	328	332	335	334	332	327	326	330	330	330	331	334	334	335	332	334	336	333	333	333	328	329	332	334	333	332	330	330	336	339	339	338	335	330	330	329	332	325	328	324	322	325	329	330	330	333	334	329	331	332	332	330	327	329	329	330	328	326	325	325	324	328	330	333	328	328	328	330	333	337	337	338	337	336	336	336	331	326	325	322	325	332	332	327	322	326	329	331	324	325	323	323	322	320	321	323	320	317	317	320	322	323	322	322	321	322	317	315	318	323	325	325	327	326	322	321	320	319	323	325	323	323	322	322	325	326	330	330	324	324	323	322	321	321	320	322	319	317	317	322	324	326	326	322	324	328	324	322	323	322	325	328	327	324	325	325	327	326	323	323	322	324	324	324	325	326	324	322	322	322	322	321	320	320	319	320	321	321	321	321	319	317	317	316	315	318	320	322	324	324	324	322	318	315	313	315	319	316	315	315	317	315	317	319	319	320	318	318	319	317	317	317	316	314	312	310	311	313	315	318	320	319	316	0	0	0	0	0	0	0	0
334	333	332	334	334	333	335	336	339	341	341	341	342	341	342	342	339	342	342	338	335	335	336	337	334	332	337	344	344	341	339	338	335	334	334	334	333	329	332	331	329	333	336	339	329	330	333	338	339	338	337	334	332	332	333	333	336	332	337	340	341	342	341	337	340	339	339	340	340	340	336	334	333	335	336	337	339	339	337	339	340	340	337	335	336	337	337	337	334	330	329	336	338	338	333	334	335	333	334	332	332	334	340	341	339	336	337	338	340	342	342	333	330	333	335	336	334	333	331	329	329	327	329	332	330	327	331	334	337	338	335	333	334	332	334	335	333	335	337	336	334	330	328	330	331	329	329	331	333	335	334	333	335	339	339	338	335	334	328	327	328	328	329	330	331	332	335	335	337	337	337	338	334	333	336	336	332	329	332	336	338	338	336	336	336	337	338	338	332	329	331	333	336	337	339	338	335	333	327	324	327	330	332	330	329	335	337	336	335	333	333	330	336	338	339	336	335	333	330	331	329	327	326	330	333	336	337	337	336	333	330	331	331	331	330	333	332	334	335	336	336	335	334	327	326	326	325	325	326	331	335	336	336	337	335	337	345	346	345	337	333	329	328	331	333	336	333	336	332	335	330	328	330	334	332	329	324	327	328	336	328	331	331	331	332	332	334	333	334	338	338	333	329	328	335	333	331	332	334	336	336	338	337	334	333	336	337	340	336	335	340	338	336	337	339	341	339	343	343	342	339	337	332	334	339	338	339	336	339	341	342	345	343	343	343	344	345	344	343	341	339	337	337	338	340	342	338	337	336	337	339	342	341	343	340	345	342	337	337	337	335	331	331	333	334	336	336	335	334	334	335	334	332	332	333	333	332	334	336	339	338	335	330	333	334	335	330	329	329	330	330	330	331	330	329	329	332	333	337	335	332	329	328	328	327	326	325	333	331	330	332	334	332	330	331	332	332	329	330	331	331	331	331	330	331	332	330	330	329	327	328	326	325	330	329	327	329	332	332	330	329	329	329	326	321	320	319	319	318	319	320	325	329	331	331	333	331	330	331	331	325	324	325	326	325	324	323	322	322	320	321	328	328	330	328	325	323	327	330	330	329	328	326	329	329	325	323	323	322	326	326	325	323	320	320	321	323	323	321	320	316	317	319	322	323	319	317	314	316	319	321	321	319	318	316	315	315	317	318	319	319	320	323	320	318	317	316	316	316	316	317	319	321	318	323	328	329	325	321	320	321	319	318	320	321	319	314	314	315	316	317	318	320	321	320	317	318	318	322	321	319	320	322	321	322	323	322	321	322	321	321	322	321	318	318	317	315	314	315	316	315	315	317	319	320	321	318	318	317	314	311	308	308	308	310	318	319	319	321	319	310	309	312	314	315	313	311	310	313	313	313	315	317	319	318	313	317	316	314	313	313	312	309	307	307	308	312	315	319	320	317	316	0	0	0	0	0	0	0	0
330	330	327	328	328	328	329	329	328	328	328	333	338	336	337	337	332	334	333	332	332	331	331	329	328	323	326	331	331	335	335	334	332	330	328	328	324	326	327	324	327	331	332	329	329	331	332	335	337	335	334	330	324	326	326	329	330	332	336	339	340	340	333	330	329	333	333	336	338	337	333	335	333	330	332	334	334	333	332	332	341	340	339	334	334	328	323	323	323	322	323	326	329	329	331	332	330	327	325	327	330	332	333	335	335	334	332	337	340	340	335	332	328	331	334	335	333	332	329	326	324	325	326	328	332	329	328	330	334	334	331	330	331	331	330	329	331	333	334	331	328	325	323	323	324	326	326	325	325	326	328	330	328	330	329	329	327	328	327	328	329	331	331	330	329	327	328	331	335	335	336	336	324	323	323	325	323	321	324	328	331	332	335	336	337	336	338	334	332	331	333	333	333	330	328	328	329	329	325	323	327	328	327	327	323	328	336	336	335	332	331	324	332	334	335	333	332	331	330	329	330	327	325	325	320	326	336	336	335	330	331	330	334	333	330	328	327	330	334	334	333	329	324	326	327	327	328	327	327	329	332	336	335	334	336	338	339	340	336	335	334	332	330	330	329	329	328	328	326	326	328	328	328	326	332	329	325	324	326	322	324	326	329	331	331	331	332	329	329	331	330	329	328	327	322	325	326	329	334	335	336	335	333	330	329	331	337	336	332	333	332	332	333	335	337	339	340	340	333	332	330	327	329	332	336	338	334	333	334	336	338	341	342	341	342	342	342	341	339	338	337	340	338	341	337	336	332	331	332	336	335	335	334	334	338	339	343	338	335	335	331	331	331	331	330	327	332	332	331	332	332	332	330	328	329	332	334	336	332	334	335	329	331	330	333	328	327	327	328	328	326	320	321	326	324	324	327	332	331	327	324	323	323	325	324	324	324	325	332	333	332	330	327	325	324	329	328	325	325	326	324	329	329	331	329	330	331	328	329	326	325	325	320	324	325	325	326	328	328	327	327	327	326	322	319	316	317	317	318	318	318	321	322	328	331	331	329	327	327	322	319	319	320	320	321	320	320	321	318	318	319	325	323	322	321	323	322	320	320	319	320	322	326	325	324	322	321	320	323	326	325	324	321	319	317	316	317	317	317	318	318	318	322	326	323	319	316	312	314	316	318	319	318	317	317	317	315	315	315	315	316	316	319	317	315	313	313	314	313	313	314	314	315	314	321	324	323	321	316	316	320	318	315	320	317	313	309	309	310	312	311	313	315	316	313	310	310	310	310	312	314	319	314	309	309	312	318	317	316	319	319	318	314	315	315	314	313	310	311	313	312	312	313	317	318	316	315	313	312	312	311	309	310	311	311	312	312	313	310	309	309	310	311	310	311	310	309	309	310	308	307	308	314	316	312	311	310	313	311	312	312	311	308	310	312	312	314	317	314	315	313	312	0	0	0	0	0	0	0	0
328	327	325	325	325	325	326	325	320	320	320	330	333	333	332	332	324	325	328	327	326	324	324	325	324	321	327	329	329	332	331	330	327	323	322	322	322	326	326	326	329	331	329	330	330	330	331	334	333	332	330	326	323	323	323	324	324	326	329	331	331	334	332	330	328	326	331	331	333	332	327	326	332	327	328	329	328	324	320	320	323	321	324	324	326	322	320	320	319	321	326	328	328	327	325	325	325	324	326	327	321	317	318	327	327	326	326	324	326	330	331	329	326	325	324	325	326	327	327	325	323	324	325	326	327	329	327	319	326	330	331	331	332	331	330	327	327	328	327	326	325	326	323	323	325	325	324	324	324	325	327	329	327	325	322	320	321	322	327	330	330	332	330	330	327	327	330	331	328	329	329	325	318	318	320	317	318	321	322	322	326	327	322	322	321	320	321	330	328	330	330	329	328	324	325	326	325	322	322	323	326	327	325	321	322	323	333	334	332	329	320	321	323	329	329	327	327	326	324	330	328	326	325	322	322	329	333	333	329	326	326	326	332	332	330	328	326	321	321	328	325	323	322	322	326	327	329	330	330	333	334	330	328	327	326	326	325	325	320	321	325	327	329	327	324	322	321	321	322	325	324	324	323	325	329	327	325	324	321	319	320	323	329	330	330	329	327	326	327	326	326	327	327	323	323	324	325	325	329	331	331	329	327	325	324	328	330	333	329	329	330	329	331	334	335	336	329	327	329	327	326	327	328	330	331	335	333	333	335	333	338	337	339	338	336	337	338	336	336	335	335	338	340	340	337	333	330	328	330	330	336	334	331	328	333	330	330	333	336	335	332	331	331	330	323	320	318	321	327	329	330	331	325	325	327	328	330	330	324	324	324	323	327	327	325	324	326	324	325	326	318	319	320	321	324	320	321	319	322	323	324	327	327	328	328	325	323	325	325	332	331	320	318	314	314	314	315	324	324	319	314	316	321	325	328	329	329	328	326	325	321	315	317	320	324	321	321	323	325	326	323	324	324	323	320	317	317	319	318	319	320	319	320	321	323	319	322	322	319	318	315	316	316	317	316	317	318	319	319	318	319	321	321	321	321	319	317	316	315	315	315	319	320	319	318	318	319	318	314	313	319	313	313	312	309	310	310	312	312	312	315	318	321	323	319	315	312	311	313	316	319	319	317	316	316	315	314	311	311	313	312	315	312	313	313	313	312	312	312	313	312	312	310	311	311	312	314	315	315	315	316	316	317	316	313	311	310	310	308	308	306	304	305	307	311	309	308	308	304	302	307	311	314	308	308	309	314	312	311	313	314	310	310	311	312	310	308	309	309	309	309	310	311	312	314	313	313	311	310	310	310	310	310	311	308	306	306	306	306	308	309	309	310	312	311	309	308	308	305	305	305	305	305	307	310	309	307	309	310	310	310	310	310	312	312	314	308	308	308	306	309	310	310	0	0	0	0	0	0	0
315	320	319	319	324	324	324	321	319	327	327	331	330	326	324	324	320	320	320	319	319	319	319	319	320	323	324	326	326	326	328	328	326	321	319	324	324	322	321	328	331	332	333	325	325	326	327	328	331	327	324	323	321	319	319	320	322	324	324	324	325	327	331	330	327	325	326	326	328	328	323	323	323	323	324	324	322	321	320	320	323	319	318	320	319	320	319	320	320	323	326	328	326	321	319	320	321	321	323	321	319	319	319	320	321	321	320	321	324	326	328	327	323	321	321	318	317	323	323	322	322	324	326	327	327	325	321	318	319	324	326	326	327	327	327	325	325	323	322	321	322	323	323	324	324	324	324	322	321	323	325	327	329	323	319	318	317	317	320	325	326	327	330	331	326	321	322	322	316	316	318	321	320	318	317	318	322	320	321	320	321	318	318	319	319	318	319	320	322	321	326	325	322	323	324	325	323	321	320	319	320	321	321	322	322	323	328	323	319	317	319	319	321	323	324	325	325	326	323	321	323	323	320	320	319	322	326	328	323	321	319	320	323	325	327	327	318	321	323	322	321	320	318	320	324	327	329	331	323	323	320	319	319	319	319	320	320	317	318	320	321	322	323	322	320	318	319	317	320	320	321	318	320	325	327	327	323	322	320	317	317	317	318	323	326	326	326	326	325	325	323	323	324	322	322	322	323	323	328	329	329	328	325	322	321	324	329	330	329	329	328	326	326	327	334	332	327	325	326	326	328	328	328	328	327	326	326	323	327	332	334	336	334	329	326	326	329	332	332	330	331	336	337	340	338	329	324	327	327	328	326	325	323	324	321	316	319	319	326	327	324	326	325	327	321	318	315	315	321	322	325	329	323	324	320	322	321	319	319	321	321	321	319	317	316	320	322	321	320	318	317	318	321	321	320	320	316	319	319	321	323	323	324	325	325	325	321	317	316	317	322	321	322	322	321	314	316	323	319	314	313	311	311	316	324	320	322	323	322	315	311	312	317	320	321	317	319	316	319	319	321	322	323	322	320	317	317	317	320	319	319	318	318	317	312	312	317	317	317	315	311	312	313	310	309	310	311	311	318	318	317	316	318	320	320	320	317	314	312	311	313	316	315	313	312	313	313	308	311	314	314	308	307	307	308	309	309	308	306	306	311	313	315	315	312	311	309	311	312	314	314	316	315	314	314	312	307	306	308	309	309	310	309	309	312	311	308	310	314	314	310	311	309	306	310	311	313	314	314	314	313	313	314	315	317	316	312	309	304	306	301	301	302	304	309	309	309	305	301	300	301	307	309	310	310	308	309	309	308	309	311	311	309	308	305	304	304	304	305	308	308	309	307	309	308	312	312	306	307	310	310	309	310	310	305	305	302	304	306	308	310	310	310	309	309	307	305	305	301	302	302	302	298	296	305	304	304	305	309	309	310	310	305	304	305	305	303	303	302	301	304	306	306	0	0	0	0	0	0	0
310	313	312	323	326	326	323	324	327	329	326	326	322	321	320	320	314	313	310	307	307	311	311	314	310	318	320	323	323	323	323	323	322	323	322	318	318	320	324	327	328	328	322	324	323	323	321	320	320	320	320	319	319	318	319	319	320	322	321	320	321	321	323	323	324	323	324	324	325	323	321	321	320	321	320	321	319	319	320	316	318	316	319	319	318	319	318	318	319	319	319	319	318	319	319	318	315	316	317	317	317	318	318	316	317	317	318	318	319	321	323	322	319	319	319	317	314	314	316	316	319	322	324	324	323	321	321	318	319	322	320	318	316	317	321	322	322	321	319	318	317	314	314	317	323	323	319	316	315	316	317	317	317	316	315	315	315	316	318	316	316	316	318	322	320	316	314	315	314	314	315	314	315	316	317	316	314	313	313	314	315	315	317	318	319	318	317	314	314	315	313	313	314	317	318	319	320	320	318	318	319	316	316	316	321	323	321	318	318	317	317	319	320	320	321	321	323	325	319	317	317	316	316	316	315	319	321	322	320	317	317	316	321	322	324	316	318	320	321	321	320	316	316	316	319	323	322	320	315	317	322	317	318	319	320	319	324	324	320	320	319	321	320	322	319	318	315	316	316	323	319	317	318	320	322	319	319	320	319	317	317	316	316	317	319	321	322	323	324	324	323	319	319	318	321	322	319	316	319	318	322	321	321	320	321	323	318	319	320	320	320	326	326	323	325	330	325	323	322	320	320	322	324	330	329	324	321	319	321	322	324	326	321	316	318	321	319	320	321	322	325	323	324	324	321	317	318	321	322	320	320	320	319	320	319	314	312	317	318	320	318	322	323	322	320	317	315	315	314	314	312	315	312	312	312	318	317	315	317	320	321	318	315	314	318	317	318	318	314	314	313	312	308	308	312	316	316	316	317	318	320	321	321	319	319	317	315	315	316	316	317	320	320	320	319	319	320	318	315	314	312	311	312	314	314	313	314	315	309	310	310	312	314	319	320	317	316	316	317	313	314	314	318	318	317	314	307	309	312	315	316	315	312	307	307	309	311	313	311	307	311	314	310	306	305	305	307	308	311	316	312	312	313	315	319	319	317	311	308	310	310	312	313	309	305	308	306	302	310	306	307	306	306	305	304	304	306	306	305	305	309	310	313	313	308	304	302	302	300	302	302	310	308	309	308	307	305	304	306	301	302	307	307	311	306	298	298	299	303	313	307	303	302	306	308	310	313	313	314	313	311	307	310	312	313	310	306	302	303	299	300	299	300	302	304	307	306	302	301	299	299	302	305	306	307	308	309	304	304	305	309	309	309	306	304	302	302	303	304	306	307	307	306	305	306	301	309	305	306	310	310	310	301	299	299	300	300	302	304	307	310	308	308	307	307	305	302	298	294	294	296	296	295	293	293	295	298	300	300	302	306	305	299	297	298	296	302	302	301	301	302	301	301	0	0	0	0	0	0	0
308	309	319	321	319	319	320	320	321	324	321	321	320	318	317	314	311	308	307	305	302	301	302	302	307	309	309	312	310	310	309	312	318	319	316	317	319	319	323	324	323	319	319	322	321	321	319	317	319	321	319	319	318	317	317	317	316	317	317	318	319	319	317	319	322	321	322	321	321	319	319	319	319	318	317	316	316	316	315	314	314	316	316	316	314	311	311	311	310	310	310	314	314	316	318	316	313	313	313	315	317	316	315	313	310	311	312	314	316	320	320	316	314	313	313	312	312	310	309	310	313	318	319	316	318	320	320	318	318	319	318	318	316	313	315	321	321	318	316	312	312	311	312	312	314	312	310	309	310	310	311	311	310	307	313	314	313	312	312	312	313	314	319	318	317	313	310	310	310	312	311	312	312	316	317	317	314	311	308	307	311	317	318	319	318	314	312	309	308	308	313	314	312	311	308	320	320	320	318	317	316	314	314	313	311	310	310	316	317	317	316	317	321	320	320	319	320	316	314	313	311	311	312	312	310	314	316	316	316	314	313	314	314	317	315	315	317	319	320	318	318	316	315	315	313	317	320	317	311	314	315	316	317	318	320	321	322	321	318	316	317	317	316	317	316	316	312	312	314	315	316	312	314	316	315	315	315	316	317	316	316	316	315	315	316	317	318	321	322	323	321	317	316	316	318	320	317	316	313	315	317	317	317	317	317	322	317	319	320	318	318	319	318	315	315	313	312	321	320	318	317	319	318	319	319	317	318	319	321	322	319	312	313	314	318	320	318	318	316	315	316	318	316	315	314	317	317	316	316	319	320	319	320	324	319	313	311	315	316	315	314	316	321	312	313	313	313	313	312	309	312	313	313	314	317	313	312	309	307	310	313	318	314	317	316	308	306	309	315	313	312	310	307	306	309	313	315	309	313	313	313	316	314	314	311	310	311	312	314	315	315	315	316	317	316	313	313	314	314	313	311	311	315	314	311	312	304	309	312	310	310	313	316	313	310	309	309	310	311	309	308	306	304	301	299	300	302	305	308	311	313	314	312	312	306	307	308	308	306	308	312	308	304	302	303	304	304	307	308	309	314	311	309	309	309	313	314	312	310	311	310	308	308	306	305	307	305	308	308	305	306	306	305	304	303	302	304	305	303	303	303	304	304	303	305	303	303	301	300	295	297	300	302	303	302	302	303	300	302	299	298	297	296	295	294	296	297	299	301	303	302	301	301	299	303	306	309	305	304	301	300	299	299	302	307	303	303	300	299	298	298	296	296	297	301	303	302	301	299	298	297	299	302	303	305	305	304	300	298	300	301	304	302	301	301	301	301	303	304	305	306	305	302	300	300	303	300	300	303	303	300	299	298	298	299	300	297	297	297	298	303	307	306	306	303	302	297	295	293	293	294	294	295	293	293	293	294	299	299	302	304	295	296	298	297	296	299	299	301	300	299	299	297	0	0	0	0	0	0	0
310	310	310	314	313	312	312	310	314	317	318	318	317	316	315	311	307	307	307	306	303	300	299	299	303	308	314	311	311	311	311	314	315	315	315	316	319	319	319	318	315	317	315	318	318	318	316	315	314	315	314	314	315	316	315	315	315	315	315	318	317	316	314	314	316	324	325	320	320	314	313	312	313	314	315	315	309	314	314	313	313	312	313	312	309	306	306	305	306	307	307	311	310	314	314	313	311	310	310	311	312	312	311	309	308	306	308	308	309	311	309	308	307	307	309	312	313	310	307	304	306	307	309	309	311	312	314	311	305	307	307	307	310	311	313	315	316	314	312	310	308	305	306	310	312	311	308	307	306	305	304	306	304	305	306	305	305	305	306	306	308	313	315	317	314	311	309	308	309	311	309	308	310	315	315	313	311	308	305	302	300	305	311	315	313	309	310	308	305	307	310	313	310	308	304	303	302	303	316	315	313	311	311	311	309	307	307	310	312	317	317	316	320	317	315	317	314	311	310	309	308	308	309	309	308	311	312	314	311	309	310	310	313	311	310	311	313	316	317	317	318	316	315	312	311	308	311	314	314	314	315	316	317	320	319	319	319	318	316	313	313	311	313	313	313	311	309	309	309	308	311	309	308	311	312	312	313	313	313	313	313	315	315	313	311	307	307	308	310	309	309	307	313	311	314	320	310	311	311	308	314	314	312	313	321	314	316	318	318	318	318	318	315	312	311	310	309	308	310	314	314	310	309	311	314	315	315	316	313	312	310	310	312	314	316	317	316	315	315	314	314	315	314	313	313	316	315	315	314	314	319	319	320	319	313	312	310	306	306	309	309	307	307	309	309	310	307	308	308	309	307	308	311	313	313	313	313	308	307	307	308	309	313	313	308	306	305	306	311	312	310	310	304	304	305	312	309	308	309	309	310	310	307	307	306	306	307	310	312	312	313	314	314	315	314	312	313	313	312	310	310	311	313	314	311	308	303	308	311	308	308	309	308	307	306	306	308	308	307	307	305	305	304	300	299	298	300	302	306	308	310	311	311	312	313	310	307	305	304	308	307	305	302	302	302	303	305	306	306	307	308	310	307	303	304	304	308	312	311	301	306	308	308	299	301	302	304	301	301	302	304	305	303	300	301	301	303	303	302	300	302	303	301	299	299	301	300	300	296	296	295	301	300	299	297	298	302	301	296	298	296	296	295	295	296	297	298	299	299	302	301	299	299	295	297	295	303	306	301	299	296	297	297	300	305	305	300	298	297	298	296	296	293	294	295	296	297	297	299	297	297	299	299	301	303	302	301	299	296	296	299	300	300	298	298	298	299	299	301	303	305	301	297	296	296	297	296	294	296	296	298	299	299	299	301	300	298	296	294	293	293	295	295	295	300	297	298	296	296	293	293	294	294	294	293	293	293	294	294	300	291	294	297	296	297	294	294	295	297	300	297	297	295	0	0	0	0	0	0	0
299	299	302	302	306	304	304	305	306	307	310	310	313	315	313	310	306	306	307	306	301	298	301	301	308	309	313	313	314	315	315	317	317	313	314	315	313	313	311	310	310	312	307	309	311	310	310	312	313	310	308	306	308	310	307	306	306	310	312	314	311	308	305	303	305	316	318	314	311	311	311	313	310	309	308	312	310	312	311	312	308	309	310	309	306	305	303	303	303	305	305	305	308	310	311	310	310	309	308	306	305	310	309	307	304	307	307	307	307	305	305	306	308	307	307	310	310	308	307	307	307	308	308	308	308	307	309	305	305	304	305	306	306	309	313	313	310	309	311	310	305	303	302	302	302	304	305	306	304	304	303	306	307	302	305	305	303	302	302	303	304	309	314	316	314	311	307	304	307	307	306	303	305	308	310	311	311	306	301	299	300	301	302	304	305	306	308	309	310	309	309	303	299	299	300	300	301	303	304	309	306	307	308	309	308	307	306	307	309	308	314	314	312	313	313	310	309	307	308	308	311	311	309	306	309	308	307	310	309	308	307	307	307	306	307	307	309	311	314	315	314	314	313	312	310	308	302	303	304	306	310	312	314	315	315	315	315	314	313	311	311	311	311	311	309	307	305	306	306	306	309	308	304	307	309	310	310	310	311	312	311	312	312	312	309	307	303	307	309	309	307	306	305	307	307	306	306	305	302	303	305	305	306	304	306	310	314	312	315	311	316	315	312	310	308	304	308	308	306	309	309	309	306	304	305	310	310	306	304	307	308	308	308	308	310	309	309	307	308	308	308	305	310	312	313	313	315	318	316	313	310	311	312	313	313	311	305	304	305	307	303	306	307	307	312	308	307	306	305	305	307	307	306	306	308	308	311	307	306	306	307	311	312	309	308	305	304	306	306	312	308	310	306	301	304	306	307	307	307	306	306	306	305	302	304	305	307	307	309	309	310	311	312	312	310	305	312	308	307	309	308	310	310	308	303	303	304	305	307	308	307	309	307	307	308	309	306	307	306	306	305	302	298	302	297	298	300	300	304	308	310	309	307	308	308	308	306	304	302	304	303	303	302	302	300	302	304	305	304	305	306	307	304	300	296	298	295	294	294	294	304	308	305	300	300	301	302	301	299	297	302	303	301	293	290	294	297	297	298	297	298	298	296	298	299	299	301	298	296	296	296	301	299	298	296	298	300	293	291	296	294	294	294	294	294	296	298	297	298	297	296	299	289	292	291	292	294	293	292	289	288	290	295	298	301	292	293	295	296	298	298	295	293	294	294	294	294	294	296	299	299	299	298	295	293	295	297	296	296	294	296	296	296	291	292	294	295	296	298	300	298	291	288	289	290	292	291	290	291	293	296	298	298	296	298	299	298	297	296	296	292	293	295	295	296	291	295	296	295	293	293	293	293	293	292	291	291	291	293	288	288	291	297	297	294	293	294	292	296	296	296	296	294	0	0	0	0	0	0	0
290	290	294	297	301	301	301	301	304	305	306	312	312	314	312	308	306	309	305	300	299	299	303	303	306	307	309	312	314	312	312	308	308	309	308	308	305	305	306	306	305	303	302	300	304	308	308	310	309	306	304	302	303	301	302	307	307	309	310	309	308	307	304	302	301	304	306	308	309	309	313	315	316	316	310	309	307	306	304	302	304	303	304	306	304	303	303	300	299	299	300	300	302	306	307	307	306	305	303	303	301	300	300	307	304	306	307	305	306	304	305	306	307	307	307	307	306	304	303	304	305	307	306	305	304	304	307	305	304	306	304	303	304	308	310	309	307	305	305	303	303	303	301	301	301	301	304	302	304	303	304	306	306	305	299	304	303	301	300	300	302	304	308	307	303	299	301	300	302	300	300	299	300	304	307	306	304	301	300	299	300	301	304	305	306	308	308	304	302	304	304	297	300	296	295	298	301	303	308	307	305	303	305	305	307	307	307	304	301	304	305	310	310	310	310	309	308	307	308	308	310	311	305	306	307	308	311	312	305	305	306	306	304	303	302	303	305	306	306	313	313	312	312	308	308	306	302	300	301	302	302	307	307	310	313	308	307	306	304	304	308	311	311	308	306	304	303	305	304	304	307	307	304	304	307	307	308	309	309	306	306	304	305	309	308	305	303	304	304	307	307	305	305	305	304	304	304	303	302	305	308	310	307	306	304	303	304	303	306	306	310	312	310	306	304	307	308	308	307	305	309	307	307	307	310	306	304	300	299	306	308	306	305	304	303	305	305	306	306	305	304	305	298	306	312	311	315	307	302	307	304	305	308	311	311	301	299	302	303	303	307	305	306	310	305	305	305	304	304	302	298	297	298	299	302	303	303	304	306	306	307	310	307	306	305	303	302	304	306	307	308	306	304	301	301	300	303	303	307	303	303	302	302	304	307	307	304	302	305	305	305	305	306	310	309	304	304	302	301	302	308	308	306	301	302	302	301	303	302	304	305	305	304	301	300	300	302	303	306	304	302	299	296	295	300	301	300	300	300	304	304	307	303	298	300	304	307	306	303	299	299	298	301	301	298	298	295	296	298	300	305	304	303	296	296	295	294	292	291	292	297	310	311	304	302	301	298	299	299	297	302	302	301	292	287	293	294	296	293	291	290	291	295	298	299	298	295	297	295	295	295	300	297	295	294	298	295	292	291	292	290	291	292	292	293	294	292	293	295	297	296	295	290	292	292	293	295	294	290	291	291	291	294	297	298	291	292	294	295	296	296	295	294	292	292	293	293	293	295	299	299	299	297	294	292	292	293	294	294	291	290	288	291	293	289	289	289	292	291	287	289	288	288	293	295	293	291	287	288	291	293	293	295	296	295	293	294	297	297	296	293	293	293	293	292	293	295	294	294	292	292	290	289	289	287	288	288	288	290	286	282	283	284	282	280	285	289	289	290	286	286	284	282	0	0	0	0	0	0	0
293	293	294	297	297	297	297	299	299	302	302	303	303	309	312	312	309	301	302	302	301	301	304	305	305	305	305	310	306	305	305	304	304	304	303	301	303	304	304	304	303	302	299	300	302	303	303	304	307	306	303	302	301	300	302	307	307	304	305	306	307	306	304	300	297	297	302	306	307	307	311	311	311	307	307	300	299	297	302	301	301	302	303	302	303	302	302	301	300	297	296	297	297	301	304	304	301	300	298	299	297	297	295	299	303	304	305	302	300	301	302	305	306	307	306	303	302	301	300	301	303	305	305	304	302	302	303	304	304	304	304	302	303	305	306	306	303	301	300	300	300	300	299	300	299	300	301	300	302	303	304	306	306	303	301	300	300	301	298	299	298	303	304	300	298	298	301	300	301	299	298	298	297	298	300	301	300	299	300	300	297	302	304	307	307	302	300	299	298	299	300	294	296	297	300	302	305	306	305	305	304	303	300	302	304	306	307	303	302	306	302	303	304	306	306	311	311	308	309	307	306	300	307	303	305	306	304	310	303	302	303	299	298	300	301	299	299	301	302	303	304	304	303	306	306	304	303	301	299	299	300	302	305	306	308	307	304	303	301	301	304	308	310	307	304	303	302	303	304	303	307	305	303	301	303	305	306	303	299	301	305	304	304	306	306	306	302	301	301	300	306	304	303	303	302	303	306	308	309	304	303	300	301	303	302	301	299	302	304	305	308	308	305	305	304	305	306	305	304	303	305	309	311	310	308	303	300	304	305	306	303	300	300	300	302	303	300	302	304	304	301	301	298	298	301	302	302	302	300	297	291	295	298	297	295	297	298	299	299	304	304	306	302	300	298	298	302	300	297	301	298	295	294	294	295	296	300	301	295	300	301	301	303	301	301	300	301	301	304	304	305	303	300	295	295	296	297	299	300	299	299	300	300	302	301	300	299	295	294	296	295	293	298	303	303	299	298	294	295	293	294	300	302	301	302	302	301	300	301	301	302	301	298	297	298	297	296	298	297	302	299	297	295	295	297	298	298	298	298	297	302	301	301	297	298	301	303	301	293	290	295	296	301	302	299	297	297	299	298	301	295	290	290	287	290	289	289	289	290	291	295	299	300	302	302	301	288	286	286	287	290	291	292	292	292	292	294	293	292	289	289	289	294	296	296	295	294	291	292	291	292	292	294	293	292	290	291	293	293	286	287	290	289	290	290	291	286	285	284	295	296	289	289	291	289	291	292	290	290	291	288	293	293	293	283	282	283	282	287	287	292	292	291	288	290	292	293	293	291	288	285	285	289	295	294	294	293	291	289	287	287	286	291	290	287	287	286	286	284	285	285	288	291	293	293	293	288	286	286	287	287	288	291	290	291	290	291	293	291	290	290	290	291	290	291	288	289	286	284	284	291	289	287	285	283	283	283	286	283	285	283	282	281	281	280	279	285	286	288	280	280	279	282	0	0	0	0	0	0	0
292	293	293	293	293	294	295	295	297	297	296	299	299	304	303	302	301	299	299	301	302	302	304	304	304	304	307	308	303	302	302	302	302	302	301	301	301	304	304	304	303	299	299	300	301	302	304	304	305	305	304	303	300	296	297	298	301	301	304	306	303	302	298	296	295	296	298	303	306	305	305	306	301	304	301	296	294	297	297	298	298	299	300	302	302	302	302	300	296	295	295	295	295	296	293	295	296	295	294	293	294	293	292	292	295	300	299	297	298	298	300	303	304	303	297	295	294	295	297	297	300	301	304	301	299	297	300	302	302	302	303	304	302	302	302	301	300	298	295	298	296	294	294	296	297	298	300	300	301	302	305	306	304	299	296	298	300	301	299	298	297	299	297	295	296	298	300	301	300	298	296	296	296	296	299	300	299	298	297	296	294	301	302	302	304	299	295	297	297	296	295	292	294	296	297	300	303	304	302	301	300	300	299	299	301	303	301	297	293	294	297	295	294	295	295	296	297	301	299	297	303	298	303	302	303	303	300	305	302	297	292	293	296	297	299	301	297	297	298	298	295	298	296	300	300	302	301	302	300	296	300	302	303	303	298	292	297	299	302	300	301	303	303	303	302	299	298	298	303	304	309	299	299	298	300	301	299	295	294	295	294	304	306	306	306	303	301	299	299	299	299	300	304	299	297	303	306	303	301	300	298	300	299	300	299	299	298	301	303	303	305	305	305	303	302	303	305	302	304	303	302	304	304	304	303	299	298	299	300	296	295	294	292	291	294	298	295	298	301	302	301	298	299	297	298	297	297	297	295	288	286	287	290	292	295	296	296	297	297	297	302	299	294	294	296	294	291	290	292	298	296	292	289	292	294	294	296	296	293	293	293	295	294	295	297	297	295	297	296	297	295	292	290	291	291	291	292	296	297	297	299	300	300	300	301	300	297	293	293	293	294	296	295	298	297	297	292	293	292	287	293	293	294	292	295	296	294	295	300	300	298	296	297	296	293	290	290	288	295	295	295	294	294	295	297	298	293	296	295	296	292	291	290	291	295	295	295	294	293	287	289	291	293	295	296	299	300	299	294	295	285	287	287	287	281	284	289	289	288	288	292	294	290	292	292	294	287	285	287	287	287	286	287	290	294	293	292	288	286	285	286	288	289	289	290	290	290	290	291	292	290	291	292	290	287	286	286	292	285	285	283	286	287	286	287	287	285	284	284	284	284	288	289	286	287	284	287	290	291	292	284	283	283	281	280	280	277	276	278	277	277	279	279	279	281	279	277	277	279	284	284	283	284	289	288	289	287	286	285	282	282	284	282	283	286	284	285	287	285	285	284	286	289	290	289	288	286	283	283	283	281	283	284	283	284	284	284	282	281	283	284	286	286	287	285	284	286	285	280	277	280	285	286	284	281	280	280	281	281	284	285	285	283	281	280	278	277	279	280	278	278	278	277	0	0	0	0	0	0	0
291	291	291	290	290	290	291	291	295	295	293	295	295	300	299	299	299	297	297	299	296	296	297	301	301	305	305	305	302	300	302	302	301	299	298	298	299	301	301	304	303	299	298	298	298	300	303	303	305	306	305	302	297	293	292	295	300	300	303	304	300	298	298	298	297	296	298	298	302	299	299	299	297	294	294	293	294	294	291	291	292	294	295	295	294	293	291	291	291	291	292	294	294	294	293	291	291	292	291	291	291	290	290	289	292	291	290	291	291	294	298	299	301	299	297	294	293	294	296	297	298	297	297	296	293	293	289	289	292	293	296	295	294	293	288	290	293	295	293	292	292	290	292	294	295	295	294	298	301	301	304	305	300	298	296	296	296	296	294	291	293	294	291	292	294	298	300	302	300	297	293	293	294	294	298	299	298	295	293	293	292	295	299	299	296	293	292	296	297	295	293	293	293	294	296	297	299	301	301	299	299	297	296	296	297	298	294	289	293	294	293	294	294	294	294	293	293	295	300	298	297	300	299	299	299	297	297	303	295	290	288	290	293	293	294	293	290	291	292	293	295	295	296	296	298	296	300	300	296	296	295	302	300	293	288	288	290	294	297	297	301	302	303	302	303	304	304	299	299	297	297	297	295	298	297	296	294	293	291	293	292	292	294	298	304	305	303	299	299	295	296	296	301	301	299	298	297	296	297	297	298	297	296	294	296	296	297	301	300	301	300	303	301	298	297	296	296	301	299	298	300	300	299	299	297	292	291	295	300	296	295	293	293	291	291	292	293	295	296	298	297	294	292	291	289	290	293	294	294	291	290	289	290	292	293	294	294	294	295	295	294	293	294	292	293	290	289	289	289	293	292	290	288	286	289	295	295	289	290	290	290	290	291	290	294	296	296	290	289	288	291	288	288	289	292	290	289	288	292	295	297	295	295	295	298	297	292	291	292	293	291	293	295	292	294	294	291	285	286	288	289	287	292	293	294	287	287	293	295	298	297	295	296	293	290	289	287	287	289	289	287	286	289	289	291	291	290	291	295	292	292	290	289	290	291	290	295	294	293	290	289	287	285	284	286	289	286	288	290	285	285	284	287	287	285	289	287	286	283	285	280	278	280	281	282	285	288	290	290	289	289	286	288	292	287	287	286	284	281	280	282	285	287	287	287	287	287	291	292	292	290	290	290	290	284	283	283	287	283	280	281	283	285	289	287	282	281	286	283	283	283	283	284	284	281	282	283	280	280	283	282	279	276	275	275	278	278	278	277	275	275	275	276	276	276	276	275	274	277	278	283	283	282	281	284	283	283	285	285	281	279	277	275	275	279	281	284	285	283	281	280	281	283	285	285	281	280	280	280	280	278	279	281	282	281	280	281	281	281	281	281	281	281	282	282	282	283	281	275	273	275	279	283	281	280	280	277	277	278	279	281	280	280	280	281	280	279	281	281	281	277	278	273	0	0	0	0	0	0	0
286	287	287	288	287	287	290	290	291	293	291	292	295	295	294	295	295	293	293	290	289	291	294	297	297	300	302	298	298	293	298	298	298	298	296	296	298	300	300	300	301	291	293	292	290	292	294	294	296	297	300	299	293	290	291	293	292	292	293	296	296	296	296	293	291	289	289	295	295	293	295	287	290	290	293	292	291	290	290	290	290	292	291	291	291	289	286	286	287	287	289	291	292	289	289	289	289	288	288	284	285	285	286	288	288	289	289	291	295	295	293	296	293	295	295	293	291	294	295	295	293	288	289	292	293	294	288	289	291	290	288	289	290	288	288	288	290	291	291	290	287	288	288	291	293	293	293	294	295	298	297	296	298	297	295	296	296	296	294	291	293	293	290	290	291	295	295	289	292	296	293	292	292	292	294	298	298	293	290	289	289	291	290	297	295	293	293	295	297	293	294	294	293	293	293	293	294	293	291	292	299	291	288	286	287	287	286	288	294	292	292	293	291	289	289	290	290	293	299	298	289	294	294	297	296	295	296	299	290	290	286	288	291	291	292	291	290	294	296	293	293	294	296	295	295	295	296	291	289	292	290	293	293	290	285	287	289	289	288	296	294	295	299	296	302	301	297	297	298	297	294	294	294	294	294	294	294	293	292	292	290	290	292	298	299	304	302	300	295	294	288	298	300	300	299	296	295	295	296	296	296	296	292	292	293	294	296	298	296	297	300	294	297	295	294	291	290	288	289	292	293	295	297	295	291	288	289	289	290	291	292	293	292	288	291	295	294	294	295	294	294	291	289	289	288	288	291	292	291	292	290	289	290	290	293	294	291	291	294	294	293	292	292	288	286	288	288	288	289	289	289	287	286	284	285	287	287	290	290	288	287	288	289	289	292	293	293	287	286	285	286	286	286	287	291	291	289	288	288	287	291	292	292	292	292	293	291	291	292	292	287	288	289	292	293	287	283	283	285	288	289	287	290	289	290	285	285	285	286	288	287	290	290	290	289	287	287	287	286	286	284	284	284	285	286	286	287	288	292	289	291	286	287	287	288	289	293	294	293	290	288	287	285	284	282	282	281	283	285	282	281	284	286	286	287	286	285	284	282	279	277	272	270	277	281	282	284	286	292	293	293	290	287	285	284	285	284	284	281	279	277	279	282	281	281	280	286	287	291	287	286	283	286	288	283	281	281	280	279	278	278	280	283	285	283	275	278	281	279	278	277	277	281	279	280	280	278	277	276	276	276	277	276	275	274	277	277	278	276	275	275	275	276	274	274	276	275	274	277	277	281	281	281	280	282	281	280	282	280	277	276	278	275	274	277	280	284	284	281	279	277	276	278	280	278	278	278	278	275	275	276	277	278	279	275	277	278	279	280	280	279	278	279	278	273	272	277	277	274	272	272	273	275	279	277	277	277	276	277	279	280	279	279	278	280	279	279	276	276	276	273	275	274	0	0	0	0	0	0	0
286	285	285	285	286	285	286	286	291	287	288	288	289	289	290	289	289	281	284	284	288	290	290	291	290	290	292	293	288	289	291	291	292	291	293	294	298	298	298	298	294	290	288	288	291	291	290	292	292	297	297	295	291	288	286	286	289	290	290	291	291	290	291	291	288	284	283	284	283	282	281	281	281	285	288	292	289	287	287	288	289	289	288	287	287	285	284	284	286	287	288	286	286	286	286	286	287	288	286	284	283	283	283	285	286	288	288	291	289	289	288	288	290	290	291	290	290	292	292	293	290	289	288	289	289	292	287	287	289	287	285	283	286	288	288	286	288	290	290	287	285	286	287	288	289	293	292	290	292	292	291	292	294	294	290	293	294	293	293	290	290	289	289	288	289	286	286	287	288	290	291	292	291	290	292	290	287	287	288	291	291	291	291	292	291	291	292	293	291	287	291	293	292	291	290	291	289	287	288	291	293	287	286	286	285	286	286	293	294	293	292	292	291	289	287	284	285	291	295	296	289	290	294	296	294	296	297	296	291	289	288	285	290	289	290	290	292	290	289	291	290	294	294	292	292	291	292	288	286	283	286	289	288	286	282	282	282	286	287	291	287	287	288	291	292	292	292	294	296	296	291	291	288	288	290	295	296	296	296	294	292	288	292	297	298	299	296	294	293	285	288	289	295	298	300	291	291	292	294	294	293	287	287	288	292	293	293	296	292	283	288	291	291	292	291	289	287	288	288	290	292	292	291	291	286	283	286	287	289	290	292	293	291	290	291	290	289	289	288	293	288	289	287	287	286	284	287	290	292	289	291	289	283	284	288	288	283	285	288	292	292	291	288	286	284	285	287	287	286	286	288	286	285	283	284	285	286	287	288	286	286	286	286	286	285	289	290	285	284	285	284	286	284	285	288	288	288	288	288	288	287	289	283	284	286	290	288	283	287	289	288	287	288	287	289	286	283	284	285	288	290	290	287	286	285	284	284	282	282	281	283	286	284	283	282	282	282	284	282	280	280	284	282	278	280	285	285	287	283	285	286	289	288	287	284	284	285	283	283	280	288	283	285	285	281	279	279	281	281	280	278	276	270	280	284	284	284	283	282	277	276	272	275	277	279	280	280	283	282	281	283	282	281	281	283	283	283	283	282	279	277	279	279	278	277	280	280	281	285	286	284	279	282	284	280	279	279	278	279	278	272	277	274	274	274	270	274	276	274	276	278	280	278	277	276	276	275	275	274	274	273	274	276	275	276	277	278	276	273	273	275	276	273	272	274	276	278	279	277	277	276	274	277	279	279	277	276	275	275	276	276	274	274	273	268	269	272	273	274	274	275	274	275	275	275	275	276	274	272	272	272	272	276	274	274	275	276	277	279	278	277	276	276	274	274	271	270	270	270	269	270	270	273	275	276	276	277	277	277	279	280	279	278	276	276	277	276	274	274	273	271	271	271	0	0	0	0	0	0	0
286	284	283	283	282	283	284	282	282	282	284	283	284	284	284	285	282	278	280	280	285	285	284	284	287	287	289	288	286	287	288	289	289	290	292	294	296	296	295	295	290	286	287	289	288	287	288	290	290	292	293	287	284	283	283	284	286	287	287	286	287	288	287	288	286	282	280	280	279	278	278	279	279	282	284	284	285	284	285	286	288	288	287	285	283	283	283	286	286	286	286	284	282	283	282	285	285	286	286	285	282	283	281	281	281	284	285	285	287	288	287	288	290	290	285	284	285	288	290	290	288	287	287	288	288	287	286	286	282	281	281	280	284	287	289	286	286	289	288	285	281	279	281	281	281	284	288	288	288	288	289	290	290	287	288	290	291	290	288	290	290	289	284	281	279	281	283	285	288	289	289	286	287	288	290	284	285	287	287	287	291	288	288	288	288	289	289	289	289	286	289	284	283	289	288	280	284	282	283	290	291	286	286	285	284	284	285	286	292	292	290	288	284	280	279	278	281	279	280	286	284	283	288	294	294	295	295	294	286	286	287	288	287	290	289	288	286	284	290	290	289	291	291	289	288	289	291	290	285	283	285	286	284	284	284	281	281	278	277	280	283	286	286	287	287	289	290	288	288	287	288	287	287	287	286	289	292	293	291	292	290	288	282	282	285	285	286	286	287	289	284	284	287	294	292	290	289	290	290	289	288	286	286	287	290	290	293	293	290	287	288	290	290	287	289	288	287	287	287	289	290	291	290	282	283	281	284	285	286	287	288	290	290	288	287	288	287	285	285	288	286	287	285	285	284	283	284	285	289	288	288	286	282	283	285	285	283	282	285	287	288	286	284	283	284	285	285	286	285	285	285	287	284	285	285	284	282	282	282	282	283	283	284	281	281	285	285	283	283	282	285	284	283	282	282	283	287	286	287	287	286	283	281	282	281	279	281	285	287	288	286	285	285	286	286	284	284	284	285	287	290	290	287	285	284	283	282	281	279	280	283	282	282	282	280	280	277	276	277	278	278	276	278	277	279	282	283	284	281	282	282	285	287	286	279	278	278	276	277	277	276	276	273	275	277	275	273	272	273	273	270	268	274	271	274	281	280	279	282	279	278	276	278	279	281	280	279	280	280	278	279	279	276	276	277	277	277	279	280	280	277	276	276	276	278	279	274	276	279	278	275	271	271	275	277	272	271	272	268	269	271	272	270	269	267	271	273	273	274	273	277	277	277	276	275	272	273	273	269	270	271	272	270	268	274	276	274	272	271	269	270	274	270	271	273	277	279	279	278	276	273	268	268	274	277	277	276	275	274	270	270	273	276	275	272	274	266	268	273	273	274	273	273	271	271	271	270	268	270	268	270	272	270	274	272	271	273	274	275	272	271	270	273	273	268	267	266	267	267	267	268	269	270	272	272	275	277	276	272	271	270	269	269	277	277	276	275	273	273	271	270	269	268	0	0	0	0	0	0	0
281	281	279	279	278	279	281	278	278	278	280	280	282	282	282	279	275	278	277	277	278	279	279	280	282	282	288	287	285	286	288	289	289	289	289	292	292	290	291	290	283	284	285	284	284	284	286	287	287	288	285	280	281	281	282	282	282	281	283	283	284	284	281	279	279	278	278	278	278	277	277	279	279	280	280	279	279	280	286	286	284	284	283	283	281	281	282	284	286	286	284	281	280	278	280	284	284	286	286	285	282	279	279	279	279	279	281	283	285	286	286	285	285	286	287	286	284	283	281	277	283	286	286	284	284	282	282	281	279	277	277	277	279	279	289	289	284	281	280	281	280	276	274	276	281	281	283	283	281	279	280	282	281	284	284	286	289	289	289	288	289	285	281	278	278	280	282	284	285	286	282	283	283	286	286	281	283	285	283	283	285	286	285	282	282	283	285	286	285	286	283	281	280	278	278	279	283	281	281	281	283	285	285	283	282	282	282	284	286	286	282	282	287	284	285	284	279	278	277	280	290	286	292	281	284	289	292	291	286	285	281	287	287	287	285	283	283	281	277	281	283	284	286	286	285	286	290	288	283	282	284	284	280	279	281	280	281	276	275	278	282	284	285	285	285	284	281	277	280	282	283	283	286	285	284	283	283	283	290	289	288	283	280	281	284	285	285	286	285	285	284	286	285	284	285	287	287	287	287	291	290	281	283	280	287	287	290	291	288	288	287	288	284	282	282	283	283	283	287	287	288	289	282	282	281	280	283	284	285	286	288	288	288	287	287	286	286	282	282	286	285	285	285	282	282	282	282	283	285	284	282	282	278	278	281	283	282	280	284	287	287	284	282	281	281	283	284	282	285	284	284	285	286	284	283	282	279	279	279	280	280	281	281	281	279	282	285	282	280	281	282	282	282	280	280	285	286	283	282	283	278	277	276	276	274	275	275	281	282	281	272	272	277	278	277	277	277	281	284	284	283	278	276	277	280	285	283	281	278	281	282	282	281	282	280	278	276	275	275	277	277	273	273	273	274	283	284	286	285	284	279	279	280	276	276	277	280	278	278	278	278	279	276	276	277	276	273	271	278	273	266	267	270	273	273	279	277	275	275	273	274	276	277	281	281	278	278	277	275	273	275	277	275	270	272	271	270	272	272	273	273	271	270	270	270	271	271	270	273	271	273	272	266	266	266	267	272	270	274	274	272	271	270	268	268	267	273	273	273	274	273	273	273	275	273	270	271	267	268	269	271	271	271	269	273	273	267	263	266	267	268	272	270	270	268	268	268	267	267	275	271	264	263	265	262	266	266	266	266	268	269	271	271	270	273	269	272	268	268	264	271	271	270	265	264	264	264	265	265	265	267	271	267	273	271	268	266	268	272	273	272	269	269	267	265	266	266	266	265	266	265	264	260	259	259	260	260	262	265	266	265	263	261	271	271	271	275	272	272	270	270	268	267	0	0	0	0	0	0	0
276	278	276	276	276	277	278	276	276	275	277	283	281	279	279	276	275	275	274	274	275	276	276	277	280	283	283	286	285	284	287	289	289	287	287	285	281	281	281	283	278	278	279	280	282	282	282	283	281	281	275	276	278	280	281	280	280	279	278	278	277	276	273	276	277	276	276	276	277	277	277	277	277	277	278	278	276	274	279	278	277	277	277	278	278	278	276	277	277	279	279	280	279	277	277	281	280	280	281	283	281	279	277	273	275	276	280	281	283	283	284	284	280	281	283	285	281	282	280	275	276	277	283	285	280	279	276	275	276	275	276	276	277	278	279	276	276	276	277	279	279	275	275	279	281	283	284	283	279	280	280	279	280	280	280	282	278	277	276	277	285	284	281	277	277	277	279	282	283	281	280	280	281	281	282	281	278	280	279	279	280	280	281	279	278	281	281	282	281	281	281	279	278	280	281	281	280	278	280	278	280	283	281	282	282	281	282	283	284	284	284	280	288	288	289	281	276	277	279	281	281	279	277	274	279	280	285	281	281	281	279	284	278	280	279	279	278	276	277	281	281	285	286	285	284	283	283	284	285	285	283	281	280	280	278	278	274	274	277	277	280	281	283	283	284	283	281	280	275	277	276	275	278	281	282	284	280	281	283	283	279	280	281	283	283	285	285	284	283	281	279	277	277	279	282	282	284	280	286	277	281	284	277	282	276	276	280	284	286	287	283	286	280	280	280	281	284	282	282	281	287	281	281	282	279	280	281	282	284	285	287	288	287	287	286	277	275	273	271	283	284	284	284	281	280	280	280	281	279	280	278	278	278	278	281	282	278	277	280	280	280	279	277	277	278	279	280	280	279	281	281	283	286	284	282	279	278	277	276	275	277	279	280	280	279	278	279	278	279	280	281	282	281	279	278	277	273	278	279	277	275	275	276	275	280	281	282	281	280	279	275	269	270	273	271	271	271	276	277	274	274	275	274	275	279	281	281	276	274	280	281	280	280	281	281	279	276	276	276	274	274	275	269	269	268	275	280	281	282	281	277	275	272	273	273	278	278	277	275	277	278	279	281	276	268	267	270	272	273	277	273	273	270	272	272	269	269	273	273	274	274	274	276	278	279	278	275	274	273	270	270	270	273	271	272	270	270	272	271	270	273	271	270	269	270	270	271	269	270	275	274	272	266	266	265	263	266	269	274	272	272	271	266	265	266	267	267	267	267	271	270	272	273	272	274	273	271	264	264	266	271	272	268	267	268	268	267	269	262	264	270	268	268	268	269	267	266	265	271	276	266	263	261	259	261	264	263	265	266	267	270	271	268	267	264	265	263	262	265	264	267	266	266	265	265	263	261	262	262	262	264	264	271	269	269	265	267	268	269	268	265	262	260	260	262	263	266	266	265	263	262	261	259	259	258	259	259	259	265	266	265	263	261	261	260	260	266	266	268	267	265	265	265	0	0	0	0	0	0	0
271	274	274	274	272	274	274	274	276	276	279	286	281	278	278	276	274	274	273	273	273	273	274	276	278	281	281	279	277	277	278	277	275	275	275	277	279	279	276	278	274	273	274	277	279	279	277	277	277	277	272	273	278	280	281	281	279	277	276	276	275	275	272	275	276	276	277	276	278	277	277	276	277	277	278	277	275	275	274	274	274	276	277	276	276	275	276	276	275	273	275	277	277	277	280	275	273	275	275	278	281	277	275	273	275	276	274	275	279	281	281	278	278	276	281	284	276	276	275	275	276	278	279	278	277	275	274	273	271	269	270	269	270	275	275	275	271	273	270	274	275	277	278	278	279	279	280	279	277	277	278	277	278	275	277	275	276	274	275	275	277	272	269	267	269	274	279	281	282	281	280	280	280	277	277	277	277	276	278	277	277	278	278	277	277	277	278	277	277	277	274	274	275	278	279	280	281	276	277	276	273	274	279	279	281	282	283	283	283	286	284	281	281	287	284	276	275	275	277	279	278	277	275	273	275	273	272	276	281	280	276	275	276	277	278	277	277	274	275	277	271	283	281	279	277	274	274	278	280	282	283	281	277	276	275	272	273	275	276	277	279	278	281	281	282	280	280	278	276	271	272	271	277	279	282	280	278	273	276	279	277	279	281	282	283	283	283	283	281	279	281	281	278	278	282	283	282	277	275	276	280	278	274	273	269	270	276	274	277	275	278	278	276	276	278	279	282	283	283	281	276	277	279	279	280	274	273	282	285	286	289	287	284	281	284	283	282	280	280	279	281	279	276	274	273	274	275	276	277	277	277	275	276	277	279	278	278	276	273	276	275	275	274	273	275	277	277	277	277	273	279	281	280	276	275	277	273	273	275	274	274	276	278	279	276	275	273	276	277	279	279	280	280	279	276	272	271	274	274	273	274	276	276	275	273	275	276	276	277	276	274	273	274	271	271	270	268	269	272	272	270	275	275	274	274	275	275	273	272	276	274	276	275	278	280	280	275	272	272	272	271	269	270	270	270	272	272	277	278	278	276	271	271	274	275	273	275	273	273	274	274	275	279	274	269	268	272	271	276	273	274	273	273	271	270	270	265	265	267	270	270	272	274	275	274	270	271	271	271	270	269	267	266	266	271	270	270	270	268	268	268	271	272	272	273	271	268	269	270	271	270	271	270	267	264	263	264	263	267	269	272	266	264	265	265	266	266	267	266	267	269	269	269	269	267	265	264	262	261	264	265	269	273	268	267	261	267	263	264	263	263	265	264	269	269	267	265	264	261	264	260	261	259	258	259	264	264	264	264	268	264	263	264	263	268	262	261	262	261	264	263	264	264	263	263	262	262	264	262	263	264	267	267	268	262	263	266	267	267	265	263	263	262	264	264	262	263	263	262	260	260	259	256	256	256	257	257	260	261	268	268	265	260	258	260	258	258	258	259	261	265	264	263	0	0	0	0	0	0	0
273	275	272	271	271	273	274	275	279	279	285	285	284	276	276	272	273	273	272	273	273	273	272	275	275	274	274	275	275	273	275	273	271	271	274	274	277	277	276	274	270	270	269	273	275	276	276	275	272	272	267	269	272	278	280	279	274	273	274	278	278	276	274	272	272	275	278	277	276	276	276	276	275	275	277	276	275	272	271	272	274	276	277	272	274	274	276	275	273	272	275	273	275	277	273	271	271	272	273	273	274	271	269	274	274	276	276	276	277	279	277	277	272	267	268	271	273	273	275	274	276	277	279	275	272	271	272	273	272	268	267	266	266	267	269	269	270	272	274	275	274	270	275	275	276	275	274	272	268	273	273	274	270	269	273	273	272	272	273	275	271	268	268	268	268	271	273	273	273	273	273	279	274	275	276	277	277	277	273	273	276	276	275	276	276	275	277	278	276	277	276	276	278	278	279	278	277	277	277	275	275	274	275	276	279	282	282	283	281	283	284	279	280	285	279	276	274	275	275	274	274	274	273	273	274	273	272	270	269	277	277	276	276	277	277	277	276	274	274	281	282	274	271	266	271	269	271	276	278	279	282	278	276	270	270	271	273	273	275	277	277	279	279	279	277	277	278	278	273	273	270	271	271	276	277	277	277	274	272	270	273	275	279	278	276	276	279	280	281	280	281	279	281	280	282	283	282	276	273	274	274	274	273	273	272	272	273	276	273	273	272	275	274	273	275	278	281	282	282	276	279	273	271	272	271	272	272	275	283	282	282	279	277	279	281	282	281	275	273	272	275	273	272	271	271	273	275	276	276	276	273	274	275	275	274	275	274	274	274	271	273	273	274	273	274	274	274	274	275	273	274	273	271	274	272	271	270	270	274	274	274	273	275	276	276	270	270	272	272	275	275	268	272	272	274	272	270	268	268	270	275	274	272	273	272	269	273	275	275	275	274	273	272	272	271	270	268	268	270	269	273	271	274	272	271	271	272	270	269	270	271	271	274	276	271	270	268	267	269	270	268	267	270	271	272	271	271	270	274	271	270	270	270	268	271	266	265	265	266	271	271	269	270	270	269	273	272	272	272	276	270	270	269	268	270	270	265	265	266	267	268	270	272	269	268	271	270	270	270	267	265	264	266	268	267	270	268	269	267	265	262	269	270	272	270	266	266	266	270	270	270	270	271	268	264	262	261	262	265	267	271	265	263	263	265	266	265	267	269	270	271	267	266	263	264	261	261	259	258	258	259	262	264	265	262	259	261	262	257	258	262	262	262	262	262	257	258	259	262	261	260	260	259	256	255	257	261	262	264	259	257	262	259	260	262	269	261	260	260	261	263	262	261	261	260	261	260	263	263	260	262	263	261	259	261	263	260	258	260	261	263	264	264	267	260	261	258	257	258	258	258	257	257	259	258	257	256	255	258	259	264	261	255	254	256	257	257	256	256	257	256	258	261	0	0	0	0	0	0	0
