364	363	358	358	353	351	351	352	352	354	357	360	362	362	364	363	366	367	369	369	367	362	359	359	359	359	359	359	364	365	366	367	368	368	370	368	363	363	363	365	365	365	365	363	363	362	366	366	359	357	357	357	358	358	361	364	366	364	361	360	360	363	365	365	364	367	367	366	361	365	369	368	363	360	361	361	364	366	364	364	361	363	363	364	362	363	365	367	369	370	370	367	367	371	373	373	369	368	369	370	369	367	366	368	371	373	374	373	370	371	371	370	361	359	357	358	360	361	360	363	365	361	358	354	351	350	351	356	357	360	364	362	354	350	348	346	349	351	356	357	360	361	360	359	359	358	359	356	358	358	361	359	357	361	361	358	354	356	358	359	361	362	360	358	356	357	355	356	358	364	361	352	350	352	352	354	357	359	356	353	350	350	349	346	346	348	351	351	351	352	355	356	353	352	352	354	353	353	353	353	350	350	350	347	348	348	344	343	341	344	351	351	353	352	347	345	356	349	350	351	349	353	350	349	349	349	353	352	349	348	349	346	349	350	355	349	349	348	347	342	345	347	346	346	342	341	346	351	353	348	344	342	341	342	341	340	341	341	341	336	337	338	338	337	342	340	332	333	334	334	335	344	338	343	347	350	353	358	357	346	345	343	340	339	338	338	338	335	337	341	344	343	337	339	346	348	348	349	348	349	348	348	348	346	348	349	347	346	347	346	344	340	337	338	345	344	346	351	352	352	349	345	340	340	337	336	347	349	348	348	346	345	351	352	349	347	349	342	338	337	335	337	344	344	346	345	345	341	338	340	341	345	345	342	346	343	340	339	343	339	340	339	340	342	343	343	341	340	339	344	347	351	354	341	341	342	343	343	341	345	346	343	341	339	341	342	343	343	337	335	338	339	340	340	341	341	342	341	342	342	340	340	341	343	347	343	340	337	340	341	335	333	332	337	340	342	342	339	341	341	341	342	344	343	336	339	338	338	339	338	340	343	343	345	346	343	340	339	338	336	338	339	340	341	342	342	340	335	336	337	338	337	339	342	342	338	340	339	339	343	340	340	340	339	336	336	338	338	339	338	334	332	331	339	339	331	333	334	336	340	339	335	334	333	336	340	340	331	332	334	337	336	335	336	336	336	335	333	338	337	340	343	346	347	346	342	338	339	339	340	339	338	336	337	337	339	341	338	339	338	348	348	340	335	333	332	332	330	329	335	337	340	339	338	337	337	334	336	339	341	340	340	343	341	339	335	333	334	333	330	331	332	329	330	333	334	336	328	331	334	339	340	337	334	332	333	335	336	335	336	329	331	336	339	335	336	337	337	338	333	335	336	337	335	335	330	326	323	332	332	332	331	332	340	333	336	335	336	332	329	328	328	328	335	336	338	339	338	338	340	339	338	338	338	340	338	342	341	339	340	338	335	332	332	335	336	336	335	334	333	334	339	0	0	0	0	0	0	0	0
358	353	348	348	346	344	347	354	354	357	358	360	360	360	361	359	361	365	361	361	358	357	354	350	351	350	350	353	360	362	363	362	365	365	367	364	359	359	359	361	360	360	361	359	356	359	361	361	357	354	353	353	354	355	358	364	364	359	353	354	353	358	363	363	363	361	359	360	361	364	368	369	365	363	362	361	359	361	361	361	360	365	365	364	362	362	362	364	366	368	368	365	365	366	368	366	363	364	367	367	364	362	361	364	367	366	369	363	357	356	357	357	356	355	352	354	357	359	358	358	358	358	357	351	351	351	352	354	348	349	348	349	350	351	350	349	350	352	347	344	337	336	339	347	349	347	353	354	356	357	358	355	353	356	356	354	351	348	353	357	359	360	357	353	353	352	351	348	344	349	349	348	348	349	350	352	354	355	353	351	349	348	349	346	346	346	346	350	351	352	353	350	348	347	349	351	351	353	352	351	350	349	349	348	347	344	340	336	336	339	347	348	350	349	350	344	343	349	347	347	340	342	341	342	345	348	344	345	345	344	343	342	341	343	344	346	346	346	344	342	342	343	344	339	338	340	344	347	348	346	344	339	338	335	335	334	336	339	341	340	338	337	336	336	335	333	332	334	333	335	334	333	336	332	338	340	344	345	343	340	338	336	338	338	338	338	333	335	336	338	340	338	336	335	334	332	332	338	348	351	347	340	335	339	336	333	332	336	336	340	338	335	334	333	334	339	345	341	337	338	338	337	337	334	333	336	343	342	340	342	341	341	342	347	348	344	338	339	339	336	334	330	330	340	341	343	342	339	340	341	343	343	342	336	333	335	336	339	339	336	337	335	338	339	342	342	337	335	335	336	338	340	333	335	338	340	340	339	334	333	333	336	336	338	341	343	337	335	334	336	336	336	338	339	337	332	332	336	337	336	333	332	334	337	338	337	335	334	333	333	333	332	332	333	334	336	338	336	335	333	333	332	332	331	327	327	327	334	333	336	340	343	343	343	340	338	334	333	336	335	338	339	340	340	337	335	335	336	335	336	334	332	334	328	332	331	336	337	337	331	338	336	331	331	333	334	336	335	336	335	333	330	329	328	328	329	331	331	336	338	340	337	331	327	323	324	326	327	329	330	330	334	335	333	327	325	326	330	330	337	338	342	344	341	340	339	337	336	336	337	336	335	335	336	333	331	338	337	337	336	338	334	334	334	330	330	327	326	325	327	333	337	338	335	333	334	333	334	337	338	337	337	337	335	334	332	332	332	331	328	325	323	325	327	331	333	327	328	331	336	339	339	338	332	329	330	333	331	331	329	322	320	324	330	331	332	334	337	336	333	332	332	332	328	329	330	331	332	331	331	331	332	333	331	330	335	332	336	330	327	328	327	327	330	333	333	330	334	335	332	335	334	334	336	336	332	337	337	338	339	336	333	332	332	334	335	336	335	332	327	329	331	0	0	0	0	0	0	0	0
348	346	343	343	340	341	345	354	354	357	359	361	359	359	359	357	354	355	356	353	353	350	349	345	345	347	347	348	354	355	355	355	355	355	362	359	355	353	356	356	356	356	356	355	353	354	358	359	355	352	348	348	350	352	358	357	356	352	348	347	352	355	360	362	362	357	356	356	359	363	368	368	364	359	361	359	356	356	356	358	360	360	360	360	359	359	360	361	362	360	357	355	356	358	361	362	361	360	361	359	347	348	346	352	356	360	358	353	350	352	355	355	350	348	348	346	340	339	345	349	349	355	352	351	347	347	348	348	341	338	340	345	347	349	346	341	342	344	345	342	338	334	337	340	341	341	343	349	352	353	350	345	344	351	352	349	354	354	355	356	356	353	347	341	341	344	344	344	346	344	347	346	346	347	348	352	353	350	350	347	346	346	347	346	346	345	341	343	345	347	347	346	346	347	348	348	348	347	349	350	347	346	345	344	344	340	336	334	333	333	336	341	343	347	347	343	336	334	334	343	343	336	340	343	344	342	340	338	342	341	341	338	337	338	341	345	345	345	344	343	341	342	336	333	336	337	340	340	337	335	333	333	336	334	333	335	337	340	341	340	336	336	337	333	334	331	330	331	332	336	333	333	331	329	330	333	340	339	339	338	336	334	336	337	336	335	334	335	335	336	336	336	335	333	332	332	332	332	333	335	337	335	333	331	331	333	331	330	331	336	337	336	333	333	333	333	332	335	337	337	336	334	330	328	328	332	338	336	338	337	336	331	330	328	335	336	334	335	336	335	333	331	331	331	335	337	338	339	340	338	341	336	338	331	332	328	331	335	338	335	333	334	336	338	340	334	331	328	331	332	331	331	334	331	336	338	337	337	332	330	330	331	332	334	339	340	338	335	335	334	333	335	337	338	335	333	331	334	336	335	328	327	329	332	335	334	329	330	330	330	330	326	326	328	332	333	339	339	332	329	330	331	329	329	326	326	325	331	334	336	339	338	340	339	337	335	328	328	331	335	336	337	338	336	336	331	328	325	328	329	330	328	328	327	324	324	327	335	331	329	324	326	324	322	320	322	320	321	319	323	328	330	331	328	325	327	329	329	334	337	337	333	319	320	316	320	324	325	326	326	328	331	328	321	320	321	324	325	323	324	324	325	329	332	335	335	331	332	332	332	333	333	333	332	330	326	322	321	324	324	322	322	329	328	325	322	322	323	324	326	332	333	333	333	332	332	333	333	333	334	332	332	331	328	330	331	331	329	329	327	322	322	323	324	325	325	325	328	330	332	329	325	321	317	321	329	327	329	328	325	321	319	322	325	326	326	331	332	334	333	332	330	326	327	328	329	330	332	331	329	327	330	332	328	327	325	322	321	325	326	325	325	324	322	326	322	324	327	329	327	327	331	331	332	330	329	331	334	336	335	335	335	335	333	333	334	336	332	329	328	328	329	0	0	0	0	0	0	0	0
337	340	340	340	340	340	346	353	353	354	357	358	359	357	357	350	349	349	349	348	348	345	341	341	341	343	343	349	351	350	349	348	347	350	350	353	348	350	351	353	351	351	351	351	352	359	361	350	349	348	349	350	350	349	351	352	353	351	350	349	351	352	356	351	351	353	354	354	356	358	366	365	360	358	362	358	355	352	347	349	355	357	355	355	351	350	349	350	348	349	350	355	348	353	351	350	357	357	339	340	344	342	344	348	352	350	346	342	337	337	344	347	345	339	338	335	336	336	337	339	335	333	336	338	340	338	339	339	336	337	339	339	343	344	338	336	336	338	339	342	342	340	337	337	337	338	339	344	350	350	347	341	336	338	340	344	345	345	344	343	345	346	344	341	340	339	339	343	343	342	342	345	344	345	347	351	346	345	345	343	343	343	343	344	343	341	339	340	344	345	345	342	340	336	336	336	335	334	337	342	346	342	342	340	333	337	335	335	330	331	334	338	339	337	336	333	330	329	329	331	334	334	339	342	341	340	338	336	337	339	338	335	334	335	340	340	341	341	338	339	338	328	329	331	331	335	331	334	330	327	328	330	334	333	334	333	334	335	339	339	334	335	333	331	331	330	327	327	329	334	332	331	329	326	325	325	325	333	334	335	334	333	334	332	335	335	336	330	331	332	333	332	330	327	326	326	329	330	333	333	335	333	332	333	328	322	326	323	323	326	328	330	333	333	334	339	342	338	336	335	333	329	327	325	325	326	331	333	334	333	331	327	327	328	327	328	330	330	331	331	332	331	331	331	332	335	331	330	330	338	335	332	328	324	328	327	330	332	331	335	331	333	333	334	333	332	331	327	325	331	332	333	333	336	337	336	336	330	327	328	326	330	332	332	333	330	330	327	326	319	320	331	333	334	329	329	331	332	331	326	331	329	327	327	328	329	328	328	326	326	324	321	320	322	326	333	333	337	330	324	325	330	330	328	326	325	325	322	330	329	330	331	335	335	329	324	323	326	328	329	334	328	324	330	332	331	327	322	320	323	324	326	324	326	323	321	323	316	317	315	315	318	324	326	327	320	316	316	316	315	322	328	330	330	325	326	326	327	329	332	332	320	318	312	314	315	317	323	325	325	321	321	321	319	318	321	324	325	325	316	316	319	324	331	333	331	321	326	325	327	323	320	320	316	314	315	316	321	323	322	321	321	323	319	318	319	321	322	324	327	332	331	330	329	328	331	331	329	328	326	324	325	326	323	320	322	320	320	320	320	320	320	321	321	322	321	322	325	328	326	325	322	320	318	319	324	322	323	324	323	320	318	320	320	320	319	321	327	327	326	327	326	324	325	326	327	330	329	329	327	325	326	326	325	324	322	320	319	320	322	323	323	321	322	323	321	321	325	325	325	327	328	328	328	326	326	325	321	321	325	329	333	333	334	333	333	332	330	322	320	317	316	0	0	0	0	0	0	0	0
330	336	339	339	342	344	348	350	349	349	350	353	355	354	354	343	340	341	343	347	347	347	342	339	340	344	349	349	347	345	344	344	345	346	346	345	345	348	349	349	345	344	344	347	355	354	351	353	354	351	350	348	348	347	347	349	349	348	348	347	347	345	348	349	349	350	350	350	347	346	345	342	348	349	350	348	344	341	341	341	344	346	348	349	349	348	346	344	343	345	349	348	343	339	340	338	337	338	339	343	341	339	338	339	343	342	338	334	331	334	335	336	337	336	335	335	334	334	337	340	335	329	328	330	332	332	332	333	337	338	337	336	339	338	334	333	334	335	338	339	337	334	333	331	334	334	334	336	339	344	338	333	334	336	336	338	340	342	342	336	334	335	343	343	343	342	342	342	341	340	336	341	341	339	341	342	342	341	339	338	338	338	338	339	338	337	336	340	340	341	341	338	336	334	335	334	332	332	332	333	337	337	341	335	329	334	332	331	328	329	333	333	335	335	334	331	329	328	329	329	333	333	334	334	338	338	337	335	334	336	337	334	332	333	335	336	338	338	337	335	331	324	322	324	327	330	333	323	321	326	326	328	330	329	330	331	332	333	336	336	333	325	322	323	328	331	327	326	328	328	330	330	327	322	320	319	319	320	319	319	332	332	330	332	334	334	330	328	329	329	330	329	326	323	323	322	323	329	332	332	333	332	330	329	327	324	323	323	324	326	330	329	328	327	326	326	328	330	333	330	328	327	325	321	320	320	325	330	331	331	324	328	329	326	327	327	326	325	327	325	328	331	331	332	330	321	321	323	325	326	324	323	323	321	323	328	330	328	328	328	326	327	327	329	331	329	328	327	323	325	327	328	331	334	336	335	330	328	328	326	324	325	324	325	326	328	326	325	323	322	320	321	320	318	322	324	328	328	326	327	321	327	328	327	327	327	327	325	324	321	317	316	317	320	327	327	324	322	313	315	322	321	321	326	327	326	322	320	320	320	321	324	328	321	319	320	321	324	318	321	322	320	321	325	325	328	326	323	320	321	324	324	326	323	322	319	318	317	316	314	314	317	323	326	328	319	318	316	315	316	322	328	331	325	324	324	323	322	323	324	322	315	313	310	313	313	313	323	323	324	321	321	320	319	317	319	323	326	325	323	321	327	329	329	328	315	314	318	318	317	314	314	314	315	312	313	315	320	321	319	320	319	316	315	313	313	314	320	323	326	330	328	326	325	322	326	328	325	324	324	322	321	322	320	321	322	320	318	317	317	319	319	321	319	319	318	317	320	325	324	321	319	317	315	315	315	316	316	318	320	318	318	320	319	316	314	314	314	316	321	323	323	323	321	322	325	327	326	323	321	324	326	326	322	320	323	324	319	317	322	322	319	320	320	321	324	325	325	327	327	327	326	323	322	321	320	316	316	317	321	327	329	329	320	318	318	318	320	321	320	318	316	0	0	0	0	0	0	0	0
331	337	340	342	342	343	346	344	344	344	344	343	344	346	346	343	333	335	340	343	343	343	343	338	334	335	342	342	340	340	345	348	349	345	345	340	344	346	347	341	339	339	339	339	343	346	345	353	346	344	346	346	346	346	344	344	346	347	347	346	345	345	346	346	345	345	345	337	332	332	338	339	340	338	336	332	334	340	338	340	341	341	344	345	345	346	343	342	337	343	344	343	337	335	333	331	333	333	331	332	334	335	337	339	341	342	338	334	332	332	334	334	334	335	334	333	332	333	334	337	337	331	325	327	328	331	330	333	338	339	338	333	331	330	328	330	332	333	334	333	331	330	330	327	328	329	332	335	334	333	332	331	332	332	333	333	336	339	339	334	332	333	336	339	341	341	340	339	339	335	333	333	335	333	332	332	335	336	337	333	334	332	333	333	332	333	334	331	336	337	337	334	332	329	329	327	325	327	331	335	334	327	321	319	327	326	328	326	327	329	330	328	328	326	328	327	325	321	324	327	328	329	325	322	325	327	332	332	332	330	327	324	327	328	330	330	331	334	334	329	325	321	321	324	326	325	321	320	325	321	324	326	325	325	325	327	326	335	337	333	323	323	320	319	322	324	327	328	327	328	327	325	322	322	321	320	321	321	320	319	322	323	325	331	333	326	329	327	327	327	325	323	321	320	320	321	322	325	330	333	330	322	322	322	321	319	319	320	324	326	327	325	323	322	321	324	326	326	324	326	325	324	320	319	317	317	318	324	325	325	323	320	319	319	320	323	321	320	320	321	324	323	323	323	321	319	319	318	320	323	322	321	321	321	322	327	329	325	325	321	323	324	325	325	323	322	320	317	314	321	322	323	324	324	324	325	321	322	322	324	323	324	321	323	323	327	328	327	325	321	321	318	318	319	321	324	327	326	321	322	319	317	317	318	319	318	321	317	318	316	314	314	314	318	321	320	319	315	316	317	318	316	321	322	327	324	320	319	318	316	317	318	321	320	319	319	318	316	317	319	320	319	317	321	324	327	325	322	320	320	317	316	323	321	320	320	320	316	315	312	312	317	320	316	316	318	317	318	319	319	319	317	319	320	322	321	320	317	315	316	315	314	314	313	314	310	308	317	315	318	321	321	319	316	311	315	321	325	325	323	320	320	317	314	312	310	310	309	310	313	315	316	313	312	312	311	315	318	320	318	318	315	315	314	313	311	309	310	313	324	327	325	323	321	320	321	321	318	315	317	316	317	318	321	325	321	319	319	318	319	319	318	320	319	318	317	316	314	313	318	318	315	313	314	312	310	312	312	311	314	316	317	319	317	315	309	307	308	314	318	314	314	315	315	314	313	312	316	322	318	323	324	319	316	314	314	323	325	323	320	320	314	312	312	318	318	315	316	325	326	325	325	321	321	319	316	316	318	319	319	321	321	321	317	315	315	316	314	315	312	310	309	0	0	0	0	0	0	0	0
331	334	335	337	337	341	342	339	337	337	336	337	337	338	333	333	328	330	333	336	337	337	337	334	337	337	337	337	337	335	337	338	339	339	339	339	341	340	337	335	335	334	334	334	336	335	333	333	335	338	340	340	340	340	339	340	341	340	343	345	344	341	335	332	333	333	333	330	328	331	334	338	339	337	336	334	331	333	338	337	336	336	338	338	336	336	331	331	336	340	338	340	339	336	334	332	330	329	327	328	328	330	336	338	339	339	337	333	331	332	331	332	332	331	332	328	328	330	329	334	334	331	326	326	327	329	332	333	333	335	338	329	326	327	325	326	328	328	327	328	325	325	324	323	324	325	332	333	331	329	330	330	326	326	329	329	332	336	335	335	333	331	331	328	328	324	324	328	329	329	329	332	329	326	328	332	335	333	331	332	331	331	331	332	323	321	322	322	322	330	331	329	329	328	325	323	322	326	330	334	332	324	320	317	318	322	320	322	323	324	321	317	319	320	319	318	316	318	320	324	326	326	324	322	319	320	323	323	327	325	321	321	323	325	326	325	324	326	324	319	316	317	318	320	322	322	319	314	312	315	316	325	321	322	322	323	321	329	331	325	323	319	317	318	318	319	319	323	322	321	316	314	316	320	320	318	321	321	320	319	321	322	322	321	321	322	327	326	325	322	321	321	318	317	317	319	321	323	324	322	320	319	319	319	316	317	319	322	323	325	324	324	322	320	320	321	323	322	321	321	321	319	317	316	316	316	316	319	318	321	321	321	320	318	317	315	315	315	317	320	323	322	321	322	319	318	317	317	317	316	320	321	321	320	318	317	317	314	313	318	319	320	322	319	317	315	314	312	311	314	320	323	321	321	316	314	313	316	315	319	318	320	321	321	318	321	323	325	323	319	318	319	317	317	318	317	319	318	318	318	316	312	311	313	313	315	317	321	317	315	315	313	313	315	317	316	315	315	316	317	313	315	318	321	323	324	316	315	312	313	313	314	315	317	318	319	317	316	317	317	317	316	316	315	317	321	322	319	320	318	316	308	312	312	315	316	317	315	312	309	311	315	315	312	311	312	316	318	318	317	315	313	314	315	317	316	315	313	313	312	312	314	315	314	309	304	308	313	314	315	313	314	313	305	304	306	308	314	319	309	320	316	313	308	303	311	313	307	310	312	314	315	313	310	309	310	312	313	315	313	315	314	313	313	312	311	309	308	309	311	314	319	316	314	314	315	314	313	312	313	314	315	313	312	322	318	311	317	316	311	311	314	317	320	319	317	315	312	311	311	314	308	309	309	309	307	308	307	308	309	310	317	317	315	314	306	305	307	315	314	313	312	310	312	313	311	310	309	311	314	317	317	314	313	312	312	312	314	315	315	313	307	306	306	312	312	316	315	314	323	324	321	318	314	313	314	316	317	316	315	316	316	315	312	313	311	311	312	311	315	314	314	0	0	0	0	0	0	0	0
329	329	331	335	335	334	333	332	332	332	331	330	330	328	328	328	325	327	326	327	328	328	330	336	337	337	336	336	335	332	332	332	333	335	332	332	331	328	328	330	330	330	331	331	333	332	331	331	331	333	335	336	336	336	335	334	336	338	338	343	342	338	332	330	329	329	327	326	329	331	333	334	336	336	336	336	334	333	332	333	333	334	336	338	336	336	331	330	331	334	337	336	337	337	335	327	323	323	325	330	329	329	329	331	334	336	336	335	331	331	331	330	329	327	323	322	325	326	324	322	320	321	321	322	325	328	328	329	330	330	332	332	324	325	325	327	328	327	325	324	323	322	320	320	320	320	330	331	328	328	328	328	322	319	322	324	326	328	330	333	332	328	326	325	320	317	318	320	324	324	323	324	326	324	328	332	334	331	330	326	326	327	326	318	317	317	320	320	319	320	324	323	325	325	325	323	322	327	329	328	326	320	315	313	317	319	319	317	320	320	316	315	315	317	320	319	319	320	319	320	324	323	323	320	318	317	320	321	318	316	321	319	320	320	318	316	315	316	315	314	316	316	315	317	316	318	317	315	314	319	319	317	320	320	320	321	319	318	319	322	315	314	314	315	316	315	315	312	312	312	314	316	320	317	318	316	317	318	320	322	318	321	318	319	319	320	317	313	317	318	317	317	315	315	313	314	318	319	320	318	317	318	319	321	316	315	320	322	321	322	317	314	315	315	315	317	320	320	318	317	317	317	316	312	313	315	317	321	322	322	323	321	317	315	313	314	312	314	320	319	319	320	320	320	318	315	315	315	314	316	318	325	328	325	321	318	317	315	313	315	319	321	320	319	317	315	314	313	315	316	316	314	313	311	312	311	313	310	314	316	317	318	317	315	315	320	324	322	318	315	314	318	313	315	316	315	314	314	315	315	314	313	311	310	310	311	315	317	312	315	313	310	311	310	311	313	315	316	317	311	311	311	316	319	321	322	319	313	309	311	312	313	312	310	307	308	314	317	317	317	317	316	314	314	313	314	317	316	307	302	300	301	305	305	310	313	315	312	308	307	313	313	311	308	308	310	313	316	316	313	311	310	306	307	304	305	311	310	311	309	311	312	310	306	305	305	306	308	310	312	311	312	311	308	308	304	304	310	311	314	307	304	303	301	303	302	306	301	304	308	317	313	311	310	309	309	308	308	310	311	308	307	308	311	312	311	310	309	310	311	311	310	309	310	310	315	312	312	310	313	310	312	308	303	309	316	309	312	312	307	307	310	313	314	314	313	311	310	310	308	310	308	308	308	309	308	305	304	304	307	309	311	313	315	312	306	306	307	311	312	310	309	309	310	312	311	308	308	306	313	315	316	315	312	311	309	308	307	307	306	307	306	306	303	303	308	308	307	312	314	319	311	311	311	310	311	314	316	316	315	315	315	316	315	311	310	305	308	310	312	311	309	0	0	0	0	0	0	0	0
326	329	327	331	331	326	328	329	328	328	328	327	326	326	326	326	324	322	321	322	321	321	327	333	334	332	331	329	329	331	329	328	323	326	329	329	331	324	325	325	325	327	329	329	328	328	329	329	329	331	331	331	331	331	331	330	334	334	337	336	336	333	335	334	333	332	332	328	327	323	324	325	327	333	334	333	331	329	326	328	329	330	332	335	333	332	320	319	320	325	328	330	328	328	327	324	319	318	320	324	325	329	327	329	328	328	325	321	322	326	329	330	327	322	321	318	322	323	320	319	319	318	319	320	322	320	321	324	326	329	330	328	323	318	325	326	327	325	323	322	321	320	316	318	317	318	323	323	325	325	326	324	322	319	318	318	320	321	324	328	330	327	326	323	320	314	317	320	322	324	323	323	322	319	320	317	318	315	317	319	324	321	318	315	315	317	318	319	317	318	320	321	322	323	322	319	316	315	316	316	316	317	317	313	312	317	313	314	315	317	316	313	315	316	316	317	318	313	313	318	319	319	318	317	316	316	319	308	307	307	307	307	307	311	313	315	316	313	316	316	315	314	312	307	312	316	316	315	320	319	318	315	316	318	317	314	315	315	316	318	318	315	313	311	311	311	310	313	310	311	312	315	322	316	315	312	312	317	318	319	321	321	313	310	309	310	308	309	308	310	313	314	315	312	312	312	311	311	312	313	315	315	314	312	313	315	314	313	318	318	314	312	312	313	314	315	318	316	316	314	308	307	307	309	311	312	314	315	317	320	321	317	312	307	307	309	309	313	320	318	316	312	318	318	314	316	313	313	314	315	317	319	324	324	319	316	314	313	311	312	314	313	311	313	312	310	313	312	315	312	309	308	308	309	313	310	311	311	311	314	314	314	312	311	307	321	321	319	314	310	305	308	309	310	313	312	311	313	313	312	312	310	308	306	307	309	311	308	310	309	308	309	308	307	306	307	310	312	310	309	309	309	309	310	319	319	316	313	309	309	309	311	309	308	307	304	307	309	309	311	311	311	310	311	309	307	305	299	297	297	298	300	304	305	306	313	311	308	309	308	310	308	310	308	308	306	308	307	304	305	306	306	303	302	304	304	304	303	305	307	310	310	309	305	304	306	308	309	315	312	306	303	304	305	308	304	304	304	309	310	309	308	301	299	301	300	305	301	304	298	297	301	301	299	303	305	305	303	304	306	305	304	304	309	310	310	309	309	309	310	310	308	307	306	308	316	310	309	310	310	309	305	305	302	304	306	308	307	308	305	305	308	308	305	307	307	308	307	306	310	310	308	308	307	309	307	302	302	302	305	308	311	313	313	312	306	302	303	307	309	308	308	306	305	309	309	306	305	309	310	313	314	315	314	309	310	309	307	307	304	307	307	304	302	299	299	304	304	301	309	308	306	307	307	306	308	308	314	314	313	313	315	317	312	307	305	305	306	309	309	311	309	0	0	0	0	0	0	0	0
321	323	322	324	324	324	328	329	331	328	328	326	324	325	325	325	322	323	321	322	321	321	324	328	329	328	326	325	325	322	323	318	321	323	326	326	325	324	322	321	321	323	326	328	322	321	323	324	323	324	326	327	322	322	322	326	329	323	325	326	328	332	328	327	324	327	327	325	317	321	324	325	326	329	329	329	329	328	326	325	326	328	325	320	320	318	318	318	319	320	322	323	328	326	323	319	317	317	318	315	317	318	318	322	324	320	316	316	318	322	325	327	323	320	317	320	322	323	323	319	316	316	316	318	319	319	322	315	316	320	327	322	318	317	324	326	326	325	323	322	321	321	315	312	312	312	314	313	321	323	321	318	315	318	318	317	315	316	318	324	325	325	324	322	319	315	319	324	325	327	324	324	312	312	314	314	310	308	307	305	305	318	315	315	315	316	317	318	315	312	317	319	320	321	322	317	315	315	315	315	316	315	315	314	312	314	310	312	314	315	314	314	315	315	316	311	310	311	309	312	314	314	313	315	313	306	307	305	303	304	308	307	305	304	305	310	316	318	317	317	316	310	300	296	305	316	315	315	315	312	313	309	314	317	316	313	310	311	316	307	313	311	309	308	309	309	311	314	310	310	311	305	316	316	311	309	308	312	316	316	311	309	309	308	307	307	309	308	306	306	305	308	310	312	312	311	308	306	310	311	311	311	313	312	313	314	314	310	310	312	313	312	310	311	309	310	314	314	313	309	307	306	308	312	312	310	310	312	314	316	316	313	310	306	304	307	308	308	309	310	310	308	307	309	304	307	309	312	310	309	307	302	309	311	314	314	311	309	310	307	310	310	309	309	307	307	309	311	309	311	308	306	306	310	311	311	310	310	309	311	311	308	305	304	307	316	312	310	307	306	300	307	308	306	308	307	307	310	309	306	303	304	303	303	303	306	303	306	306	308	306	306	302	302	303	303	304	307	307	307	307	306	305	307	308	307	309	310	308	308	309	306	304	305	305	303	303	307	307	306	308	309	309	308	301	302	298	298	296	295	295	297	304	306	307	310	306	305	304	307	307	307	304	303	302	302	302	300	301	302	305	304	302	303	305	303	298	297	301	303	303	303	301	302	300	303	307	311	305	303	305	306	305	304	300	294	293	297	304	308	309	309	308	306	295	295	294	296	296	296	300	300	301	299	300	301	301	300	300	302	300	301	302	307	307	304	306	304	304	306	306	302	299	299	301	300	301	303	304	309	307	304	302	302	301	301	303	302	303	304	298	298	300	302	301	301	300	300	300	305	309	307	307	304	305	305	299	299	302	304	305	309	309	309	310	302	301	300	303	304	305	306	305	304	304	302	302	304	305	307	306	305	304	306	307	308	307	307	304	301	300	300	301	300	299	298	297	298	301	302	300	301	303	306	305	305	305	305	305	301	301	303	304	303	303	300	301	303	299	297	298	300	0	0	0	0	0	0	0	0
318	318	317	318	322	322	326	328	325	320	320	320	321	324	323	323	322	323	323	322	323	322	322	321	323	321	320	319	319	319	316	315	318	321	322	322	323	323	320	318	317	320	323	320	320	319	319	319	320	320	322	320	320	321	321	320	321	317	313	315	322	323	321	314	314	314	314	315	317	321	324	323	322	323	322	321	319	320	321	321	320	319	319	320	320	318	316	316	318	318	318	318	325	324	319	315	315	315	314	313	311	316	317	316	317	314	314	315	316	317	318	318	319	318	317	318	319	321	321	318	314	312	312	313	316	319	321	318	312	313	313	315	316	314	313	316	317	319	320	317	311	308	308	312	314	312	310	308	312	317	316	315	314	311	316	316	313	314	314	317	316	309	305	307	309	314	313	314	316	317	317	316	311	305	307	308	309	306	302	301	302	302	308	308	316	317	316	315	313	310	310	312	315	319	315	313	315	315	316	316	316	315	313	312	311	311	308	311	311	313	314	311	310	309	312	311	308	307	308	307	310	311	306	304	302	304	304	305	305	304	305	306	304	302	301	304	305	310	316	315	308	297	300	299	307	314	313	312	308	307	308	308	309	309	312	311	307	307	306	305	307	308	307	305	305	306	306	304	308	307	303	306	312	313	306	305	305	307	310	307	309	306	305	305	306	306	307	308	305	304	303	305	306	313	311	311	314	313	308	308	305	310	311	310	310	312	312	309	307	309	311	310	310	309	308	308	310	310	309	308	306	307	310	311	310	309	307	305	309	313	308	305	303	300	304	305	305	304	305	305	304	303	301	301	302	302	302	303	304	303	301	301	306	307	305	313	311	311	307	308	308	307	307	305	300	303	303	305	305	306	308	306	306	305	305	306	308	309	308	308	310	304	300	299	305	306	307	306	303	302	297	305	306	305	302	302	303	308	298	296	296	297	298	298	300	305	302	303	303	309	306	300	302	303	302	303	303	304	300	298	300	301	303	304	306	308	308	306	305	306	307	305	305	303	304	303	300	302	302	303	306	305	296	296	297	297	297	295	294	293	293	297	304	304	299	301	302	301	302	303	303	298	298	295	299	299	298	298	298	298	302	304	303	300	301	302	303	301	300	299	299	299	299	299	300	301	306	306	301	301	301	301	300	299	295	292	291	291	291	299	302	308	308	308	296	296	295	295	296	294	296	300	301	301	295	298	298	297	298	299	297	297	303	303	301	300	300	300	298	302	303	299	297	297	296	296	295	294	300	306	306	303	300	300	300	299	298	299	300	299	297	298	299	299	299	298	297	294	294	298	304	304	303	299	299	300	301	302	300	301	302	303	307	305	302	301	299	298	299	298	301	302	300	297	297	300	300	300	300	301	299	303	301	301	298	293	293	295	297	299	300	300	300	299	299	298	296	299	300	300	298	298	300	304	304	305	303	302	297	304	304	304	305	304	302	299	298	298	297	297	296	298	0	0	0	0	0	0	0	0
319	316	312	309	312	312	314	317	315	314	314	317	322	324	322	322	319	322	324	323	319	317	317	316	319	318	318	315	315	315	313	315	313	315	319	320	320	320	317	315	315	319	321	317	317	316	314	315	317	318	319	317	317	317	317	317	313	310	311	317	319	322	317	314	313	312	313	313	315	318	320	320	319	319	319	317	316	316	317	316	316	311	311	315	316	314	313	313	316	317	317	312	320	321	315	313	313	309	306	308	310	313	314	315	314	313	315	314	314	315	315	315	316	315	313	315	316	317	314	309	307	306	306	306	309	309	311	312	312	311	310	310	313	312	308	307	308	315	315	312	300	305	309	312	313	309	305	306	308	311	315	315	314	313	313	314	313	314	315	313	306	307	308	307	305	308	310	307	307	309	311	315	307	305	304	302	302	305	300	299	301	302	301	300	300	304	304	309	300	308	309	310	312	312	310	309	309	308	310	308	310	313	313	309	310	312	307	308	306	304	304	309	309	308	310	308	307	305	305	307	304	304	300	300	301	301	304	305	305	303	302	301	302	301	300	298	298	301	300	301	302	304	298	299	306	306	305	302	303	304	304	304	306	307	307	305	306	300	301	303	305	303	305	303	303	303	303	302	305	299	301	307	309	303	306	304	304	306	308	293	299	302	303	303	305	306	309	306	302	299	297	299	303	303	305	310	311	312	310	306	305	306	308	303	307	308	308	305	303	307	306	308	310	309	306	305	304	306	306	306	304	305	310	311	310	308	305	304	305	303	301	300	298	297	304	304	302	301	301	300	301	300	300	300	301	302	302	303	303	302	299	300	302	303	297	308	308	310	309	307	299	298	301	301	301	302	303	302	303	302	302	306	305	305	303	302	301	299	297	301	306	305	301	299	300	301	304	303	298	296	297	299	304	304	302	300	300	298	296	293	293	294	296	301	303	308	304	305	306	301	301	301	300	299	300	302	303	303	298	295	295	298	302	305	307	310	309	305	303	302	302	298	297	297	297	297	296	296	294	293	296	294	289	291	292	296	296	296	295	295	296	300	301	299	298	298	299	300	303	301	299	297	295	292	293	297	295	295	298	299	298	300	298	299	301	300	301	300	299	296	296	297	297	296	297	298	296	299	297	293	292	293	298	298	294	293	291	294	290	290	294	297	308	305	304	305	304	302	300	297	295	293	296	298	295	288	290	293	294	296	292	292	292	292	291	297	298	295	297	299	299	297	296	297	297	295	293	292	299	300	299	299	298	296	296	296	295	293	296	295	296	298	298	297	297	295	292	291	291	293	296	301	296	297	297	298	297	301	302	298	294	294	295	296	299	299	298	297	297	297	297	298	295	294	296	298	300	298	298	298	301	296	294	291	289	291	291	293	295	297	299	300	299	297	296	296	294	298	299	297	294	293	296	298	302	303	301	293	294	294	302	303	302	301	299	295	292	295	294	295	294	294	294	0	0	0	0	0	0	0
313	312	307	305	306	306	309	310	312	313	313	318	323	319	316	319	314	316	318	315	316	313	313	314	313	313	313	313	314	314	317	316	315	314	314	314	314	312	311	313	315	319	319	311	311	312	310	308	310	312	314	316	314	312	312	310	307	307	310	314	316	317	316	314	313	310	311	311	312	314	315	315	312	313	315	314	312	313	315	313	307	306	308	308	309	311	309	310	310	317	316	309	311	315	312	310	306	306	306	306	306	310	313	314	314	314	312	310	312	312	313	310	308	306	304	304	311	311	310	306	303	302	301	301	303	305	306	313	312	310	309	307	310	310	309	306	307	306	303	301	303	306	309	311	309	305	305	306	308	308	307	313	314	312	309	311	313	312	311	304	304	305	305	305	305	306	307	307	306	308	311	312	313	304	301	301	299	301	299	299	303	304	299	297	296	297	301	304	308	303	300	305	306	306	305	302	304	307	307	306	306	305	308	308	307	308	305	302	301	301	300	301	306	306	306	305	303	300	299	299	299	298	298	298	299	300	301	304	300	302	300	299	302	304	309	308	305	296	299	299	298	298	298	299	301	302	304	301	301	303	303	300	298	298	300	301	305	300	298	302	301	302	301	301	300	301	301	301	303	299	295	301	306	303	306	306	301	293	290	290	300	302	302	301	302	303	300	299	301	300	300	300	301	301	299	298	299	300	303	306	304	304	298	298	300	301	301	300	300	301	302	302	304	306	306	307	306	302	301	299	301	300	300	300	297	294	293	293	296	297	296	296	293	294	304	300	297	299	299	299	297	299	299	296	296	298	299	302	302	301	298	298	298	296	298	299	299	300	307	304	299	297	300	301	301	302	300	301	298	299	299	300	304	304	301	300	297	295	297	298	301	303	301	299	298	299	300	299	298	296	295	297	303	305	302	300	295	294	289	288	292	295	301	303	301	301	297	295	292	296	298	299	297	295	296	302	303	301	296	294	291	294	296	299	299	308	302	299	298	296	294	294	295	297	297	294	294	290	291	291	295	294	289	289	290	291	293	293	293	294	294	297	297	298	297	292	294	299	299	299	294	291	291	290	289	291	293	293	294	295	296	294	294	295	298	301	300	293	290	293	293	295	294	294	295	294	291	290	288	288	291	292	292	292	293	291	290	291	291	291	290	296	297	302	303	303	302	301	297	295	292	293	294	294	294	285	286	291	294	295	291	290	290	290	290	289	288	293	296	296	294	294	294	296	294	290	288	290	296	297	297	297	294	294	295	295	292	291	291	293	295	296	296	296	291	287	289	288	293	295	296	294	293	295	295	294	296	300	295	291	292	290	291	294	295	296	295	295	297	297	297	295	293	293	293	296	295	291	292	293	296	295	293	291	287	287	288	290	292	298	298	297	297	297	295	295	291	291	293	293	291	291	292	293	298	297	292	291	291	291	291	293	298	298	292	290	288	287	288	288	288	286	286	0	0	0	0	0	0	0
306	304	301	303	303	303	303	305	307	312	317	317	315	313	313	314	308	307	308	310	308	308	308	310	307	309	307	307	306	306	307	311	310	310	309	308	308	311	312	310	308	308	307	308	308	308	307	308	311	312	315	313	313	309	305	305	304	304	307	309	311	313	312	309	307	309	310	310	311	312	310	310	309	309	308	309	308	307	307	306	305	305	305	306	306	308	307	305	306	306	306	307	311	310	309	307	305	305	305	303	301	303	307	308	309	312	311	309	310	311	308	306	304	303	302	301	301	304	303	301	299	298	299	299	300	304	306	310	312	310	307	306	307	308	307	305	305	301	300	301	301	303	303	301	301	304	304	306	308	308	306	305	310	308	304	304	306	307	304	302	301	300	301	303	304	303	302	304	304	307	307	308	308	302	300	298	297	299	298	302	303	302	299	293	292	293	299	303	307	302	300	297	302	303	303	301	304	306	306	305	306	303	303	304	301	300	304	297	295	294	295	300	302	304	303	300	301	299	298	296	296	296	297	296	296	296	298	300	302	298	296	298	300	304	308	308	305	293	299	299	299	298	295	292	300	301	302	301	301	301	299	301	297	297	298	299	299	297	297	297	297	301	301	297	299	299	300	300	299	301	293	301	303	305	306	300	294	293	291	291	295	297	296	295	295	296	295	297	297	298	297	295	300	298	299	295	294	297	300	301	301	298	297	292	293	295	295	295	293	291	298	300	301	300	309	309	305	298	299	299	299	299	299	298	296	293	293	295	295	296	295	293	293	294	302	298	295	298	298	298	297	295	295	296	295	294	292	291	294	295	294	295	296	296	297	298	298	299	300	300	299	298	298	299	300	299	293	297	298	295	294	294	298	298	297	298	292	294	295	296	297	296	293	296	292	295	298	299	298	292	294	292	290	290	288	291	291	288	286	286	292	294	297	297	300	299	297	293	291	291	296	295	294	293	294	293	302	299	296	294	291	293	296	291	288	290	292	295	296	295	294	293	294	295	293	287	284	287	290	290	290	289	288	289	289	290	290	289	289	291	294	294	293	292	291	292	294	293	294	290	288	290	289	288	288	289	288	291	292	292	291	289	292	294	296	296	298	291	289	291	290	292	293	291	284	285	287	288	288	289	292	288	279	278	281	288	287	288	292	291	292	293	291	296	297	292	290	297	296	295	292	292	292	293	287	284	286	287	290	286	286	289	289	289	287	285	284	288	292	293	288	287	291	291	290	288	287	287	294	295	294	290	291	288	294	294	291	288	289	292	293	294	294	293	285	286	285	290	293	294	294	293	292	295	294	290	289	295	292	289	289	288	289	289	292	294	294	295	294	298	296	293	288	286	282	282	284	289	291	291	292	291	292	290	290	284	284	287	289	291	298	297	296	295	291	289	288	287	290	289	290	290	288	290	288	292	287	287	287	288	290	290	292	290	288	288	288	287	287	285	285	286	286	0	0	0	0	0	0	0
296	296	298	299	297	297	296	297	298	307	307	307	309	310	309	308	294	293	293	295	299	304	304	304	302	302	305	305	303	303	303	303	301	301	302	307	308	308	309	305	305	305	305	308	307	307	307	308	310	310	312	312	308	304	299	299	300	301	302	303	307	305	304	305	306	307	310	312	312	311	311	308	308	307	306	307	306	300	298	295	290	293	296	300	303	304	303	300	299	299	295	296	296	299	299	306	300	299	299	303	302	300	297	295	291	303	306	306	308	303	302	302	302	301	300	300	299	298	298	298	297	296	295	297	301	300	299	302	303	301	300	305	305	304	303	302	299	299	299	298	300	297	297	295	299	300	302	303	304	305	304	302	304	303	301	301	302	302	299	298	298	297	296	295	298	298	300	298	298	298	298	297	297	297	299	297	297	294	293	294	296	296	294	292	292	292	293	298	300	299	298	297	297	299	299	301	302	304	305	299	300	300	300	301	298	298	296	294	292	291	290	292	294	301	301	297	296	296	294	295	294	296	295	293	291	292	297	298	298	297	295	296	296	292	291	291	292	299	299	299	293	292	292	288	291	291	294	295	295	300	301	295	294	295	296	296	297	296	295	295	295	295	298	294	294	296	294	297	293	289	289	295	294	295	295	294	294	293	293	298	293	293	291	291	291	292	294	297	296	288	295	293	293	290	290	295	294	297	295	296	297	294	294	295	294	296	298	298	295	293	293	292	292	296	295	289	294	301	301	301	297	296	293	295	295	293	294	295	297	296	293	292	292	293	293	293	295	297	297	295	295	292	295	295	291	291	291	289	289	290	291	292	294	295	297	298	298	298	298	298	297	296	294	288	288	287	289	290	286	285	287	294	292	292	293	292	290	292	293	292	294	294	299	286	289	301	301	298	292	292	292	291	288	285	283	288	288	288	287	284	286	283	293	295	295	293	294	294	288	290	291	291	289	290	292	291	291	297	291	291	292	294	294	288	287	289	291	291	297	293	293	292	293	289	285	285	286	287	287	289	290	289	287	286	288	289	289	287	286	291	292	294	291	290	291	292	292	291	291	286	287	288	286	285	285	289	288	289	289	287	288	289	289	291	294	294	293	291	290	291	291	288	287	284	281	282	283	285	288	289	285	283	281	279	279	284	288	285	289	294	294	293	291	293	293	293	293	297	296	295	288	287	284	283	282	282	282	282	286	286	286	287	288	288	287	285	284	284	289	291	289	287	287	286	286	287	285	286	290	291	286	288	286	284	293	287	290	288	288	291	292	291	289	284	285	285	286	285	293	294	294	294	291	292	289	287	287	289	289	288	289	289	288	288	287	287	287	287	288	290	291	291	288	282	281	284	285	286	287	287	287	288	285	285	290	289	284	284	286	288	291	293	294	288	284	283	283	286	285	283	286	285	285	283	282	282	287	286	286	286	288	288	288	287	288	290	289	288	285	284	284	284	283	0	0	0	0	0	0	0
298	298	297	297	297	298	298	296	297	299	299	299	297	296	295	294	294	294	295	295	296	298	299	299	300	302	302	303	303	303	302	301	300	299	300	304	306	306	304	304	302	303	303	307	306	306	306	309	305	306	307	309	306	303	298	298	296	298	298	299	300	302	300	299	302	306	308	310	310	310	308	307	306	307	305	304	303	301	300	294	288	291	294	297	295	294	293	291	292	297	297	296	294	297	294	293	291	297	297	298	300	298	297	294	289	289	291	293	293	299	299	294	294	296	298	301	301	301	298	297	299	298	299	299	305	305	303	291	294	294	294	295	297	297	298	297	297	297	298	296	295	296	295	294	295	294	299	301	302	302	301	299	296	295	300	299	298	294	292	291	290	289	289	289	289	289	292	293	292	297	295	291	289	297	301	303	298	294	293	296	292	291	288	290	290	291	293	292	295	297	291	291	291	290	288	291	291	288	290	293	297	297	296	290	290	290	291	291	291	291	292	290	290	291	296	294	290	290	292	293	291	295	293	290	289	290	294	297	297	297	290	289	289	289	289	290	292	293	295	292	291	292	287	287	286	286	289	294	296	299	302	301	299	297	294	294	294	294	293	293	294	294	295	290	292	293	293	288	284	281	281	287	288	290	293	293	292	293	293	293	293	291	292	292	291	291	291	293	290	286	289	289	290	287	288	287	292	294	294	292	293	288	290	291	291	285	287	285	289	289	289	289	289	289	288	287	287	288	289	288	289	288	288	288	292	289	292	293	295	296	294	293	291	292	292	293	292	294	293	290	290	293	294	292	291	289	288	287	289	288	289	290	291	291	292	296	290	288	290	293	292	287	288	290	289	290	287	285	285	286	286	285	288	290	290	289	286	286	288	289	292	291	288	287	286	287	290	292	292	289	290	291	287	284	283	284	286	286	282	283	283	283	281	291	291	291	292	287	285	283	287	289	290	292	290	292	289	286	287	288	287	292	296	300	289	287	291	292	294	293	291	288	286	286	287	286	285	284	283	287	289	280	288	287	287	290	289	283	285	288	290	290	288	287	290	291	291	289	284	285	286	285	284	285	285	287	285	286	288	285	286	288	288	287	289	292	291	289	289	288	291	291	290	286	280	280	280	282	284	283	282	282	282	280	281	287	285	283	285	287	292	291	285	284	282	281	289	290	291	285	285	284	282	281	282	280	281	281	279	280	283	285	286	286	286	285	283	282	284	285	284	288	286	285	281	278	280	281	284	283	283	281	282	282	281	284	288	288	286	287	285	286	284	283	284	284	285	290	289	289	287	283	283	288	286	284	285	285	286	283	286	283	283	283	281	281	281	282	285	288	288	288	285	281	283	286	284	284	284	283	283	283	283	284	285	285	285	284	283	283	287	284	285	281	279	280	281	282	279	277	277	281	281	281	281	280	279	285	285	284	287	287	286	285	288	288	288	286	284	283	282	282	282	0	0	0	0	0	0	0
296	296	296	297	298	297	297	297	297	299	298	298	296	295	296	296	294	294	295	299	300	300	300	300	300	301	302	303	302	301	301	300	298	295	295	298	300	300	300	299	298	299	299	304	306	301	301	303	304	304	304	307	304	301	297	294	294	295	295	296	297	298	296	298	301	304	304	301	299	299	295	296	297	297	307	300	301	301	293	292	295	290	291	292	292	292	293	293	293	295	295	297	297	296	294	292	288	290	295	297	299	297	296	294	290	289	290	290	291	294	294	292	296	295	298	301	306	294	291	291	292	295	295	297	300	303	302	289	290	292	291	294	295	296	295	295	295	296	297	297	296	294	294	294	293	293	293	291	292	293	291	291	291	291	291	291	290	290	289	289	288	289	290	289	293	294	292	292	293	291	292	290	287	289	290	293	290	288	286	287	288	285	286	287	286	290	289	291	294	294	288	284	285	285	286	284	288	288	286	287	291	294	294	288	283	287	290	289	290	290	289	289	288	290	292	290	289	289	289	290	288	289	291	290	290	290	290	290	290	287	281	284	282	284	284	283	283	288	286	285	286	287	286	286	285	285	288	289	291	293	292	292	291	291	291	292	292	292	289	288	286	285	286	287	288	289	290	292	282	281	281	285	285	285	285	287	289	290	291	291	288	291	292	291	289	288	288	286	285	284	285	286	287	285	288	285	287	291	292	289	287	286	281	281	282	284	285	281	281	281	283	283	286	287	287	286	286	288	289	288	287	288	288	288	290	290	289	290	288	290	288	289	288	290	290	285	287	288	286	287	289	290	291	289	283	284	284	285	285	283	283	286	286	286	286	285	288	287	287	283	281	284	286	288	289	287	286	283	283	283	285	284	284	287	287	282	283	284	286	288	290	289	288	286	285	285	286	287	288	289	288	288	288	284	284	283	284	283	279	280	279	281	282	283	291	292	289	287	287	285	285	290	290	291	289	293	287	282	281	284	287	293	290	294	285	288	288	289	285	285	284	290	287	287	286	285	283	284	282	283	278	281	282	285	280	286	284	281	282	285	287	288	286	286	287	285	283	282	280	281	283	284	283	283	281	281	282	285	285	287	287	287	286	286	286	287	283	284	286	287	290	292	288	284	281	280	280	279	275	279	281	280	281	282	284	285	284	278	278	281	284	281	284	283	280	278	288	287	287	285	285	285	284	284	282	280	279	276	276	280	282	282	285	285	285	284	282	281	282	281	280	280	280	279	279	277	275	277	281	279	279	277	279	278	280	281	284	279	280	281	283	281	282	283	283	283	284	284	278	284	280	278	279	281	282	283	282	283	282	280	281	281	281	280	279	278	278	279	281	284	284	283	281	282	282	285	286	283	280	280	281	280	280	280	282	282	283	283	283	282	280	281	282	281	281	278	281	280	278	278	278	276	275	276	277	278	277	277	279	277	281	281	284	282	283	288	286	283	282	281	281	281	279	0	0	0	0	0	0	0
294	294	296	294	295	294	294	298	300	300	299	294	294	294	294	295	294	293	296	297	299	299	298	298	298	299	299	298	300	299	299	298	296	295	294	294	296	296	297	296	295	296	299	298	295	295	295	287	292	294	296	297	297	296	294	292	292	290	289	290	292	293	295	297	299	298	295	296	291	291	291	293	293	295	296	298	300	299	292	288	289	289	289	292	292	292	293	292	292	294	295	295	296	293	293	290	288	289	292	294	297	296	295	294	290	290	290	291	293	291	290	287	292	292	294	295	294	290	291	291	292	294	295	295	293	290	288	287	289	290	290	291	291	291	291	292	293	293	295	292	293	294	292	291	291	290	291	289	289	289	289	286	288	289	290	289	288	289	289	290	289	286	287	288	293	294	291	291	292	287	284	282	282	284	290	291	289	287	287	284	289	286	282	284	285	286	287	290	288	285	287	285	284	283	282	281	283	287	289	291	292	292	287	285	283	287	289	288	288	287	287	288	288	286	288	290	287	287	289	287	286	285	285	290	290	289	290	289	283	281	280	282	283	282	282	281	282	287	285	285	285	286	286	285	284	283	282	282	284	287	288	281	279	281	290	290	289	288	286	286	284	284	284	284	286	286	287	283	283	281	281	280	284	284	282	284	288	289	289	289	282	279	279	280	278	279	285	283	282	281	281	284	284	284	285	281	282	283	285	286	282	281	281	283	283	284	283	281	279	278	280	283	284	284	285	285	286	289	290	286	286	286	285	286	287	285	286	286	288	289	287	288	285	285	284	280	280	282	284	287	289	289	287	286	283	283	282	283	284	282	282	282	284	284	283	281	281	285	285	281	279	280	283	286	284	282	281	278	279	282	283	281	284	284	279	281	281	281	283	286	287	288	287	285	283	284	284	286	288	285	284	284	283	281	282	281	283	282	279	278	276	280	281	283	284	287	287	288	287	286	284	288	287	287	287	287	282	281	279	278	286	286	292	294	291	284	284	285	286	285	285	285	284	287	286	285	283	281	282	275	276	281	281	283	279	284	282	280	281	275	275	279	281	281	281	281	280	277	276	276	280	281	280	279	279	281	283	284	285	287	288	284	283	278	280	279	278	278	279	280	281	282	281	280	282	279	272	271	272	273	275	276	281	282	283	289	288	282	277	280	279	279	285	287	284	281	280	283	284	284	285	284	284	281	281	279	277	276	277	279	278	279	284	285	285	282	280	280	282	282	280	278	280	280	279	276	276	276	279	278	277	275	276	276	277	277	278	281	283	283	281	279	276	281	282	282	281	279	278	278	275	273	277	281	283	281	278	277	276	280	280	281	281	280	277	277	276	277	278	280	280	280	280	279	281	282	283	279	278	278	279	279	278	279	279	279	280	280	281	279	278	278	276	276	277	278	277	276	275	274	275	277	275	275	275	276	274	274	274	276	273	275	279	278	283	283	284	282	281	277	277	274	275	0	0	0	0	0	0	0
292	292	294	293	292	293	293	299	300	301	294	291	291	291	292	293	293	288	289	291	291	292	292	291	291	289	287	284	283	292	292	294	295	293	292	292	295	295	295	296	295	291	293	290	288	283	283	286	288	288	288	287	288	287	287	287	287	285	289	291	292	291	291	290	292	292	291	289	288	288	289	291	292	292	292	289	286	282	283	284	286	288	289	285	286	286	285	286	287	286	287	289	289	289	288	285	286	290	290	290	290	288	294	293	289	287	287	289	289	288	286	287	288	285	284	285	287	288	289	291	291	294	289	286	284	286	287	286	287	286	285	282	284	286	288	293	294	292	288	290	290	289	288	290	290	292	291	288	287	285	283	283	286	286	285	287	289	289	289	290	286	285	286	286	290	288	291	290	288	286	283	280	280	282	287	289	288	287	286	285	288	283	284	281	280	279	280	284	283	284	285	284	283	283	283	281	280	282	283	283	285	285	283	282	275	287	289	287	283	284	286	288	282	284	287	284	283	280	279	280	281	281	283	285	289	287	286	289	281	280	277	280	281	281	280	281	280	281	282	281	279	276	282	282	282	282	279	273	275	278	285	281	279	279	281	284	287	286	282	282	283	282	281	280	280	282	282	281	282	281	281	279	278	279	282	282	283	285	288	282	280	278	278	279	277	279	278	279	278	279	279	280	283	283	284	285	282	279	278	279	282	283	282	283	282	283	282	280	278	278	277	281	282	282	281	284	286	286	286	284	283	283	282	283	281	276	278	281	281	282	282	282	284	282	279	277	278	278	280	281	282	282	277	275	281	281	278	274	275	275	274	276	275	278	281	280	279	279	281	279	278	277	278	281	281	281	280	277	276	281	280	281	280	282	277	278	278	277	281	283	284	286	281	278	281	283	284	281	280	279	276	280	277	275	279	281	281	280	279	279	277	279	279	280	284	285	283	287	287	285	284	282	284	284	281	280	278	279	277	276	276	283	286	277	276	281	285	284	285	284	282	282	280	286	280	276	274	275	273	274	275	279	282	283	276	276	275	278	272	276	276	277	278	277	278	282	281	277	275	276	277	279	281	281	278	278	281	285	282	282	276	272	273	273	275	277	276	274	275	277	279	275	274	274	278	282	275	272	272	273	273	272	272	275	278	285	281	279	278	277	277	278	287	282	283	281	279	279	281	281	283	284	284	281	279	278	277	277	279	278	278	281	274	275	280	278	278	276	280	279	278	278	279	281	281	277	274	273	279	280	281	276	275	276	276	274	274	279	281	281	276	280	275	282	282	281	279	277	274	270	271	273	273	273	275	277	277	275	276	276	279	280	279	278	278	276	275	270	269	274	277	278	278	279	278	278	275	276	277	278	278	278	277	276	275	274	277	278	276	277	276	274	274	275	275	274	274	273	273	273	273	274	274	274	272	271	271	273	273	272	273	275	273	274	277	279	278	278	277	275	275	275	274	0	0	0	0	0	0	0
288	290	290	289	290	293	296	296	296	292	288	285	285	287	286	286	288	286	286	289	291	291	291	290	290	290	286	284	280	283	292	292	295	295	293	292	291	289	289	288	289	288	288	288	284	285	286	286	289	286	286	287	287	287	287	288	293	293	295	296	293	289	287	285	284	282	281	284	288	290	290	290	290	291	292	287	285	284	284	283	286	284	285	285	284	285	288	284	283	282	283	282	282	281	282	282	284	288	288	287	283	286	283	284	278	278	278	278	279	282	286	287	287	286	282	283	284	286	287	284	285	286	283	285	283	285	283	285	285	280	281	283	285	286	286	289	290	294	289	286	289	285	285	288	287	289	289	288	285	283	282	287	286	284	281	285	288	289	287	288	284	283	283	282	285	287	286	285	288	285	282	279	278	279	283	286	286	287	285	285	281	281	281	276	279	278	277	281	283	282	284	284	283	281	281	281	282	278	278	276	278	281	281	276	278	275	276	276	277	283	283	284	281	278	279	281	283	282	278	278	279	279	283	284	283	285	284	282	282	278	273	276	274	280	281	275	273	277	278	280	279	278	277	279	282	276	277	273	275	278	283	282	279	279	282	283	283	281	277	279	276	277	278	278	278	280	280	278	278	278	279	280	279	278	279	275	276	284	285	279	278	279	278	277	277	275	275	277	278	279	278	277	279	286	285	281	279	279	278	278	279	281	282	281	281	281	280	277	277	277	280	280	281	280	277	280	283	284	283	280	281	282	285	281	278	274	273	275	275	275	276	276	276	279	279	279	277	277	279	278	278	276	278	274	274	274	274	274	273	272	271	271	275	275	275	275	277	280	278	275	275	275	275	276	277	277	278	277	277	278	277	277	278	279	275	274	274	273	277	280	281	281	278	276	277	281	280	279	274	271	271	273	272	272	275	278	279	279	276	276	278	278	279	280	280	280	280	282	280	278	274	279	283	281	279	278	277	275	278	271	278	275	279	280	277	277	280	281	281	283	280	278	278	278	276	275	274	273	273	273	273	275	278	279	278	277	277	273	276	277	277	280	276	272	274	280	280	279	277	276	276	277	277	277	275	275	275	281	281	278	272	273	273	274	274	275	274	270	273	274	269	273	274	274	278	281	272	274	272	273	272	271	271	274	269	271	272	273	274	274	273	274	276	278	278	276	274	274	274	274	273	280	282	280	278	277	276	276	276	275	273	271	270	277	277	274	275	274	274	274	276	278	280	276	279	276	274	275	278	282	281	278	273	271	276	275	273	271	272	272	271	271	271	271	271	274	276	275	275	273	273	272	272	269	269	277	276	273	272	273	277	278	278	277	278	275	275	274	271	271	274	277	278	276	276	274	274	274	274	273	274	276	274	274	272	272	273	275	275	275	274	272	270	274	275	273	272	271	271	270	271	271	272	270	269	270	270	274	272	266	273	276	276	273	275	275	275	276	278	275	275	275	276	0	0	0	0	0	0	0
283	283	283	278	276	279	282	282	283	282	282	283	283	283	284	284	285	284	284	286	285	285	288	287	287	288	286	285	281	288	290	290	293	293	290	288	286	285	285	287	287	282	284	286	286	284	285	285	284	284	286	286	287	287	286	288	288	288	289	289	288	287	284	282	282	277	278	281	285	288	288	289	288	288	287	283	281	282	284	286	286	285	284	283	284	285	288	283	281	281	280	280	279	279	279	280	281	285	285	284	282	279	279	277	276	277	277	277	277	281	285	286	284	283	282	281	282	284	281	279	280	282	282	282	285	279	279	279	274	280	283	284	285	285	283	285	288	286	282	279	275	276	281	285	285	287	290	284	283	285	286	286	283	281	278	283	285	286	286	281	282	281	282	280	278	280	282	284	284	284	279	278	276	276	278	278	278	279	280	280	278	273	274	276	284	283	279	280	277	276	277	279	280	279	279	278	276	275	276	282	284	281	281	278	278	275	274	275	277	274	278	273	275	277	279	281	282	280	279	279	274	274	276	277	276	279	276	280	276	276	270	271	276	271	275	272	272	270	275	273	279	277	280	280	277	276	275	271	273	273	272	278	279	277	276	279	280	278	277	274	273	274	274	275	278	275	272	278	272	274	278	280	280	278	274	275	275	278	279	276	278	277	276	273	274	274	275	276	278	277	273	274	277	276	276	276	277	278	279	279	278	277	277	273	272	273	274	276	274	274	275	276	279	278	277	276	279	282	281	280	280	281	280	279	277	275	273	275	275	274	275	274	274	275	276	277	276	275	274	274	274	274	274	274	274	273	273	272	271	270	271	272	272	279	274	278	278	278	277	274	271	271	272	274	277	277	277	280	278	278	278	277	275	275	273	273	272	272	273	274	280	280	278	274	275	275	276	275	270	268	268	270	271	271	274	276	275	275	274	276	278	278	278	278	277	278	281	281	279	273	272	273	268	276	276	275	272	274	270	273	275	276	279	280	280	273	275	277	278	275	277	278	275	275	275	276	277	276	275	272	272	273	276	277	276	275	271	276	278	276	277	279	274	267	266	269	271	275	277	277	276	276	276	274	273	275	274	277	272	275	275	271	273	274	274	273	270	269	270	269	267	265	273	272	274	272	270	270	273	274	271	269	268	266	268	268	271	272	275	272	273	270	269	268	269	271	273	272	274	273	272	272	276	278	276	276	275	274	276	273	276	275	274	275	275	273	271	270	269	272	269	272	274	275	275	274	274	271	272	270	271	274	267	269	268	272	270	269	270	269	269	269	267	268	270	269	268	266	267	270	270	269	267	267	268	269	268	274	269	271	275	276	276	274	271	274	274	272	270	271	272	275	276	275	275	272	272	272	271	271	272	269	269	267	269	269	269	272	273	273	272	271	270	273	272	269	267	270	266	267	268	270	271	270	268	268	269	269	268	264	264	273	274	276	273	273	273	275	277	277	277	277	274	0	0	0	0	0	0	0
277	276	276	273	274	275	280	280	278	278	279	280	280	280	280	282	284	284	284	284	284	283	286	282	282	285	285	281	281	287	289	289	287	285	279	277	278	280	280	280	282	274	279	282	281	280	281	281	282	282	284	285	285	283	281	282	284	284	284	283	284	282	280	278	276	272	272	273	277	279	281	281	282	282	282	278	280	284	286	286	283	284	283	282	283	285	286	281	278	280	279	278	278	277	277	277	278	280	278	276	278	274	274	275	276	277	277	277	278	277	280	281	283	282	281	281	280	283	278	278	278	279	276	276	276	278	277	275	274	277	280	283	282	281	279	275	280	276	276	273	272	273	276	277	277	286	286	289	288	288	285	283	282	279	274	279	280	281	276	276	277	278	279	278	276	276	278	282	283	283	282	278	276	273	275	277	277	275	277	278	277	278	271	274	285	285	276	280	276	279	275	275	271	272	271	272	274	274	275	283	284	285	281	280	280	276	275	274	273	275	277	279	276	274	277	279	279	279	276	278	273	273	275	276	276	274	273	274	275	277	268	265	269	269	273	271	271	272	272	268	269	272	281	278	276	275	269	268	271	271	272	272	274	272	273	275	273	274	273	273	273	271	271	273	274	274	272	272	272	273	278	279	279	278	273	274	274	275	273	272	273	272	272	273	269	274	272	274	276	274	272	273	273	274	273	268	270	274	274	275	275	276	275	276	276	276	275	273	274	274	275	275	277	277	276	275	274	273	273	274	272	272	275	276	275	275	274	273	272	272	273	274	273	273	272	273	270	270	272	273	273	272	271	273	273	273	271	271	270	270	271	270	271	271	278	277	277	277	274	271	270	272	274	274	275	277	279	275	278	278	274	273	272	270	270	272	272	273	274	274	274	274	274	275	275	274	273	273	269	268	266	269	270	269	273	272	273	273	274	276	277	277	276	276	273	273	277	280	278	273	273	271	270	277	278	276	272	272	271	274	273	274	276	278	278	271	271	274	273	269	271	270	273	273	274	272	275	275	275	275	273	273	273	273	275	273	268	271	272	277	275	272	267	265	264	267	270	273	276	276	274	274	274	272	270	270	268	267	269	274	270	271	270	270	274	270	269	269	269	267	266	265	272	273	273	269	267	267	271	276	276	272	266	264	267	269	270	275	275	271	272	269	269	267	268	273	272	271	272	270	266	266	269	274	273	270	274	271	271	274	272	272	271	268	272	268	268	265	266	268	268	269	271	271	273	274	274	275	270	270	270	264	267	266	267	269	265	268	269	267	269	266	265	266	267	268	266	267	270	269	270	264	264	267	269	270	267	266	265	264	269	275	273	272	269	269	269	268	267	269	270	272	274	274	271	272	272	271	269	270	264	265	265	266	266	266	267	266	266	269	269	270	272	270	264	261	261	263	262	265	266	267	269	266	264	264	266	265	259	264	266	265	271	270	269	268	270	271	273	273	272	271	269	0	0	0	0	0	0	0
274	271	271	271	273	276	278	278	275	273	273	273	275	275	278	280	283	281	283	283	284	285	281	281	285	285	283	279	282	280	282	282	283	280	278	278	280	279	278	278	276	274	274	278	277	278	273	277	277	282	283	283	282	280	277	279	280	279	279	279	279	279	277	275	272	273	275	272	272	277	279	279	280	283	281	279	277	278	280	280	281	280	281	281	278	276	278	282	278	278	278	277	276	276	275	275	275	275	275	277	276	275	274	275	275	274	274	274	274	276	278	281	282	283	282	280	280	278	278	275	274	273	270	270	275	275	275	272	273	276	279	281	281	279	274	273	273	271	274	276	274	273	273	274	277	280	281	279	288	282	279	278	280	275	274	277	278	278	278	276	278	277	277	273	273	273	275	279	278	279	280	278	276	272	275	276	276	274	271	272	279	278	274	273	272	273	279	275	278	273	268	271	271	271	272	271	270	270	274	275	277	272	275	278	278	280	273	274	273	272	272	273	275	270	262	264	274	271	271	270	272	272	270	270	269	270	272	272	273	268	263	262	268	268	270	272	270	265	265	267	268	275	272	272	273	272	272	268	269	271	271	269	270	269	265	266	266	269	272	272	271	270	270	272	272	271	268	268	273	279	279	270	270	268	274	272	273	273	271	270	270	271	272	268	268	270	270	273	275	269	269	270	271	268	268	269	270	270	273	273	275	277	279	277	275	274	274	274	273	274	274	275	275	275	276	276	273	271	271	271	271	271	271	273	274	273	273	271	271	270	272	271	267	269	269	270	270	269	271	272	272	271	270	271	272	272	271	270	270	267	270	269	268	273	273	273	275	276	275	274	273	274	276	276	276	271	273	272	272	271	276	273	271	270	273	271	271	273	272	271	270	270	270	272	271	272	269	266	266	266	266	270	272	273	273	272	272	272	272	274	275	276	273	273	272	270	274	278	276	273	272	273	274	273	274	273	272	271	270	270	270	271	267	267	266	269	264	264	264	268	268	267	269	270	269	269	270	272	275	275	273	271	272	269	268	269	268	269	268	269	273	273	267	272	267	264	262	262	263	265	270	268	267	268	267	264	264	265	268	269	268	270	269	268	269	268	267	266	266	267	266	263	266	268	268	261	264	268	269	274	274	270	268	265	267	268	274	270	271	271	270	261	264	269	269	269	272	271	270	268	260	261	265	267	267	269	266	268	272	270	263	262	261	261	262	264	264	263	263	263	267	267	265	260	260	264	266	265	265	265	264	266	268	268	267	266	265	265	265	263	267	264	263	264	264	267	267	267	267	268	264	263	262	264	268	269	268	265	263	262	268	262	267	268	265	263	263	264	265	268	270	269	269	267	267	266	268	268	268	267	265	263	264	263	263	263	266	267	264	263	268	264	269	269	265	259	259	261	261	263	264	265	266	263	260	260	257	254	258	262	265	264	264	258	258	261	263	267	267	267	266	265	264	0	0	0	0	0	0	0
275	271	270	270	272	276	277	274	274	270	269	269	272	272	275	278	279	278	280	280	282	283	279	281	281	281	280	280	277	277	277	279	279	278	278	279	279	276	276	276	274	275	273	273	272	272	272	272	272	275	281	277	277	277	275	274	274	274	274	274	276	276	274	272	270	273	272	271	271	272	273	277	277	277	279	278	277	278	278	277	279	280	279	275	274	275	275	276	277	278	278	277	276	275	273	273	273	272	274	277	276	272	271	272	273	274	274	274	275	275	277	280	281	281	277	277	278	277	276	272	270	269	269	270	271	271	271	270	270	269	269	268	274	276	276	271	270	273	274	276	275	273	273	273	279	278	278	276	274	275	273	273	275	276	275	276	277	277	276	276	274	274	272	269	267	269	271	272	275	276	277	276	272	271	273	275	272	270	273	274	275	277	275	273	272	273	275	276	269	268	267	271	275	271	271	268	268	267	268	270	266	265	266	273	276	267	266	269	270	271	268	268	272	267	262	264	269	265	265	271	272	270	266	268	268	267	266	263	265	264	264	267	268	268	269	271	269	269	269	265	266	267	269	270	271	272	272	271	268	270	270	268	265	263	262	262	262	266	265	270	274	270	270	271	268	270	267	267	267	270	274	271	268	268	269	271	270	270	268	268	269	270	266	266	266	267	266	270	270	268	269	268	268	266	268	268	269	275	270	272	272	272	278	274	273	272	272	273	273	274	274	273	270	272	271	271	273	271	269	269	270	271	270	270	267	266	270	271	271	270	268	269	269	268	271	269	268	267	268	270	271	271	269	269	270	271	271	271	270	269	267	263	263	266	272	270	271	272	273	274	273	273	269	267	268	271	273	272	271	271	269	271	271	270	273	266	272	270	271	271	270	270	262	266	265	266	263	265	265	266	268	269	269	268	272	273	274	273	274	273	272	272	272	272	270	270	271	276	276	273	266	267	268	270	270	271	271	271	271	269	268	268	265	266	266	267	264	264	264	270	265	262	263	265	267	269	267	270	272	268	267	265	266	267	267	270	271	267	267	267	265	268	270	273	266	264	260	258	260	261	262	264	266	264	262	260	261	264	265	266	267	268	268	267	268	268	267	267	265	264	267	264	266	267	266	267	265	265	267	261	262	264	263	259	264	267	268	270	268	266	264	259	261	264	265	268	271	268	267	265	264	261	261	264	266	258	256	263	257	258	259	261	260	259	258	260	261	262	260	261	262	264	258	260	260	259	259	258	256	257	258	261	261	262	264	266	265	266	262	261	263	259	258	261	263	266	266	267	264	264	263	262	262	264	268	270	269	267	263	260	259	262	266	267	266	262	261	261	264	262	267	266	266	265	263	263	263	262	262	261	262	262	262	260	260	263	264	266	262	261	263	266	266	265	260	258	259	260	262	263	265	266	265	261	261	264	257	255	259	261	265	260	259	259	260	261	262	264	264	264	263	263	262	0	0	0	0	0	0	0
275	272	271	271	274	277	278	275	275	267	265	265	271	271	272	273	275	278	278	278	278	276	276	274	271	271	276	276	275	275	276	279	279	277	277	275	274	272	273	274	273	274	275	274	272	272	273	272	272	271	272	273	273	275	273	272	272	271	271	271	273	275	271	270	272	273	271	272	271	270	270	271	271	270	269	269	271	271	275	277	278	277	274	275	271	272	274	274	274	275	277	276	275	272	271	273	273	272	273	275	270	269	268	270	270	273	273	274	274	269	269	271	270	272	274	277	277	276	275	274	274	269	268	270	268	267	267	265	265	268	268	268	265	266	270	269	269	270	266	265	265	268	266	267	266	265	271	271	271	266	265	266	269	275	275	274	271	274	274	274	273	272	271	267	266	267	270	271	271	271	274	272	268	268	271	269	266	266	270	270	269	272	269	266	265	266	267	266	267	267	268	271	273	263	265	267	268	266	268	265	263	263	266	267	266	263	264	267	268	264	269	272	271	271	264	273	265	264	267	269	270	268	266	264	266	266	266	264	263	259	261	269	269	269	269	266	264	260	264	262	266	266	269	270	269	270	270	271	266	269	269	265	261	260	260	260	261	262	266	265	267	271	267	267	267	264	263	264	264	265	267	263	266	267	265	266	268	268	267	267	262	262	264	268	266	266	267	264	270	269	269	268	266	266	266	268	268	272	274	269	273	268	269	269	269	268	270	272	274	274	273	272	267	266	270	270	273	270	268	268	269	270	268	266	265	265	265	268	271	271	270	266	266	264	266	266	266	265	268	269	270	269	268	267	268	270	270	271	268	266	263	263	263	262	264	267	268	269	271	271	266	264	260	260	264	267	271	271	269	268	268	270	268	270	265	269	266	267	271	271	266	263	260	261	259	262	260	265	265	262	269	269	268	267	270	271	271	271	271	271	271	271	269	271	268	267	269	266	270	265	265	265	265	265	268	269	269	270	268	266	262	261	262	263	264	265	264	263	261	261	261	260	262	265	266	266	266	265	262	262	261	261	261	263	264	267	269	266	264	262	266	265	267	267	264	263	263	262	262	262	263	264	263	259	261	255	255	258	265	264	262	263	265	269	269	268	266	263	263	266	263	263	262	263	264	265	265	264	260	260	262	265	260	257	255	264	266	267	267	265	259	262	258	265	264	267	267	264	263	264	265	265	264	262	260	258	258	258	257	256	259	259	260	258	258	260	261	261	259	263	262	257	258	257	258	258	258	256	258	257	257	255	255	254	256	264	266	263	261	261	257	256	254	255	260	262	262	262	263	264	263	261	261	262	262	262	261	260	259	259	260	261	263	262	260	261	265	259	259	255	254	257	263	262	260	257	259	259	260	259	261	261	261	259	259	259	262	260	260	261	260	260	261	262	258	256	258	260	262	266	264	266	262	260	260	257	256	255	255	259	264	257	257	257	257	255	259	262	262	263	263	261	261	0	0	0	0	0	0	0
271	271	270	270	273	274	278	270	270	267	266	268	273	270	270	267	268	272	264	264	267	273	270	268	269	270	270	273	274	273	276	277	277	274	274	272	272	272	272	273	270	273	273	274	271	271	272	273	272	272	272	272	273	274	271	270	271	273	273	273	275	274	272	272	272	271	271	269	268	268	268	268	268	268	267	269	269	270	272	272	274	273	271	272	270	272	274	273	272	270	269	273	273	270	268	267	268	268	270	269	268	267	266	267	267	267	267	267	264	265	268	269	267	267	265	265	265	271	274	273	270	270	267	270	266	265	264	264	264	266	268	265	264	263	269	268	267	267	267	266	265	266	266	266	265	266	265	267	266	265	264	263	266	270	277	272	266	266	271	269	271	270	267	262	261	262	270	270	269	271	273	270	267	266	262	266	266	263	266	262	267	265	265	261	261	259	258	264	265	265	267	270	268	262	268	271	269	266	266	265	262	264	263	263	264	263	266	265	266	265	265	273	274	266	274	267	262	266	266	264	264	262	264	263	265	267	269	265	262	265	264	268	265	262	261	261	262	261	264	268	261	264	265	267	267	265	268	271	265	269	261	265	256	262	260	261	262	262	260	261	263	264	268	261	263	261	261	263	261	260	264	262	256	255	257	265	264	266	264	262	263	261	264	268	266	265	264	265	267	269	271	269	266	267	267	266	267	269	265	270	267	265	265	267	267	264	266	267	269	273	272	270	268	264	267	269	270	267	265	265	265	267	267	267	266	264	264	265	266	266	263	265	266	265	262	265	264	266	265	267	267	265	265	265	266	265	266	265	264	264	263	263	264	263	265	264	262	257	259	262	263	261	259	259	264	268	266	267	265	265	265	266	265	265	263	262	263	265	265	267	266	265	261	263	262	259	261	259	260	268	269	268	265	263	263	265	265	267	269	269	269	269	268	269	264	263	263	264	262	261	261	262	262	263	264	268	270	266	264	263	262	260	261	263	262	264	264	262	261	260	260	261	262	264	265	267	266	264	264	263	263	262	263	262	264	267	269	267	267	265	262	263	264	264	267	261	262	261	261	264	265	262	260	260	258	251	255	258	260	259	260	263	264	263	264	264	261	260	262	263	261	261	261	260	264	265	264	260	261	261	263	265	260	256	260	263	265	262	266	266	263	262	261	261	265	258	266	258	261	263	264	264	262	261	259	258	258	255	254	257	257	259	259	257	257	257	258	260	257	258	254	257	257	256	254	256	258	257	256	256	257	257	255	254	256	258	260	264	260	256	255	253	253	255	256	257	259	259	261	263	262	261	256	257	262	260	260	259	258	260	260	259	261	258	259	258	258	259	255	254	253	252	252	259	258	257	258	258	258	258	257	259	260	259	258	258	258	257	258	260	259	254	253	253	254	257	257	259	259	261	264	260	255	255	252	250	250	249	250	250	257	252	251	249	253	253	255	255	258	259	260	260	257	0	0	0	0	0	0	0
267	266	264	264	265	270	268	268	267	267	267	269	271	270	270	266	262	262	261	267	267	270	266	267	267	269	269	270	271	272	274	273	270	270	270	268	268	268	268	270	266	270	272	273	270	268	268	270	271	271	269	266	263	264	268	270	272	273	274	274	274	276	273	272	270	271	271	269	269	264	265	266	266	266	267	267	266	269	271	270	268	268	267	267	266	269	270	269	267	267	263	265	267	264	267	267	268	270	270	268	271	267	268	261	264	264	266	267	267	268	267	266	265	267	267	268	266	266	271	270	270	270	269	266	260	263	263	262	263	266	265	264	263	266	266	267	265	267	263	263	264	264	264	261	264	265	266	267	266	265	263	262	262	260	262	263	263	262	262	264	264	262	262	264	262	267	267	266	265	263	263	263	263	263	262	263	263	262	265	263	264	265	265	263	261	259	260	259	264	264	262	265	261	263	265	269	270	261	262	264	262	261	266	263	262	264	267	267	264	263	265	264	267	273	266	260	259	261	263	259	257	257	259	262	264	263	262	264	265	265	266	266	264	262	261	261	263	260	263	266	259	263	264	264	260	260	261	262	262	268	265	262	258	258	254	260	262	261	258	260	259	260	260	258	259	260	259	260	260	257	260	257	256	256	257	262	264	255	260	261	263	264	266	268	266	263	264	265	265	269	270	267	268	268	269	268	267	263	263	261	265	263	264	265	264	263	264	266	267	269	269	268	266	264	265	266	265	265	263	263	266	264	266	265	266	264	260	256	260	260	260	264	265	265	260	264	264	262	264	264	264	262	261	263	264	263	263	263	262	264	264	264	268	267	267	266	265	260	259	261	263	264	260	262	263	265	266	262	260	260	262	262	262	260	260	260	260	262	265	264	265	263	263	260	262	261	262	261	257	258	263	263	262	259	260	263	263	266	265	267	268	265	265	265	262	261	261	258	259	258	256	260	260	259	261	263	266	260	262	260	259	261	260	260	261	264	263	262	260	260	260	258	261	264	265	265	265	261	262	262	263	262	262	263	262	263	264	267	265	261	260	258	260	263	266	260	260	259	259	260	256	259	259	257	253	252	255	258	261	261	262	262	263	258	259	260	259	257	259	260	257	256	256	256	266	264	262	259	256	258	261	262	261	260	261	263	262	261	264	264	262	260	260	259	256	256	260	259	260	262	261	259	257	258	259	258	258	257	255	256	256	258	258	252	250	253	255	253	254	255	256	258	257	255	253	253	253	255	252	252	253	257	258	257	255	257	259	259	261	257	255	252	254	255	255	258	258	260	260	257	256	255	255	255	255	260	260	258	257	260	261	259	258	256	255	253	252	254	253	254	252	251	251	254	254	255	257	257	256	257	256	254	258	258	258	256	255	255	257	257	254	253	253	252	253	255	257	257	258	259	258	253	255	255	256	247	250	255	254	247	248	255	254	251	248	251	251	251	248	249	249	249	252	0	0	0	0	0	0	0
265	264	260	258	258	258	262	264	265	265	263	266	268	267	267	264	262	260	263	266	266	264	265	265	266	265	265	265	267	269	267	263	265	265	265	264	263	263	263	266	262	262	269	265	265	265	264	263	262	262	260	257	258	261	263	267	264	263	264	265	265	267	268	269	266	268	271	264	264	263	264	266	266	266	265	263	264	265	264	264	265	265	265	265	265	266	269	267	262	259	259	259	260	264	265	269	271	269	268	268	268	262	262	261	264	264	267	267	264	267	267	265	265	265	266	265	265	265	265	268	262	268	263	257	257	262	261	260	265	266	259	258	260	266	266	263	262	262	262	261	262	262	261	261	264	262	266	266	266	265	263	261	260	258	258	267	262	259	257	257	258	260	260	263	262	265	264	263	261	263	262	263	263	261	261	264	263	262	262	262	263	262	263	261	260	260	260	261	260	264	263	263	262	259	260	262	261	261	261	261	267	260	259	261	262	263	263	266	267	265	262	263	260	258	257	257	262	262	261	258	257	257	256	258	260	260	258	260	255	261	265	265	265	265	260	260	265	263	261	264	263	264	267	265	259	258	258	256	258	259	265	261	260	260	259	256	257	257	256	257	256	256	256	256	255	257	255	257	257	258	256	259	257	256	254	258	263	261	261	258	259	257	265	264	264	264	265	265	265	263	263	264	266	266	265	265	262	261	259	259	258	262	263	264	263	261	262	262	264	265	263	265	265	263	263	264	264	259	261	261	259	259	263	264	265	258	256	258	259	259	262	263	265	265	261	258	258	260	259	262	260	257	257	257	258	258	261	262	262	259	261	264	264	263	263	262	261	260	259	262	265	263	262	263	262	263	262	257	257	257	261	262	261	259	258	259	258	262	260	261	257	259	258	259	261	260	259	259	259	259	259	259	259	255	258	259	263	253	253	254	257	259	259	258	258	253	254	256	256	257	256	253	255	254	257	257	258	256	256	258	256	258	261	262	263	262	263	261	259	260	260	260	259	261	265	265	261	261	262	261	261	259	261	261	261	261	258	261	261	258	259	257	255	256	256	258	260	259	257	260	255	257	254	253	255	255	257	258	261	260	260	262	260	257	259	259	258	254	255	255	255	255	255	258	261	258	259	258	256	254	258	257	261	260	260	260	260	261	263	263	255	258	255	256	255	260	259	259	260	260	258	258	259	259	256	257	257	256	254	255	255	255	254	255	253	250	251	251	254	254	258	257	255	253	251	253	253	253	252	252	252	256	258	257	259	258	259	262	258	253	252	253	253	251	251	253	255	254	256	259	258	252	250	250	255	257	257	254	252	253	250	252	253	253	253	252	250	253	251	254	252	251	250	249	253	253	253	256	255	253	255	255	254	256	257	260	258	256	255	255	254	256	251	249	252	253	254	255	255	256	252	254	254	253	250	249	255	249	247	248	248	249	251	249	250	248	248	246	246	246	245	247	244	0	0	0	0	0	0	0
261	259	256	255	255	257	260	260	258	258	258	260	263	264	264	261	260	261	261	261	261	261	263	264	265	263	263	258	258	258	258	261	261	261	262	260	261	260	261	262	262	262	261	262	261	260	260	261	259	257	257	256	258	260	262	262	262	261	261	262	262	263	264	264	264	265	268	263	262	261	262	265	264	264	264	263	262	263	262	261	261	262	263	263	263	265	268	263	259	257	257	256	260	260	260	264	262	262	262	262	262	262	265	266	265	265	265	261	263	259	255	255	257	256	256	257	266	261	266	256	263	257	257	256	253	255	255	259	262	260	258	258	258	261	263	266	262	260	259	259	258	257	258	258	264	262	262	255	256	257	258	258	258	259	256	254	256	256	258	259	259	259	260	257	255	257	259	253	258	256	260	262	264	263	261	264	266	263	262	262	261	262	262	259	260	258	259	260	259	260	258	258	256	259	262	263	261	262	260	262	261	261	259	259	259	260	262	257	257	257	256	256	259	259	260	260	259	260	259	256	256	255	256	256	256	256	256	256	256	258	253	253	262	260	260	255	257	260	257	260	262	258	261	259	260	254	256	254	257	264	263	261	260	260	258	258	257	259	257	256	256	256	259	256	256	251	256	253	257	258	257	257	253	251	252	256	256	263	257	257	256	257	255	255	256	258	266	264	263	264	258	257	258	263	265	265	262	261	260	258	257	258	262	262	260	259	260	259	260	260	260	260	259	258	261	261	260	258	259	259	259	257	257	260	259	255	253	254	255	257	259	263	264	262	261	259	258	257	259	259	260	257	257	258	257	257	257	258	259	262	264	263	265	259	257	257	259	260	262	263	264	264	264	264	263	261	259	255	254	253	259	259	259	258	256	255	254	256	258	259	257	259	262	258	257	257	257	258	257	256	257	257	258	256	254	255	254	253	255	256	257	256	255	255	255	251	251	250	253	254	253	250	254	255	255	255	255	253	252	252	255	257	259	259	262	262	258	258	260	260	261	259	259	260	262	261	261	259	259	258	255	256	260	261	261	260	254	251	250	257	257	255	254	253	253	256	256	258	258	253	252	251	251	251	253	254	260	259	258	261	259	255	256	258	259	259	257	256	256	255	254	253	254	257	253	254	255	257	255	253	253	254	257	259	261	258	259	253	260	256	252	253	254	253	253	253	259	255	260	258	257	257	257	257	256	256	255	253	253	255	253	254	255	254	253	250	249	250	252	254	255	254	254	251	251	252	252	251	251	251	252	253	257	258	259	261	262	257	248	249	251	253	253	252	250	251	251	250	250	251	249	252	252	249	250	248	250	253	251	250	249	248	248	247	248	247	246	247	251	251	249	251	250	251	251	252	252	253	252	254	253	261	258	254	255	256	256	256	255	254	255	253	248	248	247	250	249	253	254	252	252	250	250	250	250	251	249	248	246	247	246	246	250	246	248	250	250	250	248	246	246	245	246	0	0	0	0	0	0	0
256	254	253	252	252	253	258	258	255	255	253	254	257	259	260	260	259	260	261	257	258	258	259	261	262	259	259	259	258	259	260	261	261	261	261	260	258	258	258	260	261	261	260	260	260	260	260	256	254	254	254	255	256	257	262	261	260	256	256	257	260	260	265	264	263	263	258	258	258	258	260	262	263	260	260	261	261	261	260	258	258	254	256	261	263	265	266	263	260	259	257	254	258	257	258	259	259	259	259	261	265	265	268	267	266	265	265	260	263	258	251	255	251	249	245	256	261	257	257	256	256	255	256	256	257	256	256	254	254	254	253	257	256	257	259	255	260	257	256	256	256	256	256	253	253	252	253	253	254	255	256	257	257	257	254	254	255	257	258	259	260	259	260	258	254	257	259	252	257	256	258	261	260	259	259	256	254	255	258	259	259	260	259	259	256	258	259	264	266	263	261	258	256	258	264	264	260	261	262	261	255	259	258	259	258	255	255	256	253	253	253	254	258	259	262	263	261	260	254	255	254	255	256	256	255	255	255	256	256	253	252	253	253	258	252	252	253	255	259	260	257	258	257	258	259	256	255	254	256	262	259	260	260	259	260	256	258	259	257	255	256	257	258	256	260	258	255	257	257	256	255	252	250	250	253	254	256	256	253	252	253	254	254	254	256	257	256	261	261	260	261	257	255	255	258	261	262	261	257	257	257	256	258	261	260	258	259	258	259	259	258	257	255	256	257	261	259	258	258	258	258	259	259	259	258	255	252	252	253	257	258	263	262	260	260	259	259	257	258	260	258	256	255	255	256	256	257	257	256	257	258	258	255	254	256	257	258	259	260	260	262	261	261	259	264	260	259	257	254	253	259	257	257	256	254	252	253	254	253	257	258	258	256	255	253	255	254	255	255	255	255	255	255	255	255	253	254	254	255	255	256	254	251	251	254	254	255	254	253	252	252	251	253	255	255	255	254	249	251	251	255	256	258	258	258	255	255	255	259	258	256	257	258	256	256	254	252	249	256	256	255	255	258	258	258	257	256	251	251	251	252	252	250	252	251	252	257	255	255	254	252	250	250	251	253	253	258	257	254	254	253	253	250	254	255	257	257	256	257	254	253	254	251	254	252	252	254	254	254	251	253	253	252	246	246	256	253	249	247	255	254	253	249	247	245	246	251	258	258	255	253	255	254	256	255	250	252	246	246	246	246	250	252	253	252	252	248	249	251	256	256	253	251	252	253	252	250	250	250	250	250	254	256	256	257	258	255	248	248	248	249	250	250	250	246	247	251	250	249	248	249	250	251	251	249	247	247	251	252	251	249	248	247	246	245	247	248	251	247	246	247	247	251	251	248	251	253	250	251	251	252	251	251	253	252	251	251	250	251	252	254	254	248	248	252	250	247	248	249	251	251	251	250	249	248	248	251	251	249	247	245	243	243	243	245	244	250	248	246	247	246	247	250	0	0	0	0	0	0	0
253	252	249	250	252	252	257	256	255	255	255	257	255	256	259	259	258	257	255	253	255	255	256	258	258	257	256	256	257	257	257	256	257	259	259	259	254	254	256	260	260	258	258	258	260	259	255	256	256	255	255	254	254	255	256	256	254	254	256	257	258	258	264	263	258	258	256	252	252	255	256	257	257	253	253	253	256	258	257	256	255	252	257	259	261	263	261	259	260	260	253	252	255	258	257	258	259	258	258	261	264	265	267	267	263	260	257	251	251	252	254	257	254	252	253	254	253	253	253	254	253	251	253	248	254	255	257	258	256	254	250	250	253	258	259	261	256	258	256	256	256	255	251	249	251	252	252	253	253	253	255	256	256	256	254	255	255	256	257	259	258	257	256	254	255	255	254	255	255	254	254	254	254	254	254	254	253	254	257	257	257	257	258	259	258	257	256	258	263	262	261	257	257	255	256	262	261	260	263	257	256	255	255	255	255	253	252	252	251	252	252	254	255	259	260	262	261	258	257	254	255	254	256	255	254	254	254	251	251	254	254	253	252	251	252	252	256	258	260	259	258	257	258	258	259	257	254	255	254	255	254	257	258	257	259	254	257	259	257	254	256	256	253	254	256	252	256	256	256	256	252	250	253	253	254	255	253	250	251	251	252	254	254	254	254	257	256	255	257	258	257	256	256	254	255	259	258	257	254	255	256	258	258	259	258	257	256	255	260	258	256	254	254	254	254	255	256	253	254	256	257	259	259	260	259	256	254	252	253	254	254	259	254	254	255	258	257	256	253	256	256	253	254	255	256	256	256	254	250	251	250	253	253	253	253	251	252	252	254	253	253	254	259	258	256	254	256	256	254	257	257	257	254	253	252	253	252	253	253	253	255	255	251	248	248	248	251	251	251	252	253	254	254	254	252	251	253	254	253	254	254	251	248	247	250	253	255	254	251	250	251	250	252	252	255	253	246	246	248	249	252	251	251	249	249	251	252	256	252	250	252	254	255	255	254	253	248	251	250	252	253	251	259	260	257	257	258	252	252	252	247	247	248	250	252	252	251	252	251	252	251	250	250	250	253	255	254	250	247	244	243	243	245	249	252	254	254	254	255	257	254	252	252	253	251	250	252	252	253	251	249	253	242	244	244	256	253	248	246	254	252	251	249	247	244	244	244	254	254	253	246	251	250	254	251	253	246	245	246	246	247	248	249	251	251	250	247	247	256	254	250	249	246	244	245	245	246	248	247	246	249	253	254	254	253	252	244	245	245	246	250	246	247	245	245	247	247	251	251	250	249	249	249	248	244	248	247	248	251	252	250	249	246	246	246	247	247	249	248	248	243	244	250	249	245	245	247	248	249	247	244	246	248	250	250	251	251	251	251	250	251	254	252	252	251	247	246	246	249	249	250	250	248	248	247	249	249	246	244	244	243	242	242	242	244	244	244	246	246	246	244	249	246	0	0	0	0	0	0	0
253	251	250	251	254	254	255	255	255	256	256	252	253	256	258	258	256	251	252	251	253	253	254	251	253	254	254	254	254	254	254	253	252	254	254	254	255	255	256	258	255	254	254	254	255	255	254	255	256	256	255	255	253	253	252	252	253	257	258	258	257	257	256	256	255	252	246	249	251	256	257	258	259	256	257	257	255	254	253	258	258	256	255	253	258	258	257	258	258	257	255	255	255	256	257	258	258	257	257	257	257	259	262	257	259	252	257	256	252	252	252	253	252	254	253	254	252	253	251	251	250	248	251	250	249	251	254	256	256	256	254	254	249	253	254	257	256	255	255	255	253	252	251	251	251	255	255	252	252	251	252	254	256	256	253	253	253	252	252	250	256	253	249	253	253	249	249	249	251	251	250	250	249	251	250	251	251	254	256	256	255	256	256	255	255	252	254	256	262	260	259	258	255	258	255	255	257	258	253	254	254	252	252	252	251	252	252	250	250	252	252	253	253	258	260	261	258	257	255	251	255	253	251	252	249	250	250	251	253	249	249	253	250	248	251	250	253	254	255	253	259	251	253	254	259	255	255	250	252	251	252	253	258	256	257	259	259	259	257	253	253	254	251	249	252	250	254	255	256	253	251	251	253	255	255	252	247	250	252	251	251	253	256	253	253	256	255	254	255	256	255	254	253	249	254	255	254	253	253	252	251	255	255	256	255	253	253	254	259	254	254	252	254	253	254	252	253	251	249	251	251	251	252	256	256	256	253	252	251	249	252	257	254	253	255	256	255	254	250	251	251	253	252	253	253	254	252	253	251	251	252	253	255	255	252	250	250	246	248	249	250	253	256	256	257	256	252	253	256	257	257	253	248	245	246	248	253	253	253	253	254	252	253	252	252	252	252	250	250	251	251	253	254	253	253	251	253	254	253	253	252	250	249	247	249	249	253	255	252	250	248	250	251	249	249	246	245	247	247	250	250	250	249	248	250	248	250	253	251	250	250	252	255	254	254	252	250	249	249	251	252	253	253	254	255	254	250	252	252	252	247	248	249	248	253	253	251	251	249	249	250	250	250	253	251	245	255	251	248	247	244	245	245	248	249	251	253	251	250	248	247	252	250	250	251	250	250	246	246	249	253	241	244	244	246	249	243	242	245	242	245	247	246	246	244	243	244	248	251	249	252	246	248	244	251	247	249	245	247	248	248	248	249	249	250	252	252	248	250	251	248	247	245	244	244	244	243	242	242	245	247	246	249	252	243	243	244	244	244	245	247	247	245	244	243	243	249	248	247	249	248	248	248	246	244	244	245	246	247	248	246	244	246	246	247	246	247	251	248	248	242	242	246	244	245	247	247	247	246	243	240	240	242	247	246	246	247	248	248	250	249	250	250	250	247	246	245	244	246	247	247	246	246	242	243	246	249	246	243	243	242	241	240	239	240	240	241	243	241	242	250	247	247	0	0	0	0	0	0	0
252	249	250	251	253	253	253	253	254	254	254	250	253	256	256	251	251	249	249	251	252	252	252	251	248	251	252	250	250	252	249	249	250	252	254	254	255	256	257	258	249	250	250	251	253	254	251	251	252	253	254	254	252	252	252	252	253	256	262	259	256	255	255	255	253	246	247	247	251	255	256	256	257	256	254	252	252	251	255	257	258	257	257	256	254	253	255	257	257	256	254	255	252	250	250	252	255	256	256	255	255	253	252	249	251	251	251	255	253	252	252	252	253	249	250	252	252	250	246	248	251	255	252	247	247	248	251	252	254	254	254	255	253	252	251	256	254	255	254	252	251	253	251	253	253	257	255	250	249	250	251	254	257	256	254	252	252	250	249	248	248	252	246	251	251	249	249	250	252	251	250	250	249	248	247	248	251	253	252	250	255	255	252	251	251	251	251	252	251	251	255	253	254	256	256	254	253	253	246	246	253	254	254	249	249	251	250	247	249	251	250	250	251	249	249	247	246	245	244	247	253	247	251	251	250	249	248	249	251	248	249	250	247	246	249	248	249	253	254	252	252	254	254	252	246	247	248	252	250	250	250	251	252	251	251	250	251	251	249	245	249	249	252	250	249	250	253	255	254	250	249	253	255	253	251	246	245	244	250	252	250	252	254	252	251	255	254	253	253	255	254	253	254	250	251	252	250	250	250	250	247	250	255	253	251	251	250	253	253	252	247	248	251	254	253	253	250	250	249	249	249	249	249	249	249	253	253	252	249	248	250	251	254	254	255	254	253	252	251	249	248	249	252	253	252	252	251	250	250	250	251	255	256	255	254	249	248	248	247	247	249	249	253	254	254	253	256	249	252	251	252	250	251	251	248	249	253	253	254	251	252	251	252	252	253	253	253	251	250	247	246	250	252	254	254	250	250	250	250	251	250	249	248	246	247	249	251	256	254	250	250	249	250	249	248	248	247	247	247	248	253	251	251	251	251	252	252	253	254	251	250	249	248	252	252	251	251	248	243	250	252	251	251	249	249	249	249	247	247	247	243	247	249	247	248	251	248	250	249	248	249	245	243	250	250	247	248	249	249	246	247	247	247	247	250	249	249	245	246	246	249	247	248	248	244	248	246	245	245	235	242	241	240	242	244	245	244	242	244	241	242	240	244	246	245	242	245	247	247	248	253	246	243	244	247	247	249	248	244	245	246	246	246	245	247	250	250	250	248	249	246	245	245	245	246	246	246	247	245	243	246	247	245	242	242	241	243	244	244	245	246	246	244	244	240	241	244	245	244	245	244	245	247	246	246	247	245	248	248	244	239	243	243	243	243	243	242	241	241	245	238	238	237	242	247	244	247	245	244	241	241	241	240	241	243	243	243	242	245	246	248	247	247	241	246	247	244	243	245	245	245	245	244	243	240	241	242	244	245	243	241	240	239	238	238	239	239	241	241	243	244	245	246	0	0	0	0	0	0	0
249	248	249	250	249	249	250	251	252	247	247	246	247	251	251	251	251	249	249	252	252	252	252	250	249	249	250	249	249	250	248	247	248	249	252	252	254	255	253	250	248	248	251	251	253	250	248	248	247	251	253	251	251	252	252	251	253	255	257	258	256	252	252	249	245	247	248	249	250	255	255	256	255	254	248	249	249	250	250	248	250	252	253	252	253	253	254	254	255	253	251	251	251	249	249	251	252	255	254	252	251	250	256	257	251	254	251	251	251	251	252	254	252	251	248	248	250	249	245	245	253	248	248	246	245	247	247	248	251	252	252	251	253	252	251	252	250	249	249	250	251	251	252	251	255	256	249	249	250	247	250	251	253	253	252	248	246	251	248	247	248	245	243	249	246	248	250	250	250	251	249	249	248	244	245	247	250	251	249	248	246	243	243	251	251	251	252	249	250	250	250	248	249	254	254	254	254	254	252	249	248	249	248	246	248	249	249	246	245	246	249	249	246	246	249	246	245	244	244	246	243	242	242	248	248	248	248	249	248	247	246	245	247	244	243	243	243	249	250	249	249	253	253	248	249	246	250	250	250	248	247	246	248	248	246	245	246	245	245	245	248	248	251	247	248	252	255	254	250	248	249	249	249	249	244	244	248	249	247	251	249	249	249	250	251	248	249	248	251	250	245	246	249	251	251	250	249	245	245	245	246	247	250	249	247	247	246	245	247	246	248	249	250	252	252	251	249	249	247	248	248	248	248	248	248	252	251	250	249	249	248	249	247	248	249	250	252	252	251	248	249	251	251	253	251	249	249	249	249	250	250	250	251	251	251	247	247	246	246	245	246	246	249	252	257	249	251	247	248	250	249	246	246	248	249	250	251	254	254	251	249	246	250	251	252	247	247	245	247	245	244	245	248	250	251	251	251	250	249	250	250	248	247	245	246	250	256	255	253	252	250	246	247	248	248	248	248	247	245	250	246	246	246	247	249	252	253	252	250	249	248	247	248	247	247	247	246	247	242	250	252	251	250	249	250	249	249	246	246	246	243	243	246	247	247	245	247	248	247	245	244	244	245	248	248	243	243	245	244	244	243	244	244	244	247	247	247	245	244	247	245	244	244	243	243	245	245	246	246	236	242	241	240	241	245	243	243	245	243	241	240	244	244	245	244	242	239	241	246	249	247	247	243	241	242	243	246	246	240	239	239	238	240	238	241	244	245	244	243	243	243	241	245	244	246	246	244	246	247	246	246	245	242	239	239	239	240	240	241	245	245	246	243	243	241	242	242	243	243	241	241	242	242	244	247	247	247	247	248	247	239	238	240	238	238	238	240	241	241	241	239	239	238	244	243	241	242	240	239	239	240	239	236	240	241	241	240	240	240	241	242	244	241	242	239	243	242	244	241	241	242	244	241	239	237	238	241	243	241	241	241	239	237	236	236	235	234	238	238	238	241	244	245	0	0	0	0	0	0	0
248	248	244	244	244	246	246	243	243	243	242	242	245	247	249	250	250	249	251	252	247	248	248	250	249	250	250	249	249	248	246	246	248	249	250	250	251	252	249	247	247	246	247	247	246	250	250	250	250	246	247	247	247	251	252	251	251	255	248	249	248	245	245	245	246	248	248	247	250	252	250	247	245	243	243	244	247	247	249	251	251	251	250	249	250	250	250	250	247	248	253	249	249	249	251	250	250	250	251	249	250	250	247	242	242	244	252	252	251	251	251	249	248	247	248	247	247	249	247	246	248	247	247	245	244	244	244	246	248	246	247	249	252	252	251	251	248	249	248	247	247	251	249	245	247	249	255	252	245	242	244	245	245	252	249	247	246	251	247	247	248	248	245	242	247	249	249	249	249	244	247	247	245	242	244	246	247	249	250	248	248	246	243	248	253	254	252	249	247	246	247	249	243	246	249	247	252	253	253	246	247	248	247	246	248	247	247	246	245	247	246	245	245	246	245	246	245	245	246	243	242	240	240	241	242	246	247	248	244	246	245	245	245	243	243	243	245	246	245	245	245	246	247	249	248	247	246	246	248	248	249	248	248	247	243	244	246	243	244	244	245	247	247	243	244	248	250	249	248	247	247	248	246	238	244	248	247	244	249	244	247	249	249	250	247	246	242	243	244	245	242	242	247	244	245	247	244	243	243	245	245	246	245	245	246	244	244	244	245	245	246	251	251	251	251	249	246	246	247	246	246	247	247	248	248	251	249	248	249	248	248	248	248	246	247	250	251	252	252	251	251	250	250	248	245	247	248	248	248	248	249	248	248	245	243	244	245	246	245	245	244	244	247	243	252	253	251	252	247	248	245	246	244	244	245	247	248	249	250	247	246	245	244	248	250	248	247	244	244	242	240	242	243	249	251	250	250	250	250	250	249	247	247	246	246	247	252	251	249	248	247	243	243	246	246	245	245	244	246	244	246	245	246	244	240	250	251	249	248	247	242	244	244	244	241	242	240	240	245	240	239	238	245	252	249	248	246	244	244	242	242	243	244	244	244	244	244	243	241	245	243	243	245	245	243	244	246	248	243	243	242	242	243	243	244	245	245	245	245	244	243	240	242	242	239	242	242	241	242	242	245	246	244	241	243	241	242	241	243	239	243	241	244	245	242	240	239	237	241	246	247	246	239	239	242	243	244	240	239	237	237	237	238	240	243	244	244	244	242	237	237	238	237	240	244	240	242	245	244	245	244	244	238	238	239	238	238	241	244	247	244	245	243	243	242	241	244	244	242	240	240	241	241	239	239	243	246	244	249	247	241	242	240	239	236	237	238	242	241	241	242	242	243	243	241	238	238	239	240	240	239	238	236	236	240	241	240	238	237	237	241	243	243	238	235	234	236	239	239	242	242	241	239	238	239	240	237	238	238	238	239	237	236	236	235	235	234	236	237	238	239	240	238	0	0	0	0	0	0	0
245	245	241	242	240	238	238	239	241	243	242	242	245	247	248	248	250	250	248	245	240	244	244	247	248	251	248	248	245	245	243	244	243	243	245	247	247	246	247	247	246	246	245	245	247	244	246	249	249	247	247	250	250	250	250	251	250	246	247	247	248	248	246	246	248	249	249	248	247	247	245	242	243	243	245	246	248	248	249	251	251	251	247	248	249	249	250	244	246	245	249	248	244	246	249	249	249	250	248	248	248	245	238	237	239	241	242	243	245	246	243	243	246	246	247	248	248	247	247	245	248	248	247	244	241	245	245	241	246	245	247	250	251	249	245	248	251	241	244	242	241	242	242	244	244	243	244	243	245	243	245	249	251	247	248	250	251	247	246	248	248	248	248	247	244	242	243	243	245	248	247	246	244	242	241	241	243	247	250	248	247	245	245	248	253	247	247	241	240	238	240	244	243	243	245	246	247	247	244	248	248	248	246	246	246	245	246	244	244	246	241	241	243	245	244	244	244	247	243	244	242	241	242	243	241	245	245	246	244	244	244	244	241	242	244	245	245	244	244	245	246	246	247	245	246	245	246	244	243	244	244	244	243	244	246	244	244	245	244	246	247	246	244	241	241	242	243	243	242	247	247	246	242	238	241	241	245	246	243	244	244	246	246	247	244	243	242	245	245	243	242	242	246	243	243	245	247	246	245	245	244	244	244	243	243	243	243	243	245	245	245	251	251	251	249	248	245	243	243	240	240	240	245	245	249	247	246	247	247	248	248	248	246	246	246	249	251	252	252	251	251	249	247	244	240	243	245	245	246	249	249	247	242	241	243	245	246	245	245	245	245	244	245	249	251	252	248	245	248	245	242	242	242	244	244	245	247	246	245	244	245	242	246	248	243	243	243	245	246	244	242	241	241	244	250	252	251	249	249	247	243	247	249	249	248	244	243	248	247	246	245	244	244	243	241	241	246	245	245	243	242	247	244	244	243	246	245	245	241	239	242	242	241	239	240	240	240	239	240	236	236	237	238	246	244	241	242	242	238	238	242	242	242	241	242	242	243	244	242	241	243	243	244	244	243	246	247	246	243	242	243	241	243	243	243	243	244	241	244	245	244	241	240	236	237	239	240	238	240	242	243	241	237	238	240	239	239	241	241	244	243	242	242	238	238	240	242	242	243	241	239	234	238	242	239	242	242	239	238	237	236	237	237	238	238	241	241	242	241	235	235	236	238	240	238	238	240	239	239	242	243	245	238	238	238	238	239	241	243	245	246	243	241	243	241	240	243	242	240	239	240	242	240	239	235	233	238	242	243	242	242	240	240	239	237	236	236	233	233	238	238	240	241	242	238	237	236	237	240	241	239	235	234	236	238	237	235	236	235	236	237	243	242	238	238	239	238	239	239	239	236	238	238	239	238	237	234	233	234	237	237	235	233	233	233	232	233	238	238	237	237	237	237	0	0	0	0	0	0	0
241	241	241	236	235	234	234	238	240	242	243	243	244	243	245	245	244	244	244	242	239	244	248	248	249	248	248	246	242	242	241	241	243	244	244	243	243	244	244	246	244	244	243	245	245	245	246	247	246	247	247	248	249	249	250	246	245	241	244	245	245	247	247	246	246	247	248	245	245	242	242	244	244	244	242	245	246	247	247	249	250	252	250	246	248	249	245	244	248	245	244	243	244	244	246	246	245	247	247	246	243	244	243	239	239	240	242	244	245	244	243	241	245	247	247	247	248	249	247	247	243	244	243	239	238	238	245	246	242	238	237	249	247	245	241	238	240	239	242	241	241	242	242	243	243	244	245	246	243	242	241	245	249	245	247	247	246	246	245	247	248	249	243	239	239	238	247	244	245	244	245	243	243	241	241	240	241	244	245	244	239	241	242	244	245	247	240	243	239	240	241	243	243	243	244	245	247	245	245	248	248	248	243	244	245	244	245	245	243	241	239	239	238	243	243	240	243	247	245	242	242	243	243	243	243	242	243	241	242	242	242	244	243	240	243	243	244	243	244	245	246	247	247	246	245	245	244	242	241	242	243	243	242	242	245	247	242	246	246	246	245	244	243	241	242	244	244	242	241	241	245	245	239	240	241	241	243	244	244	244	244	244	244	245	243	242	242	243	244	243	242	241	240	239	239	241	241	243	240	244	242	241	243	242	241	241	240	243	241	243	244	244	245	246	247	243	242	241	242	244	244	245	244	243	242	241	241	243	240	238	241	245	243	243	243	241	241	249	252	248	246	241	241	241	240	241	241	241	241	241	241	242	242	242	245	246	245	245	244	246	245	246	247	245	243	243	243	244	244	244	243	241	242	243	245	245	247	246	244	244	243	243	243	243	242	242	241	244	246	245	244	241	240	240	241	247	246	244	245	244	245	250	250	239	243	242	241	239	245	243	244	243	243	241	241	241	240	241	242	246	246	245	243	241	242	244	245	243	243	241	239	242	241	241	240	239	238	237	239	240	239	241	241	241	240	239	242	241	238	238	240	240	241	241	236	237	240	241	241	242	243	243	242	243	243	241	245	245	242	239	242	240	239	241	242	242	242	243	242	243	242	240	239	236	238	235	237	237	240	238	238	236	237	238	236	233	233	238	242	244	244	243	241	243	244	241	236	236	236	239	239	234	230	235	241	238	240	240	238	238	237	238	237	238	237	240	240	240	240	239	235	235	237	237	237	237	239	237	236	239	243	244	243	238	238	237	238	237	237	238	245	241	240	238	237	238	238	239	237	238	240	240	239	237	235	233	233	234	234	240	240	239	239	239	237	237	235	233	233	232	235	233	239	238	238	236	236	235	238	238	237	233	233	233	233	239	236	232	233	234	236	242	239	239	237	237	238	238	236	236	236	236	238	238	237	234	231	231	230	234	230	233	233	232	232	232	232	236	236	234	234	235	234	0	0	0	0	0	0	0
