0	0	0	0	0	0	0	0	0	0	0	0	0	0	0	0	0	0	0	0	0	0	0	0	0	0	0	0	0	0	0	0	0	0	0	0	0	0	0	0	0	0	0	0	0	0	0	0	0	0	0	0	0	0	0	0	0	0	0	0	0	0	0	0	0	0	0	0	0	0	0	0	0	0	0	0	0	0	0	0	0	0	0	0	0	0	0	0	0	0	0	0	0	0	0	0	0	0	0	0	0	0	0	0	0	0	0	0	0	0	0	0	0	0	0	0	0	0	0	0	0	0	0	0	1220	1230	1240	1242	1254	1273	1291	1288	1276	1264	1256	1263	1275	1262	1249	1234	1233	1251	1295	1290	1283	1294	1307	1304	1281	1265	1260	1275	1283	1286	1281	1291	1305	1318	1322	1288	1273	1279	1281	1286	1296	1342	1356	1354	1356	1347	1358	1344	1319	1304	0	0	0	0	0	0	0	0	0	0	0	0	0	0	0	0	0	0	0	0	0	0	0	0	0	0	0	0	0	0	0	0	0	0	0	0	0	0	0	0	0	0	0	0	0	0	1468	1561	1597	1524	1436	0	0	0	0	0	0	0	0	0	0	0	0	0	0	0	0	0	0	0	0	0	0	0	0	0	0	0	0	0	0	0	0	0	0	0	0	0	0	0	0	0	0	1205	1250	1286	1312	1327	1332	1336	1332	1332	1324	1313	1316	1330	1333	1339	1344	1343	1331	1324	1310	1304	1317	1330	1331	1333	1322	1311	1301	1308	1323	1328	1332	1325	1311	1306	1304	1307	1327	1334	1327	1322	1319	1322	1323	1325	1334	1334	1329	1322	1333	1339	1343	1337	1336	1326	1319	1331	1346	1353	1355	1337	1335	1333	1337	1337	1342	1340	1328	1311	1307	1312	1321	1355	1351	1349	1359	1362	1358	1359	1361	1331	1308	1284	1265	1262	1289	0	0	0	0	0	0	0	0	0	0	0	0	0	0	0	0	0	0	0	0	0	0	0	0	0	0	0	0	0	0	0	0	0	0	0	0	0	0	0	0	0	0	0	0	0	0	0	0	0	0	0	0	0	0	0	0	0	0	0	0	0	0	0	0	0	0	0	0	0	0	0	0	0	0	0	0	0	0	0	0	0	1431	1553	1659	1597	1534	0	0	0	0	0	0	0	0	0	0	0	0	0	1229	1229	1227	1243	1265	1302	1340	1342	1306	1292	1294	1291	1291	1298	1294	1284	1277	1280	1289	1290	1279	1260	1259	1263	1281	1284	1275	1263	1252	1246	1240	1238	1244	1253	1278	1291	1292	1282	1274	1269	1266	1268	1277	1302	1299	1289	1268	1262	1258	1255	1248	1252	1243	1234	1218	0	0	0	0	0	0	0	0	0	0	0	0	0	0	0	0	0	0	0	0	0	0	0	0	0	0	0	0	0	0	0	0	0	0	0	0	0	0	0	0	0	0	0	0	0	0	0	0	0	0	0	0	0	0	0	0	0	0	0	0	0	0	0	0	0	0	0	0	0	0	0	0	0	0	0	0	0	0	0	0	0	0	0	0	0	0	0	0	0	0	0	0	0	0	0	0	0	0	0	0	0	0	0	0	0	0	0	0	0	0	0	0	0	0	0	0	0	0	0	0	0	0	0	0	0	0	0	0	0	0	0	0	0
0	0	0	0	0	0	0	0	0	0	0	0	0	0	0	0	0	0	0	0	0	0	0	0	0	0	0	0	0	0	0	0	0	0	0	0	0	0	0	0	0	0	0	0	0	0	0	0	0	0	0	0	0	0	0	0	0	0	0	0	0	0	0	0	0	0	0	0	0	0	0	0	0	0	0	0	0	0	0	0	0	0	0	0	0	0	0	0	0	0	0	0	0	0	0	0	0	0	0	0	0	0	0	0	0	0	0	0	0	0	0	0	0	0	0	0	0	0	0	0	0	0	0	0	1249	1254	1258	1245	1249	1271	1293	1293	1284	1279	1272	1272	1285	1279	1261	1248	1243	1255	1267	1274	1270	1274	1298	1301	1279	1267	1262	1278	1287	1281	1275	1274	1280	1285	1283	1276	1277	1286	1295	1300	1300	1358	1360	1357	1353	1350	1354	1342	1319	1295	0	0	0	0	0	0	0	0	0	0	0	0	0	0	0	0	0	0	0	0	0	0	0	0	0	0	0	0	0	0	0	0	0	0	0	0	0	0	0	0	0	0	0	0	0	0	1498	1601	1639	1545	1472	0	0	0	0	0	0	0	0	0	0	0	0	0	0	0	0	0	0	0	0	0	0	0	0	0	0	0	0	0	0	0	0	0	0	0	0	0	0	0	0	0	0	1241	1279	1294	1320	1334	1343	1339	1327	1322	1316	1317	1322	1331	1340	1344	1347	1354	1351	1336	1316	1304	1309	1327	1330	1337	1335	1318	1311	1312	1325	1334	1339	1329	1327	1315	1312	1320	1333	1334	1335	1328	1325	1323	1314	1320	1329	1339	1346	1337	1339	1338	1334	1332	1315	1308	1305	1315	1330	1344	1348	1334	1328	1327	1335	1343	1344	1344	1335	1318	1313	1316	1334	1369	1357	1346	1349	1351	1351	1347	1349	1325	1313	1294	1265	1248	1274	0	0	0	0	0	0	0	0	0	0	0	0	0	0	0	0	0	0	0	0	0	0	0	0	0	0	0	0	0	0	0	0	0	0	0	0	0	0	0	0	0	0	0	0	0	0	0	0	0	0	0	0	0	0	0	0	0	0	0	0	0	0	0	0	0	0	0	0	0	0	0	0	0	0	0	0	0	0	0	0	1411	1439	1573	1665	1589	1516	0	0	0	0	0	0	0	0	0	0	0	0	0	1222	1228	1238	1248	1252	1285	1342	1332	1274	1260	1262	1275	1280	1290	1292	1293	1293	1294	1298	1295	1286	1266	1261	1272	1288	1291	1278	1264	1249	1240	1234	1225	1241	1265	1284	1292	1294	1280	1273	1269	1264	1260	1266	1290	1293	1286	1270	1249	1247	1251	1253	1256	1244	1225	1216	0	0	0	0	0	0	0	0	0	0	0	0	0	0	0	0	0	0	0	0	0	0	0	0	0	0	0	0	0	0	0	0	0	0	0	0	0	0	0	0	0	0	0	0	0	0	0	0	0	0	0	0	0	0	0	0	0	0	0	0	0	0	0	0	0	0	0	0	0	0	0	0	0	0	0	0	0	0	0	0	0	0	0	0	0	0	0	0	0	0	0	0	0	0	0	0	0	0	0	0	0	0	0	0	0	0	0	0	0	0	0	0	0	0	0	0	0	0	0	0	0	0	0	0	0	0	0	0	0	0	0	0	0
0	0	0	0	0	0	0	0	0	0	0	0	0	0	0	0	0	0	0	0	0	0	0	0	0	0	0	0	0	0	0	0	0	0	0	0	0	0	0	0	0	0	0	0	0	0	0	0	0	0	0	0	0	0	0	0	0	0	0	0	0	0	0	0	0	0	0	0	0	0	0	0	0	0	0	0	0	0	0	0	0	0	0	0	0	0	0	0	0	0	0	0	0	0	0	0	0	0	0	0	0	0	0	0	0	0	0	0	0	0	0	0	0	0	0	0	0	0	0	0	0	0	0	0	0	1280	1274	1255	1259	1282	1305	1316	1307	1302	1302	1299	1288	1294	1279	1262	1255	1256	1254	1244	1251	1267	1278	1282	1273	1258	1269	1279	1285	1273	1267	1263	1260	1260	1262	1273	1291	1312	1316	1317	1310	1366	1358	1354	1352	1341	1339	1326	1301	1274	1211	0	0	0	0	0	0	0	0	0	0	0	0	0	0	0	0	0	0	0	0	0	0	0	0	0	0	0	0	0	0	0	0	0	0	0	0	0	0	0	0	0	0	0	0	0	0	1623	1634	1547	1498	0	0	0	0	0	0	0	0	0	0	0	0	0	0	0	0	0	0	0	0	0	0	0	0	0	0	0	0	0	0	0	0	0	0	0	0	0	0	0	0	0	0	1264	1292	1306	1316	1332	1339	1343	1320	1317	1323	1327	1327	1331	1335	1335	1343	1352	1348	1339	1321	1302	1302	1311	1329	1337	1342	1327	1321	1323	1327	1327	1329	1336	1330	1326	1327	1331	1338	1340	1336	1332	1327	1326	1321	1323	1334	1339	1333	1334	1336	1332	1336	1336	1333	1320	1310	1307	1320	1337	1341	1329	1313	1317	1330	1341	1341	1342	1337	1316	1321	1327	1343	1381	1385	1349	1346	1342	1345	1336	1338	1320	1311	1285	1260	1238	1261	0	0	0	0	0	0	0	0	0	0	0	0	0	0	0	0	0	0	0	0	0	0	0	0	0	0	0	0	0	0	0	0	0	0	0	0	0	0	0	0	0	0	0	0	0	0	0	0	0	0	0	0	0	0	0	0	0	0	0	0	0	0	0	0	0	0	0	0	1501	0	0	0	0	0	0	0	0	0	0	0	1414	1444	1603	1664	1574	1490	0	0	0	0	0	0	0	0	0	0	0	0	0	1212	1228	1255	1264	1268	1290	1333	1334	1252	1244	1247	1258	1276	1285	1292	1297	1297	1298	1302	1298	1289	1275	1262	1270	1284	1294	1287	1266	1257	1239	1227	1226	1236	1264	1290	1300	1285	1283	1273	1262	1250	1244	1243	1258	1272	1271	1257	1244	1240	1248	1255	1252	1240	1221	0	0	0	0	0	0	0	0	0	0	0	0	0	0	0	0	0	0	0	0	0	0	0	0	0	0	0	0	0	0	0	0	0	0	0	0	0	0	0	0	0	0	0	0	0	0	0	0	0	0	0	0	0	0	0	0	0	0	0	0	0	0	0	0	0	0	0	0	0	0	0	0	0	0	0	0	0	0	0	0	0	0	0	0	0	0	0	0	0	0	0	0	0	0	0	0	0	0	0	0	0	0	0	0	0	0	0	0	0	0	0	0	0	0	0	0	0	0	0	0	0	0	0	0	0	0	0	0	0	0	0	0	0	0
0	0	0	0	0	0	0	0	0	0	0	0	0	0	0	0	0	0	0	0	0	0	0	0	0	0	0	0	0	0	0	0	0	0	0	0	0	0	0	0	0	0	0	0	0	0	0	0	0	0	0	0	0	0	0	0	0	0	0	0	0	0	0	0	0	0	0	0	0	0	0	0	0	0	0	0	0	0	0	0	0	0	0	0	0	0	0	0	0	0	0	0	0	0	0	0	0	0	0	0	0	0	0	0	0	0	0	0	0	0	0	0	0	0	0	0	0	0	0	0	0	0	0	0	0	1288	1284	1262	1261	1289	1316	1337	1326	1342	1347	1338	1317	1297	1284	1263	1251	1252	1249	1237	1247	1257	1269	1271	1261	1259	1265	1277	1277	1273	1259	1256	1252	1250	1254	1274	1299	1327	1332	1329	1325	1374	1358	1360	1360	1321	1309	1307	1290	1271	1221	0	0	0	0	0	0	0	0	0	0	0	0	0	0	0	0	0	0	0	0	0	0	0	0	0	0	0	0	0	0	0	0	0	0	0	0	0	0	0	0	0	0	0	0	0	1568	1641	1619	1560	1502	0	0	0	0	0	0	0	0	0	0	0	0	0	0	0	0	0	0	0	0	0	0	0	0	0	0	0	0	0	0	0	0	0	0	0	0	0	0	0	0	0	0	0	1292	1296	1306	1315	1332	1331	1314	1317	1325	1334	1330	1326	1321	1325	1329	1336	1343	1340	1325	1305	1301	1308	1322	1334	1339	1331	1328	1327	1322	1318	1325	1335	1340	1338	1345	1347	1345	1344	1336	1324	1320	1318	1325	1328	1334	1330	1325	1332	1333	1333	1337	1340	1338	1332	1322	1314	1316	1325	1329	1319	1309	1312	1317	1331	1331	1335	1335	1330	1328	1328	1337	1373	1378	1375	1364	1342	1334	1335	1334	1313	1312	1276	1257	1237	1240	0	0	0	0	0	0	0	0	0	0	0	0	0	0	0	0	0	0	0	0	0	0	0	0	0	0	0	0	0	0	0	0	0	0	0	0	0	0	0	0	0	0	0	0	0	0	0	0	0	0	0	0	0	0	0	0	0	0	0	0	0	0	0	0	0	0	0	1528	1529	0	0	0	0	0	0	0	0	0	0	0	1436	1484	1631	1648	1555	1475	0	0	0	0	0	0	0	0	0	0	0	0	0	1197	1235	1264	1271	1282	1298	1337	1326	1243	1239	1245	1258	1277	1279	1281	1279	1282	1277	1282	1289	1289	1282	1267	1278	1288	1297	1294	1277	1263	1246	1236	1229	1231	1248	1271	1280	1285	1285	1277	1256	1237	1227	1226	1235	1247	1249	1235	1224	1230	1245	1255	1252	1221	1207	0	0	0	0	0	0	0	0	0	0	0	0	0	0	0	0	0	0	0	0	0	0	0	0	0	0	0	0	0	0	0	0	0	0	0	0	0	0	0	0	0	0	0	0	0	0	0	0	0	0	0	0	0	0	0	0	0	0	0	0	0	0	0	0	0	0	0	0	0	0	0	0	0	0	0	0	0	0	0	0	0	0	0	0	0	0	0	0	0	0	0	0	0	0	0	0	0	0	0	0	0	0	0	0	0	0	0	0	0	0	0	0	0	0	0	0	0	0	0	0	0	0	0	0	0	0	0	0	0	0	0	0	0	0
0	0	0	0	0	0	0	0	0	0	0	0	0	0	0	0	0	0	0	0	0	0	0	0	0	0	0	0	0	0	0	0	0	0	0	0	0	0	0	0	0	0	0	0	0	0	0	0	0	0	0	0	0	0	0	0	0	0	0	0	0	0	0	0	0	0	0	0	0	0	0	0	0	0	0	0	0	0	0	0	0	0	0	0	0	0	0	0	0	0	0	0	0	0	0	0	0	0	0	0	0	0	0	0	0	0	0	0	0	0	0	0	0	0	0	0	0	0	0	0	0	0	0	0	0	1277	1273	1252	1262	1291	1314	1324	1326	1341	1355	1341	1318	1300	1270	1253	1253	1252	1247	1246	1249	1261	1265	1270	1262	1266	1276	1287	1280	1263	1257	1251	1249	1252	1251	1268	1298	1324	1331	1338	1331	1375	1362	1364	1353	1310	1289	1295	1284	1297	1251	0	0	0	0	0	0	0	0	0	0	0	0	0	0	0	0	0	0	0	0	0	0	0	0	0	0	0	0	0	0	0	0	0	0	0	0	0	0	0	0	0	0	0	0	0	1515	1600	1593	1573	1514	0	0	0	0	0	0	0	0	0	0	0	0	0	0	0	0	0	0	0	0	0	0	0	0	0	0	0	0	0	0	0	0	0	0	0	0	0	0	0	0	0	0	0	1277	1292	1302	1314	1320	1319	1308	1310	1321	1330	1336	1325	1318	1309	1318	1324	1333	1340	1335	1318	1307	1309	1325	1332	1330	1332	1332	1327	1318	1312	1321	1331	1342	1349	1359	1361	1362	1352	1339	1321	1310	1314	1322	1330	1324	1322	1321	1328	1331	1334	1335	1337	1336	1335	1325	1322	1326	1321	1318	1316	1311	1311	1312	1323	1330	1335	1339	1334	1325	1325	1330	1355	1362	1363	1361	1346	1327	1340	1342	1316	1316	1284	1263	1242	1227	0	0	0	0	0	0	0	0	0	0	0	0	0	0	0	0	0	0	0	0	0	0	0	0	0	0	0	0	0	0	0	0	0	0	0	0	0	0	0	0	0	0	0	0	0	0	0	0	0	0	0	0	0	0	0	0	0	0	0	0	0	0	0	0	0	0	0	0	1549	0	0	0	0	0	0	0	0	0	0	0	1460	1511	1643	1630	1555	1493	0	0	0	0	0	0	0	0	0	0	0	0	0	1209	1250	1267	1273	1277	1307	1324	1317	1246	1246	1252	1261	1271	1274	1265	1259	1258	1260	1268	1281	1281	1278	1263	1270	1285	1294	1294	1278	1265	1250	1242	1238	1238	1246	1262	1277	1283	1299	1290	1263	1241	1227	1233	1243	1247	1233	1224	1220	1230	1242	1252	1251	1224	1186	1172	0	0	0	0	0	0	0	0	0	0	0	0	0	0	0	0	0	0	0	0	0	0	0	0	0	0	0	0	0	0	0	0	0	0	0	0	0	0	0	0	0	0	0	0	0	0	0	0	0	0	0	0	0	0	0	0	0	0	0	0	0	0	0	0	0	0	0	0	0	0	0	0	0	0	0	0	0	0	0	0	0	0	0	0	0	0	0	0	0	0	0	0	0	0	0	0	0	0	0	0	0	0	0	0	0	0	0	0	0	0	0	0	0	0	0	0	0	0	0	0	0	0	0	0	0	0	0	0	0	0	0	0	0
0	0	0	0	0	0	0	0	0	0	0	0	0	0	0	0	0	0	0	0	0	0	0	0	0	0	0	0	0	0	0	0	0	0	0	0	0	0	0	0	0	0	0	0	0	0	0	0	0	0	0	0	0	0	0	0	0	0	0	0	0	0	0	0	0	0	0	0	0	0	0	0	0	0	0	0	0	0	0	0	0	0	0	0	0	0	0	0	0	0	0	0	0	0	0	0	0	0	0	0	0	0	0	0	0	0	0	0	0	0	0	0	0	0	0	0	0	0	0	0	0	0	0	0	0	1254	1253	1241	1253	1278	1302	1295	1299	1328	1325	1315	1297	1278	1262	1259	1260	1268	1269	1255	1261	1269	1270	1274	1273	1275	1285	1287	1280	1266	1254	1249	1259	1259	1254	1253	1277	1304	1313	1319	1321	1366	1365	1372	1353	1308	1287	1319	1329	1335	0	0	0	0	0	0	0	0	0	0	0	0	0	0	0	0	0	0	0	0	0	0	0	0	0	0	0	0	0	0	0	0	0	0	0	0	0	0	0	0	0	0	0	0	0	1457	1462	1552	1582	1561	1511	0	0	0	0	0	0	0	0	0	0	0	0	0	0	0	0	0	0	0	0	0	0	0	0	0	0	0	0	0	0	0	0	0	0	0	0	0	0	0	0	0	0	1226	1259	1281	1298	1312	1317	1315	1322	1322	1326	1339	1340	1334	1320	1309	1316	1328	1339	1345	1342	1325	1318	1312	1322	1323	1329	1333	1330	1321	1314	1314	1323	1337	1352	1358	1367	1367	1362	1356	1340	1324	1308	1310	1314	1322	1331	1330	1328	1325	1325	1333	1333	1330	1330	1331	1334	1340	1336	1334	1328	1321	1315	1315	1315	1331	1331	1339	1339	1335	1324	1319	1323	1336	1348	1347	1339	1326	1320	1342	1348	1358	1332	1306	1285	1257	1227	0	0	0	0	0	0	0	0	0	0	0	0	0	0	0	0	0	0	0	0	0	0	0	0	0	0	0	0	0	0	0	0	0	0	0	0	0	0	0	0	0	0	0	0	0	0	0	0	0	0	0	0	0	0	0	0	0	0	0	0	0	0	0	0	0	0	0	0	0	0	0	0	0	0	0	0	0	0	0	0	1473	1541	1641	1628	1558	1511	0	0	0	0	0	0	0	0	0	0	0	0	0	1228	1268	1263	1264	1270	1298	1315	1306	1259	1253	1257	1265	1269	1268	1257	1248	1246	1254	1266	1282	1284	1271	1259	1262	1275	1293	1293	1276	1264	1257	1256	1263	1255	1264	1269	1275	1279	1304	1298	1278	1253	1243	1248	1255	1256	1234	1231	1233	1241	1251	1253	1257	1229	1197	1166	0	0	0	0	0	0	0	0	0	0	0	0	0	0	0	0	0	0	0	0	0	0	0	0	0	0	0	0	0	0	0	0	0	0	0	0	0	0	0	0	0	0	0	0	0	0	0	0	0	0	0	0	0	0	0	0	0	0	0	0	0	0	0	0	0	0	0	0	0	0	0	0	0	0	0	0	0	0	0	0	0	0	0	0	0	0	0	0	0	0	0	0	0	0	0	0	0	0	0	0	0	0	0	0	0	0	0	0	0	0	0	0	0	0	0	0	0	0	0	0	0	0	0	0	0	0	0	0	0	0	0	0	0
0	0	0	0	0	0	0	0	0	0	0	0	0	0	0	0	0	0	0	0	0	0	0	0	0	0	0	0	0	0	0	0	0	0	0	0	0	0	0	0	0	0	0	0	0	0	0	0	0	0	0	0	0	0	0	0	0	0	0	0	0	0	0	0	0	0	0	0	0	0	0	0	0	0	0	0	0	0	0	0	0	0	0	0	0	0	0	0	0	0	0	0	0	0	0	0	0	0	0	0	0	0	0	0	0	0	0	0	0	0	0	0	0	0	0	0	0	0	0	0	0	0	0	0	0	1249	1247	1255	1267	1277	1285	1255	1263	1279	1280	1282	1272	1263	1260	1272	1275	1288	1283	1269	1269	1274	1279	1281	1274	1280	1283	1277	1269	1261	1262	1266	1275	1262	1253	1236	1251	1271	1281	1293	1305	1369	1373	1379	1371	1346	1307	1335	1345	1346	1324	0	0	0	0	0	0	0	0	0	0	0	0	0	0	0	0	0	0	0	0	0	0	0	0	0	0	0	0	0	0	0	0	0	0	0	0	0	0	0	0	0	0	0	1462	1438	1440	1525	1569	1534	1499	0	0	0	0	0	0	0	0	0	0	0	0	0	0	0	0	0	0	0	0	0	0	0	0	0	0	0	0	0	0	0	0	0	1510	1509	0	0	0	0	0	0	0	1224	1254	1281	1292	1304	1315	1321	1333	1335	1333	1330	1331	1335	1325	1309	1311	1327	1339	1349	1339	1334	1325	1320	1320	1326	1337	1339	1332	1318	1311	1312	1329	1339	1350	1355	1363	1363	1360	1353	1343	1331	1318	1312	1313	1316	1319	1325	1320	1317	1319	1335	1338	1335	1326	1334	1344	1350	1347	1346	1340	1336	1331	1323	1325	1334	1334	1328	1329	1334	1323	1320	1322	1330	1340	1339	1323	1312	1324	1343	1353	1368	1360	1323	1302	1269	1236	0	0	0	0	0	0	0	0	0	0	0	0	0	0	0	0	0	0	0	0	0	0	0	0	0	0	0	0	0	0	0	0	0	0	0	0	0	0	0	0	0	0	0	0	0	0	0	0	0	0	0	0	0	0	0	0	0	0	0	0	0	0	0	0	0	0	0	0	0	0	0	0	0	0	0	0	0	0	0	0	1481	1548	1625	1627	1552	1522	0	0	0	0	0	0	0	0	0	0	0	0	0	1244	1277	1262	1262	1261	1291	1313	1315	1275	1266	1272	1278	1283	1274	1261	1250	1250	1254	1265	1276	1280	1274	1258	1265	1279	1287	1284	1273	1267	1271	1270	1279	1285	1292	1282	1278	1272	1290	1292	1285	1272	1267	1267	1268	1265	1256	1256	1266	1269	1269	1258	1257	1240	1211	1178	0	0	0	0	0	0	0	0	0	0	0	0	0	0	0	0	0	0	0	0	0	0	0	0	0	0	0	0	0	0	0	0	0	0	0	0	0	0	0	0	0	0	0	0	0	0	0	0	0	0	0	0	0	0	0	0	0	0	0	0	0	0	0	0	0	0	0	0	0	0	0	0	0	0	0	0	0	0	0	0	0	0	0	0	0	0	0	0	0	0	0	0	0	0	0	0	0	0	0	0	0	0	0	0	0	0	0	0	0	0	0	0	0	0	0	0	0	0	0	0	0	0	0	0	0	0	0	0	0	0	0	0	0
0	0	0	0	0	0	0	0	0	0	0	0	0	0	0	0	0	0	0	0	0	0	0	0	0	0	0	0	0	0	0	0	0	0	0	0	0	0	0	0	0	0	0	0	0	0	0	0	0	0	0	0	0	0	0	0	0	0	0	0	0	0	0	0	0	0	0	0	0	0	0	0	0	0	0	0	0	0	0	0	0	0	0	0	0	0	0	0	0	0	0	0	0	0	0	0	0	0	0	0	0	0	0	0	0	0	0	0	0	0	0	0	0	0	0	0	0	0	0	0	0	0	0	0	0	1262	1263	1273	1288	1287	1269	1245	1244	1253	1258	1262	1258	1263	1282	1291	1295	1296	1284	1267	1274	1283	1292	1284	1271	1274	1273	1268	1252	1258	1273	1283	1284	1267	1244	1224	1238	1252	1266	1280	1296	1351	1375	1379	1379	1368	1347	1345	1336	1316	1317	0	0	0	0	0	0	0	0	0	0	0	0	0	0	0	0	0	0	0	0	0	0	0	0	0	0	0	0	0	0	0	0	0	0	0	0	0	0	0	0	0	0	0	0	1471	1468	1533	1567	1524	1493	0	0	0	0	0	0	0	0	0	0	0	0	0	0	0	0	0	0	0	0	0	0	0	0	0	0	0	0	0	0	0	0	0	0	0	0	0	0	0	0	0	0	1226	1250	1281	1291	1294	1311	1329	1343	1335	1324	1307	1313	1315	1314	1299	1306	1322	1341	1349	1343	1342	1339	1336	1328	1333	1343	1339	1331	1316	1313	1315	1332	1338	1345	1347	1345	1343	1341	1337	1336	1326	1324	1312	1311	1307	1305	1309	1311	1311	1315	1329	1345	1338	1335	1341	1345	1350	1354	1352	1349	1348	1337	1334	1331	1338	1331	1322	1322	1329	1326	1325	1323	1325	1331	1334	1330	1327	1342	1356	1354	1355	1361	1329	1304	1273	1251	0	0	0	0	0	0	0	0	0	0	0	0	0	0	0	0	0	0	0	0	0	0	0	0	0	0	0	0	0	0	0	0	0	0	0	0	0	0	0	0	0	0	0	0	0	0	0	0	0	0	0	0	0	0	0	0	0	0	0	0	0	0	0	0	0	0	0	0	0	0	0	0	0	0	0	0	0	0	0	0	1492	1537	1609	1637	1577	1507	0	0	0	0	0	0	0	0	0	0	0	0	0	1253	1282	1267	1260	1256	1282	1320	1318	1296	1290	1289	1296	1288	1281	1274	1266	1261	1260	1261	1268	1274	1274	1260	1266	1273	1279	1277	1271	1271	1274	1284	1292	1297	1309	1293	1273	1261	1271	1275	1281	1280	1275	1275	1273	1272	1278	1287	1291	1284	1277	1265	1264	1247	1224	1192	0	0	0	0	0	0	0	0	0	0	0	0	0	0	0	0	0	0	0	0	0	0	0	0	0	0	0	0	0	0	0	0	0	0	0	0	0	0	0	0	0	0	0	0	0	0	0	0	0	0	0	0	0	0	0	0	0	0	0	0	0	0	0	0	0	0	0	0	0	0	0	0	0	0	0	0	0	0	0	0	0	0	0	0	0	0	0	0	0	0	0	0	0	0	0	0	0	0	0	0	0	0	0	0	0	0	0	0	0	0	0	0	0	0	0	0	0	0	0	0	0	0	0	0	0	0	0	0	0	0	0	0	0
0	0	0	0	0	0	0	0	0	0	0	0	0	0	0	0	0	0	0	0	0	0	0	0	0	0	0	0	0	0	0	0	0	0	0	0	0	0	0	0	0	0	0	0	0	0	0	0	0	0	0	0	0	0	0	0	0	0	0	0	0	0	0	0	0	0	0	0	0	0	0	0	0	0	0	0	0	0	0	0	0	0	0	0	0	0	0	0	0	0	0	0	0	0	0	0	0	0	0	0	0	0	0	0	0	0	0	0	0	0	0	0	0	0	0	0	0	0	0	0	0	0	0	0	1253	1262	1272	1288	1309	1297	1271	1252	1249	1250	1255	1260	1266	1271	1286	1300	1295	1292	1280	1264	1276	1287	1298	1290	1272	1273	1261	1254	1237	1250	1268	1288	1276	1261	1243	1235	1240	1252	1260	1272	1284	1327	1369	1376	1381	1382	1378	1357	1339	1308	1311	0	0	0	0	0	0	0	0	0	0	0	0	0	0	0	0	0	0	0	0	0	0	0	0	0	0	0	0	0	0	0	0	0	0	0	0	0	0	0	0	0	0	0	0	0	1515	1559	1573	1531	1503	0	0	0	0	0	0	0	0	0	0	0	0	0	0	0	0	0	0	0	0	0	0	0	0	0	0	0	0	0	0	0	0	0	0	0	0	0	0	0	0	0	0	1207	1251	1275	1290	1288	1297	1326	1344	1331	1310	1299	1306	1313	1304	1299	1305	1324	1344	1354	1352	1348	1347	1347	1340	1344	1354	1353	1335	1325	1318	1315	1317	1330	1335	1336	1329	1323	1320	1317	1317	1314	1320	1325	1315	1307	1298	1301	1303	1309	1311	1327	1344	1354	1360	1350	1351	1350	1352	1357	1355	1351	1341	1344	1348	1348	1334	1324	1323	1331	1325	1331	1325	1323	1326	1333	1335	1337	1357	1363	1366	1349	1341	1332	1312	1291	1265	0	0	0	0	0	0	0	0	0	0	0	0	0	0	0	0	0	0	0	0	0	0	0	0	0	0	0	0	0	0	0	0	0	0	0	0	0	0	0	0	0	0	0	0	0	0	0	0	0	0	0	0	0	0	0	0	0	0	0	0	0	0	0	0	0	0	0	0	0	0	0	0	0	0	0	0	0	0	0	0	0	1541	1589	1652	1587	1493	0	0	0	0	0	0	0	0	0	0	0	0	0	1241	1271	1270	1259	1257	1285	1334	1329	1307	1296	1293	1295	1295	1289	1279	1281	1277	1273	1263	1260	1263	1264	1262	1268	1276	1279	1279	1275	1275	1284	1291	1292	1296	1303	1298	1275	1258	1254	1267	1278	1278	1276	1267	1261	1269	1282	1300	1300	1287	1271	1266	1271	1254	1226	1192	0	0	0	0	0	0	0	0	0	0	0	0	0	0	0	0	0	0	0	0	0	0	0	0	0	0	0	0	0	0	0	0	0	0	0	0	0	0	0	0	0	0	0	0	0	0	0	0	0	0	0	0	0	0	0	0	0	0	0	0	0	0	0	0	0	0	0	0	0	0	0	0	0	0	0	0	0	0	0	0	0	0	0	0	0	0	0	0	0	0	0	0	0	0	0	0	0	0	0	0	0	0	0	0	0	0	0	0	0	0	0	0	0	0	0	0	0	0	0	0	0	0	0	0	0	0	0	0	0	0	0	0	0
0	0	0	0	0	0	0	0	0	0	0	0	0	0	0	0	0	0	0	0	0	0	0	0	0	0	0	0	0	0	0	0	0	0	0	0	0	0	0	0	0	0	0	0	0	0	0	0	0	0	0	0	0	0	0	0	0	0	0	0	0	0	0	0	0	0	0	0	0	0	0	0	0	0	0	0	0	0	0	0	0	0	0	0	0	0	0	0	0	0	0	0	0	0	0	0	0	0	0	0	0	0	0	0	0	0	0	0	0	0	0	0	0	0	0	0	0	0	0	0	0	0	0	0	1200	1216	1236	1255	1259	1269	1268	1259	1260	1263	1271	1292	1303	1301	1295	1289	1282	1270	1263	1267	1286	1297	1293	1294	1290	1281	1273	1258	1242	1243	1265	1275	1265	1251	1249	1256	1258	1251	1255	1263	1269	1319	1371	1372	1379	1395	1380	1369	1347	1304	1289	0	0	0	0	0	0	0	0	0	0	0	0	0	0	0	0	0	0	0	0	0	0	0	0	0	0	0	0	0	0	0	0	0	0	0	0	0	0	0	0	0	0	0	0	0	1513	1560	1574	1548	1518	0	0	0	0	0	0	0	0	0	0	0	0	0	0	0	0	0	0	0	0	0	0	0	0	0	0	0	0	0	0	0	0	0	0	0	0	0	0	0	0	0	0	0	1246	1278	1288	1287	1297	1317	1348	1331	1316	1314	1317	1315	1313	1311	1311	1324	1341	1351	1348	1344	1346	1344	1342	1345	1359	1359	1349	1332	1325	1319	1318	1322	1323	1321	1313	1306	1299	1305	1308	1310	1321	1323	1321	1316	1309	1306	1312	1318	1323	1334	1350	1365	1371	1360	1348	1348	1339	1348	1356	1353	1350	1351	1357	1352	1339	1330	1331	1335	1322	1322	1316	1324	1329	1342	1346	1333	1346	1359	1366	1348	1336	1324	1319	1311	1284	1260	0	0	0	0	0	0	0	0	0	0	0	0	0	0	0	0	0	0	0	0	0	0	0	0	0	0	0	0	0	0	0	0	0	0	0	0	0	0	0	0	0	0	0	0	0	0	0	0	0	0	0	0	0	0	0	0	0	0	0	0	0	0	0	0	0	0	0	0	0	0	0	0	0	0	0	0	0	0	0	0	1562	1591	1650	1584	1505	0	0	0	0	0	0	0	0	0	0	0	0	0	1229	1249	1258	1265	1273	1301	1332	1319	1297	1286	1283	1285	1284	1282	1282	1290	1295	1287	1273	1262	1261	1261	1268	1272	1275	1274	1270	1268	1268	1278	1287	1291	1295	1295	1296	1280	1263	1256	1264	1269	1270	1267	1262	1252	1255	1269	1282	1288	1275	1264	1264	1268	1252	1222	1197	0	0	0	0	0	0	0	0	0	0	0	0	0	0	0	0	0	0	0	0	0	0	0	0	0	0	0	0	0	0	0	0	0	0	0	0	0	0	0	0	0	0	0	0	0	0	0	0	0	0	0	0	0	0	0	0	0	0	0	0	0	0	0	0	0	0	0	0	0	0	0	0	0	0	0	0	0	0	0	0	0	0	0	0	0	0	0	0	0	0	0	0	0	0	0	0	0	0	0	0	0	0	0	0	0	0	0	0	0	0	0	0	0	0	0	0	0	0	0	0	0	0	0	0	0	0	0	0	0	0	0	0	0
0	0	0	0	0	0	0	0	0	0	0	0	0	0	0	0	0	0	0	0	0	0	0	0	0	0	0	0	0	0	0	0	0	0	0	0	0	0	0	0	0	0	0	0	0	0	0	0	0	0	0	0	0	0	0	0	0	0	0	0	0	0	0	0	0	0	0	0	0	0	0	0	0	0	0	0	0	0	0	0	0	0	0	0	0	0	0	0	0	0	0	0	0	0	0	0	0	0	0	0	0	0	0	0	0	0	0	0	0	0	0	0	0	0	0	0	0	0	0	0	0	0	0	0	0	1217	1233	1248	1248	1247	1266	1270	1263	1267	1279	1291	1296	1291	1285	1277	1265	1257	1260	1278	1287	1291	1290	1295	1301	1302	1295	1285	1261	1245	1251	1253	1255	1252	1261	1280	1268	1252	1250	1251	1261	1315	1377	1373	1374	1386	1371	1359	1333	1299	0	0	0	0	0	0	0	0	0	0	0	0	0	0	0	0	0	0	0	0	0	0	0	0	0	0	0	0	0	0	0	0	0	0	0	0	0	0	0	0	0	0	0	0	0	0	1489	1547	1558	1550	1510	0	0	0	0	0	0	0	0	0	0	0	0	0	0	0	0	0	0	0	0	0	0	0	0	0	0	0	0	0	0	0	0	0	0	0	0	0	0	0	0	0	0	0	1251	1282	1294	1303	1313	1332	1335	1331	1321	1319	1317	1320	1317	1315	1317	1324	1329	1336	1338	1333	1327	1327	1320	1334	1351	1359	1356	1334	1321	1312	1312	1317	1315	1308	1293	1286	1290	1299	1310	1313	1317	1324	1330	1326	1324	1315	1319	1325	1331	1340	1350	1366	1370	1352	1347	1325	1333	1346	1347	1348	1349	1351	1355	1343	1337	1324	1328	1330	1333	1318	1315	1333	1354	1355	1345	1338	1332	1346	1350	1352	1329	1303	1308	1311	1286	1260	0	0	0	0	0	0	0	0	0	0	0	0	0	0	0	0	0	0	0	0	0	0	0	0	0	0	0	0	0	0	0	0	0	0	0	0	0	0	0	0	0	0	0	0	0	0	0	0	0	0	0	0	0	0	0	0	0	0	0	0	0	0	0	0	0	0	1466	1447	1425	0	0	0	0	0	0	0	0	0	0	0	1586	1591	1622	1575	1513	1452	0	0	0	0	0	0	0	0	0	0	0	0	1214	1228	1241	1256	1275	1329	1324	1318	1284	1272	1270	1276	1276	1277	1287	1289	1303	1300	1289	1279	1269	1270	1279	1273	1267	1257	1258	1254	1259	1264	1275	1277	1280	1285	1281	1279	1266	1254	1260	1262	1263	1266	1262	1259	1252	1252	1255	1266	1262	1256	1248	1261	1251	1230	1207	0	0	0	0	0	0	0	0	0	0	0	0	0	0	0	0	0	0	0	0	0	0	0	0	0	0	0	0	0	0	0	0	0	0	0	0	0	0	0	0	0	0	0	0	0	0	0	0	0	0	0	0	0	0	0	0	0	0	0	0	0	0	0	0	0	0	0	0	0	0	0	0	0	0	0	0	0	0	0	0	0	0	0	0	0	0	0	0	0	0	0	0	0	0	0	0	0	0	0	0	0	0	0	0	0	0	0	0	0	0	0	0	0	0	0	0	0	0	0	0	0	0	0	0	0	0	0	0	0	0	0	0	0
0	0	0	0	0	0	0	0	0	0	0	0	0	0	0	0	0	0	0	0	0	0	0	0	0	0	0	0	0	0	0	0	0	0	0	0	0	0	0	0	0	0	0	0	0	0	0	0	0	0	0	0	0	0	0	0	0	0	0	0	0	0	0	0	0	0	0	0	0	0	0	0	0	0	0	0	0	0	0	0	0	0	0	0	0	0	0	0	0	0	0	0	0	0	0	0	0	0	0	0	0	0	0	0	0	0	0	0	0	0	0	0	0	0	0	0	0	0	0	0	0	0	0	0	0	1232	1255	1249	1252	1259	1271	1280	1276	1272	1269	1274	1270	1270	1261	1261	1257	1255	1263	1288	1279	1262	1254	1243	1256	1267	1293	1307	1279	1257	1242	1244	1251	1255	1280	1298	1278	1260	1256	1258	1259	1320	1380	1378	1370	1369	1352	1346	1319	1270	1230	0	0	0	0	0	0	0	0	0	0	0	0	0	0	0	0	0	0	0	0	0	0	0	0	0	0	0	0	0	0	0	0	0	0	1423	0	0	0	0	0	0	0	0	0	0	1477	1522	1539	1544	1496	0	0	0	0	0	0	0	0	0	0	0	0	0	0	0	0	0	0	0	0	0	0	0	0	0	0	0	0	0	0	0	0	0	0	0	0	0	0	0	0	0	0	0	1262	1288	1307	1318	1329	1331	1335	1325	1314	1314	1308	1313	1313	1310	1311	1308	1319	1323	1322	1321	1309	1304	1303	1318	1338	1349	1341	1329	1308	1300	1303	1310	1305	1292	1277	1276	1284	1298	1305	1314	1319	1323	1334	1339	1334	1327	1329	1328	1327	1331	1339	1349	1354	1348	1328	1328	1329	1338	1338	1333	1331	1336	1344	1338	1330	1318	1317	1318	1325	1327	1329	1344	1360	1360	1351	1338	1341	1346	1361	1351	1306	1288	1295	1293	1274	1262	0	0	0	0	0	0	0	0	0	0	0	0	0	0	0	0	0	0	0	0	0	0	0	0	0	0	0	0	0	0	0	0	0	0	0	0	0	0	0	0	0	0	0	0	0	0	0	0	0	0	0	0	0	0	0	0	0	0	0	0	0	0	0	0	0	0	1440	1423	1405	0	0	0	0	0	0	0	0	0	0	0	1597	1599	1598	1560	1515	1468	0	0	0	0	0	0	0	0	0	0	0	0	1201	1214	1230	1246	1262	1322	1324	1310	1276	1274	1285	1291	1292	1282	1284	1297	1303	1305	1297	1282	1284	1281	1280	1271	1259	1243	1239	1239	1244	1262	1270	1275	1273	1268	1267	1267	1263	1250	1251	1256	1260	1271	1277	1283	1274	1243	1247	1259	1254	1250	1249	1248	1244	1222	1204	1161	0	0	0	0	0	0	0	0	0	0	0	0	0	0	0	0	0	0	0	0	0	0	0	0	0	0	0	0	0	0	0	0	0	0	0	0	0	0	0	0	0	0	0	0	0	0	0	0	0	0	0	0	0	0	0	0	0	0	0	0	0	0	0	0	0	0	0	0	0	0	0	0	0	0	0	0	0	0	0	0	0	0	0	0	0	0	0	0	0	0	0	0	0	0	0	0	0	0	0	0	0	0	0	0	0	0	0	0	0	0	0	0	0	0	0	0	0	0	0	0	0	0	0	0	0	0	0	0	0	0	0	0
0	0	0	0	0	0	0	0	0	0	0	0	0	0	0	0	0	0	0	0	0	0	0	0	0	0	0	0	0	0	0	0	0	0	0	0	0	0	0	0	0	0	0	0	0	0	0	0	0	0	0	0	0	0	0	0	0	0	0	0	0	0	0	0	0	0	0	0	0	0	0	0	0	0	0	0	0	0	0	0	0	0	0	0	0	0	0	0	0	0	0	0	0	0	0	0	0	0	0	0	0	0	0	0	0	0	0	0	0	0	0	0	0	0	0	0	0	0	0	0	0	0	0	0	0	1255	1263	1257	1251	1266	1275	1275	1266	1252	1251	1250	1253	1254	1248	1252	1254	1265	1285	1299	1280	1253	1232	1228	1229	1248	1280	1285	1283	1267	1258	1259	1269	1287	1307	1311	1298	1282	1275	1270	1271	1313	1369	1371	1368	1356	1343	1334	1313	1266	1222	0	0	0	0	0	0	0	0	0	0	0	0	0	0	0	0	0	0	0	0	0	0	0	0	0	0	0	0	0	0	0	0	0	1421	0	0	0	0	0	0	0	0	0	0	0	0	1518	1524	1543	1484	0	0	0	0	0	0	0	0	0	0	0	0	0	0	0	0	0	0	0	0	0	0	0	0	0	0	0	0	0	0	0	0	0	0	0	0	0	0	0	0	0	0	0	1273	1298	1315	1321	1329	1334	1333	1308	1299	1296	1301	1302	1307	1305	1304	1297	1311	1311	1318	1310	1296	1291	1295	1308	1327	1332	1337	1317	1300	1291	1301	1308	1304	1284	1271	1274	1288	1301	1310	1312	1322	1326	1324	1330	1330	1323	1318	1318	1316	1317	1329	1335	1336	1334	1334	1333	1333	1333	1326	1316	1316	1327	1332	1336	1319	1315	1306	1308	1323	1329	1334	1346	1361	1360	1354	1345	1346	1355	1359	1367	1336	1293	1287	1281	1261	1258	0	0	0	0	0	0	0	0	0	0	0	0	0	0	0	0	0	0	0	0	0	0	0	0	0	0	0	0	0	0	0	0	0	0	0	0	0	0	0	0	0	0	0	0	0	0	0	0	0	0	0	0	0	0	0	0	0	0	0	0	0	0	0	0	0	0	0	0	0	0	0	0	0	0	0	0	0	0	0	0	1602	1625	1588	1553	1520	1469	0	0	0	0	0	0	0	0	0	0	0	0	1197	1214	1229	1242	1262	1324	1321	1311	1281	1291	1304	1304	1300	1285	1281	1288	1296	1308	1294	1285	1285	1284	1282	1270	1255	1241	1234	1233	1245	1263	1273	1272	1269	1264	1269	1270	1267	1254	1255	1262	1271	1279	1285	1292	1290	1269	1250	1251	1251	1240	1241	1237	1232	1220	1207	1151	0	0	0	0	0	0	0	0	0	0	0	0	0	0	0	0	0	0	0	0	0	0	0	0	0	0	0	0	0	0	0	0	0	0	0	0	0	0	0	0	0	0	0	0	0	0	0	0	0	0	0	0	0	0	0	0	0	0	0	0	0	0	0	0	0	0	0	0	0	0	0	0	0	0	0	0	0	0	0	0	0	0	0	0	0	0	0	0	0	0	0	0	0	0	0	0	0	0	0	0	0	0	0	0	0	0	0	0	0	0	0	0	0	0	0	0	0	0	0	0	0	0	0	0	0	0	0	0	0	0	0	0
0	0	0	0	0	0	0	0	0	0	0	0	0	0	0	0	0	0	0	0	0	0	0	0	0	0	0	0	0	0	0	0	0	0	0	0	0	0	0	0	0	0	0	0	0	0	0	0	0	0	0	0	0	0	0	0	0	0	0	0	0	0	0	0	0	0	0	0	0	0	0	0	0	0	0	0	0	0	0	0	0	0	0	0	0	0	0	0	0	0	0	0	0	0	0	0	0	0	0	0	0	0	0	0	0	0	0	0	0	0	0	0	0	0	0	0	0	0	0	0	0	0	0	0	0	1256	1270	1261	1256	1257	1270	1257	1244	1237	1228	1234	1244	1248	1251	1256	1271	1286	1308	1306	1274	1240	1223	1236	1240	1260	1271	1280	1279	1276	1268	1266	1275	1286	1305	1315	1297	1282	1275	1274	1286	1315	1332	1339	1335	1325	1322	1324	1309	1277	1235	0	0	0	0	0	0	0	0	0	0	0	0	0	0	0	0	0	0	0	0	0	0	0	0	0	0	0	0	0	0	0	0	1423	1434	1447	0	0	0	0	0	0	0	0	0	0	0	1536	1535	1547	1470	0	0	0	0	0	0	0	0	0	0	0	0	0	0	0	0	0	0	0	0	0	0	0	0	0	0	0	0	0	0	0	0	0	0	0	0	0	0	0	0	0	0	0	1293	1305	1305	1307	1312	1316	1322	1297	1293	1296	1304	1313	1315	1315	1300	1295	1299	1308	1309	1305	1289	1292	1296	1305	1321	1326	1321	1311	1304	1305	1306	1311	1308	1294	1274	1277	1295	1315	1325	1330	1325	1321	1320	1320	1316	1316	1311	1313	1314	1316	1325	1326	1324	1323	1335	1339	1334	1329	1318	1309	1312	1317	1327	1325	1312	1305	1298	1313	1323	1326	1342	1348	1351	1351	1353	1350	1347	1356	1359	1368	1341	1305	1275	1270	1250	1244	0	0	0	0	0	0	0	0	0	0	0	0	0	0	0	0	0	0	0	0	0	0	0	0	0	0	0	0	0	0	0	0	0	0	0	0	0	0	0	0	0	0	0	0	0	0	0	0	0	0	0	0	0	0	0	0	0	0	0	0	0	0	0	0	0	0	0	0	0	0	0	0	0	0	0	0	0	0	0	0	1591	1627	1588	1560	1514	1448	0	0	0	0	0	0	0	0	0	0	0	0	1204	1229	1241	1253	1272	1334	1335	1330	1303	1307	1313	1309	1299	1278	1280	1282	1295	1300	1295	1285	1282	1285	1279	1269	1259	1249	1244	1246	1245	1257	1272	1280	1271	1268	1273	1269	1269	1262	1265	1272	1280	1290	1296	1294	1292	1276	1261	1255	1247	1239	1240	1241	1233	1223	1191	1145	0	0	0	0	0	0	0	0	0	0	0	0	0	0	0	0	0	0	0	0	0	0	0	0	0	0	0	0	0	0	0	0	0	0	0	0	0	0	0	0	0	0	0	0	0	0	0	0	0	0	0	0	0	0	0	0	0	0	0	0	0	0	0	0	0	0	0	0	0	0	0	0	0	0	0	0	0	0	0	0	0	0	0	0	0	0	0	0	0	0	0	0	0	0	0	0	0	0	0	0	0	0	0	0	0	0	0	0	0	0	0	0	0	0	0	0	0	0	0	0	0	0	0	0	0	0	0	0	0	0	0	0
0	0	0	0	0	0	0	0	0	0	0	0	0	0	0	0	0	0	0	0	0	0	0	0	0	0	0	0	0	0	0	0	0	0	0	0	0	0	0	0	0	0	0	0	0	0	0	0	0	0	0	0	0	0	0	0	0	0	0	0	0	0	0	0	0	0	0	0	0	0	0	0	0	0	0	0	0	0	0	0	0	0	0	0	0	0	0	0	0	0	0	0	0	0	0	0	0	0	0	0	0	0	0	0	0	0	0	0	0	0	0	0	0	0	0	0	0	0	0	0	0	0	0	0	0	1242	1264	1266	1267	1264	1253	1248	1243	1235	1238	1245	1248	1248	1263	1267	1277	1282	1306	1299	1264	1239	1231	1243	1262	1272	1273	1276	1272	1279	1275	1272	1271	1280	1296	1309	1290	1273	1265	1271	1282	1311	1329	1330	1332	1317	1317	1302	1286	1272	1245	0	0	0	0	0	0	0	0	0	0	0	0	0	0	0	0	0	0	0	0	0	0	0	0	0	0	0	0	0	0	0	0	1420	1412	1415	1425	0	0	0	0	0	0	0	0	0	1513	1533	1540	1546	1466	0	0	0	0	0	0	0	0	0	0	0	0	0	0	0	0	0	0	0	0	0	0	0	0	0	0	0	0	0	0	0	0	0	0	0	0	0	0	0	0	0	0	0	1301	1312	1301	1298	1298	1308	1310	1300	1304	1313	1324	1324	1324	1321	1314	1311	1311	1313	1309	1303	1297	1293	1300	1308	1314	1315	1312	1308	1308	1319	1322	1313	1307	1298	1277	1279	1302	1326	1339	1342	1331	1320	1311	1313	1315	1314	1312	1319	1328	1336	1327	1325	1322	1322	1331	1342	1337	1330	1326	1316	1308	1310	1322	1329	1327	1319	1305	1315	1321	1327	1342	1348	1347	1338	1339	1345	1351	1358	1369	1375	1342	1311	1274	1257	1241	1230	0	0	0	0	0	0	0	0	0	0	0	0	0	0	0	0	0	0	0	0	0	0	0	0	0	0	0	0	0	0	0	0	0	0	0	0	0	0	0	0	0	0	0	0	0	0	0	0	0	0	0	0	0	0	0	0	0	0	0	0	0	0	0	0	0	0	0	0	0	0	0	0	0	0	0	0	0	0	0	0	1577	1597	1588	1567	1531	1450	0	0	0	0	0	0	0	0	0	0	0	0	1218	1249	1258	1264	1278	1338	1339	1336	1308	1315	1312	1301	1291	1285	1285	1281	1288	1288	1284	1280	1279	1281	1279	1271	1261	1259	1254	1248	1251	1257	1273	1277	1280	1279	1275	1278	1275	1264	1276	1286	1297	1296	1297	1290	1288	1279	1267	1262	1249	1250	1248	1241	1235	1206	1176	0	0	0	0	0	0	0	0	0	0	0	0	0	0	0	0	0	0	0	0	0	0	0	0	0	0	0	0	0	0	0	0	0	0	0	0	0	0	0	0	0	0	0	0	0	0	0	0	0	0	0	0	0	0	0	0	0	0	0	0	0	0	0	0	0	0	0	0	0	0	0	0	0	0	0	0	0	0	0	0	0	0	0	0	0	0	0	0	0	0	0	0	0	0	0	0	0	0	0	0	0	0	0	0	0	0	0	0	0	0	0	0	0	0	0	0	0	0	0	0	0	0	0	0	0	0	0	0	0	0	0	0	0
0	0	0	0	0	0	0	0	0	0	0	0	0	0	0	0	0	0	0	0	0	0	0	0	0	0	0	0	0	0	0	0	0	0	0	0	0	0	0	0	0	0	0	0	0	0	0	0	0	0	0	0	0	0	0	0	0	0	0	0	0	0	0	0	0	0	0	0	0	0	0	0	0	0	0	0	0	0	0	0	0	0	0	0	0	0	0	0	0	0	0	0	0	0	0	0	0	0	0	0	0	0	0	0	0	0	0	0	0	0	0	0	0	0	0	0	0	0	0	0	0	0	0	0	0	1237	1249	1256	1264	1257	1241	1241	1248	1250	1259	1264	1260	1257	1265	1275	1273	1272	1265	1294	1274	1254	1247	1257	1268	1273	1271	1277	1275	1281	1284	1273	1268	1277	1291	1307	1285	1272	1260	1258	1266	1308	1337	1337	1327	1311	1321	1316	1301	1273	1244	0	0	0	0	0	0	0	0	0	0	0	0	0	0	0	0	0	0	0	0	0	0	0	0	0	0	0	0	0	0	0	0	0	1410	1395	1406	0	0	0	0	0	0	0	0	0	1515	1537	1551	1529	1458	0	0	0	0	0	0	0	0	0	0	0	0	0	0	0	0	0	0	0	0	0	0	0	0	0	0	0	0	0	0	0	0	0	0	0	0	0	0	0	0	0	0	0	1309	1310	1307	1297	1294	1295	1301	1319	1330	1338	1342	1334	1327	1316	1311	1313	1313	1316	1318	1307	1306	1299	1304	1309	1315	1312	1307	1307	1306	1311	1314	1312	1307	1300	1277	1280	1310	1334	1352	1355	1343	1330	1320	1319	1326	1325	1323	1326	1336	1337	1327	1328	1333	1330	1342	1348	1349	1341	1333	1316	1305	1306	1318	1319	1325	1317	1315	1318	1318	1320	1334	1348	1349	1335	1358	1354	1354	1365	1374	1379	1344	1315	1278	1260	1241	1215	0	0	0	0	0	0	0	0	0	0	0	0	0	0	0	0	0	0	0	0	0	0	0	0	0	0	0	0	0	0	0	0	0	0	0	0	0	0	0	0	0	0	0	0	0	0	0	0	0	0	0	0	0	0	0	0	0	0	0	0	0	0	0	0	0	0	0	0	0	0	0	0	0	0	0	0	0	0	0	0	1545	1561	1588	1579	1541	1463	0	0	0	0	0	0	0	0	0	0	0	0	1233	1256	1264	1270	1277	1323	1334	1309	1286	1299	1302	1301	1298	1294	1294	1283	1275	1275	1279	1283	1281	1283	1279	1273	1261	1256	1254	1249	1253	1259	1268	1278	1286	1291	1296	1287	1270	1265	1283	1302	1302	1299	1295	1285	1284	1284	1281	1282	1277	1264	1262	1237	1222	1210	1170	0	0	0	0	0	0	0	0	0	0	0	0	0	0	0	0	0	0	0	0	0	0	0	0	0	0	0	0	0	0	0	0	0	0	0	0	0	0	0	0	0	0	0	0	0	0	0	0	0	0	0	0	0	0	0	0	0	0	0	0	0	0	0	0	0	0	0	0	0	0	0	0	0	0	0	0	0	0	0	0	0	0	0	0	0	0	0	0	0	0	0	0	0	0	0	0	0	0	0	0	0	0	0	0	0	0	0	0	0	0	0	0	0	0	0	0	0	0	0	0	0	0	0	0	0	0	0	0	0	0	0	0	0
0	0	0	0	0	0	0	0	0	0	0	0	0	0	0	0	0	0	0	0	0	0	0	0	0	0	0	0	0	0	0	0	0	0	0	0	0	0	0	0	0	0	0	0	0	0	0	0	0	0	0	0	0	0	0	0	0	0	0	0	0	0	0	0	0	0	0	0	0	0	0	0	0	0	0	0	0	0	0	0	0	0	0	0	0	0	0	0	0	0	0	0	0	0	0	0	0	0	0	0	0	0	0	0	0	0	0	0	0	0	0	0	0	0	0	0	0	0	0	0	0	0	0	0	0	1238	1246	1251	1254	1247	1242	1243	1256	1272	1279	1280	1267	1259	1257	1265	1264	1260	1260	1275	1287	1268	1271	1268	1268	1261	1261	1262	1273	1284	1288	1285	1287	1283	1291	1298	1270	1258	1250	1247	1253	1302	1343	1350	1350	1332	1334	1336	1310	1280	1247	0	0	0	0	0	0	0	0	0	0	0	0	0	0	0	0	0	0	0	0	0	0	0	0	0	0	0	0	0	0	0	0	0	0	1412	1413	0	0	0	0	0	0	0	0	0	0	1542	1553	1536	1463	0	0	0	0	0	0	0	0	0	0	0	0	0	0	0	0	0	0	0	0	0	0	0	0	0	0	0	0	0	0	0	0	0	0	0	0	0	0	0	0	0	0	1267	1293	1309	1309	1292	1292	1290	1293	1315	1334	1342	1340	1328	1314	1307	1304	1308	1318	1323	1316	1308	1297	1303	1308	1310	1313	1315	1328	1324	1316	1305	1305	1306	1303	1299	1288	1284	1303	1330	1353	1355	1344	1336	1334	1342	1346	1343	1338	1331	1327	1310	1317	1329	1340	1352	1355	1356	1358	1356	1337	1319	1318	1317	1317	1323	1320	1314	1318	1315	1316	1316	1325	1351	1345	1367	1367	1371	1373	1377	1377	1365	1338	1307	1285	1267	1234	1207	0	0	0	0	0	0	0	0	0	0	0	0	0	0	0	0	0	0	0	0	0	0	0	0	0	0	0	0	0	0	0	0	0	0	0	0	0	0	0	0	0	0	0	0	0	0	0	0	0	0	0	0	0	0	0	0	0	0	0	0	0	0	0	0	0	0	0	0	0	0	0	0	0	0	0	0	0	0	0	0	1520	1535	1581	1576	1551	1477	0	0	0	0	0	0	0	0	0	0	0	0	1228	1250	1258	1269	1273	1308	1298	1284	1272	1278	1287	1297	1298	1289	1288	1279	1277	1274	1274	1275	1275	1275	1272	1263	1256	1250	1252	1251	1258	1266	1277	1280	1285	1290	1288	1287	1274	1291	1305	1316	1317	1305	1299	1293	1291	1291	1287	1283	1273	1268	1261	1233	1224	1207	1176	0	0	0	0	0	0	0	0	0	0	0	0	0	0	0	0	0	0	0	0	0	0	0	0	0	0	0	0	0	0	0	0	0	0	0	0	0	0	0	0	0	0	0	0	0	0	0	0	0	0	0	0	0	0	0	0	0	0	0	0	0	0	0	0	0	0	0	0	0	0	0	0	0	0	0	0	0	0	0	0	0	0	0	0	0	0	0	0	0	0	0	0	0	0	0	0	0	0	0	0	0	0	0	0	0	0	0	0	0	0	0	0	0	0	0	0	0	0	0	0	0	0	0	0	0	0	0	0	0	0	0	0	0
0	0	0	0	0	0	0	0	0	0	0	0	0	0	0	0	0	0	0	0	0	0	0	0	0	0	0	0	0	0	0	0	0	0	0	0	0	0	0	0	0	0	0	0	0	0	0	0	0	0	0	0	0	0	0	0	0	0	0	0	0	0	0	0	0	0	0	0	0	0	0	0	0	0	0	0	0	0	0	0	0	0	0	0	0	0	0	0	0	0	0	0	0	0	0	0	0	0	0	0	0	0	0	0	0	0	0	0	0	0	0	0	0	0	0	0	0	0	0	0	0	0	0	0	0	1250	1250	1245	1241	1238	1234	1239	1253	1277	1291	1288	1267	1249	1245	1251	1259	1266	1269	1274	1297	1296	1282	1274	1264	1251	1251	1246	1254	1268	1285	1290	1291	1278	1281	1285	1252	1234	1225	1230	1236	1285	1350	1359	1361	1327	1325	1336	1318	1269	1245	0	0	0	0	0	0	0	0	0	0	0	0	0	0	0	0	0	0	0	0	0	0	0	0	0	0	0	0	0	0	0	0	0	0	0	0	0	0	0	0	0	0	0	0	0	1556	1539	1573	1557	1476	0	0	0	0	0	0	0	0	0	0	0	0	0	0	0	0	0	0	0	0	0	0	0	0	0	0	0	0	0	0	0	0	0	0	0	0	0	0	0	0	0	0	1244	1277	1296	1291	1287	1288	1293	1279	1301	1315	1312	1316	1310	1301	1296	1292	1293	1308	1315	1313	1307	1298	1300	1305	1309	1310	1319	1328	1320	1311	1304	1293	1293	1295	1296	1296	1299	1312	1334	1344	1346	1339	1327	1333	1334	1338	1343	1343	1336	1312	1310	1321	1331	1348	1352	1356	1353	1355	1355	1343	1330	1320	1320	1324	1325	1325	1318	1314	1315	1312	1314	1321	1345	1353	1368	1350	1353	1379	1374	1374	1364	1332	1311	1284	1274	1246	1212	0	0	0	0	0	0	0	0	0	0	0	0	0	0	0	0	0	0	0	0	0	0	0	0	0	0	0	0	0	0	0	0	0	0	0	0	0	0	0	0	0	0	0	0	0	0	0	0	0	0	0	0	0	0	0	0	0	0	0	0	0	0	0	0	0	0	0	0	0	0	0	0	0	0	0	0	0	0	0	0	1501	1524	1573	1585	1560	1488	0	0	0	0	0	0	0	0	0	0	0	0	1213	1233	1245	1254	1268	1300	1295	1284	1282	1291	1296	1292	1284	1281	1276	1275	1276	1278	1267	1259	1253	1257	1258	1251	1243	1245	1247	1250	1267	1280	1282	1283	1291	1296	1299	1300	1293	1288	1299	1300	1301	1291	1291	1292	1284	1279	1273	1261	1262	1263	1238	1232	1224	1203	1173	0	0	0	0	0	0	0	0	0	0	0	0	0	0	0	0	0	0	0	0	0	0	0	0	0	0	0	0	0	0	0	0	0	0	0	0	0	0	0	0	0	0	0	0	0	0	0	0	0	0	0	0	0	0	0	0	0	0	0	0	0	0	0	0	0	0	0	0	0	0	0	0	0	0	0	0	0	0	0	0	0	0	0	0	0	0	0	0	0	0	0	0	0	0	0	0	0	0	0	0	0	0	0	0	0	0	0	0	0	0	0	0	0	0	0	0	0	0	0	0	0	0	0	0	0	0	0	0	0	0	0	0	0
0	0	0	0	0	0	0	0	0	0	0	0	0	0	0	0	0	0	0	0	0	0	0	0	0	0	0	0	0	0	0	0	0	0	0	0	0	0	0	0	0	0	0	0	0	0	0	0	0	0	0	0	0	0	0	0	0	0	0	0	0	0	0	0	0	0	0	0	0	0	0	0	0	0	0	0	0	0	0	0	0	0	0	0	0	0	0	0	0	0	0	0	0	0	0	0	0	0	0	0	0	0	0	0	0	0	0	0	0	0	0	0	0	0	0	0	0	0	0	0	0	0	0	0	0	1250	1248	1243	1238	1235	1231	1230	1241	1259	1274	1275	1255	1234	1232	1247	1267	1278	1285	1284	1282	1304	1290	1273	1252	1249	1239	1236	1239	1247	1264	1276	1278	1277	1276	1271	1243	1222	1215	1223	1231	1276	1358	1370	1369	1322	1303	1300	1292	1255	1233	0	0	0	0	0	0	0	0	0	0	0	0	0	0	0	0	0	0	0	0	0	0	0	0	0	0	0	0	0	0	0	0	0	0	0	0	0	0	0	0	0	0	0	0	0	1580	1553	1580	1573	1487	0	0	0	0	0	0	0	0	0	0	0	0	0	0	0	0	0	0	0	0	0	0	0	0	0	0	0	0	0	0	0	0	0	0	0	0	0	0	0	0	0	0	1208	1258	1282	1283	1281	1288	1298	1290	1285	1293	1297	1293	1296	1291	1282	1273	1273	1292	1299	1299	1301	1294	1293	1291	1292	1297	1301	1309	1317	1313	1303	1293	1287	1288	1290	1293	1300	1314	1326	1330	1328	1326	1320	1319	1324	1327	1334	1333	1335	1328	1322	1332	1341	1351	1353	1349	1347	1348	1355	1343	1333	1324	1327	1331	1332	1335	1331	1325	1315	1309	1312	1327	1346	1351	1348	1345	1348	1356	1371	1366	1359	1332	1308	1281	1269	1251	1212	0	0	0	0	0	0	0	0	0	0	0	0	0	0	0	0	0	0	0	0	0	0	0	0	0	0	0	0	0	0	0	0	0	0	0	0	0	0	0	0	0	0	0	0	0	0	0	0	0	0	0	0	0	0	0	0	0	0	0	0	0	0	0	0	0	0	0	0	0	0	0	0	0	0	0	0	0	0	0	0	1484	1517	1595	1598	1570	1492	0	0	0	0	0	0	0	0	0	0	0	0	1195	1220	1240	1237	1249	1291	1297	1294	1305	1308	1299	1284	1275	1272	1272	1274	1278	1277	1264	1242	1228	1232	1242	1242	1239	1242	1250	1273	1282	1282	1281	1288	1287	1294	1293	1292	1279	1274	1269	1279	1272	1271	1270	1275	1276	1267	1254	1245	1246	1252	1238	1230	1223	1188	1163	0	0	0	0	0	0	0	0	0	0	0	0	0	0	0	0	0	0	0	0	0	0	0	0	0	0	0	0	0	0	0	0	0	0	0	0	0	0	0	0	0	0	0	0	0	0	0	0	0	0	0	0	0	0	0	0	0	0	0	0	0	0	0	0	0	0	0	0	0	0	0	0	0	0	0	0	0	0	0	0	0	0	0	0	0	0	0	0	0	0	0	0	0	0	0	0	0	0	0	0	0	0	0	0	0	0	0	0	0	0	0	0	0	0	0	0	0	0	0	0	0	0	0	0	0	0	0	0	0	0	0	0	0
0	0	0	0	0	0	0	0	0	0	0	0	0	0	0	0	0	0	0	0	0	0	0	0	0	0	0	0	0	0	0	0	0	0	0	0	0	0	0	0	0	0	0	0	0	0	0	0	0	0	0	0	0	0	0	0	0	0	0	0	0	0	0	0	0	0	0	0	0	0	0	0	0	0	0	0	0	0	0	0	0	0	0	0	0	0	0	0	0	0	0	0	0	0	0	0	0	0	0	0	0	0	0	0	0	0	0	0	0	0	0	0	0	0	0	0	0	0	0	0	0	0	0	0	0	1232	1240	1234	1238	1236	1228	1226	1229	1244	1254	1254	1246	1237	1233	1240	1268	1280	1292	1284	1265	1271	1289	1274	1251	1242	1245	1246	1235	1233	1241	1258	1270	1270	1269	1262	1231	1218	1223	1231	1242	1280	1359	1372	1373	1317	1295	1279	1266	1245	1227	0	0	0	0	0	0	0	0	0	0	0	0	0	0	0	0	0	0	0	0	0	0	0	0	0	0	0	0	0	0	0	0	0	0	0	0	0	0	0	0	0	0	0	0	0	1604	1576	1583	1578	1498	1451	0	0	0	0	0	0	0	0	0	0	0	0	0	0	0	0	0	0	0	0	0	0	0	0	0	0	0	0	0	0	0	0	0	0	0	0	0	0	0	0	0	1200	1235	1261	1272	1278	1289	1302	1308	1302	1285	1279	1281	1282	1291	1281	1266	1260	1273	1287	1291	1291	1285	1287	1283	1284	1290	1297	1313	1321	1323	1318	1305	1291	1283	1281	1285	1293	1298	1304	1309	1306	1313	1308	1312	1319	1322	1323	1333	1331	1333	1339	1339	1343	1348	1348	1343	1342	1343	1333	1333	1323	1323	1330	1337	1339	1337	1336	1327	1319	1315	1321	1325	1344	1349	1349	1353	1352	1351	1355	1354	1335	1322	1314	1271	1263	1248	1229	0	0	0	0	0	0	0	0	0	0	0	0	0	0	0	0	0	0	0	0	0	0	0	0	0	0	0	0	0	0	0	0	0	0	0	0	0	0	0	0	0	0	0	0	0	0	0	0	0	0	0	0	0	0	0	0	0	0	0	0	0	0	0	0	0	0	0	0	0	0	0	0	0	0	0	0	0	0	0	0	1468	1506	1587	1583	1556	1487	0	0	0	0	0	0	0	0	0	0	0	0	1193	1224	1239	1242	1242	1284	1295	1298	1306	1300	1288	1273	1266	1268	1267	1269	1274	1269	1256	1238	1224	1230	1240	1249	1256	1261	1266	1281	1282	1274	1267	1272	1273	1273	1273	1271	1259	1253	1253	1258	1264	1266	1265	1263	1267	1256	1235	1228	1239	1248	1248	1238	1221	1193	1158	0	0	0	0	0	0	0	0	0	0	0	0	0	0	0	0	0	0	0	0	0	0	0	0	0	0	0	0	0	0	0	0	0	0	0	0	0	0	0	0	0	0	0	0	0	0	0	0	0	0	0	0	0	0	0	0	0	0	0	0	0	0	0	0	0	0	0	0	0	0	0	0	0	0	0	0	0	0	0	0	0	0	0	0	0	0	0	0	0	0	0	0	0	0	0	0	0	0	0	0	0	0	0	0	0	0	0	0	0	0	0	0	0	0	0	0	0	0	0	0	0	0	0	0	0	0	0	0	0	0	0	0	0
0	0	0	0	0	0	0	0	0	0	0	0	0	0	0	0	0	0	0	0	0	0	0	0	0	0	0	0	0	0	0	0	0	0	0	0	0	0	0	0	0	0	0	0	0	0	0	0	0	0	0	0	0	0	0	0	0	0	0	0	0	0	0	0	0	0	0	0	0	0	0	0	0	0	0	0	0	0	0	0	0	0	0	0	0	0	0	0	0	0	0	0	0	0	0	0	0	0	0	0	0	0	0	0	0	0	0	0	0	0	0	0	0	0	0	0	0	0	0	0	0	0	0	0	1197	1221	1225	1227	1235	1237	1235	1237	1235	1242	1244	1252	1248	1245	1243	1244	1259	1259	1282	1279	1247	1247	1268	1274	1260	1254	1256	1255	1229	1226	1230	1245	1266	1276	1273	1260	1252	1253	1244	1244	1267	1291	1354	1360	1349	1307	1291	1277	1263	1245	0	0	0	0	0	0	0	0	0	0	0	0	0	0	0	0	0	0	0	0	0	0	0	0	0	0	0	0	0	0	0	0	0	0	0	0	0	0	0	0	0	0	0	0	0	0	1579	1608	1588	1571	1490	1442	0	0	0	0	0	0	0	0	0	0	0	0	0	0	0	0	0	0	0	0	0	0	0	0	0	0	0	0	0	0	0	0	0	0	0	0	0	0	0	0	0	1188	1231	1257	1272	1277	1289	1298	1307	1301	1282	1273	1270	1282	1290	1272	1264	1265	1278	1288	1288	1284	1276	1277	1279	1286	1296	1303	1319	1333	1337	1335	1323	1300	1289	1286	1286	1286	1291	1292	1290	1293	1290	1301	1305	1313	1317	1325	1328	1334	1343	1337	1337	1338	1341	1335	1334	1339	1336	1320	1318	1310	1316	1327	1340	1338	1332	1325	1320	1317	1313	1316	1324	1339	1357	1367	1368	1364	1356	1358	1354	1328	1321	1306	1275	1257	1241	1232	0	0	0	0	0	0	0	0	0	0	0	0	0	0	0	0	0	0	0	0	0	0	0	0	0	0	0	0	0	0	0	0	0	0	0	0	0	0	0	0	0	0	0	0	0	0	0	0	0	0	0	0	0	0	0	0	0	0	0	0	0	0	0	0	0	0	0	0	0	0	0	0	0	0	0	0	0	0	0	0	1457	1493	1553	1552	1527	1484	0	0	0	0	0	0	0	0	0	0	0	0	1204	1232	1247	1256	1250	1277	1287	1293	1297	1287	1277	1269	1264	1261	1263	1260	1255	1252	1232	1238	1237	1227	1240	1248	1253	1255	1258	1272	1273	1265	1257	1254	1255	1253	1246	1235	1240	1240	1244	1258	1265	1265	1267	1273	1267	1254	1233	1230	1237	1247	1250	1247	1228	1206	1169	0	0	0	0	0	0	0	0	0	0	0	0	0	0	0	0	0	0	0	0	0	0	0	0	0	0	0	0	0	0	0	0	0	0	0	0	0	0	0	0	0	0	0	0	0	0	0	0	0	0	0	0	0	0	0	0	0	0	0	0	0	0	0	0	0	0	0	0	0	0	0	0	0	0	0	0	0	0	0	0	0	0	0	0	0	0	0	0	0	0	0	0	0	0	0	0	0	0	0	0	0	0	0	0	0	0	0	0	0	0	0	0	0	0	0	0	0	0	0	0	0	0	0	0	0	0	0	0	0	0	0	0	0
0	0	0	0	0	0	0	0	0	0	0	0	0	0	0	0	0	0	0	0	0	0	0	0	0	0	0	0	0	0	0	0	0	0	0	0	0	0	0	0	0	0	0	0	0	0	0	0	0	0	0	0	0	0	0	0	0	0	0	0	0	0	0	0	0	0	0	0	0	0	0	0	0	0	0	0	0	0	0	0	0	0	0	0	0	0	0	0	0	0	0	0	0	0	0	0	0	0	0	0	0	0	0	0	0	0	0	0	0	0	0	0	0	0	0	0	0	0	0	0	0	0	0	0	1197	1207	1217	1223	1230	1244	1252	1249	1251	1257	1262	1253	1254	1259	1261	1247	1239	1232	1243	1266	1243	1247	1257	1266	1267	1260	1271	1257	1237	1232	1229	1244	1268	1282	1287	1284	1269	1264	1267	1271	1283	1310	1340	1337	1324	1298	1295	1288	1281	1270	0	0	0	0	0	0	0	0	0	0	0	0	0	0	0	0	0	0	0	0	0	0	0	0	0	0	0	0	0	0	0	0	0	0	0	0	0	0	0	0	0	0	0	0	0	0	1545	1582	1595	1534	1458	0	0	0	0	0	0	0	0	0	0	0	0	0	0	0	0	0	0	0	0	0	0	0	0	0	0	0	0	0	0	0	0	0	0	0	0	0	0	0	0	0	0	1172	1224	1258	1272	1285	1289	1298	1302	1297	1282	1279	1275	1280	1280	1271	1265	1275	1288	1293	1289	1282	1277	1278	1290	1306	1314	1323	1329	1346	1347	1340	1330	1312	1298	1291	1285	1286	1289	1285	1286	1283	1282	1287	1298	1301	1317	1319	1324	1325	1329	1330	1324	1328	1329	1321	1322	1327	1324	1323	1313	1303	1315	1336	1339	1331	1316	1310	1308	1319	1320	1319	1330	1343	1356	1361	1360	1356	1355	1361	1349	1366	1328	1313	1280	1256	1236	1223	0	0	0	0	0	0	0	0	0	0	0	0	0	0	0	0	0	0	0	0	0	0	0	0	0	0	0	0	0	0	0	0	0	0	0	0	0	0	0	0	0	0	0	0	0	0	0	0	0	0	0	0	0	0	0	0	0	0	0	0	0	0	0	0	0	0	0	0	0	0	0	0	0	0	0	0	0	0	0	0	0	1469	1517	1524	1505	1468	0	0	0	0	0	0	0	0	0	0	0	0	1209	1242	1257	1270	1265	1282	1287	1290	1291	1276	1268	1264	1262	1261	1250	1243	1238	1233	1233	1235	1237	1234	1234	1246	1239	1238	1246	1262	1269	1262	1247	1246	1250	1241	1222	1219	1232	1239	1242	1256	1263	1274	1273	1270	1265	1251	1234	1236	1247	1257	1251	1247	1230	1211	1176	0	0	0	0	0	0	0	0	0	0	0	0	0	0	0	0	0	0	0	0	0	0	0	0	0	0	0	0	0	0	0	0	0	0	0	0	0	0	0	0	0	0	0	0	0	0	0	0	0	0	0	0	0	0	0	0	0	0	0	0	0	0	0	0	0	0	0	0	0	0	0	0	0	0	0	0	0	0	0	0	0	0	0	0	0	0	0	0	0	0	0	0	0	0	0	0	0	0	0	0	0	0	0	0	0	0	0	0	0	0	0	0	0	0	0	0	0	0	0	0	0	0	0	0	0	0	0	0	0	0	0	0	0
0	0	0	0	0	0	0	0	0	0	0	0	0	0	0	0	0	0	0	0	0	0	0	0	0	0	0	0	0	0	0	0	0	0	0	0	0	0	0	0	0	0	0	0	0	0	0	0	0	0	0	0	0	0	0	0	0	0	0	0	0	0	0	0	0	0	0	0	0	0	0	0	0	0	0	0	0	0	0	0	0	0	0	0	0	0	0	0	0	0	0	0	0	0	0	0	0	0	0	0	0	0	0	0	0	0	0	0	0	0	0	0	0	0	0	0	0	0	0	0	0	0	0	0	1195	1211	1212	1211	1229	1252	1272	1270	1273	1282	1279	1278	1268	1267	1264	1249	1228	1221	1227	1247	1257	1265	1267	1272	1266	1263	1262	1253	1247	1246	1245	1259	1272	1287	1292	1290	1281	1284	1282	1285	1305	1333	1335	1329	1309	1295	1301	1300	1300	1294	0	0	0	0	0	0	0	0	0	0	0	0	0	0	0	0	0	0	0	0	0	0	0	0	0	0	0	0	0	0	0	0	0	0	0	0	0	0	0	0	0	0	0	0	0	0	1499	1538	1599	1524	1438	0	0	0	0	0	0	0	0	0	0	0	0	0	0	0	0	0	0	0	0	0	0	0	0	0	0	0	0	0	0	0	0	0	0	0	0	0	0	0	0	0	0	1171	1221	1262	1275	1292	1303	1306	1304	1305	1289	1283	1274	1273	1276	1274	1268	1279	1286	1289	1285	1280	1282	1292	1305	1319	1327	1329	1335	1334	1336	1332	1322	1314	1303	1291	1287	1284	1291	1292	1294	1296	1289	1293	1295	1296	1297	1309	1318	1319	1317	1317	1317	1314	1310	1307	1312	1317	1316	1316	1313	1317	1325	1335	1327	1317	1299	1288	1289	1300	1314	1326	1332	1339	1341	1344	1334	1333	1337	1353	1361	1339	1320	1311	1287	1266	1241	1224	1228	0	0	0	0	0	0	0	0	0	0	0	0	0	0	0	0	0	0	0	0	0	0	0	0	0	0	0	0	0	0	0	0	0	0	0	0	0	0	0	0	0	0	0	0	0	0	0	0	0	0	0	0	0	0	0	0	0	0	0	0	0	0	0	0	0	0	0	0	0	0	0	0	0	0	0	0	0	0	0	0	1451	1483	1492	1489	0	0	0	0	0	0	0	0	0	0	0	0	0	1200	1239	1266	1275	1282	1278	1290	1293	1292	1277	1265	1265	1250	1244	1246	1244	1240	1242	1238	1238	1238	1244	1246	1240	1234	1233	1244	1264	1272	1264	1255	1254	1250	1241	1225	1222	1239	1239	1237	1240	1261	1272	1277	1271	1262	1249	1247	1248	1254	1262	1246	1240	1220	1202	1186	0	0	0	0	0	0	0	0	0	0	0	0	0	0	0	0	0	0	0	0	0	0	0	0	0	0	0	0	0	0	0	0	0	0	0	0	0	0	0	0	0	0	0	0	0	0	0	0	0	0	0	0	0	0	0	0	0	0	0	0	0	0	0	0	0	0	0	0	0	0	0	0	0	0	0	0	0	0	0	0	0	0	0	0	0	0	0	0	0	0	0	0	0	0	0	0	0	0	0	0	0	0	0	0	0	0	0	0	0	0	0	0	0	0	0	0	0	0	0	0	0	0	0	0	0	0	0	0	0	0	0	0	0
0	0	0	0	0	0	0	0	0	0	0	0	0	0	0	0	0	0	0	0	0	0	0	0	0	0	0	0	0	0	0	0	0	0	0	0	0	0	0	0	0	0	0	0	0	0	0	0	0	0	0	0	0	0	0	0	0	0	0	0	0	0	0	0	0	0	0	0	0	0	0	0	0	0	0	0	0	0	0	0	0	0	0	0	0	0	0	0	0	0	0	0	0	0	0	0	0	0	0	0	0	0	0	0	0	0	0	0	0	0	0	0	0	0	0	0	0	0	0	0	0	0	0	1192	1203	1214	1205	1215	1224	1249	1262	1262	1269	1275	1283	1283	1282	1274	1263	1248	1236	1223	1224	1232	1259	1283	1292	1290	1271	1265	1260	1261	1261	1261	1267	1270	1284	1294	1299	1281	1279	1289	1295	1300	1318	1341	1336	1323	1309	1295	1300	1305	1315	1311	0	0	0	0	0	0	0	0	0	0	0	0	0	0	0	0	0	0	0	0	0	0	0	0	0	0	0	0	0	0	0	0	0	0	0	0	0	0	0	0	0	0	0	0	0	0	0	1470	1549	1482	1423	0	0	0	0	0	0	0	0	0	0	0	0	0	0	0	0	0	0	0	0	0	0	0	0	0	0	0	0	0	0	0	0	0	0	0	0	0	0	0	0	0	0	1188	1229	1268	1289	1299	1307	1306	1305	1308	1309	1284	1273	1268	1266	1267	1264	1272	1279	1282	1284	1283	1289	1299	1308	1317	1319	1317	1315	1314	1312	1317	1313	1312	1310	1305	1299	1298	1294	1294	1298	1306	1302	1301	1300	1296	1300	1299	1305	1304	1312	1321	1330	1333	1329	1319	1299	1304	1313	1316	1315	1317	1322	1323	1312	1296	1282	1271	1277	1293	1314	1327	1332	1332	1333	1328	1329	1328	1322	1325	1330	1312	1305	1299	1284	1275	1258	1237	1232	0	0	0	0	0	0	0	0	0	0	0	0	0	0	0	0	0	0	0	0	0	0	0	0	0	0	0	0	0	0	0	0	0	0	0	0	0	0	0	0	0	0	0	0	0	0	0	0	0	0	0	0	0	0	0	0	0	0	0	0	0	0	0	0	0	0	0	0	0	0	0	0	0	0	0	0	0	0	0	0	0	0	0	0	0	0	0	0	0	0	0	0	0	0	0	0	0	1192	1222	1254	1269	1281	1286	1283	1291	1293	1287	1284	1264	1250	1240	1244	1245	1246	1253	1257	1247	1246	1262	1262	1254	1239	1236	1249	1264	1279	1277	1273	1269	1261	1243	1234	1228	1244	1248	1237	1235	1249	1263	1274	1269	1259	1253	1250	1254	1260	1259	1253	1240	1215	1198	1192	1191	0	0	0	0	0	0	0	0	0	0	0	0	0	0	0	0	0	0	0	0	0	0	0	0	0	0	0	0	0	0	0	0	0	0	0	0	0	0	0	0	0	0	0	0	0	0	0	0	0	0	0	0	0	0	0	0	0	0	0	0	0	0	0	0	0	0	0	0	0	0	0	0	0	0	0	0	0	0	0	0	0	0	0	0	0	0	0	0	0	0	0	0	0	0	0	0	0	0	0	0	0	0	0	0	0	0	0	0	0	0	0	0	0	0	0	0	0	0	0	0	0	0	0	0	0	0	0	0	0	0	0	0
0	0	0	0	0	0	0	0	0	0	0	0	0	0	0	0	0	0	0	0	0	0	0	0	0	0	0	0	0	0	0	0	0	0	0	0	0	0	0	0	0	0	0	0	0	0	0	0	0	0	0	0	0	0	0	0	0	0	0	0	0	0	0	0	0	0	0	0	0	0	0	0	0	0	0	0	0	0	0	0	0	0	0	0	0	0	0	0	0	0	0	0	0	0	0	0	0	0	0	0	0	0	0	0	0	0	0	0	0	0	0	0	0	0	0	0	0	0	0	0	0	0	0	1199	1211	1218	1206	1213	1228	1238	1246	1244	1252	1255	1270	1289	1286	1279	1263	1255	1247	1240	1231	1234	1268	1290	1303	1295	1283	1271	1264	1269	1268	1271	1282	1287	1295	1298	1280	1264	1263	1288	1296	1309	1322	1333	1338	1327	1316	1291	1294	1305	1318	1339	0	0	0	0	0	0	0	0	0	0	0	0	0	0	0	0	0	0	0	0	0	0	0	0	0	0	0	0	0	0	0	0	0	0	0	0	0	0	0	0	0	0	0	0	0	0	0	1452	1477	1448	1432	0	0	0	0	0	0	0	0	0	0	0	0	0	0	0	0	0	0	0	0	0	0	0	0	0	0	0	0	0	0	0	0	0	0	0	0	0	0	0	0	0	0	1205	1234	1276	1299	1300	1301	1286	1294	1307	1307	1291	1277	1270	1267	1261	1258	1262	1275	1281	1282	1287	1291	1297	1303	1304	1294	1293	1292	1295	1301	1303	1306	1309	1316	1320	1315	1310	1302	1304	1302	1309	1307	1306	1309	1301	1297	1292	1294	1296	1312	1320	1333	1332	1324	1313	1306	1310	1316	1314	1316	1314	1309	1299	1293	1281	1276	1268	1270	1286	1311	1328	1326	1320	1323	1326	1329	1334	1336	1330	1321	1303	1293	1276	1278	1282	1277	1256	1250	0	0	0	0	0	0	0	0	0	0	0	0	0	0	0	0	0	0	0	0	0	0	0	0	0	0	0	0	0	0	0	0	0	0	0	0	0	0	0	0	0	0	0	0	0	0	0	0	0	0	0	0	0	0	0	0	0	0	0	0	0	0	0	0	0	0	0	0	0	0	0	0	0	0	0	0	0	0	0	0	0	0	0	0	0	0	0	0	0	0	0	0	0	0	0	0	0	1177	1211	1249	1261	1248	1254	1265	1272	1276	1283	1288	1277	1252	1243	1247	1248	1256	1254	1265	1257	1267	1269	1268	1264	1254	1247	1254	1262	1271	1278	1289	1292	1285	1255	1237	1229	1242	1242	1232	1230	1239	1255	1267	1267	1262	1258	1253	1258	1256	1263	1256	1248	1222	1198	1190	1194	0	0	0	0	0	0	0	0	0	0	0	0	0	0	0	0	0	0	0	0	0	0	0	0	0	0	0	0	0	0	0	0	0	0	0	0	0	0	0	0	0	0	0	0	0	0	0	0	0	0	0	0	0	0	0	0	0	0	0	0	0	0	0	0	0	0	0	0	0	0	0	0	0	0	0	0	0	0	0	0	0	0	0	0	0	0	0	0	0	0	0	0	0	0	0	0	0	0	0	0	0	0	0	0	0	0	0	0	0	0	0	0	0	0	0	0	0	0	0	0	0	0	0	0	0	0	0	0	0	0	0	0
0	0	0	0	0	0	0	0	0	0	0	0	0	0	0	0	0	0	0	0	0	0	0	0	0	0	0	0	0	0	0	0	0	0	0	0	0	0	0	0	0	0	0	0	0	0	0	0	0	0	0	0	0	0	0	0	0	0	0	0	0	0	0	0	0	0	0	0	0	0	0	0	0	0	0	0	0	0	0	0	0	0	0	0	0	0	0	0	0	0	0	0	0	0	0	0	0	0	0	0	0	0	0	0	0	0	0	0	0	0	0	0	0	0	0	0	0	0	0	0	0	0	0	0	1203	1211	1213	1213	1229	1233	1240	1238	1231	1231	1236	1257	1273	1267	1261	1251	1248	1245	1243	1239	1273	1287	1298	1294	1284	1280	1273	1268	1265	1282	1293	1306	1307	1297	1272	1255	1258	1289	1299	1304	1312	1330	1338	1337	1315	1294	1287	1287	1306	1324	0	0	0	0	0	0	0	0	0	0	0	0	0	0	0	0	0	0	0	0	0	0	0	0	0	0	0	0	0	0	0	0	0	0	0	0	0	0	0	0	0	0	0	0	0	0	0	0	1451	1446	1419	1416	1420	0	0	0	0	0	0	0	0	0	0	0	0	0	0	0	0	0	0	0	0	0	0	0	0	0	0	0	0	0	0	0	0	0	0	0	0	0	0	0	0	1221	1247	1285	1304	1304	1285	1284	1291	1300	1303	1292	1284	1278	1272	1263	1262	1269	1276	1281	1282	1282	1286	1289	1296	1291	1287	1285	1284	1289	1293	1297	1304	1312	1321	1337	1344	1329	1317	1310	1312	1311	1313	1316	1313	1314	1310	1296	1294	1297	1303	1314	1322	1322	1311	1304	1304	1312	1315	1317	1312	1308	1304	1290	1289	1282	1281	1268	1269	1282	1310	1327	1325	1325	1327	1328	1338	1339	1339	1333	1318	1307	1289	1252	1265	1278	1284	1282	1265	0	0	0	0	0	1399	1372	1364	1361	1374	0	0	0	1394	1372	1352	1327	0	0	0	0	0	0	0	0	0	0	0	0	0	0	0	0	0	0	0	0	0	0	0	0	0	0	0	0	0	0	0	0	0	0	0	0	0	0	0	0	0	0	0	0	0	0	0	0	0	0	0	0	0	1345	1355	0	0	0	0	0	0	0	0	0	0	0	0	0	0	0	0	0	0	0	0	0	0	0	0	0	1215	1237	1259	1264	1236	1229	1238	1244	1256	1275	1286	1279	1259	1247	1251	1250	1254	1257	1256	1267	1272	1270	1266	1258	1253	1247	1249	1249	1255	1271	1295	1315	1321	1293	1247	1224	1226	1234	1228	1235	1240	1244	1257	1263	1263	1257	1250	1248	1257	1253	1261	1251	1226	1202	1187	1188	1196	1211	1230	0	0	0	0	0	0	0	0	0	0	0	0	0	0	0	0	0	0	0	0	0	0	0	0	0	0	0	0	0	0	0	0	0	0	0	0	0	0	0	0	0	0	0	0	0	0	0	0	0	0	0	0	0	0	0	0	0	0	0	0	0	0	0	0	0	0	0	0	0	0	0	0	0	0	0	0	0	0	0	0	0	0	0	0	0	0	0	0	0	0	0	0	0	0	0	0	0	0	0	0	0	0	0	0	0	0	0	0	0	0	0	0	0	0	0	0	0	0	0	0	0	0	0	0	0	0	0	0	0
0	0	0	0	0	0	0	0	0	0	0	0	0	0	0	0	0	0	0	0	0	0	0	0	0	0	0	0	0	0	0	0	0	0	0	0	0	0	0	0	0	0	0	0	0	0	0	0	0	0	0	0	0	0	0	0	0	0	0	0	0	0	0	0	0	0	0	0	0	0	0	0	0	0	0	0	0	0	0	0	0	0	0	0	0	0	0	0	0	0	0	0	0	0	0	0	0	0	0	0	0	0	0	0	0	0	0	0	0	0	0	0	0	0	0	0	0	0	0	0	0	0	0	0	1208	1202	1210	1219	1228	1236	1242	1237	1224	1205	1203	1221	1242	1250	1252	1242	1242	1254	1259	1255	1280	1288	1287	1282	1279	1278	1269	1263	1262	1268	1296	1314	1316	1302	1269	1256	1267	1294	1296	1298	1300	1319	1334	1333	1321	1300	1286	1276	1270	1263	0	0	0	0	0	0	0	0	0	0	0	0	0	0	0	0	0	0	0	0	0	0	0	0	0	0	0	0	0	0	0	0	0	0	1370	1377	1377	0	0	0	0	1362	1366	1362	1362	0	0	0	1429	1411	1388	1387	1395	1396	1386	1371	1354	0	0	0	0	0	0	1348	0	0	0	0	0	0	0	0	0	0	0	0	0	0	0	0	0	0	0	0	0	0	0	0	0	0	0	0	0	1234	1248	1286	1304	1308	1293	1289	1292	1295	1297	1294	1286	1278	1271	1261	1261	1267	1275	1271	1269	1272	1278	1285	1293	1293	1290	1285	1286	1285	1292	1295	1307	1312	1331	1346	1353	1348	1338	1321	1318	1319	1308	1317	1315	1320	1302	1303	1301	1296	1298	1301	1309	1307	1297	1294	1298	1309	1316	1315	1309	1308	1298	1290	1280	1288	1291	1277	1269	1268	1288	1307	1329	1327	1325	1327	1334	1340	1345	1343	1328	1307	1259	1243	1255	1264	1275	1292	1293	1293	1309	1327	1351	1374	1362	1358	1349	1348	1358	1357	1371	1363	1365	1350	1329	1317	1324	1350	0	0	1343	1330	1325	1329	1352	1365	1382	1386	1370	1358	1350	1340	1331	1315	1312	1314	1306	1309	1332	1352	0	0	1377	1358	1340	1353	1364	1353	1342	1340	1333	1324	1310	1319	1328	1331	1337	1341	1350	0	0	0	0	0	1395	1340	1317	1318	1331	1346	1367	1382	0	0	0	0	0	1352	1322	1322	1337	1387	0	0	0	0	0	0	0	0	0	0	0	0	0	1234	1236	1248	1266	1276	1233	1218	1217	1225	1234	1246	1261	1273	1269	1258	1247	1239	1240	1247	1252	1247	1231	1225	1237	1235	1227	1216	1214	1222	1224	1240	1267	1308	1318	1296	1262	1227	1192	1202	1222	1233	1235	1233	1236	1245	1247	1245	1237	1235	1233	1240	1252	1242	1223	1206	1195	1190	1194	1197	1203	1205	1220	1219	1212	1214	1231	1246	1243	1218	1207	1213	1219	1225	1232	1240	1238	1221	1212	0	0	0	0	0	0	0	0	0	0	0	0	0	1276	1254	1235	1220	1205	1198	1197	1189	1193	1190	0	0	0	0	0	0	1194	0	0	0	0	0	0	0	0	0	1185	1185	0	0	0	0	0	1196	1180	1161	1149	1146	0	0	0	0	0	0	0	0	0	0	0	0	0	0	0	0	0	0	0	0	0	0	1184	1185	1186	1180	1179	1184	1184	1180	0	0	0	0	0	0	0	0	0	0	0	0	0	0	0	0	0	0	0	0	0	0	0	0	0	0	0	0	0	0
0	0	0	0	0	0	0	0	0	0	0	0	0	0	0	0	0	0	0	0	0	0	0	0	0	0	0	0	0	0	0	0	0	0	0	0	0	0	0	0	0	0	0	0	0	0	0	0	0	0	0	0	0	0	0	0	0	0	0	0	0	0	0	0	0	0	0	0	0	0	0	0	0	0	0	0	0	0	0	0	0	0	0	0	0	0	0	0	0	0	0	0	0	0	0	0	0	0	0	0	0	0	0	0	0	0	0	0	0	0	0	0	0	0	0	0	0	0	0	0	0	0	0	0	1224	1215	1209	1216	1231	1250	1251	1247	1229	1200	1188	1200	1220	1239	1245	1248	1256	1263	1254	1254	1269	1273	1262	1256	1262	1260	1249	1237	1237	1255	1287	1318	1321	1297	1277	1268	1280	1295	1282	1269	1260	1271	1312	1323	1309	1291	1282	1274	1249	1232	1232	0	0	0	0	0	0	0	0	0	0	0	0	0	0	0	0	0	0	0	0	0	0	0	0	0	0	0	1346	1346	1333	1339	1340	1333	1330	1344	1351	1355	1348	1339	1328	1320	1318	1310	1298	1283	1323	1349	1360	1297	1318	1332	1352	1352	1343	1320	1324	1332	1331	1314	1325	1320	1318	1325	1322	1306	1309	1288	1281	1291	1302	1333	1343	1358	1375	0	0	0	0	0	0	1348	1333	1336	1337	1336	1329	1321	1318	0	0	0	0	1240	1247	1268	1292	1310	1302	1297	1294	1295	1286	1285	1273	1264	1257	1252	1253	1253	1260	1259	1256	1254	1259	1275	1289	1299	1298	1292	1279	1279	1284	1302	1307	1313	1325	1331	1340	1333	1325	1297	1284	1292	1287	1294	1303	1298	1298	1301	1300	1286	1287	1279	1276	1277	1276	1277	1277	1281	1294	1291	1284	1267	1264	1260	1253	1253	1261	1254	1242	1252	1267	1284	1279	1262	1255	1257	1268	1282	1294	1294	1292	1262	1240	1230	1237	1247	1251	1266	1298	1309	1296	1298	1313	1324	1321	1322	1324	1322	1306	1295	1305	1311	1313	1305	1282	1271	1280	1287	1283	1273	1276	1294	1303	1311	1322	1317	1327	1334	1310	1299	1295	1291	1282	1267	1272	1281	1303	1309	1312	1314	1328	1336	1331	1322	1319	1329	1345	1332	1321	1313	1299	1282	1273	1273	1279	1293	1311	1316	1323	1340	1351	1350	1333	1330	1293	1286	1274	1273	1292	1327	1344	1350	1339	1333	1315	1291	1280	1291	1296	1286	1284	1285	1305	1298	1287	1258	1233	1227	1229	1223	1219	1226	1220	1217	1227	1229	1234	1240	1260	1276	1236	1214	1202	1199	1199	1205	1224	1241	1241	1238	1226	1221	1213	1208	1207	1205	1205	1205	1202	1202	1196	1194	1190	1193	1206	1217	1243	1282	1294	1275	1251	1186	1184	1193	1205	1215	1212	1202	1206	1206	1205	1207	1205	1201	1207	1212	1229	1230	1221	1214	1213	1209	1202	1195	1185	1174	1164	1166	1180	1207	1211	1219	1210	1203	1183	1177	1188	1194	1211	1226	1223	1215	1203	1207	1214	1220	1209	0	0	1179	1178	1185	1210	0	0	1249	1233	1223	1210	1210	1191	1191	1198	1206	1211	1205	1189	1171	1172	1195	1199	1199	1190	1189	1195	0	0	1194	1199	1199	1202	1186	1184	1180	1172	1167	1168	1181	1181	1182	1167	1157	1145	1141	1134	1135	1139	0	0	0	0	0	1126	1138	1164	1176	1176	1177	1181	1191	1190	1172	1174	1163	1157	1150	1149	1163	1171	1173	1172	1170	1163	1154	1181	0	0	0	0	0	1187	1169	1162	1176	1199	1219	1223	1221	1225	1210	1183	1162	1159	0	0	0	0	0	0	0	0	0	0	0
0	0	0	0	0	0	0	0	0	0	0	0	0	0	0	0	0	0	0	0	0	0	0	0	0	0	0	0	0	0	0	0	0	0	0	0	0	0	0	0	0	0	0	0	0	0	0	0	0	0	0	0	0	0	0	0	0	0	0	0	0	0	0	0	0	0	0	0	0	0	0	0	0	0	0	0	0	0	0	0	0	0	0	0	0	0	0	0	0	0	0	0	0	0	0	0	0	0	0	0	0	0	0	0	0	0	0	0	0	0	0	0	0	0	0	0	0	0	0	0	0	0	0	0	1235	1227	1220	1221	1237	1251	1259	1252	1234	1211	1193	1204	1222	1243	1254	1274	1272	1264	1251	1245	1244	1251	1236	1226	1226	1232	1227	1210	1212	1232	1271	1297	1297	1272	1261	1264	1266	1284	1280	1272	1259	1255	1256	1262	1272	1280	1292	1271	1248	1229	1232	1238	0	0	0	0	0	1232	1233	1230	1221	1221	1237	0	0	0	0	1267	1258	1247	1241	1253	1241	1237	1238	1256	1264	1251	1258	1277	1290	1305	1307	1291	1285	1302	1322	1325	1307	1287	1263	1257	1265	1261	1247	1235	1238	1240	1249	1251	1266	1274	1287	1288	1289	1276	1283	1294	1286	1270	1265	1268	1273	1306	1305	1285	1263	1257	1264	1271	1285	1312	1326	1332	1326	1317	1327	1350	1348	1321	1287	1260	1272	1291	1302	1294	1310	1310	1302	1309	0	0	0	1250	1247	1250	1261	1289	1301	1293	1283	1268	1264	1255	1250	1239	1234	1225	1216	1218	1223	1226	1229	1234	1247	1264	1276	1272	1270	1258	1250	1250	1257	1257	1248	1246	1260	1281	1293	1286	1273	1261	1257	1248	1249	1254	1258	1263	1259	1258	1252	1248	1253	1261	1250	1250	1244	1246	1251	1251	1243	1233	1217	1211	1210	1213	1211	1211	1214	1208	1211	1223	1213	1217	1215	1220	1222	1230	1226	1238	1244	1245	1240	1227	1216	1208	1213	1221	1220	1239	1253	1254	1229	1229	1245	1263	1277	1284	1282	1283	1271	1247	1254	1254	1255	1260	1240	1222	1219	1214	1193	1193	1216	1254	1278	1276	1254	1260	1281	1287	1271	1241	1226	1219	1210	1203	1213	1230	1255	1270	1278	1282	1292	1306	1299	1296	1293	1310	1312	1264	1259	1252	1249	1245	1245	1237	1225	1243	1269	1292	1303	1306	1289	1248	1237	1242	1256	1246	1235	1228	1242	1267	1292	1291	1279	1269	1256	1250	1246	1228	1237	1249	1248	1241	1241	1249	1262	1248	1244	1234	1213	1229	1221	1218	1213	1209	1205	1199	1202	1214	1232	1246	1204	1195	1182	1175	1174	1183	1200	1208	1218	1220	1214	1206	1197	1196	1196	1194	1193	1187	1189	1184	1181	1175	1177	1180	1189	1211	1223	1235	1252	1241	1225	1175	1176	1186	1185	1179	1177	1174	1179	1176	1172	1164	1175	1181	1184	1193	1200	1195	1199	1203	1212	1221	1214	1200	1182	1172	1159	1158	1166	1199	1207	1212	1207	1191	1185	1179	1176	1192	1199	1210	1213	1207	1199	1189	1182	1187	1192	1189	1171	1171	1172	1168	1178	1189	1195	1207	1200	1191	1191	1190	1181	1184	1193	1218	1227	1214	1189	1161	1143	1159	1175	1182	1181	1185	1195	1196	1192	1185	1187	1182	1180	1175	1168	1160	1156	1151	1154	1165	1170	1169	1163	1150	1142	1129	1131	1133	1140	1148	1151	1141	1130	1125	1127	1135	1156	1161	1159	1153	1152	1156	1158	1162	1156	1154	1137	1129	1133	1144	1152	1157	1155	1154	1145	1138	1143	1160	1190	1158	1158	1158	1161	1165	1152	1155	1165	1194	1214	1219	1208	1182	1153	1141	1137	1141	0	0	0	0	0	0	0	0	0	0
0	0	0	0	0	0	0	0	0	0	0	0	0	0	0	0	0	1155	1166	1166	0	0	0	0	0	0	0	0	1230	1201	0	0	0	0	0	0	0	0	0	0	0	0	0	0	0	0	0	0	0	0	0	0	0	0	0	0	0	0	0	0	0	0	0	0	0	0	1248	1236	1230	1231	1242	1242	1247	0	0	0	1217	0	0	0	0	0	0	0	0	0	0	0	0	0	0	0	0	0	0	0	0	0	0	0	0	0	0	0	0	0	0	0	0	0	0	0	0	0	0	0	0	0	0	0	0	0	0	0	1239	1241	1237	1229	1232	1240	1247	1238	1227	1213	1207	1221	1243	1261	1263	1274	1266	1259	1234	1222	1216	1218	1208	1192	1194	1201	1192	1189	1193	1214	1253	1271	1265	1251	1240	1238	1242	1270	1273	1266	1260	1257	1250	1249	1252	1263	1277	1267	1240	1231	1229	1241	1236	1218	1205	1197	1207	1222	1233	1228	1216	1207	1206	1217	1237	1264	1283	1240	1211	1196	1197	1216	1228	1236	1232	1228	1217	1216	1221	1243	1273	1278	1284	1243	1249	1263	1279	1283	1255	1220	1209	1203	1216	1211	1204	1207	1208	1216	1227	1243	1238	1234	1227	1230	1235	1210	1197	1177	1173	1185	1206	1226	1234	1229	1210	1226	1215	1231	1246	1254	1262	1295	1304	1294	1267	1258	1267	1272	1276	1250	1230	1237	1250	1263	1271	1266	1253	1267	1260	1248	1277	1278	1265	1247	1239	1223	1235	1254	1276	1277	1269	1263	1251	1234	1217	1211	1201	1191	1186	1192	1203	1213	1219	1225	1239	1245	1242	1242	1233	1222	1211	1207	1210	1209	1197	1198	1204	1223	1231	1230	1231	1231	1222	1218	1219	1222	1224	1230	1228	1225	1218	1217	1226	1223	1217	1201	1199	1209	1207	1208	1210	1197	1188	1184	1190	1193	1191	1185	1183	1179	1175	1178	1181	1179	1174	1181	1193	1195	1193	1195	1206	1205	1202	1195	1185	1179	1176	1174	1178	1197	1204	1198	1194	1204	1215	1225	1221	1214	1226	1233	1224	1215	1210	1208	1194	1197	1183	1177	1178	1175	1166	1168	1178	1210	1233	1228	1207	1222	1236	1249	1233	1213	1200	1195	1190	1184	1188	1202	1222	1229	1246	1246	1260	1273	1272	1264	1231	1221	1220	1218	1216	1213	1219	1216	1210	1179	1166	1160	1185	1235	1256	1243	1223	1207	1207	1213	1218	1215	1206	1204	1210	1216	1215	1212	1219	1224	1221	1210	1201	1190	1189	1209	1200	1201	1203	1216	1225	1169	1170	1161	1150	1166	1165	1172	1178	1171	1158	1130	1129	1168	1191	1181	1178	1171	1163	1156	1153	1147	1149	1169	1188	1194	1186	1184	1170	1179	1175	1176	1173	1167	1158	1151	1153	1154	1157	1165	1175	1188	1195	1196	1185	1171	1164	1157	1165	1170	1163	1152	1147	1156	1157	1154	1141	1140	1148	1156	1161	1167	1173	1169	1167	1182	1201	1214	1214	1199	1177	1164	1155	1156	1155	1168	1196	1200	1191	1185	1176	1176	1176	1172	1176	1182	1182	1179	1160	1150	1149	1150	1149	1136	1131	1136	1133	1130	1124	1135	1147	1163	1161	1155	1158	1163	1157	1156	1179	1208	1227	1210	1180	1144	1140	1152	1161	1163	1153	1139	1129	1127	1163	1165	1168	1160	1144	1134	1128	1129	1129	1137	1137	1141	1142	1151	1143	1142	1133	1123	1124	1134	1134	1138	1126	1126	1124	1121	1122	1129	1135	1148	1139	1130	1131	1138	1140	1145	1149	1137	1120	1114	1126	1133	1141	1139	1137	1134	1123	1115	1109	1117	1122	1119	1132	1132	1142	1140	1129	1111	1110	1137	1168	1186	1173	1154	1134	1118	1119	1120	1127	0	0	0	0	0	0	0	0	0
0	0	0	0	0	0	0	0	0	0	0	0	0	0	0	0	0	1131	1152	1152	1179	0	0	0	0	1204	1204	1213	1189	1154	1152	1151	1145	1158	1158	1180	1186	1191	1201	1217	1221	1213	1217	1217	1218	1228	0	0	0	0	1215	1192	1181	1198	1198	1218	0	0	0	0	0	0	1222	1216	1224	1233	1243	1233	1223	1218	1220	1220	1233	1239	1235	1231	1232	1239	1258	0	0	1264	1255	1245	1237	1229	0	0	1258	1249	0	0	0	0	0	0	0	0	0	0	0	0	0	0	0	0	0	0	1195	0	0	0	0	0	1206	1201	0	0	0	0	0	0	0	0	1235	1252	1252	1232	1222	1224	1219	1211	1209	1210	1212	1225	1240	1253	1232	1214	1202	1202	1199	1190	1190	1198	1181	1170	1167	1169	1169	1171	1176	1196	1224	1238	1236	1221	1214	1207	1209	1227	1252	1255	1250	1238	1232	1226	1220	1227	1237	1233	1210	1202	1212	1217	1201	1190	1184	1172	1186	1198	1205	1207	1175	1170	1177	1183	1196	1201	1218	1213	1193	1181	1177	1185	1206	1212	1205	1199	1189	1186	1189	1216	1227	1232	1229	1191	1184	1193	1199	1192	1188	1175	1167	1168	1156	1157	1166	1175	1186	1191	1196	1219	1219	1197	1190	1189	1178	1149	1128	1124	1133	1156	1183	1197	1204	1193	1157	1158	1138	1129	1183	1191	1196	1200	1256	1247	1225	1208	1189	1184	1191	1209	1218	1220	1229	1234	1237	1239	1213	1202	1200	1195	1210	1227	1235	1229	1207	1194	1202	1221	1240	1244	1234	1231	1220	1202	1180	1174	1164	1155	1145	1155	1172	1187	1200	1200	1195	1207	1204	1201	1196	1186	1177	1172	1171	1162	1147	1142	1158	1172	1182	1188	1193	1193	1174	1171	1180	1188	1196	1195	1197	1193	1183	1178	1185	1186	1177	1171	1172	1173	1172	1166	1162	1154	1148	1152	1159	1168	1159	1147	1145	1139	1139	1138	1146	1146	1147	1154	1156	1155	1158	1160	1165	1168	1160	1150	1147	1144	1135	1128	1130	1146	1146	1144	1146	1165	1184	1183	1167	1149	1153	1161	1167	1170	1168	1165	1158	1158	1150	1149	1154	1151	1148	1143	1144	1151	1173	1182	1184	1186	1193	1201	1188	1180	1178	1180	1176	1175	1168	1175	1191	1197	1208	1208	1214	1207	1188	1174	1161	1142	1183	1184	1185	1182	1178	1176	1167	1144	1129	1140	1164	1189	1205	1192	1192	1184	1180	1176	1194	1188	1183	1183	1179	1178	1174	1170	1173	1177	1174	1153	1161	1160	1158	1165	1158	1151	1166	1122	1128	1116	1110	1116	1113	1120	1132	1144	1142	1139	1120	1103	1097	1105	1161	1138	1142	1150	1152	1143	1130	1119	1116	1126	1131	1128	1134	1134	1139	1141	1163	1170	1135	1125	1119	1119	1123	1130	1136	1136	1139	1152	1166	1161	1146	1138	1127	1131	1135	1144	1136	1127	1125	1134	1139	1137	1124	1122	1122	1131	1132	1142	1144	1150	1152	1154	1171	1194	1192	1173	1155	1148	1149	1149	1142	1118	1142	1176	1164	1156	1159	1164	1161	1150	1149	1150	1144	1125	1116	1118	1114	1107	1093	1089	1098	1105	1104	1092	1089	1095	1114	1129	1131	1125	1120	1116	1117	1126	1141	1167	1183	1185	1155	1137	1144	1148	1149	1135	1124	1097	1087	1085	1102	1130	1135	1130	1120	1106	1102	1101	1107	1111	1111	1103	1100	1106	1115	1123	1121	1116	1115	1118	1118	1118	1113	1111	1117	1108	1108	1072	1077	1074	1059	1070	1082	1087	1094	1098	1108	1119	1119	1112	1106	1104	1096	1093	1114	1111	1103	1092	1076	1079	1084	1098	1106	1106	1115	1119	1114	1096	1084	1096	1107	1118	1121	1125	1111	1103	1096	1096	1085	0	0	0	0	0	0	0	0	0
0	0	0	0	0	0	0	0	0	0	0	0	0	0	0	0	0	1134	1145	1145	1170	0	0	1190	1180	1181	1181	1175	1159	1140	1137	1133	1139	1152	1152	1166	1174	1175	1181	1199	1201	1185	1176	1176	1175	1192	1204	1207	1206	1193	1176	1150	1152	1175	1175	1207	1224	1233	1232	1237	1234	1215	1198	1191	1202	1222	1229	1221	1202	1196	1202	1202	1213	1230	1245	1241	1236	1238	1248	1257	1263	1251	1218	1219	1216	1226	1238	1241	1238	1240	1238	0	0	0	0	0	1161	1165	1185	1200	1213	1216	1214	1198	1195	1200	1198	1183	1175	1181	1191	1200	1211	1196	1179	1179	1199	1220	0	0	0	1214	1203	1196	1226	1247	1251	1235	1216	1198	1186	1182	1187	1188	1195	1207	1212	1215	1201	1188	1183	1186	1179	1172	1173	1184	1170	1158	1146	1141	1146	1148	1158	1177	1196	1201	1198	1189	1177	1152	1151	1185	1218	1236	1236	1219	1204	1183	1174	1178	1188	1183	1178	1180	1193	1194	1183	1141	1147	1153	1160	1172	1181	1166	1156	1143	1143	1156	1168	1176	1182	1189	1172	1154	1144	1129	1140	1137	1160	1166	1164	1161	1164	1169	1168	1171	1176	1153	1127	1128	1125	1128	1129	1126	1121	1103	1096	1103	1122	1131	1141	1158	1156	1154	1152	1154	1164	1155	1127	1105	1090	1088	1098	1113	1140	1152	1136	1123	1102	1093	1098	1108	1113	1125	1159	1159	1171	1182	1181	1175	1166	1160	1171	1183	1197	1199	1183	1178	1182	1181	1169	1150	1147	1141	1151	1171	1184	1181	1173	1169	1177	1192	1210	1207	1198	1171	1156	1147	1145	1132	1124	1116	1108	1118	1132	1137	1141	1130	1118	1123	1150	1155	1151	1135	1132	1127	1124	1111	1098	1094	1105	1123	1140	1134	1143	1126	1127	1138	1135	1139	1150	1148	1137	1122	1110	1114	1123	1133	1128	1134	1139	1134	1128	1125	1115	1095	1095	1099	1115	1120	1111	1098	1093	1094	1089	1067	1063	1074	1089	1110	1122	1125	1130	1132	1120	1111	1106	1109	1125	1122	1113	1103	1093	1098	1108	1109	1113	1105	1093	1093	1085	1100	1099	1093	1106	1121	1118	1115	1123	1129	1126	1125	1126	1121	1133	1136	1118	1099	1099	1108	1115	1117	1132	1135	1134	1129	1135	1147	1158	1157	1141	1143	1146	1144	1143	1142	1113	1089	1073	1084	1087	1085	1123	1151	1153	1155	1151	1148	1133	1120	1115	1126	1136	1148	1156	1146	1148	1148	1138	1133	1124	1125	1121	1124	1139	1140	1125	1124	1132	1124	1114	1112	1115	1123	1133	1128	1125	1084	1079	1077	1077	1083	1086	1085	1082	1085	1094	1097	1094	1080	1070	1074	1073	1082	1083	1092	1090	1103	1115	1114	1103	1089	1079	1067	1064	1062	1070	1078	1094	1107	1118	1118	1102	1091	1078	1079	1090	1101	1107	1107	1111	1122	1131	1122	1111	1097	1094	1102	1101	1107	1107	1103	1104	1104	1115	1115	1110	1110	1110	1103	1102	1103	1115	1124	1128	1125	1121	1117	1125	1122	1109	1118	1133	1131	1120	1088	1085	1098	1102	1114	1126	1138	1136	1130	1117	1101	1094	1076	1076	1079	1079	1072	1061	1062	1066	1075	1076	1066	1058	1070	1088	1097	1109	1106	1098	1095	1071	1079	1105	1121	1129	1114	1101	1096	1123	1133	1128	1111	1089	1079	1070	1067	1080	1098	1108	1104	1094	1089	1084	1074	1060	1053	1056	1049	1058	1061	1082	1085	1078	1070	1074	1078	1078	1071	1071	1076	1070	1056	1041	1029	1028	1020	1015	1030	1050	1067	1075	1080	1091	1114	1120	1112	1090	1074	1074	1073	1072	1066	1064	1058	1043	1043	1044	1054	1068	1068	1074	1092	1087	1076	1064	1061	1062	1061	1086	1087	1086	1083	1078	1074	1063	0	0	0	0	0	0	0	0	0
0	0	0	0	0	0	0	0	0	0	0	0	0	0	0	0	0	1135	1142	1142	0	0	0	1169	1167	1164	1164	1155	1133	1122	1127	1131	1138	1152	1152	1160	1160	1153	1163	1173	1166	1146	1140	1140	1147	1158	1182	1181	1176	1169	1155	1140	1137	1144	1144	1166	1190	1211	1219	1221	1208	1188	1179	1174	1185	1203	1207	1207	1180	1173	1182	1182	1199	1227	1203	1186	1172	1178	1192	1208	1200	1158	1153	1158	1174	1177	1170	1170	1183	1196	1192	1188	1177	1178	1164	1140	1131	1135	1136	1139	1149	1145	1134	1134	1139	1166	1168	1160	1152	1169	1167	1167	1169	1149	1141	1151	1168	1193	1233	1250	1210	1183	1180	1176	1193	1218	1228	1212	1189	1168	1149	1138	1154	1156	1157	1157	1173	1178	1168	1162	1160	1157	1150	1150	1154	1180	1165	1145	1131	1117	1124	1130	1141	1155	1162	1158	1151	1135	1114	1104	1103	1110	1175	1201	1211	1194	1175	1130	1118	1129	1138	1135	1138	1150	1160	1164	1144	1098	1106	1126	1134	1141	1144	1138	1135	1124	1116	1127	1135	1143	1150	1146	1090	1074	1077	1076	1077	1083	1104	1128	1135	1137	1121	1118	1117	1103	1099	1087	1086	1093	1101	1102	1093	1085	1063	1051	1060	1064	1069	1072	1078	1090	1090	1094	1092	1115	1113	1096	1075	1071	1062	1054	1050	1051	1061	1057	1054	1061	1062	1071	1073	1072	1081	1093	1088	1089	1101	1098	1116	1132	1139	1142	1149	1159	1160	1132	1111	1101	1103	1107	1110	1109	1101	1109	1113	1122	1139	1135	1137	1138	1149	1113	1101	1104	1112	1110	1109	1119	1113	1095	1075	1071	1074	1080	1073	1072	1076	1084	1075	1078	1092	1105	1109	1100	1095	1092	1092	1082	1070	1066	1067	1080	1090	1081	1088	1082	1078	1071	1052	1047	1053	1067	1062	1062	1060	1062	1066	1079	1099	1088	1074	1063	1064	1061	1062	1065	1069	1071	1068	1042	1034	1043	1048	1052	1033	1008	1019	1022	1035	1058	1078	1072	1054	1042	1039	1037	1040	1045	1076	1103	1092	1072	1059	1061	1059	1069	1051	1039	1035	1035	1047	1049	1054	1050	1052	1052	1063	1063	1076	1078	1067	1060	1065	1067	1073	1087	1077	1062	1053	1065	1086	1082	1092	1097	1098	1094	1083	1089	1091	1109	1114	1112	1111	1103	1100	1088	1074	1063	1052	1054	1062	1066	1059	1074	1112	1119	1113	1105	1096	1091	1082	1070	1067	1081	1095	1096	1105	1115	1102	1102	1088	1080	1077	1079	1083	1084	1075	1084	1094	1099	1093	1082	1090	1092	1066	1072	1063	1050	1047	1050	1054	1060	1061	1060	1061	1061	1069	1076	1074	1060	1054	1052	1059	1058	1048	1048	1058	1068	1078	1080	1072	1061	1045	1036	1034	1034	1040	1049	1068	1083	1089	1089	1070	1055	1047	1046	1055	1072	1082	1079	1081	1091	1095	1081	1072	1059	1058	1063	1056	1068	1077	1084	1080	1079	1088	1093	1093	1091	1090	1081	1076	1063	1067	1077	1081	1079	1072	1068	1072	1075	1079	1084	1097	1106	1099	1056	1057	1061	1067	1073	1086	1105	1117	1100	1083	1066	1050	1036	1042	1054	1051	1048	1040	1039	1047	1052	1051	1045	1036	1034	1047	1067	1085	1081	1081	1073	1045	1054	1065	1079	1086	1076	1069	1062	1064	1090	1097	1062	1047	1033	1029	1030	1034	1026	1010	1005	1016	1071	1071	1053	1032	1019	1019	1022	1035	1040	1044	1043	1041	1048	1058	1058	1052	1045	1037	1023	1003	997	1000	1000	987	981	979	988	1005	1034	1041	1046	1065	1091	1090	1076	1058	1050	1050	1053	1056	1052	1049	1040	1032	1034	1029	1029	1033	1033	1043	1060	1072	1065	1056	1049	1044	1045	1041	1041	1033	1031	1020	1015	1029	0	0	0	0	0	0	0	0	0
0	0	0	0	0	0	0	0	0	0	0	0	0	0	0	0	0	1138	1149	1149	0	0	1159	1150	1149	1148	1148	1134	1120	1118	1120	1130	1145	1151	1151	1155	1148	1150	1152	1157	1148	1126	1111	1111	1115	1137	1146	1157	1159	1151	1149	1128	1121	1124	1124	1137	1160	1179	1186	1190	1176	1171	1165	1122	1126	1130	1148	1151	1140	1128	1132	1132	1141	1155	1145	1132	1136	1147	1145	1146	1139	1130	1127	1140	1155	1147	1126	1117	1114	1106	1109	1138	1149	1141	1126	1112	1113	1116	1113	1110	1108	1102	1098	1093	1095	1102	1113	1101	1102	1102	1093	1083	1075	1080	1086	1095	1104	1111	1080	1050	1049	1090	1083	1132	1157	1168	1177	1176	1158	1133	1117	1094	1087	1091	1102	1112	1129	1134	1139	1130	1122	1122	1115	1117	1115	1131	1119	1091	1081	1086	1084	1099	1108	1101	1072	1054	1048	1062	1067	1075	1082	1078	1092	1158	1163	1129	1067	1056	1053	1050	1047	1046	1049	1096	1103	1101	1061	1053	1070	1081	1102	1106	1086	1101	1093	1093	1077	1067	1067	1052	1059	1066	1039	1028	1033	1029	1032	1038	1050	1085	1085	1074	1059	1061	1058	1048	1037	1015	1010	1028	1045	1057	1064	1046	1032	1033	1035	1035	1038	1049	1048	1042	1031	1019	1050	1065	1048	1034	1038	1022	1004	1006	1010	1017	1019	1024	1022	1025	1027	1036	1033	1025	1020	1022	1027	1032	1033	1027	1080	1089	1104	1105	1075	1057	1049	1050	1048	1058	1056	1056	1054	1058	1068	1079	1085	1088	1095	1090	1081	1080	1054	1044	1046	1059	1053	1056	1056	1067	1082	1044	1043	1046	1048	1046	1043	1046	1048	1042	1041	1041	1055	1075	1081	1076	1063	1058	1048	1045	1043	1031	1023	1022	1023	1034	1043	1042	1024	1010	1002	998	1006	1018	1023	1014	1010	1009	1018	1042	1044	1029	1010	1020	1022	1026	1029	1031	1029	1021	1011	1005	998	1003	1001	996	989	984	988	995	997	1006	1024	1028	1024	1020	1014	1011	1014	1019	1021	1026	1026	1029	1019	1008	991	976	986	990	988	994	1011	1012	1010	1000	1004	1009	1017	1017	1034	1009	1018	1021	1023	1024	1019	1030	1023	1012	1013	1023	1043	1050	1040	1039	1036	1032	1010	992	991	1019	1045	1063	1069	1068	1063	1054	1048	1031	1026	1032	1046	1050	1044	1042	1046	1052	1068	1070	1060	1044	1025	1020	1030	1049	1061	1070	1081	1076	1074	1066	1058	1053	1048	1048	1053	1052	1049	1059	1077	1077	1069	1061	1032	1033	1033	1024	1013	1021	1024	1024	1020	1022	1035	1038	1043	1044	1045	1058	1058	1041	1036	1037	1041	1041	1028	1020	1028	1029	1034	1031	1031	1022	1013	1004	1008	1017	1028	1037	1050	1058	1070	1066	1044	1031	1021	1021	1026	1027	1027	1037	1041	1047	1023	1023	1022	1017	1023	1025	1027	1035	1052	1058	1056	1049	1046	1063	1066	1069	1063	1066	1056	1039	1037	1038	1030	1028	1033	1040	1034	1033	1036	1049	1063	1079	1060	1022	1021	1036	1034	1035	1027	1042	1062	1072	1068	1055	1037	1025	1020	1044	1043	1038	1027	1024	1027	1028	1025	1019	1004	1001	1007	1011	1032	1046	1054	1038	1027	1026	1002	1014	1023	1024	1020	1012	1007	1014	1029	1030	1011	1001	999	998	984	972	971	967	984	1023	1012	1000	990	989	997	1001	1013	1017	1018	1014	1012	1015	1030	1036	1026	1008	998	989	979	979	981	984	973	967	968	974	982	977	996	1010	1018	1028	1038	1039	1031	1027	1020	1008	1017	1030	1021	1017	1020	1018	1015	997	996	996	1013	1025	1034	1035	1035	1019	1012	1017	1017	1020	1020	1006	982	976	997	0	0	0	0	0	0	0	0	0
0	0	0	0	0	0	0	0	0	0	0	0	0	0	0	0	1103	1119	1131	1131	1138	1127	1119	1107	1115	1124	1124	1114	1109	1101	1109	1123	1134	1137	1137	1131	1131	1134	1141	1145	1139	1119	1106	1106	1105	1109	1114	1121	1119	1124	1121	1110	1101	1098	1098	1103	1081	1088	1085	1087	1078	1072	1064	1063	1059	1063	1065	1085	1090	1090	1101	1101	1110	1100	1103	1107	1122	1123	1103	1086	1070	1084	1096	1115	1125	1112	1061	1027	1018	1013	1006	1025	1035	1040	1053	1073	1074	1085	1082	1088	1083	1056	1046	1055	1067	1069	1065	1047	1037	1036	1029	1024	1025	1033	1037	1046	1051	1045	1022	1018	1004	1015	1036	1028	1007	1002	1012	1000	993	988	992	996	997	1018	1021	1028	1067	1089	1099	1098	1085	1053	1008	1004	1011	1024	1033	1040	1040	1029	1029	1008	1014	1022	1012	1010	1015	1029	1037	1052	1060	1054	1038	1030	1029	1004	988	998	1003	1005	998	986	983	991	1004	1015	1015	1017	1005	1006	1017	1026	1016	1017	1034	1017	1006	1001	1006	1017	1022	1023	1013	1003	995	984	980	983	992	1003	1019	1018	1019	1019	1016	1009	994	979	973	981	984	986	993	996	1006	1008	1009	1007	1008	1011	1012	1003	990	976	976	1014	983	980	990	984	984	988	990	993	994	994	996	1001	999	1002	997	986	978	980	974	975	998	991	993	983	1017	1007	1006	1001	1003	1007	1018	1019	1013	1009	1008	1019	1029	1040	1049	1048	1044	1031	1026	1013	1004	1002	1005	1010	1011	1001	996	1013	1022	1015	1019	1033	1035	1030	1026	1026	1022	1017	1017	1022	1032	1043	1041	1032	1026	1012	1003	996	996	996	994	995	992	993	989	991	992	988	978	974	985	990	990	981	977	981	989	997	990	983	980	972	977	988	990	986	969	968	968	969	968	978	979	971	966	963	961	960	965	966	977	989	990	993	987	984	983	985	979	982	987	990	980	966	959	955	958	967	975	971	968	968	960	963	968	971	975	974	948	952	974	986	985	978	979	977	975	981	979	986	996	991	984	986	986	985	981	974	961	967	997	1018	1025	1025	1023	1021	1015	1001	995	982	984	1035	1028	1014	1000	1017	1018	992	989	991	980	984	992	1007	1028	1043	1054	1057	1045	1038	1027	1016	1016	1025	1028	1022	1023	1027	1033	1004	990	994	1004	1001	981	940	938	952	962	967	963	965	965	975	999	1013	1012	990	986	1001	1006	1023	1025	1013	1005	988	994	1002	1010	997	981	978	981	982	993	1007	1020	1025	1035	1029	1023	1018	1015	1007	1001	1000	996	987	979	971	963	958	970	987	993	995	995	985	989	999	1022	1027	1004	1001	1003	1001	1003	997	1008	1016	1018	1005	1002	999	997	1005	1009	1010	998	990	1002	1015	1024	1019	1014	999	996	994	1003	1006	1009	1018	1032	1040	1045	1038	1027	1021	1017	1043	1036	1028	1015	1006	1000	998	994	986	969	968	950	961	977	977	951	955	955	960	970	980	988	970	963	963	962	966	971	969	968	962	955	947	938	937	940	944	961	986	983	976	964	966	974	980	985	991	984	978	974	968	968	970	973	980	985	980	968	964	968	973	966	961	970	966	960	964	968	983	996	1009	1013	1009	1014	1003	990	974	964	976	971	970	980	994	984	977	975	975	971	971	978	983	989	982	960	956	966	980	989	982	962	953	964	0	0	0	0	0	0	0	0	0
0	0	0	0	0	0	0	0	0	1071	1066	1059	1046	1046	1043	1061	1076	1082	1098	1098	1074	1071	1071	1076	1078	1089	1089	1094	1088	1079	1081	1102	1112	1104	1104	1094	1092	1094	1116	1115	1108	1097	1093	1093	1093	1096	1089	1081	1064	1061	1062	1042	1054	1065	1065	1054	1050	1050	1043	1051	1049	1044	1038	1030	1028	1034	1019	1018	1019	1020	1021	1021	1034	1050	1050	1065	1082	1072	1042	1017	1003	997	998	1007	1007	1001	997	990	986	978	969	969	975	990	996	1011	1018	1029	1049	1054	1026	1001	997	1004	1023	1031	1021	1001	993	995	991	992	997	1004	1008	987	976	996	979	975	974	967	962	958	968	970	965	951	947	950	955	958	967	968	972	970	970	952	940	925	920	947	962	971	975	988	990	992	992	995	986	973	974	979	972	978	986	990	997	1013	1018	1019	1004	979	956	949	945	951	960	967	966	963	958	957	967	981	968	976	980	975	977	982	972	983	983	986	982	980	985	987	987	979	989	986	981	969	965	962	971	972	971	990	990	986	975	967	955	949	967	972	975	974	972	974	977	978	977	977	976	970	961	965	947	941	938	957	956	957	963	972	980	983	977	976	975	978	976	975	978	971	961	951	955	962	961	958	954	966	966	959	956	956	982	986	986	975	974	990	990	984	977	982	992	990	992	1000	1006	1009	1008	999	985	977	972	976	979	975	969	962	973	983	1004	1010	1006	1003	999	992	986	986	984	983	989	992	987	989	976	972	972	972	972	969	961	967	961	955	951	954	966	968	962	957	963	968	967	959	953	951	955	953	946	944	939	933	941	953	954	941	936	937	949	953	953	955	951	951	946	942	938	925	923	929	940	949	954	961	965	952	936	934	935	940	944	944	943	940	935	929	927	935	941	937	932	927	921	921	929	925	920	916	908	916	924	937	944	954	951	950	949	950	954	965	961	963	959	962	963	963	958	953	943	944	967	986	989	992	993	989	979	953	948	946	950	964	965	965	964	955	944	935	929	938	933	938	944	953	961	970	979	995	1002	1014	1003	984	973	988	999	992	984	982	921	931	942	948	953	935	926	919	919	925	937	942	944	941	941	943	938	933	923	917	921	939	954	955	956	957	964	961	961	964	974	956	957	949	949	954	962	981	999	997	988	969	965	959	960	976	990	980	958	943	942	944	935	936	949	965	972	972	961	959	965	972	967	953	950	959	971	976	977	964	961	954	951	970	982	986	982	971	965	961	964	961	957	955	959	962	967	986	981	978	972	969	994	998	990	984	982	980	1006	1008	998	1007	1012	1005	996	976	927	923	923	923	921	921	922	929	931	915	919	932	931	928	930	935	933	923	928	936	938	939	932	931	927	933	929	927	924	921	925	929	936	935	944	939	940	941	948	946	948	942	944	938	937	938	947	954	965	974	976	960	949	946	952	953	951	952	953	955	953	953	959	962	969	976	976	975	978	977	968	952	941	937	935	936	947	962	967	959	946	946	931	930	934	943	952	949	930	925	924	918	918	938	940	943	944	0	0	0	0	0	0	0	0	0
0	0	0	0	988	982	984	984	981	1002	1015	1020	1009	1009	1000	1015	1023	1035	1028	1028	1033	1039	1035	1031	1042	1057	1057	1051	1041	1032	1034	1065	1071	1066	1066	1051	1038	1021	1057	1064	1055	1052	1052	1052	1058	1070	1063	995	1001	1001	995	995	997	994	994	994	1000	1023	1016	1018	1016	1005	995	986	989	991	984	984	982	982	980	980	978	974	968	989	1016	1012	999	976	969	972	970	968	968	967	971	977	976	967	956	946	951	956	962	967	969	977	979	981	972	966	962	957	963	973	971	962	939	937	947	952	957	946	944	938	934	945	946	944	933	927	921	922	929	931	900	905	918	914	910	904	905	915	926	935	942	936	927	915	906	903	898	902	906	914	912	952	950	942	937	936	940	947	952	952	953	951	955	962	964	960	947	940	939	931	925	924	931	934	939	939	940	937	937	935	941	950	949	946	948	945	939	939	946	951	954	956	956	954	952	950	956	956	950	948	942	942	944	937	940	945	961	956	938	928	922	934	955	959	966	964	961	954	947	941	934	935	941	938	917	910	911	914	921	919	921	929	948	964	968	957	946	931	947	953	950	942	936	918	909	913	922	944	950	947	941	922	925	922	924	918	932	944	971	959	952	957	968	959	943	944	956	959	952	941	953	968	972	964	954	949	947	952	953	954	949	940	939	951	974	984	987	975	958	960	957	962	963	959	945	936	929	926	928	928	931	939	935	937	939	937	937	933	931	934	937	940	940	940	942	942	939	928	923	915	916	914	925	924	920	918	923	933	934	928	917	907	922	931	934	931	930	928	913	912	914	912	911	912	918	917	917	921	937	931	920	907	902	906	908	906	907	908	908	906	899	904	917	925	918	914	907	899	899	893	889	885	891	897	913	922	923	931	930	925	916	914	920	930	927	928	932	931	922	916	947	939	918	908	902	942	945	948	940	937	938	935	928	931	937	943	945	942	938	933	927	919	913	908	905	906	908	922	924	929	932	931	933	951	947	925	921	923	914	901	881	889	893	901	911	920	920	911	904	901	905	914	920	930	933	931	924	919	915	909	906	904	905	912	921	934	935	936	946	948	948	943	940	932	929	923	917	917	921	930	935	940	938	941	940	930	930	925	917	911	910	919	919	922	918	919	935	945	960	954	930	937	941	938	912	913	916	926	938	947	944	926	909	914	925	942	951	960	961	951	945	939	942	945	947	944	943	938	960	965	961	951	938	934	935	940	948	943	930	922	922	941	898	914	921	922	913	908	904	897	891	892	887	891	896	897	891	891	898	911	902	885	882	885	889	898	899	905	910	915	915	913	912	915	921	918	913	912	921	923	922	900	904	910	916	919	922	914	907	905	913	918	917	910	915	939	955	965	959	949	935	925	924	937	940	941	929	913	910	921	931	936	941	939	946	952	958	961	950	918	912	926	921	925	934	937	941	935	920	920	923	924	922	920	920	918	921	918	913	910	908	912	922	925	922	0	0	0	0	0	0	0	0	0
968	973	973	968	960	950	942	942	945	957	964	969	966	966	958	960	966	968	963	963	978	979	990	1001	1007	1015	1015	998	990	985	979	983	1014	1010	1010	999	987	986	988	998	994	990	977	925	935	945	950	944	938	939	937	937	940	947	944	944	946	968	977	968	953	945	936	934	934	941	941	939	952	951	955	955	952	952	951	939	934	950	909	910	924	936	943	952	949	950	953	958	955	946	936	922	911	918	918	923	915	921	927	929	944	944	937	921	906	904	898	897	904	907	915	922	911	910	907	905	901	903	906	898	888	883	882	886	900	885	879	880	892	896	883	870	870	883	890	899	898	900	912	898	888	874	851	851	859	868	879	874	877	884	889	885	889	917	917	913	905	901	908	924	928	913	910	918	920	913	905	907	910	917	925	931	927	922	918	920	924	927	926	925	927	923	919	913	914	921	929	932	929	923	910	909	917	925	925	924	910	907	907	910	917	926	926	924	912	903	906	913	921	933	944	953	948	934	915	905	896	893	893	886	878	880	887	895	896	894	900	901	906	916	919	917	903	891	891	898	898	881	867	857	853	858	869	899	930	928	899	881	875	874	876	891	894	902	902	896	925	924	923	933	929	933	947	950	941	922	911	900	900	911	921	925	923	923	925	926	927	923	920	931	937	949	948	929	928	929	926	931	933	925	922	917	914	912	914	915	906	903	910	911	913	917	916	915	917	917	921	919	912	911	908	910	911	900	880	877	882	890	899	903	897	899	907	912	913	905	897	892	888	898	910	910	911	904	900	902	905	902	899	899	899	889	889	890	904	895	892	891	887	885	889	892	891	889	884	884	883	895	900	899	899	904	895	891	889	885	877	873	877	887	901	910	899	899	901	899	894	889	890	885	888	905	906	906	902	888	887	880	874	870	864	883	886	862	865	897	904	914	921	914	919	921	922	923	919	917	914	909	905	898	899	898	897	901	897	897	892	898	903	900	894	891	901	895	867	857	862	866	872	879	888	895	886	881	881	883	887	894	901	907	905	899	891	889	890	888	885	891	895	898	903	915	918	923	931	933	931	922	894	884	888	895	895	896	896	902	899	905	913	913	911	911	902	893	882	877	879	891	896	894	897	897	910	930	927	920	907	906	904	895	880	888	888	898	907	902	898	890	887	895	903	900	906	927	928	923	916	912	921	924	927	932	922	919	932	933	933	926	915	908	908	912	911	881	883	881	877	865	865	879	885	887	887	883	883	873	870	860	858	864	874	879	859	854	852	878	870	863	865	869	874	880	885	882	886	890	896	902	908	912	911	904	901	898	901	906	903	885	885	889	896	901	896	890	889	894	900	907	900	886	879	885	918	929	934	923	915	903	901	914	924	916	907	901	890	887	892	895	898	900	909	913	924	928	905	871	873	882	917	914	914	915	913	910	905	905	910	915	912	904	904	912	914	909	902	899	896	900	906	908	904	0	0	0	0	0	0	0	0	0
929	936	936	935	903	898	895	895	893	900	905	918	922	922	919	918	920	925	936	936	943	948	946	948	960	969	969	945	934	933	933	935	938	942	942	931	943	950	948	943	910	890	880	880	884	890	895	901	910	913	917	923	920	907	902	902	901	904	911	914	909	910	912	904	898	892	897	892	897	907	913	913	916	918	914	905	891	868	872	879	886	890	889	891	906	914	912	896	892	890	884	879	877	877	871	883	889	896	905	911	915	915	910	896	881	876	872	871	880	889	893	884	889	889	893	891	883	878	884	878	857	850	856	866	865	863	865	864	861	863	854	846	846	858	869	879	877	876	871	875	856	841	833	838	842	852	865	862	851	847	847	854	858	863	867	872	868	867	876	878	883	887	885	892	895	873	876	887	898	905	910	916	913	909	903	904	902	904	914	917	915	907	899	896	894	891	894	894	892	886	885	885	879	887	897	894	885	884	884	888	899	905	908	905	895	889	880	887	898	894	893	899	897	876	872	872	873	873	873	869	868	873	878	880	878	869	879	885	892	894	900	893	884	875	870	867	874	866	858	849	843	840	842	852	855	862	867	866	864	861	860	859	864	867	855	840	867	890	908	905	913	921	930	932	921	899	880	868	877	887	900	904	904	902	900	901	902	908	910	911	905	910	902	888	895	898	895	897	897	902	905	902	900	903	906	902	890	867	851	861	870	879	876	881	889	888	876	860	854	847	848	851	863	870	867	864	866	870	879	874	873	873	878	877	882	878	870	864	865	864	865	866	868	874	881	883	881	875	870	867	875	866	869	861	859	857	873	872	861	858	860	870	872	872	869	870	873	875	872	875	872	873	875	872	870	866	863	863	864	864	854	845	833	836	847	857	868	869	861	848	843	853	863	875	878	869	867	853	850	846	847	846	845	844	848	853	854	864	873	878	887	899	902	893	887	887	893	896	893	888	887	884	879	876	870	861	862	867	869	866	865	875	859	854	844	837	834	840	844	854	864	857	853	850	849	835	838	848	855	860	873	872	861	853	848	854	870	876	880	880	880	883	892	893	889	884	879	869	856	851	852	858	870	878	879	882	884	889	894	895	887	890	883	869	857	856	856	857	862	867	872	875	877	872	869	873	879	875	880	868	867	865	878	878	886	873	867	864	870	876	882	878	880	887	900	900	885	885	902	914	916	914	897	881	899	909	908	897	862	862	859	863	863	860	858	852	850	839	844	855	856	862	861	856	847	843	836	834	836	840	849	854	842	847	849	858	859	854	856	858	863	863	862	867	867	866	874	885	897	891	886	874	870	874	878	882	871	858	853	854	858	865	864	856	860	876	885	892	888	876	864	865	877	887	890	890	881	876	866	868	878	889	892	890	880	871	869	864	868	882	888	888	888	884	862	857	857	866	880	893	895	895	896	889	889	888	879	887	888	889	893	901	905	899	893	887	885	887	884	886	883	0	0	0	0	0	0	0	0	0
901	894	894	880	868	854	860	860	867	879	885	888	885	885	868	868	887	900	914	922	922	925	922	914	910	902	902	882	888	894	899	898	895	890	890	895	904	911	874	854	860	853	854	854	862	860	862	861	861	864	875	884	888	885	880	880	875	873	886	883	873	866	856	844	849	861	859	852	847	849	851	851	859	864	860	856	848	849	857	863	868	873	867	855	855	852	859	856	859	857	866	863	864	860	857	855	859	863	866	874	878	877	873	872	858	851	847	847	848	850	847	847	850	860	872	881	873	865	859	850	836	831	836	842	843	843	844	847	847	846	842	837	834	841	853	858	859	856	855	843	828	818	817	820	833	845	859	850	845	834	835	840	845	852	856	859	853	854	852	848	844	845	843	868	863	867	871	875	876	878	879	880	882	882	877	880	878	875	888	898	899	893	880	870	873	873	876	875	871	866	860	858	851	861	873	866	871	875	873	872	872	871	871	863	863	853	856	860	873	874	865	863	862	850	843	845	846	846	856	855	860	863	861	859	853	834	853	862	862	858	855	852	857	859	855	851	849	854	849	843	835	830	831	834	840	844	854	853	851	840	835	833	839	843	833	826	823	843	852	857	882	878	879	876	877	869	857	846	858	869	881	888	883	876	856	844	845	854	866	872	863	841	853	869	868	866	869	869	863	867	861	860	860	861	865	865	856	841	829	823	827	837	843	847	851	843	839	833	825	819	819	823	835	848	853	851	851	851	861	855	856	860	860	853	844	846	839	839	841	839	842	843	850	859	866	866	856	851	849	846	845	845	841	836	837	833	853	853	842	836	839	840	842	843	847	852	860	869	863	860	851	847	840	837	841	845	852	855	856	850	836	828	824	825	830	834	838	842	838	832	828	829	838	850	858	861	853	841	834	830	827	825	826	831	830	830	832	827	827	823	827	839	847	854	852	855	860	858	861	855	867	862	855	843	833	821	820	836	835	826	804	819	821	810	806	806	804	806	809	810	814	819	828	833	821	825	828	829	821	814	814	820	822	829	825	821	819	836	847	848	845	833	829	827	834	836	836	833	833	833	832	828	828	837	843	850	853	861	868	860	833	866	867	853	844	838	834	833	831	837	842	845	845	848	851	839	843	858	853	847	851	851	847	849	849	841	842	847	855	865	867	863	859	859	867	872	860	862	872	894	906	882	865	859	845	842	840	837	838	843	850	849	848	840	837	829	826	817	825	838	837	844	850	847	835	828	823	822	825	827	831	830	840	842	843	850	844	845	839	843	845	836	838	843	843	849	846	849	851	851	853	848	846	852	855	859	844	837	837	836	840	836	836	834	838	857	871	881	880	866	854	849	858	867	870	865	855	847	842	844	851	863	872	869	864	851	844	842	849	859	872	881	871	866	861	858	859	862	864	870	876	882	877	866	866	857	859	862	868	872	879	890	894	890	880	874	873	869	863	860	858	0	0	0	0	0	0	0	0	0
863	867	867	854	836	834	839	842	842	853	856	862	849	849	841	840	852	863	873	881	881	889	887	875	863	848	856	856	868	870	871	869	866	861	861	861	825	811	798	803	812	816	820	820	833	837	837	835	822	812	817	843	855	865	861	861	845	829	824	827	822	817	822	830	840	851	841	832	831	831	834	834	839	843	843	830	831	829	838	844	849	849	842	834	824	821	826	837	835	835	847	849	849	839	837	831	829	830	833	838	841	839	828	824	832	826	827	817	817	818	818	816	813	809	812	821	826	824	817	813	812	816	819	823	822	823	825	831	834	833	835	828	826	826	829	830	837	837	833	823	810	805	806	811	820	827	841	840	836	831	836	836	831	827	837	839	840	838	830	824	829	828	821	816	834	838	837	834	857	854	852	855	859	859	853	855	851	850	860	867	871	876	861	846	846	850	858	856	853	847	840	838	818	825	845	855	858	858	860	861	855	849	850	839	842	838	831	833	850	841	835	835	830	829	828	829	826	823	827	840	844	840	835	829	818	821	835	842	844	839	830	822	828	833	833	829	828	833	839	835	829	825	822	823	825	826	834	836	827	824	810	809	817	822	813	810	810	819	825	833	823	817	844	834	839	837	833	829	822	821	822	827	827	818	820	826	828	838	840	839	831	823	826	841	846	835	833	835	827	828	834	835	827	830	834	823	820	817	811	807	814	815	817	818	814	811	807	805	803	801	801	808	816	830	840	839	830	824	819	822	827	836	833	827	825	822	822	818	815	812	811	819	833	839	842	842	834	834	834	827	818	811	809	808	807	817	831	834	827	818	815	822	828	834	842	843	848	856	857	853	842	833	806	802	812	827	832	833	833	830	823	821	819	818	821	818	818	819	819	818	813	816	817	827	838	837	824	811	806	810	806	804	812	818	819	814	814	809	815	809	808	820	823	825	835	836	838	840	838	835	823	808	804	805	807	807	804	798	793	773	779	787	789	792	795	791	792	789	789	787	791	796	810	813	814	815	813	808	803	800	800	799	804	812	808	804	800	808	816	824	828	818	812	804	813	816	820	819	812	810	812	801	808	821	830	832	833	824	818	817	815	818	840	840	821	817	816	820	822	827	825	823	816	812	808	804	785	799	821	821	832	839	838	835	831	826	822	822	840	850	828	827	828	836	842	845	843	840	844	857	815	815	810	808	809	815	814	810	803	803	810	820	825	821	807	799	799	805	814	819	824	826	822	821	818	816	816	816	812	810	806	807	822	829	833	833	830	825	819	823	818	817	813	815	821	824	825	822	823	829	828	830	831	837	840	840	821	819	822	826	828	826	822	819	822	838	859	868	871	861	847	838	842	849	848	843	834	827	820	821	830	838	844	846	839	829	823	826	831	831	834	838	847	856	861	860	857	856	849	844	853	855	855	843	843	836	840	841	838	837	840	855	869	873	865	856	849	833	837	833	828	0	0	0	0	0	0	0	0	0
841	842	842	824	816	811	815	816	816	806	808	819	824	824	823	808	818	829	818	820	820	821	824	820	819	813	816	816	826	827	823	821	822	820	797	791	791	788	791	794	797	798	801	807	807	814	817	809	795	790	789	793	801	816	813	813	810	800	793	799	803	802	810	820	823	828	822	804	804	806	813	813	816	822	815	812	816	814	808	806	806	811	811	799	792	799	804	814	810	813	823	824	821	819	817	811	807	810	810	808	810	806	799	793	801	800	794	797	801	801	796	788	784	784	793	807	809	806	802	798	796	798	798	805	804	804	812	819	819	816	819	818	817	808	802	800	800	802	813	803	796	791	792	798	803	810	822	823	809	807	810	819	815	810	801	803	811	814	803	813	820	816	807	793	787	783	794	794	801	805	804	805	835	831	833	837	838	837	843	849	845	837	829	820	817	818	826	828	830	825	819	811	803	808	824	835	834	830	822	832	838	833	833	834	835	830	819	810	816	805	800	808	818	818	814	811	807	807	806	811	816	812	809	803	806	809	817	822	827	823	815	805	801	801	798	804	803	808	818	818	813	808	809	808	804	803	809	813	806	793	787	784	787	789	792	794	798	804	812	799	789	793	789	784	819	819	820	820	814	806	797	788	787	787	803	807	810	814	812	812	807	802	795	794	805	799	796	788	788	805	810	810	811	814	812	798	799	796	796	786	782	778	783	794	800	794	789	775	773	780	790	795	797	807	801	803	800	801	801	800	800	796	793	775	780	782	786	786	784	778	776	779	781	781	795	801	809	814	810	804	795	789	781	779	775	777	784	791	790	789	787	794	813	828	827	825	822	817	813	801	794	783	775	776	781	789	788	791	795	812	812	800	788	777	777	779	785	792	800	807	802	805	803	803	807	798	797	789	778	782	786	786	786	790	802	804	794	789	797	796	799	811	810	812	815	819	826	823	819	808	800	794	791	794	792	791	790	761	756	760	764	772	777	787	791	790	779	775	771	766	772	778	795	803	799	793	776	772	781	781	783	786	781	772	784	783	787	787	786	780	776	787	785	779	786	795	805	796	790	784	782	785	789	805	814	819	816	801	791	790	792	799	803	807	802	801	797	802	805	811	809	808	806	799	791	787	786	778	779	791	808	815	816	820	815	812	807	809	806	806	807	809	812	819	828	833	803	798	790	782	788	798	803	802	787	793	796	792	785	778	782	800	807	804	796	790	791	797	800	793	790	781	781	782	791	799	804	809	807	798	795	793	797	796	795	787	784	789	799	807	802	794	794	792	796	798	802	804	801	795	793	801	815	829	831	823	806	806	809	809	811	816	812	811	806	809	817	819	822	827	832	824	820	826	827	825	821	810	804	809	815	816	824	825	822	813	812	818	816	814	811	813	818	835	841	843	841	832	828	823	814	814	813	816	816	819	823	827	827	822	819	822	836	850	845	822	799	811	812	810	804	0	0	0	0	0	0	0	0	0
795	788	788	783	786	776	774	770	770	778	788	801	810	803	803	792	781	780	788	785	785	788	790	790	795	799	801	801	789	797	805	803	786	782	777	777	775	774	779	783	786	785	784	788	788	792	792	777	777	780	779	781	789	792	789	789	782	779	775	775	778	786	798	807	806	798	779	773	775	775	778	784	784	777	786	790	795	795	790	786	790	789	787	782	775	780	786	787	784	786	789	790	789	790	788	790	788	789	793	790	785	785	783	779	775	772	775	780	783	781	777	772	767	766	780	792	796	792	784	777	775	774	776	781	791	794	795	795	795	792	797	798	792	785	782	776	776	770	779	776	775	773	774	782	787	788	785	776	773	774	770	768	791	787	789	779	766	764	782	805	802	798	791	779	772	767	762	766	777	785	786	784	781	794	807	804	807	801	815	823	819	812	805	795	792	798	804	808	804	799	798	792	789	793	796	798	808	803	800	798	808	817	822	826	820	815	807	796	790	780	788	796	807	810	801	795	788	791	795	802	804	800	792	794	796	798	798	810	813	806	793	787	785	781	774	771	773	784	797	797	793	790	786	785	779	778	790	800	793	782	774	772	770	765	765	769	774	771	772	768	764	763	766	762	758	754	808	810	800	789	785	775	769	763	768	784	788	786	780	776	775	774	777	777	781	778	768	769	767	761	755	755	761	767	769	770	774	772	771	770	767	759	762	766	785	785	765	750	750	754	757	764	774	777	779	770	773	786	787	772	765	759	750	751	754	753	754	765	765	760	760	760	759	764	772	782	784	773	763	752	750	771	766	760	756	751	755	760	764	763	763	759	757	761	772	777	779	778	763	761	760	759	756	757	761	770	777	776	772	764	769	771	766	754	743	752	767	778	786	791	791	780	771	757	753	753	755	756	754	763	770	776	774	773	783	790	783	778	779	781	782	788	796	796	792	784	775	771	765	755	757	770	774	775	775	760	752	749	749	750	754	755	762	762	760	764	767	766	760	756	756	757	766	767	765	750	743	745	755	761	765	765	762	750	743	746	761	763	763	755	757	756	762	759	757	758	748	750	758	768	771	771	772	779	797	798	778	777	776	772	777	783	783	786	788	788	784	785	789	789	789	790	791	787	784	787	781	773	768	771	785	793	794	789	784	783	784	785	788	789	796	798	783	780	779	782	781	784	779	777	781	793	801	789	779	780	784	782	776	767	769	785	793	791	788	784	786	792	783	778	769	764	749	750	756	778	787	792	788	782	777	777	777	776	773	772	774	781	789	795	788	781	771	759	757	770	780	784	783	779	775	777	786	793	799	796	793	790	797	800	796	791	776	769	767	778	782	788	794	796	794	805	798	796	797	794	781	785	792	796	797	795	801	800	797	797	796	803	799	798	789	786	792	802	811	812	801	801	806	802	797	791	795	799	799	805	812	813	813	808	801	805	806	807	792	785	782	789	788	789	789	789	0	0	0	0	0	0	0	0
