636	627	625	623	624	624	620	623	628	627	627	625	623	621	617	618	618	607	614	619	620	621	621	623	624	614	615	615	620	620	622	625	629	633	636	624	618	618	620	625	627	632	632	634	637	639	637	637	641	641	639	632	630	627	624	623	620	614	614	613	615	622	629	636	635	630	629	627	628	628	624	617	618	619	621	617	617	607	607	611	615	620	627	629	623	623	623	622	626	629	626	625	621	627	620	617	614	612	609	610	617	623	619	617	611	615	615	612	613	618	623	628	629	627	620	614	614	613	611	614	617	619	614	609	607	604	601	602	601	596	593	589	595	597	596	599	615	620	613	609	605	602	602	604	614	619	616	608	602	601	605	609	613	616	616	615	611	610	612	615	619	620	621	617	610	609	604	608	616	623	634	644	641	636	630	630	629	623	621	618	615	615	613	607	606	612	618	629	632	631	627	624	621	617	613	614	621	621	609	602	603	606	605	599	604	613	616	618	614	611	613	618	620	622	600	608	614	612	601	592	595	600	600	597	592	591	592	596	599	606	612	607	619	615	622	621	610	611	625	626	626	624	620	618	620	618	613	606	603	602	598	597	593	604	616	623	624	619	613	609	607	606	607	610	608	604	603	604	607	610	605	602	602	604	604	602	606	602	601	599	599	605	606	609	606	602	602	601	602	604	599	598	598	603	604	604	603	606	608	610	616	618	618	615	611	602	604	606	610	615	615	612	603	601	602	614	614	607	604	611	614	617	618	618	621	622	621	620	618	619	619	616	609	603	604	611	607	603	599	602	607	611	614	614	614	615	614	612	615	621	617	612	609	608	603	606	623	624	627	621	610	612	616	618	623	591	594	597	604	603	604	600	589	583	581	587	585	583	580	582	587	591	595	601	603	610	615	612	610	610	609	605	609	611	605	603	604	606	607	608	611	611	609	605	603	609	612	614	619	623	622	619	620	622	621	617	611	609	611	613	618	618	614	605	601	603	607	609	610	611	617	617	610	607	603	606	620	620	618	614	615	614	615	615	614	614	613	603	601	602	601	605	607	608	606	600	595	600	600	606	615	612	608	605	601	602	603	598	592	590	594	598	601	599	603	609	612	624	627	627	617	609	601	593	597	596	605	607	612	611	612	612	612	611	611	618	617	613	607	617	616	618	620	621	621	622	619	615	611	606	592	587	586	592	597	597	600	600	597	596	594	595	597	597	601	612	613	613	612	610	611	608	606	607	608	608	607	610	611	615	615	610	599	596	595	596	595	597	602	604	604	607	611	613	617	618	619	617	612	606	602	599	601	604	603	607	609	608	607	609	605	600	600	604	611	611	603	592	590	599	616	617	612	610	608	608	611	613	612	612	607	602	598	597	600	603	603	604	605	595	586	585	586	602	609	616	612	608	609	609	611	612	613	609	605	606	610	609	604	600	602	610	615	614	622	610	602	597	597	603	611	613	0	0	0	0	0	0	0	0
617	617	614	608	606	606	600	606	611	613	613	608	607	606	601	604	604	593	602	612	616	618	619	619	606	595	591	598	605	605	605	610	613	613	604	603	604	607	607	612	613	611	609	607	614	617	621	621	617	615	615	621	623	621	617	607	598	595	602	602	609	618	621	625	630	626	622	622	623	609	607	604	604	605	605	607	607	602	592	592	597	604	609	605	610	609	614	614	619	616	612	605	600	602	603	602	600	599	594	599	606	603	593	595	595	594	599	601	603	607	615	620	619	613	604	598	595	596	596	596	598	601	596	593	591	590	590	588	592	592	591	589	589	590	590	595	596	602	603	602	600	593	590	592	601	605	601	592	589	588	594	601	609	615	608	602	600	601	602	606	613	616	610	605	598	592	591	607	614	617	620	620	630	625	628	628	631	619	612	606	606	606	606	604	603	604	607	614	614	619	616	607	610	608	606	602	599	607	597	596	595	594	592	594	600	606	611	610	606	602	610	613	612	598	589	600	602	600	594	589	586	594	593	593	591	589	584	585	588	597	600	600	595	592	597	597	594	597	612	611	602	601	605	609	609	605	604	603	603	597	589	578	577	580	587	590	596	600	602	602	595	587	595	601	601	597	594	595	597	601	598	596	595	598	597	597	596	596	598	596	599	600	602	606	604	598	593	591	590	591	587	586	582	582	587	587	585	593	600	605	606	606	611	603	590	583	584	590	597	593	594	590	589	593	599	599	596	589	585	582	598	604	610	613	609	605	603	607	607	607	598	592	586	585	583	587	587	586	585	592	594	597	603	604	603	599	594	596	602	607	607	602	599	585	588	591	598	593	599	599	600	587	578	563	558	564	570	576	589	588	586	585	580	580	577	577	577	578	580	581	586	586	585	585	590	596	603	602	599	598	595	592	590	590	593	594	590	588	594	590	586	586	582	587	593	604	609	611	609	607	612	613	615	616	612	599	588	578	592	602	607	608	606	601	594	595	596	601	599	600	600	602	600	600	599	600	606	609	608	611	611	609	606	603	601	604	595	594	597	598	594	592	587	585	581	579	583	585	585	589	602	604	598	596	596	606	600	590	587	587	587	589	592	593	597	595	593	592	601	603	592	594	587	575	573	579	585	592	595	597	597	597	595	599	603	607	599	596	588	589	595	607	612	611	611	614	611	581	572	566	579	579	581	585	588	596	596	588	584	583	587	591	594	591	585	597	601	600	598	597	596	600	598	600	599	593	594	590	589	593	589	588	587	587	586	586	587	589	592	589	591	593	601	609	608	612	609	606	597	591	587	584	585	588	590	592	585	581	588	599	598	595	594	599	598	593	586	590	590	589	593	597	604	601	601	600	598	595	598	602	602	598	595	594	592	587	586	585	586	584	582	588	590	590	590	590	585	583	584	584	590	600	601	590	590	596	602	601	597	594	595	599	597	596	594	592	590	587	587	590	595	599	0	0	0	0	0	0	0	0
600	600	598	596	587	587	587	592	597	598	598	595	594	593	588	587	587	576	586	592	589	589	587	587	578	578	580	581	585	591	591	594	596	596	594	591	593	595	595	597	599	599	596	590	586	591	589	589	589	596	601	609	613	603	596	591	589	586	591	591	601	605	606	608	610	612	612	594	594	593	595	595	587	580	581	598	598	594	583	576	581	587	583	588	597	599	602	602	602	599	594	587	583	582	587	590	589	586	583	582	582	583	583	582	583	586	588	590	592	598	602	608	612	607	595	584	581	582	582	585	590	591	589	588	585	583	580	582	586	589	587	587	588	588	589	587	587	587	587	592	591	586	581	579	581	582	580	581	578	580	583	592	601	595	596	597	597	596	598	598	598	598	591	580	578	577	580	598	603	603	598	590	608	612	623	621	613	609	600	596	596	595	594	598	598	597	599	601	598	595	589	594	595	599	596	588	583	582	589	591	594	593	591	588	594	600	603	600	588	587	586	590	585	584	583	589	590	587	585	582	578	581	585	587	586	583	579	579	585	591	591	590	589	586	585	581	582	591	598	593	586	586	590	596	600	599	598	601	599	595	586	584	582	577	579	581	583	586	586	586	581	578	586	591	590	574	575	584	587	591	588	590	591	589	590	592	590	589	588	588	587	584	583	587	587	583	583	579	579	578	579	579	578	578	578	577	574	579	586	585	586	589	590	589	586	582	576	577	582	578	574	576	578	582	589	593	586	583	582	577	575	580	582	583	582	591	585	581	585	589	588	586	583	584	582	582	582	583	579	579	580	583	588	585	577	569	567	573	583	585	580	575	574	571	570	566	564	568	574	582	585	580	570	558	558	562	566	569	571	572	574	571	572	572	571	572	575	577	571	568	567	573	575	576	575	593	594	586	581	585	587	581	572	571	572	577	572	571	571	565	563	566	566	572	573	580	582	589	588	585	587	588	589	589	589	580	578	576	577	586	596	598	584	576	575	578	585	587	587	583	582	581	587	585	586	590	594	597	598	600	593	587	589	587	577	588	588	573	571	572	582	576	576	579	577	576	574	573	575	580	580	574	571	575	587	584	580	575	577	576	578	577	575	578	580	582	582	581	579	579	577	575	572	571	565	573	575	575	579	586	581	576	578	585	587	581	579	580	581	584	587	594	597	597	584	582	573	570	563	559	564	573	575	576	580	583	581	579	578	577	580	588	584	584	577	578	584	574	578	578	578	578	587	589	586	582	579	579	576	577	582	582	578	577	577	577	578	581	577	574	572	572	581	591	592	595	599	597	591	584	578	574	574	576	575	577	573	570	571	575	577	579	576	576	580	582	583	583	586	589	590	591	594	596	594	593	590	588	590	595	596	595	592	591	584	580	579	580	583	581	585	589	592	587	586	582	577	579	579	579	580	575	573	577	580	586	591	593	588	586	588	589	590	587	587	585	584	585	585	588	590	590	0	0	0	0	0	0	0	0
581	579	576	576	575	575	580	585	591	592	590	590	586	577	569	570	570	561	568	571	572	571	570	570	567	567	571	575	583	587	587	587	585	582	581	583	585	586	586	585	588	588	588	579	568	570	572	572	577	584	591	588	572	575	582	585	585	585	584	584	588	587	592	596	602	589	581	575	573	574	578	579	575	576	576	580	579	579	575	573	570	569	575	585	594	597	598	595	594	591	587	583	579	577	576	578	582	582	577	572	570	569	570	571	574	577	583	586	586	586	588	596	603	595	587	579	576	575	572	575	582	585	585	583	580	580	576	577	579	579	577	577	580	580	580	579	581	582	584	583	585	582	578	573	571	572	572	572	571	571	579	578	584	584	585	590	593	592	593	589	582	578	575	571	569	570	571	562	563	565	571	570	572	575	580	600	596	590	586	585	585	583	582	590	588	580	577	574	578	578	579	576	581	583	579	576	574	575	575	588	593	593	588	586	588	591	588	581	580	575	573	576	576	574	574	576	578	579	578	575	576	574	573	575	577	576	575	577	583	583	582	580	579	577	568	578	575	571	581	578	577	576	576	579	591	591	588	588	584	581	580	585	585	576	571	570	571	578	578	575	571	573	577	577	568	558	560	565	579	582	579	578	579	579	571	569	569	575	582	581	578	575	577	574	570	561	564	567	566	568	569	571	576	577	577	566	561	562	568	565	563	565	568	569	569	565	563	564	563	559	555	557	559	565	578	581	573	575	572	570	566	565	567	573	572	566	564	563	560	561	562	561	566	564	566	568	574	572	569	566	568	578	584	581	572	566	566	568	569	564	559	560	567	572	572	569	566	569	571	569	569	565	560	551	555	559	562	561	562	561	560	558	557	556	558	564	566	569	566	558	560	561	561	566	571	569	566	566	565	566	569	565	560	554	555	560	560	562	568	567	562	562	563	564	560	557	560	566	563	562	558	556	557	563	566	567	570	569	571	576	574	564	565	570	570	566	563	573	572	573	570	564	565	573	574	571	574	582	590	593	585	576	563	562	568	572	567	566	566	567	568	574	573	572	571	572	574	571	568	567	564	555	549	547	563	569	570	568	565	561	562	564	561	562	571	578	580	579	575	572	568	569	569	567	570	574	574	570	566	565	563	559	566	576	582	572	570	566	568	571	570	561	559	564	575	572	565	558	554	558	559	565	565	572	578	579	576	571	570	573	571	571	575	577	574	573	571	565	565	569	572	571	578	579	576	576	573	569	566	570	572	577	572	569	568	566	564	561	565	564	564	565	569	565	567	570	575	575	572	570	566	566	567	564	565	565	566	565	564	567	568	563	560	565	567	572	578	573	572	575	578	581	584	585	585	584	582	580	583	577	563	569	579	582	577	572	573	575	579	583	586	585	582	579	576	571	569	571	571	573	574	572	571	571	574	577	582	584	577	562	561	574	577	572	570	570	576	576	581	582	582	581	0	0	0	0	0	0	0	0
569	568	565	565	568	568	576	577	577	582	576	576	573	563	561	559	558	558	562	565	563	563	562	562	562	561	565	571	577	581	581	581	574	568	565	571	575	577	577	579	578	577	568	565	561	564	566	566	570	580	583	571	569	572	577	582	584	579	579	579	574	577	582	577	579	579	578	578	577	573	570	563	559	567	574	577	572	572	570	567	565	566	573	581	589	588	580	579	576	578	582	585	585	581	577	578	581	578	573	567	564	565	566	566	567	571	577	584	582	580	578	580	582	584	584	580	575	573	571	568	573	575	577	579	576	577	575	569	568	566	562	562	565	568	567	566	570	572	575	577	577	575	574	571	567	567	563	560	560	558	559	564	568	571	573	579	584	580	566	568	569	565	562	565	564	563	562	556	557	563	564	566	566	567	568	572	572	570	575	576	573	573	574	582	580	577	573	570	567	567	568	568	567	569	571	571	569	570	572	584	589	590	584	575	571	574	575	572	567	562	560	567	567	564	562	562	562	565	569	571	571	570	570	572	574	575	574	573	575	568	564	561	559	557	563	561	557	555	552	552	568	558	561	568	569	563	560	560	559	557	563	573	575	570	561	559	557	560	568	566	564	562	562	562	559	554	549	552	556	552	549	546	548	552	557	561	562	565	569	571	572	569	569	564	557	553	554	555	558	561	562	562	563	563	568	557	552	552	551	547	549	554	562	562	560	557	556	557	558	555	555	553	555	560	562	559	557	557	562	560	558	555	553	553	556	557	557	558	558	558	554	553	553	555	555	559	561	555	552	555	562	569	572	575	572	567	562	556	555	557	556	556	560	562	562	560	559	560	552	546	543	539	540	544	549	551	553	552	550	551	548	542	542	542	547	552	558	562	559	554	551	547	546	546	550	548	555	559	558	553	548	549	550	544	544	547	550	555	562	564	565	560	553	552	554	558	562	561	550	549	547	548	550	553	556	561	561	558	556	556	554	550	550	560	562	560	558	558	557	553	531	536	543	560	560	559	556	560	566	570	545	545	548	551	555	559	552	557	561	563	562	558	556	556	557	561	565	561	555	553	551	551	543	536	545	551	555	559	555	551	552	553	548	552	555	564	572	576	573	569	556	560	568	567	566	566	567	563	560	554	550	552	549	558	568	570	564	558	551	549	548	543	544	546	557	556	553	548	545	549	551	556	560	566	569	574	571	560	559	561	556	554	559	559	566	564	562	553	552	554	559	569	576	575	569	562	561	560	557	557	557	557	557	552	558	548	546	547	552	554	555	554	551	550	549	551	554	553	553	553	561	562	562	561	560	554	557	561	560	559	560	545	545	550	554	560	561	555	551	556	560	564	562	562	559	552	551	558	561	557	552	550	552	555	556	558	563	566	572	578	579	571	562	556	558	561	563	562	562	565	573	568	566	563	565	568	570	571	562	551	549	559	561	563	564	569	568	568	568	564	556	568	0	0	0	0	0	0	0	0
561	557	555	558	561	561	564	562	562	563	563	563	552	554	556	557	554	554	552	553	559	560	558	558	555	551	553	557	565	569	569	565	560	556	561	566	569	569	569	571	571	560	554	553	557	562	565	568	568	573	572	569	566	568	574	579	577	574	568	568	569	570	561	565	571	573	575	571	572	572	565	557	552	552	556	565	569	569	568	566	563	563	562	563	565	567	565	563	559	559	561	565	567	565	567	567	573	571	565	560	561	561	560	560	560	564	568	574	574	575	571	569	567	571	575	575	572	565	560	561	562	563	563	568	571	573	572	571	565	558	550	552	555	558	558	555	554	559	564	567	567	570	569	569	564	563	562	562	559	555	553	554	554	554	561	563	565	561	558	556	557	556	553	553	555	554	556	553	556	560	562	561	562	561	560	560	558	549	549	549	553	562	562	572	573	572	570	568	564	558	557	557	553	560	562	562	562	565	568	563	558	553	551	553	555	552	555	556	554	550	551	553	551	551	551	552	559	560	558	562	567	566	567	568	572	565	561	557	559	564	564	560	554	553	557	558	556	551	549	546	542	540	550	550	550	552	554	556	555	552	556	563	566	563	555	552	549	545	555	556	554	552	555	556	555	550	545	544	545	547	545	545	544	546	545	550	552	557	553	550	562	564	562	554	546	544	546	540	550	553	555	556	556	556	553	551	542	541	540	536	537	543	548	551	554	550	548	548	547	546	549	549	547	552	551	547	543	540	543	552	552	547	545	546	548	550	548	550	554	554	548	543	541	542	546	549	539	530	529	533	534	535	541	544	543	538	535	540	542	544	546	547	551	550	546	543	544	544	545	542	535	534	534	538	540	541	539	537	535	539	538	535	529	529	536	541	544	544	542	542	541	543	540	537	534	536	540	539	536	534	537	542	548	548	545	544	543	543	548	555	558	555	550	548	548	548	548	540	536	537	543	545	542	545	545	539	541	545	546	543	541	542	547	549	553	549	545	538	531	525	522	524	529	543	547	552	552	546	532	535	537	538	545	552	551	541	544	544	547	546	541	535	531	540	546	548	541	542	540	540	541	538	535	525	531	534	539	543	542	539	539	537	537	541	546	556	562	563	556	537	535	542	552	552	555	558	558	553	551	547	542	540	542	548	561	535	538	540	543	540	538	534	533	531	534	537	541	539	538	538	542	545	549	551	550	545	550	542	546	547	544	541	541	544	548	551	547	545	546	547	538	530	531	546	542	534	545	546	550	552	547	537	542	546	556	563	548	539	535	533	539	544	542	541	545	547	550	549	547	546	548	549	554	554	549	545	546	549	547	541	540	537	539	539	544	550	545	544	542	542	543	547	548	548	547	544	543	541	548	548	546	546	545	548	550	551	551	551	557	567	568	561	550	542	546	552	551	551	551	548	559	553	546	546	555	557	559	557	551	546	542	547	552	555	557	559	550	550	544	540	539	541	0	0	0	0	0	0	0	0
546	546	549	552	548	547	547	548	548	549	546	546	550	555	556	556	545	545	546	546	543	542	541	541	545	545	546	550	554	555	555	554	551	553	561	564	565	560	555	555	549	546	545	550	554	557	565	570	570	568	564	564	563	562	562	567	565	562	560	557	549	549	556	560	564	563	558	555	555	563	566	560	553	549	549	553	562	564	564	562	559	558	558	555	559	559	556	556	554	554	557	561	562	561	561	560	561	562	563	557	558	556	554	550	547	548	554	559	563	561	560	555	555	558	560	559	559	554	551	550	548	549	555	558	562	564	566	567	562	552	547	547	549	550	552	551	548	550	553	557	561	563	564	561	558	559	562	561	557	552	547	548	546	542	545	550	556	558	555	553	551	549	547	547	546	548	549	553	540	543	556	559	558	558	555	548	542	539	542	546	551	551	543	540	543	550	562	561	557	552	548	546	548	546	552	552	555	551	547	550	547	543	545	547	547	544	542	543	544	543	545	546	547	543	547	549	552	546	548	554	557	561	559	558	557	555	552	554	557	562	563	558	550	547	547	550	549	548	544	537	535	533	530	531	541	543	547	552	549	545	546	548	553	552	551	549	547	541	546	543	541	541	545	547	548	545	541	539	540	541	540	540	538	536	537	535	532	536	538	539	539	538	540	540	538	538	536	536	539	546	551	550	551	544	537	534	533	534	531	529	532	538	543	543	541	536	533	532	533	539	541	538	532	535	537	539	538	535	532	540	543	541	540	540	539	542	538	533	535	546	542	534	532	535	537	537	529	525	525	527	526	527	525	527	527	529	528	526	528	533	534	531	531	535	534	533	536	536	537	534	531	529	531	532	535	531	525	522	523	525	529	529	526	525	529	533	530	531	537	541	540	536	535	531	530	531	530	529	528	527	529	536	537	530	530	533	534	532	529	527	530	535	544	539	538	538	535	531	531	527	530	536	537	530	531	533	538	542	540	539	536	534	537	534	528	526	523	524	523	522	524	527	529	532	536	544	529	526	529	530	529	529	531	534	536	520	519	520	519	520	522	523	528	530	533	531	530	527	530	528	531	533	531	518	522	526	531	533	532	531	526	526	530	534	540	548	552	551	540	526	522	523	529	535	536	533	536	540	541	540	539	535	536	528	525	527	528	532	536	538	533	526	521	520	518	517	528	527	522	519	524	529	533	535	534	529	528	525	529	534	537	538	534	533	528	526	535	539	536	533	524	527	527	530	533	521	520	524	528	531	531	524	524	529	535	539	544	545	546	543	539	535	534	534	539	545	547	541	534	521	521	537	548	547	547	536	539	543	543	540	535	533	532	532	539	541	540	540	541	538	536	534	532	536	538	539	539	540	542	541	539	539	539	538	536	537	540	541	541	536	533	534	532	537	543	545	539	539	539	538	537	540	541	537	535	535	535	526	524	526	533	538	537	536	537	537	537	537	537	533	533	532	0	0	0	0	0	0	0	0
535	535	540	536	529	529	529	533	540	543	547	547	552	553	550	544	536	536	542	547	546	541	540	543	543	543	542	544	548	548	545	545	546	549	555	556	559	553	544	544	539	542	543	545	549	559	562	562	562	560	555	552	550	552	549	548	550	550	549	540	540	542	550	551	552	552	548	546	548	554	558	555	552	551	550	549	549	557	557	557	555	553	552	553	550	549	548	548	548	548	549	551	553	558	557	552	549	547	549	548	546	549	548	546	542	541	544	541	534	539	543	541	542	544	542	539	536	533	537	546	546	546	548	549	552	556	558	558	555	548	544	543	543	544	548	548	546	545	548	551	552	550	551	554	555	555	557	555	552	544	544	544	540	537	539	546	551	552	552	547	544	544	541	538	537	537	535	532	531	534	536	544	554	553	549	543	537	536	536	539	535	536	536	532	527	531	537	545	548	548	544	541	539	537	534	540	540	533	533	534	540	534	539	542	542	533	526	527	532	536	537	540	536	537	534	537	535	534	538	541	546	548	545	545	546	550	551	554	552	544	526	518	519	528	532	541	535	529	531	526	523	524	526	528	526	525	535	542	544	538	536	536	540	546	548	543	540	535	531	529	530	532	535	538	541	540	537	533	533	533	533	532	527	524	525	524	526	529	530	533	534	533	531	531	532	533	532	532	535	540	545	544	539	529	523	520	519	526	526	525	529	534	536	536	529	526	524	523	527	536	537	534	527	523	527	533	532	528	527	524	518	524	529	531	527	523	522	522	524	526	526	526	523	525	527	526	526	525	526	523	522	520	519	520	521	521	522	521	521	519	519	520	524	527	527	527	527	531	531	530	527	530	530	529	523	518	514	512	515	518	525	528	524	523	524	524	525	531	533	535	535	529	528	525	526	526	526	525	524	523	523	519	519	520	519	520	522	521	522	521	522	520	528	527	528	529	530	529	524	524	520	518	521	525	525	528	532	536	535	536	533	530	527	524	520	522	522	524	526	525	524	524	524	524	516	519	522	522	521	520	519	520	523	527	522	516	512	510	508	508	507	520	523	527	527	525	523	522	521	523	526	527	526	515	514	519	522	522	518	519	518	522	527	532	533	533	530	531	527	516	514	516	523	532	530	526	525	528	534	536	529	529	524	518	514	519	519	519	525	528	527	522	519	514	513	512	515	517	513	519	524	521	518	516	520	520	516	512	513	516	523	530	529	529	520	514	513	525	527	521	521	523	524	526	531	531	526	524	525	526	525	519	520	523	523	525	533	537	539	539	535	531	526	525	528	529	530	527	520	518	518	524	537	549	548	528	524	524	530	530	529	528	527	527	532	537	540	540	537	532	526	524	523	523	525	530	534	537	536	536	532	531	529	527	523	526	538	539	533	527	523	524	526	529	530	528	528	528	527	527	527	529	525	525	523	525	525	521	519	518	519	520	521	523	523	527	527	528	529	524	522	522	0	0	0	0	0	0	0	0
528	528	527	521	516	519	519	525	533	541	543	543	545	543	543	533	528	528	537	547	547	542	537	540	540	540	541	541	540	545	541	541	539	538	540	546	548	538	531	531	535	538	542	545	544	544	544	541	541	540	540	541	544	543	539	537	534	536	536	533	533	536	539	538	546	544	537	537	542	547	547	545	544	545	544	541	545	545	545	545	541	538	544	545	540	524	523	526	536	540	541	543	547	549	549	545	542	538	536	533	536	538	544	548	542	534	524	520	522	527	532	535	536	537	536	535	532	531	536	541	545	541	535	529	528	536	539	541	536	533	530	530	534	540	543	545	542	539	539	539	538	537	545	550	551	541	531	530	533	534	531	530	531	531	533	538	543	541	540	539	541	541	539	538	541	537	532	529	528	529	527	528	530	542	541	537	533	530	528	523	523	526	529	527	518	522	531	536	538	535	541	534	530	527	526	526	530	528	522	517	529	532	535	540	533	522	517	520	519	525	529	531	530	528	526	525	522	525	527	527	538	538	536	535	536	538	541	540	533	522	515	513	513	516	521	524	523	517	510	510	511	513	522	524	522	518	514	510	524	526	527	530	532	533	533	524	518	513	512	514	517	522	525	524	522	524	529	526	523	523	520	519	518	514	509	515	520	524	526	527	527	526	525	526	528	530	529	528	530	533	535	534	529	518	514	514	516	521	517	509	507	514	528	520	519	519	520	519	524	533	533	530	524	516	519	526	528	524	520	508	509	511	513	515	520	516	514	510	514	517	520	520	518	515	512	507	511	519	521	519	519	517	515	514	514	514	512	505	504	501	507	511	515	518	520	519	521	524	524	521	513	511	512	512	512	514	512	508	510	518	525	528	526	523	520	517	520	523	528	527	525	522	519	519	521	519	518	519	520	519	515	513	514	514	512	515	515	515	515	515	517	515	517	516	521	522	524	521	519	518	516	512	512	515	517	519	520	524	527	532	523	522	519	517	515	516	519	520	522	521	516	515	506	506	508	511	513	516	514	512	511	512	516	520	511	511	508	505	501	501	501	507	515	516	517	511	516	517	518	518	522	522	514	511	510	509	507	509	509	510	513	517	522	527	526	521	515	513	516	508	506	511	518	523	523	518	516	516	509	506	507	510	507	504	503	505	506	510	512	515	518	517	514	510	510	509	509	512	515	517	519	515	511	512	509	513	513	513	515	515	515	517	523	525	516	511	509	509	508	512	515	519	521	522	524	530	527	524	523	519	518	510	515	516	517	517	518	524	532	531	527	526	522	518	517	517	517	518	517	519	519	519	521	521	514	510	516	516	516	520	521	523	519	517	521	525	530	532	530	521	514	511	511	515	516	522	529	532	533	531	528	525	524	519	511	521	527	529	526	519	515	517	520	522	520	520	518	518	516	515	517	516	518	518	518	516	514	518	517	516	513	513	512	512	512	510	510	509	506	510	512	515	0	0	0	0	0	0	0	0
515	515	509	507	508	512	512	519	527	525	522	523	523	524	526	525	520	520	532	538	540	530	526	522	522	524	526	531	534	535	534	534	530	527	522	519	522	525	527	527	530	534	540	540	537	532	530	527	528	528	533	537	539	538	534	532	531	529	528	526	526	528	531	531	528	523	523	526	529	532	535	538	538	538	536	536	538	540	541	541	536	531	525	523	522	522	524	526	529	530	532	536	538	540	540	539	538	537	533	527	530	533	537	545	538	526	518	515	518	523	528	532	532	534	535	533	532	531	532	530	521	517	519	522	524	528	528	528	527	522	517	523	530	535	539	540	538	534	527	517	517	517	524	530	530	528	526	522	521	531	533	525	522	522	523	523	521	527	531	536	535	533	528	526	523	517	529	525	521	520	517	517	518	524	530	528	523	521	515	512	516	521	522	521	511	511	513	517	515	512	508	509	510	517	517	518	522	519	514	513	515	516	519	527	525	518	512	512	513	519	524	526	523	521	519	518	512	513	518	518	525	529	530	529	526	527	527	522	518	516	511	510	508	509	511	514	514	511	507	500	500	502	509	517	518	516	508	503	499	501	519	518	507	509	513	514	511	508	506	508	509	514	513	515	510	510	512	508	503	499	497	496	500	503	502	508	512	518	522	522	521	517	517	521	524	525	525	519	520	519	522	525	521	515	511	515	516	515	505	502	500	498	499	505	508	512	514	518	521	515	509	509	512	516	515	516	515	512	508	503	503	504	505	507	506	508	508	510	511	512	510	508	508	510	504	502	502	504	503	506	510	511	509	508	507	504	497	497	496	496	495	497	500	505	508	510	510	503	507	505	500	500	500	503	504	502	506	507	509	516	522	516	512	509	509	510	511	515	518	518	516	513	508	514	515	513	511	509	499	499	500	502	501	502	505	511	510	509	510	509	508	508	508	513	514	514	516	516	515	514	512	508	509	508	509	511	509	508	517	513	512	515	512	509	508	506	513	515	516	513	501	496	498	501	503	506	507	505	503	505	504	505	509	510	505	506	504	499	496	497	497	503	506	505	502	502	510	515	515	512	514	514	506	505	503	502	502	500	504	506	507	507	516	518	516	511	508	506	507	503	498	496	496	500	508	497	500	503	502	502	502	500	501	497	496	495	490	490	495	504	511	514	511	510	509	510	508	506	495	497	505	511	511	506	504	508	513	514	515	513	513	512	510	511	507	507	506	505	504	505	510	512	511	511	518	519	517	518	518	516	513	508	509	512	515	512	509	512	514	515	514	511	505	504	507	509	509	511	517	519	521	519	516	513	508	507	509	509	509	513	513	509	500	499	501	505	506	504	502	500	504	501	500	505	512	517	524	525	525	525	518	517	516	513	503	497	497	500	506	506	505	504	507	510	513	512	512	509	508	507	507	509	511	513	513	506	506	510	512	514	511	508	506	510	512	513	513	509	506	503	505	508	0	0	0	0	0	0	0	0
501	501	500	501	504	504	504	507	508	512	515	517	517	516	517	519	519	524	524	527	515	513	513	513	513	514	517	520	520	521	518	518	514	511	511	507	507	511	516	516	525	530	531	533	534	531	529	525	523	523	522	525	524	526	526	518	519	519	516	520	519	519	519	514	515	512	512	516	520	525	527	530	530	525	524	526	525	523	534	534	532	526	520	520	519	521	522	523	521	521	522	525	527	532	533	534	533	529	524	518	518	518	519	524	520	515	509	509	515	520	526	529	528	530	531	532	531	526	523	519	516	513	517	519	519	524	525	520	514	513	509	510	514	519	522	529	527	518	512	509	509	511	515	517	520	521	517	509	515	519	525	524	521	520	518	516	516	519	514	520	524	521	519	516	511	511	513	519	513	510	505	501	505	510	513	516	515	510	506	505	502	504	507	510	505	502	504	508	509	509	503	497	492	491	494	508	509	511	511	511	506	507	510	508	504	505	506	507	511	516	521	521	516	512	507	508	509	509	509	510	510	511	512	515	512	514	514	511	508	507	507	506	503	503	504	509	509	507	506	500	497	497	500	507	513	511	499	495	496	498	500	499	499	499	506	506	505	502	499	499	500	502	505	504	505	504	495	501	499	495	493	492	491	492	492	491	494	499	505	510	511	511	513	514	516	516	516	514	510	506	510	514	517	516	516	513	511	507	501	497	491	491	493	495	499	501	506	514	512	507	503	501	500	499	509	510	499	491	492	495	496	497	498	499	494	499	498	504	508	507	500	496	490	488	498	497	498	495	494	497	500	502	498	494	488	489	489	486	483	482	482	486	488	489	497	499	495	497	497	493	491	493	495	495	493	493	494	495	497	502	503	500	501	502	502	502	501	503	501	508	499	494	504	508	509	507	503	492	493	494	493	495	494	495	499	503	510	507	506	499	495	498	502	504	507	509	510	509	508	505	503	501	500	504	505	504	500	496	495	496	495	493	495	501	499	494	500	503	497	495	489	484	484	491	499	501	498	496	494	498	498	500	501	499	501	501	502	499	496	494	494	497	497	496	493	496	500	501	512	508	508	499	497	500	499	497	496	498	498	502	502	501	502	507	505	503	500	499	500	504	501	496	490	487	488	490	494	497	500	499	498	497	495	493	493	490	487	485	490	499	506	507	507	505	506	504	501	484	490	494	497	500	504	502	500	502	510	512	513	512	509	505	503	500	500	503	504	504	500	500	503	504	502	500	500	504	511	516	516	514	508	508	514	511	512	508	503	498	494	496	496	495	494	494	495	495	496	504	510	515	514	514	515	515	509	503	506	507	506	506	504	497	496	496	498	502	504	501	497	495	494	491	493	498	505	511	515	516	515	512	508	506	507	503	498	494	493	493	494	494	496	502	505	506	505	503	503	502	502	500	501	504	507	503	501	498	499	503	507	509	502	498	499	500	502	504	504	501	501	502	499	496	0	0	0	0	0	0	0	0
496	496	499	502	498	492	492	494	498	504	510	512	512	513	513	511	500	501	501	502	501	503	503	503	503	502	504	509	509	507	505	505	502	502	503	504	507	509	510	512	512	515	523	528	529	527	524	517	516	516	515	513	512	514	513	511	512	511	509	512	509	509	508	508	507	505	507	509	514	518	520	522	522	516	515	511	510	508	506	506	500	503	504	511	515	517	512	513	513	513	511	509	509	510	509	509	510	504	500	496	497	499	501	503	506	508	507	507	512	518	521	523	523	525	523	520	519	514	511	509	508	509	511	511	512	508	514	505	504	505	501	500	499	499	498	498	504	504	496	499	503	506	504	508	512	515	512	504	505	507	510	505	510	513	515	510	509	503	505	508	508	504	505	506	505	507	510	507	505	499	492	494	498	500	502	503	501	500	496	495	496	498	501	501	498	496	495	497	499	499	496	491	490	488	488	489	489	493	506	508	505	500	499	499	500	500	498	501	503	509	514	510	509	502	501	503	503	503	501	499	497	494	497	495	493	498	505	507	507	505	500	497	494	490	494	496	500	501	500	501	496	496	496	497	497	492	492	489	491	495	496	487	486	483	497	499	498	497	493	492	489	491	494	495	493	493	481	481	484	487	487	486	488	491	490	490	493	497	500	501	503	507	508	510	508	506	499	496	494	493	497	504	514	515	511	506	504	499	494	484	480	483	487	490	492	493	494	505	504	502	498	493	491	492	492	491	487	489	489	488	489	489	489	486	485	485	487	491	494	498	494	491	483	480	482	493	493	489	485	489	492	492	491	488	483	481	479	478	475	473	475	476	478	479	482	485	484	487	490	486	484	486	488	487	486	486	487	485	481	485	489	494	491	488	485	483	481	481	493	492	488	494	497	499	499	499	495	488	484	486	483	485	486	487	490	494	498	501	492	490	488	490	494	495	497	495	491	492	496	495	487	481	485	487	491	494	495	495	494	495	492	488	487	486	486	487	486	485	480	478	476	476	476	475	487	496	494	492	490	492	488	486	489	492	496	497	498	495	496	494	491	492	494	488	487	488	490	490	485	486	485	485	486	487	491	490	490	492	497	498	497	495	497	501	499	497	495	493	497	500	476	476	483	488	487	487	487	487	487	486	492	494	495	492	486	489	488	486	490	496	498	497	500	499	498	494	480	479	485	489	493	496	499	498	498	499	506	507	507	503	498	497	497	490	487	495	499	499	497	496	496	494	494	491	483	483	486	497	501	500	502	503	504	506	504	498	495	494	491	491	490	491	490	488	487	487	488	493	498	503	502	504	506	508	507	500	500	500	499	495	495	494	492	493	495	500	500	496	490	486	482	486	493	499	499	502	511	512	509	503	499	496	495	494	495	495	492	491	489	491	493	499	505	505	501	501	497	493	494	497	498	501	497	494	494	492	496	498	502	497	493	490	486	490	494	494	496	492	490	489	486	486	0	0	0	0	0	0	0	0
495	495	499	498	492	490	489	489	492	497	502	506	506	507	505	502	494	494	494	495	496	496	496	496	499	499	502	503	501	497	492	492	492	496	503	506	507	507	506	501	501	500	504	519	522	523	514	508	507	507	509	510	511	508	507	503	502	505	505	503	502	502	503	504	502	500	500	502	505	507	507	510	509	505	501	498	496	495	492	492	492	494	498	502	503	502	499	501	504	503	502	502	504	505	502	503	502	499	495	489	486	487	491	492	496	501	504	506	511	515	518	511	512	512	507	511	509	508	508	507	506	506	509	504	501	496	493	492	495	495	496	496	497	497	494	491	491	488	487	489	494	497	496	495	496	505	505	502	495	496	497	494	494	494	506	504	496	497	497	496	494	491	490	495	498	503	508	504	499	492	492	491	491	494	495	496	492	492	489	489	489	489	495	492	487	483	486	491	496	495	495	490	488	489	487	484	484	486	489	491	500	494	495	497	498	490	490	492	497	500	505	504	500	492	496	498	499	496	490	489	485	486	486	482	485	489	498	503	506	500	494	488	486	486	485	482	481	480	482	491	493	493	490	482	474	474	477	481	486	491	487	481	479	478	484	482	480	473	474	478	478	485	488	481	476	473	472	470	473	479	487	491	491	481	476	475	478	485	490	492	493	496	498	498	493	491	488	485	481	483	487	489	490	490	492	491	492	490	487	484	480	480	484	484	484	479	483	495	495	495	491	485	484	484	483	482	485	487	484	484	476	476	477	477	480	479	481	484	488	491	490	482	479	478	478	476	478	480	481	482	484	485	485	482	479	475	473	471	466	468	472	474	473	478	478	477	477	479	481	474	474	478	480	481	480	481	478	474	477	481	483	487	484	481	477	475	477	482	483	486	485	490	492	493	488	488	487	481	472	474	473	474	476	478	482	484	487	484	481	479	482	482	479	480	483	485	485	487	484	482	471	472	476	482	486	491	492	492	493	491	490	489	485	480	473	474	476	477	475	473	472	473	472	472	473	475	480	489	495	496	489	481	478	478	484	485	493	494	489	488	485	479	477	475	472	471	472	477	479	480	478	479	480	482	484	484	484	485	491	490	488	489	492	492	491	492	488	479	469	469	471	470	473	479	485	485	485	485	480	475	469	483	489	481	475	480	480	484	482	478	482	488	488	481	475	473	471	472	480	485	488	488	487	483	482	491	488	485	486	488	491	491	490	483	480	479	486	493	494	493	492	489	485	478	476	475	474	475	479	483	488	485	478	479	486	487	487	489	489	489	488	487	487	485	482	478	478	481	485	488	492	494	495	499	500	490	486	487	486	486	487	487	489	490	492	497	496	491	484	479	478	481	487	488	485	483	490	495	500	496	492	489	487	486	488	493	495	492	490	488	492	496	496	494	496	496	489	486	486	490	493	490	487	485	482	485	490	493	489	489	486	481	475	479	484	484	484	482	483	483	483	482	0	0	0	0	0	0	0	0
493	492	492	488	481	480	485	485	490	492	495	500	500	503	503	498	486	488	488	491	492	491	486	487	481	481	495	499	494	489	485	488	488	498	503	503	500	495	491	487	487	489	490	494	510	503	502	501	503	503	505	507	502	500	498	497	495	493	491	492	496	496	500	499	497	495	491	490	492	494	493	493	492	494	492	488	485	482	481	485	485	491	499	504	503	498	494	493	494	495	496	497	500	498	499	501	502	497	492	487	483	483	483	487	491	498	500	500	494	494	495	495	497	501	504	507	505	504	504	503	502	502	503	502	496	493	487	485	485	487	488	488	490	492	490	487	485	484	486	490	490	492	492	492	491	495	499	499	486	486	488	486	483	483	485	489	484	483	480	473	473	478	481	485	489	495	498	497	491	488	484	484	482	483	484	484	486	484	480	479	478	481	478	476	476	479	483	486	492	492	491	487	486	488	489	485	482	478	476	480	478	487	489	497	496	492	484	484	486	489	490	491	487	486	490	494	495	493	485	483	482	473	472	474	477	478	473	476	480	490	487	482	481	481	481	478	477	477	479	481	483	480	474	470	467	466	467	471	478	475	477	476	476	479	482	481	476	470	469	466	464	468	474	473	472	469	467	466	466	470	478	480	481	482	480	473	471	472	478	487	486	486	487	484	484	477	475	474	474	475	474	479	477	477	479	480	482	480	481	485	481	480	476	473	471	470	481	483	483	478	467	465	464	464	467	471	472	475	475	477	475	469	467	464	462	472	477	478	483	484	481	476	474	473	470	470	474	485	488	479	480	481	481	474	471	470	466	463	463	466	469	469	472	474	476	475	475	474	470	471	468	468	472	469	466	467	469	471	472	476	477	478	478	476	467	467	472	482	490	485	482	483	484	480	478	480	480	470	464	467	468	471	470	473	473	473	478	479	479	481	483	479	477	478	482	483	482	477	476	472	464	465	470	472	479	483	483	486	487	488	486	480	478	473	471	471	472	471	469	464	465	464	468	467	468	472	475	481	484	484	482	478	475	470	466	472	477	480	477	469	465	464	460	459	461	464	469	478	477	477	474	474	475	473	474	475	476	476	480	481	481	483	481	485	483	468	465	468	466	467	472	471	469	469	474	476	477	480	475	469	464	462	472	466	465	464	466	468	460	463	475	477	473	465	459	456	460	464	474	477	478	475	475	476	471	470	471	472	475	476	477	480	481	473	470	471	473	480	484	487	486	483	477	474	472	470	469	467	465	468	471	468	474	479	482	480	479	480	483	485	485	484	485	480	477	473	472	471	475	478	477	482	486	490	492	485	482	485	485	486	483	479	476	475	482	486	488	485	481	478	478	481	482	482	479	477	474	478	487	490	487	483	480	480	484	490	492	491	486	483	481	476	478	478	481	481	483	480	480	481	482	482	479	476	475	475	479	485	484	483	480	474	471	471	473	473	472	474	477	479	481	480	0	0	0	0	0	0	0	0
488	484	484	479	476	477	482	482	488	490	488	495	495	497	494	478	479	482	482	486	487	481	479	473	473	473	475	487	491	485	483	489	489	497	497	495	492	486	481	481	481	484	483	485	489	493	492	493	497	500	500	490	489	490	491	492	492	488	487	483	484	488	488	489	490	489	489	484	480	476	473	473	480	489	486	482	477	473	475	482	482	490	497	501	499	496	493	490	489	487	486	484	484	488	496	498	499	497	491	484	483	482	482	484	489	493	496	495	492	489	488	493	495	495	497	503	505	503	500	495	492	491	492	494	492	487	485	481	480	482	482	482	484	486	484	484	483	485	485	484	485	488	489	489	488	485	483	482	481	481	480	481	476	475	475	476	471	469	466	463	462	464	467	480	485	487	487	481	483	481	479	478	477	478	478	479	477	475	473	471	475	474	474	471	471	475	479	482	486	486	485	483	482	481	480	476	476	471	468	469	478	481	482	478	477	487	479	472	467	467	468	471	473	475	481	482	486	488	488	488	485	482	466	465	466	466	463	465	466	469	470	471	473	475	475	469	471	474	473	475	475	471	467	470	471	470	467	460	464	468	471	472	474	473	470	476	471	463	457	458	459	463	469	468	466	461	461	460	459	462	467	468	472	474	476	471	467	466	467	474	477	477	477	476	474	471	472	471	469	469	467	465	466	465	468	468	466	466	466	464	461	461	460	459	465	470	473	475	468	460	459	459	458	460	457	458	461	463	461	459	459	459	461	463	457	458	464	469	473	473	467	457	452	453	453	456	456	462	472	477	471	469	470	465	465	463	461	460	461	463	467	467	466	469	472	472	471	470	468	465	461	454	452	454	455	457	458	459	464	465	469	470	471	470	467	464	464	475	485	486	478	477	470	468	468	469	468	457	459	463	464	465	465	465	466	463	463	468	475	477	475	472	473	474	480	475	473	469	464	463	462	462	461	466	470	470	469	472	482	476	471	469	470	467	471	468	468	468	467	460	460	460	459	460	463	467	471	478	473	476	479	476	466	465	461	458	460	462	465	462	462	459	458	458	460	464	467	469	469	471	472	470	465	463	465	466	467	469	469	473	469	469	468	459	458	455	454	465	464	465	468	470	465	463	465	465	467	471	469	462	457	452	451	453	453	453	449	453	455	459	467	471	469	464	460	458	460	464	463	464	465	466	468	467	462	462	465	468	472	474	474	477	479	472	472	475	477	481	478	471	477	479	477	474	470	467	463	460	458	458	458	462	468	474	478	478	478	475	474	477	472	470	472	458	454	455	456	461	463	460	460	461	468	478	480	474	467	461	464	464	481	476	473	473	474	477	481	481	480	476	476	478	481	482	479	475	471	469	473	480	478	476	475	475	478	482	487	487	481	475	470	466	467	469	469	469	473	474	474	474	475	474	474	470	469	469	474	476	479	480	477	474	469	468	468	466	466	469	472	476	478	476	0	0	0	0	0	0	0	0
484	480	480	477	473	476	480	480	485	487	488	487	488	488	481	472	474	478	480	480	480	477	470	469	470	470	470	471	476	481	485	491	491	493	494	492	488	483	478	476	476	473	467	460	461	469	477	482	482	486	472	473	477	482	482	484	485	482	478	472	470	475	475	483	488	486	473	467	466	469	471	473	476	480	481	480	477	475	477	479	483	483	489	493	494	493	491	488	485	482	475	478	479	479	487	496	496	491	486	483	479	479	477	479	478	486	491	491	487	483	483	485	485	483	478	483	482	483	487	485	484	481	482	486	486	484	480	478	478	478	478	477	480	480	480	480	479	479	481	478	480	479	481	484	483	479	479	478	475	473	470	471	473	471	465	465	466	467	466	465	465	466	470	473	480	478	476	472	469	471	470	471	472	473	473	472	471	465	465	465	464	470	470	470	471	473	473	477	479	476	470	462	459	460	466	468	464	460	464	469	469	466	471	469	469	468	470	468	471	470	470	470	470	470	468	468	466	477	480	482	481	479	475	468	461	462	465	465	466	461	459	463	466	467	464	455	453	453	461	462	464	461	464	466	467	465	461	459	457	456	461	463	464	462	458	453	449	447	445	447	454	455	455	457	453	455	453	451	452	458	457	461	467	471	473	467	462	458	458	462	466	468	469	469	470	471	471	470	467	463	463	461	456	459	461	462	464	463	462	458	455	451	454	458	459	455	451	450	449	452	460	459	458	455	454	453	454	457	453	454	454	458	462	462	459	456	453	457	459	461	455	451	450	450	452	452	454	457	464	464	461	461	459	457	458	458	457	457	458	460	462	465	465	465	465	465	462	463	463	457	450	444	442	445	450	453	453	455	457	461	463	465	467	468	465	461	461	463	467	476	473	471	468	459	460	462	455	455	456	459	457	459	463	462	459	453	452	457	469	471	470	468	467	468	468	464	464	463	462	461	463	462	461	462	463	460	462	462	460	460	458	457	461	459	461	466	465	465	464	459	457	456	455	453	452	453	455	455	448	449	458	463	464	459	458	455	457	457	458	457	457	454	453	455	460	464	467	466	466	464	462	462	458	456	459	461	465	466	462	460	458	450	453	455	453	453	453	460	462	464	465	468	462	457	458	459	461	461	460	456	451	451	450	448	444	445	447	450	452	456	458	463	465	461	458	459	461	460	459	457	457	460	462	459	455	454	460	465	466	470	475	478	474	471	470	470	472	474	473	465	470	474	476	472	469	465	462	458	455	452	452	454	452	455	457	458	453	452	457	463	462	458	453	448	448	450	455	458	457	460	460	460	461	462	467	464	457	454	455	456	456	456	458	458	457	455	458	463	466	473	470	470	471	470	470	468	466	463	463	464	467	467	468	469	469	472	476	477	475	470	465	462	461	461	461	459	457	458	460	464	467	467	468	466	465	467	468	466	466	476	475	472	465	462	462	465	463	464	468	471	469	468	0	0	0	0	0	0	0	0
481	477	477	473	474	476	478	478	479	481	478	476	477	477	474	468	471	474	474	474	472	470	468	469	469	469	466	462	465	475	482	489	489	489	491	490	484	478	476	478	478	478	471	464	462	466	472	478	476	472	473	470	470	475	477	476	473	471	467	464	467	472	472	480	482	474	468	465	466	464	469	474	478	481	483	483	484	481	477	474	475	475	480	484	488	487	485	484	478	471	468	471	474	474	476	482	479	476	473	468	467	467	471	473	476	477	477	480	477	476	473	476	474	470	467	463	462	470	477	480	478	477	477	476	480	478	477	473	474	474	470	472	472	476	477	477	476	473	470	471	472	472	473	476	476	476	476	474	472	466	464	466	470	467	464	461	463	465	467	468	468	468	471	474	472	470	462	460	453	449	450	449	450	455	458	461	461	457	450	448	447	452	452	449	452	465	463	461	457	454	454	454	454	453	453	450	452	455	461	462	462	456	457	459	460	466	465	460	452	449	460	462	464	462	462	459	456	458	462	474	469	460	454	455	458	459	460	459	459	457	457	457	457	454	450	449	447	448	450	454	454	458	463	464	463	460	455	453	450	451	454	456	456	455	451	445	443	443	443	445	447	449	453	450	447	447	445	442	445	446	450	455	461	465	466	464	456	446	443	449	455	456	454	461	464	466	469	467	462	458	452	452	450	452	450	456	461	462	456	451	449	447	456	457	454	451	446	442	443	446	456	456	456	453	451	450	447	447	449	449	449	454	460	460	456	450	448	450	449	449	449	448	448	449	452	452	454	454	456	456	453	451	453	452	450	451	455	458	457	461	465	466	464	459	454	450	449	453	454	451	446	440	439	441	445	449	449	447	449	452	453	457	459	464	459	457	452	450	449	456	455	454	456	452	452	453	453	456	455	453	452	454	456	455	451	447	447	451	460	465	462	459	456	451	454	456	457	456	460	460	462	462	462	460	457	449	448	449	455	451	449	448	447	448	447	450	447	457	453	455	454	451	445	443	444	445	444	444	442	443	444	439	448	452	454	454	449	449	447	440	439	439	440	442	447	451	453	454	456	455	454	449	448	450	451	459	461	460	444	440	440	448	450	451	453	452	456	458	460	458	455	453	443	442	448	455	457	451	449	451	451	450	448	448	443	442	443	443	446	451	451	455	457	456	453	454	455	451	454	451	455	457	458	455	452	449	450	453	455	456	463	462	455	454	457	461	462	463	464	461	463	470	473	470	465	465	455	443	440	447	448	448	445	444	445	445	443	446	449	454	456	448	445	445	444	449	453	455	454	459	458	458	451	449	454	451	446	446	448	449	451	454	457	458	454	452	452	455	457	459	456	453	453	453	454	461	460	458	458	458	457	455	457	458	460	464	467	469	463	459	456	457	459	459	459	455	452	450	452	455	454	455	454	458	460	462	459	459	458	455	454	453	454	456	456	462	460	461	464	459	458	459	0	0	0	0	0	0	0	0
474	470	470	468	467	471	472	471	471	467	468	471	472	472	470	459	461	464	466	466	465	466	466	467	468	462	462	460	462	467	469	475	478	478	481	480	472	470	471	476	477	477	474	468	465	469	475	481	479	469	463	463	464	467	470	471	471	467	466	464	464	470	473	473	466	465	463	463	465	465	467	473	477	476	476	474	477	478	473	468	466	471	471	475	478	473	473	472	468	465	465	462	459	457	460	466	469	471	474	470	467	466	466	468	471	473	470	471	468	464	459	461	465	464	461	459	459	463	468	472	473	476	474	473	472	472	471	467	469	470	467	465	464	467	472	472	469	466	462	460	461	462	466	466	469	471	471	470	462	460	462	463	467	462	459	456	462	464	467	471	470	468	469	469	468	463	454	447	445	444	448	447	447	450	452	452	453	455	452	447	445	447	447	444	445	447	450	449	452	451	451	453	453	444	448	453	454	456	456	457	454	451	451	453	455	460	459	454	447	442	441	446	458	459	459	457	452	453	456	462	460	453	450	449	453	453	458	459	456	457	455	453	449	447	442	444	443	441	445	447	449	455	459	460	458	453	451	448	447	445	448	449	448	443	439	438	442	442	444	443	442	445	447	447	443	441	439	439	439	444	445	449	449	446	444	443	443	442	434	434	439	441	442	444	452	454	454	454	455	455	452	449	447	442	442	450	455	460	452	447	446	448	451	454	451	447	442	441	440	440	438	448	450	449	449	447	445	443	443	446	445	449	453	447	443	439	440	444	446	445	444	443	444	446	450	451	454	447	445	442	442	443	447	448	449	445	441	446	456	460	462	453	452	448	437	431	434	440	443	449	446	441	439	440	442	445	447	444	440	441	444	449	454	457	453	448	445	443	441	440	445	444	441	442	444	449	452	451	452	450	449	448	450	451	449	446	441	444	450	449	447	451	452	447	442	442	450	449	448	452	457	457	457	451	448	446	444	446	447	446	445	443	435	428	432	438	438	441	446	448	449	439	439	435	439	438	438	440	441	441	441	434	434	439	442	442	441	441	442	442	439	436	436	438	440	444	445	449	449	449	447	446	446	446	447	449	442	436	433	435	439	441	439	436	443	446	442	443	443	441	439	437	434	438	442	444	445	444	443	441	444	444	443	445	445	442	439	438	437	442	445	448	454	455	453	449	444	445	448	449	452	454	448	442	438	437	439	439	444	446	446	447	448	446	447	448	454	454	453	453	441	446	448	448	449	448	442	438	436	440	449	450	447	444	442	441	438	438	441	445	444	441	441	443	444	447	448	450	450	455	456	446	442	439	443	443	438	439	440	443	446	450	452	453	451	451	450	452	451	451	449	448	447	448	448	447	449	450	450	454	453	454	454	454	455	457	458	459	456	452	451	454	455	455	455	454	449	447	450	450	454	452	451	450	449	454	456	457	457	447	446	442	443	443	450	458	455	453	450	452	452	451	0	0	0	0	0	0	0	0
464	463	460	460	458	461	461	461	461	463	463	465	466	466	461	455	458	458	457	457	458	457	457	461	461	459	459	460	464	465	466	469	473	473	475	468	461	462	467	473	476	476	474	468	461	461	467	472	462	461	458	458	458	461	464	466	467	464	460	456	454	453	454	454	458	459	459	460	460	461	461	466	472	470	471	472	472	469	465	463	460	460	460	459	456	458	459	460	458	457	460	458	457	454	455	455	458	464	469	469	465	460	459	457	460	460	461	460	462	460	457	455	453	452	451	449	447	447	452	456	458	454	449	445	446	448	449	455	459	459	458	452	450	446	447	452	455	456	457	459	457	455	453	452	459	462	463	454	455	458	461	465	464	459	453	448	446	456	467	470	467	464	462	462	456	451	445	442	444	443	447	444	445	447	447	443	441	440	449	448	445	444	443	443	443	444	450	447	445	447	449	450	440	440	443	445	452	450	449	449	447	447	447	451	449	444	437	438	438	438	437	441	442	441	441	452	447	448	452	456	453	449	445	446	450	452	454	455	454	453	452	450	445	440	436	436	436	436	439	443	445	449	452	453	449	445	445	444	444	442	439	439	440	436	433	434	437	439	441	439	437	438	433	439	442	441	435	432	432	429	444	449	447	444	440	441	441	440	433	432	431	432	433	431	434	438	442	443	442	443	441	439	437	432	432	436	442	446	444	445	443	443	445	445	444	442	437	438	438	436	434	435	442	445	447	446	441	438	436	438	437	440	440	439	437	435	434	439	443	442	439	437	436	436	440	443	445	446	447	442	437	434	439	443	444	439	436	432	429	432	440	448	448	444	437	430	428	431	436	443	446	437	435	435	440	442	445	444	439	439	441	446	451	445	443	440	439	437	435	434	434	440	438	439	442	446	444	442	442	441	441	442	439	441	443	447	445	443	440	440	441	445	447	446	440	431	431	434	441	445	445	446	446	447	448	445	443	441	440	442	441	433	424	421	425	432	433	437	437	437	437	434	431	431	433	434	435	438	442	441	434	431	430	435	437	439	440	441	442	442	440	435	432	432	434	434	437	439	443	445	446	446	443	443	441	437	437	433	432	434	435	436	437	429	427	429	434	431	431	436	437	434	432	433	435	437	440	441	440	441	439	435	430	429	430	440	436	434	431	429	429	430	438	449	451	445	433	439	438	437	438	439	440	436	434	433	434	437	440	442	443	444	440	438	437	436	440	439	436	435	434	433	438	439	440	440	443	446	445	440	450	450	446	443	440	434	434	436	440	440	437	438	441	441	442	442	441	438	439	438	440	440	440	439	434	435	432	434	436	441	438	437	440	448	447	447	447	442	434	430	431	435	438	441	442	444	444	448	446	445	443	443	441	447	448	449	449	450	447	445	448	446	446	448	448	448	445	442	448	445	447	448	447	445	443	445	450	453	445	443	442	440	437	437	437	444	447	443	441	443	444	443	0	0	0	0	0	0	0	0
454	451	448	448	449	450	451	453	453	456	457	456	454	454	453	452	453	454	448	448	447	447	450	454	458	458	458	459	464	460	462	465	467	467	465	459	455	457	460	466	470	470	470	461	456	457	459	462	457	455	454	454	456	457	458	460	460	451	447	447	449	451	452	452	453	452	451	452	453	454	454	454	461	464	467	464	457	452	449	454	454	456	456	453	448	449	448	446	447	451	457	456	456	453	450	452	455	460	465	466	458	454	451	452	449	447	448	444	447	448	452	453	452	451	449	444	443	444	446	452	452	448	443	439	438	440	442	446	452	455	455	453	449	450	453	455	456	459	457	455	449	446	446	445	446	446	448	448	451	453	455	462	457	447	447	449	448	449	461	464	460	457	452	450	452	450	444	438	436	443	441	445	443	444	443	441	439	438	438	440	442	442	442	444	443	444	444	445	442	443	444	434	432	434	438	439	440	440	440	439	439	440	444	450	446	439	433	432	433	436	435	435	438	435	436	438	436	440	445	445	442	439	441	444	446	447	447	447	449	448	448	445	440	437	432	430	429	428	432	437	440	440	437	433	439	436	438	439	441	441	436	434	433	432	429	431	432	435	440	436	427	423	424	429	440	439	433	429	424	424	424	430	428	434	439	438	429	430	430	427	425	426	419	421	425	431	434	432	429	425	425	427	430	430	432	435	439	444	443	441	439	438	437	439	434	433	434	434	432	433	433	435	438	434	439	440	438	433	430	429	429	434	436	435	432	428	432	433	434	428	434	434	431	430	431	435	435	436	437	437	434	426	426	428	431	433	431	431	432	436	439	439	435	431	430	428	425	429	431	431	432	430	434	433	436	439	441	439	433	434	439	440	440	436	433	434	433	431	429	428	426	430	432	434	437	435	429	428	426	432	434	437	439	440	439	439	437	430	428	432	435	438	441	440	437	432	429	433	443	443	441	440	439	442	440	440	449	447	438	430	427	427	425	423	422	423	430	436	439	443	440	434	428	425	430	434	434	436	441	440	431	429	430	432	432	432	438	439	441	442	439	434	430	429	428	425	423	424	426	437	441	440	435	435	435	434	435	434	429	429	430	431	432	425	420	426	429	428	430	432	433	432	427	428	429	433	436	440	440	436	432	425	424	422	422	427	434	429	427	423	419	419	420	429	436	432	426	425	426	430	429	431	434	432	431	430	427	427	432	436	441	433	426	423	428	430	433	432	431	431	429	431	433	433	435	439	435	434	440	445	440	440	436	432	429	429	430	429	429	429	433	435	438	437	435	436	435	428	428	428	431	433	435	433	433	428	430	437	439	438	429	423	427	432	430	431	432	432	428	429	432	432	432	431	434	437	441	440	438	438	436	434	433	434	434	441	432	433	437	442	440	440	440	441	442	444	441	439	439	440	439	441	443	440	439	438	443	434	435	439	439	439	437	437	436	435	439	439	439	434	431	433	0	0	0	0	0	0	0	0
446	444	443	443	444	446	447	449	449	449	447	447	447	450	450	450	451	446	442	439	439	440	444	448	455	452	452	450	450	454	453	455	459	459	458	450	450	453	457	461	464	465	465	453	449	448	449	451	454	453	454	454	454	454	455	452	447	443	442	441	444	447	451	451	451	447	444	443	443	443	445	445	441	446	452	453	449	444	441	445	448	448	444	444	443	444	443	442	442	448	451	453	451	449	448	448	451	457	457	459	454	447	444	446	447	446	443	437	440	443	446	450	450	447	443	441	438	439	442	444	447	444	440	437	433	435	437	437	439	443	446	446	448	450	451	450	447	442	441	448	447	443	445	446	447	446	442	440	441	446	448	450	436	442	438	442	444	445	445	447	448	443	440	443	448	447	440	435	431	428	431	432	437	439	440	437	436	434	435	436	438	439	442	445	445	443	437	438	440	438	430	421	421	426	429	432	431	427	426	430	431	435	437	430	433	431	426	427	422	415	416	420	425	428	434	436	432	431	429	438	438	428	425	430	429	433	433	436	438	437	442	440	438	434	427	423	424	426	427	433	426	425	421	420	421	428	431	431	437	439	436	429	430	430	429	423	424	425	425	422	419	418	426	425	427	431	427	422	420	419	419	421	422	420	423	424	426	428	426	422	415	410	414	418	422	428	429	429	426	424	425	427	427	428	429	433	435	439	437	435	432	432	431	430	433	432	431	430	429	428	428	425	425	429	432	433	435	431	427	425	427	427	426	424	422	425	428	430	432	429	422	422	423	424	426	427	428	429	428	425	423	420	419	417	418	421	424	427	430	430	429	426	423	420	415	417	421	426	428	432	430	431	434	436	436	437	439	437	431	431	432	433	433	428	427	426	427	422	423	420	421	421	424	428	429	425	423	419	423	425	427	438	439	439	435	433	428	425	421	426	427	432	436	437	435	434	422	424	426	427	429	434	433	428	426	433	434	435	434	432	425	425	424	422	420	420	418	420	422	426	428	424	419	418	424	430	433	437	440	435	431	430	430	430	429	429	429	432	438	439	438	432	427	425	422	417	412	414	430	433	421	422	420	417	418	417	418	417	417	419	425	428	429	423	418	422	427	426	428	430	430	430	429	424	423	428	432	432	424	418	415	418	417	416	417	421	431	425	421	418	416	415	417	419	421	423	427	424	425	427	427	426	428	429	428	422	419	416	417	422	424	424	421	420	421	425	425	427	420	421	424	427	426	430	436	434	431	428	429	433	432	432	431	427	426	426	426	425	422	425	428	430	433	430	429	430	425	422	420	421	425	427	424	425	428	425	429	431	434	431	425	422	420	418	417	414	415	426	428	429	430	429	428	423	425	432	427	426	423	419	421	420	421	422	423	427	427	425	428	426	431	431	435	436	438	438	438	438	439	439	433	435	436	435	433	430	428	428	429	431	436	438	438	437	435	433	432	430	431	430	430	431	0	0	0	0	0	0	0	0
441	438	438	438	441	442	443	444	444	442	441	439	443	449	449	447	445	439	436	434	434	434	437	443	444	442	442	437	435	435	444	448	448	442	442	439	443	449	451	455	457	452	452	447	445	443	446	449	451	451	452	451	451	451	450	446	442	439	440	439	443	446	449	447	447	443	440	438	434	434	436	436	440	444	446	444	442	438	438	439	435	432	434	434	437	438	437	435	436	436	444	445	445	443	442	444	446	447	441	443	443	440	440	442	445	443	437	430	431	431	436	438	439	437	436	434	433	434	436	439	440	439	436	435	433	431	432	423	430	438	439	438	440	441	440	438	430	427	428	431	434	436	438	442	443	442	438	438	436	436	435	434	429	425	424	425	430	430	436	433	431	431	431	430	428	432	438	431	427	427	428	432	432	435	430	430	430	431	431	433	434	424	426	432	435	437	434	427	425	419	415	423	429	431	432	428	427	426	424	423	424	428	430	424	424	423	420	417	414	413	414	418	422	428	433	432	429	428	426	428	429	425	421	419	419	427	428	428	427	423	423	425	428	427	421	421	422	422	431	430	427	425	423	421	415	413	418	421	426	432	429	425	426	427	426	425	422	422	420	418	416	417	418	424	422	428	421	417	414	418	418	418	419	422	424	426	428	428	425	420	413	411	415	415	419	423	422	422	424	424	425	425	425	426	426	429	431	433	432	430	427	424	424	427	425	427	423	419	415	414	415	416	419	422	427	427	427	427	425	422	421	419	419	419	418	421	424	427	427	420	418	416	417	419	419	421	424	427	429	426	421	421	419	417	417	419	421	421	421	412	410	409	416	416	416	417	422	425	427	422	419	422	427	429	428	426	423	425	426	428	427	428	425	423	421	420	420	422	422	422	420	421	423	423	423	419	415	412	415	419	419	421	422	422	428	431	429	427	426	426	431	433	429	425	421	420	421	413	408	408	409	426	425	424	423	429	430	423	425	414	415	417	421	418	418	418	418	417	419	421	418	415	413	409	413	417	417	423	429	429	429	430	426	427	425	425	427	429	432	431	427	430	423	422	413	407	408	405	406	407	407	408	411	413	415	417	417	413	408	410	413	413	414	413	408	416	423	424	424	424	426	426	415	411	410	413	414	415	413	410	404	410	413	414	416	419	422	422	416	413	411	412	413	414	413	415	425	421	418	417	420	421	423	418	413	411	412	413	417	418	419	419	416	414	412	414	410	410	413	407	416	420	421	424	424	424	425	424	424	431	429	428	427	425	420	421	421	417	417	422	424	424	428	424	423	422	417	417	416	413	413	413	418	422	422	421	420	426	425	426	423	421	420	418	416	414	412	413	416	422	427	422	418	415	415	416	421	422	422	418	417	418	419	423	423	423	425	425	426	427	426	426	431	435	436	435	435	436	434	434	429	426	430	428	427	422	422	422	420	423	428	435	435	436	434	428	424	421	420	417	424	425	0	0	0	0	0	0	0	0
427	430	432	432	434	435	435	434	431	431	431	433	442	446	446	439	436	434	431	428	428	426	427	433	435	436	434	434	431	434	436	439	435	432	432	436	442	451	452	452	448	445	445	442	441	442	442	446	448	445	448	447	447	447	447	443	442	441	442	444	446	446	446	442	442	439	434	430	428	427	428	429	436	440	444	442	437	433	433	432	431	431	430	433	433	434	431	431	430	432	435	441	441	439	437	433	433	433	435	438	439	440	436	436	436	432	429	426	426	427	432	434	430	427	426	422	417	418	420	428	431	429	429	430	429	428	420	419	426	430	435	434	436	435	435	432	426	423	424	425	427	428	433	436	438	434	430	422	421	419	417	419	419	418	417	419	418	421	422	424	426	416	421	423	425	425	427	431	426	424	424	430	428	421	422	423	424	425	416	414	414	408	410	412	413	420	422	423	416	412	413	417	428	429	428	423	422	421	420	420	421	423	417	417	423	422	420	418	414	413	414	410	415	422	427	427	427	424	425	425	424	419	418	417	418	425	425	423	419	412	408	410	417	420	420	418	420	421	426	426	423	422	422	421	418	412	409	413	420	426	425	420	421	421	418	418	419	418	415	414	415	415	415	417	419	424	420	412	410	412	413	413	414	419	418	418	417	419	419	418	419	416	413	415	416	416	415	418	423	418	416	421	421	421	423	421	420	422	424	422	421	418	418	417	409	411	413	417	419	418	414	414	417	419	419	420	419	419	418	415	415	414	413	414	414	415	415	420	420	420	416	414	414	413	414	416	419	420	426	426	425	421	419	415	414	416	418	416	414	411	409	408	408	412	414	418	421	421	418	415	412	412	416	413	412	413	413	410	412	415	420	420	418	419	420	419	422	424	423	421	419	421	419	420	419	416	413	410	411	413	413	412	410	411	416	421	428	426	422	425	424	424	428	425	422	416	412	406	406	406	406	406	417	421	415	415	416	416	411	408	412	412	412	414	414	415	413	413	414	415	412	410	405	402	406	412	415	423	423	416	410	406	413	422	422	424	424	424	418	416	414	418	415	411	406	406	405	404	406	407	410	409	408	410	411	414	414	406	406	406	411	411	411	405	405	410	412	421	421	420	420	412	403	404	405	405	406	408	410	410	404	403	404	407	409	411	413	412	405	403	407	410	412	410	408	420	421	420	413	410	405	408	413	413	408	403	402	402	402	404	407	414	411	409	405	403	402	402	402	403	411	417	419	420	410	411	417	419	419	429	426	425	423	420	419	414	413	412	415	418	419	418	421	421	419	416	412	413	413	412	412	413	414	416	415	406	407	413	417	413	409	413	416	417	416	414	411	410	412	412	415	415	413	410	408	411	415	420	421	419	415	413	414	418	422	422	423	418	412	416	416	416	431	428	431	428	425	425	427	425	420	417	417	417	418	415	416	418	418	420	426	427	427	426	419	416	412	414	416	415	413	411	0	0	0	0	0	0	0	0
416	416	419	422	422	425	423	421	421	421	426	433	440	443	443	439	425	424	423	422	422	419	423	429	432	431	430	430	426	430	432	432	433	434	434	433	444	444	444	444	444	441	441	439	435	438	430	436	436	438	439	441	441	443	445	443	436	435	436	440	441	440	438	435	428	428	425	425	424	423	422	423	429	434	435	430	426	429	430	431	430	428	429	432	432	434	432	429	429	430	436	439	440	425	423	421	419	423	425	431	433	429	424	422	425	427	426	424	421	423	429	428	423	420	417	413	415	417	420	423	423	423	425	426	426	427	419	420	423	426	431	429	430	428	424	419	419	421	423	425	426	426	426	427	431	426	420	418	417	416	415	415	417	412	411	413	416	419	422	424	413	413	416	419	420	415	419	417	418	419	420	421	418	415	417	416	414	413	412	413	406	400	404	408	408	410	411	412	406	410	408	412	418	420	421	420	418	415	415	417	416	413	408	413	423	423	421	415	416	417	415	415	416	418	421	419	418	416	421	423	420	416	414	415	417	412	423	420	414	409	407	409	414	415	415	415	418	420	420	421	418	422	424	425	424	415	409	413	417	421	420	419	417	415	413	413	415	415	412	409	412	413	412	412	417	421	416	407	405	408	409	408	409	417	418	416	411	409	412	414	413	411	412	413	413	413	411	409	413	414	414	412	415	420	420	417	416	419	414	415	409	409	411	412	411	406	412	417	419	423	422	417	415	415	416	416	416	414	412	403	403	407	408	409	411	413	413	416	414	413	410	411	412	409	409	409	412	414	418	419	422	416	411	409	410	413	415	414	413	411	412	413	413	413	414	417	419	417	416	415	417	412	412	411	410	411	408	407	408	409	414	416	416	415	412	419	418	418	417	419	414	409	407	409	415	417	415	412	408	407	402	405	409	415	419	423	425	421	413	416	414	415	410	409	407	407	406	405	406	405	400	399	401	409	406	403	402	411	410	406	408	410	410	410	408	409	407	408	408	410	407	403	400	398	400	406	410	416	415	413	409	408	408	411	409	409	409	407	406	400	399	404	407	403	405	401	401	400	403	407	410	409	407	406	407	408	405	405	404	404	408	407	404	403	400	399	405	411	415	414	405	398	400	401	403	402	402	402	405	406	403	402	401	402	403	403	404	405	406	403	403	404	405	408	410	413	415	407	404	403	402	402	403	402	399	394	396	399	400	398	398	400	406	405	403	401	399	397	399	402	406	414	412	408	405	406	408	411	409	409	410	413	414	413	409	400	394	402	409	412	411	408	409	409	411	410	410	412	413	412	412	412	411	410	407	401	399	399	397	394	396	399	405	416	416	413	408	407	407	406	406	411	411	408	405	408	410	415	418	418	408	406	406	408	407	401	404	406	407	408	408	408	406	407	415	412	409	412	417	411	412	412	408	410	410	411	413	416	419	419	422	422	422	416	411	408	406	412	412	410	410	410	0	0	0	0	0	0	0	0
410	412	411	412	412	416	417	417	417	417	425	431	434	433	429	429	415	412	411	412	416	416	420	423	425	426	425	425	425	424	427	428	430	436	436	440	437	437	435	435	433	430	426	426	423	422	424	425	425	429	433	432	432	436	436	427	422	422	426	431	433	431	429	427	424	424	418	419	421	421	420	421	423	427	428	427	421	422	426	427	427	427	428	431	433	433	428	424	427	426	422	423	421	416	418	414	408	407	407	413	416	418	415	416	418	421	421	420	419	422	423	416	415	413	413	413	414	416	416	420	423	423	422	424	421	422	419	418	418	421	425	425	424	421	410	408	412	417	423	424	424	422	421	420	417	414	411	413	413	413	413	416	414	406	407	410	413	416	417	414	412	407	413	414	413	408	406	406	398	399	413	405	408	413	414	414	411	409	407	403	396	398	404	403	406	405	406	409	408	397	401	406	413	416	416	414	412	411	411	408	407	405	402	406	413	415	416	414	417	414	413	412	408	413	414	412	408	411	412	414	414	412	405	405	405	407	409	405	411	408	405	408	409	411	411	415	417	419	419	418	414	414	421	423	422	417	412	409	412	414	417	413	412	409	406	407	408	409	408	407	408	408	405	403	404	410	409	404	406	409	410	406	404	407	408	406	406	404	403	408	412	407	409	410	410	411	411	411	410	411	410	410	411	409	408	407	408	408	403	405	406	408	410	410	408	405	408	414	417	415	411	407	409	410	411	411	413	411	402	401	400	404	406	410	411	410	408	408	406	407	408	409	410	406	404	402	407	410	412	411	412	406	400	399	399	400	413	414	413	411	413	415	417	418	417	416	416	413	413	415	416	410	409	406	406	407	405	404	403	407	410	413	412	412	410	408	413	413	414	416	413	411	409	407	409	416	419	413	407	399	399	405	410	415	419	411	409	406	408	405	405	406	404	401	404	403	404	405	403	402	398	399	398	392	390	392	396	399	402	401	404	406	407	406	404	405	404	404	406	403	402	399	397	396	396	401	405	409	410	407	408	406	405	403	404	406	406	405	403	398	398	394	397	395	397	397	396	394	399	403	403	403	401	405	401	398	400	402	402	402	402	402	399	397	393	394	396	395	396	394	393	399	400	399	397	396	396	397	399	400	399	398	399	398	398	398	400	399	397	395	401	402	403	400	401	400	400	400	401	400	400	401	401	398	395	390	390	393	395	395	396	396	394	395	396	399	397	396	397	399	402	406	405	401	399	396	398	405	403	401	400	396	393	398	402	397	394	399	401	400	397	397	396	395	399	407	409	412	416	415	412	409	408	400	397	397	395	390	388	388	390	394	408	407	408	407	403	402	400	395	398	403	407	408	406	404	407	410	414	409	399	398	399	400	397	397	399	403	405	405	405	405	403	398	399	399	404	404	401	405	404	405	407	408	408	411	414	418	417	410	411	411	415	410	407	403	401	406	405	408	407	406	0	0	0	0	0	0	0	0
407	405	407	409	409	412	414	413	417	417	422	426	428	427	420	420	411	409	408	411	414	414	418	419	420	421	422	422	420	420	421	422	427	429	429	429	432	430	429	428	421	418	419	419	418	420	424	424	423	417	419	420	422	422	424	420	419	420	423	427	429	427	424	421	418	418	415	414	416	420	421	420	421	424	426	424	418	415	414	421	423	423	425	426	421	421	419	416	413	414	418	415	413	410	406	406	400	402	406	411	410	411	409	408	409	411	414	417	416	417	411	409	409	410	410	410	409	409	407	407	410	419	421	423	421	420	416	414	413	414	417	419	418	413	406	406	409	415	418	419	416	413	413	413	412	407	409	409	410	411	412	415	416	409	409	408	408	410	413	415	406	400	399	402	403	402	405	405	403	401	403	402	401	399	405	405	404	403	402	404	400	395	404	400	397	401	403	402	402	401	397	403	409	415	414	413	406	403	401	400	401	400	398	394	402	401	401	403	406	408	406	405	408	410	411	411	405	402	397	395	399	399	401	402	405	409	408	398	394	391	400	403	404	406	404	403	408	417	417	409	407	406	413	413	413	413	409	407	409	405	407	400	394	395	397	400	402	405	407	407	406	404	399	396	398	400	404	405	407	408	408	406	402	401	401	402	397	397	397	399	400	402	404	399	402	403	397	391	405	407	406	406	402	398	396	397	397	395	396	398	402	407	409	407	404	399	406	408	408	408	407	403	400	399	398	399	398	397	398	398	399	400	403	403	406	405	402	395	396	405	408	408	405	399	399	399	401	405	407	405	403	401	398	397	399	401	403	402	402	409	413	417	417	416	413	415	414	412	412	415	409	407	404	402	400	401	402	400	402	405	408	409	407	401	398	405	408	406	409	408	410	409	409	407	404	401	400	402	400	395	397	401	395	390	395	396	395	396	396	400	399	400	398	397	396	398	400	401	401	399	397	398	399	391	388	389	390	394	397	400	400	401	402	402	402	402	402	403	401	399	396	394	392	393	392	391	393	399	400	399	387	384	383	384	394	398	400	404	400	394	391	390	394	394	393	392	392	388	385	382	383	391	394	392	388	389	394	398	398	397	395	396	394	392	388	390	391	387	389	392	392	395	398	396	394	394	395	395	397	396	395	395	394	394	393	394	394	393	392	391	386	385	394	396	395	395	395	392	395	394	394	395	397	394	391	386	385	389	393	395	396	392	389	386	384	395	396	395	395	395	393	398	397	397	393	392	394	391	398	394	389	389	388	390	393	393	393	396	395	391	392	393	391	387	384	392	395	399	403	410	403	395	389	389	396	400	393	388	386	385	388	403	400	400	400	397	396	394	393	394	394	396	402	403	405	404	402	398	395	394	393	392	394	393	393	393	396	399	399	400	400	403	396	395	396	401	399	398	399	400	400	398	399	403	404	408	413	412	410	404	406	406	406	405	403	399	396	398	400	402	404	404	0	0	0	0	0	0	0	0
414	418	411	410	410	410	412	413	414	414	416	419	422	422	415	415	410	405	406	410	409	409	412	413	412	414	415	414	414	417	415	411	414	418	422	422	425	427	425	418	415	416	417	417	412	414	417	413	410	411	411	413	415	415	414	415	416	418	424	426	427	423	420	416	414	413	413	414	416	418	419	417	415	418	420	420	416	411	406	405	414	420	418	416	412	412	407	407	410	412	412	411	408	403	400	399	397	399	404	408	408	405	404	402	403	405	407	408	412	411	409	406	407	406	403	400	398	400	401	404	405	409	416	419	417	413	411	410	408	410	412	412	411	407	403	402	405	410	413	413	410	408	407	408	403	403	406	406	405	401	404	407	407	408	405	403	402	403	405	406	403	397	394	394	398	395	396	404	404	403	405	402	399	397	397	395	391	397	389	395	399	397	396	394	396	394	398	397	397	397	399	405	412	416	415	414	409	403	399	397	398	397	395	392	393	398	397	395	395	401	400	400	403	408	406	405	401	398	394	391	391	393	395	401	405	401	397	395	393	390	391	393	393	401	398	399	405	407	408	405	404	401	401	404	401	397	398	399	403	401	401	400	398	398	397	398	400	402	405	405	404	393	391	395	394	396	397	402	406	407	400	396	393	392	394	394	392	394	396	398	397	396	392	391	388	390	389	390	389	392	392	396	396	392	392	396	396	390	392	394	398	403	405	403	396	397	399	404	403	402	400	399	396	397	398	397	395	395	396	398	397	398	397	393	394	393	394	394	396	399	405	404	401	393	390	391	396	402	401	398	397	398	398	397	399	401	400	396	394	391	405	410	411	406	404	405	408	412	412	409	405	402	401	398	394	393	396	397	397	394	397	397	394	392	393	395	407	404	401	400	399	405	405	402	398	396	396	394	394	392	387	385	384	383	389	393	391	392	392	392	394	393	392	391	392	394	397	398	398	396	394	398	392	388	385	385	385	388	391	395	396	398	400	398	400	396	394	394	395	395	392	391	387	384	383	385	388	392	390	384	382	382	381	382	383	389	388	388	388	386	385	387	389	393	393	392	386	382	378	377	377	381	383	383	383	384	388	387	390	388	389	387	389	386	386	386	378	379	384	388	391	390	390	387	385	384	385	388	390	391	391	390	389	389	389	390	390	380	382	383	382	382	382	386	389	389	385	377	386	385	389	390	393	390	386	382	384	386	391	393	393	389	384	380	379	381	392	392	390	388	386	388	392	393	385	386	388	388	390	387	386	387	390	390	393	390	389	387	388	386	380	382	389	386	378	376	383	390	390	389	386	383	376	379	384	388	388	387	384	382	391	393	392	392	391	390	387	385	385	389	391	392	392	394	402	402	395	387	381	379	381	382	385	388	389	390	390	390	390	395	393	391	387	389	389	391	396	394	389	394	392	394	396	398	399	403	394	395	396	397	397	395	392	396	392	391	392	391	391	396	397	398	0	0	0	0	0	0	0	0
417	420	415	411	411	407	407	408	410	409	409	412	415	412	411	411	406	406	402	405	400	400	401	402	407	407	408	409	409	406	405	407	410	414	416	416	419	422	420	414	412	411	412	412	403	405	406	407	407	406	407	409	407	407	407	409	411	407	406	406	417	419	418	416	415	414	414	414	412	415	416	415	413	416	418	417	413	406	400	398	400	403	407	408	404	403	403	402	404	404	401	399	399	397	394	388	383	386	391	395	399	400	398	398	400	403	405	405	402	402	402	400	399	400	397	396	395	396	399	402	404	405	404	402	401	396	398	399	406	409	410	407	403	400	396	397	399	404	408	409	405	403	397	394	394	394	391	390	393	394	397	400	402	404	403	402	402	403	403	400	397	395	391	390	389	389	392	397	401	399	398	397	396	395	394	391	387	382	385	387	389	391	392	392	392	389	393	393	392	391	397	406	412	415	416	414	409	405	400	398	398	397	394	392	393	395	395	388	389	392	397	397	401	401	401	401	397	395	390	386	384	387	391	396	394	395	395	394	392	392	391	392	393	390	387	394	403	405	403	402	397	397	396	396	395	395	395	399	401	401	398	396	396	396	397	395	396	398	399	395	391	389	392	391	393	392	394	397	394	392	389	384	379	379	384	387	387	388	388	393	392	383	385	387	387	386	388	386	386	390	390	385	384	380	386	385	385	388	385	390	392	397	398	393	396	397	398	396	396	397	396	395	395	395	395	395	395	395	395	394	393	392	391	390	386	385	387	387	390	394	400	402	398	393	390	392	397	393	389	386	388	392	392	393	394	397	398	394	389	384	385	398	401	402	403	407	406	406	402	400	403	399	395	394	391	387	383	383	388	392	388	387	387	389	389	389	392	395	396	395	396	398	400	398	393	390	388	387	386	383	381	381	382	383	385	387	388	388	392	394	390	384	385	385	388	390	393	395	392	390	391	391	388	382	381	382	381	387	387	387	387	387	388	389	390	391	390	391	393	392	390	387	383	382	383	382	385	384	382	381	379	379	380	381	381	380	378	376	371	374	378	384	384	385	387	386	381	380	377	374	372	372	379	380	378	375	376	378	379	381	380	377	379	381	377	374	372	375	379	381	385	387	386	384	381	380	381	385	385	384	388	391	392	392	389	378	376	375	379	380	381	381	380	379	381	379	377	375	374	373	376	377	378	381	380	379	381	385	393	394	388	386	380	377	376	381	385	388	384	382	381	383	386	386	381	381	381	378	377	377	381	387	389	393	393	391	388	382	373	374	377	380	381	384	383	384	385	386	386	380	377	376	378	378	378	377	378	378	377	378	379	382	380	375	373	374	375	377	379	383	384	385	384	388	386	386	383	383	381	379	378	377	376	378	380	379	379	379	379	380	383	383	386	386	387	387	385	386	387	386	387	389	393	397	396	391	388	389	389	388	388	387	387	386	388	384	381	378	385	386	388	389	0	0	0	0	0	0	0	0
419	417	413	409	406	406	405	404	399	399	399	403	404	408	409	409	405	404	403	398	396	395	395	394	399	400	401	402	402	401	398	401	405	409	409	409	410	410	413	411	403	403	402	392	392	397	400	403	402	401	403	404	401	401	401	403	403	401	399	400	403	410	407	399	399	404	404	406	407	409	409	406	404	404	405	405	404	400	396	396	396	402	405	400	398	395	395	395	398	398	397	397	395	393	391	388	387	388	390	393	394	395	396	396	399	398	397	401	399	396	394	395	395	395	395	392	390	390	394	399	401	397	396	396	394	393	391	391	403	403	399	398	398	395	391	388	394	397	400	399	397	396	390	387	385	382	384	386	386	389	390	393	396	396	399	401	399	401	399	392	386	384	384	385	385	386	390	393	394	393	393	391	389	394	391	388	382	377	382	384	386	383	381	382	388	389	390	390	391	391	391	397	399	399	398	403	407	407	406	396	391	388	385	386	389	392	392	384	383	381	382	382	389	390	385	385	384	385	383	379	381	385	388	387	385	388	392	393	393	391	394	394	392	387	384	386	386	392	395	390	391	392	392	393	393	394	393	397	398	397	389	387	383	382	386	394	395	395	395	387	384	385	388	392	387	385	386	391	390	387	385	379	378	378	377	379	381	382	380	379	377	379	383	385	384	380	380	382	385	386	388	385	382	379	376	374	378	381	385	383	383	386	388	390	392	395	395	389	389	392	394	393	392	391	389	388	386	384	385	378	386	389	389	386	381	379	378	380	383	385	387	386	384	386	389	393	388	384	381	381	379	378	376	387	388	390	384	383	382	381	379	383	386	391	401	399	396	393	389	395	393	387	387	389	388	386	387	387	388	387	386	385	385	386	384	385	384	388	389	390	391	391	382	378	376	380	382	382	379	372	372	374	378	384	383	384	385	385	381	377	377	381	377	378	383	387	389	388	386	386	383	380	379	380	377	376	377	381	377	379	374	380	385	385	381	385	386	388	389	385	375	377	382	380	381	383	382	379	378	378	378	378	381	379	376	378	375	372	370	371	372	376	377	379	383	385	381	377	378	371	366	368	370	371	368	367	372	375	374	373	377	377	375	382	381	371	370	370	372	377	378	380	381	380	378	377	378	379	372	378	383	384	377	377	373	371	371	370	373	377	380	379	376	374	376	376	375	373	372	372	372	372	373	371	373	373	371	373	377	378	378	377	378	376	372	374	378	378	371	365	373	375	379	374	375	374	372	372	374	375	375	374	372	384	389	387	378	370	369	371	374	377	377	375	379	382	383	382	379	374	371	369	375	376	377	376	374	372	372	373	375	374	371	370	371	372	374	376	378	378	377	373	372	374	373	374	376	378	380	380	379	377	376	376	374	375	375	376	377	381	384	384	383	384	385	384	381	381	383	382	382	385	391	395	393	389	383	382	381	383	383	383	381	382	380	377	374	375	376	376	375	372	0	0	0	0	0	0	0	0
406	409	408	405	404	404	404	406	399	395	395	397	402	405	406	405	401	401	399	397	393	390	390	390	393	395	398	397	397	392	391	393	397	397	401	404	404	405	402	399	396	394	392	385	385	388	391	395	396	397	398	397	396	392	392	393	393	390	392	395	398	399	396	390	386	393	396	396	398	397	397	397	398	396	394	389	388	394	395	392	395	393	392	392	393	394	395	395	395	395	393	391	390	392	390	389	388	388	389	392	391	389	387	394	392	390	392	395	395	394	394	393	393	393	393	390	390	390	391	390	387	386	389	393	393	388	383	376	383	386	384	390	394	394	390	388	388	390	389	390	389	386	382	379	379	377	378	381	384	385	385	388	391	391	387	385	389	392	390	385	382	382	381	380	378	381	384	385	388	386	387	386	386	388	388	381	374	376	379	384	386	385	380	379	379	383	384	388	385	384	389	390	393	391	382	380	387	390	392	388	381	380	374	372	375	380	386	385	383	382	382	380	379	379	379	381	386	388	388	389	391	390	389	387	382	379	384	383	381	379	384	388	387	379	373	375	375	375	377	386	389	391	393	392	387	385	385	383	384	382	380	379	379	380	381	383	384	383	384	382	382	377	382	382	380	378	378	381	386	384	381	377	379	378	379	375	372	371	373	375	375	379	379	381	381	377	377	378	381	382	379	376	375	375	372	371	369	371	369	370	372	373	377	380	384	380	374	373	374	378	379	379	379	379	378	374	374	376	376	375	373	378	382	381	378	376	374	377	381	379	379	377	381	383	383	384	383	379	379	377	378	376	376	375	379	382	382	381	380	377	375	379	381	377	382	381	378	377	382	385	384	378	380	381	384	384	374	370	373	377	380	380	375	376	379	377	376	375	373	375	376	379	380	379	379	382	376	372	369	369	371	372	373	373	372	368	368	368	368	365	366	374	374	374	373	373	373	377	381	380	378	374	371	368	365	369	371	376	377	374	372	375	370	373	377	379	380	379	377	374	374	373	376	381	379	381	379	377	376	376	370	374	372	371	373	374	375	375	373	373	374	374	374	373	380	376	371	367	371	371	367	366	366	367	364	365	368	371	372	366	371	380	372	364	367	364	366	365	368	372	378	382	381	377	376	373	372	368	369	371	374	376	374	371	370	373	370	370	369	372	374	374	373	366	372	376	375	373	371	371	371	369	367	367	363	362	364	367	370	373	375	375	374	373	371	368	366	365	365	362	363	364	370	368	372	372	370	371	374	375	375	373	370	366	367	369	369	370	368	369	371	374	371	370	370	370	370	369	368	365	365	367	370	372	373	373	374	373	373	373	375	369	367	370	370	372	374	376	376	375	370	368	369	369	370	375	375	372	376	383	384	382	378	375	373	373	373	375	377	380	382	379	379	380	381	380	379	377	377	375	377	379	382	388	389	383	378	374	377	377	377	378	377	378	377	376	373	371	369	369	370	372	372	0	0	0	0	0	0	0
395	401	399	399	399	399	402	400	396	394	394	396	397	400	403	401	400	397	394	392	392	393	393	393	391	394	394	391	388	388	388	389	391	392	393	396	396	396	395	394	393	388	384	381	381	385	388	391	394	394	394	390	385	387	387	388	384	384	386	391	395	396	394	393	391	389	390	390	389	391	392	395	395	394	392	388	388	388	392	393	393	390	393	394	393	393	393	394	394	391	389	388	386	386	389	388	386	388	389	386	384	384	385	386	386	387	387	389	393	396	398	398	393	388	388	388	388	388	389	384	379	381	383	384	383	380	379	379	383	383	383	383	390	392	390	389	388	384	381	380	379	378	378	376	374	374	374	376	379	381	381	384	385	385	382	382	387	385	381	380	382	382	381	379	376	376	380	382	382	382	380	372	373	376	377	376	373	373	382	385	387	381	377	376	375	376	377	376	376	377	385	382	378	377	376	376	376	380	379	378	372	375	374	373	373	376	380	383	382	380	380	377	376	375	376	380	383	385	385	382	380	380	379	381	376	372	369	375	375	380	382	379	371	370	370	369	371	375	376	377	383	386	391	387	384	382	379	376	378	378	378	369	370	372	374	373	369	371	375	375	375	376	378	379	377	376	380	382	382	380	381	379	379	379	380	379	374	373	374	374	375	376	368	367	366	364	364	367	376	375	374	372	368	368	369	366	367	366	366	369	370	370	370	369	367	368	370	373	371	369	370	370	369	367	367	370	369	374	374	373	371	367	367	367	368	368	371	375	378	377	374	377	380	379	376	377	375	374	374	375	373	374	371	372	377	380	380	379	377	374	371	373	374	371	371	369	372	372	375	376	376	376	377	379	374	372	367	369	373	376	378	379	374	373	369	368	363	369	373	372	372	377	378	377	375	372	368	364	363	365	369	368	363	360	361	362	360	361	361	361	364	369	374	374	377	378	374	372	372	372	371	371	368	370	367	375	379	378	374	371	369	368	366	365	366	371	378	377	374	373	372	373	374	374	372	369	371	366	369	369	369	369	368	359	361	367	372	374	375	374	374	373	371	373	369	364	361	360	359	364	362	366	367	364	361	363	365	368	363	365	365	367	361	362	363	364	362	366	365	369	372	375	373	370	372	376	369	367	364	370	371	374	373	370	371	373	373	367	365	367	369	371	360	358	366	372	374	375	374	374	372	368	364	363	362	363	363	366	368	371	370	369	368	368	368	369	368	368	367	361	358	360	363	365	368	371	369	368	371	370	370	369	370	369	369	372	372	371	369	368	366	367	365	363	364	363	364	364	364	364	364	365	367	368	369	365	368	371	372	377	377	374	371	369	367	369	372	372	371	368	365	364	365	365	369	374	373	370	369	368	368	368	370	373	372	372	371	373	373	376	376	375	375	376	379	379	377	375	371	370	368	367	366	366	376	369	369	370	373	373	375	375	375	375	376	375	371	372	369	370	371	372	372	0	0	0	0	0	0	0
388	394	395	395	395	395	397	395	392	391	391	391	392	394	396	400	392	388	386	388	389	391	391	392	391	392	390	390	388	388	385	387	388	389	391	390	390	389	390	389	388	385	382	382	384	384	387	391	389	390	388	385	382	383	384	384	381	380	382	384	390	394	393	391	392	390	386	386	386	388	390	392	394	395	391	390	389	390	391	380	384	384	385	384	386	389	391	390	387	387	385	383	382	382	379	384	385	386	383	380	378	379	383	385	385	385	385	385	388	390	383	384	384	383	382	383	386	386	383	381	376	378	381	382	380	377	377	380	380	378	375	377	381	385	383	382	381	378	378	377	377	375	375	375	372	372	373	373	377	378	378	377	378	377	377	378	374	374	374	373	375	383	381	377	372	372	372	378	377	375	370	367	371	372	371	371	371	377	380	381	382	380	375	370	368	368	373	374	375	372	365	363	364	372	371	372	372	373	370	368	370	373	373	372	371	372	374	378	380	379	377	375	374	374	375	369	374	378	381	378	377	374	375	375	373	370	370	369	372	375	375	369	363	365	367	367	368	370	369	373	375	374	368	364	380	373	371	373	371	368	366	366	366	369	368	363	365	367	368	367	368	371	372	374	373	373	369	369	368	369	366	371	373	373	376	373	367	366	368	369	369	367	366	366	365	364	362	365	366	367	367	363	365	367	369	367	361	356	360	361	366	368	367	364	363	364	365	369	369	368	370	371	369	365	365	366	368	370	371	367	365	366	367	367	371	368	366	370	375	374	374	377	374	373	370	367	366	366	368	370	371	370	369	371	373	369	376	375	370	362	362	364	363	365	365	364	363	367	370	370	371	373	371	371	368	366	365	366	371	369	369	363	367	369	367	363	362	367	367	363	365	368	375	372	368	365	365	364	362	361	363	363	358	355	355	362	364	363	362	362	368	368	368	367	370	370	371	370	368	367	367	369	368	370	368	370	372	374	370	370	366	365	365	361	363	366	370	369	370	368	368	368	368	371	371	359	360	360	362	362	362	360	359	359	358	359	359	359	361	364	363	361	359	360	359	360	360	359	356	356	362	363	360	357	355	360	361	361	360	358	358	360	358	360	362	363	363	363	366	364	372	369	369	368	359	362	365	366	362	364	369	370	369	367	369	371	371	370	363	362	362	358	355	362	362	367	367	365	362	362	361	363	366	368	365	366	368	368	368	364	365	364	362	357	362	369	371	362	361	359	355	353	356	356	360	362	361	359	364	366	365	365	367	366	365	367	369	368	366	361	358	357	356	357	359	362	363	362	361	364	366	365	364	364	362	362	362	367	369	374	377	375	371	365	361	363	366	370	371	369	363	361	361	362	367	372	372	370	368	368	367	367	367	366	366	365	362	364	365	366	367	367	366	367	369	373	372	369	365	362	357	357	356	357	360	366	364	365	365	368	373	372	372	372	371	371	370	370	371	371	373	370	370	0	0	0	0	0	0	0
381	386	390	391	391	391	392	387	383	383	384	384	386	388	392	392	383	381	383	384	385	387	389	389	383	382	383	386	386	386	387	389	388	386	384	384	381	381	381	384	384	382	379	380	381	381	383	387	385	386	384	380	378	379	380	380	375	379	381	384	391	392	391	388	383	384	383	383	383	384	386	381	382	393	392	390	388	378	378	378	377	377	376	379	381	386	387	385	382	382	380	379	377	376	373	370	370	373	376	376	375	382	386	386	385	384	380	381	380	378	378	378	379	376	374	373	371	373	378	376	375	378	378	378	376	374	374	377	377	377	370	370	373	376	379	380	378	376	374	370	371	372	372	372	373	373	371	370	368	368	369	371	374	373	364	365	365	367	370	369	370	374	381	377	372	368	367	372	370	369	367	369	370	370	369	371	372	374	374	378	378	377	369	366	365	363	371	374	371	367	359	357	357	359	361	369	370	370	370	366	366	365	369	370	370	370	370	366	370	374	373	370	367	367	368	367	369	373	374	373	371	370	369	368	366	367	367	365	364	360	362	363	364	363	363	365	363	363	363	362	359	359	359	361	365	370	373	371	367	363	363	362	363	365	365	362	363	363	364	364	365	367	369	367	365	366	362	366	365	362	365	361	362	367	367	364	363	364	364	365	364	366	365	365	365	362	361	363	362	362	361	358	363	367	367	365	360	357	353	354	363	365	363	359	359	361	363	366	367	363	361	365	364	360	362	360	360	367	365	362	360	360	365	366	366	363	364	365	367	371	370	369	368	368	366	362	362	363	364	367	368	367	367	369	369	374	363	361	360	358	362	360	363	364	363	361	360	362	364	366	368	371	371	364	358	354	353	356	360	359	359	360	360	362	363	362	354	355	363	359	358	363	363	362	360	362	362	361	362	354	354	353	351	349	353	360	363	365	364	364	356	356	357	364	365	365	360	361	365	365	365	367	366	366	366	366	368	366	365	365	364	360	361	361	362	362	362	362	367	365	366	365	366	361	356	354	351	353	356	359	361	360	358	354	355	352	351	350	354	358	359	355	354	355	357	357	358	357	356	358	361	363	357	355	352	354	354	358	356	356	356	357	357	358	357	358	357	358	361	364	363	355	355	354	356	359	361	361	358	360	363	364	363	359	356	353	352	352	353	353	353	353	354	352	352	353	363	360	354	351	345	350	356	359	357	351	360	361	363	357	357	352	349	350	354	359	362	361	359	358	354	353	353	355	356	356	352	352	354	357	359	361	363	363	361	360	362	362	359	358	358	358	358	357	359	362	361	359	359	359	361	361	362	359	359	359	359	361	359	365	368	368	365	362	361	364	364	367	369	369	362	356	354	353	350	352	355	361	366	366	365	363	358	358	362	364	361	361	361	362	362	362	360	359	355	357	360	356	352	352	352	354	355	354	356	357	359	359	359	358	360	359	364	364	365	360	366	367	370	373	373	373	367	0	0	0	0	0	0	0
380	380	384	387	389	386	386	382	379	379	378	378	379	382	385	383	378	378	381	381	382	376	375	375	371	375	376	379	383	383	387	388	387	383	381	375	374	374	375	376	377	379	375	377	378	378	379	382	381	383	382	379	377	376	372	372	372	376	381	386	390	390	379	369	369	369	371	379	379	380	369	370	373	378	377	375	370	371	373	374	374	374	375	377	381	381	378	381	378	376	376	373	371	369	365	365	366	370	371	372	381	379	378	374	361	370	374	375	375	373	373	373	364	362	364	367	367	367	368	372	373	374	374	372	370	367	367	367	370	368	367	367	370	372	369	371	375	373	370	367	366	367	367	369	370	371	371	364	362	362	356	356	359	361	354	356	358	365	368	367	367	370	372	371	364	361	361	363	355	361	364	364	364	365	366	367	366	362	359	366	371	371	364	361	359	360	368	372	368	365	354	349	349	353	358	366	367	366	367	364	362	362	363	366	368	364	365	359	355	364	363	363	362	362	365	367	364	364	368	369	369	367	367	363	362	360	357	360	359	360	362	362	362	361	360	360	361	358	357	357	355	352	355	356	358	361	364	364	363	362	360	362	362	361	358	360	360	360	361	361	361	361	363	361	355	356	356	360	360	357	357	354	358	360	361	358	362	360	360	361	361	363	366	365	365	361	360	360	359	358	355	357	361	364	363	361	356	353	351	353	354	359	358	356	352	352	355	356	356	357	353	352	354	355	358	358	358	356	355	353	354	354	355	356	355	358	358	360	356	356	360	364	361	360	359	353	351	357	360	363	361	362	364	362	363	362	363	359	356	360	363	363	361	361	361	358	346	349	354	355	360	357	358	358	356	353	350	352	355	357	353	355	356	358	350	352	352	351	349	349	352	360	360	360	355	356	359	360	354	353	348	353	348	348	351	357	358	359	357	355	352	353	351	348	353	354	353	358	359	361	364	365	365	363	360	361	365	362	358	354	355	357	359	360	361	362	363	364	364	358	355	356	355	354	354	351	350	350	350	354	359	359	357	352	350	348	348	347	349	349	355	357	353	354	355	356	355	356	357	359	358	354	353	358	360	354	353	357	357	356	355	354	356	356	357	358	358	360	361	356	359	362	359	358	362	362	361	355	354	354	356	361	361	359	357	354	352	347	346	347	352	352	345	343	347	351	353	356	354	344	339	339	342	347	348	345	343	347	351	354	351	352	349	347	348	350	350	357	357	355	355	352	354	354	351	351	351	351	351	350	351	356	357	355	352	351	354	356	356	356	357	358	358	358	359	361	361	358	355	356	357	358	358	358	357	356	356	354	352	354	356	356	353	355	354	354	357	363	362	359	353	348	346	347	350	353	353	354	358	359	357	355	355	355	359	362	360	358	357	354	354	354	356	354	352	350	347	348	348	349	351	353	353	352	353	355	354	357	357	355	357	355	352	351	354	357	360	362	362	363	359	359	359	0	0	0	0	0	0	0
371	371	375	377	380	382	382	382	378	377	375	375	375	376	376	376	375	375	379	380	375	367	365	365	366	366	370	372	380	384	384	387	385	375	370	370	371	371	371	370	372	374	370	373	377	376	376	378	380	380	380	376	374	374	373	373	373	374	378	380	381	377	373	369	369	369	366	366	364	364	366	367	369	371	373	367	364	364	364	368	367	368	371	373	366	365	365	365	367	367	367	365	360	358	359	362	364	364	361	365	368	369	367	361	360	359	360	361	360	361	362	361	362	360	363	365	365	365	363	362	365	370	369	367	360	361	363	362	364	365	364	366	366	364	364	362	363	364	362	363	365	363	363	365	362	363	366	364	357	356	356	353	357	356	357	359	363	363	366	366	366	369	369	355	350	347	347	348	352	356	359	359	360	361	362	365	361	355	354	355	362	361	357	355	355	357	360	367	366	362	357	345	346	351	359	363	359	355	349	349	350	357	356	356	357	360	361	359	352	352	355	357	360	360	363	361	360	361	363	359	359	362	363	362	363	362	353	358	361	362	356	357	357	356	354	353	355	353	353	352	349	350	353	353	354	357	362	362	362	362	360	358	358	358	355	354	351	351	352	357	358	358	356	353	351	351	353	357	355	353	350	352	351	355	356	353	352	350	356	356	349	351	361	366	362	357	357	357	357	354	356	356	356	357	356	352	351	351	351	351	351	352	353	351	348	346	347	349	351	351	352	350	351	352	354	356	353	354	353	352	351	353	354	356	355	351	337	344	343	349	351	352	352	352	352	349	348	347	347	346	347	348	352	353	353	354	355	354	355	353	350	347	346	349	346	344	344	342	349	351	352	353	354	355	352	346	344	349	352	353	354	354	347	342	342	343	349	349	348	348	349	351	357	356	351	349	350	351	351	346	349	350	348	346	350	351	353	354	353	352	349	347	348	347	348	348	354	357	356	355	355	359	360	358	358	358	358	356	351	350	351	354	357	359	360	362	363	363	353	350	346	348	351	354	351	350	349	347	346	348	351	357	350	347	345	347	347	346	347	349	349	354	354	350	343	344	345	346	348	349	349	353	354	356	356	354	352	352	351	353	353	351	352	352	354	357	352	349	349	350	353	355	355	356	356	360	356	352	349	351	354	357	358	357	353	351	345	344	342	342	344	343	338	339	346	348	352	352	351	348	342	339	341	346	344	342	343	342	343	348	349	350	348	346	343	343	343	345	341	342	345	349	350	350	347	347	346	341	345	345	344	347	350	348	348	348	349	353	355	355	355	357	354	352	349	358	359	351	350	352	351	350	348	344	349	352	353	352	350	349	350	350	350	350	349	347	348	353	357	355	350	345	343	345	347	348	349	351	350	349	350	353	353	353	356	357	358	355	350	349	348	350	353	351	350	347	345	344	342	346	350	351	350	349	350	351	351	351	353	351	351	350	347	343	345	353	356	357	358	356	353	353	352	0	0	0	0	0	0	0
365	365	369	370	376	378	378	378	378	376	373	371	371	369	368	371	375	371	373	371	368	364	360	360	360	363	363	367	375	380	380	380	377	370	368	367	369	369	367	367	366	368	367	367	372	374	374	374	374	374	372	371	373	370	367	361	361	359	362	366	370	373	370	368	367	365	361	363	364	364	365	366	366	368	364	363	363	363	359	359	362	362	363	364	364	362	362	359	354	354	356	356	356	356	358	359	363	363	361	362	355	360	363	362	358	363	365	364	363	362	363	362	362	363	364	365	364	362	362	360	361	363	365	363	358	359	359	357	354	356	359	361	361	361	360	358	355	354	355	354	359	359	357	353	357	357	360	357	354	351	354	355	353	351	351	360	360	357	355	360	364	363	357	352	347	345	342	342	345	348	353	353	350	354	357	357	355	353	352	352	354	355	351	352	352	353	356	359	361	359	353	349	348	351	357	356	351	348	347	345	343	345	350	351	352	354	355	352	347	348	350	355	357	358	357	358	358	357	348	347	349	352	353	356	358	356	356	353	351	349	349	349	352	351	350	350	350	353	347	347	348	352	352	351	350	354	360	360	360	360	359	356	353	351	354	351	351	350	351	356	358	355	354	351	347	346	342	345	348	348	348	347	347	348	350	348	347	345	340	340	341	340	346	355	354	353	355	354	352	343	347	355	354	351	348	347	347	349	349	346	348	351	350	348	344	342	343	343	344	344	345	345	348	349	351	352	351	352	351	352	350	351	353	352	351	348	342	341	341	342	343	343	345	349	349	348	345	346	346	344	343	343	344	347	349	351	355	357	353	350	346	343	341	341	342	341	341	342	347	349	349	348	348	348	346	341	341	340	344	350	351	341	337	336	337	339	342	347	348	347	348	349	353	352	348	347	343	343	342	342	344	345	346	344	345	347	348	341	345	349	348	347	346	346	347	348	351	349	351	352	348	351	351	353	355	356	356	352	345	339	346	345	343	348	349	354	349	350	350	347	346	346	343	350	350	351	349	350	344	340	337	342	342	342	346	347	345	346	346	347	348	347	349	341	341	342	343	339	338	339	344	345	343	346	347	353	352	351	349	350	348	346	346	342	342	344	346	348	347	348	349	350	352	354	354	355	346	342	340	343	347	351	352	352	350	342	340	341	341	338	340	340	339	340	343	346	350	347	346	347	342	338	337	336	340	343	341	340	339	341	346	347	347	343	339	339	337	333	338	341	344	348	347	345	342	339	336	339	341	339	339	341	344	344	345	344	346	348	354	355	354	353	347	341	341	342	342	345	345	346	344	343	337	340	343	348	349	349	348	346	347	347	347	347	346	345	347	352	352	351	347	345	343	341	345	348	347	349	348	349	345	345	338	338	341	355	355	352	347	345	345	348	346	350	347	343	344	345	347	346	348	346	345	342	342	344	344	344	343	344	339	339	340	340	340	343	346	347	347	347	347	344	343	0	0	0	0	0	0	0
362	362	366	370	370	371	371	374	374	375	371	366	366	363	363	365	371	363	364	361	360	359	358	355	355	355	357	365	367	368	368	369	370	369	367	366	364	365	365	365	366	367	366	363	362	359	359	358	361	363	366	368	364	357	356	357	357	359	362	364	362	361	362	360	358	358	359	362	363	363	363	364	364	362	361	362	361	356	357	357	358	358	359	361	362	361	360	357	353	347	350	353	353	353	355	356	355	361	361	359	354	360	363	360	353	360	363	363	362	362	362	362	362	362	364	364	361	360	357	357	358	358	360	359	357	361	360	358	355	349	355	358	359	357	356	355	353	353	350	353	354	354	351	351	352	356	356	351	352	351	353	352	352	352	351	355	356	354	352	352	351	353	351	348	346	344	342	339	338	340	343	346	344	346	353	354	353	352	352	352	350	351	352	346	341	342	345	350	349	346	345	350	349	348	346	345	342	344	345	345	343	341	344	345	348	348	350	347	347	346	346	349	354	355	354	345	341	341	344	346	348	346	346	347	348	350	345	343	342	341	340	340	345	346	346	346	348	350	348	342	348	351	353	351	350	350	354	357	359	358	354	343	345	351	350	349	352	349	347	346	348	350	350	344	337	339	340	342	346	341	339	340	345	342	343	339	341	335	338	339	340	339	338	342	339	338	339	340	340	341	343	347	350	350	345	345	339	343	346	348	346	347	346	345	343	340	334	334	334	339	341	341	342	345	347	345	344	345	347	351	348	350	350	348	345	344	343	343	343	341	340	338	338	340	340	341	343	344	346	345	341	340	340	341	339	342	341	337	330	335	341	340	339	338	337	341	339	341	342	345	346	345	343	344	344	341	339	336	337	337	337	336	334	335	335	336	339	343	346	346	346	347	349	347	345	342	340	337	338	339	339	340	340	337	338	336	336	340	343	343	347	342	342	343	345	346	347	345	343	344	345	343	348	348	351	352	350	344	341	335	336	340	343	337	338	338	338	340	340	342	344	344	344	346	348	349	347	341	337	337	334	338	338	341	341	342	341	341	341	343	343	343	341	341	340	342	340	337	336	336	334	335	339	344	347	351	343	343	346	349	344	342	343	339	341	342	344	346	345	344	344	345	343	347	347	349	340	339	343	343	343	346	347	344	344	338	338	336	337	338	343	340	339	341	341	342	347	344	344	339	338	337	336	336	341	340	340	339	342	340	340	344	344	340	338	338	335	333	330	334	339	342	340	339	340	336	330	325	334	333	333	338	340	340	342	338	332	339	343	348	346	343	339	338	340	340	340	340	342	342	342	340	336	337	338	343	344	345	345	344	342	343	343	345	344	344	347	350	350	349	346	344	342	341	341	343	346	348	345	340	340	337	336	336	336	339	342	348	346	343	340	338	338	339	339	333	335	338	337	339	338	338	336	335	337	341	341	342	344	339	335	337	337	337	339	343	344	343	341	338	338	337	341	0	0	0	0	0	0	0
