461	458	455	451	451	449	451	451	450	450	451	449	451	457	461	461	460	462	465	465	468	469	469	468	466	461	458	456	456	456	461	462	461	456	452	454	454	454	454	459	463	465	467	467	467	467	467	465	464	467	470	471	471	473	474	471	470	470	465	462	461	460	462	462	465	467	464	468	470	473	473	466	461	459	463	463	467	468	469	467	464	462	463	464	465	468	468	471	468	457	456	457	461	461	458	456	457	461	464	465	462	462	462	459	462	466	465	462	459	455	457	462	465	462	457	452	449	451	456	460	463	461	460	458	458	457	456	463	469	469	467	467	467	467	467	464	463	461	461	462	459	460	462	466	466	467	465	464	466	470	468	465	464	465	466	469	470	471	474	473	470	468	467	466	465	472	475	475	478	476	474	474	475	472	467	466	467	468	471	473	474	468	463	453	448	449	456	467	468	463	462	466	470	473	473	475	469	464	464	462	463	465	468	467	468	467	466	466	465	463	459	456	457	462	461	462	469	466	469	463	462	468	471	472	469	470	467	463	457	454	459	462	464	467	470	473	477	482	477	479	480	479	478	471	470	469	469	479	477	465	463	462	463	462	467	477	479	475	473	470	471	469	470	471	475	475	472	470	467	467	468	466	466	466	472	474	476	476	472	460	458	460	459	457	454	452	454	456	466	472	479	476	472	471	469	468	470	469	467	466	471	475	476	480	480	480	478	475	470	467	470	476	478	477	474	474	476	476	482	484	483	479	474	469	464	466	472	474	477	476	476	474	480	479	480	478	474	474	472	474	476	473	473	473	476	477	475	469	467	471	474	475	473	474	471	468	466	467	471	475	478	477	466	469	471	474	470	473	472	472	470	467	469	471	472	465	475	487	487	488	480	477	472	465	458	450	451	456	467	469	466	466	468	466	465	468	467	467	468	471	473	476	470	467	463	463	464	465	465	466	467	470	472	469	466	467	468	472	474	476	468	467	463	461	462	465	470	473	477	476	472	479	479	482	487	486	482	475	464	467	471	480	481	478	470	461	464	474	479	481	481	482	485	483	480	475	481	486	473	478	480	480	487	490	491	488	481	476	474	472	467	466	467	472	476	476	474	473	470	472	474	477	489	492	492	487	482	477	472	474	474	474	475	480	479	480	481	477	475	472	472	473	479	478	473	472	471	474	475	475	475	475	478	477	481	482	482	483	485	486	481	476	473	479	485	488	486	484	481	476	470	470	470	470	470	474	476	477	469	470	470	470	471	472	475	478	479	478	475	476	478	478	480	478	477	474	475	471	468	467	466	466	470	472	472	477	480	483	487	488	486	482	478	480	479	479	476	477	478	478	476	476	477	481	480	478	479	482	490	489	480	475	476	481	486	487	488	486	484	481	477	475	478	478	476	481	477	477	482	482	478	495	491	489	492	491	491	495	499	502	501	496	492	497	501	497	497	502	504	504	509	509	0	0	0	0	0	0	0	0
451	449	447	445	445	443	443	442	439	438	438	442	444	450	451	451	453	455	451	456	458	457	457	456	456	456	455	452	453	453	454	453	451	447	446	450	454	454	459	461	466	465	464	462	462	462	462	462	462	463	464	464	462	465	464	465	462	459	459	455	453	451	450	449	451	454	461	467	467	463	454	450	448	451	455	455	459	465	464	460	454	451	455	457	449	453	456	456	452	451	451	450	451	453	450	451	453	453	452	451	447	450	453	454	457	458	459	458	458	453	457	458	455	453	450	446	447	450	456	457	453	443	439	445	449	448	443	446	454	462	461	458	456	455	455	456	455	456	457	459	460	460	459	459	459	458	462	460	461	458	459	458	460	462	463	461	464	467	469	468	466	464	462	459	458	458	464	466	466	467	468	472	468	461	462	464	469	469	469	472	471	464	457	448	445	442	440	443	446	450	453	455	460	462	465	469	472	469	464	460	460	462	464	461	457	453	451	453	453	449	449	450	451	455	456	459	460	451	448	445	446	453	460	463	462	460	460	458	453	452	454	456	455	455	450	449	453	460	465	467	468	472	471	470	469	465	465	464	466	465	453	450	453	460	463	460	457	461	467	466	466	464	465	459	460	463	463	463	459	461	461	459	460	458	463	467	468	465	457	452	453	454	454	450	445	446	448	451	454	460	471	463	460	459	456	453	454	458	462	463	461	461	471	474	475	474	472	465	463	461	460	459	460	466	471	473	475	473	474	477	476	474	470	464	459	460	463	466	469	470	466	467	468	467	474	464	461	460	464	467	469	470	469	465	459	458	457	453	450	452	458	465	470	471	466	461	467	468	466	466	466	466	466	463	466	466	462	460	465	464	462	461	464	464	461	461	460	474	461	466	472	475	471	464	457	452	454	456	461	464	459	458	457	463	455	458	463	465	466	467	465	465	461	458	456	458	459	460	459	462	460	465	468	468	465	463	462	460	465	469	469	466	461	460	460	461	464	465	469	471	470	467	464	463	471	472	471	470	468	468	468	468	467	466	463	460	455	455	470	473	476	478	481	478	471	466	462	465	460	458	459	462	466	470	483	484	472	469	468	468	467	464	466	470	471	468	465	462	465	469	471	474	481	483	481	477	472	468	468	471	471	470	469	470	472	474	468	462	462	466	470	474	476	474	470	470	469	471	472	471	469	468	464	468	474	476	477	476	482	484	480	474	470	472	475	480	464	466	469	469	466	465	464	460	459	466	465	467	461	463	466	466	466	463	464	469	472	471	466	466	468	470	469	469	470	468	468	471	469	465	461	462	466	466	466	472	470	470	473	475	476	474	472	468	467	469	466	469	471	470	469	469	470	469	467	468	472	476	475	472	468	464	468	476	476	479	480	477	473	466	463	463	466	466	467	466	469	471	473	474	474	473	474	476	483	484	484	483	481	481	481	483	485	484	484	484	484	482	492	492	503	504	0	0	0	0	0	0	0	0
445	445	445	442	442	439	436	434	434	435	435	438	443	446	440	441	441	445	443	447	449	447	447	446	445	445	445	445	445	445	443	440	440	441	445	449	450	450	453	455	455	456	453	449	453	455	455	457	459	456	450	447	451	455	459	462	459	456	456	454	452	450	448	446	447	451	456	464	461	454	449	446	443	442	448	448	455	459	458	452	443	444	443	443	446	449	452	452	447	442	439	443	444	442	443	446	449	449	449	447	445	445	448	449	450	451	453	455	456	456	456	451	446	446	445	444	444	445	446	442	440	437	439	443	444	442	438	441	443	448	453	450	449	451	452	453	452	451	451	452	456	457	458	456	450	453	455	456	451	443	441	440	456	459	460	458	459	461	463	462	460	459	458	455	452	454	449	445	441	439	443	448	455	456	457	460	466	468	466	465	464	464	452	447	442	439	441	442	444	445	445	447	449	452	453	450	449	457	454	449	449	453	455	455	452	448	448	447	447	443	446	444	446	452	453	456	454	448	442	442	447	454	459	463	462	463	458	455	450	450	447	452	449	448	447	448	451	455	457	454	453	461	461	462	462	462	461	455	450	446	446	447	449	454	456	449	447	450	460	464	467	467	462	452	454	456	456	458	456	452	452	454	453	449	450	456	459	455	451	447	448	448	447	446	444	445	446	448	448	452	454	456	452	446	443	444	446	450	452	458	463	465	456	453	451	459	461	459	460	458	457	455	455	459	467	470	470	472	475	472	465	456	452	452	457	459	463	466	466	460	461	462	462	460	456	447	444	449	451	453	454	457	460	460	458	457	454	451	445	445	453	460	463	463	459	456	456	455	455	460	460	461	458	454	452	450	449	449	454	457	457	456	457	457	455	447	446	446	452	459	468	471	470	465	452	454	458	459	456	456	455	453	450	450	452	453	456	459	459	459	461	458	455	450	449	450	456	454	457	458	460	462	468	468	463	458	454	454	459	462	463	461	458	455	456	458	457	459	458	463	466	465	461	458	456	460	460	456	456	459	461	456	456	459	456	454	455	457	464	465	463	464	466	462	458	458	458	459	456	453	449	445	447	449	455	459	461	463	464	465	465	467	467	466	465	463	457	458	460	462	466	469	470	470	464	457	451	457	464	467	466	467	463	458	456	457	457	455	460	469	474	472	466	460	459	463	470	472	470	469	466	463	458	457	461	466	470	470	478	479	475	465	462	456	457	462	464	464	464	464	463	461	458	457	456	449	444	456	459	458	456	456	462	461	460	462	467	465	464	463	464	461	459	460	463	461	463	466	464	459	456	459	466	467	468	468	468	463	457	458	461	463	465	468	470	466	463	464	463	462	460	460	462	464	464	465	470	472	472	466	459	456	454	457	456	460	469	467	451	449	455	458	461	461	460	457	460	462	466	469	469	472	469	471	473	474	471	474	472	471	468	467	467	466	466	463	464	466	470	470	468	471	0	0	0	0	0	0	0	0
442	442	443	440	440	434	431	431	430	432	432	434	437	436	433	434	434	439	436	439	440	439	439	439	438	437	439	437	437	437	435	438	439	439	440	441	445	445	447	447	446	442	436	438	441	446	446	440	438	436	438	441	445	451	457	460	460	454	454	450	448	448	446	445	445	448	456	454	444	443	444	442	441	440	440	440	441	442	443	442	442	441	441	440	443	443	440	439	441	441	441	441	438	436	436	437	438	442	448	451	452	448	440	435	435	443	446	447	447	445	439	437	439	435	436	437	435	435	437	436	438	437	438	442	443	439	434	435	438	437	443	444	445	446	446	446	445	441	440	441	447	449	447	440	442	448	450	448	446	446	442	439	438	440	446	447	453	455	456	452	452	452	452	451	447	443	442	440	437	437	439	442	445	450	453	456	459	460	459	457	458	454	446	441	437	439	440	441	444	442	439	439	441	442	438	440	446	453	451	445	443	447	451	450	448	444	443	441	439	439	439	440	440	444	450	448	443	440	439	441	444	446	454	458	460	459	455	448	450	447	446	445	449	449	450	451	451	447	445	442	444	450	456	457	456	454	452	449	443	439	436	437	442	443	447	447	442	442	443	446	448	451	451	450	447	446	449	449	448	447	449	450	450	448	447	450	454	452	445	439	437	437	440	442	443	446	447	444	444	449	451	451	445	442	443	442	441	443	440	442	449	445	445	445	445	442	438	437	451	454	453	450	449	456	461	462	457	454	452	456	451	448	445	442	447	454	460	461	457	453	455	457	456	452	444	442	440	442	446	449	452	454	457	457	455	453	449	447	446	446	447	454	457	458	449	448	448	448	446	451	451	452	452	450	446	446	447	446	448	451	453	451	440	440	443	444	444	443	445	454	461	466	466	449	438	445	452	452	450	447	447	446	447	446	446	449	453	455	454	454	457	455	451	450	447	449	450	453	454	452	456	460	465	464	461	452	448	445	450	455	457	455	452	452	453	452	453	453	456	457	459	455	454	453	448	444	443	446	444	448	448	448	448	447	454	453	453	455	465	468	467	465	454	455	456	454	451	451	452	454	452	448	443	444	446	455	458	461	459	459	458	457	460	456	456	454	450	451	452	454	458	463	459	466	463	453	450	447	451	460	462	457	452	448	445	447	452	452	458	459	459	462	464	463	461	460	458	456	457	463	458	455	446	444	445	452	460	465	453	452	463	463	458	453	451	455	454	456	458	457	457	458	455	454	452	444	441	444	451	456	454	452	456	458	462	462	458	456	456	458	457	456	452	450	450	451	456	459	454	459	460	459	462	466	467	458	454	452	447	442	443	448	457	461	465	464	460	457	454	454	453	458	460	455	451	450	453	457	461	464	456	451	449	449	449	451	455	455	453	450	452	456	457	459	457	457	455	453	453	456	456	462	466	468	469	467	464	461	459	460	464	464	464	461	459	457	453	453	453	455	461	463	0	0	0	0	0	0	0	0
434	435	435	433	431	431	425	422	425	428	428	431	432	433	431	431	431	433	429	432	432	432	432	430	431	431	431	430	429	429	429	433	436	436	434	433	433	433	435	435	432	425	423	426	427	428	426	426	425	424	428	434	436	434	434	435	436	436	436	436	437	436	437	441	444	450	451	438	436	436	438	439	437	437	437	440	440	442	443	441	438	436	437	436	441	440	438	436	435	437	440	438	435	432	428	429	432	437	444	447	448	446	439	432	430	430	434	441	439	433	431	429	429	427	427	427	427	428	430	434	434	436	437	438	436	435	431	429	430	430	432	436	441	440	435	433	434	434	432	431	433	434	434	428	430	436	436	435	433	435	431	431	433	435	436	436	434	430	428	429	433	442	443	439	439	438	440	440	439	438	436	436	437	438	449	452	454	453	452	453	447	444	435	433	435	434	433	433	439	439	434	433	435	433	431	435	442	449	448	442	442	440	439	442	441	441	439	437	433	433	434	431	431	432	442	442	441	437	435	437	438	440	442	443	439	435	433	434	435	434	441	439	442	448	451	453	448	442	437	435	435	442	450	450	450	448	444	442	437	430	428	426	429	434	438	445	442	439	439	439	441	444	445	444	441	438	438	441	444	443	444	443	444	441	443	445	449	446	439	436	436	436	434	430	429	428	433	432	435	439	443	443	436	431	435	432	428	429	430	432	438	440	441	443	442	439	436	437	439	441	436	436	435	435	437	439	441	433	432	438	442	442	443	441	445	449	447	445	443	443	446	447	440	437	439	440	440	440	442	445	448	446	440	436	437	445	446	443	444	444	444	446	450	444	440	438	435	439	438	438	442	444	446	446	444	443	443	441	441	436	437	436	436	437	437	438	439	439	442	446	454	452	441	429	432	438	440	442	443	445	445	445	446	445	443	443	448	452	453	452	453	450	446	440	434	435	435	439	442	439	440	453	457	436	451	446	442	441	442	445	450	451	449	448	446	441	444	447	447	448	449	450	450	449	441	440	440	441	444	447	447	445	443	441	444	450	454	458	458	455	438	437	441	449	448	445	442	446	451	453	452	448	445	446	449	451	455	454	454	453	446	443	444	453	457	455	450	447	448	450	453	457	460	450	450	449	452	448	446	447	447	443	443	446	447	448	450	453	456	456	456	457	463	465	463	457	452	448	444	443	445	444	442	441	438	440	440	438	438	440	448	449	453	449	446	444	445	446	449	449	450	451	447	449	446	440	439	441	447	454	454	454	452	451	451	446	434	437	444	447	447	446	446	444	440	437	441	447	450	452	453	456	459	460	459	450	448	447	445	441	439	442	448	453	456	456	452	451	449	450	453	456	455	451	447	444	444	443	441	440	439	437	441	444	447	449	450	450	450	452	451	451	451	452	454	453	453	451	450	453	453	459	462	463	461	456	452	448	449	450	453	457	461	457	456	455	456	459	459	460	458	457	0	0	0	0	0	0	0	0
416	417	419	415	414	414	412	414	420	424	424	428	431	432	431	430	430	422	423	427	428	428	428	425	424	422	421	420	422	422	423	427	430	430	429	429	429	429	430	427	423	419	417	413	419	421	422	422	422	423	423	426	428	428	427	429	430	431	431	430	429	430	430	428	426	427	428	427	428	430	431	427	427	429	430	433	433	432	435	432	429	429	431	433	438	438	437	433	430	432	435	436	430	423	422	422	424	426	430	437	444	441	436	433	428	426	424	420	418	421	423	423	414	414	416	420	422	426	429	432	433	434	430	429	430	430	429	425	425	427	427	422	422	421	422	426	426	428	426	426	423	425	425	419	420	424	428	427	424	423	423	422	427	433	433	434	430	426	425	427	433	434	431	425	426	433	436	439	442	441	436	433	432	435	439	440	434	431	437	439	431	428	424	421	422	424	420	417	418	419	424	429	432	431	427	429	440	442	435	433	437	438	437	431	431	436	433	430	427	430	431	430	430	431	433	431	433	432	431	430	434	434	433	433	433	430	429	430	432	431	428	426	431	440	445	446	444	436	430	428	431	436	442	445	444	441	438	435	432	430	426	425	425	427	431	436	439	435	433	432	434	434	435	437	434	431	432	437	440	439	436	431	425	435	438	444	446	438	435	428	426	429	426	418	415	413	412	420	428	430	428	425	429	426	432	431	426	428	430	434	436	436	437	435	433	428	431	435	434	432	430	427	428	428	429	433	434	430	429	429	433	435	438	442	446	447	442	439	438	437	435	434	432	435	438	439	437	437	440	443	441	436	433	431	432	435	440	441	440	441	443	442	441	438	435	431	428	429	431	432	435	438	441	442	442	433	432	433	433	431	431	432	432	432	435	436	438	438	436	437	437	435	429	426	426	430	433	432	436	441	442	444	443	438	436	436	440	444	449	448	443	440	439	438	439	442	438	435	435	434	433	434	432	432	433	436	440	437	438	438	443	446	449	448	439	438	441	443	444	445	446	446	438	437	439	439	439	441	443	445	443	442	442	443	443	447	449	446	438	435	431	432	432	433	431	432	436	442	447	448	446	442	439	441	444	441	438	441	444	445	440	438	440	445	449	449	445	445	447	449	450	449	444	438	438	443	443	444	448	443	442	440	442	445	449	451	453	452	450	448	449	451	458	460	459	448	446	445	444	443	432	432	433	438	440	438	438	436	432	431	438	444	445	441	439	436	438	439	441	439	432	424	421	439	440	434	435	441	443	448	451	452	447	442	435	431	429	432	435	438	443	444	442	439	435	434	436	442	447	447	443	439	441	445	449	447	446	444	443	441	440	438	438	438	443	446	443	445	447	450	452	450	449	446	441	439	437	434	430	430	433	435	435	439	442	445	445	447	447	446	445	446	443	444	446	450	450	448	449	449	451	451	454	454	453	450	447	445	446	447	449	449	452	452	457	457	459	458	458	457	455	451	0	0	0	0	0	0	0	0
407	411	412	409	407	407	405	409	418	422	422	425	431	432	428	425	425	414	417	420	421	421	419	419	416	415	413	413	414	418	418	420	421	419	415	418	423	427	427	426	420	413	410	411	415	419	420	420	422	422	423	423	423	423	422	423	425	425	426	426	425	421	420	421	424	425	425	423	423	419	413	413	418	422	424	426	426	425	423	423	425	425	427	430	433	430	430	426	426	428	430	427	422	417	417	418	418	417	417	419	425	428	426	423	423	421	418	418	417	417	417	414	410	409	410	413	413	414	421	420	427	426	424	425	428	431	428	423	424	426	426	422	415	411	411	415	417	417	417	417	417	413	412	412	415	416	417	415	415	419	419	420	420	421	423	425	422	416	417	420	426	429	426	422	420	421	421	422	426	423	420	416	417	420	425	425	425	424	421	418	416	423	430	428	426	422	419	416	409	413	421	429	433	431	429	432	430	423	425	431	432	434	435	434	429	429	423	421	428	431	431	431	429	430	425	421	422	422	423	424	422	429	427	428	428	427	425	427	428	426	426	426	428	432	434	429	424	420	418	419	426	434	439	436	431	430	430	430	430	429	427	422	420	424	427	430	430	429	425	425	426	427	428	421	423	424	428	432	427	427	423	422	421	433	435	438	440	436	433	429	428	427	421	412	420	412	411	410	417	418	420	424	425	426	429	428	426	428	429	429	429	427	432	422	419	418	418	425	426	425	424	423	423	425	427	429	429	427	424	428	428	430	434	438	439	436	428	424	426	429	431	427	428	429	429	431	431	432	434	435	432	430	431	429	429	433	433	430	427	432	437	435	434	431	430	427	426	428	428	429	432	432	426	423	423	426	432	431	431	428	427	428	428	428	433	436	431	430	429	427	428	426	423	422	422	422	422	424	431	437	435	434	436	430	429	427	430	436	441	434	434	434	433	435	436	437	435	432	432	431	431	427	426	428	432	432	432	432	433	433	439	446	450	450	438	436	435	440	440	438	434	428	429	432	434	436	436	439	439	438	437	434	434	439	441	443	437	429	429	430	426	428	428	428	427	425	429	433	436	434	431	430	436	436	433	441	441	439	436	436	434	432	432	438	442	444	440	438	439	438	436	435	432	428	429	436	439	440	444	445	442	440	440	441	443	448	441	439	440	440	440	443	451	443	445	444	442	433	430	430	429	430	434	436	434	433	433	430	429	428	429	429	437	439	435	432	430	429	427	423	421	420	414	418	423	430	435	437	440	442	443	443	440	434	427	422	425	429	433	435	438	438	437	434	429	425	426	435	439	437	432	427	422	424	432	441	440	439	437	436	435	436	435	433	432	430	432	430	430	436	443	440	441	440	438	436	434	431	428	427	431	432	433	434	435	440	441	442	441	438	437	438	438	439	439	441	440	435	434	434	435	440	442	441	441	440	436	438	443	444	443	443	439	438	438	439	458	456	456	452	448	446	0	0	0	0	0	0	0	0
407	411	413	411	409	409	406	409	414	419	419	425	430	425	420	413	413	410	412	414	416	416	415	415	412	410	408	409	411	411	411	412	410	407	406	412	417	420	420	419	412	411	410	412	416	419	418	418	418	420	420	420	421	417	416	419	418	416	414	414	416	418	418	415	416	417	419	410	412	407	406	407	409	411	411	413	413	415	415	416	418	419	423	425	424	421	421	420	422	423	423	420	415	412	412	412	413	413	414	415	416	416	413	413	415	416	416	415	414	414	410	409	409	411	412	413	413	413	410	408	414	413	416	419	424	427	423	411	410	412	414	415	414	410	406	406	407	407	410	411	412	409	408	408	409	410	408	408	407	407	408	410	414	415	417	417	411	415	418	420	418	417	416	414	410	408	411	416	415	413	413	413	413	414	414	416	422	424	419	417	418	422	426	426	423	419	417	414	411	414	415	417	426	426	427	427	423	418	415	420	424	427	428	422	423	423	420	420	423	424	425	424	425	425	423	417	410	413	414	415	416	421	422	421	416	412	413	416	418	420	424	424	425	425	424	419	419	418	416	422	425	428	427	422	417	423	422	427	428	426	423	418	419	421	424	423	421	421	416	410	409	408	412	417	419	419	420	422	423	426	423	422	420	420	419	421	426	430	432	429	427	424	414	419	419	412	420	410	416	416	416	419	418	422	417	411	419	422	422	423	424	422	421	423	415	412	411	414	418	418	418	419	422	424	428	430	425	422	414	413	419	423	425	425	421	431	424	422	422	425	423	423	422	423	424	427	427	428	425	426	425	423	422	420	418	422	423	425	424	421	422	429	430	428	425	423	426	420	420	419	418	419	415	417	416	416	420	428	426	424	424	422	419	419	425	423	423	425	422	421	419	416	416	417	418	417	414	417	427	431	417	412	418	423	419	417	421	427	425	426	425	425	423	425	423	425	427	430	426	425	423	419	422	426	431	433	431	428	426	429	432	433	438	439	435	430	432	430	430	425	423	420	421	425	428	432	431	430	433	433	432	430	429	430	424	427	421	420	420	422	423	421	421	423	422	423	428	434	435	433	430	426	426	429	428	430	432	429	431	430	427	428	428	429	436	432	427	430	435	435	431	430	430	430	425	432	435	436	438	442	443	441	439	439	437	431	430	431	432	432	431	429	430	436	435	435	429	427	427	428	428	428	431	430	427	426	423	425	425	424	425	428	426	428	424	425	428	423	420	418	417	413	412	414	418	418	420	431	434	434	433	435	432	426	420	418	420	424	426	428	424	424	427	425	413	410	410	417	425	429	423	419	415	416	419	433	434	431	429	429	429	432	433	432	431	429	425	423	424	426	429	433	434	434	434	433	431	428	426	429	431	431	431	427	426	429	437	437	434	432	430	428	434	434	434	430	427	429	428	428	428	429	433	433	433	433	430	432	432	435	435	431	430	433	435	437	440	443	443	436	438	444	0	0	0	0	0	0	0	0
404	409	413	412	411	411	408	409	413	419	425	425	420	411	407	407	407	404	408	409	412	412	410	410	408	405	405	408	410	410	410	409	407	403	403	409	414	416	416	413	413	414	415	418	417	415	410	410	409	412	418	419	415	413	413	413	412	409	408	408	412	415	414	409	409	404	403	401	403	401	401	402	403	403	403	406	410	410	412	414	411	414	411	413	416	416	417	420	422	421	419	411	406	405	407	407	410	411	412	412	412	410	409	410	412	412	412	410	406	406	404	404	406	409	410	411	411	411	406	404	405	405	407	411	416	423	424	418	416	414	413	410	410	404	403	403	403	403	406	410	409	406	405	406	408	410	406	406	404	402	406	406	412	413	411	408	408	410	414	417	416	412	407	403	401	402	404	415	413	412	410	409	405	406	408	413	415	417	418	418	418	420	422	422	417	416	408	405	405	409	410	412	412	423	423	418	414	414	415	414	414	421	420	417	416	418	418	415	413	414	415	417	419	419	421	415	409	405	410	413	415	415	413	409	410	412	415	420	420	419	418	418	418	418	419	420	417	414	417	419	420	421	420	418	418	418	419	422	424	424	419	421	420	415	412	415	419	417	414	416	419	413	413	416	415	413	412	416	418	418	419	419	416	416	416	418	421	426	426	425	423	415	412	412	416	415	416	411	412	412	414	415	413	412	409	404	406	410	415	417	417	416	415	413	411	408	405	403	405	406	410	410	409	408	407	407	405	406	401	401	402	402	405	406	406	409	418	420	418	414	417	418	418	411	413	416	421	419	420	420	419	418	418	415	413	411	409	408	407	412	416	417	417	413	410	406	409	415	417	418	417	415	411	409	412	412	415	414	421	420	421	423	411	410	409	408	415	418	419	415	415	411	412	413	415	417	415	412	412	414	411	408	406	410	415	416	414	413	418	419	420	417	416	417	417	419	423	424	419	416	413	412	414	416	418	422	423	423	422	422	424	426	425	429	426	422	420	424	422	423	421	420	421	420	419	419	421	424	426	427	426	427	417	415	414	415	419	416	417	421	423	421	418	414	415	424	429	431	432	431	427	426	425	423	419	420	420	416	419	421	420	421	422	424	425	419	419	426	429	429	424	423	423	426	426	430	431	433	435	437	438	431	420	421	422	428	426	425	426	428	427	424	426	426	427	426	423	422	425	431	427	428	426	425	424	423	419	418	418	420	422	423	419	413	412	417	417	416	416	415	415	413	412	414	416	419	419	419	420	423	424	425	422	419	415	413	414	418	422	424	422	419	417	411	407	405	405	408	413	417	414	413	410	408	411	420	421	417	415	418	420	426	429	429	426	425	424	420	412	420	424	425	426	427	428	429	427	426	426	429	430	430	421	419	419	424	427	429	428	427	422	422	424	429	430	427	425	424	424	423	423	421	419	415	416	424	428	429	427	426	425	426	425	426	432	435	435	435	427	432	429	437	0	0	0	0	0	0	0	0
400	405	408	409	406	406	404	399	400	404	407	407	403	401	400	400	400	400	403	410	407	407	406	406	405	404	406	409	410	410	410	409	403	398	401	406	410	411	411	411	412	415	414	406	402	401	402	402	401	407	410	409	406	404	404	404	402	401	405	405	407	414	413	408	403	401	399	398	397	395	396	397	401	401	400	404	407	407	409	408	406	403	405	408	409	411	412	415	420	422	417	408	400	399	399	402	406	409	412	412	410	402	399	399	401	409	408	406	402	400	400	400	402	405	408	408	406	404	403	397	399	396	394	397	404	409	417	414	414	412	409	406	405	405	404	401	401	400	401	402	402	400	401	404	407	408	404	403	401	398	405	407	404	405	405	405	405	407	410	413	412	408	403	402	401	398	399	404	403	405	404	402	403	403	403	402	402	407	415	419	418	417	418	417	414	407	403	402	405	405	406	406	404	406	409	409	408	409	412	414	415	412	410	408	410	410	419	414	409	403	405	408	411	414	416	404	402	401	399	402	403	405	404	404	407	410	412	412	414	411	412	411	413	413	416	416	411	410	411	412	417	415	414	412	413	419	417	418	416	417	419	420	417	410	407	409	413	411	414	416	418	419	418	416	410	403	404	411	411	411	410	412	412	411	408	413	416	418	413	413	412	410	409	410	409	412	414	411	405	403	404	406	408	407	405	399	399	402	407	410	412	412	411	407	406	403	401	403	401	402	404	402	405	405	405	403	400	398	397	398	402	405	391	396	396	405	410	406	407	408	406	405	406	408	411	412	411	410	409	409	409	407	406	408	409	409	408	405	405	405	405	408	413	410	406	406	406	406	411	412	416	413	408	405	406	408	411	413	413	415	415	411	407	407	408	409	409	409	408	409	413	411	412	413	415	417	414	412	408	410	410	407	406	401	401	402	401	401	407	414	416	411	411	410	412	414	418	419	415	411	408	408	409	410	414	419	422	420	417	410	407	404	403	406	416	417	418	419	419	416	415	417	418	417	412	410	409	418	419	420	411	408	410	410	410	411	416	417	417	415	411	409	408	406	407	414	423	426	427	425	423	419	420	415	412	409	404	405	408	410	409	412	415	415	414	412	412	420	423	425	420	419	421	422	424	425	427	426	429	431	430	417	411	411	419	425	421	420	420	412	408	406	404	405	414	412	413	414	416	424	423	424	420	419	418	419	416	414	413	414	416	417	414	412	406	407	407	410	412	414	415	415	419	418	418	419	420	420	419	420	421	417	413	411	410	409	409	410	409	412	415	415	411	407	404	402	404	407	409	408	409	408	407	407	409	411	412	412	411	411	415	416	420	425	419	416	411	406	403	406	417	416	418	411	409	419	423	425	428	430	428	419	418	417	415	413	419	419	419	420	421	420	419	420	418	415	410	412	412	414	415	414	414	410	411	418	426	430	429	426	426	425	422	424	428	432	421	421	414	407	400	409	0	0	0	0	0	0	0	0
394	398	400	402	401	401	395	390	393	393	396	396	399	400	400	401	387	387	388	394	399	401	401	401	399	401	403	406	408	407	407	404	398	396	400	405	408	405	405	404	407	406	401	400	401	400	399	400	400	402	406	405	403	401	402	401	400	399	402	402	409	413	404	399	399	397	395	395	394	396	397	396	398	398	395	394	396	396	400	404	400	399	400	403	405	406	408	411	408	411	409	404	401	399	400	399	401	401	401	400	402	399	395	394	396	399	401	401	396	397	396	396	397	399	401	397	396	395	396	395	393	391	389	389	391	395	401	410	411	410	403	402	400	403	403	399	397	397	397	397	396	396	397	401	404	404	402	402	399	397	405	402	401	401	402	403	403	406	404	404	408	404	400	397	397	398	401	403	401	402	401	399	400	400	400	399	396	395	396	399	400	415	413	410	406	399	398	398	398	400	399	400	398	398	397	400	402	405	406	409	410	407	403	401	406	413	411	407	406	400	398	398	399	399	400	400	403	405	405	406	404	401	399	398	398	401	409	409	407	404	408	408	407	409	410	405	401	402	406	402	400	397	404	407	411	412	411	410	409	410	412	410	406	402	399	402	404	405	411	414	416	414	412	407	402	398	398	405	407	407	406	403	405	407	406	410	407	407	405	404	404	404	405	406	405	407	409	406	404	402	401	400	399	399	399	401	399	400	403	404	405	407	403	404	405	401	398	400	401	397	393	394	395	399	399	398	398	397	396	398	399	391	393	381	384	393	400	404	403	401	400	399	400	403	408	409	406	401	404	405	403	404	405	405	406	406	407	404	402	403	403	402	401	405	405	403	401	403	403	402	409	412	410	405	405	406	407	409	410	409	409	406	404	403	405	406	405	405	404	404	407	409	409	411	412	411	413	410	409	410	409	408	407	405	403	402	404	402	404	410	411	411	404	402	401	404	407	405	407	408	407	405	403	408	412	416	414	408	405	403	401	400	402	405	406	412	412	406	402	403	414	413	415	412	410	408	408	408	403	403	405	407	406	404	405	408	410	412	413	411	408	407	405	402	402	408	414	420	420	417	414	415	404	395	403	402	400	400	406	409	407	406	404	407	409	406	407	407	407	414	416	415	420	420	420	418	415	414	423	425	414	411	408	406	411	402	403	404	405	405	404	400	399	401	403	403	408	409	412	406	403	415	415	410	402	397	406	407	408	409	411	411	411	407	398	398	398	400	406	411	414	418	417	415	411	412	417	418	419	419	415	402	400	402	407	408	408	406	404	399	394	398	398	402	402	402	403	406	407	406	404	405	403	401	401	406	407	409	408	406	407	406	412	412	411	411	405	402	401	402	403	405	406	407	405	406	410	411	417	416	417	418	417	415	413	412	413	416	415	412	409	408	408	407	405	404	404	410	410	413	416	417	417	409	408	418	423	423	422	419	413	411	411	418	422	423	412	412	407	403	403	405	0	0	0	0	0	0	0	0
381	384	392	397	395	390	390	388	388	389	388	388	394	398	398	396	379	379	377	376	379	382	384	384	390	392	394	391	393	392	392	392	391	392	392	393	395	394	388	388	390	394	395	397	397	396	394	392	392	392	401	403	404	404	401	400	398	398	399	403	395	392	393	394	395	395	393	394	396	397	397	396	395	388	385	386	389	392	392	396	396	395	396	397	402	402	401	401	401	402	403	403	400	398	398	397	397	398	399	398	397	394	393	393	394	397	399	398	396	390	389	389	391	392	390	392	393	394	391	389	386	384	385	386	388	390	392	403	402	403	398	395	394	397	398	397	395	394	392	392	391	390	391	397	400	402	402	402	398	398	398	396	397	397	398	398	400	403	404	406	404	400	397	394	394	396	399	402	398	400	400	398	398	401	401	396	389	392	393	393	394	395	397	398	398	393	393	395	394	394	394	394	392	396	396	395	396	398	399	401	402	398	397	398	401	404	405	404	403	398	396	397	396	396	396	400	403	406	408	409	404	400	397	394	392	382	392	392	390	399	400	400	400	401	398	387	389	391	393	391	387	383	383	387	400	398	399	402	403	403	403	403	402	399	392	391	392	392	406	408	408	408	406	391	395	398	400	401	400	396	393	392	394	395	399	402	402	400	397	397	398	397	398	399	403	402	396	397	397	397	398	397	394	394	393	393	392	397	397	400	398	393	393	390	392	400	394	390	389	387	394	391	390	391	392	394	396	397	398	400	397	385	380	382	383	387	390	396	398	393	388	384	386	394	400	401	399	394	388	391	391	389	392	396	404	407	408	406	403	399	396	395	398	395	392	393	396	397	397	395	397	396	397	399	400	402	400	397	395	394	399	404	404	401	402	403	401	401	400	400	400	403	407	409	407	400	397	396	396	397	403	408	408	401	400	399	403	405	404	405	400	400	399	398	403	403	399	399	399	400	399	395	394	396	401	403	403	405	405	405	400	399	402	402	403	399	400	398	393	392	394	398	399	396	392	395	393	396	400	400	402	403	401	399	399	401	403	406	405	405	405	405	402	399	397	399	408	408	409	409	407	408	405	390	383	390	396	398	399	400	402	403	403	404	403	402	401	401	402	405	404	409	408	406	405	406	406	414	416	416	412	407	405	398	396	396	398	398	397	398	398	398	398	399	400	402	401	402	402	401	399	398	399	398	397	393	392	392	392	392	394	397	406	405	393	392	394	396	401	407	412	415	404	404	406	404	401	398	397	398	398	395	400	403	406	407	405	400	396	390	392	392	391	393	398	402	404	404	404	404	403	402	402	400	399	399	401	401	401	403	400	400	399	397	402	404	404	401	401	400	402	403	404	404	403	404	402	399	403	404	408	414	414	412	408	409	411	412	412	410	406	405	406	406	399	398	400	400	405	411	415	413	409	402	400	402	400	396	396	395	396	399	402	403	408	412	410	410	405	406	406	405	0	0	0	0	0	0	0	0
377	377	383	389	389	388	388	388	387	385	386	386	389	389	386	379	368	368	368	371	371	373	377	380	380	380	380	380	381	381	380	380	385	388	390	387	388	385	384	384	383	385	386	387	391	393	392	391	391	389	388	386	385	384	387	392	392	392	393	385	385	386	388	390	392	392	393	391	393	396	396	393	388	383	381	383	384	386	386	387	389	390	387	385	383	384	387	390	391	394	396	397	398	395	392	386	382	382	389	394	393	389	386	386	385	384	393	394	390	384	383	382	382	384	388	391	393	388	389	389	386	382	383	382	384	386	387	391	393	394	393	390	391	393	395	394	394	392	390	388	386	383	385	391	397	399	400	397	392	394	396	391	392	393	394	396	396	399	402	402	401	398	391	389	390	393	392	392	394	397	395	397	398	400	400	395	387	387	387	387	389	392	395	397	393	390	389	391	392	393	392	389	388	390	391	389	391	391	391	393	395	397	398	395	396	397	398	397	396	394	394	395	395	393	394	397	399	397	404	404	403	400	396	392	380	387	382	385	382	387	388	389	394	398	398	396	393	391	389	388	379	380	383	388	392	393	396	398	399	399	401	399	395	396	388	386	384	379	380	386	385	382	381	385	385	387	389	394	392	389	389	390	392	394	395	395	395	390	388	388	388	391	389	390	394	392	391	388	391	391	392	392	391	389	387	386	387	388	388	383	381	382	384	385	387	384	385	383	384	391	392	390	388	387	388	389	390	395	399	400	397	384	380	378	383	387	388	388	388	393	390	387	385	384	389	390	389	385	385	387	386	389	382	384	384	384	385	386	386	387	391	391	394	394	392	393	393	394	392	394	394	395	394	397	398	399	399	398	394	390	389	391	398	398	399	398	399	395	390	394	397	399	405	407	401	398	397	398	399	397	395	394	396	396	390	395	397	402	401	398	398	397	395	394	398	398	394	393	395	395	392	388	387	388	391	395	396	396	394	401	400	398	399	399	398	397	398	397	392	391	389	386	389	389	390	393	393	393	392	391	391	393	396	393	395	396	397	398	399	399	401	402	400	395	393	390	391	391	400	401	404	405	400	385	382	383	387	388	387	387	394	398	397	399	401	403	399	399	397	402	399	393	389	387	390	393	399	403	409	414	397	396	398	393	391	388	391	390	391	390	389	389	397	397	398	395	394	396	395	395	394	391	391	393	392	392	389	383	384	386	388	393	394	401	392	390	390	391	393	397	398	397	396	397	396	396	385	385	385	388	395	402	403	400	398	396	396	392	388	390	391	390	388	384	386	388	389	393	395	397	398	397	395	395	393	389	392	395	398	399	401	400	398	394	396	396	397	402	402	403	403	401	395	396	396	397	399	395	396	396	398	403	406	408	406	406	407	410	408	405	401	398	395	399	400	399	396	396	398	404	404	398	399	400	398	397	395	394	394	394	396	397	398	398	397	398	398	401	403	404	404	403	0	0	0	0	0	0	0	0
373	373	375	380	386	390	390	388	382	381	379	379	379	378	378	373	365	365	363	368	371	373	376	377	377	377	376	376	375	378	377	377	381	384	385	384	382	380	379	379	380	379	382	384	386	389	391	390	390	387	386	383	381	381	383	383	381	382	383	383	383	382	384	384	389	389	387	384	386	389	391	387	384	381	380	378	379	380	380	380	379	381	381	382	380	379	379	380	384	385	388	390	389	389	384	380	377	373	373	377	380	383	383	382	381	381	386	390	384	380	378	378	380	380	384	388	388	388	388	387	384	380	380	383	383	383	383	386	384	383	388	388	387	391	391	392	391	391	390	386	382	380	381	387	393	393	388	385	379	380	390	387	387	387	389	391	391	393	395	395	394	391	387	384	384	384	383	387	392	395	394	395	397	398	395	392	382	379	378	377	383	388	392	394	392	389	386	384	383	380	388	387	385	384	385	383	378	375	375	380	393	397	396	394	391	391	391	392	391	392	393	394	393	389	392	391	390	385	385	388	396	398	395	389	381	379	377	378	380	383	386	384	382	381	385	384	387	386	388	380	375	376	381	386	389	391	391	391	396	392	393	393	392	387	383	382	378	375	378	385	384	381	380	380	379	383	386	386	386	388	387	387	391	392	392	395	392	388	383	383	384	384	383	383	385	385	383	384	384	387	389	389	388	380	381	384	385	381	377	380	379	379	380	381	382	383	382	381	385	389	391	389	384	380	382	384	384	384	396	396	376	368	368	380	379	380	386	381	378	387	386	384	382	384	384	383	382	382	380	384	385	381	381	380	378	377	376	378	382	383	385	388	391	391	393	391	387	387	391	395	396	392	391	391	392	394	397	395	390	388	387	384	386	387	387	387	386	386	388	390	393	399	399	397	395	394	396	397	398	397	394	391	389	389	389	387	391	393	395	396	398	396	392	390	387	390	387	388	390	391	390	386	386	384	386	389	389	390	391	391	390	389	394	394	395	394	392	389	388	387	385	384	383	384	390	393	394	392	389	387	388	388	386	386	383	384	388	387	386	388	388	388	392	389	384	377	387	385	384	385	388	394	386	380	381	383	383	385	385	386	388	394	395	394	392	390	391	391	391	390	393	390	386	381	383	387	386	377	379	383	389	391	392	390	382	379	381	381	383	385	386	386	385	382	382	384	388	392	391	390	391	390	390	392	390	388	384	380	381	383	384	386	390	394	393	390	389	391	391	392	392	391	392	392	390	385	385	384	382	380	381	387	392	393	392	390	390	390	390	389	389	390	388	384	380	378	382	388	389	389	389	390	388	389	388	383	383	386	393	395	395	397	394	390	390	390	390	390	394	395	394	388	387	387	388	392	395	394	395	395	393	392	391	398	401	401	403	405	402	396	390	389	390	396	392	394	392	392	391	395	395	394	395	397	397	392	388	391	394	395	393	393	392	390	392	392	392	392	394	399	399	399	0	0	0	0	0	0	0	0
373	373	376	382	387	386	386	378	374	371	371	371	371	372	371	368	360	360	361	366	371	372	374	374	374	372	370	369	372	373	376	376	379	382	383	381	378	376	374	374	373	378	381	383	384	387	387	385	385	385	382	380	378	379	381	380	381	381	381	380	380	377	376	379	380	375	375	377	378	379	377	378	377	377	377	378	379	378	379	379	379	379	378	378	375	373	375	379	380	381	380	382	381	380	378	376	374	372	369	371	376	378	378	379	377	377	378	384	379	376	375	376	378	377	379	381	383	384	385	383	378	378	378	379	380	381	380	380	381	378	378	378	382	377	374	375	381	384	387	383	379	377	378	383	381	384	385	378	378	378	378	382	383	384	385	384	386	389	389	392	390	384	380	379	377	375	379	381	386	389	389	384	382	385	388	387	375	372	372	375	380	387	387	384	386	385	383	380	379	376	376	377	378	380	381	379	375	372	374	379	388	388	392	390	384	385	385	387	387	386	386	389	386	383	381	378	377	381	379	377	374	385	391	386	378	375	372	374	378	377	376	378	371	370	372	378	382	382	383	376	374	372	374	380	382	384	386	386	387	384	386	390	387	383	379	378	374	374	375	377	382	378	379	379	376	381	381	378	373	370	383	382	386	385	392	391	387	384	379	379	380	380	379	380	380	381	380	380	376	379	382	388	388	379	374	373	373	373	375	377	377	377	376	377	378	380	380	380	382	384	386	387	383	381	380	379	378	376	376	374	371	365	369	369	370	372	375	379	379	376	376	377	375	378	377	378	380	379	378	378	383	381	375	375	373	372	373	375	376	382	385	383	385	386	379	374	366	370	375	377	391	391	388	387	386	389	393	390	386	384	382	383	384	383	382	386	384	383	387	389	390	390	391	392	394	395	393	394	394	395	391	389	386	384	382	382	384	387	387	390	394	396	393	388	385	385	387	387	388	387	384	382	381	385	384	383	384	382	385	386	382	375	375	386	390	390	388	385	383	383	381	380	381	385	383	385	388	391	385	384	384	382	379	379	372	371	371	373	381	384	383	382	381	375	372	370	374	374	381	382	385	386	381	379	380	381	386	386	385	386	385	386	391	390	381	381	382	382	382	382	381	381	377	375	377	373	375	375	375	376	379	381	385	380	375	372	368	368	371	376	382	385	383	380	379	382	384	387	386	387	387	389	391	389	387	385	380	377	374	373	373	374	382	392	390	388	386	387	389	389	387	384	386	386	384	382	382	382	380	380	380	383	381	379	389	391	390	390	389	387	387	387	387	385	382	381	383	385	383	383	383	385	384	382	381	374	376	380	386	389	392	392	388	385	385	385	387	386	388	386	383	381	381	382	385	387	391	392	393	393	396	392	387	385	383	383	384	390	391	384	382	383	386	387	393	392	392	390	390	393	393	392	391	391	388	387	384	387	391	392	389	387	385	383	381	382	382	384	389	391	393	393	0	0	0	0	0	0	0	0
370	370	370	373	376	373	373	366	362	362	366	367	367	367	367	365	362	362	362	368	371	372	370	369	369	368	366	364	364	366	375	375	376	377	377	376	373	369	369	369	373	376	379	380	381	384	383	381	380	380	379	377	374	375	377	374	378	379	376	375	371	371	369	370	372	371	371	369	368	370	368	371	372	373	372	375	376	377	379	379	378	377	376	374	371	370	372	374	377	375	374	375	376	375	377	375	373	369	365	366	368	371	373	375	374	373	373	378	377	373	374	375	375	374	375	377	379	380	380	379	378	377	377	375	377	380	381	376	375	376	376	371	367	365	365	370	375	375	375	376	377	377	377	377	378	379	380	378	378	380	382	380	379	377	374	375	380	382	382	385	385	378	375	373	372	371	373	378	375	377	375	371	369	372	374	375	374	372	371	375	380	382	377	376	378	379	379	376	374	374	373	373	373	373	370	375	373	370	372	377	386	382	379	376	380	379	379	381	381	378	376	376	375	374	371	370	371	376	377	374	371	368	373	378	366	373	374	377	379	374	370	370	369	368	369	372	378	378	380	379	380	371	372	376	379	382	379	379	380	382	378	376	383	380	376	373	373	372	373	374	376	377	377	378	380	376	375	373	369	366	364	376	379	378	377	384	381	377	372	375	378	378	377	379	380	382	380	378	374	373	374	378	378	375	373	371	372	372	371	378	377	375	374	375	375	375	376	377	376	375	374	373	371	371	373	371	367	366	367	368	365	364	366	366	364	365	371	376	374	372	373	373	373	372	370	369	370	368	370	372	374	362	361	368	369	368	368	369	369	370	371	379	376	370	366	364	367	370	373	373	372	373	374	373	374	376	378	378	372	367	368	373	379	379	378	378	378	380	380	379	381	384	386	388	391	392	386	385	386	386	384	383	382	381	378	376	379	381	380	375	374	376	374	373	372	371	375	379	385	385	379	376	378	381	383	380	380	380	382	383	377	375	374	377	382	385	386	380	378	374	370	367	374	377	378	379	375	378	371	372	370	371	375	373	371	368	366	367	372	374	375	376	376	376	372	368	369	371	370	373	375	376	380	380	379	380	379	384	383	384	383	381	381	377	378	378	380	380	380	379	377	376	374	370	371	372	371	372	371	370	371	372	374	375	369	366	364	362	365	374	380	382	380	377	377	376	379	380	380	379	383	387	387	380	378	377	375	372	371	369	369	369	368	386	386	382	378	379	384	383	381	380	382	382	380	378	375	373	375	378	379	376	375	380	384	385	384	383	380	381	380	380	383	383	381	377	370	368	369	373	376	378	380	378	376	370	372	376	380	383	386	386	384	381	380	380	380	383	383	380	379	377	377	378	381	381	386	387	389	390	390	392	388	384	381	381	381	380	383	383	383	384	385	377	386	389	389	384	385	391	391	389	387	385	381	377	379	383	385	386	380	380	380	381	381	377	377	375	379	384	386	385	0	0	0	0	0	0	0	0
364	364	365	366	364	359	359	355	352	357	360	362	362	363	364	361	361	363	363	367	369	369	368	365	365	362	361	361	360	362	370	370	370	370	369	367	363	365	367	370	370	374	375	377	377	378	376	374	374	374	374	373	370	370	367	367	373	373	372	371	368	368	364	364	364	368	367	367	368	368	364	367	369	369	372	373	373	375	376	376	376	375	372	371	368	368	369	370	371	370	369	372	372	372	374	374	371	366	362	361	363	363	368	372	372	371	373	376	373	371	371	373	374	372	371	371	371	374	377	377	375	375	374	375	374	372	375	375	373	372	371	367	364	364	368	369	369	371	371	371	373	375	376	375	373	373	373	376	375	375	376	374	372	370	367	366	367	366	363	364	370	374	371	370	370	370	370	373	375	373	369	366	366	368	370	372	374	375	374	375	377	374	371	370	368	373	375	371	371	371	371	368	369	367	367	367	367	367	370	375	381	378	374	371	372	369	371	380	378	377	373	368	367	368	365	364	365	368	373	373	370	366	364	364	370	371	373	377	375	372	368	367	368	369	368	366	367	379	380	374	371	369	369	369	369	368	370	372	375	376	369	368	368	369	375	376	374	374	372	371	364	364	367	377	377	374	370	370	366	364	362	370	375	375	376	378	376	374	370	369	373	374	375	376	384	386	383	376	374	377	375	370	369	371	371	371	371	369	371	375	374	373	373	373	373	372	371	374	375	375	373	371	368	369	366	364	365	366	365	363	362	362	362	362	361	361	364	368	363	365	370	364	364	365	366	367	367	367	369	370	369	368	364	360	360	366	365	358	363	366	365	365	362	361	362	364	367	372	374	372	372	369	370	370	369	369	369	369	368	364	362	363	363	371	374	374	374	376	376	374	375	380	383	384	384	380	380	380	379	376	377	376	378	375	375	372	373	374	373	375	375	375	374	372	372	372	374	376	377	373	370	371	379	377	380	378	376	377	380	381	372	368	367	371	373	374	372	371	370	369	367	365	366	370	374	373	370	369	371	368	368	368	367	368	365	362	364	365	368	367	367	368	371	369	365	363	364	366	370	372	372	368	375	378	378	378	376	372	368	363	362	365	371	373	373	375	376	379	380	382	379	376	374	371	370	370	369	366	369	368	368	367	367	367	366	365	363	361	367	372	375	376	376	374	375	373	371	370	370	367	366	362	367	372	374	371	368	366	367	366	365	364	364	366	367	367	367	368	373	377	378	376	377	378	375	369	367	369	374	377	373	368	368	373	376	378	377	378	375	375	375	376	378	377	375	370	363	361	364	368	371	376	379	378	374	369	369	372	376	379	381	380	379	376	376	376	376	377	376	377	373	371	368	373	375	376	380	385	386	378	378	381	381	378	378	378	377	373	372	373	376	375	375	374	377	377	378	378	378	382	389	387	384	380	376	374	375	377	379	376	375	376	377	377	376	376	374	372	372	374	374	374	0	0	0	0	0	0	0	0
359	359	357	357	355	352	347	347	349	351	356	359	359	360	360	361	361	362	362	362	359	364	367	364	360	360	360	359	358	358	364	365	365	364	362	364	362	361	362	364	364	368	371	372	373	373	371	369	365	365	365	365	364	363	364	362	366	370	372	371	369	369	366	364	363	363	364	367	367	365	362	363	364	367	368	367	369	370	373	373	373	371	371	368	366	366	365	366	367	369	372	371	369	369	366	368	368	363	357	355	356	358	363	368	370	372	373	375	375	373	370	366	367	366	367	362	360	361	369	371	373	374	375	373	372	369	367	369	368	368	368	366	365	366	366	368	369	367	368	369	370	370	371	372	370	370	369	369	370	370	368	368	370	368	365	364	364	361	358	357	361	363	364	365	365	374	376	376	378	376	372	371	370	368	368	369	371	371	370	367	363	359	364	362	362	360	360	361	363	363	364	363	366	367	366	363	360	360	360	361	363	358	360	367	366	363	374	379	376	372	369	365	364	362	364	365	365	364	370	373	371	368	368	366	367	366	370	374	377	374	367	366	366	365	359	360	364	367	365	366	366	367	361	360	361	363	363	362	363	364	361	362	363	365	364	363	370	372	372	371	368	366	363	364	368	370	370	367	363	361	361	361	373	374	370	369	369	371	373	370	368	369	371	368	374	376	373	372	371	373	375	366	366	368	369	366	364	362	367	370	368	365	363	368	369	364	365	368	370	371	371	365	363	359	362	361	363	365	363	359	359	358	359	359	359	359	359	360	358	359	360	361	359	361	365	368	367	366	365	366	366	366	366	364	363	360	359	359	358	358	358	358	359	359	359	361	366	370	365	363	363	364	366	369	370	369	366	364	365	364	364	361	360	362	371	372	373	375	375	372	370	367	368	372	373	371	367	373	370	372	368	370	362	363	368	370	370	370	368	370	372	372	372	373	370	372	373	371	367	366	368	371	373	376	377	376	373	374	377	374	369	366	366	368	366	358	364	365	366	365	363	363	365	369	371	365	366	365	365	365	367	365	367	366	363	361	361	363	365	364	365	368	371	370	366	363	362	365	367	369	367	365	371	375	373	371	370	367	361	359	359	362	364	365	367	369	372	376	369	372	378	375	373	369	367	368	368	367	365	366	367	367	365	363	361	361	361	363	367	369	370	367	365	360	360	361	360	358	360	360	359	358	362	367	368	367	365	363	362	365	365	363	363	364	364	364	365	364	365	366	366	365	364	370	369	366	365	367	371	372	363	363	364	363	365	365	368	368	369	371	372	374	372	374	371	365	361	359	360	360	364	367	376	376	372	361	366	366	372	375	376	375	374	372	370	372	367	365	366	366	365	362	360	364	367	373	367	369	372	373	373	372	371	372	372	372	373	370	369	369	370	369	368	369	373	373	374	375	376	376	375	373	373	375	377	373	370	372	367	370	372	374	373	374	373	373	372	370	368	367	368	372	0	0	0	0	0	0	0	0
353	353	353	351	349	346	345	345	346	348	352	355	355	358	359	360	357	358	358	357	356	356	356	357	355	355	355	357	356	357	356	357	357	357	358	361	361	358	358	358	358	357	358	361	368	369	366	362	359	359	360	362	362	364	362	361	361	368	370	366	365	365	364	366	365	363	362	362	363	362	359	359	359	362	363	363	363	364	363	368	368	369	368	366	365	364	364	365	366	369	368	367	364	363	362	360	360	357	357	357	357	358	361	367	367	369	370	372	371	369	365	363	363	363	360	358	355	357	363	367	371	374	375	373	367	368	368	367	367	367	367	365	363	362	363	366	366	365	361	365	365	365	365	366	363	363	365	367	364	363	362	362	360	358	357	357	356	355	354	357	359	361	360	358	355	353	361	363	367	370	363	363	364	366	366	365	363	364	363	363	359	359	359	359	357	353	354	355	359	360	363	363	364	354	351	349	348	352	355	358	355	357	357	368	373	374	371	369	363	362	361	363	361	361	364	368	364	362	367	371	367	365	363	361	360	361	365	369	372	371	364	362	363	362	359	357	357	358	362	365	366	365	364	364	366	362	362	359	355	354	355	358	360	361	360	361	359	361	365	365	364	362	360	357	364	362	361	358	355	354	357	361	363	363	361	360	358	364	370	371	368	365	367	363	360	357	357	355	354	356	365	358	364	364	364	358	356	357	360	362	366	360	357	357	359	363	363	363	366	366	369	363	362	359	361	362	363	366	365	361	357	356	357	357	357	357	356	355	355	354	352	350	354	360	365	367	365	365	364	363	362	361	363	364	361	358	356	354	352	354	356	353	354	356	354	357	361	363	361	360	361	361	362	362	360	365	364	362	362	362	359	359	358	360	363	369	371	372	371	367	363	363	365	366	365	364	363	361	360	364	365	362	362	361	361	359	362	365	363	367	369	369	367	365	365	367	367	364	362	363	365	368	370	372	374	372	369	372	374	367	363	361	363	366	361	357	355	359	362	360	360	359	359	359	359	359	359	359	357	358	361	361	360	360	361	358	361	360	361	360	361	366	367	370	367	364	362	363	364	365	363	362	366	368	365	364	363	358	358	357	358	360	360	362	361	357	360	361	360	363	368	372	364	359	364	365	364	367	369	372	373	372	366	358	356	355	355	355	353	354	356	356	357	354	351	354	356	353	353	356	356	356	358	360	361	361	361	359	358	359	364	362	361	360	360	360	360	363	363	359	359	357	358	357	359	360	361	361	358	360	359	360	360	359	357	356	361	363	362	365	370	369	369	366	369	361	357	353	353	357	360	363	364	361	358	356	357	360	366	370	370	367	365	364	363	364	365	362	363	363	363	360	361	361	362	364	363	365	367	368	367	367	367	368	368	368	369	369	366	364	362	359	363	366	369	369	372	374	375	374	373	371	371	375	375	372	368	364	359	361	364	366	365	365	368	368	369	368	367	367	373	373	0	0	0	0	0	0	0	0
350	350	350	347	344	342	342	342	345	347	347	350	350	354	358	351	352	354	354	354	351	351	350	349	348	348	353	357	354	351	350	351	351	353	355	357	358	358	354	353	353	355	357	355	354	354	355	355	356	357	357	354	355	360	362	361	363	362	356	356	358	361	361	364	365	362	359	358	357	357	355	355	357	361	361	361	360	360	361	363	363	365	363	362	362	362	363	364	367	362	362	362	362	362	363	361	358	355	354	354	355	357	360	364	365	365	365	366	364	365	364	362	363	361	358	356	354	356	358	362	368	367	368	368	369	369	369	367	364	363	360	357	355	356	357	361	364	362	356	353	353	356	360	358	358	359	362	363	363	356	354	356	356	355	355	355	354	353	353	354	357	359	359	358	355	352	350	357	360	360	361	359	359	361	362	361	359	358	358	356	357	357	357	357	356	354	348	348	347	349	360	360	347	342	340	341	345	347	349	351	355	353	349	352	353	361	360	354	349	349	347	354	358	360	365	364	360	355	353	358	359	355	354	354	353	354	356	357	358	358	358	360	362	359	358	357	354	354	360	364	365	367	367	367	364	359	358	357	354	352	353	355	357	356	356	355	357	356	354	355	359	362	360	360	362	359	359	356	355	353	354	357	363	358	352	350	349	355	359	359	360	360	360	356	355	354	354	353	351	351	351	351	351	351	351	357	355	353	352	355	358	357	353	354	357	356	361	359	360	361	365	362	358	357	358	360	362	363	361	360	358	355	354	353	350	353	351	349	351	351	348	349	351	354	357	362	359	355	354	354	356	358	357	358	358	356	353	352	352	353	356	355	351	350	351	353	355	356	359	358	358	358	356	355	357	358	356	354	358	355	356	355	356	357	360	363	364	365	362	367	364	361	362	363	362	361	359	352	352	356	365	362	359	356	357	356	356	358	360	359	358	358	357	358	361	358	357	358	359	356	357	358	359	359	357	357	363	369	368	361	360	359	361	363	360	357	354	353	353	354	353	354	356	357	355	352	352	355	359	358	357	355	353	355	354	355	356	356	357	356	358	360	356	357	355	357	360	361	362	362	361	358	358	361	361	358	354	355	357	356	354	354	356	356	355	355	356	356	357	360	357	357	352	355	359	359	361	360	360	355	354	352	354	354	349	350	352	354	355	353	354	354	350	349	349	353	356	358	358	357	354	353	354	357	357	355	353	352	352	355	356	357	358	355	356	358	356	354	351	350	344	355	353	351	350	351	354	359	362	359	358	357	357	356	353	352	352	357	357	360	367	366	365	360	358	359	358	357	355	352	353	355	355	353	352	353	354	354	356	356	360	362	362	360	360	361	364	364	364	364	363	360	362	361	362	363	363	362	362	362	363	364	363	361	361	363	363	362	361	357	354	349	350	355	355	359	364	366	369	369	369	367	367	365	365	363	357	356	357	361	362	363	361	361	361	363	366	370	372	373	375	369	0	0	0	0	0	0	0	0
350	350	350	346	341	340	343	343	345	344	345	345	348	348	348	345	346	350	350	350	348	346	345	345	348	348	352	355	353	350	348	350	350	351	353	356	359	358	355	355	355	356	358	356	351	346	345	347	350	353	348	350	350	351	352	355	358	353	353	355	357	360	360	362	363	358	357	353	354	354	353	352	352	359	359	361	359	359	360	359	359	359	357	356	351	354	359	362	358	356	355	357	359	358	360	363	358	353	350	350	351	353	356	358	362	361	360	357	358	360	364	362	360	357	354	347	347	350	354	359	364	364	359	361	363	364	362	362	359	358	357	353	355	356	356	356	356	356	354	349	349	350	351	355	354	355	359	362	360	351	351	354	353	352	352	352	353	350	352	352	353	353	355	354	353	350	349	351	354	358	357	355	354	355	355	356	355	352	352	351	349	352	352	353	354	356	347	343	341	349	350	346	343	341	344	347	345	346	347	347	348	346	343	344	344	345	345	348	350	351	349	347	353	355	352	353	353	352	349	349	351	351	352	351	348	351	355	354	353	351	352	353	354	356	354	353	353	354	359	360	359	358	356	357	361	357	355	354	354	353	351	351	353	351	352	353	354	355	350	346	348	354	350	357	359	360	355	351	353	354	357	354	356	352	352	349	348	348	349	350	350	346	350	352	353	350	351	349	348	349	349	347	345	345	351	349	347	349	349	350	353	352	352	348	353	350	353	355	358	358	355	359	356	351	351	350	352	359	357	358	357	356	353	347	347	347	346	343	342	344	347	349	350	350	351	352	353	349	351	354	354	354	356	357	358	356	353	353	349	352	352	353	352	350	349	351	350	355	356	356	356	355	354	352	352	351	344	345	348	351	351	352	354	355	355	357	359	362	362	348	359	357	359	360	360	358	355	351	351	355	360	358	355	348	350	350	350	351	352	350	350	349	350	352	354	355	354	354	354	352	352	354	353	352	352	353	355	353	353	358	357	357	356	358	356	357	349	348	351	350	347	346	352	351	347	346	348	352	355	358	356	350	350	349	347	353	354	354	353	352	352	353	351	355	353	354	356	356	355	355	351	353	351	347	352	352	352	354	354	354	353	350	351	351	349	349	352	357	358	358	356	354	351	351	354	347	348	350	351	350	344	341	343	340	336	338	347	353	354	353	351	349	347	345	342	342	345	352	352	349	347	346	348	349	350	350	349	348	348	349	353	352	350	350	353	353	348	343	345	341	351	346	350	348	349	350	353	358	363	361	356	355	354	358	358	353	348	347	350	355	355	357	358	354	353	354	356	357	354	348	346	346	344	345	346	349	351	351	351	353	353	350	348	351	353	354	355	355	355	360	356	358	360	362	362	363	361	360	359	359	359	358	356	356	357	357	356	353	352	353	352	350	350	352	352	352	360	364	365	364	363	361	362	362	360	352	351	354	358	360	359	359	361	358	358	360	364	368	370	369	365	365	0	0	0	0	0	0	0	0
348	346	346	343	340	338	341	341	342	341	339	339	341	341	344	340	343	344	345	345	343	343	342	344	346	346	348	347	346	350	350	350	350	350	352	356	355	353	353	353	346	346	341	345	352	348	345	347	346	348	344	342	343	347	352	356	349	348	347	350	354	354	354	354	355	354	352	348	350	351	351	349	349	352	357	355	354	356	359	357	353	353	349	347	347	347	349	348	347	348	347	349	349	351	354	358	355	349	344	343	345	347	352	353	352	350	348	350	353	356	357	358	359	354	347	342	343	349	354	358	361	358	353	354	359	359	358	353	355	355	355	354	351	352	353	354	354	353	353	353	353	354	352	352	350	350	355	357	355	344	345	347	347	349	351	351	346	347	348	349	348	347	348	350	351	347	344	346	348	348	350	349	345	343	347	351	351	348	345	344	343	344	348	348	349	353	342	339	339	347	348	341	340	340	343	343	343	344	344	343	347	344	342	340	340	343	344	346	347	349	351	349	349	350	350	351	350	352	352	348	348	348	349	349	349	349	352	352	351	349	350	349	351	351	350	349	347	347	353	357	356	353	352	352	350	353	351	351	349	349	348	346	346	348	348	349	348	349	345	339	339	340	342	346	347	355	352	349	349	347	352	353	350	348	348	348	348	347	345	345	346	344	337	347	348	349	349	347	346	347	347	347	344	342	342	343	343	344	343	345	349	344	339	340	344	347	345	343	346	351	353	350	347	344	345	346	347	349	352	353	353	352	346	346	339	338	341	341	340	343	346	348	347	346	347	348	351	348	346	346	347	352	356	356	356	354	353	348	345	346	347	349	352	351	351	347	347	348	349	352	355	354	351	351	347	346	341	341	343	346	346	348	350	351	348	347	348	352	350	343	338	335	337	350	355	354	351	351	351	354	357	358	353	351	349	348	349	349	345	344	346	349	349	349	350	351	353	352	353	351	350	349	350	350	351	350	351	346	343	342	347	347	343	349	351	350	346	347	349	348	345	341	341	340	340	339	340	344	350	352	351	347	346	345	344	340	340	346	353	353	351	349	350	348	348	350	352	350	349	347	349	350	349	346	341	345	346	351	340	338	337	339	342	342	339	339	353	352	355	348	347	346	341	341	342	340	339	342	341	341	339	339	334	331	328	333	339	347	350	347	347	347	347	344	342	341	343	345	348	345	344	344	345	347	347	345	343	347	345	343	346	343	344	346	346	349	345	348	347	346	343	349	347	349	348	354	353	353	348	345	348	357	356	350	354	349	346	343	347	349	349	349	347	346	345	345	348	353	350	345	341	341	341	342	343	346	346	347	349	350	350	350	348	350	350	351	352	352	349	350	348	348	354	356	355	354	355	359	358	355	350	347	347	347	352	351	351	345	348	351	351	349	349	349	349	348	351	353	353	357	356	357	355	352	350	350	350	350	355	357	356	356	354	355	355	357	356	360	361	358	355	356	0	0	0	0	0	0	0	0
340	342	342	340	339	338	338	339	339	335	337	338	338	338	339	335	337	337	339	339	341	341	341	341	342	338	338	340	339	339	340	342	344	344	348	350	349	350	349	343	340	340	339	338	341	344	349	351	348	346	344	344	343	345	350	344	344	340	342	343	344	346	345	345	345	347	343	346	349	349	349	347	346	345	345	345	349	352	352	348	344	344	344	344	342	337	340	341	342	344	345	340	339	341	344	348	345	343	345	343	343	344	348	350	351	350	348	348	350	353	354	354	351	347	345	344	345	350	354	357	354	350	348	344	347	349	351	350	354	354	352	350	347	348	353	354	351	351	350	354	355	353	346	349	346	346	348	349	341	339	340	343	345	345	348	343	342	343	345	344	344	343	344	347	346	342	340	342	345	343	340	339	339	341	342	348	347	344	341	340	339	343	344	346	347	345	339	337	337	340	342	337	336	336	339	340	341	342	343	342	343	344	339	337	339	342	344	344	345	346	348	345	345	341	343	351	350	349	350	352	345	344	344	347	346	344	346	346	347	349	346	346	349	346	343	344	343	343	345	352	351	349	347	348	346	340	346	347	347	345	341	339	341	347	348	346	346	343	339	337	336	337	337	345	346	346	344	345	344	344	340	339	342	344	344	345	346	347	344	342	340	339	337	334	344	345	343	342	343	343	342	340	338	339	337	340	340	341	341	342	341	338	333	337	337	340	341	343	343	343	341	337	339	341	344	344	346	347	348	351	348	345	344	339	337	336	337	345	340	339	342	343	348	345	339	337	337	336	337	338	339	337	338	337	345	347	344	341	344	343	342	341	342	341	343	344	345	344	342	345	348	352	351	346	344	343	342	341	343	345	345	345	344	343	342	343	340	344	340	336	336	337	338	343	351	348	349	348	349	348	351	348	347	348	348	348	346	344	344	342	343	345	345	344	346	346	351	352	351	347	348	348	345	339	339	343	343	346	344	344	345	343	339	338	343	346	345	349	349	349	342	339	337	337	335	332	335	341	345	347	347	344	344	339	337	336	337	339	343	345	346	346	344	342	343	343	346	347	345	344	346	346	345	343	340	343	340	339	338	336	337	338	340	338	336	337	339	342	345	346	345	339	339	340	337	336	334	339	339	338	338	336	333	330	330	330	332	333	334	340	343	345	346	343	340	338	338	340	343	344	342	342	344	346	345	343	341	343	340	337	339	339	341	340	340	341	342	341	346	345	334	331	336	342	346	346	351	352	347	344	342	349	349	344	341	343	343	341	341	344	344	341	338	336	337	340	340	342	347	341	339	338	339	340	342	344	345	346	345	346	345	346	346	346	348	350	350	349	347	347	347	348	349	340	340	342	344	344	344	346	344	342	342	343	346	346	340	343	346	344	349	347	344	344	343	345	345	344	346	346	349	349	348	344	340	343	343	344	346	354	354	352	351	351	348	352	351	346	344	344	346	349	0	0	0	0	0	0	0	0
334	337	338	338	336	334	334	332	332	336	338	337	335	335	334	332	334	331	332	332	336	336	334	332	334	336	336	337	337	338	339	341	343	343	346	347	348	348	343	340	338	338	337	336	337	336	342	349	337	338	338	338	339	339	339	340	339	334	335	334	335	339	339	339	337	337	343	347	348	349	348	344	340	335	333	333	335	337	336	337	339	343	343	346	340	338	336	339	342	343	344	340	338	338	341	342	339	340	341	341	340	343	345	343	343	348	351	352	352	350	349	344	341	338	335	335	336	339	340	343	344	346	344	343	342	339	339	342	343	345	344	341	347	349	348	349	347	346	346	344	343	341	338	338	341	344	344	340	338	338	339	340	344	344	339	340	339	339	342	343	342	341	342	337	337	337	337	339	339	340	336	334	337	339	339	339	338	338	336	336	340	341	340	333	334	336	334	335	335	335	337	334	333	335	335	337	336	337	339	341	341	342	340	337	338	341	342	343	344	344	341	342	341	339	337	347	349	348	349	347	342	341	342	344	344	345	345	345	346	346	343	344	342	339	337	339	339	340	341	347	347	344	342	341	340	338	339	341	342	340	340	341	342	345	345	343	341	340	336	335	335	336	334	338	341	343	345	348	340	335	335	336	337	342	342	343	344	345	343	339	337	336	334	332	333	336	337	340	343	343	339	333	332	334	334	334	337	340	342	343	338	334	334	332	333	332	339	341	342	343	343	341	341	341	341	341	342	344	345	348	345	343	339	338	337	334	335	336	335	335	334	338	340	338	338	337	338	335	335	336	335	335	336	336	337	337	337	332	334	336	336	336	337	337	338	336	336	332	332	332	336	345	345	342	340	340	341	343	344	345	344	342	339	338	333	338	338	334	333	332	332	338	339	342	341	344	343	340	343	344	345	343	335	338	344	346	345	342	341	340	340	342	343	342	341	341	347	348	348	346	338	337	337	332	334	339	343	344	344	344	344	342	338	337	338	341	337	338	346	346	345	340	338	336	334	332	333	334	338	345	343	341	341	338	340	339	340	340	339	338	337	336	336	334	336	338	343	346	342	343	344	344	341	340	338	337	338	336	336	336	334	335	337	335	335	334	337	339	342	344	341	338	339	339	340	334	333	333	339	340	340	335	331	328	330	334	338	335	332	329	330	333	338	338	338	336	340	340	338	333	331	335	342	343	341	337	337	338	336	334	333	338	339	339	337	335	333	334	336	334	332	329	331	336	336	331	331	334	344	342	340	339	339	337	336	332	331	336	337	339	340	340	336	333	333	336	338	339	338	336	333	337	337	340	341	342	344	345	343	343	343	343	344	342	340	343	344	344	340	334	333	334	335	336	336	337	339	342	341	338	336	334	333	338	340	339	337	341	342	340	339	337	337	340	341	342	343	344	345	346	346	346	342	341	340	339	340	341	341	341	349	343	343	343	342	343	347	349	347	345	343	340	0	0	0	0	0	0	0	0
328	329	326	326	326	322	327	332	332	337	339	337	334	334	332	330	328	329	323	323	321	324	330	328	333	334	334	335	336	337	338	339	341	341	345	347	348	344	338	338	336	336	335	333	332	335	337	338	336	335	335	335	337	336	337	337	334	330	325	322	323	326	336	336	337	337	340	342	343	345	348	344	339	335	333	334	333	336	336	339	342	345	345	345	343	338	336	337	342	344	344	339	336	335	337	334	335	338	338	338	338	337	340	339	340	343	348	345	347	344	344	342	337	334	331	330	332	338	340	341	345	346	347	349	347	342	343	343	339	339	340	341	341	341	346	345	343	343	342	341	338	336	333	333	333	331	337	336	337	338	339	338	343	338	335	336	337	339	343	343	340	335	332	335	332	334	333	332	333	333	332	333	333	335	336	337	337	335	334	338	338	337	333	331	333	335	334	331	331	335	333	330	328	331	333	333	333	334	335	336	339	331	332	336	338	337	334	333	337	340	342	340	339	337	336	333	331	347	347	347	335	334	338	341	343	338	336	336	336	339	338	337	336	335	332	333	335	336	336	338	342	342	341	338	336	336	339	340	340	340	337	339	339	339	340	337	332	332	334	338	335	326	329	331	328	333	334	337	330	330	328	330	333	331	334	336	341	342	342	338	335	334	333	331	333	334	337	341	342	341	337	332	331	330	329	330	332	337	340	339	336	333	332	330	329	329	329	332	330	331	334	338	337	334	334	337	338	339	338	340	341	341	340	334	331	331	332	331	329	329	333	333	332	333	332	332	336	333	332	331	331	329	331	330	333	335	329	329	332	335	337	337	337	335	330	329	332	334	335	336	339	335	333	331	333	335	337	338	336	336	333	329	328	328	330	336	337	332	328	328	333	336	337	339	338	337	334	331	333	332	331	331	335	337	337	342	339	338	337	338	337	339	339	338	339	337	340	338	334	336	336	335	331	329	331	332	335	341	341	341	341	341	339	337	337	332	330	333	331	336	338	336	337	338	336	335	332	334	337	338	340	338	339	339	339	340	340	337	335	336	336	335	335	334	334	337	340	340	342	342	341	341	330	330	336	338	339	337	336	334	331	333	334	332	331	330	334	339	344	342	337	334	336	338	339	340	338	338	337	337	335	336	331	330	331	335	337	335	332	330	328	330	331	332	332	331	331	331	330	328	330	332	333	336	337	337	336	336	335	333	331	329	332	334	333	333	332	333	333	334	332	330	329	327	325	325	324	325	334	338	332	331	330	324	329	330	326	329	334	334	335	334	332	331	332	336	339	340	340	331	331	334	337	338	339	343	344	342	340	340	341	341	341	340	339	340	342	343	336	332	329	330	332	334	334	335	338	340	335	334	332	331	329	329	329	334	336	338	338	337	335	334	334	335	338	342	343	343	343	341	342	337	340	339	337	337	337	338	333	334	337	336	336	336	337	339	342	346	351	346	341	337	0	0	0	0	0	0	0	0
327	321	318	318	319	324	330	334	334	338	337	336	334	331	331	332	332	325	321	315	315	316	320	326	330	333	333	333	331	327	329	331	337	337	343	344	340	335	335	333	333	333	333	331	330	331	333	332	333	333	333	333	334	335	336	334	331	325	320	318	322	325	329	331	331	333	332	332	331	338	345	346	342	339	339	340	338	336	334	336	339	340	340	340	339	338	337	337	341	344	342	336	332	330	329	330	333	335	335	336	336	337	339	338	334	334	336	337	335	341	342	342	341	338	337	338	336	334	335	336	336	336	336	339	338	338	338	338	338	338	341	340	339	339	341	342	339	340	339	339	338	334	333	332	332	331	331	332	332	333	333	333	327	331	328	327	327	332	336	338	329	324	324	324	330	332	330	330	332	330	333	331	332	333	334	337	335	334	334	335	336	335	333	334	335	335	332	332	335	333	330	329	329	331	335	335	333	333	335	334	329	329	331	335	336	336	331	331	332	332	331	333	335	334	331	328	328	330	331	335	333	339	339	340	336	335	334	332	332	332	332	332	330	330	329	331	334	334	333	332	336	337	337	338	338	334	336	337	338	338	338	334	336	335	332	326	325	328	329	329	325	321	324	322	330	331	333	328	330	327	328	328	331	331	334	335	337	337	336	335	330	327	327	330	331	337	333	336	338	338	333	333	332	330	329	329	332	334	336	337	335	333	333	333	329	329	329	328	328	327	323	321	327	329	330	329	338	336	334	335	335	334	331	329	329	328	327	325	325	328	329	330	329	326	327	330	332	332	330	328	329	328	329	326	328	325	328	329	332	333	333	335	330	328	325	326	328	330	336	337	334	334	332	329	329	323	334	334	326	323	323	324	327	330	333	336	335	327	327	329	333	332	329	329	333	328	328	329	329	329	329	329	333	335	335	333	331	330	331	331	332	335	336	337	337	337	339	337	330	328	335	333	330	327	324	326	327	326	326	330	329	328	327	333	332	333	331	332	329	329	331	330	330	331	335	335	333	335	337	338	333	331	331	330	329	329	327	326	328	329	334	335	335	333	333	337	339	339	338	341	327	327	327	328	329	329	328	325	328	331	331	331	332	324	324	331	335	337	338	335	331	331	333	337	337	337	337	333	328	325	324	327	331	330	328	330	331	332	329	329	329	329	330	331	331	329	329	328	328	329	327	329	332	332	331	332	332	325	321	321	320	323	325	322	320	319	323	323	323	325	330	330	326	326	324	323	323	324	327	334	332	327	327	324	321	323	324	329	326	321	320	319	326	331	332	336	339	339	338	336	327	326	325	327	327	342	336	336	337	335	336	338	338	338	335	332	334	334	332	326	327	327	328	330	331	333	335	334	328	327	326	326	326	327	328	329	328	330	334	334	332	332	331	334	336	339	341	340	340	338	333	334	334	334	334	333	332	331	332	333	332	330	330	333	332	331	329	328	338	336	333	333	0	0	0	0	0	0	0	0
320	315	316	316	319	324	330	333	333	336	333	331	330	331	331	338	338	329	324	321	321	320	318	318	319	322	322	327	325	325	329	329	330	329	329	326	327	329	329	330	329	329	329	328	328	328	330	329	331	332	330	331	331	332	333	333	329	320	317	317	322	327	330	331	331	329	326	326	328	330	332	335	337	337	336	333	333	332	332	332	332	333	336	336	335	335	331	327	327	329	329	325	325	323	324	327	330	333	334	330	328	333	338	336	337	334	334	334	330	337	338	340	339	337	337	335	335	332	329	327	327	330	334	336	336	335	336	336	336	337	339	337	333	336	334	335	336	337	334	334	333	333	331	331	331	331	331	332	332	332	331	329	327	327	328	327	326	325	328	324	322	323	322	323	324	325	327	329	323	324	328	331	331	332	334	335	334	331	331	332	335	334	334	333	333	330	331	327	326	324	327	328	330	331	334	340	343	341	337	330	329	330	331	334	331	330	324	321	321	323	327	330	330	330	327	325	328	330	330	329	327	333	334	333	332	333	332	330	329	330	330	328	328	326	327	329	333	336	331	330	329	334	330	327	327	323	322	324	328	329	326	326	325	326	327	325	324	324	323	322	318	318	320	321	322	330	327	328	325	327	330	329	329	328	326	323	321	325	325	324	323	324	325	325	326	326	324	324	326	331	332	333	330	329	328	327	329	331	334	331	327	319	322	325	328	326	328	327	325	323	322	321	323	331	331	327	325	327	334	334	333	331	329	328	328	327	325	322	323	326	327	325	324	322	325	326	328	330	329	325	325	324	326	322	321	323	325	326	328	330	330	332	327	324	324	325	327	329	329	326	324	326	324	323	322	320	322	323	325	323	322	322	324	327	331	333	329	329	329	330	329	327	326	324	326	325	325	324	325	325	324	327	330	325	326	327	328	330	332	334	336	346	338	327	326	327	326	324	322	322	324	324	322	321	322	325	327	325	326	327	329	323	322	324	327	324	325	324	328	326	324	324	325	325	330	329	327	332	334	334	330	330	325	326	326	327	328	327	324	326	326	332	331	331	332	334	334	327	322	322	324	323	323	325	326	326	324	320	318	318	323	325	319	320	321	323	327	330	330	332	331	330	329	331	335	335	332	328	328	326	321	323	328	327	327	327	329	328	328	328	328	328	328	329	329	328	327	326	324	324	328	327	330	326	327	327	324	321	319	318	319	325	320	318	318	317	316	317	320	321	325	327	325	323	319	321	321	323	325	331	325	324	323	324	323	322	329	329	325	322	320	320	325	325	330	334	337	337	335	331	325	323	322	321	322	330	332	335	324	327	331	336	336	332	324	322	324	324	326	325	325	327	326	328	329	331	333	329	328	326	324	324	324	324	324	324	328	329	329	329	329	329	330	331	334	337	336	335	331	331	330	330	331	331	330	328	328	330	330	329	330	327	327	325	322	322	324	320	321	329	332	331	0	0	0	0	0	0	0	0
314	315	316	316	318	321	324	330	333	333	334	332	333	337	337	338	331	322	321	321	321	322	318	316	315	316	320	320	322	325	328	327	324	321	321	320	321	325	326	324	323	324	324	324	325	326	322	325	326	325	327	328	328	328	328	328	325	329	328	328	328	329	331	325	325	324	322	327	327	326	324	322	323	327	330	327	326	328	329	329	331	331	331	332	332	329	322	319	322	325	327	325	321	321	323	327	328	331	326	324	325	335	338	338	337	331	332	331	327	325	327	329	322	321	325	336	335	333	329	329	327	329	331	334	335	327	325	327	332	331	330	330	331	332	331	334	334	330	328	328	329	330	330	328	328	330	330	331	332	330	326	325	326	327	326	326	323	320	320	319	323	325	324	322	323	322	323	323	323	323	323	327	329	331	331	331	330	326	325	328	329	329	330	331	329	327	326	323	322	320	320	327	329	332	333	336	335	334	335	329	328	326	326	327	324	322	320	319	319	324	328	327	325	323	321	321	324	327	329	327	325	323	323	323	328	329	329	327	327	327	327	325	325	325	325	327	329	333	331	330	329	329	323	320	318	321	321	323	327	327	324	323	323	318	319	319	322	321	320	318	318	317	316	318	320	321	321	322	320	321	320	321	328	328	325	323	323	321	323	321	322	322	319	323	322	322	320	321	322	326	329	330	328	325	326	323	324	325	326	321	320	319	320	322	321	320	319	319	317	323	315	315	318	322	325	324	323	323	324	324	322	321	324	324	323	323	322	322	323	324	324	323	321	320	322	325	327	326	327	325	327	326	322	321	319	318	320	320	326	328	327	328	324	324	323	323	325	325	324	323	321	321	320	321	320	320	321	321	322	322	320	318	320	324	328	332	327	326	322	327	325	324	321	321	320	322	324	324	324	323	322	324	326	324	323	324	326	326	324	327	320	318	317	316	318	320	318	317	318	317	319	319	318	321	325	326	325	325	321	322	326	318	317	319	321	323	322	323	322	324	318	319	314	315	317	319	320	319	319	326	328	325	325	326	325	328	328	325	322	323	323	323	329	326	325	325	325	327	318	317	320	319	319	319	321	322	322	319	316	316	317	318	320	319	320	321	324	326	329	329	329	327	326	327	330	331	329	327	327	324	318	318	322	326	324	323	324	322	321	323	325	325	325	326	326	326	323	322	319	319	318	317	319	321	321	319	314	314	317	317	316	318	317	316	315	314	314	314	319	320	321	323	323	320	316	317	318	321	322	322	321	319	316	313	316	321	328	325	321	319	319	318	324	325	326	330	333	329	325	325	325	322	321	321	321	326	329	321	324	328	329	330	333	328	324	318	319	321	320	320	322	323	328	328	328	330	330	327	326	326	324	323	323	323	325	326	327	327	325	326	326	326	328	328	327	324	330	328	327	327	326	325	323	323	327	326	325	326	327	327	329	326	326	323	318	320	320	320	323	323	325	326	0	0	0	0	0	0	0	0
314	314	314	317	317	319	322	324	327	327	326	326	331	337	337	338	321	317	314	314	314	319	319	316	316	315	316	316	318	323	326	323	322	323	323	320	318	317	318	319	321	320	320	319	322	321	320	324	324	326	328	328	328	325	324	316	320	328	326	324	326	325	324	321	319	319	323	324	326	324	324	320	322	323	323	321	321	326	327	328	328	330	333	332	332	327	321	318	321	323	325	326	323	323	324	323	322	315	315	319	321	328	331	334	331	329	326	321	323	326	326	326	323	322	322	331	332	331	330	327	324	325	327	330	333	327	324	326	330	328	328	328	329	328	328	332	332	328	326	325	326	326	326	323	324	324	326	325	322	321	323	324	324	326	325	324	321	320	320	320	323	322	322	321	321	319	320	319	320	321	321	322	323	323	322	319	320	321	323	324	325	326	327	326	327	323	321	319	320	321	320	320	328	329	329	324	328	329	331	333	326	324	324	326	324	322	319	313	313	316	320	319	318	318	319	319	320	320	324	326	317	315	314	315	316	316	325	324	323	317	309	308	315	321	322	324	327	326	325	325	325	319	318	319	318	319	320	323	324	322	320	321	318	315	315	315	318	318	316	316	315	315	313	314	316	317	316	316	314	316	313	315	319	324	323	321	323	320	321	319	319	317	317	319	320	322	320	320	320	320	325	321	321	321	316	318	317	320	316	315	315	315	317	317	317	319	318	318	320	321	316	315	316	320	323	324	323	321	320	322	320	319	320	322	322	321	319	321	321	324	328	327	319	317	318	320	321	322	320	324	319	316	314	314	312	312	317	318	319	324	324	325	324	323	321	321	321	321	322	321	321	321	322	321	321	320	319	320	319	320	319	316	318	321	331	324	324	322	317	324	323	321	321	320	320	322	324	323	319	319	322	323	323	324	324	321	321	320	315	315	313	311	310	315	316	318	317	316	315	315	316	319	318	317	321	322	324	323	316	316	316	316	316	316	316	316	314	313	312	315	315	312	309	310	311	317	314	314	316	318	324	323	319	321	321	324	325	322	321	320	320	319	321	312	315	319	321	321	313	311	312	316	318	317	319	320	320	318	315	310	313	316	318	319	317	317	321	324	324	327	325	324	322	322	326	325	323	321	323	321	319	317	318	319	320	321	320	316	316	315	317	317	324	322	322	323	315	314	314	316	313	314	315	317	318	315	314	313	313	314	315	311	310	310	313	312	311	313	317	320	320	319	317	317	314	313	314	317	318	316	310	309	307	310	315	316	318	320	316	310	310	308	310	319	324	326	330	320	316	321	324	326	320	316	316	321	318	318	318	326	324	322	317	320	320	318	316	312	311	309	315	319	322	318	322	325	324	324	324	323	323	323	322	322	324	324	324	323	321	321	321	318	317	320	325	323	323	322	322	324	324	323	321	321	325	323	322	324	324	322	322	322	321	317	317	317	319	320	322	322	322	322	0	0	0	0	0	0	0	0
312	313	311	312	312	315	319	321	320	320	319	319	322	327	325	325	316	314	313	313	314	314	316	317	314	313	314	314	317	319	320	320	320	324	324	324	322	319	315	315	314	314	315	315	315	312	317	320	325	326	322	322	322	320	315	319	324	323	323	324	322	321	320	319	320	320	322	317	321	323	322	321	321	320	320	320	318	321	326	328	327	327	330	331	329	329	317	314	319	319	320	322	324	324	319	318	318	317	312	313	315	319	323	324	324	321	316	318	322	324	323	323	321	320	321	319	317	321	319	319	321	322	325	326	330	330	324	323	328	326	327	327	326	324	324	324	326	327	324	324	324	324	321	317	315	316	317	318	314	314	316	319	320	321	321	320	317	315	316	318	321	320	319	318	318	315	314	316	317	319	320	318	319	317	317	317	318	318	320	320	320	320	322	322	320	318	314	314	317	317	317	318	320	321	320	320	323	324	324	324	325	321	318	317	320	319	317	314	312	312	312	311	312	314	317	317	317	318	319	316	315	313	312	314	315	315	315	313	310	309	310	311	311	315	318	323	323	317	318	316	316	316	316	317	315	316	316	317	313	310	312	311	310	311	312	311	314	316	316	316	315	313	311	312	315	316	316	316	312	311	311	310	316	319	322	318	318	318	317	317	317	317	317	317	317	322	321	321	319	319	316	319	317	315	313	313	313	314	312	313	314	313	312	314	314	315	315	318	316	315	316	315	316	316	319	316	317	319	319	320	319	319	318	315	316	322	318	319	318	321	322	321	320	317	313	311	313	314	319	317	319	317	312	312	311	313	313	315	318	319	323	322	319	314	315	313	317	312	313	315	318	321	321	321	321	320	318	316	316	317	319	320	322	315	316	318	319	319	317	319	320	314	314	320	321	322	321	324	317	314	314	316	318	320	319	312	313	311	314	314	312	310	310	312	315	317	319	318	314	314	313	314	314	314	314	311	311	311	311	311	311	311	310	311	316	312	311	311	310	310	312	314	312	311	313	313	313	312	313	314	316	315	314	315	316	319	319	319	320	318	317	312	311	311	315	318	320	311	312	307	310	310	314	313	315	318	318	312	309	307	308	309	313	314	312	312	315	319	323	324	324	323	321	322	322	321	317	316	312	309	311	321	323	322	321	317	316	313	312	314	316	317	322	308	310	319	314	313	313	311	311	313	313	314	315	315	314	310	311	312	313	309	308	309	309	310	309	309	311	312	316	316	314	312	311	311	312	314	315	309	308	308	307	309	313	313	315	318	310	308	308	308	305	307	309	311	315	316	315	316	322	323	318	315	314	313	314	314	314	315	315	315	315	314	317	316	316	314	308	306	305	307	307	308	314	321	319	319	318	318	317	318	320	320	321	319	316	317	317	317	315	313	313	313	313	312	320	317	316	321	321	320	320	318	315	320	320	322	319	315	314	314	317	316	314	315	316	318	319	319	319	318	0	0	0	0	0	0	0	0
308	307	306	310	310	312	313	314	315	315	312	312	315	315	316	316	313	312	310	310	310	310	310	311	310	309	311	311	313	317	317	316	319	321	321	321	321	320	318	316	316	315	314	314	311	315	314	319	319	316	314	313	313	313	314	319	319	318	319	322	321	319	317	317	319	319	315	313	315	318	318	319	317	318	317	317	315	319	323	324	323	323	327	330	326	326	320	315	316	318	321	320	319	319	318	316	314	312	309	309	310	315	318	316	319	318	314	315	316	320	320	321	321	320	319	318	314	317	317	317	317	321	323	324	324	322	326	323	321	321	323	323	322	319	319	320	317	319	320	320	319	319	313	310	312	312	314	312	313	313	312	313	313	310	311	311	313	313	313	317	320	317	316	316	311	310	309	309	313	314	315	313	315	314	316	316	317	316	318	318	319	318	319	319	314	312	310	309	313	309	310	311	317	319	318	319	320	321	320	317	316	315	313	311	313	314	313	311	311	312	313	312	309	308	308	311	317	317	317	311	311	309	309	311	314	316	316	315	315	312	312	313	313	314	316	318	314	313	313	314	314	313	312	311	311	313	314	315	312	310	311	310	307	308	306	307	308	310	315	315	311	308	308	302	304	307	315	315	312	310	309	310	314	315	315	316	315	314	315	314	315	316	315	312	312	312	310	307	317	314	311	314	312	313	312	311	311	308	310	311	313	312	311	311	312	314	313	314	312	309	310	313	315	313	309	311	312	312	309	315	316	317	312	311	313	316	319	317	316	318	320	318	316	314	313	313	311	312	316	316	318	315	312	311	311	311	313	313	313	319	319	316	315	313	311	310	308	307	308	313	315	319	320	321	319	315	316	313	313	316	317	318	313	310	312	308	310	311	313	314	310	310	311	313	319	324	326	319	315	312	309	311	307	307	308	307	308	312	311	314	313	313	311	311	316	319	321	317	315	313	312	312	312	312	311	310	309	310	311	311	311	310	310	309	310	312	305	306	306	308	309	307	307	309	310	312	312	312	312	312	312	313	312	314	315	314	316	314	314	311	313	310	311	310	313	314	314	311	308	308	307	304	307	309	312	312	312	308	308	308	310	311	312	311	305	310	313	317	319	319	318	317	319	322	310	306	314	312	310	308	309	318	321	319	318	316	308	309	311	313	310	305	305	305	309	314	314	312	311	310	310	310	310	311	313	312	307	307	308	312	311	307	307	308	307	307	307	309	310	312	315	313	316	315	310	308	308	309	310	307	306	307	308	310	312	312	313	317	311	300	294	302	304	306	307	312	313	314	313	310	311	313	312	313	312	314	313	313	313	312	314	313	313	308	311	314	314	311	306	304	303	304	304	305	310	312	315	315	310	310	310	305	309	317	313	314	312	311	311	311	309	308	308	309	309	308	308	312	316	319	318	315	316	315	313	312	316	316	318	317	314	314	313	310	311	311	313	315	316	316	315	312	0	0	0	0	0	0	0	0
304	304	304	310	310	311	313	312	312	312	310	308	308	310	312	312	307	307	307	309	306	306	305	305	304	303	307	309	309	314	316	317	316	317	317	317	317	318	319	318	318	318	317	317	312	312	314	313	313	313	311	310	311	311	313	315	313	313	314	311	312	314	313	314	316	316	316	313	314	313	315	316	314	314	313	314	314	314	319	320	319	316	316	321	320	317	313	315	316	319	319	315	314	314	315	315	311	310	307	307	308	309	311	314	315	314	311	310	312	314	317	318	317	315	311	309	310	310	310	311	314	314	316	316	315	311	313	311	315	317	319	319	317	315	312	311	311	314	315	315	310	306	306	308	309	310	309	310	311	312	312	311	309	309	308	308	315	314	314	316	318	312	312	314	312	309	306	304	309	307	305	306	311	308	308	305	309	315	317	317	317	316	318	313	312	306	303	304	307	313	312	314	314	317	318	317	317	319	315	312	311	313	314	310	305	311	311	309	309	311	310	309	309	308	308	308	309	314	313	309	308	306	305	309	313	315	316	316	307	308	305	311	311	312	313	312	313	310	309	312	311	310	312	308	309	311	313	311	312	306	308	308	307	307	307	307	307	307	305	308	307	306	300	302	302	306	311	314	308	308	308	309	312	309	309	309	316	317	317	317	315	313	311	309	309	307	306	304	302	303	304	310	311	312	312	311	307	305	308	309	307	312	313	312	311	312	311	311	309	307	309	312	311	312	310	311	312	311	309	309	310	311	308	309	309	311	314	313	312	315	319	315	314	305	304	310	310	314	317	314	314	313	313	309	309	312	313	315	317	317	315	314	315	317	317	318	314	313	312	312	315	314	315	314	315	313	311	310	310	311	312	314	308	308	311	306	309	308	309	310	310	310	310	312	314	315	315	314	313	310	310	308	308	304	306	307	306	306	311	310	312	311	311	309	310	313	316	315	314	309	310	310	311	311	311	310	308	308	310	311	310	309	307	307	309	306	305	307	307	307	306	305	305	306	309	309	310	307	311	311	311	310	309	310	312	312	306	308	307	307	304	307	307	307	307	308	310	306	308	308	307	303	303	305	307	308	306	305	306	308	312	311	308	303	296	303	312	313	315	314	311	311	310	311	307	306	303	309	306	308	310	309	312	317	316	313	306	300	302	308	305	303	301	302	311	312	311	312	311	308	308	308	307	307	310	310	305	304	306	310	308	307	307	307	304	305	307	310	310	312	310	308	308	309	315	308	305	304	303	307	306	308	309	311	314	311	311	306	303	298	294	293	301	303	306	308	308	307	307	307	307	308	310	311	310	310	312	312	311	310	309	305	303	309	311	312	307	305	304	303	305	306	305	305	310	311	311	304	306	304	305	303	302	305	308	307	308	308	308	307	307	307	306	306	304	305	306	311	314	317	315	313	313	313	312	312	313	313	314	315	315	315	312	309	308	307	310	311	312	311	311	307	0	0	0	0	0	0	0	0
300	302	306	309	309	310	307	309	312	308	308	306	305	306	307	307	303	303	304	306	303	303	303	302	303	302	305	308	308	310	314	314	313	310	310	310	314	317	317	312	311	313	312	312	310	309	310	313	314	311	308	307	308	308	309	304	304	306	309	308	306	307	309	309	310	311	311	311	310	310	311	311	311	312	311	311	310	310	312	316	317	314	310	308	307	308	308	311	314	315	315	314	312	310	308	309	308	308	305	304	303	306	308	310	311	311	309	308	309	310	310	309	306	307	307	313	313	314	311	310	310	312	314	315	313	309	311	311	312	313	310	307	304	308	309	308	310	312	306	309	307	304	301	301	301	303	304	301	304	308	310	307	308	308	313	309	309	315	315	313	311	309	305	311	312	310	303	302	301	299	301	303	302	301	303	304	306	305	307	304	304	313	311	311	308	305	304	308	307	310	305	305	308	311	309	309	312	313	311	309	303	305	306	305	305	309	310	308	309	309	309	308	308	306	305	306	306	307	306	308	304	304	303	306	307	311	314	315	304	303	305	308	310	310	308	309	308	307	306	308	309	309	308	304	306	306	302	303	313	311	305	302	304	307	308	309	308	305	303	300	300	302	302	300	303	305	314	315	310	307	306	308	308	305	304	304	306	308	311	312	311	309	305	305	303	303	304	298	299	301	304	305	305	306	312	309	306	301	301	303	309	317	317	316	314	312	313	310	308	306	305	307	309	308	308	312	311	310	309	309	309	308	307	307	307	307	310	306	308	310	310	317	310	305	306	307	305	304	306	308	310	311	310	307	305	311	312	315	315	314	311	310	310	312	314	316	313	310	310	311	313	311	312	310	307	308	306	308	307	308	309	309	306	307	309	308	307	307	305	308	310	310	310	312	313	313	309	306	307	306	302	303	308	309	310	309	306	305	307	309	309	308	307	302	304	304	307	310	310	308	306	309	308	308	310	309	307	306	306	307	307	304	301	302	306	308	303	300	303	305	305	302	301	303	305	306	308	307	305	306	308	308	306	305	297	300	302	305	306	305	303	305	304	304	305	305	304	305	304	304	304	304	303	306	306	304	302	299	298	298	299	302	304	297	295	297	301	303	313	313	309	304	303	306	306	304	304	303	303	306	308	308	306	305	306	298	293	297	295	294	302	302	302	302	305	305	304	307	308	306	302	299	299	300	303	304	306	304	307	308	305	305	305	304	302	301	303	304	302	302	305	306	306	304	301	299	297	298	302	300	303	303	303	309	309	300	307	304	302	299	298	297	298	299	307	307	306	305	304	302	301	297	299	300	304	310	307	306	307	310	310	310	310	309	309	311	307	305	304	308	307	307	306	306	309	307	310	305	304	304	304	301	301	301	304	304	303	303	303	303	304	303	305	304	303	303	304	306	307	307	308	309	312	313	313	312	311	310	309	308	308	311	312	307	305	304	304	305	303	302	304	309	0	0	0	0	0	0	0	0
296	298	302	306	302	302	302	305	304	303	303	303	302	303	303	303	301	302	303	302	302	302	302	300	302	301	302	304	304	308	310	310	309	308	307	307	309	313	312	308	307	307	309	308	308	309	312	313	313	308	305	304	301	299	299	301	302	303	303	304	304	303	305	303	305	306	306	307	308	308	308	308	309	309	308	308	307	307	310	314	315	313	302	302	303	305	306	306	305	307	309	310	310	306	305	305	305	305	303	300	302	306	307	308	308	308	309	308	308	309	307	303	303	306	309	312	313	316	315	310	306	307	310	312	312	311	311	312	314	308	306	304	304	303	303	307	307	304	307	303	301	304	301	301	297	296	296	299	302	303	301	303	306	308	309	308	307	306	306	307	307	306	306	308	308	305	304	303	304	303	302	301	304	301	300	301	302	301	304	301	302	301	300	304	306	306	304	307	306	304	299	303	304	305	303	309	311	308	307	304	303	304	303	304	304	307	307	306	307	306	306	305	306	304	304	305	305	307	304	302	303	303	303	305	305	308	310	310	300	300	301	304	307	307	307	306	301	305	309	310	309	308	309	305	306	306	302	302	305	310	307	304	299	303	305	307	302	304	301	296	298	299	302	300	301	301	303	299	302	304	303	300	302	302	302	300	299	296	298	297	297	302	302	300	299	300	297	298	300	304	305	304	302	301	301	301	302	302	302	301	307	309	309	309	307	305	303	302	298	300	302	302	305	304	298	302	307	312	312	308	308	306	306	303	304	305	304	306	302	305	307	308	310	304	304	304	303	302	302	306	307	307	306	304	303	305	310	313	312	304	302	304	308	311	315	312	310	309	307	307	307	307	307	307	304	302	303	307	308	310	308	306	306	307	306	305	305	303	302	302	302	301	295	296	299	303	303	304	302	301	301	303	303	301	298	300	302	303	301	304	305	305	302	302	302	303	303	304	303	303	304	305	304	307	309	309	305	305	303	302	298	299	300	302	305	306	299	301	302	302	301	301	301	300	301	303	306	305	304	302	305	304	302	298	297	299	301	297	296	303	302	304	302	302	301	302	302	301	302	300	300	299	302	302	302	298	297	298	296	295	298	298	300	297	296	297	295	295	300	301	299	300	302	301	300	299	298	296	300	301	302	303	302	304	300	295	294	296	294	294	295	301	301	302	301	301	301	298	303	301	297	295	297	297	297	298	297	303	302	303	300	299	298	297	295	295	295	296	296	296	297	303	303	295	295	296	298	299	299	298	299	302	303	301	301	303	297	302	300	300	299	299	299	300	301	303	299	297	302	302	305	308	308	304	302	304	304	305	306	307	309	309	308	310	309	308	308	308	310	308	305	306	307	308	309	313	313	305	305	308	306	303	297	297	300	302	302	302	301	302	302	304	306	307	305	304	303	303	305	306	305	306	308	308	310	309	306	303	302	303	303	304	310	305	303	303	298	296	297	297	298	301	0	0	0	0	0	0	0	0
292	295	302	300	298	298	300	301	295	290	290	294	299	302	301	301	300	300	299	298	299	299	299	299	301	299	299	300	300	304	304	305	304	301	303	305	305	305	305	303	303	305	307	304	304	309	311	312	309	304	302	301	300	299	299	300	302	302	301	299	303	304	304	305	304	303	303	303	304	305	305	306	306	307	307	305	304	306	307	302	297	300	296	299	303	305	303	303	304	301	301	304	306	303	301	303	302	302	301	301	302	304	304	307	306	309	310	312	312	310	306	303	306	307	309	309	311	312	311	306	303	303	305	308	309	310	310	310	306	300	299	300	304	305	304	304	303	305	304	301	297	296	296	299	295	294	296	298	297	297	299	302	303	304	306	305	304	304	304	305	305	305	303	303	301	302	303	303	304	303	301	300	302	302	300	298	298	299	297	297	300	301	298	296	298	300	301	303	303	300	299	298	302	302	303	303	309	305	302	301	301	301	301	302	297	306	300	302	303	304	304	304	303	301	297	296	297	297	298	300	301	302	302	302	304	305	306	303	299	299	300	302	304	305	304	298	299	301	296	305	308	308	302	302	304	300	301	300	305	310	308	304	298	301	303	303	300	294	295	294	295	299	299	298	298	300	295	295	299	301	300	300	301	298	299	298	297	296	290	292	296	295	299	298	296	296	295	296	299	300	300	301	300	297	294	295	298	298	295	294	295	296	301	302	303	302	300	299	296	298	297	298	302	300	297	300	305	312	311	309	304	301	301	303	302	303	300	307	301	301	303	302	301	302	302	302	302	301	302	302	304	304	303	303	302	301	302	302	306	304	298	298	298	299	302	306	307	306	304	304	301	299	300	300	299	299	303	306	309	309	304	304	306	305	302	302	302	301	299	299	296	300	297	295	295	294	298	298	299	300	301	303	300	299	297	296	298	298	299	302	300	300	301	301	301	301	299	300	301	299	297	303	302	306	307	306	302	301	301	299	297	297	298	298	301	301	301	301	301	301	300	300	298	298	297	297	299	300	302	302	300	299	297	296	297	298	300	301	291	295	301	303	302	300	299	298	299	299	299	295	293	295	296	299	292	299	300	298	296	295	296	297	295	297	298	296	293	292	290	288	290	299	298	299	297	296	298	296	297	296	295	296	299	302	300	297	294	291	290	292	296	298	297	298	298	298	296	295	293	290	295	297	296	298	299	298	296	290	296	297	297	297	297	296	293	296	298	299	295	293	293	293	293	293	295	295	295	295	298	296	295	295	294	296	295	298	294	297	298	298	299	298	301	300	301	300	298	292	295	301	306	310	306	301	299	299	299	303	305	305	306	305	306	309	302	295	296	304	309	306	303	305	307	305	302	298	298	295	299	299	298	296	297	297	297	302	302	302	298	294	291	291	299	308	305	304	301	300	296	302	301	303	300	303	306	306	304	298	297	297	297	300	303	302	302	302	303	300	295	294	296	298	298	0	0	0	0	0	0	0
288	292	296	296	296	296	298	296	292	290	290	294	301	303	302	300	299	298	295	293	296	297	297	297	298	296	296	295	297	297	299	299	298	297	299	298	298	297	297	300	302	301	303	302	302	309	309	308	304	297	296	297	299	299	299	300	300	298	296	297	298	304	303	305	305	301	301	301	298	299	301	302	303	303	303	303	303	304	302	299	298	298	299	301	301	303	302	300	300	298	299	301	302	301	298	300	301	301	300	300	300	301	303	305	306	302	303	304	307	305	300	297	299	300	308	308	307	307	299	301	300	297	297	301	305	306	305	297	296	293	292	301	295	298	301	303	304	303	300	297	295	291	290	289	290	292	296	298	297	297	297	300	301	301	304	302	301	301	302	303	303	302	301	299	300	300	299	301	301	301	298	298	299	302	300	299	296	295	295	296	299	294	293	287	289	295	297	298	297	297	298	298	300	302	305	304	303	301	299	298	297	297	300	301	296	296	298	295	299	300	301	302	298	296	294	294	295	295	295	295	297	300	299	300	302	301	299	301	298	298	298	299	292	300	298	292	294	296	297	294	289	286	300	302	299	301	298	298	305	305	307	303	297	299	300	299	296	295	295	293	294	296	299	297	295	293	291	292	299	299	299	298	297	296	297	295	296	295	291	291	292	296	298	298	296	295	294	296	296	298	299	300	299	297	294	293	292	293	293	293	293	292	291	291	292	294	296	296	296	296	295	297	298	298	301	305	298	298	294	291	296	301	300	299	297	300	297	293	297	299	303	298	296	296	301	299	297	300	301	302	300	302	303	301	301	302	302	303	299	302	298	296	296	295	299	303	301	301	301	301	300	299	300	300	300	299	295	301	301	300	298	297	297	299	296	297	296	296	295	299	301	303	297	296	294	294	294	294	295	296	299	300	298	298	296	294	293	294	296	297	298	296	297	299	300	299	297	299	297	296	296	298	301	303	305	301	298	297	295	294	295	295	294	296	298	299	299	299	300	300	299	299	296	295	294	295	296	292	293	294	294	296	295	293	295	298	298	299	296	293	291	292	294	295	294	292	297	297	295	292	290	286	289	292	294	298	298	298	296	295	295	294	293	294	297	299	293	291	289	287	290	294	298	296	293	293	292	293	293	296	295	294	296	301	301	301	288	289	290	292	293	294	293	293	295	293	292	291	288	288	289	290	296	297	296	295	293	290	288	294	297	293	293	295	296	297	295	296	298	293	291	293	293	292	294	295	294	293	296	295	289	288	290	291	295	294	294	293	296	297	296	299	297	300	300	298	297	295	292	295	304	304	304	302	300	298	296	299	300	298	297	302	303	301	294	294	294	294	293	296	297	299	301	296	288	288	291	292	300	300	298	295	294	293	291	291	294	294	292	291	291	291	291	301	304	302	300	297	293	296	294	300	298	298	302	302	294	292	294	294	295	300	299	299	300	304	302	301	299	298	295	294	294	0	0	0	0	0	0	0
287	292	293	294	293	293	296	293	291	292	292	292	300	302	301	299	296	295	291	291	293	294	294	294	290	292	292	292	290	290	290	291	294	295	296	296	296	297	297	298	298	297	296	299	304	304	303	301	294	293	292	292	293	297	298	298	296	296	295	294	296	298	301	303	302	301	300	300	298	294	293	294	296	300	300	301	302	301	298	295	298	299	298	299	299	299	298	298	297	297	296	299	299	299	299	295	294	295	297	297	298	301	302	302	299	296	297	297	297	297	298	300	300	301	301	295	294	292	299	298	297	296	293	295	297	297	296	291	291	291	291	299	291	293	295	295	295	294	295	294	292	289	286	284	286	293	295	296	297	296	295	296	292	292	301	300	300	298	298	300	301	300	298	297	297	296	296	292	295	297	294	294	296	302	299	292	289	290	294	294	292	290	287	289	288	290	294	294	294	293	294	293	297	302	303	304	300	301	295	295	296	297	298	297	293	294	296	296	297	297	296	297	293	292	296	294	293	291	290	290	291	291	297	299	299	299	297	298	298	298	297	294	289	290	290	291	286	290	293	294	289	285	285	287	295	294	295	300	298	304	296	295	295	297	297	295	293	291	289	290	294	295	291	295	295	294	289	292	296	295	296	295	294	293	293	294	292	289	291	290	289	295	297	298	295	295	293	293	293	294	298	295	296	296	293	291	290	290	291	291	292	290	289	288	289	293	293	297	296	292	293	297	297	297	299	296	286	294	291	295	295	302	299	298	298	290	289	292	295	297	298	296	294	291	294	297	294	291	298	298	299	298	299	301	299	298	291	295	302	300	299	298	294	291	292	293	293	296	299	298	298	296	297	298	299	300	297	295	295	293	292	294	297	296	294	296	295	299	301	302	303	300	299	295	294	293	294	295	295	298	295	296	294	294	295	294	293	291	289	292	288	293	294	295	298	297	297	297	295	294	293	294	298	300	294	299	292	292	292	292	294	294	293	293	293	290	288	288	295	295	296	296	295	292	291	288	287	286	289	292	292	292	291	290	290	289	286	284	288	290	290	291	291	291	282	285	291	296	294	293	289	286	284	287	285	294	297	299	291	289	291	292	291	293	292	294	294	291	288	287	286	291	293	297	287	288	288	291	291	296	294	292	291	288	288	287	285	287	290	294	294	291	289	291	293	293	289	286	286	287	287	288	289	291	291	290	289	287	287	291	292	293	293	291	292	284	283	282	293	293	290	290	293	292	293	293	292	291	295	294	291	285	288	288	290	292	292	290	289	293	294	295	292	296	298	298	297	290	292	293	295	289	291	295	294	290	294	294	296	295	295	293	294	292	292	293	293	294	293	291	289	290	291	291	290	290	290	292	292	291	292	291	290	289	289	290	288	289	290	291	291	292	293	295	298	297	293	287	290	291	299	295	288	288	295	298	293	291	291	293	296	295	293	294	296	300	303	300	299	297	295	292	292	0	0	0	0	0	0	0
