216	215	217	214	214	214	215	213	215	215	213	217	218	219	219	219	217	215	219	220	220	219	219	219	219	218	218	217	214	211	212	218	221	221	221	218	218	218	217	217	217	217	217	217	217	219	220	219	219	216	216	216	217	220	221	222	222	222	222	222	222	218	219	220	219	218	219	221	221	219	216	217	223	224	224	223	220	219	221	225	225	226	225	224	224	223	222	224	219	215	220	221	221	220	220	219	218	218	218	220	220	220	220	217	219	219	219	219	219	219	219	220	221	221	221	221	221	222	222	224	224	222	220	219	217	217	217	223	223	222	221	223	219	219	220	220	219	220	220	222	224	223	220	217	220	221	222	221	224	224	224	224	223	221	219	221	222	221	222	222	220	224	222	222	222	219	219	220	223	223	222	222	223	219	217	218	217	221	222	222	222	224	226	225	225	222	221	221	221	222	221	224	222	223	223	227	223	224	224	222	222	222	223	223	223	222	220	218	220	219	219	219	220	221	222	222	224	222	222	219	222	225	222	223	224	222	224	224	223	222	222	223	223	223	224	223	225	225	225	228	229	227	224	224	224	224	222	222	222	221	222	222	223	222	222	224	224	219	223	224	222	225	224	225	227	227	227	227	225	222	223	225	228	228	227	226	225	224	222	224	225	225	225	226	226	225	222	221	221	223	222	225	225	222	222	223	223	225	229	226	225	225	225	222	223	224	226	222	222	222	223	224	224	225	224	227	226	221	222	224	223	224	223	223	223	222	221	221	223	226	226	226	222	221	220	222	223	219	220	224	224	224	225	225	227	224	225	223	225	224	226	222	227	227	223	226	224	221	222	220	220	221	223	226	226	226	225	225	227	228	227	226	226	222	221	222	223	227	229	224	226	226	225	225	223	223	223	225	225	226	224	224	225	225	223	223	229	227	227	226	225	223	222	221	221	221	220	222	224	224	225	227	228	227	228	225	226	220	224	225	225	224	225	225	225	225	226	225	224	224	222	221	221	221	221	221	221	221	223	224	221	223	227	228	228	227	222	221	224	225	223	227	228	222	222	224	225	225	223	223	224	226	225	226	228	226	226	222	221	220	220	221	225	226	227	223	223	219	220	224	226	225	227	223	225	223	222	222	221	219	218	220	220	219	220	218	220	220	221	221	218	220	219	221	222	223	223	220	217	221	218	221	220	219	216	218	218	219	219	217	221	220	219	219	219	219	218	217	216	217	218	218	221	221	221	220	216	215	217	217	217	217	217	223	217	222	217	219	216	218	216	217	218	217	216	216	217	216	216	215	215	218	216	213	219	219	218	219	219	218	218	219	220	219	220	219	219	217	216	216	216	216	217	217	219	219	219	220	218	218	220	221	221	220	219	218	220	217	217	216	215	215	216	215	217	217	220	220	220	219	220	220	224	220	217	216	215	215	215	216	216	218	217	218	217	217	217	217	215	215	215	214	213	215	0	0	0	0	0	0
213	213	215	213	214	214	214	212	212	213	213	215	216	217	216	216	215	214	214	217	219	219	219	218	219	219	216	216	214	214	215	216	219	219	218	217	216	217	217	217	217	216	216	215	215	218	219	219	219	216	215	215	217	218	221	221	220	220	220	221	221	219	218	216	216	216	213	212	214	214	216	219	220	220	222	221	220	218	222	223	220	221	222	222	222	222	220	218	215	215	215	218	220	219	218	216	217	216	216	216	216	216	218	217	217	219	218	217	217	217	217	219	220	220	220	219	219	218	219	220	221	221	221	218	219	219	220	220	220	220	220	219	219	218	218	218	217	216	217	218	216	219	216	218	218	220	215	221	216	220	223	217	217	218	218	218	218	218	220	219	219	220	219	216	217	218	218	219	220	223	223	223	223	218	215	215	215	220	220	221	218	223	225	225	222	221	220	220	221	222	222	223	224	223	222	222	223	223	223	221	220	222	218	222	222	218	219	218	219	219	219	219	219	220	220	220	221	221	219	220	220	222	221	222	222	221	221	221	220	222	220	222	220	222	217	218	222	223	224	225	225	222	218	218	219	222	222	222	221	222	220	222	223	223	221	222	224	223	222	223	223	222	222	222	222	223	222	222	223	222	221	223	222	220	221	222	223	221	223	217	224	219	225	225	225	225	221	221	221	221	222	222	222	222	223	223	224	223	224	224	223	222	221	220	222	224	226	223	220	221	221	223	223	222	223	221	226	227	222	224	224	222	222	223	223	224	225	220	222	222	220	224	223	225	226	220	219	219	220	224	224	224	224	228	223	224	222	224	224	224	226	227	225	226	227	228	224	218	220	220	223	229	226	224	227	225	222	220	225	226	225	226	226	226	221	222	226	227	227	225	225	224	224	224	223	221	221	222	222	221	222	222	222	225	222	223	224	226	225	223	223	223	222	220	220	221	222	221	224	224	225	225	225	225	225	225	220	220	219	223	224	222	222	224	223	223	225	224	225	223	220	220	220	220	222	223	225	222	219	219	217	219	221	222	222	222	219	218	220	221	224	223	224	226	223	224	219	218	219	222	225	223	223	225	225	226	222	222	220	219	217	218	220	221	222	221	221	219	225	225	226	223	220	218	219	223	223	222	220	219	215	219	220	218	217	217	218	220	221	221	218	218	219	220	221	222	223	220	217	222	217	219	220	216	216	216	217	217	214	217	217	218	218	219	219	218	218	217	216	217	217	216	215	215	215	215	214	214	217	217	217	216	213	215	215	216	217	217	218	219	218	217	217	216	215	213	213	216	214	214	213	214	211	212	212	213	214	216	218	214	214	215	218	219	219	217	216	215	214	216	215	216	217	217	219	218	217	218	216	215	217	218	221	220	220	214	217	219	217	216	216	215	215	214	217	219	218	217	216	215	214	216	218	217	217	214	214	214	217	217	217	216	217	217	216	215	215	210	215	215	215	214	215	216	0	0	0	0	0	0
212	212	213	211	211	211	211	210	210	212	212	214	214	215	214	214	211	209	208	210	211	211	216	212	215	214	213	213	214	214	215	216	216	216	216	216	216	216	216	216	216	216	215	212	213	214	217	217	216	216	215	213	216	218	218	219	219	218	218	218	218	216	215	212	214	214	214	215	216	216	216	216	216	216	218	219	217	218	220	219	218	217	219	220	220	220	220	214	214	214	214	214	218	216	216	216	216	215	215	216	217	218	218	218	218	217	217	217	217	217	214	217	218	218	218	218	216	216	217	218	220	220	220	221	220	219	219	220	220	220	219	217	217	218	217	217	215	215	214	216	219	216	216	217	217	214	217	214	215	217	215	215	216	217	215	217	217	217	218	218	218	218	218	218	218	219	219	219	218	217	218	218	218	217	217	216	219	218	219	219	218	217	222	222	221	219	218	220	221	221	220	221	221	216	220	220	220	220	221	220	219	221	219	222	218	218	217	217	218	219	218	218	217	219	219	220	220	220	218	220	220	220	220	220	221	220	220	218	218	218	219	221	215	211	214	214	218	220	222	220	220	218	218	219	220	221	222	222	221	220	223	225	222	218	220	221	222	221	223	223	220	217	221	220	219	219	219	221	220	224	225	219	219	215	218	217	218	217	217	225	216	219	221	222	223	219	220	219	220	221	222	222	221	220	220	220	222	220	222	225	225	225	217	218	220	223	221	221	221	218	222	224	225	219	223	224	222	223	227	226	225	220	221	222	223	225	220	222	219	219	222	220	225	224	226	223	219	219	220	225	225	224	223	224	222	224	224	224	224	222	224	225	226	227	227	227	223	223	216	216	227	225	223	222	222	226	222	222	221	222	223	223	224	223	221	220	220	224	223	221	225	224	224	222	221	221	221	221	222	221	221	222	221	221	222	218	219	222	224	222	221	220	220	219	220	222	221	221	223	222	223	224	226	225	226	222	220	220	219	220	222	221	222	220	223	220	224	221	223	224	223	220	221	222	223	224	226	223	220	216	217	220	221	222	223	221	220	220	217	218	222	222	223	222	222	220	219	218	217	220	220	222	221	221	221	220	222	221	220	218	220	218	218	215	219	220	219	223	220	225	225	221	216	217	217	219	221	221	223	219	216	216	218	216	215	216	216	218	219	219	215	218	221	220	219	217	217	221	221	221	217	217	216	216	215	215	218	218	217	217	217	217	218	218	218	217	216	216	216	217	218	216	215	215	215	215	214	215	215	216	216	214	212	211	212	214	213	213	217	218	217	216	215	214	214	213	213	213	216	213	212	209	212	211	211	212	213	214	213	214	213	213	214	217	216	215	214	214	214	215	215	216	217	218	217	217	215	216	215	214	214	215	214	212	212	215	214	216	218	218	215	213	215	215	215	213	214	214	212	211	212	212	214	215	211	210	210	213	213	213	213	218	216	214	214	211	213	213	213	214	215	214	214	214	0	0	0	0	0	0
210	210	211	211	212	212	212	210	208	212	212	213	214	213	212	208	208	205	206	208	208	208	209	210	210	213	214	214	214	215	216	215	215	215	215	215	213	214	215	216	216	214	214	211	212	213	214	214	215	215	213	212	215	216	217	216	216	218	218	218	217	215	213	212	213	214	215	213	213	212	212	216	216	215	217	216	215	216	217	216	216	215	213	214	216	215	214	213	214	214	215	214	214	216	215	214	215	216	216	215	218	219	219	220	220	219	216	216	216	214	214	214	216	217	218	218	217	215	215	216	218	219	220	216	218	219	218	213	213	213	217	216	216	217	217	215	214	213	212	216	217	218	216	216	216	214	212	211	213	214	214	213	216	213	213	214	216	216	216	216	217	215	214	214	216	215	215	215	214	214	214	217	215	214	214	214	215	217	217	218	216	218	218	217	219	218	218	218	219	220	221	221	219	218	215	216	218	218	218	214	218	219	221	220	216	216	216	217	218	220	218	217	217	219	219	219	220	220	218	220	220	219	219	219	219	219	220	217	217	218	219	219	214	214	211	214	216	216	221	221	222	221	218	218	219	221	221	221	220	219	222	218	219	218	218	218	219	221	223	222	218	218	221	218	219	220	217	218	218	220	223	221	218	217	217	219	218	220	219	215	219	217	218	217	217	218	218	220	221	217	217	217	221	222	218	216	219	222	220	222	222	222	220	219	220	224	222	224	221	215	219	225	222	219	221	220	222	223	222	222	221	221	223	222	222	218	220	219	219	220	220	226	219	226	221	225	223	221	224	217	218	220	224	218	221	222	221	221	223	221	219	218	219	219	219	220	219	219	220	220	225	222	220	222	223	224	225	217	222	222	223	223	222	222	218	219	221	219	220	221	221	222	222	223	220	219	221	221	221	221	219	221	221	219	218	218	218	218	219	220	218	219	220	218	218	221	222	222	221	221	222	221	225	225	224	223	221	219	217	215	216	222	218	219	219	218	218	222	222	221	224	222	221	222	223	219	221	221	217	216	218	219	221	221	221	221	220	219	218	217	220	221	224	220	220	220	219	217	217	220	221	222	220	219	216	219	222	221	220	219	216	217	215	219	220	217	222	220	224	222	222	219	215	213	214	215	217	218	217	212	214	215	216	216	215	215	215	215	215	214	215	215	218	219	219	217	217	217	217	217	216	216	214	215	215	215	218	218	218	216	215	216	217	217	216	216	213	211	214	216	218	218	216	216	216	217	214	214	214	215	213	212	211	210	208	211	212	212	215	218	217	217	211	213	213	213	213	213	211	212	210	210	210	210	212	212	214	215	213	211	213	214	214	214	212	212	213	213	212	213	214	216	217	215	215	214	214	215	213	213	213	209	209	210	213	214	213	213	213	211	211	213	215	213	213	212	212	213	210	211	212	212	212	210	210	211	211	210	207	206	209	214	213	211	209	209	210	213	213	216	215	217	216	215	0	0	0	0	0	0
208	208	212	212	213	212	212	211	210	211	213	213	213	214	215	210	210	206	204	207	208	209	209	210	208	212	215	215	215	217	216	214	213	213	213	211	212	213	213	213	214	210	214	211	211	212	213	212	213	212	212	211	213	215	214	214	212	214	217	217	217	215	212	212	211	210	210	210	213	213	215	215	214	213	216	214	214	214	214	214	213	214	212	213	214	214	213	213	212	215	216	216	216	217	216	213	213	214	216	217	218	219	216	216	217	216	217	214	214	213	213	213	215	217	217	217	215	214	210	210	211	214	213	215	216	216	212	212	214	215	215	214	216	217	215	215	213	212	211	212	214	215	215	216	215	214	211	211	212	213	213	212	210	211	213	212	216	216	215	216	215	213	212	212	212	212	214	216	216	213	214	213	211	212	214	214	215	217	217	215	215	216	217	217	218	218	218	218	218	219	220	221	219	215	215	216	216	217	216	214	214	221	220	216	213	216	216	217	217	216	216	218	217	219	219	219	220	217	217	217	219	219	219	219	217	218	217	217	219	218	218	216	214	215	215	214	216	217	218	220	219	219	217	217	219	220	221	219	215	216	218	218	218	218	216	216	218	219	222	218	217	218	213	219	215	219	217	218	218	220	214	220	217	218	218	219	218	217	214	216	214	216	219	219	219	218	217	217	217	221	217	217	217	220	220	216	216	221	220	221	222	220	220	220	218	219	218	218	215	218	221	222	226	218	219	220	220	220	219	219	219	219	217	219	217	219	221	220	218	219	219	218	219	216	220	223	222	221	220	219	219	219	221	218	220	219	217	216	216	216	218	218	218	219	219	220	220	220	220	220	222	220	221	221	220	224	225	219	221	219	220	217	219	217	219	219	217	216	218	219	223	219	221	220	219	220	219	220	218	221	219	220	221	221	219	218	218	218	218	219	220	218	218	217	218	220	220	221	221	220	221	221	220	221	225	223	221	219	218	219	220	217	219	219	215	217	218	220	221	221	220	219	216	218	219	218	216	219	216	216	215	218	219	216	217	218	219	218	218	217	216	217	220	220	220	220	219	220	217	218	219	221	219	216	215	215	215	218	219	217	215	216	212	219	217	217	222	221	219	219	219	216	216	215	214	216	213	214	214	214	215	217	216	216	215	214	214	215	214	213	214	215	214	216	216	215	215	215	216	216	215	212	212	213	214	213	216	216	217	214	213	213	213	213	215	215	210	209	208	209	217	218	215	215	217	214	216	213	213	212	212	211	210	210	210	211	212	212	214	214	217	209	216	210	211	212	212	211	211	210	209	212	212	211	212	212	212	214	212	211	211	211	212	212	212	211	211	212	212	213	214	213	214	212	212	213	212	214	212	212	212	209	208	209	211	212	213	212	212	211	209	210	213	213	211	211	212	212	214	211	211	213	211	210	211	211	210	208	209	209	209	210	211	212	211	210	211	211	212	216	216	211	214	212	0	0	0	0	0	0
206	206	207	209	212	210	210	206	210	212	213	213	213	213	213	209	209	208	204	208	208	208	208	208	207	210	212	214	214	214	211	211	210	207	208	208	210	211	211	211	210	211	211	210	210	211	211	210	210	210	210	211	213	214	213	212	211	212	214	214	214	213	212	210	209	209	208	210	211	213	213	213	212	211	210	214	214	214	213	213	212	212	210	213	214	211	210	210	212	214	213	212	212	211	213	217	213	213	216	218	218	215	213	212	213	215	215	214	213	214	213	213	214	214	216	215	215	213	209	208	210	212	213	213	214	213	212	212	210	214	216	214	215	214	213	213	213	212	211	212	212	211	213	213	214	213	211	211	212	212	212	210	210	209	209	211	213	217	213	214	214	213	211	210	210	211	213	213	212	212	210	210	211	212	212	214	214	216	215	214	213	213	216	217	218	219	220	217	215	215	216	218	218	215	214	215	215	219	218	218	214	214	212	212	213	216	215	217	217	218	217	217	218	218	219	218	217	217	217	216	218	219	219	218	214	215	215	218	219	214	211	211	214	213	213	214	214	216	217	220	217	216	215	216	216	215	213	212	214	216	217	217	217	216	215	217	218	219	219	217	217	217	219	213	213	212	213	214	217	216	212	219	216	215	214	214	215	215	214	213	216	216	215	218	219	218	217	216	219	223	217	217	216	219	218	215	214	213	216	219	221	217	219	220	217	218	219	218	213	216	216	217	218	218	216	219	217	215	214	215	215	214	213	213	217	216	215	217	218	218	217	217	217	215	220	221	220	220	221	219	219	219	217	216	217	219	217	216	216	218	217	218	218	218	218	218	218	216	216	220	220	222	219	220	219	219	219	215	215	215	218	219	219	218	218	218	216	217	215	216	216	217	220	219	220	217	214	215	218	217	218	220	221	222	219	218	219	218	218	219	217	217	216	216	218	219	219	217	218	220	219	219	217	217	221	221	221	219	218	219	220	219	217	215	217	216	219	220	218	217	216	216	215	214	216	216	216	216	219	216	216	216	218	217	217	219	220	218	216	217	217	215	217	218	219	219	219	217	216	217	216	215	216	216	216	216	215	216	217	216	216	215	213	213	219	219	218	218	219	223	215	217	218	217	214	213	213	213	211	211	213	215	216	217	215	213	214	214	213	213	212	215	215	211	211	213	213	213	213	214	214	212	212	213	213	213	214	216	216	214	213	210	208	212	214	213	213	208	208	213	212	212	211	212	212	213	212	212	211	212	212	211	210	209	210	211	211	212	213	216	216	208	208	208	210	211	210	210	211	211	211	212	211	209	209	209	211	211	209	208	207	208	208	210	210	209	211	211	211	210	211	212	210	210	211	212	212	213	213	211	210	208	207	208	211	210	212	212	211	210	209	209	211	211	209	212	211	212	212	213	210	212	215	210	212	212	210	209	209	210	209	208	209	209	209	209	208	208	211	216	214	213	210	208	0	0	0	0	0	0
205	206	206	206	205	204	204	204	210	208	209	209	209	210	210	210	205	205	208	209	209	208	208	207	209	209	207	206	206	207	208	208	205	204	204	204	205	208	207	208	208	208	208	208	208	209	211	210	209	209	209	210	210	211	210	211	211	211	212	213	213	212	210	208	208	208	208	209	210	211	212	211	211	209	208	208	212	212	211	211	212	211	207	212	213	207	207	208	208	209	208	209	208	208	208	208	209	212	212	212	213	210	211	212	212	213	213	214	212	212	210	208	211	211	212	212	211	208	207	206	207	209	212	211	209	211	211	212	213	213	214	214	215	211	210	208	210	210	210	210	210	211	211	211	210	209	210	212	213	212	211	210	209	208	208	209	210	214	210	210	214	211	210	210	209	210	213	210	210	211	210	210	210	211	212	212	212	211	213	211	211	213	213	213	214	213	213	211	211	212	215	216	216	214	213	216	216	211	216	214	217	213	211	210	212	214	214	213	215	217	218	217	216	215	213	217	216	215	215	215	215	216	219	212	213	214	217	218	217	214	213	211	213	212	213	213	213	215	218	215	214	212	215	214	214	213	213	211	211	214	216	208	213	213	213	216	218	220	219	215	215	216	215	213	215	213	216	212	214	214	213	214	219	217	216	214	210	212	217	216	215	215	215	218	217	216	215	214	216	214	215	216	213	213	212	212	211	213	215	216	216	217	215	215	216	215	217	218	212	212	215	217	218	213	216	217	216	215	215	215	215	214	215	213	214	213	213	214	215	216	218	217	216	217	215	216	216	216	213	213	216	216	217	215	213	215	216	215	214	214	212	211	212	213	213	213	215	215	216	218	219	220	220	219	218	216	216	216	215	215	216	217	217	217	217	218	217	217	218	216	216	217	218	220	219	218	217	216	215	215	216	218	220	220	219	218	218	218	218	218	218	216	216	217	217	218	217	217	217	218	218	220	218	214	216	220	219	217	217	217	219	219	218	217	217	218	217	215	214	217	216	216	215	214	215	214	216	216	216	215	215	216	216	216	216	219	220	219	216	216	216	216	216	218	214	215	217	217	216	216	215	214	215	216	216	216	217	216	217	216	213	213	216	214	217	215	212	213	214	214	216	216	216	216	212	213	213	212	211	212	213	214	215	212	215	215	214	214	214	210	210	211	214	215	211	210	212	212	213	213	214	215	216	214	214	213	214	215	215	213	212	210	208	209	212	212	208	210	208	211	209	210	210	210	211	211	211	209	212	211	209	209	209	209	210	212	213	213	213	210	211	208	207	206	207	208	209	210	210	210	211	210	209	208	208	209	211	208	208	208	208	207	207	207	209	209	209	209	209	212	212	212	209	209	211	212	213	213	213	210	210	208	207	208	211	211	211	210	209	208	207	209	209	205	210	211	210	213	212	213	210	211	213	211	211	209	209	207	207	209	208	207	206	208	208	207	207	207	213	212	213	212	209	205	0	0	0	0	0	0
205	205	205	206	206	203	205	205	207	203	203	203	203	207	210	210	207	207	207	208	208	207	208	208	209	205	204	204	204	204	206	207	205	206	205	205	205	205	205	206	210	205	204	204	206	207	208	209	207	207	206	206	207	208	211	211	210	210	210	212	212	212	209	207	207	206	206	207	210	210	210	208	208	206	204	206	208	209	210	209	209	209	208	208	207	207	207	206	209	209	208	207	206	206	207	207	207	210	205	205	206	208	209	210	212	211	210	212	212	209	210	208	205	208	208	209	206	206	206	205	206	209	206	208	209	210	210	210	212	213	213	213	213	211	209	208	208	210	210	210	209	210	209	210	209	207	208	211	213	213	211	210	209	208	208	208	209	210	209	209	210	209	209	209	209	209	207	208	210	209	208	210	210	210	210	210	210	210	210	210	211	212	211	213	213	210	209	209	209	210	213	214	213	212	211	209	209	212	212	216	214	210	211	211	213	212	211	213	214	216	216	215	214	215	212	215	215	213	213	212	211	217	213	212	212	212	214	214	215	214	213	211	212	210	210	211	212	213	214	214	211	209	212	213	212	211	212	212	212	207	205	205	204	209	213	211	211	216	216	215	215	213	213	213	213	215	213	215	214	211	214	214	218	218	216	211	212	215	211	211	213	214	217	215	213	213	214	213	214	209	210	212	212	210	211	210	211	212	212	214	215	216	217	217	215	214	214	215	212	212	213	214	211	211	213	216	216	217	217	217	218	215	214	213	213	212	212	214	215	216	217	216	216	216	216	215	215	215	212	215	215	217	218	217	214	216	216	213	214	213	213	214	213	213	212	212	214	214	215	216	218	218	218	217	216	215	217	215	213	215	215	216	215	215	215	217	218	215	217	217	216	217	218	220	218	218	217	217	215	215	214	216	218	218	218	217	217	217	218	218	217	214	214	215	216	214	214	214	216	217	218	218	218	214	218	219	218	217	215	214	217	216	212	215	215	215	215	215	217	217	216	215	215	215	215	215	216	216	215	215	215	216	215	216	215	216	217	216	215	214	214	216	215	214	211	212	215	216	214	215	216	219	220	217	217	217	216	215	216	215	212	213	215	215	212	212	212	214	214	214	216	216	217	214	213	214	213	209	208	210	212	211	209	212	211	212	215	214	213	211	212	211	213	211	213	210	210	210	211	211	212	212	212	213	213	212	214	213	213	212	211	211	210	212	212	211	208	208	207	209	206	206	207	211	212	211	210	207	206	208	208	208	208	208	206	212	213	213	209	208	211	210	208	206	206	206	207	209	207	206	208	209	209	207	208	209	208	208	208	208	208	206	207	206	209	213	210	212	212	212	211	203	211	213	211	212	213	212	212	211	208	207	207	208	211	211	210	208	207	207	206	204	203	202	204	205	207	210	211	210	211	210	211	211	210	207	206	210	208	208	208	206	207	207	207	206	206	206	208	211	212	210	208	205	0	0	0	0	0	0
203	205	205	205	204	204	206	206	207	203	199	199	199	201	204	204	205	205	205	203	205	207	208	208	209	204	204	203	206	206	206	207	205	205	207	206	206	205	210	208	207	205	203	203	205	206	206	206	207	207	206	206	204	210	209	210	211	209	209	209	212	208	208	206	206	206	205	206	209	210	208	208	208	208	205	208	209	209	209	208	208	207	207	207	207	206	207	205	206	206	206	206	205	206	207	207	207	210	205	205	206	206	206	208	210	209	208	208	207	204	205	204	208	209	209	209	211	209	206	206	210	210	206	208	209	210	210	211	211	212	211	211	210	209	210	206	206	207	206	211	210	210	208	209	207	208	209	211	211	211	211	210	212	213	211	210	208	208	208	208	208	208	208	209	209	208	208	207	207	208	207	209	208	207	206	207	212	210	209	208	207	208	211	209	209	210	210	211	208	208	209	213	213	212	209	209	208	211	211	211	214	212	211	213	211	211	211	211	213	214	215	214	212	211	212	214	214	213	212	212	212	212	213	211	210	211	212	211	211	212	211	211	213	211	208	209	212	212	213	213	212	209	210	212	212	212	213	214	211	205	205	204	206	208	210	210	211	211	211	213	212	212	211	212	213	214	215	215	215	212	212	218	215	211	216	215	213	215	209	211	211	214	214	213	211	210	212	211	210	214	215	213	213	211	210	211	211	212	211	213	214	216	217	216	217	214	216	215	212	213	213	212	211	209	210	212	215	214	214	217	218	218	213	212	213	213	213	213	213	215	213	215	215	216	215	213	212	213	216	216	215	216	215	216	215	215	213	215	212	211	212	214	212	213	212	212	213	215	213	213	215	216	213	214	214	216	211	212	211	214	214	211	212	214	214	213	214	214	215	217	217	215	217	215	218	215	215	217	214	215	215	216	218	218	216	216	217	218	218	219	218	218	213	213	214	213	213	215	214	215	217	219	219	219	219	219	216	215	213	215	213	212	212	214	215	215	214	217	218	216	216	214	215	214	215	215	216	215	213	216	215	217	218	215	217	215	215	215	213	211	210	214	213	213	213	213	213	214	214	216	217	219	218	217	217	218	217	216	215	216	210	211	214	214	213	212	211	211	214	213	213	215	216	214	214	214	208	206	206	209	210	210	210	211	210	210	205	213	212	211	212	211	211	211	211	210	210	211	211	210	208	207	209	209	209	210	214	214	215	213	212	212	211	209	208	209	208	207	206	209	206	205	207	208	208	210	208	207	207	208	208	208	207	205	208	208	210	213	207	208	209	209	209	207	206	206	206	207	207	203	206	206	207	205	205	206	209	208	207	206	205	206	206	207	211	209	210	212	211	211	210	203	210	211	212	211	210	209	209	208	208	205	205	206	206	207	209	209	207	206	204	205	203	203	206	201	199	204	207	207	208	207	210	210	209	207	202	202	204	206	207	203	203	205	204	204	205	205	206	210	209	208	206	204	0	0	0	0	0	0
202	203	204	204	204	204	203	203	201	201	198	197	197	198	204	205	205	204	204	203	203	204	204	204	205	207	206	205	205	206	206	205	206	207	210	211	211	208	208	206	205	201	199	200	200	200	203	204	205	206	205	204	204	207	205	205	206	205	206	209	208	207	204	205	206	205	206	206	207	207	207	208	209	209	206	208	210	209	206	205	206	206	207	207	207	207	206	204	206	206	206	206	205	206	206	207	208	209	208	208	207	206	206	205	204	206	207	207	205	203	203	207	209	209	207	208	210	208	207	208	208	209	207	208	208	206	208	208	208	204	207	207	206	207	207	206	204	204	204	208	208	206	207	209	208	208	208	208	208	208	210	211	211	211	210	210	208	208	208	206	206	206	206	208	208	207	206	206	206	207	208	209	208	207	206	207	206	208	210	209	209	208	209	209	208	210	212	209	208	208	209	210	212	212	212	205	205	210	209	210	211	210	211	210	210	207	207	210	210	210	213	212	211	210	210	210	214	214	212	211	212	213	213	210	210	211	212	210	210	213	213	213	211	210	208	210	210	210	213	211	211	210	208	212	212	208	205	206	209	205	205	206	205	210	210	210	210	209	209	209	210	211	212	211	213	215	216	216	215	209	209	211	211	213	215	214	212	209	210	209	212	212	211	212	211	211	211	210	210	212	215	214	211	210	210	211	212	212	212	213	213	216	214	214	213	214	213	212	212	213	211	212	211	211	211	211	212	215	217	216	218	215	211	211	212	213	212	211	214	213	215	215	215	215	215	213	212	214	215	216	215	215	214	215	214	214	213	211	212	210	210	213	214	213	212	212	212	212	213	213	214	213	213	212	213	213	211	210	212	213	213	212	212	211	210	211	211	214	215	215	215	213	213	214	215	213	213	213	212	215	212	217	212	217	214	214	213	215	219	217	218	218	218	218	215	213	214	214	214	215	215	217	218	218	218	218	215	215	215	215	215	214	212	214	213	213	213	211	215	213	214	214	214	214	215	215	216	212	212	213	215	215	217	211	214	214	214	213	210	210	210	213	210	212	212	213	212	214	214	214	214	215	217	216	216	216	215	212	212	210	210	209	210	210	210	207	210	209	210	208	208	211	212	213	210	209	206	206	209	209	210	211	211	208	209	209	211	212	208	209	209	208	209	210	210	209	209	208	207	208	208	209	210	209	209	210	211	214	213	211	211	211	211	210	208	207	206	207	206	209	204	204	206	206	206	206	206	208	208	208	208	208	207	205	204	205	208	211	212	208	209	206	206	206	206	208	209	207	206	205	205	205	205	205	204	205	204	207	205	205	204	203	203	204	205	207	208	208	211	207	206	208	209	211	211	208	208	208	208	206	203	201	202	204	204	205	207	205	205	203	203	205	202	205	206	200	199	198	204	208	207	209	209	209	207	206	204	202	203	202	202	200	201	204	203	203	204	204	205	204	208	206	206	204	0	0	0	0	0	0
200	202	201	201	201	199	200	200	200	198	198	197	197	197	202	205	205	204	204	204	203	202	203	202	202	207	203	203	204	204	204	205	205	205	203	207	207	207	207	204	205	201	203	201	201	202	204	205	205	205	206	206	206	207	205	205	203	204	205	205	207	203	203	202	205	206	206	206	207	207	206	206	206	206	206	206	208	203	205	204	205	206	206	206	206	207	206	204	204	206	205	205	204	201	204	207	207	208	206	206	206	206	204	204	204	204	204	205	204	205	205	205	204	205	206	206	207	208	207	207	207	208	207	207	206	207	207	208	208	204	204	206	206	207	207	205	203	204	205	206	206	207	207	209	206	206	209	208	208	206	206	210	211	204	203	203	205	207	205	204	205	205	206	208	208	208	205	206	207	206	209	209	209	208	208	208	208	211	210	208	209	211	208	209	208	212	211	211	209	209	208	209	211	210	209	204	206	206	209	207	209	210	210	210	207	206	206	206	206	211	210	210	210	209	208	212	213	210	210	210	210	211	212	208	210	207	208	212	212	212	210	210	208	208	208	210	210	211	210	211	211	210	210	208	211	209	204	207	205	205	204	204	206	207	208	209	208	208	208	209	210	210	211	209	208	211	210	213	211	210	210	212	214	214	210	212	211	210	208	208	207	209	212	211	209	210	210	210	210	210	214	212	211	208	209	209	210	211	214	212	213	213	212	212	214	213	211	211	211	210	211	211	210	212	214	213	210	212	214	218	215	212	208	211	213	209	209	210	211	212	212	213	213	214	212	212	212	214	215	215	215	214	214	212	210	210	210	210	210	210	211	211	212	212	211	211	212	212	215	212	210	211	211	211	212	209	209	212	209	210	210	211	211	209	210	209	210	214	214	214	211	211	212	211	212	212	210	209	210	210	210	210	217	217	216	214	215	213	213	216	217	216	216	216	215	215	214	214	213	213	215	215	212	213	212	213	213	213	213	215	215	213	212	211	211	211	209	209	212	212	209	213	214	213	212	214	213	211	213	212	212	214	212	211	214	214	212	210	209	209	209	210	210	210	211	211	211	212	211	213	212	213	215	214	212	208	212	212	211	209	208	208	209	210	210	211	211	210	212	210	210	207	210	210	208	207	207	208	209	210	210	209	209	207	209	208	209	210	210	208	207	205	206	207	210	208	208	207	206	207	207	206	208	209	210	209	210	211	210	209	211	211	210	211	209	205	208	207	207	208	204	204	204	205	204	205	206	208	209	208	209	208	205	205	206	206	206	206	209	210	204	206	204	203	204	210	210	208	206	204	204	205	205	204	203	203	204	205	205	204	203	201	201	202	202	204	205	205	208	205	205	207	208	206	206	206	206	207	207	203	203	200	201	201	202	203	206	206	205	201	203	203	203	203	205	204	199	199	200	205	207	206	206	204	205	206	204	204	203	202	201	200	199	199	199	202	204	204	203	203	203	205	204	203	203	0	0	0	0	0
197	197	198	198	197	198	199	201	201	200	198	199	199	199	202	202	204	204	204	202	204	202	201	203	203	203	202	198	198	197	197	198	201	200	205	204	204	204	204	204	204	200	200	201	201	203	204	205	205	205	203	205	205	205	205	205	203	205	203	204	203	201	201	202	203	204	208	208	207	207	205	205	205	206	207	207	207	203	205	203	204	204	204	205	205	206	203	203	207	206	205	200	200	203	206	207	206	206	205	205	206	206	205	204	202	203	202	203	204	204	205	205	204	205	204	204	203	205	202	205	205	206	206	206	206	207	207	208	208	207	206	205	206	206	206	204	202	204	204	206	206	205	208	205	206	207	207	207	207	206	205	207	209	202	203	203	205	205	207	205	205	205	206	209	209	208	205	204	205	206	206	208	207	205	206	208	207	207	205	208	207	210	208	208	207	210	208	205	205	206	207	209	208	208	204	203	204	204	203	207	207	208	210	209	207	206	208	207	207	207	208	208	207	205	210	211	212	208	203	204	210	212	208	208	206	205	207	211	211	212	211	209	209	208	209	210	211	211	211	211	211	211	210	211	208	208	204	204	202	203	203	204	206	206	207	208	208	208	208	209	209	210	210	209	206	206	210	209	210	210	210	212	213	213	212	210	209	209	208	206	207	208	209	210	209	210	208	210	208	209	212	211	208	207	208	209	210	210	211	211	211	208	208	208	209	210	208	209	209	209	210	207	209	213	211	212	210	211	212	213	213	212	210	211	209	208	208	210	210	208	209	212	212	213	212	210	212	212	213	213	214	214	214	211	209	210	210	210	208	207	210	211	211	211	211	210	210	211	216	212	211	209	210	210	210	210	210	210	212	212	211	210	210	210	211	211	212	213	213	212	212	210	210	210	211	211	208	208	208	208	208	210	214	214	217	215	215	213	212	212	214	215	214	213	214	214	213	214	214	213	212	211	210	210	210	210	210	211	212	213	213	212	208	208	208	208	207	207	208	210	208	211	210	213	213	214	213	211	211	211	211	209	206	210	212	211	212	212	210	209	208	209	210	211	211	211	210	210	209	208	206	209	209	210	208	210	212	212	210	209	208	208	206	208	210	209	210	210	212	210	210	209	208	208	208	207	208	208	208	208	205	203	208	208	208	209	209	209	208	202	206	204	206	206	208	208	207	206	204	204	205	207	209	209	210	210	210	209	206	204	205	204	205	205	202	204	204	207	208	208	205	205	204	203	204	205	206	207	209	209	208	207	206	204	205	207	206	207	207	205	203	200	197	201	202	206	206	203	202	202	201	202	202	201	202	202	204	204	205	204	201	200	200	200	201	202	203	203	205	206	204	206	206	206	206	206	206	206	205	201	201	200	200	200	202	204	205	203	199	200	203	204	203	203	204	204	204	201	202	202	203	203	201	200	201	202	203	202	202	202	201	202	201	201	201	199	199	200	201	201	202	198	198	203	203	0	0	0	0	0
197	197	197	198	198	198	198	197	197	200	200	199	199	202	202	203	203	204	200	200	202	204	200	200	202	202	198	197	198	198	198	198	198	199	201	202	203	203	207	203	204	202	200	200	201	201	203	205	205	204	201	201	203	203	202	202	204	202	202	201	201	201	203	203	203	202	203	204	202	202	203	203	205	206	206	206	207	205	204	204	204	202	204	203	203	204	202	201	201	200	200	197	204	204	204	205	205	205	203	202	207	208	205	205	204	204	204	203	203	201	202	202	202	202	203	202	203	202	201	202	204	206	205	204	205	206	207	206	204	206	205	204	206	207	204	204	203	204	202	202	206	205	204	204	204	205	205	205	205	205	206	207	209	207	206	207	204	205	208	207	206	207	207	202	205	205	204	203	203	204	205	207	206	206	207	207	207	206	205	206	207	207	208	209	207	209	204	203	206	207	206	206	206	207	204	203	203	204	204	204	207	207	209	207	208	208	207	207	207	207	206	207	205	207	207	207	206	205	206	203	209	205	206	206	206	206	206	209	209	210	211	210	208	208	210	212	211	211	211	211	210	210	209	209	207	207	203	202	206	207	208	208	208	208	205	207	209	209	210	210	210	210	208	208	205	208	208	209	209	209	209	208	209	209	209	208	209	209	208	208	208	208	208	209	209	209	210	208	208	208	209	207	207	208	208	208	208	210	210	211	208	209	208	209	208	205	207	206	207	208	207	206	207	209	211	211	211	210	209	212	211	210	211	210	209	208	208	208	209	207	208	212	212	209	209	208	210	211	211	209	209	209	208	208	208	208	208	207	207	209	209	210	209	210	210	209	209	210	211	207	207	207	212	212	210	210	210	210	212	213	211	209	208	208	210	210	211	211	213	212	211	209	208	209	210	210	211	209	212	209	209	209	209	211	210	214	214	213	212	212	211	214	211	210	210	208	210	210	211	211	210	209	209	209	208	208	208	208	209	209	209	209	208	209	209	210	208	208	210	208	208	207	209	212	213	213	210	209	209	209	211	209	206	207	211	211	211	210	210	209	209	209	210	209	211	210	210	210	212	206	205	205	206	206	206	207	210	210	209	210	208	207	206	207	208	209	208	207	211	211	209	207	207	207	207	207	205	208	208	206	206	206	210	206	206	209	209	209	208	201	201	204	203	203	207	207	206	204	204	204	205	205	207	208	206	206	206	208	204	204	202	202	203	201	203	202	204	205	205	205	204	205	203	203	203	204	204	207	208	206	206	204	199	201	202	204	206	202	202	205	205	204	204	203	202	202	202	200	199	200	199	199	198	197	200	200	202	204	202	203	201	201	201	200	201	201	201	201	202	203	205	204	203	203	203	205	206	205	203	202	202	202	202	202	202	202	207	202	202	203	203	203	202	203	204	199	200	203	201	202	202	202	200	198	199	198	199	198	201	202	202	204	204	204	203	202	202	201	201	200	201	197	200	200	200	0	0	0	0	0
197	195	197	197	197	197	197	195	195	195	200	201	200	201	201	203	203	201	201	201	203	202	200	199	199	199	198	197	199	197	197	197	197	198	200	202	202	202	202	203	203	203	200	201	202	202	203	205	201	200	198	200	201	201	201	200	201	201	201	200	200	202	201	202	202	202	204	202	201	202	201	201	202	204	204	208	208	204	202	202	201	202	202	203	203	205	205	201	201	201	198	199	202	202	202	204	203	204	203	200	205	206	204	204	203	205	203	202	201	201	202	201	202	201	201	200	201	200	199	200	201	201	203	204	202	204	206	205	204	203	206	206	206	204	202	202	204	204	202	202	206	205	204	203	203	204	204	204	203	204	206	207	208	208	205	203	204	205	206	206	207	207	202	203	204	204	202	202	202	204	204	204	206	204	206	206	204	204	203	204	205	207	206	207	206	204	202	205	205	206	206	206	205	203	202	202	203	203	203	203	206	209	206	206	208	206	204	204	207	205	203	204	204	202	207	208	206	204	205	206	206	207	206	205	207	208	210	209	210	210	210	210	210	209	210	208	209	209	208	209	208	208	208	206	207	206	206	206	206	207	207	205	208	209	207	208	208	209	209	209	208	207	208	208	207	205	205	206	207	207	207	205	206	206	208	207	207	207	205	208	207	208	206	206	206	209	210	211	210	208	205	208	208	211	211	209	209	209	210	211	209	208	209	208	207	205	205	206	206	206	207	206	207	207	208	208	208	209	207	208	210	211	211	210	208	208	207	207	206	207	207	212	212	210	210	209	210	210	211	208	206	205	208	208	209	208	206	208	208	208	210	211	210	209	209	209	208	207	208	208	208	207	209	209	209	208	212	207	208	209	208	207	207	207	207	207	210	212	212	212	209	210	208	208	210	211	211	214	214	212	211	208	209	209	211	213	212	212	212	210	210	210	209	209	207	209	209	210	210	209	209	210	209	212	206	209	210	210	207	206	208	210	207	208	209	210	209	210	212	211	210	209	211	211	212	212	209	209	209	209	209	210	210	208	208	209	210	209	208	208	209	207	209	206	206	208	209	208	205	205	205	206	206	206	208	207	206	206	206	205	203	204	205	203	204	206	207	208	211	211	209	206	207	207	207	205	204	208	206	207	205	209	207	209	209	208	207	202	203	201	202	202	201	202	206	206	206	205	204	204	204	205	201	202	204	205	205	204	203	202	201	201	201	202	202	202	202	202	201	204	204	204	203	201	201	202	202	203	206	205	204	202	198	200	201	201	201	200	200	205	204	204	203	203	201	200	200	201	201	200	200	199	199	200	200	201	201	200	200	202	201	202	201	200	201	202	201	200	201	201	200	200	199	201	202	205	203	202	202	204	204	203	202	202	204	205	202	200	201	201	203	201	200	200	198	198	199	201	199	202	202	201	200	199	199	199	199	199	200	201	203	203	203	205	203	204	203	200	199	196	199	196	197	197	200	0	0	0	0	0
193	195	194	197	197	197	196	195	194	194	194	199	198	200	200	202	198	199	197	200	200	200	198	196	197	197	198	196	196	197	195	196	196	197	199	200	201	201	201	202	202	202	201	200	200	200	200	200	201	199	200	200	201	201	201	200	200	200	200	200	200	202	201	202	202	202	203	201	200	200	201	201	201	202	203	204	204	202	201	200	200	200	203	201	204	205	200	200	200	201	201	200	201	202	202	203	201	201	197	196	200	203	203	203	203	201	200	201	200	200	201	199	202	202	200	200	200	199	200	199	200	201	200	201	202	202	203	202	203	204	203	204	201	201	201	201	200	202	203	203	203	201	200	200	201	202	201	202	203	203	204	204	204	204	204	204	202	202	206	206	206	204	202	202	202	203	202	202	201	202	203	203	204	203	205	203	202	200	203	203	204	205	207	206	204	202	200	201	205	205	204	203	202	203	203	203	203	204	203	202	204	205	204	206	207	205	205	204	206	204	203	203	202	205	203	204	204	204	204	205	205	203	204	205	206	208	208	210	209	208	208	209	210	211	209	209	208	208	208	208	206	203	206	203	207	206	205	204	204	203	205	205	204	206	205	207	207	206	207	208	208	208	207	208	208	205	206	205	204	204	204	204	204	206	206	207	206	206	206	206	205	205	205	206	206	208	210	210	208	206	206	207	209	211	210	209	208	208	209	208	208	208	207	207	206	206	203	206	204	206	206	207	207	207	207	206	206	206	206	207	208	211	208	208	207	207	205	207	207	207	206	206	207	207	207	208	207	207	208	205	206	205	205	208	209	208	206	208	207	208	208	212	211	210	208	209	208	206	207	207	205	205	209	208	208	208	207	207	208	208	208	206	205	205	206	207	207	206	206	206	207	207	207	209	210	210	211	212	212	213	211	210	207	207	209	210	210	210	211	209	210	209	210	210	208	206	209	208	208	208	209	209	213	209	207	209	210	210	208	207	208	208	208	209	208	208	209	209	212	211	210	211	211	209	211	213	211	209	210	210	208	210	210	210	207	206	209	207	207	208	206	205	208	205	205	206	206	207	207	206	206	206	206	208	207	208	206	206	206	202	202	203	205	204	205	205	202	208	209	209	209	208	206	206	206	204	203	203	202	205	206	206	207	204	204	204	205	202	203	204	202	202	201	204	204	205	206	205	204	204	201	200	201	202	204	205	204	203	204	202	201	201	201	202	202	201	201	202	201	204	204	204	199	199	200	200	202	204	203	203	203	202	202	202	201	200	200	200	200	200	203	204	205	201	200	201	199	200	200	200	200	200	200	200	200	200	201	199	199	199	202	202	201	199	204	201	200	197	197	199	199	199	199	200	200	200	201	201	201	201	200	201	201	201	201	200	200	201	200	200	200	200	200	199	198	197	201	198	198	199	199	197	197	198	199	199	201	200	198	199	202	198	198	201	202	204	202	200	198	195	198	199	199	199	199	0	0	0	0	0
191	192	193	196	195	195	196	195	194	194	194	195	198	190	195	195	195	193	193	197	197	195	195	195	195	196	196	195	196	194	194	194	194	195	196	198	198	199	199	199	202	201	199	200	200	201	201	200	199	200	200	200	198	199	200	200	200	200	198	200	202	200	202	202	203	203	201	201	199	200	199	198	198	202	202	201	202	202	200	200	200	200	200	201	202	204	199	198	199	200	201	201	202	202	204	204	200	198	197	197	199	203	201	202	202	199	198	199	199	202	199	198	198	199	201	201	201	200	199	199	200	200	201	200	201	201	202	203	202	202	200	199	200	200	201	201	200	201	201	202	204	205	200	200	201	202	199	202	202	201	203	204	203	203	203	203	202	202	204	205	204	202	203	202	201	201	201	201	201	203	204	204	204	203	203	202	201	199	202	202	204	205	207	205	204	202	200	198	202	203	199	203	202	200	200	201	202	203	202	201	203	205	204	204	206	203	203	203	203	201	201	201	203	203	203	203	204	203	204	203	201	202	203	205	203	206	206	208	207	207	207	208	210	210	211	209	208	208	207	205	204	206	205	203	203	205	204	204	203	204	204	204	204	204	204	203	205	205	205	207	207	207	205	205	207	205	204	206	205	205	205	203	205	205	206	206	206	206	206	206	205	205	206	206	207	206	206	206	205	205	205	208	207	207	207	207	208	206	208	209	207	207	206	206	206	204	204	206	204	205	206	207	209	207	204	204	204	203	203	204	204	209	207	207	207	205	206	206	206	207	207	206	206	207	207	207	207	207	207	206	207	205	206	208	207	207	207	207	207	208	207	208	210	208	209	207	207	206	208	208	205	205	207	208	207	207	204	204	205	208	208	207	206	207	206	206	207	207	205	206	207	207	207	207	208	210	209	210	211	208	207	207	208	206	206	207	210	210	210	208	209	212	209	209	206	208	209	208	209	209	209	210	210	209	208	207	208	209	209	209	210	209	209	208	208	208	210	208	208	208	208	209	209	208	208	211	210	209	209	206	209	209	207	209	206	205	205	209	207	207	205	205	204	205	205	206	207	207	205	205	205	205	205	207	207	206	206	206	205	202	206	203	203	203	204	202	202	203	209	208	207	204	206	206	206	203	202	204	204	203	206	206	203	203	203	202	204	204	202	204	202	201	202	202	202	204	204	204	204	204	204	198	202	202	202	202	203	202	203	201	200	201	204	203	202	203	201	201	201	202	202	202	200	200	200	202	202	201	202	202	201	202	202	204	202	200	202	201	201	198	203	201	199	197	200	197	198	198	200	200	200	200	200	198	199	198	199	200	199	199	201	202	200	197	202	203	200	199	197	198	197	197	197	199	200	199	201	201	201	200	199	201	200	200	200	199	200	201	198	199	199	199	198	198	197	197	197	197	197	198	198	197	198	197	200	200	200	200	199	196	195	195	199	197	202	199	200	198	197	196	199	199	199	199	200	0	0	0	0	0
192	192	193	194	195	195	195	194	194	194	194	196	190	192	194	194	195	195	193	193	193	193	194	194	194	194	194	195	196	195	195	195	195	197	197	197	197	198	198	198	200	199	200	200	200	199	199	199	197	198	199	198	197	197	197	197	197	197	197	198	197	200	201	200	199	199	199	200	199	199	197	197	199	198	198	202	201	200	200	199	200	201	199	200	201	201	200	198	200	200	198	198	198	198	198	197	197	198	197	198	198	199	203	198	199	201	199	198	199	202	201	199	199	201	201	201	202	201	201	201	201	200	202	201	200	201	201	200	201	200	198	198	198	199	199	200	200	199	202	203	199	202	199	200	199	201	196	199	199	198	199	203	202	201	201	201	201	199	199	203	200	200	201	201	200	198	197	197	197	201	202	203	203	204	204	202	202	201	200	201	201	203	204	204	202	201	201	201	203	198	199	202	203	203	200	201	202	202	203	203	205	203	203	205	201	204	204	205	204	204	201	200	200	201	201	203	204	203	201	202	201	201	203	202	202	203	206	207	207	205	203	204	209	208	208	206	205	206	206	206	204	204	203	201	203	201	204	203	205	204	205	205	204	204	202	202	204	204	203	205	206	206	204	203	204	205	204	206	206	206	205	205	203	205	206	206	206	205	205	205	204	205	206	206	206	206	204	204	203	204	205	203	203	207	207	205	204	203	204	204	204	204	205	205	206	207	205	204	207	205	204	207	208	202	204	204	204	203	203	203	205	207	207	205	202	205	205	206	207	207	207	206	205	206	205	205	205	205	203	204	204	206	206	209	207	208	207	207	207	207	207	208	206	207	207	206	206	207	207	207	207	206	206	206	207	205	205	205	205	206	206	206	206	206	205	207	207	207	208	207	207	206	207	207	207	207	207	209	207	207	205	206	206	204	203	206	207	209	209	206	207	208	208	208	208	208	208	205	208	208	208	209	207	207	206	207	208	208	208	209	210	210	209	207	206	210	209	206	208	208	208	210	208	206	205	210	210	209	208	204	205	206	201	200	201	199	203	203	206	202	203	203	209	203	208	204	206	206	205	204	204	205	204	204	205	207	206	205	201	204	204	204	204	202	203	202	203	202	204	207	206	206	204	204	201	202	201	203	203	203	202	203	204	204	202	203	203	201	203	202	201	201	201	203	203	203	204	205	203	203	202	198	201	201	202	202	201	201	201	204	202	205	204	203	203	202	199	200	200	199	200	202	200	199	200	200	201	201	202	201	201	201	203	201	200	203	203	202	200	199	197	198	200	200	200	198	197	195	199	199	199	198	199	198	197	198	200	197	195	197	201	201	201	200	201	200	200	198	197	198	196	194	195	195	198	199	200	200	203	202	200	201	200	200	200	198	201	196	196	197	198	198	197	197	197	197	195	193	193	198	196	197	195	197	199	200	200	200	197	194	194	194	195	196	197	197	200	198	198	197	198	198	195	199	200	0	0	0	0	0
192	189	192	192	193	193	194	193	193	193	193	191	190	192	193	193	195	194	193	193	190	190	192	194	194	194	195	195	196	195	194	194	195	195	197	195	195	195	197	199	199	200	200	200	193	191	192	192	194	195	196	196	196	196	196	198	198	197	196	196	196	197	197	197	198	197	197	197	197	197	197	197	198	199	198	198	198	197	197	198	198	199	197	198	200	200	200	200	197	197	199	197	197	196	198	197	198	198	197	197	197	199	195	195	199	197	197	200	202	201	202	199	200	200	201	200	201	200	200	199	200	200	201	200	199	200	199	198	198	197	197	197	196	196	200	200	199	198	198	198	198	199	200	200	199	200	196	197	197	197	197	202	200	200	200	200	199	199	197	199	201	201	200	199	198	198	198	197	200	200	200	202	200	204	204	203	203	202	197	199	200	202	202	203	202	201	201	201	201	201	201	202	202	203	200	201	202	199	198	198	206	205	202	203	203	204	205	205	204	201	201	201	200	201	202	203	204	203	202	201	200	199	199	200	200	202	203	205	205	203	202	201	201	202	205	203	205	205	206	206	204	204	203	201	202	201	204	204	206	205	205	204	203	203	202	204	205	206	205	203	203	202	202	204	204	204	204	203	206	206	205	203	203	203	204	205	204	204	205	206	206	205	205	205	205	206	203	202	203	203	206	202	203	203	204	203	203	203	201	204	203	204	205	204	205	201	202	205	206	206	207	207	206	203	203	203	204	203	202	203	205	205	205	204	203	204	205	205	206	207	207	207	202	203	207	207	207	205	204	203	203	204	205	205	206	205	205	206	206	207	207	204	205	203	206	207	207	206	207	207	205	205	205	205	206	205	207	205	205	205	205	203	203	205	204	206	207	207	205	204	205	208	208	209	207	207	206	207	206	205	205	205	205	204	204	203	204	205	206	206	206	206	206	206	206	205	204	202	202	207	208	206	207	207	208	208	207	205	206	203	205	207	207	207	206	204	204	207	208	208	207	208	207	205	205	206	207	205	206	204	202	201	199	198	200	199	203	203	203	204	202	201	202	206	205	205	204	203	203	205	204	207	206	203	208	204	205	205	202	200	200	204	204	203	202	202	203	202	204	204	204	204	204	202	202	201	202	203	203	202	203	202	201	201	203	201	202	203	203	201	201	200	200	203	203	202	201	201	201	203	202	199	198	200	199	200	199	199	200	201	200	203	204	204	201	201	200	198	199	199	198	200	200	199	199	198	201	202	201	199	199	199	199	199	202	203	203	203	202	199	197	199	199	200	198	196	195	195	198	198	198	199	199	196	198	196	196	196	196	196	197	200	197	198	199	200	200	198	196	198	197	196	197	198	198	201	201	201	203	202	200	200	201	200	200	199	199	194	195	195	195	195	196	196	195	193	193	193	192	193	194	194	195	195	194	195	199	197	193	192	192	192	194	194	195	195	197	198	197	197	195	195	194	194	197	0	0	0	0	0
189	188	191	191	191	188	188	189	191	192	191	191	191	191	191	189	189	191	193	190	190	190	189	194	194	193	195	195	193	194	194	194	195	195	194	195	195	193	196	198	198	197	199	198	192	190	192	193	193	195	196	197	195	195	194	195	195	196	196	196	197	195	196	198	197	198	198	198	196	197	196	196	198	199	199	197	196	196	197	197	197	197	196	195	196	197	197	197	197	197	199	198	198	198	199	197	197	197	197	197	196	195	195	195	195	196	195	197	198	200	197	196	195	194	196	198	200	199	198	199	199	197	197	198	199	200	199	198	200	197	196	194	195	196	195	197	197	198	197	197	198	203	201	201	199	197	196	196	197	197	198	200	199	199	198	197	198	197	198	199	200	201	198	198	199	200	199	200	199	199	198	196	199	199	199	199	199	197	196	196	200	201	203	201	200	201	201	200	200	201	201	202	203	200	199	197	201	198	198	199	202	204	201	201	199	203	201	201	204	201	200	200	199	200	201	203	201	202	202	201	200	199	198	198	202	199	201	202	202	202	201	200	199	200	201	202	202	201	200	200	203	203	203	201	201	204	205	204	203	205	205	205	203	201	202	197	200	200	202	204	203	202	202	202	202	203	204	202	201	200	201	203	203	203	203	202	203	202	202	202	206	206	204	203	204	202	202	202	202	207	203	205	203	202	204	202	203	203	202	202	203	203	203	202	202	202	203	205	206	206	206	206	206	203	203	203	203	204	203	203	204	203	204	204	200	200	202	204	206	202	207	205	204	201	204	204	205	206	203	204	204	204	204	206	205	204	204	205	205	204	203	203	203	204	205	205	203	204	205	204	204	205	205	205	206	206	207	207	205	206	203	203	202	203	203	203	204	205	204	204	204	207	207	207	205	206	207	204	205	204	203	202	202	203	203	203	204	204	205	204	204	203	203	206	204	203	203	202	202	207	208	207	206	206	208	208	208	204	204	202	205	207	207	206	205	204	203	205	206	206	206	206	206	205	203	203	200	200	203	206	202	200	199	199	199	201	203	203	203	203	202	202	204	207	202	203	203	204	203	202	202	203	201	203	201	204	205	204	203	203	198	201	205	203	203	202	202	203	202	203	204	201	200	199	201	201	203	202	203	203	203	202	200	197	200	201	201	200	201	201	196	200	199	202	203	203	202	197	199	200	200	198	198	198	199	198	199	199	201	203	201	199	199	199	200	200	199	200	200	200	200	201	199	198	198	198	200	200	199	200	198	198	197	197	200	203	201	200	199	198	197	196	197	198	198	197	195	195	196	196	196	198	199	198	198	197	195	195	196	197	198	198	198	196	196	196	198	197	196	197	197	196	196	197	199	199	200	200	200	200	199	200	199	199	197	196	195	194	193	194	194	194	193	193	192	192	192	193	194	194	195	196	196	195	194	195	195	194	193	193	193	191	192	194	194	195	195	196	197	197	197	195	193	193	193	0	0	0	0	0
188	191	189	188	187	187	187	186	190	191	192	192	192	191	191	188	188	187	189	190	190	190	190	191	190	189	192	192	193	194	194	194	195	194	194	192	193	192	190	193	194	194	196	193	194	192	194	194	194	195	196	195	194	193	194	196	197	197	196	195	194	193	196	195	196	197	195	195	196	195	195	195	196	196	198	196	196	195	194	194	194	195	193	194	195	197	197	197	197	198	198	199	198	199	199	197	196	197	195	195	195	194	195	195	195	195	194	197	198	194	193	193	194	193	195	194	195	195	195	196	197	195	197	195	196	199	200	200	199	198	196	195	195	196	196	195	197	196	193	193	196	197	202	201	197	196	196	196	196	197	198	197	197	197	196	196	196	196	196	195	199	201	201	199	199	201	200	200	196	196	196	198	195	196	196	198	199	198	195	196	196	197	200	201	199	198	200	199	199	199	199	199	201	200	199	196	199	201	201	201	201	200	201	198	197	200	202	198	200	201	201	199	199	199	199	201	202	202	202	200	199	198	198	198	200	199	200	200	201	201	200	199	198	200	200	201	200	199	200	199	198	200	202	202	201	204	204	203	203	203	205	204	202	200	197	199	199	199	199	200	200	200	200	202	202	202	203	201	199	199	200	201	202	202	202	201	200	201	201	201	201	204	205	206	204	203	202	203	203	208	207	205	204	203	204	204	203	203	202	203	202	202	202	202	201	202	203	203	204	203	202	203	203	203	203	202	202	203	204	204	204	204	204	203	201	201	202	201	200	204	203	205	204	203	203	203	204	205	203	204	204	203	206	206	207	206	205	203	204	203	202	203	204	205	205	204	204	201	203	203	205	206	206	203	204	205	205	206	204	203	202	202	201	202	203	203	204	204	202	203	204	203	206	206	204	203	205	203	203	202	202	202	200	201	203	203	201	202	204	204	203	203	206	205	205	204	202	202	201	202	204	202	205	205	208	208	207	207	207	206	206	206	209	209	206	204	203	203	202	205	205	204	206	202	201	202	200	198	200	201	202	200	200	200	200	202	203	203	202	202	202	204	204	206	203	202	202	204	203	202	201	201	202	201	202	201	204	204	204	202	198	198	203	203	202	201	202	202	202	203	202	200	200	199	198	200	202	202	202	202	202	201	199	197	198	198	199	200	201	200	197	197	197	198	198	199	201	195	198	200	200	198	198	198	198	197	195	194	196	197	200	199	198	197	198	199	200	198	202	201	201	199	200	197	197	198	197	199	197	197	197	196	194	196	196	198	199	198	198	198	195	195	194	199	198	196	195	196	196	195	195	198	199	197	196	197	195	198	198	198	198	198	197	196	195	196	196	197	197	198	198	196	196	195	195	197	198	198	199	198	199	198	198	196	196	193	193	193	194	194	194	193	193	192	191	191	191	192	194	194	196	197	196	196	194	193	194	195	194	194	192	193	193	193	192	193	193	193	194	197	197	195	194	193	194	0	0	0	0	0
188	189	187	187	186	185	185	185	189	190	190	190	191	188	188	187	187	187	188	190	190	190	190	189	190	190	192	193	193	191	191	192	192	192	192	192	192	189	192	192	193	193	195	195	193	195	193	194	192	192	195	194	193	193	193	195	196	196	196	193	193	193	193	194	195	196	195	195	195	194	193	194	195	196	199	198	198	197	193	192	192	192	192	192	194	194	195	197	194	195	197	198	194	195	195	195	195	195	195	195	195	196	193	196	196	195	195	193	195	194	194	192	192	193	195	195	195	195	195	196	195	194	194	195	197	197	198	197	195	197	196	195	195	196	194	195	196	194	194	194	195	195	195	195	196	196	197	198	197	196	195	196	196	195	194	194	194	196	197	195	199	201	201	201	200	198	198	196	196	195	197	198	196	196	196	199	199	200	200	201	198	197	201	199	196	195	198	199	199	198	198	199	198	197	198	198	198	198	201	202	202	200	197	197	196	198	198	201	201	199	200	201	198	199	200	200	201	201	202	200	199	199	197	198	199	199	199	200	200	200	200	200	199	199	200	200	199	200	200	198	198	199	200	202	201	200	200	201	201	200	200	202	202	197	201	200	198	198	199	200	200	200	201	202	201	201	201	200	199	201	201	201	201	201	201	200	200	200	199	201	200	203	203	203	203	204	203	202	203	201	203	205	201	202	203	203	203	202	203	202	202	202	201	201	201	201	203	203	202	202	202	203	203	201	201	200	199	202	201	204	203	202	200	200	200	200	201	202	201	202	199	199	203	203	202	202	203	201	203	203	202	201	204	205	201	201	200	202	203	203	203	204	204	204	204	203	201	199	200	203	204	205	204	202	202	203	204	206	204	204	202	201	202	202	202	203	202	201	203	203	203	203	205	204	203	203	203	203	203	201	199	199	199	200	202	200	201	204	206	206	205	205	205	205	205	203	202	203	202	202	205	205	205	205	204	206	206	205	204	204	203	204	205	205	207	204	203	202	203	199	203	205	204	201	201	202	201	199	198	201	203	200	200	200	201	202	203	203	202	200	199	200	202	206	204	203	201	204	201	201	202	201	204	201	202	202	200	199	201	200	200	198	200	203	200	202	202	204	204	202	200	199	199	199	199	200	202	196	201	199	200	201	200	199	198	198	198	195	196	197	197	197	197	199	198	197	193	194	193	193	197	198	198	198	196	196	195	194	195	197	199	198	197	199	199	197	198	200	196	202	199	198	199	199	197	196	196	195	193	193	193	196	193	195	194	195	197	197	198	197	195	195	196	195	197	196	196	195	195	195	198	198	198	197	194	194	195	196	197	197	196	197	197	195	195	195	195	196	196	198	196	195	195	195	195	192	194	194	196	198	198	198	197	193	192	191	192	193	193	193	194	194	192	192	189	189	189	191	191	195	194	195	197	196	194	192	193	194	194	195	191	190	190	189	189	192	193	192	192	194	195	196	196	195	194	0	0	0	0	0
189	187	187	185	185	183	186	186	188	189	190	187	187	187	187	187	185	185	187	189	189	188	188	189	191	190	191	191	191	189	189	189	189	191	192	192	191	188	189	190	193	193	193	196	193	194	193	193	194	194	193	194	194	194	194	193	195	196	196	195	195	193	192	191	193	194	194	195	195	194	192	193	195	196	193	193	194	194	193	192	191	191	193	193	193	192	192	194	194	193	193	195	194	194	195	193	193	194	195	195	192	192	197	199	198	196	194	194	194	194	193	192	191	192	194	194	195	194	193	194	195	192	192	192	191	191	193	192	192	193	194	195	195	195	194	192	192	195	194	194	194	194	194	194	194	196	196	194	194	196	195	195	194	194	193	192	196	198	196	197	197	199	199	199	199	197	196	197	196	195	197	193	195	196	195	196	197	197	199	201	198	195	200	199	195	195	197	198	198	199	198	198	196	197	197	198	197	198	200	202	201	199	198	196	196	198	199	200	201	200	198	199	197	198	198	199	201	201	199	198	199	197	198	199	199	199	200	200	200	199	200	200	199	200	199	199	198	198	197	198	199	199	200	202	201	200	199	199	199	199	200	202	201	200	200	201	200	200	200	200	200	200	201	201	201	201	199	199	200	201	201	201	199	199	200	199	200	200	199	199	201	201	201	200	202	202	200	199	198	202	201	201	200	199	201	202	201	202	203	202	201	200	200	199	199	200	199	201	200	200	200	198	199	200	199	199	200	199	201	203	203	200	199	201	200	199	200	201	199	198	196	196	201	203	201	201	200	203	202	202	202	202	200	200	198	198	197	197	198	202	202	203	203	203	202	203	200	199	200	203	203	204	203	201	202	203	203	204	203	200	201	201	201	200	202	203	202	200	203	203	201	204	204	203	200	201	201	203	201	201	199	198	199	200	201	202	204	205	205	205	204	203	204	203	203	202	203	201	204	202	204	204	204	204	204	203	204	204	203	203	204	205	205	205	207	202	199	199	199	200	200	205	204	203	203	202	201	200	199	203	201	201	201	201	201	204	205	205	201	199	199	200	202	204	204	204	205	200	199	198	198	201	201	203	201	203	201	201	202	201	201	199	200	199	201	202	202	203	203	201	198	197	197	199	199	199	199	197	197	195	198	198	198	198	198	197	194	194	193	193	196	197	197	197	197	197	195	195	194	196	197	199	200	200	196	195	195	195	195	195	194	195	196	199	197	197	197	199	194	196	197	197	198	198	196	196	194	193	192	192	195	195	194	192	194	193	197	197	196	196	195	195	195	197	196	196	194	193	194	195	195	194	193	193	193	193	195	197	197	196	194	194	194	194	193	194	194	196	196	197	193	193	194	195	195	192	194	195	195	196	194	197	194	192	192	191	191	193	192	192	193	194	192	191	191	190	191	191	190	193	194	193	194	197	194	192	192	192	192	192	191	190	190	188	189	190	192	192	192	192	192	193	194	194	192	0	0	0	0	0
188	187	185	187	186	183	183	183	186	189	189	187	187	188	187	187	185	185	187	188	188	187	187	187	190	190	189	189	189	189	189	188	188	191	192	192	190	189	189	191	191	192	192	192	193	192	191	192	193	193	193	193	194	194	193	193	194	196	196	195	194	193	189	188	187	194	194	195	194	194	193	194	194	192	192	192	194	195	192	192	192	193	193	193	194	193	193	193	193	193	193	194	194	195	193	191	191	192	192	191	195	197	197	199	199	196	192	194	194	194	192	191	191	191	193	193	193	193	191	192	194	193	192	192	191	192	190	190	192	193	194	194	193	191	192	192	194	193	192	193	193	194	194	194	195	195	195	194	193	193	193	194	195	193	191	192	195	197	197	198	197	196	195	195	198	197	197	196	194	193	194	196	195	196	195	195	195	196	198	199	198	199	200	198	198	197	195	197	196	198	197	197	196	198	197	195	196	196	196	195	198	193	193	195	196	198	198	199	199	197	197	196	196	197	197	200	200	200	200	198	199	197	198	199	198	198	198	199	197	197	200	199	200	199	198	196	194	195	197	200	201	199	200	200	200	200	199	199	200	200	200	200	199	199	199	199	199	200	198	197	200	200	201	201	202	198	200	200	198	202	200	200	199	198	198	198	198	198	197	200	201	201	200	199	199	199	199	197	198	201	201	200	198	197	200	200	200	203	203	200	200	199	198	197	198	197	199	199	198	200	198	198	198	197	198	198	198	201	200	201	201	199	199	200	199	199	200	201	197	198	198	199	200	203	202	202	200	200	200	200	202	199	198	197	197	195	199	200	198	199	198	199	202	203	201	201	200	200	200	200	202	203	201	199	200	203	204	204	198	200	199	200	201	199	200	202	202	198	202	202	202	204	202	202	199	201	201	201	201	199	199	198	199	199	203	202	204	201	202	202	203	204	203	203	202	201	201	202	202	202	202	203	204	204	203	202	204	203	202	202	204	202	202	200	200	200	200	199	199	200	201	204	202	201	201	202	201	201	199	199	200	200	201	200	202	200	205	198	202	199	199	200	200	200	203	204	200	199	200	198	198	197	201	203	201	201	201	201	201	200	201	200	199	198	198	201	202	203	199	199	198	198	199	199	199	197	198	198	197	198	196	197	197	197	196	195	193	192	193	193	193	194	194	197	197	198	197	196	197	197	197	197	198	199	196	195	194	194	196	194	194	194	194	197	196	197	197	195	194	196	196	196	198	197	196	195	194	193	193	191	195	191	191	190	190	194	195	197	197	196	194	195	195	194	195	196	193	192	193	193	192	193	194	193	193	194	195	197	197	196	193	193	194	193	193	193	193	193	192	191	191	191	192	194	192	192	192	193	193	193	193	193	193	188	189	191	191	192	192	193	193	192	190	190	190	190	189	190	191	191	194	193	193	192	196	192	190	190	190	189	188	188	187	187	188	191	192	192	192	192	192	193	193	192	193	0	0	0	0	0
187	185	187	187	186	185	183	185	185	188	188	187	187	187	188	186	185	187	187	188	186	187	188	188	190	190	190	190	190	190	191	191	191	190	191	191	188	186	189	189	190	189	189	189	190	190	190	191	193	193	193	193	193	193	191	190	190	191	191	191	191	190	190	187	189	190	191	194	195	195	195	194	192	193	192	193	194	192	193	192	193	193	193	191	193	192	192	194	193	192	192	192	192	192	193	192	191	192	190	191	193	195	196	196	196	198	192	194	192	191	190	189	189	189	191	192	190	190	190	192	194	193	193	193	192	191	191	192	192	190	193	194	193	191	191	192	193	193	193	193	194	195	194	195	194	194	195	195	193	193	195	198	195	196	193	192	197	198	196	196	195	195	195	195	195	195	196	193	191	193	193	194	195	195	193	194	194	193	193	195	196	197	197	197	197	197	195	196	199	194	198	197	197	195	195	195	195	194	194	194	197	194	194	196	196	197	196	196	195	194	193	194	197	198	198	198	199	200	201	198	195	195	195	196	196	195	197	199	196	195	198	198	199	197	197	196	196	193	195	198	200	199	198	198	196	197	197	197	199	199	199	198	197	197	198	199	199	200	197	197	197	197	198	200	200	198	200	200	200	199	198	198	197	194	194	195	196	196	197	196	200	198	198	197	198	198	196	198	201	201	201	200	198	197	197	200	199	200	202	200	200	199	197	198	198	197	197	199	199	199	197	197	195	196	197	197	198	197	199	198	198	200	199	200	200	200	200	201	200	196	196	198	200	202	203	203	202	199	199	199	199	198	201	199	197	198	200	197	199	197	197	197	197	198	199	198	199	199	200	200	199	198	198	200	201	203	204	204	199	199	197	196	197	198	200	201	201	200	201	201	203	204	204	201	198	200	201	200	200	199	199	199	198	200	203	202	203	202	201	201	201	201	202	203	201	199	196	200	201	201	201	202	203	203	202	200	202	202	202	202	203	201	201	200	199	200	200	199	199	200	201	202	202	201	201	200	200	197	196	197	197	197	200	199	198	201	203	198	200	199	198	198	199	199	200	201	200	199	199	198	198	198	196	197	201	200	199	199	199	200	200	199	199	198	197	200	202	197	198	197	198	198	198	197	195	195	195	198	198	198	195	196	195	195	197	195	193	192	192	192	192	194	196	196	196	197	197	196	196	196	196	193	194	194	193	193	194	195	197	196	193	194	192	195	194	194	194	194	193	193	192	193	193	195	195	193	192	190	193	194	194	194	193	192	192	192	192	192	197	196	194	194	193	193	193	193	193	191	191	191	192	193	193	193	193	193	195	194	194	196	193	193	193	193	194	193	193	191	191	191	191	192	192	192	191	190	191	193	191	191	192	193	190	188	189	191	190	191	188	188	189	190	191	191	190	188	189	190	190	189	193	193	189	190	189	191	190	190	190	189	188	187	187	187	188	189	189	189	189	191	190	192	192	190	189	0	0	0	0	0
184	184	188	188	183	184	183	184	184	186	186	187	188	188	190	188	185	188	188	185	187	188	188	189	189	190	189	188	190	191	191	189	189	189	189	187	187	185	187	189	189	189	189	189	188	189	190	190	190	192	191	191	191	190	189	189	190	189	190	190	190	190	187	188	190	191	191	191	194	193	193	192	191	191	193	193	192	193	192	192	193	193	190	190	190	189	191	193	191	191	189	192	191	191	193	191	191	189	190	191	191	190	191	192	192	191	192	193	193	190	190	188	188	188	189	189	189	190	190	191	192	193	195	192	193	191	193	192	193	191	192	192	193	192	190	190	193	192	193	193	192	194	195	195	195	195	193	193	193	193	193	198	193	196	194	194	195	192	193	194	194	194	193	194	192	194	191	191	192	194	195	194	195	193	191	192	192	193	193	191	194	194	194	194	195	196	192	195	195	195	195	196	194	195	194	194	194	195	193	194	193	194	195	195	194	193	192	192	193	194	195	196	195	198	196	198	198	199	199	198	195	195	195	196	195	196	196	195	194	193	198	196	197	198	197	195	194	192	192	193	196	197	198	197	196	195	194	196	197	197	196	195	195	197	198	197	199	198	199	200	197	197	197	198	199	198	198	198	193	195	197	196	195	196	194	195	195	197	196	198	197	197	196	196	195	196	198	201	201	200	201	199	196	196	196	199	202	203	202	198	199	198	199	198	199	199	198	199	198	199	197	196	196	196	195	197	196	196	197	196	195	197	200	200	201	199	199	200	197	200	196	198	201	199	202	200	199	198	198	198	198	203	199	200	200	202	202	199	198	197	197	197	197	198	198	198	198	198	201	198	200	197	199	199	200	201	201	201	197	197	194	196	196	197	201	200	200	198	200	199	203	203	203	200	198	199	201	201	200	199	199	199	200	200	202	200	197	200	201	201	201	201	200	200	201	198	198	200	200	200	201	201	201	200	200	198	200	200	200	200	201	201	200	199	199	199	200	197	199	199	200	200	201	200	200	200	197	193	194	197	197	196	197	198	198	197	196	198	199	198	198	199	199	199	202	200	198	197	198	198	198	198	197	197	198	198	198	198	197	197	198	199	198	197	197	196	197	195	197	198	197	197	196	195	195	195	194	197	198	195	195	195	195	194	195	194	192	193	192	193	194	194	195	195	195	194	195	196	195	194	194	193	193	193	193	192	192	193	194	190	191	191	192	191	194	194	194	193	192	191	191	193	193	195	193	192	192	191	192	191	192	194	193	192	191	191	192	192	191	192	190	190	191	193	193	192	191	191	189	192	192	192	192	193	193	191	195	192	191	192	192	192	193	192	193	193	192	192	189	189	191	191	189	190	191	192	191	193	193	190	188	188	187	188	188	190	190	189	188	187	187	187	187	191	190	190	189	191	190	190	189	190	189	189	189	189	189	189	189	188	188	187	187	187	188	189	189	189	188	189	191	190	188	188	190	0	0	0	0	0
182	182	183	183	183	183	183	182	182	184	185	186	189	189	189	188	186	187	184	184	186	188	187	186	186	186	186	187	191	191	191	188	188	188	185	185	185	185	187	188	188	187	187	187	187	189	188	189	189	190	188	188	188	188	187	188	188	188	189	189	189	188	187	189	189	190	190	191	193	193	193	192	189	191	191	191	191	192	191	188	192	189	192	189	189	190	192	192	190	190	189	188	188	189	189	188	187	189	190	189	191	190	191	191	191	191	192	192	192	191	190	188	188	191	191	191	191	192	191	192	192	191	189	190	190	190	192	192	192	190	190	191	192	192	190	190	191	191	193	193	190	191	192	191	195	193	193	192	192	192	193	193	193	191	191	191	191	191	192	192	189	190	190	190	191	192	192	191	192	193	193	190	189	189	190	191	191	193	193	193	192	192	193	195	192	195	195	193	195	196	195	193	194	192	192	193	195	194	194	193	194	194	194	194	197	194	191	193	194	194	195	197	195	197	196	196	195	194	194	194	193	194	195	195	195	195	197	195	194	195	195	196	198	198	196	192	191	191	191	193	193	196	196	194	195	193	193	196	196	196	195	194	195	196	196	197	199	197	197	197	197	195	195	195	195	195	193	196	196	196	194	195	196	197	198	198	198	198	197	197	195	196	196	196	196	197	198	199	199	198	198	197	195	195	196	199	196	199	200	201	201	197	197	200	199	198	198	195	198	199	199	198	198	198	198	197	199	195	195	196	195	197	200	199	200	197	198	199	197	197	196	197	199	200	200	198	198	197	198	197	198	201	199	201	199	199	199	199	197	197	197	197	197	200	200	197	197	197	199	200	199	198	197	198	200	200	199	199	198	198	199	199	201	200	201	201	198	201	199	199	202	202	202	199	198	197	197	199	201	200	200	201	200	201	201	199	197	197	198	199	201	200	199	200	197	197	198	198	198	199	198	199	198	200	199	196	194	198	200	200	201	200	200	199	199	197	197	196	198	200	200	199	198	196	197	193	193	193	193	193	195	200	195	195	197	196	197	196	197	197	198	198	199	199	201	199	198	197	195	197	195	195	196	198	199	199	196	197	196	195	198	198	197	195	195	195	197	195	195	194	195	194	195	195	194	194	194	194	194	197	197	198	195	196	195	195	194	194	193	194	197	196	195	194	194	192	194	194	194	193	194	192	191	189	189	191	192	192	194	190	191	190	190	190	194	194	194	192	191	191	190	193	193	193	192	192	191	190	190	190	192	192	192	190	191	190	191	191	192	190	189	190	190	192	193	193	192	191	189	191	191	192	192	192	192	192	191	191	190	188	190	191	191	192	193	191	191	190	188	189	189	189	189	190	192	192	191	190	189	189	188	188	190	188	188	188	188	190	188	187	187	187	187	191	191	189	188	189	187	188	190	192	189	188	190	190	187	189	188	188	188	187	187	187	187	188	188	187	188	187	186	187	187	186	188	188	0	0	0	0
181	181	182	182	182	183	183	181	182	182	185	188	189	190	190	188	188	187	184	184	186	187	185	184	184	184	184	190	190	188	188	186	187	186	185	186	187	187	187	186	187	187	187	187	187	187	187	188	188	187	185	186	186	186	187	188	187	185	185	186	187	187	187	187	187	189	189	190	190	191	192	192	189	190	190	190	189	191	190	188	190	188	187	190	190	191	190	190	190	187	187	188	188	187	186	187	187	188	189	189	190	191	189	190	191	188	188	189	189	189	188	188	187	191	191	192	191	191	190	191	192	190	189	189	189	189	191	192	190	190	190	191	191	190	191	191	193	194	192	191	191	192	192	191	192	191	192	193	192	192	191	191	190	190	191	191	190	188	191	190	190	190	191	190	191	191	191	191	191	192	192	191	190	189	189	191	190	188	190	193	192	192	192	195	194	197	194	194	195	195	193	197	195	193	193	193	195	194	194	193	193	195	196	195	194	194	193	193	194	195	195	196	196	196	198	198	197	196	194	193	194	194	195	194	195	195	196	198	194	193	194	197	198	194	191	190	191	191	192	193	196	195	194	193	194	193	193	196	196	197	195	194	194	194	195	196	197	197	197	196	196	195	195	195	195	194	194	194	197	197	196	196	197	197	197	196	198	198	198	196	196	198	197	196	197	199	198	199	198	198	197	196	195	195	196	197	196	199	200	200	197	197	196	197	200	199	199	199	199	199	199	199	198	197	198	196	196	195	194	195	196	197	198	199	200	196	197	197	194	194	196	197	196	200	196	197	198	198	196	197	196	197	198	200	198	200	200	199	198	198	196	197	198	198	199	198	197	198	197	198	199	199	197	197	194	198	199	198	198	199	200	200	199	198	198	197	200	197	198	199	199	201	198	198	196	195	195	197	199	199	198	199	202	202	200	198	198	196	196	200	200	203	197	197	196	195	195	201	198	198	198	198	198	198	197	196	194	196	198	200	199	199	198	198	197	197	197	196	196	198	200	198	197	195	193	193	192	192	192	192	194	194	193	193	195	195	196	197	197	197	196	197	198	197	198	198	197	197	196	194	193	193	192	194	194	192	193	192	195	196	198	196	195	195	194	193	194	195	195	195	194	194	195	195	194	193	194	194	195	197	196	196	191	194	193	193	195	193	195	195	194	197	193	191	191	193	195	195	193	193	192	191	191	188	188	189	187	189	190	188	190	189	189	189	190	193	193	195	192	191	190	191	193	192	192	190	188	188	189	191	193	191	191	191	190	190	190	190	190	192	193	193	192	193	193	192	191	190	190	192	192	191	192	192	192	191	191	187	187	189	189	188	189	191	191	191	190	189	188	189	189	189	187	189	189	189	189	189	189	189	189	190	190	189	188	187	188	186	186	189	189	188	190	190	190	188	187	184	186	187	191	191	190	188	188	188	189	188	188	186	186	184	186	184	187	185	185	185	187	186	186	185	186	186	188	188	0	0	0	0
181	181	181	181	183	183	183	180	182	182	184	187	189	187	187	185	184	185	183	183	184	184	184	183	183	183	183	185	186	186	186	186	185	185	186	187	186	186	186	184	185	186	185	186	186	187	188	188	187	187	184	186	186	185	186	186	186	186	184	186	187	187	186	187	186	187	189	188	187	186	191	191	191	188	187	187	188	190	190	190	190	186	186	186	189	189	189	188	186	186	186	187	187	186	186	186	187	189	190	192	189	189	188	188	187	187	187	187	187	188	187	185	185	187	189	191	192	191	190	189	190	191	190	189	188	188	190	191	191	190	189	188	188	189	191	189	191	191	190	190	191	192	192	191	190	189	190	191	192	192	191	190	190	188	188	191	190	188	189	191	191	190	190	192	193	191	191	192	193	193	192	190	190	189	189	190	187	187	188	190	192	192	193	192	195	196	194	195	192	191	190	194	190	190	191	192	197	194	193	193	192	195	190	190	191	192	193	192	193	195	193	195	196	196	196	199	196	196	195	195	195	192	191	195	194	195	196	196	194	194	193	193	194	193	191	191	191	190	191	195	196	195	192	194	194	194	197	194	191	191	190	190	190	193	194	195	196	197	196	196	194	195	195	196	196	195	194	194	195	197	197	196	197	194	192	192	193	194	196	197	196	198	197	196	195	198	198	199	198	197	196	196	195	196	196	196	197	198	199	196	197	197	199	197	197	198	196	195	195	196	199	193	196	196	196	196	196	193	194	195	196	197	196	196	197	195	193	197	196	195	196	197	198	196	196	193	194	195	196	196	195	194	198	197	197	199	199	199	197	195	196	197	197	197	199	198	196	196	196	196	197	194	193	193	198	199	198	198	199	196	197	198	196	196	196	196	196	196	198	199	200	198	198	198	195	194	195	195	195	195	195	199	200	200	200	198	197	195	194	193	193	195	197	195	195	194	196	200	201	198	197	197	197	197	197	197	196	196	200	196	197	198	199	198	196	196	195	194	196	195	195	196	195	192	192	193	191	192	193	192	193	193	192	193	195	195	194	193	195	194	195	195	195	195	193	192	194	197	190	195	191	194	196	196	194	193	192	192	195	196	197	196	195	194	193	192	193	194	193	193	192	194	195	195	194	194	193	194	196	196	195	190	189	189	193	191	192	190	190	195	196	194	192	192	193	193	195	196	192	192	192	190	190	190	188	188	188	189	191	189	189	189	189	189	189	189	190	190	193	191	191	189	190	190	191	189	187	188	188	187	191	191	191	190	188	188	189	190	190	192	193	193	192	189	188	191	191	192	192	192	192	191	192	191	192	191	190	190	187	189	189	189	189	189	190	190	189	187	188	189	189	190	187	187	188	188	187	187	190	189	192	190	190	189	188	187	187	187	187	190	190	187	188	187	188	187	187	186	186	187	190	189	188	188	188	188	188	188	186	185	185	184	185	184	184	184	185	185	185	185	185	186	185	182	182	183	0	0	0	0
180	181	180	181	182	182	183	180	181	184	184	186	184	184	184	184	184	183	183	182	182	182	183	184	183	183	183	181	183	184	185	185	184	184	186	187	187	186	186	185	184	185	185	186	187	187	188	189	187	187	187	185	185	185	184	185	185	186	186	186	186	186	186	187	184	186	187	182	182	185	184	185	185	186	186	186	189	188	187	186	186	185	185	186	187	187	187	187	186	185	184	185	185	186	186	186	189	191	192	188	189	188	187	187	186	186	187	186	186	186	184	183	183	183	185	190	191	189	188	190	194	194	191	189	187	187	190	190	191	192	189	190	188	190	188	188	188	190	189	189	190	190	191	192	188	188	189	189	189	190	186	186	187	188	190	190	190	189	189	188	188	187	191	191	191	193	191	192	191	192	192	192	191	187	188	189	187	187	187	188	190	192	193	193	194	191	194	194	192	190	189	190	191	190	191	193	195	195	195	193	191	190	187	187	190	190	190	192	192	192	191	191	195	192	195	194	194	195	195	195	196	194	192	191	191	193	193	195	195	194	193	192	192	192	194	192	192	195	193	194	194	193	193	190	191	196	193	193	191	191	190	190	191	192	195	192	194	194	194	195	194	195	196	196	197	193	194	194	196	197	197	195	195	196	193	195	194	196	195	195	195	198	198	196	195	197	198	197	196	196	195	193	196	194	195	196	196	197	194	195	197	197	199	198	197	196	194	194	194	193	193	193	193	193	194	195	194	194	196	196	196	195	195	196	195	193	197	197	194	193	192	196	194	194	192	191	190	192	194	194	194	195	196	197	198	198	201	198	198	196	195	196	193	193	195	196	196	196	196	196	196	195	194	193	194	193	196	196	195	196	195	196	193	195	196	196	195	195	195	199	199	197	196	196	197	195	195	194	194	194	194	198	200	199	197	196	195	193	192	193	194	194	194	195	193	196	199	201	201	198	196	196	196	196	197	196	192	191	194	194	194	195	189	192	195	195	198	198	198	196	194	194	194	195	194	194	193	193	192	192	193	193	193	193	193	194	193	194	194	194	195	194	194	191	192	192	194	192	193	193	193	196	196	195	194	193	192	192	192	193	196	195	194	191	190	191	192	193	192	193	193	193	194	194	193	193	192	192	193	192	192	190	189	188	187	187	189	190	190	192	189	190	190	191	191	195	196	196	193	191	190	190	190	190	188	188	186	187	190	187	189	190	189	188	187	190	188	188	191	191	189	187	190	191	191	190	188	187	187	188	187	189	189	187	188	187	189	191	190	190	192	190	191	189	189	188	190	191	189	190	191	191	191	193	192	191	190	187	187	188	188	188	189	189	187	186	186	186	187	188	188	188	187	188	188	187	186	185	188	187	192	189	189	188	185	186	187	188	191	191	191	187	187	187	187	187	187	185	185	185	186	184	185	185	187	187	186	184	185	183	182	181	183	184	184	184	183	184	183	184	184	184	183	183	183	183	0	0	0	0
181	181	182	182	183	183	182	181	180	182	182	181	182	183	184	184	183	183	181	180	180	181	182	183	184	179	179	179	181	183	184	184	184	183	185	186	186	186	186	186	186	186	185	186	187	187	188	187	188	188	188	188	186	186	184	185	183	184	186	185	187	185	185	185	183	183	183	182	181	181	183	184	185	185	185	187	187	186	186	185	185	185	186	186	187	187	186	186	185	184	182	184	183	186	186	187	189	191	192	193	186	185	185	185	184	186	187	187	186	183	183	183	183	181	183	186	186	187	187	187	190	189	186	186	187	189	190	192	192	188	187	187	187	187	188	188	188	189	188	189	189	189	186	187	187	187	188	189	188	189	185	186	185	189	189	189	190	188	187	186	187	188	190	191	192	191	190	188	187	190	185	183	185	187	188	188	187	187	187	189	190	192	192	193	191	190	191	191	190	190	190	190	190	190	190	190	195	193	194	192	192	191	191	189	190	190	192	192	192	190	190	190	190	190	192	193	193	194	194	195	195	195	192	191	189	189	192	192	194	194	193	193	193	191	191	193	194	194	193	193	193	192	190	189	190	195	195	194	193	193	193	190	191	193	192	192	192	193	194	194	194	194	195	197	197	195	194	195	196	195	193	194	193	194	193	194	193	194	194	194	195	198	197	196	195	195	196	196	194	194	192	195	194	195	195	195	195	195	195	194	196	198	197	197	195	193	193	193	191	191	192	193	193	193	195	196	195	195	196	196	196	195	194	194	194	193	197	192	191	193	193	194	194	195	193	193	192	192	193	194	194	194	195	195	196	198	198	196	196	196	195	193	193	193	194	197	196	196	195	195	195	195	195	192	193	196	194	195	194	193	193	192	193	194	195	193	193	193	194	194	194	194	195	197	194	195	195	195	194	192	193	193	192	192	193	194	194	192	192	193	192	192	193	194	196	196	197	198	195	195	195	195	195	196	196	196	194	192	191	193	194	194	189	190	195	194	194	195	195	195	195	194	194	192	195	195	194	193	191	192	193	193	192	193	193	194	194	193	193	192	192	192	192	191	194	193	194	193	194	194	194	194	194	194	192	192	192	192	192	192	192	194	192	192	191	191	190	191	192	192	192	192	193	192	192	191	191	191	191	192	190	190	189	189	189	189	190	190	190	189	189	189	190	190	191	194	193	193	192	191	189	188	188	188	187	188	185	184	190	190	191	189	188	187	187	188	188	188	188	188	188	186	190	191	189	189	188	188	188	187	187	187	187	187	187	187	187	190	190	189	188	188	188	190	187	189	190	189	189	185	188	191	191	192	191	189	187	188	188	189	188	184	185	186	186	187	186	184	186	187	187	188	186	185	183	184	185	184	185	188	189	189	188	185	186	186	186	185	185	186	189	189	183	184	186	186	186	185	184	184	184	181	181	181	182	182	182	183	183	183	181	182	182	183	183	182	183	183	183	183	184	183	183	183	183	182	0	0	0	0
181	181	182	182	183	182	182	181	180	178	178	180	181	182	180	180	179	181	181	180	180	180	180	182	181	178	178	178	180	180	183	184	184	182	182	185	186	186	185	185	185	184	184	184	185	186	186	184	186	188	188	186	184	183	183	183	184	183	184	184	184	184	185	184	184	184	182	181	182	182	181	182	183	184	184	184	184	184	185	184	184	186	186	186	187	186	184	184	184	181	181	182	184	186	186	186	186	191	190	186	184	184	184	184	183	186	186	187	186	184	183	183	184	184	184	185	184	185	186	190	186	189	187	186	185	187	185	187	186	186	187	187	185	186	187	187	188	189	188	187	185	184	185	186	186	185	185	185	187	186	184	185	186	188	187	187	188	186	186	185	186	186	189	187	185	187	188	188	184	184	185	185	188	187	188	188	187	187	189	186	187	190	192	191	188	189	190	188	190	188	186	185	187	187	189	189	192	191	192	192	190	192	191	190	192	189	191	191	191	191	191	191	189	190	190	189	191	193	192	192	191	191	188	189	189	191	192	194	194	194	194	194	192	191	193	193	194	195	195	193	193	192	190	189	194	195	194	193	193	193	193	193	190	191	191	191	190	190	193	194	194	192	191	191	191	194	194	195	195	192	192	194	193	193	193	194	192	193	192	193	195	194	195	194	193	194	194	195	192	194	192	191	191	194	195	196	195	193	194	193	197	195	195	194	191	193	192	193	193	191	192	193	193	194	196	197	197	198	197	196	198	197	197	195	193	192	196	192	192	191	192	192	193	193	193	192	192	192	192	192	192	192	194	195	196	196	195	192	193	195	193	192	192	192	193	196	197	196	195	195	194	195	194	195	192	196	193	193	194	192	192	192	192	193	193	192	192	193	193	192	193	193	195	195	192	192	192	193	193	194	192	194	193	191	191	194	194	192	193	193	192	190	191	192	194	194	194	195	196	193	191	194	194	194	194	193	193	192	191	194	196	196	193	191	189	193	193	193	192	192	195	194	195	193	195	194	194	191	192	192	192	193	192	193	195	193	191	191	189	189	191	193	191	191	192	192	192	190	193	192	194	193	193	192	190	191	190	192	192	192	192	193	192	191	191	190	190	189	189	190	191	190	191	191	190	190	189	190	190	191	190	190	190	189	189	189	190	190	190	188	188	189	190	191	192	192	193	192	190	190	188	187	187	187	184	184	184	184	185	191	192	191	187	187	188	189	188	188	187	187	187	185	185	186	189	187	187	188	188	187	186	186	186	188	187	190	188	191	190	188	186	185	187	186	187	189	190	187	189	186	187	187	189	189	189	185	185	186	186	187	186	184	185	186	186	184	184	181	181	185	185	186	183	183	182	182	183	183	185	184	185	185	186	186	185	184	185	185	183	184	184	182	182	182	184	185	185	185	184	184	183	182	182	180	181	180	181	182	182	182	181	181	182	182	183	182	182	183	182	183	182	183	182	182	181	181	0	0	0	0
179	181	181	183	183	184	184	181	179	177	176	176	178	180	180	179	179	183	182	180	179	179	179	180	180	177	177	177	180	181	181	182	182	183	183	185	185	185	186	186	186	184	183	184	185	186	186	183	184	182	186	183	182	182	182	184	183	183	184	184	183	185	184	186	186	187	186	183	181	180	181	182	184	184	184	185	183	182	182	183	184	185	185	184	184	184	183	184	184	183	182	183	184	186	184	185	184	188	188	186	184	183	184	184	185	185	187	185	185	183	184	185	185	185	183	184	184	186	186	184	184	186	186	185	185	183	183	186	186	186	186	186	184	185	186	187	187	188	187	185	185	184	185	185	184	184	184	183	184	184	184	185	186	189	187	187	187	187	186	184	184	186	184	185	186	186	186	187	186	185	186	188	187	187	188	188	188	189	188	186	186	186	189	186	186	186	187	187	187	187	186	185	186	188	188	190	192	189	189	189	191	189	189	187	188	188	187	192	191	190	187	189	190	189	189	190	190	190	190	189	189	190	191	190	188	189	190	189	190	191	191	191	191	192	193	192	194	195	194	193	193	191	190	192	193	193	192	192	193	193	193	191	190	190	190	191	191	191	193	192	191	190	191	190	191	191	193	193	190	191	188	190	193	191	191	191	191	191	191	192	192	193	194	194	192	194	194	192	194	190	191	192	192	192	192	192	191	189	191	192	193	195	196	195	193	193	193	193	193	192	192	193	193	194	194	195	196	198	196	196	197	196	196	196	194	195	192	193	191	192	192	193	193	193	191	192	192	191	192	191	190	191	193	194	194	194	192	192	192	193	194	192	192	192	192	196	196	195	196	195	195	194	194	193	191	192	193	192	191	191	191	192	191	193	192	192	192	191	192	191	194	194	194	195	195	192	193	192	193	193	192	193	194	194	191	191	191	192	193	193	192	191	190	192	192	193	193	195	195	193	190	192	192	192	194	192	191	191	191	194	195	193	193	192	190	188	193	194	194	195	195	194	194	194	195	193	193	192	192	191	192	192	192	192	194	195	193	191	190	189	191	190	190	190	190	191	192	190	191	192	192	192	191	190	189	189	190	192	192	192	192	193	192	191	191	190	189	190	190	190	189	192	191	191	190	188	189	190	190	189	190	190	191	191	189	188	190	189	186	188	188	188	189	189	190	189	189	189	189	189	188	186	184	185	184	185	186	184	189	189	190	189	189	187	187	187	189	187	185	187	186	187	186	188	186	186	186	187	186	187	185	185	185	188	187	188	188	189	189	187	183	185	186	186	186	188	187	186	185	187	187	189	189	189	185	185	184	185	185	185	185	183	185	186	185	187	186	181	183	182	185	185	183	183	182	183	183	184	182	184	184	182	183	183	183	184	184	184	183	183	183	182	182	182	183	183	184	185	184	183	182	182	181	181	181	180	180	181	181	181	179	179	179	179	181	180	181	181	181	181	182	182	182	183	182	180	0	0	0	0
178	179	179	181	183	183	182	182	179	175	175	175	175	176	177	178	178	180	183	181	179	179	179	179	179	177	180	180	181	181	181	181	183	183	185	184	183	181	180	181	181	181	182	183	184	184	183	183	181	181	181	179	180	179	180	180	183	183	183	184	183	185	186	186	186	187	186	184	183	183	182	183	184	184	183	183	183	182	184	183	183	182	184	183	182	182	182	184	184	184	184	184	184	184	182	182	184	184	183	184	184	183	183	184	183	184	184	183	184	184	182	183	183	182	182	182	184	182	182	183	182	184	183	183	183	183	182	182	185	186	186	186	184	184	186	187	187	186	184	185	184	184	185	184	184	180	183	183	183	185	184	185	185	186	187	185	184	183	185	183	184	185	184	185	185	185	187	187	186	186	187	188	188	188	188	187	189	188	189	187	186	186	187	186	186	186	185	184	184	186	186	188	187	190	190	191	190	189	187	187	189	189	187	187	187	188	187	190	190	189	186	187	186	188	187	188	187	188	188	187	187	188	186	187	188	188	189	189	187	189	188	187	187	191	192	192	192	193	193	192	193	192	190	192	192	190	192	190	191	192	193	190	190	190	191	191	192	191	191	190	189	189	190	191	191	191	192	190	191	191	190	191	193	191	191	191	191	190	189	191	193	194	193	189	189	190	191	193	189	193	193	193	192	192	192	193	190	189	190	191	191	193	194	194	194	192	190	190	191	191	191	192	192	192	196	193	195	196	196	193	192	193	196	194	191	191	193	193	193	192	192	193	193	192	191	192	192	193	191	191	189	190	192	192	193	193	191	192	192	192	193	192	192	192	192	194	194	194	192	195	194	194	193	191	189	191	191	189	189	188	191	190	191	191	191	191	192	191	191	191	193	192	192	192	192	191	192	194	194	192	192	191	191	192	191	191	191	192	191	191	191	191	190	191	191	192	192	194	194	192	191	193	192	192	194	192	191	191	192	193	192	191	192	192	191	192	193	195	194	195	195	194	193	192	193	193	191	190	189	192	191	191	191	193	195	194	190	191	191	191	192	193	188	190	190	189	192	192	192	192	191	190	190	190	189	188	192	192	189	189	190	192	190	190	190	191	191	190	190	189	189	189	191	190	189	190	190	190	190	188	189	190	190	191	188	186	185	187	187	187	188	189	186	188	187	189	189	188	188	187	187	185	185	185	185	185	185	185	188	189	189	187	187	186	185	188	189	187	188	188	188	188	188	187	186	186	186	186	185	185	184	184	186	187	186	187	188	188	186	187	185	183	184	185	185	186	187	184	184	183	186	185	185	185	184	183	185	185	183	184	183	184	185	186	185	187	184	185	181	182	184	183	183	183	182	182	182	182	182	183	184	182	183	184	182	183	183	184	184	183	183	181	181	182	183	183	183	183	181	182	181	181	182	182	180	180	180	181	181	179	179	179	179	178	180	179	178	181	181	181	181	181	181	181	179	181	0	0	0	0
176	177	177	178	182	181	180	180	176	175	176	174	174	174	174	177	180	180	183	181	179	179	179	179	178	178	179	179	179	180	181	181	181	185	180	182	182	180	181	180	180	180	182	183	184	183	183	183	184	182	179	176	178	179	180	180	183	183	183	185	183	184	183	186	185	185	183	182	183	183	182	182	182	182	181	181	180	181	181	185	185	181	181	181	181	181	183	186	184	184	184	184	184	184	183	182	184	183	183	182	181	182	183	183	184	183	183	180	180	181	182	182	183	181	182	182	182	184	182	182	183	183	182	183	183	182	182	182	182	183	185	183	183	184	185	185	184	184	185	184	183	182	184	184	185	184	184	184	184	183	183	184	184	186	188	186	184	183	183	184	184	185	185	186	185	185	186	186	187	186	187	187	188	188	188	188	188	188	188	187	185	183	185	184	184	185	185	186	185	187	188	189	185	187	190	190	188	188	186	186	186	186	186	187	187	186	188	190	188	188	188	186	186	187	187	187	186	185	185	185	187	186	186	186	187	188	189	187	189	188	186	188	187	186	189	191	189	189	192	192	191	190	190	191	189	189	188	186	189	190	191	190	190	189	188	192	192	190	190	189	190	191	192	190	191	191	190	190	190	188	191	191	192	191	190	191	191	189	187	190	190	191	191	187	189	188	187	189	191	192	193	191	191	192	190	189	189	189	188	188	190	189	189	191	191	190	190	190	189	189	189	191	191	191	190	190	191	193	193	193	193	192	192	191	190	191	192	192	192	192	192	193	191	192	191	190	190	190	191	188	190	190	191	190	190	191	190	191	191	193	191	191	191	191	191	191	192	192	192	193	191	192	191	191	191	190	188	187	189	189	189	191	191	190	189	192	190	190	189	190	190	191	192	192	193	192	194	194	192	192	191	191	191	191	190	190	191	192	192	191	190	190	190	190	191	191	191	193	193	192	193	192	192	192	191	195	194	187	188	189	190	190	190	190	191	190	190	190	191	192	193	193	190	190	190	193	191	190	190	191	191	191	191	192	193	194	192	189	189	189	190	189	189	189	188	188	191	193	192	191	192	190	190	189	189	191	189	189	189	187	189	190	190	191	191	190	190	190	189	191	189	190	189	186	185	189	189	189	189	189	188	189	188	190	188	186	186	186	187	186	187	187	186	186	186	185	188	188	187	187	186	184	184	185	186	186	186	185	187	187	187	187	186	185	183	188	189	189	187	187	186	188	188	187	187	187	186	183	183	184	184	184	183	184	185	186	184	184	185	185	185	183	182	183	183	183	182	185	184	183	184	184	184	184	184	184	183	182	183	184	183	184	184	183	184	187	187	186	184	183	183	182	181	181	182	181	181	181	183	184	186	186	181	182	182	182	183	183	183	183	183	181	181	182	183	183	183	182	182	180	182	182	182	182	181	180	179	178	178	177	178	178	178	180	181	178	178	180	181	181	181	181	180	179	179	177	0	0	0	0
178	176	176	176	179	180	176	176	175	175	175	175	175	175	176	178	182	182	179	179	178	179	179	179	177	178	177	179	179	180	181	178	178	180	180	179	179	180	179	178	180	180	182	182	183	183	183	184	178	181	179	179	178	179	180	181	181	182	183	183	180	181	179	183	181	181	180	184	182	181	182	182	182	180	180	179	179	180	182	185	185	181	179	179	179	180	181	184	184	181	181	181	182	183	181	180	181	179	178	179	179	182	183	179	179	182	182	182	182	182	182	183	182	183	182	183	181	181	182	183	183	182	183	183	183	182	181	181	181	181	180	182	184	184	184	186	185	184	185	184	184	182	183	182	184	185	186	186	184	183	183	183	183	184	187	186	184	182	181	182	185	186	187	187	187	186	187	187	186	186	185	186	186	186	189	186	186	186	186	186	186	182	182	184	183	184	184	184	185	187	188	185	182	186	188	188	187	187	185	184	185	185	187	186	185	186	186	186	186	187	189	188	186	186	187	187	188	186	187	187	186	186	185	186	188	188	188	186	187	187	186	187	187	187	188	189	189	189	189	189	189	190	190	190	189	189	187	185	184	190	189	189	187	189	189	190	190	190	189	189	190	189	190	191	190	190	190	190	189	191	187	187	191	192	193	189	187	186	187	190	190	189	188	188	186	187	190	191	191	193	190	191	191	190	189	189	189	190	190	189	188	190	190	189	190	190	190	190	190	190	189	189	190	188	189	189	191	192	191	192	192	191	190	190	190	190	189	191	191	189	188	188	189	190	191	190	189	190	189	190	190	190	189	190	191	191	192	192	190	191	191	191	190	190	192	192	192	191	191	191	190	191	190	190	190	190	187	187	186	188	189	189	189	190	189	191	190	191	189	190	190	191	191	192	192	192	194	193	193	191	191	190	190	189	189	190	190	191	189	190	190	190	190	190	190	191	191	187	192	190	191	193	192	192	192	194	194	187	186	186	188	189	189	189	189	188	189	187	190	187	189	189	190	190	192	191	191	192	191	190	190	191	192	193	193	192	189	188	187	188	187	188	188	189	188	188	188	191	192	192	189	189	189	188	189	189	188	187	188	185	187	189	188	187	189	188	189	190	191	189	189	189	188	187	187	186	190	190	187	187	187	188	188	188	189	186	186	186	186	186	185	185	185	185	185	185	185	187	188	187	187	184	184	185	186	185	184	186	187	187	186	186	186	185	185	183	189	186	188	187	186	185	184	187	186	186	182	182	182	182	182	184	183	183	183	183	185	184	184	184	182	183	182	181	182	182	182	183	183	183	183	184	183	185	183	183	184	183	181	182	184	181	180	181	185	187	187	185	184	181	182	183	182	181	182	182	181	180	181	184	184	187	185	181	181	182	183	183	184	183	182	182	182	180	181	181	182	182	181	182	180	179	179	180	179	178	178	176	176	176	177	177	178	181	179	178	178	179	179	181	181	181	180	179	179	178	0	0	0	0
176	176	174	174	175	177	175	175	175	175	175	174	175	175	176	178	178	177	177	176	177	179	178	178	178	179	180	180	180	180	179	178	178	179	179	179	178	177	178	180	183	183	182	181	181	181	181	178	178	178	178	178	178	179	180	181	181	181	182	181	180	180	180	180	181	181	181	181	181	182	180	180	180	180	180	179	179	179	180	182	182	180	179	179	180	180	181	183	183	182	182	182	182	183	182	181	179	179	179	179	180	179	182	181	182	183	183	181	182	182	182	182	182	183	181	181	180	178	178	182	182	181	180	180	180	182	181	180	180	178	182	184	183	184	186	185	185	183	183	183	184	184	182	182	183	186	186	185	183	183	185	184	183	185	187	186	183	183	183	184	183	187	188	188	188	187	187	183	182	185	182	183	183	185	186	188	185	185	185	186	183	182	182	182	183	183	184	184	187	187	187	188	182	182	186	187	187	187	185	184	186	184	185	186	186	185	186	186	186	187	189	188	185	185	185	187	186	189	187	187	184	186	185	188	189	189	189	187	188	187	187	187	186	187	188	188	189	188	187	187	188	188	187	186	190	190	190	189	189	188	189	188	188	188	188	187	187	187	188	189	189	189	191	190	189	188	189	190	191	187	186	187	190	194	190	189	187	187	185	187	189	189	189	187	186	189	191	191	191	191	190	189	191	191	189	191	190	190	189	189	189	190	188	189	190	190	190	190	191	191	191	191	192	188	190	187	189	189	189	189	190	191	190	189	188	188	190	191	189	190	190	190	190	190	189	190	188	188	188	189	189	189	188	190	190	190	191	191	190	190	190	190	189	191	191	191	193	190	190	190	190	189	190	190	188	190	189	188	189	188	188	189	189	189	191	192	192	192	192	191	191	190	189	190	191	191	193	192	192	192	190	189	190	189	189	189	190	189	189	189	189	190	191	189	188	187	186	189	188	191	193	193	192	191	191	190	191	187	187	186	188	190	189	188	188	188	187	187	186	187	188	190	189	190	191	191	189	191	189	190	191	191	192	190	190	191	192	189	189	188	188	187	189	187	189	187	187	188	192	192	191	189	189	189	189	188	188	187	186	184	185	186	187	187	188	187	190	190	188	188	187	189	187	186	186	187	186	186	188	187	185	185	186	184	184	184	184	186	186	186	185	185	187	186	184	185	185	187	187	186	186	185	185	184	185	185	184	184	184	186	185	186	186	185	185	185	185	186	187	185	184	184	184	183	182	184	182	182	182	182	184	183	183	183	183	182	181	182	184	187	185	181	181	181	182	181	185	180	184	184	183	182	183	182	183	184	182	182	183	183	181	180	181	183	185	187	185	184	184	180	182	182	182	180	181	181	182	181	180	182	184	184	185	185	183	183	182	183	183	183	180	180	180	179	180	180	180	180	180	181	180	179	180	179	179	179	178	178	176	176	176	176	178	178	178	177	177	178	178	180	180	180	180	179	179	178	0	0	0	0
176	173	172	175	175	176	176	176	176	175	175	175	175	175	175	176	177	177	177	176	176	177	178	178	178	179	180	181	180	180	178	178	178	178	179	177	177	180	180	180	179	179	179	181	181	180	179	179	178	179	178	178	178	179	179	180	181	181	181	181	180	179	180	180	181	181	181	181	179	179	180	179	180	179	179	179	178	180	180	182	181	180	179	180	180	180	180	182	182	182	182	182	182	181	180	179	178	178	179	180	179	179	179	182	182	183	180	180	179	179	178	178	180	180	183	181	178	178	178	178	178	180	179	179	181	182	179	179	180	182	181	182	185	182	182	183	185	185	183	183	184	183	182	183	185	186	186	184	184	183	183	183	180	182	182	184	182	182	185	188	185	182	183	184	186	185	185	182	182	182	182	183	183	184	182	182	184	184	184	183	182	183	180	184	184	184	186	186	186	187	186	186	182	184	185	185	186	187	186	186	185	186	186	186	185	185	186	186	187	187	187	186	183	184	184	185	188	188	187	188	186	189	189	188	190	188	188	185	187	188	185	184	187	187	187	188	188	188	188	187	187	186	186	185	185	188	189	190	190	189	189	188	189	189	189	188	187	187	188	188	189	190	191	189	187	188	188	189	189	185	185	186	187	187	189	189	187	186	187	187	187	188	188	187	187	190	190	190	191	190	188	188	187	189	188	190	190	190	190	188	188	188	187	187	189	190	190	191	189	190	191	192	191	188	190	190	190	188	189	189	189	190	190	188	188	187	190	189	189	190	191	190	190	190	190	188	189	187	189	189	189	188	187	188	190	190	190	187	187	188	191	189	188	191	186	192	190	193	189	190	189	189	189	187	188	188	188	188	188	187	187	187	189	188	191	192	193	192	192	191	191	190	189	189	189	188	190	191	191	191	189	188	187	187	189	189	190	190	189	190	188	188	190	190	188	189	186	186	189	190	193	193	190	191	192	190	189	189	188	188	190	190	189	189	188	188	188	187	187	187	188	188	189	189	189	189	189	189	189	190	190	189	192	189	189	190	191	188	188	187	188	187	189	189	188	187	186	189	189	190	191	189	189	189	189	188	187	187	187	187	188	187	188	187	187	188	189	187	191	191	187	184	183	183	184	185	186	185	187	186	185	184	184	185	186	184	184	184	186	186	186	187	186	186	185	184	185	184	186	185	185	185	185	185	185	184	185	185	185	183	181	185	185	185	185	185	184	185	185	185	183	183	183	182	181	182	182	182	182	183	184	183	183	182	182	182	181	182	183	183	186	183	180	180	180	182	181	180	184	185	182	182	179	180	182	183	183	179	178	178	182	183	182	183	184	185	185	183	179	180	182	180	179	181	176	177	178	181	180	180	180	181	181	181	180	180	180	179	182	181	180	179	177	178	179	179	179	179	179	180	179	179	179	180	180	180	179	178	177	176	176	176	176	176	178	176	175	176	177	177	178	180	180	180	180	179	0	0	0	0
