211	211	211	211	212	211	211	206	206	206	206	208	210	210	210	211	211	211	211	211	213	213	213	212	212	212	211	211	212	212	212	212	211	212	212	211	211	211	213	214	213	214	213	210	210	208	212	213	213	213	214	215	213	213	211	210	213	212	212	213	214	214	214	215	212	213	214	210	212	213	211	211	209	214	214	214	211	212	214	214	213	214	215	211	214	213	210	210	208	208	210	210	210	211	214	215	217	214	215	214	213	213	210	212	210	213	213	211	212	212	213	211	213	213	212	210	212	212	212	211	211	214	215	213	212	211	211	211	212	212	211	210	210	212	213	212	208	210	212	213	214	214	215	216	213	213	212	214	214	213	214	215	215	215	217	212	211	211	213	212	211	213	214	215	215	211	208	209	212	214	214	212	215	214	215	214	213	212	213	215	214	213	211	211	213	214	215	214	214	215	215	214	213	211	214	213	213	212	213	213	212	212	211	213	212	210	211	212	212	211	215	213	213	213	214	214	214	211	209	210	210	213	212	211	212	214	213	215	215	214	214	213	212	212	212	211	212	213	213	214	215	215	214	213	211	212	212	213	214	212	211	211	211	211	214	213	211	213	211	210	210	210	210	210	210	210	210	210	210	210	211	211	213	213	213	214	211	212	210	210	208	208	210	210	210	211	213	213	211	211	213	211	214	214	214	213	212	212	212	213	214	214	214	211	211	213	212	211	212	212	213	212	212	216	214	212	213	213	213	213	210	211	214	213	213	211	212	212	211	210	212	210	211	209	211	212	212	214	213	214	212	212	211	212	212	213	214	214	214	213	214	214	211	210	211	211	212	212	212	211	211	210	209	210	210	210	210	210	212	214	214	213	214	214	216	215	214	214	214	212	212	212	210	210	213	216	212	215	216	214	214	212	214	215	216	217	216	216	212	211	212	213	211	208	210	211	210	211	211	213	212	212	211	208	211	210	210	211	210	208	212	210	208	208	207	209	210	208	206	207	209	211	211	213	212	212	210	208	207	207	208	211	211	211	211	212	213	213	212	212	213	212	211	212	212	211	212	211	213	213	210	209	208	208	208	209	209	209	208	207	209	208	209	211	210	208	209	209	209	208	207	209	211	210	210	209	208	207	211	212	209	209	206	206	208	209	209	208	205	204	204	204	205	206	208	208	208	206	208	207	204	205	205	206	204	205	208	207	207	205	205	205	205	208	208	208	208	208	209	209	208	205	207	206	204	206	204	208	206	206	205	204	203	204	204	205	207	207	206	206	206	203	202	203	204	203	202	203	202	205	200	201	201	200	201	201	203	202	202	206	203	202	200	203	198	200	199	202	203	203	205	205	202	202	204	203	204	204	203	200	197	197	197	200	198	199	202	199	201	201	202	201	201	202	203	204	202	199	200	202	201	201	201	200	199	199	198	200	199	198	199	200	201	201	201	200	199	199	198	198	198	198	198	199	199	0	0	0	0	0
211	211	211	210	210	211	208	204	204	203	207	208	211	212	212	212	211	210	211	211	213	214	212	212	211	211	208	209	209	209	210	210	209	212	213	208	209	209	210	211	214	214	213	207	209	209	212	214	213	213	213	213	215	215	213	215	213	211	211	212	214	209	207	207	206	206	208	210	211	209	211	210	210	211	211	211	212	214	214	213	212	212	211	211	210	211	211	208	207	209	210	211	213	213	214	210	210	209	209	211	212	212	209	210	209	209	209	210	210	212	210	210	210	210	211	208	207	208	208	209	211	213	212	210	210	212	211	211	212	212	210	209	211	213	212	211	210	211	212	212	212	214	214	215	213	213	212	212	213	212	213	214	212	212	213	213	211	211	211	213	214	215	215	214	213	209	209	207	209	211	212	213	213	214	216	214	212	213	212	213	214	213	209	211	211	211	212	212	214	212	213	212	211	210	213	211	211	212	212	211	214	211	210	210	210	210	211	213	212	211	212	210	208	212	211	214	209	208	209	209	210	212	211	210	211	214	212	213	212	213	212	212	213	211	211	211	213	214	215	214	211	213	213	212	211	212	211	213	211	211	211	210	210	210	210	212	213	211	209	210	210	210	209	209	209	209	210	209	210	210	209	210	210	210	210	210	209	212	209	208	208	209	210	210	209	209	211	211	210	208	210	211	213	213	214	213	210	211	212	212	212	213	212	208	208	210	209	210	210	209	208	210	210	208	210	211	213	211	211	212	210	212	211	213	212	211	209	209	208	211	212	211	210	211	212	210	212	214	214	214	211	212	213	212	212	211	212	210	211	211	212	210	210	210	211	211	211	211	208	209	210	210	208	209	210	209	208	208	209	214	215	213	212	211	212	211	213	213	213	211	211	208	210	210	210	211	212	212	213	213	213	214	215	215	215	217	216	215	213	211	210	210	210	210	210	210	211	211	211	210	209	208	207	209	208	208	210	210	209	208	206	208	205	206	207	209	211	211	209	206	209	210	210	211	211	210	206	205	205	206	208	208	208	208	211	210	212	212	211	209	212	210	211	212	211	208	209	209	211	213	209	208	208	208	208	207	210	210	207	207	209	205	206	208	208	206	209	209	208	207	207	206	207	207	207	207	207	204	209	209	210	209	206	205	206	209	208	204	204	204	205	204	204	204	207	207	207	206	204	205	204	204	203	204	206	206	206	206	206	205	204	203	205	205	207	207	205	204	204	207	206	205	204	205	204	206	208	207	205	205	204	204	201	202	203	205	205	206	205	205	206	203	202	202	202	201	201	202	201	200	200	200	201	200	202	203	203	201	201	200	201	200	199	200	201	199	199	199	201	202	202	202	202	202	202	203	202	202	201	201	197	197	197	198	200	200	198	197	201	201	201	200	199	199	199	198	199	198	198	201	201	201	200	198	198	198	198	197	197	197	199	198	199	199	198	199	199	197	196	195	197	197	197	197	198	0	0	0	0	0
208	210	210	210	210	208	205	203	203	203	204	209	209	208	208	211	210	210	210	210	212	214	214	211	210	210	208	206	208	208	208	208	210	214	211	209	208	208	208	210	213	214	213	208	210	210	210	210	210	211	210	211	213	212	212	212	213	212	211	211	210	210	205	205	205	207	209	210	208	207	208	207	207	211	212	215	215	214	214	214	210	211	211	210	209	210	209	207	207	207	210	211	213	213	213	211	209	207	209	210	211	212	209	208	209	209	209	210	210	211	213	210	210	209	205	204	205	206	206	210	208	209	210	211	211	210	210	210	210	210	210	211	210	209	210	211	210	210	209	209	211	212	210	210	210	212	212	212	212	211	210	211	211	210	210	211	210	211	210	213	213	215	212	212	212	212	207	206	207	208	210	210	210	210	213	214	213	212	211	210	208	208	209	211	212	211	206	205	214	214	210	211	210	211	209	209	209	210	211	208	209	212	212	208	207	210	210	212	213	214	210	206	206	207	209	208	207	208	207	208	208	208	209	208	210	210	211	212	213	211	210	212	212	212	211	211	212	213	213	214	213	211	212	211	211	212	213	213	211	211	210	209	208	209	210	211	210	210	210	209	209	208	208	208	208	208	210	210	209	209	208	208	210	210	208	207	208	208	206	208	208	210	210	210	210	211	211	211	212	210	210	211	212	214	214	210	210	211	211	210	212	212	211	210	208	208	207	208	210	209	208	206	208	207	208	210	210	210	211	212	211	212	211	213	212	211	209	209	211	212	212	212	211	211	211	210	210	211	213	210	210	211	211	212	212	211	211	210	209	209	210	209	209	210	210	209	210	210	210	207	207	210	211	210	208	208	208	208	208	213	211	212	211	210	211	211	212	211	210	210	209	209	210	210	211	211	212	212	213	211	212	212	214	215	214	214	215	211	212	210	209	208	207	207	209	209	210	211	210	208	208	209	209	209	208	209	211	211	208	205	205	204	205	206	208	210	211	211	208	211	209	209	210	210	209	208	205	206	206	207	208	208	206	207	206	206	209	209	209	207	207	208	210	209	209	207	207	208	212	211	208	208	207	208	207	207	206	207	207	204	204	207	210	207	204	205	206	208	207	207	206	206	207	208	206	205	205	204	206	209	209	208	206	205	207	205	204	204	204	204	203	203	203	203	207	207	207	205	204	204	204	204	204	204	205	204	205	205	204	204	201	201	205	205	206	204	205	202	204	207	204	204	204	203	205	206	207	207	205	203	203	202	201	201	200	200	202	201	202	202	204	205	205	203	202	200	199	202	201	200	200	199	199	200	202	203	203	201	200	199	201	201	201	196	198	198	198	199	200	199	199	203	201	202	202	199	201	201	201	200	200	198	199	198	200	199	198	198	197	200	200	199	199	199	197	197	198	197	198	199	199	200	198	199	197	197	198	198	198	198	198	197	197	199	198	199	198	195	194	195	197	196	197	197	197	0	0	0	0	0
207	207	208	208	208	205	202	203	204	204	206	208	207	206	206	206	206	208	207	208	208	212	213	210	207	207	207	206	207	207	208	210	210	212	211	209	209	210	210	211	209	208	210	209	210	211	211	211	212	212	210	209	210	210	210	210	210	210	210	208	210	208	206	206	206	207	209	209	210	210	208	206	205	205	212	214	214	214	211	211	209	210	210	207	208	209	209	207	207	208	208	210	210	210	210	210	210	207	206	210	212	209	209	208	208	207	207	210	210	210	211	212	209	205	205	205	206	205	205	206	206	208	209	209	209	208	208	209	210	211	210	211	211	208	210	210	210	209	209	209	209	209	209	208	209	208	207	208	209	208	208	209	208	209	210	210	210	210	208	209	213	212	213	211	210	210	209	209	208	207	207	208	209	209	211	210	211	209	207	207	208	208	209	208	207	205	206	205	212	208	209	209	210	210	208	208	208	208	206	207	205	207	207	207	206	208	210	212	212	210	207	207	206	205	206	205	207	207	208	210	208	206	206	206	206	209	210	211	212	210	210	211	212	211	211	211	211	211	213	213	213	212	212	210	208	210	211	211	211	210	209	208	208	209	210	210	211	210	210	210	210	209	209	209	208	210	211	211	209	208	207	207	208	208	209	211	207	207	206	208	208	209	209	208	209	209	212	212	212	211	210	211	211	214	211	208	208	210	208	209	209	210	211	210	208	207	208	209	209	208	207	206	206	207	207	207	209	209	210	210	210	210	211	211	207	208	209	209	207	211	208	210	210	210	207	208	207	207	208	208	208	209	210	212	211	211	211	211	210	209	209	208	209	209	210	209	210	209	208	207	207	206	210	211	210	209	207	208	209	210	211	211	211	211	210	210	210	209	208	207	207	207	207	211	210	210	208	210	212	208	210	210	211	212	211	211	210	209	209	209	208	208	206	206	204	207	208	205	207	207	207	207	209	209	207	209	210	208	210	205	206	205	206	208	209	210	211	211	211	209	207	208	207	206	204	208	208	208	208	207	207	207	205	203	206	205	206	207	204	206	207	207	207	209	210	206	207	209	211	209	208	207	206	207	206	206	206	208	205	205	206	206	205	203	203	203	202	208	207	207	206	205	204	204	204	205	206	203	202	206	208	206	205	203	203	203	204	204	203	203	204	203	201	202	202	205	206	204	204	202	202	202	202	202	202	203	204	205	203	202	202	204	204	204	204	201	201	202	202	203	203	204	202	202	202	204	204	205	202	201	203	200	202	202	200	199	200	201	201	203	202	201	203	200	199	199	198	202	201	201	199	199	199	199	200	202	202	200	199	200	202	201	197	197	198	198	198	198	197	196	197	199	200	201	202	202	200	200	201	201	198	198	198	197	200	198	197	197	197	199	199	198	198	197	194	195	195	193	195	198	198	197	198	197	197	195	196	197	198	198	195	193	193	196	196	199	197	196	195	193	196	196	196	195	196	0	0	0	0	0
204	204	206	206	205	205	201	203	207	208	208	208	207	205	205	205	206	206	206	207	207	210	210	207	205	205	205	206	208	208	205	212	212	206	207	209	209	210	209	209	209	208	208	209	211	209	209	211	207	207	206	208	209	208	209	209	208	208	207	207	208	207	207	207	208	208	209	210	210	211	207	206	204	206	211	211	214	214	211	210	210	210	209	209	205	206	202	203	206	205	205	206	207	209	209	209	208	206	205	205	205	208	207	209	207	207	208	207	208	207	208	210	205	209	205	208	206	206	206	206	206	206	208	208	208	206	207	209	209	210	208	206	206	206	206	207	206	207	207	208	207	207	209	209	209	210	207	205	206	208	206	209	207	206	205	204	207	207	208	208	211	211	211	209	208	208	209	209	206	207	207	209	208	209	210	209	208	208	207	207	208	210	210	208	205	205	206	206	207	208	208	209	209	208	207	208	207	206	205	205	204	204	204	206	207	208	213	211	211	208	207	206	204	205	204	205	206	206	209	207	206	207	205	207	208	206	209	211	210	209	209	209	210	209	210	208	209	211	210	210	211	211	211	211	208	207	207	208	208	210	208	208	208	209	209	210	210	205	211	210	211	210	206	205	207	204	211	213	209	207	207	207	208	208	209	210	209	206	206	206	207	208	204	206	209	209	210	210	210	211	210	210	211	211	208	208	208	206	206	206	208	210	211	209	209	209	209	209	210	210	208	207	203	203	206	207	208	210	209	208	209	209	208	207	206	207	207	208	205	206	208	206	207	208	207	207	207	208	208	208	208	207	207	209	210	210	212	210	210	210	210	210	209	210	209	209	208	207	208	207	207	206	206	210	210	209	208	211	210	211	211	211	210	208	209	208	207	207	207	207	207	206	208	208	208	208	207	207	205	205	210	209	210	209	209	211	209	210	210	210	209	206	206	205	203	201	205	207	206	205	207	208	209	208	207	207	209	209	207	207	206	206	205	206	208	211	211	209	207	207	205	208	208	205	205	211	212	212	207	205	207	206	203	202	205	205	203	204	206	206	207	208	210	210	209	206	207	208	209	208	207	206	205	204	204	205	204	208	205	205	205	205	205	203	202	202	202	205	206	207	206	203	203	203	203	203	204	202	202	205	202	203	204	203	203	203	201	201	202	203	205	204	203	201	202	203	204	204	201	200	200	201	200	200	201	202	203	201	202	198	201	199	203	204	204	202	202	202	203	202	204	203	202	200	202	202	203	204	199	199	201	200	202	202	202	200	202	201	202	200	202	201	200	197	199	196	196	198	201	200	198	199	199	199	199	202	199	198	198	199	201	198	197	198	197	199	199	198	197	196	196	201	202	202	202	200	200	200	200	198	198	198	197	199	199	198	197	197	199	199	197	197	198	196	194	194	191	192	192	195	197	196	195	197	197	195	196	196	195	196	193	193	193	196	196	196	195	194	195	193	194	194	194	196	197	0	0	0	0	0
203	203	204	203	200	200	202	204	205	205	205	205	207	199	202	202	201	201	201	201	201	204	206	204	204	205	205	206	206	205	204	205	205	205	208	208	209	208	208	208	208	208	208	208	206	206	203	203	205	205	206	207	208	209	207	207	206	208	208	207	207	205	203	205	205	205	206	208	209	209	207	206	206	203	204	205	206	207	207	208	208	210	206	209	210	205	204	201	202	203	202	202	204	204	206	207	207	206	204	204	204	208	205	204	205	205	204	205	207	207	208	207	205	206	207	208	206	206	206	206	206	206	207	207	206	204	205	205	207	208	210	209	206	205	204	204	204	205	207	206	205	207	209	212	209	206	203	203	204	206	208	210	207	207	205	204	203	205	206	207	207	207	208	206	209	209	208	208	206	206	206	206	210	210	209	207	207	207	206	210	209	210	208	207	205	205	205	207	207	206	206	208	208	209	207	207	206	205	205	205	205	204	206	207	209	210	210	209	208	207	205	206	205	204	205	205	206	208	207	207	206	204	205	206	208	205	207	210	210	210	209	208	209	207	208	208	208	210	212	210	211	211	210	208	206	206	207	207	208	208	208	208	209	208	208	208	205	207	207	210	209	205	205	203	203	204	210	210	212	209	207	207	208	208	209	209	209	208	206	206	205	203	206	206	207	208	209	208	207	207	209	207	207	207	207	208	207	207	206	204	204	207	209	205	206	206	205	204	210	207	204	205	203	204	209	211	209	209	207	208	205	206	208	205	206	208	207	207	204	205	203	205	205	208	206	206	207	208	208	207	208	206	206	208	210	210	209	209	206	207	206	207	210	209	207	207	205	207	208	207	207	206	204	209	209	209	210	210	211	210	210	210	210	208	208	206	207	206	206	204	205	206	207	207	205	205	205	206	204	204	205	207	209	209	209	208	207	208	208	206	206	206	205	205	204	203	202	205	204	205	204	206	208	207	207	207	208	208	208	205	205	206	205	205	205	208	207	206	206	204	204	206	208	206	205	208	208	210	210	208	204	204	203	205	205	205	207	209	207	207	209	209	210	209	207	204	205	205	206	206	206	206	203	203	203	202	202	202	204	205	202	202	203	203	203	202	201	203	204	205	205	203	202	202	201	202	203	202	201	201	201	201	201	204	204	204	204	202	203	203	205	205	204	201	201	201	201	201	199	199	199	199	200	200	200	202	199	199	199	198	199	199	202	201	201	201	205	202	201	201	202	202	199	200	199	202	202	203	201	199	199	199	201	201	201	199	199	201	201	199	200	201	200	199	197	196	196	197	197	197	197	196	195	195	197	196	197	198	198	198	197	197	197	195	197	196	198	198	198	197	195	200	201	201	201	200	199	199	201	200	196	196	194	197	198	197	196	197	199	196	196	197	195	193	193	192	192	192	192	193	194	194	194	193	193	193	197	196	194	194	194	194	194	195	195	196	195	194	195	193	192	192	194	195	197	0	0	0	0	0
203	203	202	201	199	199	202	205	204	204	204	201	200	199	199	199	200	199	199	200	203	203	204	202	201	203	204	204	206	203	203	204	204	204	207	208	207	207	207	207	207	206	208	208	204	204	204	204	201	203	204	206	208	208	207	205	205	207	205	206	206	204	203	203	203	203	203	203	205	205	206	206	206	205	205	205	205	206	206	206	206	206	205	206	208	209	207	205	205	204	203	202	205	206	207	207	204	204	204	201	203	203	204	202	205	204	204	203	204	204	204	204	204	204	205	206	208	205	205	205	204	202	202	202	203	204	204	204	208	207	209	209	206	206	204	204	204	204	206	204	204	205	206	206	205	203	203	204	205	205	207	210	207	206	204	204	202	203	206	206	207	207	206	205	206	208	205	206	205	206	205	206	207	210	207	205	204	204	205	207	208	207	207	207	205	206	205	206	205	205	206	204	205	205	207	207	205	205	207	207	206	205	206	209	206	207	207	209	206	205	205	205	205	204	205	206	204	205	207	205	203	202	204	204	207	206	205	206	208	208	208	207	207	207	207	206	207	207	211	210	210	209	208	208	204	206	206	207	208	208	208	208	208	208	208	206	204	205	206	205	206	205	205	204	202	203	205	209	209	209	208	207	208	208	209	209	209	206	206	206	206	206	206	207	207	207	205	205	206	205	206	203	203	207	207	207	207	206	205	206	203	204	204	202	202	204	205	204	204	204	204	204	202	203	206	209	208	207	203	205	206	204	204	205	206	206	207	204	205	203	205	204	204	204	205	206	207	209	208	207	207	205	206	209	210	206	205	205	205	206	207	207	207	207	204	203	206	207	208	206	206	203	203	208	208	208	210	210	208	208	209	209	207	205	205	206	207	207	206	206	207	205	204	205	205	204	204	205	204	204	205	206	206	206	206	206	207	204	204	207	204	205	205	202	203	202	201	202	202	204	203	207	209	208	207	206	205	206	205	207	204	205	207	207	206	205	204	205	203	202	201	204	207	206	205	204	206	206	206	206	205	205	205	201	200	205	205	207	208	207	206	205	205	204	204	203	205	205	205	206	204	205	204	203	203	203	204	205	205	205	203	203	199	202	199	199	201	204	203	203	203	200	200	199	201	201	202	201	201	202	201	202	201	198	197	203	201	202	203	203	204	204	203	203	201	200	199	199	197	198	197	198	198	200	201	199	198	198	197	198	198	199	198	198	197	198	199	198	199	201	200	200	199	199	199	199	202	202	201	199	199	199	199	201	199	199	198	196	195	198	198	199	200	199	199	198	196	197	197	197	197	199	198	196	195	195	195	195	194	195	199	199	196	196	197	197	195	195	198	197	196	195	200	197	200	199	199	200	199	198	195	194	195	191	192	193	193	197	196	195	193	193	194	194	194	194	191	191	190	192	193	193	193	193	193	193	195	195	193	193	193	193	193	194	194	194	194	195	195	193	193	193	193	194	194	0	0	0	0	0
203	201	202	199	198	198	198	199	204	205	202	202	201	200	199	198	198	198	199	200	203	203	203	201	201	203	204	204	201	201	202	203	204	204	204	207	205	203	204	205	205	205	206	206	202	202	201	202	202	203	203	206	207	207	204	203	203	202	204	206	204	203	203	203	202	202	202	201	201	203	203	206	208	208	205	205	205	204	204	204	205	205	204	204	205	207	207	205	205	204	203	203	205	206	206	207	204	203	203	202	202	202	202	202	203	204	205	204	204	204	201	201	202	203	204	203	201	203	203	204	204	204	202	202	203	203	203	203	205	205	206	206	206	206	203	202	203	204	204	203	203	203	205	205	205	203	203	201	202	205	206	209	206	204	203	202	202	204	205	207	207	207	205	206	205	205	205	206	206	205	204	204	208	206	206	207	204	204	204	205	206	206	207	205	204	204	205	204	205	205	205	205	202	201	202	204	205	204	205	207	204	204	203	203	206	207	207	204	202	202	206	205	204	204	204	205	204	205	204	206	204	203	203	204	204	206	205	204	207	207	207	205	203	205	205	205	203	205	204	204	210	208	207	206	204	207	206	206	206	206	208	209	210	206	206	204	204	204	204	205	206	205	205	202	202	202	204	206	207	207	207	207	205	205	206	206	208	205	205	205	205	205	205	206	206	205	204	205	205	203	204	206	205	205	206	206	206	205	204	202	202	201	201	201	201	202	203	204	204	204	204	204	204	205	205	207	206	204	204	204	205	204	203	203	206	206	204	204	204	203	203	205	205	203	204	204	207	207	207	208	205	204	204	206	207	206	205	204	205	205	207	207	207	204	204	204	206	206	209	204	207	204	204	208	210	210	210	210	208	208	206	204	204	204	203	204	204	206	203	205	204	204	203	202	203	203	204	204	204	204	203	201	201	205	203	203	206	205	204	203	205	202	201	200	201	201	202	202	201	201	203	205	209	204	203	204	205	203	204	204	202	207	207	206	206	205	204	202	201	199	199	201	203	204	202	203	203	202	203	203	203	201	201	200	200	204	205	206	207	206	207	206	203	203	203	203	205	203	204	203	201	203	202	203	204	203	206	206	205	204	201	202	201	199	202	199	199	201	201	202	202	201	199	200	199	198	198	200	201	202	201	202	199	201	195	199	198	199	201	202	204	203	201	200	199	199	198	197	197	197	198	198	197	198	199	198	199	198	197	196	198	199	198	197	195	194	194	193	197	197	197	197	198	198	199	198	200	200	200	197	194	194	195	195	196	198	197	195	195	198	200	200	199	199	199	199	197	195	196	197	198	199	199	198	196	193	194	192	193	197	198	200	196	196	197	197	197	196	194	193	194	196	196	196	196	196	195	194	195	197	194	194	192	190	191	190	192	194	193	192	193	196	196	194	195	194	194	194	194	193	192	193	193	194	194	195	196	195	192	193	193	192	193	193	193	193	194	193	192	193	193	192	191	192	192	0	0	0	0	0
201	202	199	200	195	195	195	197	199	203	204	204	204	201	199	196	196	197	199	200	201	198	198	199	201	203	202	202	201	199	202	202	204	204	204	203	203	201	202	203	202	202	204	203	202	202	202	202	202	204	204	206	205	204	202	201	202	202	203	202	202	201	202	202	202	202	201	201	199	201	203	204	204	205	204	202	201	201	202	203	203	203	199	204	204	207	204	204	204	204	204	205	204	201	202	203	202	201	202	202	201	202	202	202	203	205	205	204	203	202	199	198	198	200	203	204	201	200	201	201	201	201	202	205	203	201	203	203	204	205	205	206	205	206	202	201	202	203	202	201	202	201	205	204	204	203	202	202	201	204	204	207	204	203	198	197	202	203	204	204	204	203	202	202	202	203	204	205	205	204	204	203	203	203	203	202	202	203	204	205	206	206	206	204	202	204	203	204	201	203	203	202	202	202	201	203	205	205	205	205	203	205	202	202	202	203	203	204	204	205	208	207	205	204	204	203	206	206	205	203	202	204	203	204	205	205	205	202	203	203	202	202	203	205	205	205	204	202	202	202	202	200	202	204	205	207	207	203	203	203	205	205	207	207	206	204	201	203	201	203	205	204	203	204	204	202	205	205	205	206	206	205	204	202	203	202	204	205	204	202	202	205	204	206	205	205	203	203	204	203	203	204	205	203	204	205	206	203	203	202	203	202	201	202	201	202	204	205	204	204	205	205	206	204	205	203	203	202	202	204	204	205	205	202	205	204	204	204	202	202	203	205	205	204	204	204	205	207	207	205	204	202	203	204	205	205	204	203	204	204	204	203	204	205	203	203	205	205	209	207	203	202	203	203	205	209	205	207	207	207	204	204	203	202	202	202	205	202	201	204	204	203	203	202	203	206	204	204	204	203	203	203	200	201	204	203	202	205	205	204	202	202	199	199	200	201	201	202	202	200	200	203	204	203	201	203	204	204	205	206	208	209	206	205	205	204	204	203	201	200	199	201	203	202	201	201	201	200	202	202	203	202	201	201	200	203	203	204	206	207	203	202	202	202	202	201	201	201	201	201	200	202	199	202	204	205	205	205	204	203	203	202	200	198	199	199	199	199	200	200	201	200	199	199	199	199	198	198	197	199	202	201	198	195	198	198	197	198	201	200	197	197	197	196	196	195	198	196	197	196	198	196	197	196	198	197	197	196	196	196	197	198	199	197	195	195	194	196	197	196	196	196	196	196	197	198	196	199	198	198	193	195	195	195	194	195	196	196	197	196	196	196	199	197	198	198	194	193	196	197	198	198	199	198	196	193	193	194	194	196	196	198	195	196	196	198	196	196	194	194	193	193	195	194	194	194	192	189	192	193	194	193	192	189	191	191	192	193	191	190	191	190	192	195	193	192	192	192	193	192	192	191	191	193	192	191	192	191	191	191	190	190	190	190	191	192	189	190	190	191	191	191	190	190	191	0	0	0	0	0
198	199	197	195	195	195	196	196	199	199	198	198	199	201	198	194	195	195	200	201	198	197	197	198	200	201	200	200	200	201	201	200	199	201	201	201	199	201	201	201	202	202	202	202	202	203	203	202	204	204	205	204	202	201	201	201	202	202	202	200	201	200	202	202	201	200	200	200	200	201	201	202	203	204	204	201	200	200	200	200	200	198	197	198	199	200	200	200	203	202	202	203	200	203	202	202	201	201	202	200	200	202	202	202	203	203	203	203	201	200	200	198	200	200	201	199	200	199	198	198	199	201	203	203	202	200	200	201	203	204	204	205	205	202	201	201	201	202	201	201	202	201	201	200	202	201	200	201	203	203	202	203	202	200	201	202	202	203	204	205	204	202	201	199	199	201	202	202	204	206	203	203	201	200	202	201	201	200	204	204	206	206	204	203	204	204	204	201	202	200	201	201	202	203	205	202	202	205	205	204	203	203	202	202	202	202	203	203	204	207	207	205	204	204	205	203	201	202	202	201	202	203	204	206	206	203	202	201	203	203	202	202	202	204	205	205	203	202	201	200	200	200	201	202	203	203	202	203	202	201	200	201	205	205	206	201	201	200	200	202	203	203	203	204	202	202	201	202	205	205	204	202	202	202	202	202	203	201	201	201	202	203	204	207	205	204	202	203	203	204	204	203	202	202	202	203	202	201	203	203	202	203	202	201	201	204	205	203	202	204	203	204	204	204	203	203	202	201	203	204	204	204	203	203	200	201	201	201	202	203	204	205	204	204	203	203	204	205	203	202	202	203	203	203	203	203	202	200	200	200	202	203	203	202	201	201	201	202	202	204	205	204	204	201	201	200	203	204	206	206	203	203	202	202	203	202	200	201	200	200	201	203	203	204	205	206	202	203	204	203	202	202	201	203	203	202	203	203	204	202	202	202	203	200	199	199	200	202	201	199	200	202	202	201	200	200	198	198	200	200	203	204	207	204	204	204	203	203	201	202	202	203	203	201	201	201	203	200	200	201	202	201	200	201	201	201	201	200	201	203	203	200	201	202	201	201	201	199	201	201	199	200	198	200	203	204	202	200	201	202	202	201	199	199	198	199	199	199	199	200	200	199	199	197	199	198	199	198	198	198	199	201	198	199	198	198	196	196	198	198	197	196	197	197	197	197	195	198	196	196	196	196	194	196	197	197	197	195	195	195	196	197	196	195	195	194	196	197	196	196	196	196	195	195	196	195	195	197	196	197	193	192	193	195	194	194	194	192	197	197	195	195	195	194	195	194	195	193	193	196	196	196	197	198	196	195	196	196	196	196	196	196	194	196	196	196	196	195	194	195	193	192	192	192	192	193	190	189	189	191	192	192	192	191	191	191	190	190	190	190	191	191	190	189	188	188	189	190	189	190	191	191	192	190	189	190	190	190	190	190	190	190	190	190	189	188	189	188	189	190	189	192	191	191	192	0	0	0	0	0
196	197	197	195	194	195	195	195	198	197	196	197	197	194	196	194	194	194	198	201	198	195	195	197	200	200	199	200	200	201	199	197	196	196	198	198	200	200	199	198	200	200	201	202	202	202	203	203	204	204	204	202	202	201	200	198	198	198	198	199	199	200	199	199	199	199	202	200	200	200	201	201	198	200	202	203	204	202	202	199	199	199	199	199	199	198	198	201	202	202	203	198	200	202	202	201	200	200	202	201	202	202	204	205	205	203	202	202	199	199	199	198	200	199	197	197	197	198	197	197	199	199	199	201	201	201	201	200	201	203	205	205	202	200	199	200	201	200	201	201	201	200	200	199	199	200	201	201	202	201	201	203	203	199	199	200	202	200	202	204	204	202	201	198	199	200	201	201	201	205	203	202	202	202	200	199	199	199	207	204	204	204	202	200	203	204	204	202	202	201	199	199	200	204	201	201	200	202	204	202	202	203	202	202	203	203	203	203	204	204	204	203	204	203	202	201	201	200	199	201	204	204	207	207	204	202	203	203	203	203	200	202	201	202	203	204	203	204	200	200	201	200	201	204	204	201	201	201	203	203	203	202	203	203	205	203	203	202	202	203	203	203	204	204	202	201	201	200	203	202	202	202	202	201	200	199	199	201	201	201	201	203	205	202	202	201	200	201	203	203	203	202	202	199	202	202	200	202	201	201	202	202	201	201	201	203	205	206	202	202	203	203	202	203	202	202	202	202	202	205	204	202	201	202	198	200	200	201	202	203	203	205	203	203	200	202	203	203	201	200	200	200	202	202	202	202	202	200	198	199	203	202	202	200	201	201	199	199	202	202	203	204	203	201	201	200	203	203	203	203	204	202	202	202	202	200	201	200	200	202	201	201	201	201	200	201	201	202	202	202	202	203	202	203	203	202	203	202	201	200	200	201	206	202	201	200	198	200	200	202	201	200	202	201	201	200	199	198	200	201	202	204	204	200	204	201	200	197	197	200	200	200	201	200	200	200	200	200	200	201	201	201	201	201	201	202	199	199	199	200	200	200	200	201	200	199	199	198	198	197	200	198	200	200	200	200	198	197	200	200	200	199	199	199	199	197	197	198	198	197	197	197	198	196	196	197	197	198	197	196	196	196	197	198	199	198	196	196	196	197	197	196	196	196	196	197	198	199	198	196	195	193	193	196	197	196	195	195	195	194	194	196	190	192	193	194	194	195	196	195	196	196	196	195	195	193	194	193	195	196	193	191	192	192	193	194	194	192	194	195	195	195	195	195	195	194	194	192	193	193	193	195	195	196	195	194	192	192	193	192	194	194	193	194	195	197	194	194	195	194	194	194	194	193	192	190	191	190	190	191	192	192	191	191	191	191	190	190	189	190	191	191	190	190	190	189	188	189	189	189	191	191	191	190	189	188	187	186	186	187	188	190	190	190	187	190	189	187	187	189	189	191	191	191	190	0	0	0	0	0
196	196	195	195	193	195	196	196	198	198	194	193	193	193	193	193	192	192	196	199	202	197	195	195	196	199	198	200	201	201	198	196	196	196	198	198	195	193	192	193	195	201	201	201	201	202	201	202	203	201	201	200	199	196	196	198	198	198	198	198	198	198	195	197	199	201	200	201	200	200	199	201	200	199	201	202	201	202	200	199	198	198	198	198	197	197	198	200	201	201	197	197	198	201	201	200	200	202	200	200	201	203	203	204	204	202	200	199	197	197	197	196	197	196	196	196	198	198	197	198	198	198	199	199	200	200	197	199	202	203	205	200	199	197	198	198	199	199	200	199	199	198	198	199	199	200	200	200	199	201	201	201	203	200	200	201	200	201	201	202	202	200	201	201	200	201	201	202	202	202	202	203	200	200	200	199	200	202	206	207	203	201	201	199	202	203	202	203	202	200	198	199	201	202	202	199	198	201	201	202	203	203	201	202	202	202	203	204	205	203	203	202	203	201	200	201	199	198	199	199	200	204	206	204	200	201	202	203	203	202	201	198	199	199	203	200	200	198	202	200	202	202	202	201	202	200	201	203	203	203	201	201	202	201	200	203	201	202	201	203	203	202	202	202	202	200	200	200	202	202	202	200	200	199	199	199	200	200	200	201	201	200	199	200	200	200	199	199	200	202	202	201	200	198	201	200	199	199	199	199	200	200	200	199	199	199	204	204	204	205	204	204	203	202	202	201	201	201	201	201	200	200	199	199	198	199	200	200	199	202	201	201	201	198	197	199	197	198	199	199	200	200	202	203	204	204	204	202	200	201	201	202	201	201	201	201	199	199	199	199	202	203	201	200	200	201	203	203	202	202	200	200	201	201	200	199	200	199	202	200	200	200	200	201	200	202	201	200	202	199	200	201	202	202	201	202	201	201	200	198	199	202	202	205	202	199	198	201	203	202	202	201	201	201	201	201	198	200	200	201	201	200	199	198	199	200	197	197	200	198	199	199	200	200	200	200	197	198	198	200	201	200	200	200	199	199	198	197	197	196	196	196	198	199	202	199	199	199	200	198	195	196	197	197	198	198	199	198	200	200	198	200	198	199	199	197	197	194	196	196	196	195	197	196	195	195	196	198	198	196	193	194	196	196	197	197	195	195	195	196	195	194	194	196	195	196	196	197	195	195	194	195	196	197	197	198	194	194	193	193	191	192	194	193	194	194	193	193	194	195	191	194	196	193	193	193	192	194	194	194	196	191	191	191	190	191	194	193	195	194	194	194	195	195	194	193	193	192	192	191	192	193	194	196	194	191	192	191	190	191	189	192	191	194	190	192	194	194	193	192	192	193	193	192	191	192	191	190	190	191	191	191	191	190	191	190	189	188	188	190	191	190	190	190	190	189	188	189	189	188	190	191	190	190	189	188	188	188	185	186	186	186	187	189	188	187	187	188	188	189	190	190	190	190	189	0	0	0	0	0
198	197	195	195	193	194	196	198	198	197	194	194	193	193	192	191	192	194	194	197	199	197	196	196	195	194	196	197	200	200	199	197	196	196	196	196	194	193	193	193	199	200	200	200	201	198	199	200	198	204	204	199	198	195	197	198	199	199	199	199	198	196	197	198	199	201	200	201	200	200	200	201	200	198	198	199	200	200	200	199	198	198	198	198	196	196	197	199	198	197	197	197	197	198	199	200	199	199	196	197	199	202	203	203	203	201	199	199	198	197	197	194	197	197	198	198	198	198	195	196	197	197	198	198	196	196	198	201	201	201	200	201	199	197	196	198	199	200	199	199	199	199	198	198	199	200	198	198	198	199	200	201	201	200	199	200	201	201	200	199	197	198	197	197	198	199	199	199	199	199	201	202	201	200	199	199	199	199	200	201	199	200	199	199	201	200	200	201	204	201	199	199	200	201	198	197	198	198	196	197	200	202	203	201	201	202	202	204	199	201	201	203	201	201	201	200	200	199	199	199	200	201	203	201	201	200	202	201	201	202	200	199	199	198	197	198	199	198	201	201	202	201	201	202	201	199	198	198	200	200	197	195	196	198	198	197	200	200	201	202	202	200	202	201	200	199	200	201	203	201	198	201	200	197	200	199	199	199	200	199	199	199	199	199	199	199	199	199	201	201	201	200	199	198	200	199	199	199	199	198	199	200	200	199	198	197	199	202	204	202	198	201	202	200	200	198	198	199	200	199	197	196	196	197	197	197	199	199	199	198	198	197	197	197	201	200	199	198	199	199	200	200	200	200	201	203	203	202	202	200	201	201	198	201	201	201	200	200	200	201	201	201	200	200	199	199	199	198	201	202	200	200	200	200	200	198	198	201	200	199	199	199	199	199	200	201	200	199	200	199	199	199	197	197	201	202	201	200	201	201	201	200	199	199	198	198	200	201	203	202	201	202	201	201	200	198	197	197	197	197	200	198	197	197	197	199	198	195	195	194	199	200	200	200	200	200	199	196	197	199	200	199	199	198	197	198	198	197	196	195	195	196	198	199	201	200	200	199	202	198	198	197	196	194	196	196	196	198	198	198	199	196	197	199	196	195	194	193	196	195	197	198	197	196	194	190	193	196	196	195	195	196	197	197	198	197	196	193	195	195	195	195	194	193	193	194	197	196	196	195	194	194	195	195	195	195	195	192	191	191	190	191	193	194	194	194	193	193	194	193	192	193	195	192	190	193	192	193	194	193	192	191	190	190	190	191	194	193	196	196	195	194	195	195	195	194	194	191	192	192	192	192	194	195	191	191	191	190	189	191	190	191	189	190	189	192	190	189	191	191	192	192	192	192	191	191	192	193	194	193	190	190	187	188	187	189	189	188	188	189	190	190	190	190	187	186	186	188	188	186	190	188	190	190	189	188	188	188	187	186	186	186	186	187	187	188	188	188	189	190	190	190	190	189	188	0	0	0	0	0
199	196	196	196	194	195	197	196	196	194	193	194	192	192	192	192	191	195	195	197	198	198	196	193	193	192	191	193	197	199	199	197	196	196	194	196	196	195	194	197	197	200	201	201	199	195	196	197	199	198	197	197	195	194	195	197	198	198	199	199	198	197	196	199	198	196	197	197	198	199	199	199	198	198	196	198	198	196	196	199	198	197	197	197	198	197	196	195	196	195	196	197	195	195	195	198	198	195	191	193	194	197	198	198	198	198	199	199	198	197	194	194	197	198	198	199	198	197	195	195	194	195	196	195	196	196	199	199	200	199	199	200	199	197	197	197	197	198	199	199	197	198	199	200	198	198	198	196	197	197	199	201	202	200	199	199	195	196	197	197	197	195	194	193	196	196	194	199	199	198	199	199	199	198	197	199	197	198	199	198	197	197	197	197	196	197	199	201	202	203	201	199	197	198	195	195	197	197	197	196	198	199	199	199	199	200	200	199	199	200	200	200	200	201	200	199	198	198	198	198	198	203	202	200	198	196	199	199	198	199	199	199	199	199	198	197	200	200	200	201	200	198	199	200	197	199	196	197	198	196	195	194	192	195	194	195	199	200	201	201	201	199	199	199	200	200	201	200	201	200	198	199	198	198	196	198	199	201	200	201	200	198	198	197	198	199	198	201	201	201	201	200	199	198	200	199	199	198	197	197	197	198	199	198	198	198	198	201	199	200	201	201	199	198	198	197	197	197	199	197	196	196	197	197	197	198	199	199	198	199	198	198	196	196	200	199	197	196	197	199	200	200	200	200	201	203	202	201	199	199	198	199	197	201	201	200	200	201	201	200	200	200	200	199	198	198	200	198	199	201	200	199	199	200	200	199	197	200	200	198	198	199	198	198	200	200	201	199	199	198	198	196	196	197	197	197	198	200	201	201	202	201	199	197	198	198	199	201	201	202	199	199	198	198	198	197	197	199	199	199	199	199	197	195	196	197	197	196	196	197	198	198	197	199	199	199	195	195	198	199	199	198	198	197	197	197	197	198	197	197	197	196	197	202	202	201	200	196	196	197	197	197	195	194	197	198	196	197	197	197	199	198	196	193	193	193	193	193	194	195	195	193	194	194	194	192	194	194	195	195	193	194	196	197	196	195	193	194	193	195	197	194	194	193	192	192	194	195	194	194	194	194	194	194	194	195	194	194	191	193	194	194	193	192	193	194	194	194	193	192	190	192	192	190	193	190	194	192	194	192	194	194	192	191	190	190	191	191	191	191	195	195	194	195	194	191	191	191	186	186	190	191	191	192	191	190	191	191	189	190	190	190	187	189	189	189	189	189	188	189	190	191	189	188	186	189	189	191	193	191	190	187	187	188	187	189	189	190	189	189	189	187	187	187	187	186	187	187	188	187	186	188	188	188	188	190	190	187	185	186	186	186	187	187	188	187	187	187	187	188	188	188	186	187	187	0	0	0	0	0
196	193	193	194	194	192	193	193	193	192	192	193	193	193	194	194	193	194	196	196	197	197	196	193	193	192	192	193	196	198	198	198	196	194	194	194	194	194	196	194	195	195	196	196	196	195	196	196	194	196	196	196	194	193	193	195	195	197	198	197	197	197	195	196	197	197	198	198	198	197	197	196	195	195	194	194	195	195	196	195	197	196	197	197	197	196	195	194	193	194	195	195	194	194	194	195	194	195	193	191	194	195	197	196	197	197	196	194	194	196	195	195	197	199	198	198	197	197	194	195	194	194	194	194	194	197	198	197	196	196	197	199	197	196	196	196	197	197	198	197	197	197	197	197	197	196	197	196	196	197	198	201	197	197	197	196	194	196	196	194	197	194	197	194	196	196	194	196	196	196	198	198	199	197	197	194	195	196	195	197	197	199	198	197	195	200	199	201	202	202	197	195	197	194	196	197	196	196	194	195	195	197	198	198	199	201	199	198	198	199	199	200	199	200	197	197	198	198	198	198	198	198	196	197	197	197	199	199	198	197	197	198	198	199	198	200	198	201	199	199	200	198	196	195	197	196	195	197	197	195	194	193	193	194	195	196	198	200	200	201	200	200	199	199	199	197	197	198	200	201	198	197	197	198	197	198	199	201	201	201	198	198	198	198	198	199	197	201	199	199	199	199	199	198	199	199	197	197	197	197	197	197	197	198	198	196	196	196	197	198	197	198	199	198	198	197	195	195	197	197	197	197	197	197	197	197	198	199	199	199	199	198	196	196	198	198	198	199	198	199	201	200	201	201	201	201	200	199	200	199	199	199	200	201	200	200	200	200	200	199	199	198	200	198	200	199	0	0	0	200	198	197	198	199	199	198	198	199	199	198	198	199	199	198	198	199	197	199	198	198	199	198	196	197	197	196	196	197	201	201	201	201	199	197	196	197	198	198	199	197	197	197	197	198	197	196	196	197	199	200	200	199	198	196	196	197	197	194	193	197	198	197	196	198	198	197	197	196	196	197	197	197	197	197	198	198	198	197	196	195	195	195	196	199	198	201	199	196	194	197	195	195	194	195	197	198	197	197	193	195	197	196	196	194	195	194	195	192	194	194	191	193	195	195	194	192	192	193	194	194	194	194	194	194	193	193	190	190	190	192	193	195	194	193	192	192	193	193	193	193	194	193	192	192	192	194	193	192	191	193	194	193	192	193	191	192	190	190	190	189	189	190	190	192	190	190	190	189	190	190	194	194	191	190	190	191	190	191	190	190	190	191	194	193	190	191	191	189	189	189	190	190	191	191	191	189	188	189	188	189	190	191	190	190	190	188	188	187	186	188	187	186	187	186	185	183	183	187	186	188	189	186	185	186	186	187	188	190	190	189	189	189	187	187	186	186	185	186	185	187	186	187	189	188	186	186	187	185	185	185	185	186	187	187	186	186	186	187	187	187	188	187	185	186	187	187	0	0	0	0
189	189	192	192	192	192	191	192	192	192	192	193	195	196	196	195	192	194	194	194	192	195	195	192	191	191	191	195	200	199	199	194	194	194	194	194	195	195	195	195	194	194	194	193	193	190	190	196	196	196	195	193	193	193	193	193	194	193	191	191	193	193	195	195	196	197	197	197	194	195	194	194	194	194	193	192	193	194	195	195	197	197	197	196	196	195	194	194	195	196	196	195	194	193	193	194	194	195	194	192	193	195	194	194	194	193	193	194	195	193	193	193	194	196	198	198	196	195	194	194	194	194	195	193	194	194	196	195	194	195	196	197	195	196	197	197	196	197	196	197	197	196	197	197	197	195	195	196	194	193	193	192	195	196	196	194	194	195	196	195	197	198	198	196	196	196	196	195	194	197	198	198	198	197	196	195	194	194	194	196	197	194	197	197	197	196	199	200	200	197	197	196	197	194	197	197	197	196	197	194	191	195	196	197	196	198	198	197	199	196	196	196	199	197	197	197	197	197	196	196	197	196	196	195	197	197	198	197	194	196	195	198	198	198	195	198	198	199	199	200	200	194	193	194	196	195	195	196	198	197	195	194	194	194	196	198	198	199	200	200	200	200	200	197	197	197	197	196	198	198	198	194	195	196	197	197	198	200	200	200	200	199	197	198	197	199	198	200	198	198	199	198	198	196	196	197	198	198	198	197	196	196	197	197	198	196	195	196	196	198	198	198	198	199	199	196	195	194	193	196	197	198	198	197	198	198	197	200	198	198	199	198	197	197	199	199	198	200	198	200	199	201	200	200	200	200	200	200	199	199	199	198	199	198	199	199	199	199	198	198	197	197	198	197	196	197	0	0	0	0	198	198	197	197	197	197	198	198	198	198	198	198	198	196	195	196	196	198	198	199	199	201	198	198	196	195	196	196	198	200	198	198	197	196	196	196	196	197	196	197	197	196	197	197	197	196	195	197	198	198	199	199	197	196	195	195	196	194	194	198	199	197	196	195	198	196	196	196	196	196	196	195	195	195	196	196	198	197	197	196	196	196	197	197	197	198	197	195	194	194	193	193	194	194	196	195	194	193	191	192	191	193	195	194	194	194	192	193	192	193	192	192	194	194	195	194	194	191	194	194	194	193	191	189	189	190	192	192	190	190	191	192	190	190	190	192	193	193	192	190	190	192	191	191	191	192	192	192	191	194	195	193	192	190	190	189	190	190	189	189	189	190	190	190	190	191	190	190	190	190	192	190	191	189	191	188	190	190	189	190	189	188	189	189	189	189	189	188	188	189	190	189	190	191	190	189	188	187	186	189	190	188	188	189	189	188	187	186	186	186	187	186	186	186	186	185	184	184	185	187	185	187	186	186	186	187	187	188	187	187	187	187	187	188	187	185	183	182	186	186	188	186	186	186	185	185	184	183	183	182	182	182	183	183	183	183	183	184	186	186	189	186	184	184	185	185	0	0	0	0
188	191	192	192	191	191	187	187	192	192	194	196	196	194	194	190	192	194	194	194	191	191	193	190	189	189	191	190	193	193	194	194	191	193	193	192	193	193	194	193	190	192	189	190	190	191	193	193	193	193	193	194	194	192	192	192	192	190	190	191	193	193	194	194	196	197	197	196	191	189	188	192	192	193	193	192	192	195	195	196	196	196	196	195	195	195	194	194	194	195	195	194	193	191	190	192	192	194	194	194	194	194	194	193	192	191	193	193	191	190	190	192	193	194	195	195	194	195	194	194	194	195	195	195	195	194	195	195	195	195	196	193	193	194	196	194	195	192	192	194	196	198	197	196	196	195	193	194	194	192	191	192	194	194	195	194	194	195	196	196	199	195	196	197	197	194	192	192	194	195	196	198	199	196	195	195	193	194	193	194	194	194	196	194	196	196	198	197	197	197	197	196	194	191	198	196	196	194	194	194	195	195	196	196	196	195	196	196	195	196	197	196	196	196	197	197	197	196	196	196	197	194	195	195	197	197	198	195	194	194	194	195	197	198	195	197	198	197	197	195	196	195	193	195	194	195	195	199	200	198	197	195	195	194	196	199	198	196	196	195	197	199	196	196	198	196	196	197	197	198	195	194	194	194	195	194	194	197	199	198	202	200	197	197	196	197	197	196	196	197	197	198	196	196	196	198	197	199	199	198	197	196	196	197	196	195	195	195	195	196	196	196	197	199	199	198	195	193	194	197	198	199	197	198	198	200	200	201	199	197	196	199	197	197	197	198	198	198	197	196	196	197	200	200	199	199	199	200	199	199	198	198	196	198	197	197	197	198	198	196	196	196	197	197	196	196	194	0	0	0	195	198	198	197	196	196	196	198	198	198	198	200	198	198	196	196	197	197	199	197	196	198	196	196	195	196	196	196	195	195	193	193	195	195	194	194	196	197	197	195	194	194	195	195	195	195	195	194	196	197	196	197	196	195	194	195	197	196	197	195	196	194	193	194	194	193	193	194	193	193	194	195	195	196	195	195	195	196	197	194	195	197	197	195	195	196	195	193	194	194	192	192	192	193	196	195	195	191	190	190	190	193	195	194	193	192	192	193	192	193	192	193	193	193	192	194	193	191	194	193	192	192	190	187	189	190	192	192	192	191	191	190	190	190	191	193	193	193	191	191	190	192	191	190	191	191	191	190	191	188	189	192	190	190	189	189	190	190	190	189	188	188	186	186	188	188	186	187	187	188	190	191	189	188	188	187	187	187	187	187	187	188	188	188	186	187	187	188	188	190	191	189	189	190	189	188	187	187	185	186	187	187	187	187	187	188	188	185	185	187	188	190	187	186	186	185	185	185	183	187	186	187	186	186	186	187	188	187	188	185	185	185	184	186	188	186	184	186	185	185	187	185	185	185	185	185	184	183	182	182	181	183	183	182	183	183	183	183	184	184	184	182	182	182	182	183	0	0	0	0
191	189	191	192	191	191	187	187	188	193	193	191	192	191	190	190	193	193	194	189	189	191	189	189	190	190	191	189	191	191	191	191	190	189	190	192	194	192	192	193	190	191	192	192	193	193	193	191	192	193	193	193	192	192	192	191	191	190	190	191	192	194	194	192	193	194	193	192	190	188	188	191	191	191	193	193	195	194	195	193	194	192	193	194	194	194	194	193	193	193	193	190	190	187	188	189	191	193	191	193	193	193	191	191	192	190	190	188	188	189	189	190	191	192	193	193	192	192	193	193	194	194	192	192	192	195	193	195	195	196	194	194	192	193	192	193	191	191	191	191	192	195	196	193	190	192	192	194	192	191	192	192	192	192	194	194	194	197	197	197	195	195	195	195	194	191	191	192	193	195	195	196	196	195	195	194	194	194	194	193	193	193	193	193	196	195	196	195	195	196	197	197	196	193	194	193	193	193	193	194	194	194	193	196	195	195	195	193	192	195	195	196	195	194	196	197	197	197	196	196	196	193	194	195	197	197	197	194	194	194	194	193	194	197	195	195	196	197	195	195	196	195	195	195	196	195	197	197	195	198	196	195	195	195	196	195	196	194	194	194	195	195	194	195	197	195	196	196	195	192	192	195	196	197	196	195	197	195	195	196	197	194	193	195	195	196	195	196	196	196	196	196	196	196	199	199	198	199	199	199	197	196	196	195	195	196	195	196	194	193	194	195	195	198	197	197	196	196	196	195	197	196	195	197	197	197	197	197	196	195	194	197	197	197	195	195	197	197	196	196	196	195	199	199	199	199	198	197	197	195	195	195	195	196	196	196	196	197	197	196	196	197	196	196	194	193	193	194	194	194	194	197	197	197	196	195	196	196	196	196	198	198	198	199	198	197	196	195	198	195	194	195	196	197	197	195	192	192	192	193	193	193	193	194	192	193	195	195	195	195	194	196	196	195	195	195	194	194	194	196	194	196	196	194	193	195	196	196	195	195	195	196	195	193	192	194	193	190	191	194	195	195	195	195	195	195	192	194	192	193	193	193	195	195	195	195	194	192	191	191	192	193	193	194	195	194	193	191	190	189	190	191	194	194	192	192	192	192	191	193	193	193	193	192	191	190	189	191	195	192	191	192	192	192	189	188	190	190	191	192	192	192	190	190	191	192	191	191	190	191	189	188	188	189	189	189	188	191	190	187	189	190	189	187	188	189	190	189	190	189	188	186	186	186	188	188	188	188	186	187	187	187	188	187	187	188	186	186	185	184	187	188	188	187	187	185	186	187	188	190	188	188	188	188	187	186	186	187	187	186	186	185	185	186	187	188	187	185	184	186	189	189	187	187	185	186	185	183	185	182	186	184	184	186	189	189	188	187	186	186	187	186	184	187	187	185	184	186	186	185	184	184	184	184	184	184	183	183	182	182	182	183	183	182	182	182	182	182	182	181	180	180	182	183	183	184	0	0	0	0
192	192	191	190	190	190	187	187	189	187	187	190	190	190	189	189	188	189	189	193	193	189	189	190	191	190	190	188	188	189	190	190	190	189	191	191	192	192	192	191	191	191	192	193	194	194	193	189	190	191	193	192	193	193	193	192	191	190	190	191	192	191	191	192	192	190	190	189	187	187	189	190	190	190	192	193	194	192	192	192	193	192	192	192	192	192	192	192	192	190	191	190	188	187	187	187	190	190	191	192	192	191	191	192	191	190	190	189	189	189	189	190	191	192	192	192	191	191	192	194	193	192	191	190	191	192	192	192	192	192	193	192	192	191	191	190	192	192	192	192	194	194	193	192	192	190	192	193	191	192	191	192	191	194	193	193	193	194	196	195	194	193	195	194	194	192	191	191	192	193	194	194	195	194	194	194	194	194	193	194	195	194	193	193	193	195	195	194	194	193	194	195	193	193	193	193	191	192	194	195	195	194	193	195	195	196	195	193	192	193	194	194	193	194	195	196	196	197	197	196	195	195	195	194	194	197	196	196	194	194	194	195	194	195	195	194	195	195	195	195	196	194	193	193	193	194	194	197	198	196	195	194	194	195	193	195	195	194	194	194	194	194	194	194	195	194	194	196	195	191	192	194	194	195	195	193	193	194	192	193	195	195	194	193	193	194	194	193	193	195	195	195	196	195	196	197	196	198	198	198	198	196	195	194	194	195	196	195	194	193	193	195	195	196	196	194	196	196	197	196	196	195	193	196	196	196	196	194	196	196	196	197	195	196	195	195	195	195	197	196	196	195	195	195	195	196	196	196	196	196	195	193	194	195	196	193	196	196	196	197	198	196	197	194	194	194	194	194	193	193	193	192	193	194	195	195	196	195	195	192	196	196	197	197	198	196	195	195	196	195	193	194	194	194	196	195	192	192	191	191	193	191	191	193	194	194	193	194	194	193	194	195	195	195	194	195	193	193	194	194	196	192	194	193	192	192	195	196	195	195	195	195	195	191	193	194	195	189	189	189	193	197	194	195	195	193	192	191	191	191	191	192	193	193	194	194	192	191	191	191	192	193	193	193	192	193	188	189	190	190	190	192	193	192	192	191	191	192	191	192	192	193	193	190	190	189	186	187	190	192	190	190	193	193	193	193	190	192	191	191	190	191	191	191	191	190	190	190	189	189	186	187	187	189	189	188	188	187	187	191	191	189	187	187	186	188	189	189	189	189	188	184	186	187	185	186	188	188	186	186	185	186	187	187	185	188	186	186	185	185	187	188	187	187	187	186	186	185	187	187	187	187	188	187	186	186	186	186	186	185	187	186	186	185	185	187	186	184	185	186	185	186	187	186	185	185	185	184	182	182	182	183	184	184	184	185	186	186	186	185	185	184	183	183	184	184	185	185	185	184	184	183	183	183	184	183	183	182	182	182	182	183	183	182	182	181	181	181	181	181	180	181	182	182	183	182	0	0	0	0
191	191	191	189	189	188	188	187	185	189	189	190	189	189	188	188	189	191	192	193	191	191	190	191	191	189	189	187	185	185	186	188	188	191	194	191	191	192	191	191	191	191	191	191	192	192	192	188	190	191	192	191	192	191	191	191	189	189	190	191	191	191	192	189	190	189	187	186	185	187	189	189	190	191	191	192	192	191	191	192	192	191	191	190	191	191	191	191	190	190	189	189	189	189	187	187	187	189	191	191	190	191	191	192	192	191	190	191	189	190	190	190	190	191	191	191	191	192	193	192	193	192	191	191	192	192	190	192	191	192	192	192	191	190	190	190	191	191	192	192	191	191	192	191	190	191	192	193	192	191	189	190	191	193	192	193	193	191	191	194	193	193	193	193	192	192	191	192	193	193	193	194	192	193	194	193	194	194	193	192	193	194	194	192	192	191	194	192	193	191	192	190	192	192	193	193	192	192	194	195	195	195	193	195	196	195	194	192	190	191	192	193	191	192	194	195	194	195	196	195	194	194	193	193	193	194	194	194	194	194	195	195	194	195	195	194	193	193	193	195	195	193	193	193	193	193	193	193	193	193	194	193	193	193	194	194	193	193	192	193	193	193	194	195	195	193	193	193	192	192	192	192	194	195	195	194	193	194	192	193	194	194	193	193	191	193	193	192	192	192	192	193	192	193	193	195	196	197	198	198	198	196	194	193	193	193	197	198	196	193	193	193	195	195	195	196	196	196	195	195	193	194	194	195	195	196	194	194	193	196	196	194	194	195	196	195	195	194	196	196	196	194	195	194	195	196	195	194	193	192	194	192	192	193	194	194	192	196	195	197	196	198	196	195	194	195	195	195	194	193	193	193	192	192	192	193	193	192	192	192	195	194	194	192	192	195	196	196	196	196	195	192	192	191	192	193	192	192	191	191	190	190	191	194	195	194	194	192	191	191	192	193	192	191	192	193	192	189	195	193	194	194	195	194	192	193	195	195	192	191	196	195	196	193	193	192	193	193	189	190	192	193	194	195	193	191	191	190	187	188	189	191	192	193	194	194	194	193	191	190	191	190	191	190	190	191	189	189	189	189	191	191	192	191	191	191	190	189	189	189	190	191	192	191	191	186	188	188	189	190	190	191	191	190	190	189	190	189	190	189	189	189	189	189	190	189	189	188	188	188	187	187	187	187	188	188	187	189	190	190	190	190	189	187	189	187	188	188	188	187	185	185	186	186	186	185	186	185	185	186	185	186	185	185	187	187	187	187	187	187	187	187	186	186	185	186	186	187	187	187	184	187	187	188	186	186	186	187	186	186	187	187	187	184	185	184	185	185	185	185	184	185	185	184	184	184	183	182	183	182	182	182	182	183	183	183	184	184	185	185	184	181	183	182	181	182	184	185	183	183	183	183	183	181	182	181	181	180	181	181	182	182	182	182	183	179	178	181	181	180	180	180	181	181	181	181	0	0	0	0
190	190	190	186	183	183	183	184	186	187	187	187	188	188	189	190	190	191	193	191	191	191	189	189	190	188	186	186	184	185	185	189	191	188	189	192	189	190	191	191	192	192	191	190	186	188	188	186	186	190	191	189	189	189	189	189	189	189	189	188	189	189	189	188	190	188	188	186	186	187	189	190	191	192	192	192	192	190	190	191	191	190	188	188	189	190	190	192	192	192	189	190	190	190	189	189	187	189	190	190	189	192	192	192	189	189	189	190	190	190	190	189	189	190	190	191	191	191	191	191	190	191	191	191	191	190	188	189	190	189	191	192	190	190	189	191	192	194	193	190	191	190	191	191	193	193	193	190	190	190	189	190	191	193	193	192	191	191	190	192	192	193	193	192	191	191	192	191	193	193	193	191	191	192	193	194	193	193	190	191	191	193	193	191	191	191	190	192	190	189	189	190	192	192	193	193	193	192	193	193	190	195	192	192	193	194	193	191	191	192	192	191	191	190	190	189	189	193	192	193	190	192	193	192	190	191	193	193	194	194	195	193	192	194	195	192	193	193	192	194	193	193	192	192	193	192	192	191	193	193	194	193	192	194	193	193	192	191	191	192	192	193	193	191	191	191	192	192	190	191	191	192	192	193	194	193	192	192	194	192	193	193	192	191	189	192	192	192	192	192	192	190	191	192	192	192	194	194	194	197	195	195	195	192	193	195	198	197	195	194	194	192	191	192	194	194	195	196	195	194	194	193	194	195	195	196	196	194	194	195	194	191	193	194	191	193	192	194	196	196	194	194	193	193	195	195	194	194	192	192	193	192	193	192	192	194	194	192	197	195	196	198	196	194	194	194	194	193	193	193	193	193	191	192	192	193	193	191	192	192	193	193	193	190	191	193	195	196	196	196	193	192	191	191	191	192	192	191	191	191	190	190	191	194	194	195	192	191	191	191	189	190	191	192	192	191	190	189	193	192	194	193	193	193	192	193	195	195	194	192	194	197	193	193	193	193	192	191	190	192	192	192	193	193	191	190	190	189	187	188	189	191	191	192	192	192	194	192	191	190	189	189	189	189	189	189	189	189	190	189	188	190	190	190	190	191	190	189	188	188	189	188	188	188	187	187	188	188	187	188	189	190	188	188	189	187	190	189	189	189	188	188	188	189	189	188	188	187	188	187	188	187	188	187	187	186	185	188	189	189	190	189	189	189	188	187	187	186	186	185	185	185	186	189	185	185	185	184	184	183	186	185	184	184	184	185	186	185	186	186	186	186	184	183	183	185	185	186	185	186	185	183	183	186	187	187	184	184	185	185	186	186	186	185	186	187	180	183	182	180	182	183	182	183	182	183	181	182	181	183	182	181	181	183	183	185	185	185	182	183	182	182	181	182	181	182	183	184	183	183	182	182	181	181	181	180	178	179	177	180	182	182	183	183	178	179	177	179	180	179	180	181	181	179	179	179	0	0	0	0
188	186	186	183	184	184	185	185	186	186	186	186	186	187	188	189	189	190	191	192	191	189	189	189	187	188	186	186	187	186	184	183	188	188	191	188	187	189	190	191	191	191	189	189	187	185	186	186	186	186	186	187	188	189	189	189	188	188	188	187	186	187	188	189	189	190	185	186	186	190	190	189	188	189	189	189	189	188	189	190	188	188	185	187	188	189	191	192	192	192	192	190	190	190	190	188	188	189	188	189	189	189	191	190	188	188	187	187	187	188	189	189	189	189	189	189	191	189	188	189	189	190	190	190	191	190	189	188	188	189	189	190	191	190	190	190	191	189	188	188	188	187	188	188	190	190	187	188	188	188	189	190	192	192	193	192	191	191	192	188	189	190	191	192	190	189	188	190	191	190	191	190	189	192	193	191	192	191	191	190	189	190	191	191	191	190	190	190	189	186	187	187	191	191	191	191	191	192	192	188	190	194	190	192	192	191	192	191	191	190	189	191	191	190	189	189	188	190	189	191	190	190	190	191	191	190	191	192	191	192	193	194	193	194	194	192	192	191	191	192	193	193	192	192	192	193	192	191	191	191	193	192	190	189	190	193	191	192	191	190	192	191	191	192	191	191	191	190	190	189	189	191	192	192	191	191	191	193	190	194	194	191	190	191	189	191	191	192	191	192	190	191	191	191	192	192	190	190	192	193	194	193	194	193	192	190	190	191	194	194	193	193	192	192	192	195	196	196	195	195	192	193	194	194	194	196	196	196	194	194	193	191	193	191	193	194	192	193	193	195	195	193	192	192	193	193	192	193	189	189	190	191	191	191	192	192	192	192	191	194	194	192	197	194	192	192	193	192	193	193	192	190	191	192	191	192	193	194	193	194	194	192	190	190	191	192	193	195	195	194	194	192	192	191	191	190	191	192	191	193	192	191	191	191	192	192	191	191	190	190	190	191	192	193	193	191	190	189	190	189	192	191	191	190	191	194	195	193	193	191	191	193	191	192	191	191	192	191	191	192	191	191	189	191	189	189	190	189	189	186	186	187	187	190	190	191	191	192	192	189	188	189	189	188	190	188	189	189	189	189	187	186	187	189	190	191	189	188	187	187	187	187	186	187	187	188	187	187	189	188	189	190	188	189	188	187	187	188	189	188	187	187	187	187	187	187	188	186	188	189	188	186	188	187	185	184	184	185	187	189	189	188	186	186	186	187	184	185	186	185	186	185	186	187	187	185	185	185	184	183	183	184	184	184	184	185	184	184	185	185	185	184	184	183	183	183	185	185	184	182	185	184	182	183	185	184	183	182	183	184	185	185	184	184	185	184	183	181	180	180	181	181	181	181	181	181	182	183	182	182	183	181	181	181	182	184	184	184	184	183	183	182	181	180	181	183	183	183	182	182	181	181	181	179	179	178	178	178	177	177	176	180	180	183	180	179	176	178	178	177	178	178	177	178	178	177	0	0	0	0
184	183	183	185	185	184	183	183	184	187	187	185	185	185	186	188	190	190	189	189	191	188	188	186	186	186	187	188	188	188	190	187	189	191	189	187	186	187	186	189	189	188	188	188	186	185	186	186	185	184	185	186	188	189	189	189	188	187	187	186	186	187	187	189	187	187	185	185	189	187	187	188	189	187	187	187	188	187	186	187	189	184	185	184	185	189	191	191	192	191	191	189	189	190	189	188	187	187	188	189	188	188	188	186	186	188	188	188	186	186	187	187	188	188	189	189	189	187	188	188	189	190	189	190	190	190	188	189	186	186	188	190	190	190	188	188	187	187	188	187	187	186	187	188	190	190	187	187	188	189	190	191	190	191	192	192	191	191	190	189	190	190	189	188	188	189	186	187	190	189	190	190	189	189	192	191	191	191	191	191	189	188	189	190	190	190	190	189	190	187	187	187	185	190	190	190	190	190	189	188	187	189	187	188	191	192	190	190	190	190	189	189	191	190	190	192	188	188	189	186	189	190	191	191	191	190	190	190	191	190	191	191	191	191	190	190	190	190	191	192	193	193	193	193	191	190	190	190	189	189	191	192	190	188	188	191	191	194	193	190	191	191	191	191	191	191	190	189	187	190	188	189	191	191	190	191	191	192	193	190	191	191	192	191	190	189	190	189	189	189	190	191	192	191	190	190	190	190	190	191	191	192	192	192	191	190	189	188	191	193	192	192	192	192	192	192	192	192	191	191	191	191	191	191	191	192	191	190	192	191	191	189	189	190	189	193	191	191	192	194	194	194	192	185	184	188	188	190	191	192	193	192	192	192	192	193	192	193	191	190	189	190	189	190	191	190	190	192	192	191	189	189	191	192	192	192	194	191	189	191	191	191	190	190	190	191	191	192	194	192	193	191	191	191	189	190	191	191	193	191	191	191	191	189	191	193	192	191	190	190	191	191	192	192	193	191	191	188	188	188	189	189	189	190	192	192	190	191	191	191	191	192	190	190	190	190	192	190	190	190	189	191	190	189	189	189	189	189	187	186	189	188	187	188	189	190	191	191	191	189	188	187	187	189	188	189	188	187	190	190	187	186	186	186	188	187	191	188	187	186	187	187	187	187	186	186	186	186	189	188	189	189	189	187	188	187	186	186	188	186	187	187	187	186	186	187	188	186	187	188	187	186	187	185	184	184	183	184	186	187	188	186	186	185	185	186	184	184	187	186	186	185	183	183	188	186	184	184	185	184	184	183	183	183	183	185	184	184	184	184	184	184	183	183	183	183	183	183	183	183	181	182	182	181	181	180	181	182	183	183	183	183	183	184	185	185	184	181	180	181	182	182	180	179	179	181	184	181	179	182	182	183	181	181	180	180	181	184	184	183	182	181	178	178	179	182	183	182	182	181	182	182	180	179	179	179	178	178	177	176	177	177	176	179	181	178	178	175	176	177	177	177	176	177	177	176	0	0	0	0
181	182	184	184	185	184	184	184	184	187	186	187	187	186	187	187	189	189	191	189	188	188	186	185	183	185	186	188	188	189	187	188	188	189	189	185	184	186	186	187	186	186	186	185	186	186	186	185	185	185	183	183	183	184	188	187	187	187	185	185	183	184	184	184	184	184	184	186	187	185	186	186	189	188	190	189	189	189	187	186	186	184	185	187	187	187	189	189	188	187	187	187	188	187	184	183	184	185	188	187	187	185	186	185	186	187	187	187	187	186	185	186	186	188	188	189	187	187	188	189	188	188	188	188	188	188	188	188	189	188	188	190	189	188	187	186	186	186	187	187	187	186	187	188	189	189	189	189	187	187	190	190	190	190	191	190	190	192	188	189	189	191	190	188	188	188	187	187	186	187	188	189	189	189	191	192	191	190	189	189	186	186	188	188	189	188	189	189	189	188	188	186	186	186	190	188	188	189	189	189	188	185	187	189	189	189	190	190	191	190	190	189	189	190	191	192	192	189	187	188	188	189	189	189	190	190	190	190	189	188	188	190	190	190	191	189	188	190	189	190	190	191	192	192	190	189	189	190	189	189	190	190	189	188	188	190	191	194	193	190	191	192	193	193	191	191	189	190	191	189	190	190	191	190	190	189	190	191	191	191	191	192	192	190	190	189	190	189	188	188	189	190	192	192	191	189	189	189	190	190	189	189	191	191	191	190	188	188	190	192	191	191	192	191	191	191	191	190	190	191	191	190	191	191	190	190	190	190	191	190	190	189	190	188	190	188	191	190	190	191	191	192	191	189	187	189	191	190	191	192	191	189	192	193	192	192	193	192	192	190	190	190	189	189	190	190	189	188	187	187	188	189	190	191	192	193	193	191	189	191	191	190	190	190	189	189	191	192	192	191	191	190	190	190	189	190	190	191	190	190	190	191	189	189	187	189	191	190	191	191	191	192	193	193	192	191	190	187	189	188	187	188	189	190	189	189	189	189	187	183	191	191	190	191	189	192	190	190	189	189	189	189	190	189	188	188	188	188	184	185	186	187	187	187	186	187	186	186	189	189	188	187	189	188	189	189	188	188	189	187	187	187	185	187	188	188	188	186	186	186	187	186	186	187	187	187	185	186	187	187	187	187	187	185	187	187	183	184	186	185	186	186	186	185	185	185	187	185	187	188	188	186	187	185	185	184	184	184	185	186	186	187	185	184	183	183	184	187	187	187	186	183	183	183	183	183	182	182	182	182	182	182	182	182	182	183	183	183	182	183	185	185	183	183	182	183	182	182	182	183	182	182	182	181	180	181	181	181	181	182	183	183	183	183	182	184	183	183	180	180	182	183	180	179	180	179	179	179	179	178	179	178	180	180	180	180	180	181	183	182	180	179	179	179	176	180	181	182	181	182	181	181	180	180	179	178	175	177	176	174	176	176	176	176	179	182	178	178	177	180	180	177	176	176	176	176	0	0	0	0
179	180	179	179	181	182	183	182	182	186	186	185	185	185	186	185	186	190	190	190	186	186	182	182	182	184	186	187	188	188	188	187	187	186	185	184	184	185	186	186	185	185	184	184	186	184	185	185	185	184	182	183	184	183	184	184	184	186	185	185	184	185	185	184	185	185	185	185	186	186	185	184	186	189	188	187	189	189	187	186	185	185	186	186	187	186	186	186	187	188	188	188	186	187	187	187	185	184	185	184	184	183	184	185	186	186	187	186	186	185	185	185	185	187	186	186	188	188	188	188	188	187	186	188	188	188	187	187	188	187	187	188	188	188	188	186	186	185	187	187	187	186	186	188	191	189	191	189	185	186	189	187	187	187	188	189	188	185	188	188	189	190	191	189	189	188	188	186	186	186	186	188	188	190	189	190	189	189	189	189	186	186	187	187	189	189	189	189	189	190	188	188	186	186	188	189	188	189	189	189	189	186	187	187	188	186	188	190	190	190	189	186	188	190	192	193	193	193	188	188	187	187	189	189	189	190	188	187	188	187	188	188	189	189	188	188	189	191	190	190	191	190	189	189	189	188	188	189	189	189	190	189	188	189	190	189	189	189	193	189	190	191	192	191	189	188	189	189	189	189	190	189	189	188	188	189	189	189	190	189	190	191	191	189	189	190	190	190	190	188	189	190	192	191	190	191	190	190	188	188	188	189	189	191	190	190	189	189	190	190	189	189	191	190	190	189	190	189	188	188	188	190	190	188	186	186	188	190	190	190	190	189	190	188	190	190	190	190	190	190	189	189	188	190	189	189	191	190	0	0	0	189	189	189	190	191	191	192	190	188	191	190	192	189	190	190	189	188	187	188	187	189	190	190	191	193	193	192	191	190	189	190	189	188	187	187	187	191	191	191	189	191	191	190	189	189	190	189	189	190	189	191	191	190	190	189	190	189	187	189	189	189	190	191	191	191	189	188	187	190	190	192	189	188	189	189	188	188	185	187	188	189	190	189	191	189	189	190	188	188	188	188	189	189	189	188	188	188	186	185	187	187	187	186	186	186	184	186	185	186	187	187	189	189	188	188	188	189	188	185	185	186	187	187	187	188	187	187	186	187	187	186	185	187	187	187	186	186	186	187	186	187	186	184	183	180	182	184	185	185	185	183	186	184	186	184	185	186	185	185	186	186	185	185	185	185	185	184	184	184	185	186	184	184	184	183	184	183	187	186	185	183	180	181	182	183	180	180	179	179	182	182	182	182	183	182	181	182	183	183	182	183	182	182	182	182	182	182	182	182	181	181	182	180	180	180	181	181	181	181	180	182	182	180	180	181	183	182	180	178	181	181	181	176	179	178	179	178	178	178	178	178	177	177	180	179	179	180	179	180	180	178	177	177	176	175	178	178	178	181	180	177	177	179	179	177	176	176	175	176	176	175	176	176	175	178	179	178	180	178	178	177	177	177	177	176	0	0	0	0
180	179	180	180	180	182	184	183	183	183	185	183	183	183	184	184	184	188	188	185	184	183	182	181	182	183	184	185	186	186	187	187	185	183	184	184	183	185	185	185	184	183	183	183	183	182	181	182	184	184	184	182	183	185	183	183	184	184	185	186	186	186	186	185	186	186	186	186	187	186	186	185	186	187	187	189	189	185	185	184	185	185	185	186	186	186	185	186	186	185	186	187	187	185	186	187	185	183	183	184	183	184	183	185	185	187	186	185	185	185	185	184	185	185	184	186	187	186	187	187	187	184	185	184	184	184	186	188	187	190	187	187	189	186	188	185	185	185	186	187	187	185	185	185	186	187	188	188	187	187	187	187	189	188	185	186	184	185	188	189	187	190	187	189	189	188	189	189	186	185	185	188	189	189	188	189	189	189	189	188	187	187	187	187	187	188	187	188	189	190	190	190	187	186	185	187	188	188	189	189	189	187	187	188	188	188	187	187	187	187	188	187	189	189	191	192	190	190	190	186	187	188	190	189	190	190	188	187	188	187	187	188	188	189	187	189	189	192	191	189	189	189	188	187	187	187	187	187	192	188	189	186	189	189	188	187	189	188	193	189	189	190	191	190	189	188	186	187	189	188	188	186	186	187	188	190	189	189	186	187	187	190	190	190	189	190	189	190	189	188	189	191	191	189	188	189	190	190	191	188	190	188	188	189	189	190	190	189	187	187	187	189	190	189	189	187	188	187	187	188	188	189	188	187	188	188	187	187	189	191	191	190	190	189	189	189	189	190	191	191	190	189	188	187	188	190	190	189	0	0	0	190	188	189	190	191	191	190	191	190	191	191	191	191	190	189	190	189	188	187	189	188	190	189	188	188	189	192	191	189	189	190	189	188	187	186	187	190	189	190	189	190	191	190	189	189	189	189	189	188	187	190	191	190	188	189	189	188	186	187	188	190	190	190	190	189	189	189	189	189	189	188	187	187	187	190	191	187	188	188	188	187	187	189	188	187	188	188	188	187	184	185	188	189	189	188	188	187	186	186	186	187	186	186	185	185	183	185	185	186	188	188	186	188	189	189	188	189	187	187	186	186	187	187	187	187	186	187	186	186	187	185	185	184	186	186	185	185	187	186	186	186	186	183	182	180	180	182	184	183	184	185	184	184	184	183	185	185	185	185	185	185	185	185	186	184	184	184	183	183	183	186	186	184	184	184	183	184	182	183	183	183	180	180	182	182	182	182	182	180	181	182	182	182	181	181	181	180	182	181	180	181	182	182	181	182	182	182	182	180	180	182	180	181	180	182	183	180	179	180	180	181	182	181	179	179	178	182	180	178	178	181	179	179	177	178	178	178	178	179	179	178	178	177	176	175	175	178	179	180	179	178	176	176	176	175	175	176	176	178	179	177	177	177	178	177	177	176	176	175	175	175	176	174	174	174	177	177	177	177	176	177	176	177	177	177	0	0	0	0
180	179	180	182	182	183	184	180	182	182	183	183	182	182	183	183	184	182	182	183	183	182	181	182	182	182	182	184	186	186	186	186	185	183	184	183	183	185	185	183	182	182	182	182	182	180	181	182	184	184	185	183	183	185	183	183	183	185	185	186	185	186	186	186	186	186	186	186	187	187	186	187	187	185	186	186	185	185	185	185	184	183	182	185	185	186	185	186	185	185	185	186	185	185	185	184	183	184	183	183	183	184	184	185	184	187	186	184	184	184	184	184	186	185	185	185	185	186	184	184	184	184	184	184	183	183	182	185	187	186	182	183	185	186	184	187	185	184	184	187	188	186	186	184	185	186	186	187	187	186	189	190	189	188	183	183	184	185	188	188	186	188	186	187	188	188	189	189	188	185	185	185	188	186	185	186	188	189	186	186	187	187	188	186	187	186	186	185	187	185	187	188	187	188	188	187	187	188	189	189	188	188	188	188	187	188	187	187	187	186	187	187	186	190	190	190	189	189	189	187	187	188	188	188	189	188	186	186	186	187	186	188	187	187	186	187	187	188	191	190	188	188	187	185	186	184	185	187	189	191	191	188	186	186	187	188	188	187	188	189	189	189	189	189	189	187	186	188	187	186	185	185	186	186	189	189	186	185	186	186	187	188	191	189	189	191	190	188	188	188	188	190	190	188	188	189	188	189	190	189	189	189	189	189	189	189	191	189	187	186	188	188	188	188	189	189	187	188	188	189	190	190	187	187	188	189	187	190	191	190	188	191	190	190	190	189	186	189	191	191	189	189	188	188	188	188	189	189	188	191	188	188	188	188	190	190	191	191	188	189	190	190	190	190	189	189	189	190	189	188	189	189	189	190	189	189	189	190	190	190	191	190	189	187	187	187	186	188	190	190	190	192	191	190	188	187	188	186	188	187	186	186	188	188	190	190	186	185	185	187	188	188	190	189	189	189	188	187	187	187	187	186	186	186	186	188	187	187	187	189	187	187	187	187	187	186	187	187	186	186	185	185	187	187	187	187	187	186	185	184	185	188	188	187	186	186	185	184	185	186	188	187	186	185	187	187	187	188	186	186	186	187	184	187	186	186	186	185	185	186	185	185	185	184	186	185	186	186	186	186	186	185	184	183	182	180	180	183	183	184	184	183	183	182	182	183	183	184	183	184	184	184	184	185	185	185	184	184	182	182	180	185	185	184	183	183	183	183	181	182	183	182	181	180	180	182	182	181	181	179	181	181	181	181	181	181	181	180	179	178	180	179	181	181	181	182	181	182	180	180	179	181	178	180	180	180	183	183	179	179	180	180	182	181	179	178	178	177	178	177	177	177	178	175	176	176	178	179	179	178	178	178	178	177	175	175	175	176	177	178	177	178	177	176	176	175	175	175	175	177	177	178	177	176	175	177	175	175	176	176	175	174	172	173	172	171	175	176	177	177	176	176	176	177	177	176	0	0	0	0
180	179	180	182	182	182	181	180	179	179	180	181	183	184	184	183	181	182	184	184	183	182	181	182	181	181	182	180	185	185	185	182	185	185	183	183	182	183	183	182	182	180	181	181	181	180	182	183	184	185	184	184	184	183	184	182	181	185	185	185	183	183	186	187	185	184	186	187	187	186	186	187	186	184	183	185	185	185	183	183	180	182	181	181	183	183	185	185	184	184	184	185	184	183	183	184	184	183	184	183	183	183	183	183	183	183	182	183	184	183	184	184	184	185	185	181	181	183	185	185	185	184	183	181	181	181	181	181	182	182	182	183	185	185	185	185	185	184	185	186	185	185	185	184	184	186	185	185	185	186	186	187	185	184	183	184	186	185	188	188	188	184	185	186	187	187	184	185	183	186	185	185	185	185	185	186	187	186	183	185	186	186	186	186	186	186	184	187	187	184	185	185	187	187	188	187	186	188	187	189	189	188	189	190	189	188	187	186	187	186	186	185	186	187	190	190	190	189	187	186	187	188	188	187	187	186	186	186	186	189	189	187	187	186	184	186	186	188	189	189	190	187	185	186	186	186	184	187	188	188	189	188	186	186	186	188	187	186	187	188	189	187	189	188	187	188	187	188	187	185	185	185	187	187	189	187	185	183	186	186	186	187	187	190	189	189	188	188	188	188	188	188	190	189	187	186	185	187	185	189	190	189	189	189	190	191	190	189	190	188	188	186	185	184	187	188	189	189	191	190	189	189	186	185	187	187	187	187	188	189	187	187	189	189	190	187	186	186	187	188	189	189	186	187	187	187	185	186	187	192	191	185	185	187	189	190	190	188	188	188	188	190	189	188	189	189	188	187	188	187	188	187	188	188	188	189	189	191	191	189	190	189	188	188	187	187	187	188	189	188	188	191	191	190	188	186	185	186	186	186	186	185	187	189	189	186	185	186	183	184	187	189	188	187	188	188	185	185	186	185	185	186	187	186	186	185	184	186	188	184	184	185	186	185	184	186	186	185	186	185	184	186	187	184	185	185	186	185	184	184	185	188	187	187	186	185	182	184	184	183	185	185	185	183	183	186	186	185	185	186	184	186	186	186	186	186	184	184	184	184	184	185	186	186	184	183	184	183	183	183	185	185	185	184	182	183	183	183	184	184	183	182	182	181	182	182	183	183	185	183	184	182	183	184	184	185	183	183	181	181	180	185	181	183	181	180	182	183	182	181	181	180	180	177	177	179	183	181	180	180	181	180	180	179	180	179	179	179	177	179	178	178	178	179	179	181	179	180	179	179	179	179	178	178	179	179	178	181	180	178	179	179	180	179	177	178	178	177	178	176	175	176	177	174	174	174	177	179	179	178	178	177	177	176	175	174	174	174	176	177	176	178	175	175	175	176	176	176	174	175	177	176	176	176	175	176	175	175	175	174	174	173	173	172	172	171	173	174	174	175	176	176	177	177	174	175	175	0	0	0
179	179	179	180	178	178	177	178	178	178	177	178	183	180	180	181	181	182	183	183	183	183	182	181	179	179	179	183	184	182	182	184	185	183	181	182	183	182	181	181	180	180	179	179	180	180	181	183	184	184	180	180	178	180	180	179	183	183	184	184	184	183	184	187	185	184	183	185	185	182	184	179	180	182	181	182	182	182	182	180	180	179	179	181	181	181	182	184	184	183	183	184	183	182	183	183	184	184	183	183	183	183	181	181	181	181	182	181	183	183	183	183	184	184	182	181	181	182	184	184	184	184	184	182	182	181	181	181	182	181	182	184	185	185	186	185	184	182	185	183	182	184	184	184	184	183	183	182	183	185	186	186	184	183	183	184	186	185	187	188	184	186	185	189	184	184	183	182	184	186	186	185	186	186	186	186	186	183	183	185	186	186	186	186	186	181	185	186	187	185	185	186	184	183	183	183	184	186	187	188	187	186	186	186	188	188	185	185	186	187	186	185	181	182	188	190	190	186	186	187	186	187	187	186	186	186	186	185	185	188	187	186	185	186	184	184	186	186	186	190	189	187	186	186	187	184	183	185	186	184	184	189	186	187	185	187	186	186	187	186	187	187	188	188	188	185	183	186	187	187	187	185	186	186	188	186	184	183	183	184	184	187	187	187	187	189	189	188	186	187	187	187	188	188	185	184	186	186	186	188	188	187	187	189	189	189	188	190	188	188	187	187	188	185	186	187	189	189	190	190	190	188	186	185	186	186	187	186	187	188	186	187	188	190	189	187	187	186	187	187	187	187	186	186	186	187	186	186	188	190	188	187	187	188	190	190	187	188	187	187	186	187	187	188	189	189	188	189	188	187	187	185	187	188	187	189	188	189	187	188	189	189	188	187	186	185	187	189	188	187	187	189	188	187	186	186	185	185	186	188	186	187	185	187	187	186	185	184	183	186	188	185	185	185	185	186	185	186	185	185	185	186	186	185	186	186	186	186	185	184	184	184	184	182	183	185	184	184	185	184	184	181	184	182	183	184	186	186	185	184	184	187	187	186	186	185	182	183	183	183	184	185	185	184	184	185	185	185	185	185	185	185	184	186	184	185	184	183	183	184	184	184	185	184	183	183	182	182	183	183	182	183	184	184	182	183	182	182	184	183	181	181	181	181	182	182	182	183	184	182	182	182	182	184	184	184	182	182	182	180	181	181	182	181	181	181	180	180	181	181	181	181	180	178	177	178	182	181	180	182	180	179	179	179	178	179	179	179	178	180	179	177	177	177	179	180	178	178	179	179	179	179	178	177	179	178	177	178	179	179	178	178	177	177	178	178	178	177	177	176	175	176	176	173	174	174	178	179	177	179	178	177	176	176	176	175	175	175	176	177	175	173	174	173	175	176	176	175	175	175	176	175	174	175	175	175	175	174	174	173	174	174	174	173	172	172	173	173	173	173	174	175	174	174	173	173	173	0	0	0
175	175	179	174	177	177	179	179	178	179	179	180	180	179	181	181	181	182	181	181	181	181	180	179	179	179	179	183	181	179	180	180	178	182	181	180	182	181	179	181	181	179	179	180	180	180	183	183	182	183	180	179	177	177	178	179	182	183	183	183	183	182	183	184	184	183	181	180	180	180	177	178	180	180	181	181	182	182	180	179	179	179	179	177	176	177	180	181	182	181	180	178	178	181	183	182	182	182	182	183	183	181	180	180	180	181	181	180	182	182	181	182	183	183	183	183	182	182	183	183	184	184	183	182	182	182	182	183	181	182	184	184	185	185	184	182	181	181	182	183	182	182	183	182	180	182	180	180	182	181	181	181	181	183	183	184	184	185	180	185	180	181	184	186	187	183	182	183	183	186	187	186	186	185	183	182	181	182	184	182	185	187	185	186	184	181	184	186	186	186	185	185	184	183	182	181	184	184	184	185	187	184	184	186	186	186	186	184	182	186	186	186	182	183	183	188	188	185	185	184	184	185	186	186	185	185	185	184	184	187	189	185	186	186	184	183	184	185	186	189	186	187	187	186	187	184	185	184	184	183	184	185	185	186	187	187	185	185	187	186	186	186	186	188	184	184	182	186	186	186	186	186	187	187	187	186	184	182	182	183	183	187	186	186	186	188	188	187	186	184	186	187	187	186	185	184	185	185	185	187	185	185	185	187	189	189	188	189	190	188	187	188	187	185	186	187	188	189	187	187	186	188	188	188	187	187	187	188	187	187	186	186	189	188	188	188	185	186	186	187	186	187	185	186	186	188	187	187	187	188	188	188	188	188	187	188	187	187	187	185	187	187	187	188	189	189	187	186	186	187	189	188	185	185	186	185	186	185	186	187	189	188	188	187	186	187	189	189	187	187	187	185	187	187	186	185	185	185	185	185	186	185	185	183	184	183	183	183	184	187	186	185	185	184	185	185	185	185	185	185	185	184	185	186	185	186	184	185	185	184	185	186	183	182	183	184	184	184	183	184	184	185	181	183	183	183	184	185	184	184	185	186	185	185	185	185	184	183	183	183	184	184	184	181	184	185	184	184	185	183	183	185	185	183	185	183	184	183	183	182	181	181	181	183	183	183	183	183	182	182	181	181	182	181	181	181	183	184	184	182	179	179	180	181	181	181	182	181	181	181	181	180	182	184	183	183	182	180	181	180	179	182	181	179	179	178	179	179	180	180	182	182	179	177	177	177	180	181	181	181	180	179	179	179	179	179	179	179	178	180	178	177	176	176	176	179	178	178	178	179	178	178	178	177	176	178	177	176	175	175	175	175	177	176	177	178	179	178	176	175	175	176	173	174	175	176	174	175	175	177	177	176	177	176	175	175	175	176	176	176	173	173	173	174	172	172	174	175	174	175	175	174	175	174	174	174	174	174	174	173	172	175	173	172	172	174	174	174	172	171	171	174	175	174	172	172	172	0	0	0
176	176	172	175	176	179	179	179	179	178	178	178	179	179	180	180	181	182	180	180	180	180	180	179	179	181	181	180	179	179	179	179	177	178	179	179	181	179	178	181	180	180	179	180	180	180	183	184	183	182	179	176	176	177	178	178	181	182	183	183	183	182	183	183	183	183	180	179	177	177	177	179	179	180	181	180	181	180	180	179	179	179	179	178	179	179	178	179	180	179	179	177	178	180	178	181	180	180	180	181	180	179	181	182	181	181	180	180	181	180	180	181	183	183	182	183	181	182	183	183	183	181	181	181	181	181	183	182	182	182	182	183	184	183	180	180	180	180	180	182	182	182	181	179	179	179	179	178	180	181	180	182	182	183	183	183	183	183	183	183	182	180	182	186	184	182	181	182	184	185	185	183	184	184	184	184	181	181	183	185	184	187	187	186	180	183	181	185	186	186	183	183	183	183	182	181	182	182	185	183	184	185	185	182	185	185	184	184	182	184	185	183	183	183	187	188	188	183	183	183	183	185	183	183	184	184	184	183	181	185	183	186	186	185	184	183	184	185	185	185	187	188	187	187	186	186	185	184	182	184	184	185	186	185	186	187	186	184	184	185	185	185	184	185	184	182	182	182	183	184	186	184	183	185	186	185	183	183	182	183	184	185	185	185	186	188	187	185	185	185	184	185	185	185	185	183	184	184	185	186	186	183	183	184	186	185	185	187	187	185	186	185	186	185	185	185	185	184	184	186	188	189	188	189	188	188	188	187	187	186	189	186	188	188	188	187	187	187	187	187	185	185	185	185	185	187	187	186	188	186	188	187	187	187	187	186	187	187	187	184	187	186	187	186	185	185	184	185	188	190	189	187	187	187	186	186	185	184	184	186	188	188	186	187	187	187	189	189	186	185	184	184	186	186	185	185	184	185	185	185	184	183	185	182	182	184	184	183	183	183	186	185	184	183	184	185	185	185	186	184	184	184	184	185	185	186	184	184	184	185	185	183	184	182	185	185	184	184	187	184	183	184	181	182	182	183	184	184	185	184	185	184	184	185	183	183	183	183	184	184	183	183	184	181	184	184	183	184	183	181	182	183	182	181	182	182	184	183	182	182	181	182	182	183	183	182	181	182	182	183	180	179	180	180	180	180	182	183	181	181	179	179	180	181	182	181	180	181	181	181	180	180	181	180	181	182	182	180	179	180	180	182	180	178	178	178	178	178	178	179	181	181	181	179	177	177	178	179	179	180	179	180	180	180	180	179	179	179	178	179	179	176	177	177	177	177	177	178	177	178	178	178	177	177	177	176	175	177	176	174	176	175	175	176	178	177	177	177	177	176	175	175	174	175	173	175	174	174	175	175	176	176	177	176	175	174	175	174	172	173	173	173	173	172	172	171	173	174	174	174	175	175	173	168	171	172	172	174	174	173	171	175	170	172	172	171	171	171	173	170	170	171	173	173	172	172	172	0	0	0
173	176	176	175	176	176	176	177	179	177	177	177	178	177	180	180	180	179	179	179	179	179	179	177	177	181	182	179	179	179	179	178	178	177	178	179	178	178	177	177	179	178	179	179	180	180	182	182	180	180	177	178	178	177	177	178	180	181	183	183	182	182	182	181	182	180	178	178	177	177	177	179	179	180	181	181	180	179	180	178	179	179	179	180	180	179	180	179	179	179	178	177	177	179	180	179	179	178	178	176	176	178	181	181	182	180	179	179	179	179	179	181	183	182	182	183	181	181	181	182	182	180	180	179	179	180	182	182	183	181	182	183	182	179	179	178	178	179	178	179	180	181	181	179	179	179	179	179	179	180	182	182	184	184	184	183	183	181	181	181	181	180	179	181	181	181	181	181	181	182	182	182	180	182	183	183	183	182	183	181	184	183	182	186	181	182	183	183	186	184	184	184	184	184	182	181	183	183	184	183	183	184	185	185	182	182	183	182	183	182	183	182	182	182	183	182	182	182	182	181	183	181	181	180	182	183	186	183	182	181	183	182	185	185	183	184	185	185	184	185	186	188	188	186	186	185	184	182	182	184	185	185	183	183	183	183	185	184	184	182	183	184	184	185	186	183	181	182	183	183	183	182	182	182	182	183	183	183	182	183	183	184	182	183	184	183	185	183	185	186	187	186	186	185	183	183	183	186	186	186	185	185	184	185	185	184	186	183	183	183	184	186	185	185	185	186	186	187	186	187	187	187	186	186	187	186	186	188	187	186	187	187	187	187	187	186	185	186	186	185	185	185	185	187	188	187	187	185	186	186	187	187	185	185	186	185	187	187	187	187	184	184	183	184	184	184	186	185	187	188	187	187	187	186	186	186	186	185	186	184	184	184	184	185	185	186	187	186	187	185	183	183	184	185	184	185	185	185	185	185	185	183	182	180	183	185	183	183	183	183	184	184	183	184	183	184	185	185	185	186	185	183	182	182	182	185	185	184	184	184	183	182	182	182	185	183	184	186	186	183	183	181	182	182	183	183	184	183	185	185	185	181	182	183	183	182	184	183	183	183	182	181	180	179	181	181	182	183	183	182	182	179	181	180	182	183	184	182	180	179	178	182	181	181	181	180	181	181	180	177	178	177	179	180	180	180	179	181	181	180	178	179	179	181	179	179	179	181	180	182	180	180	180	180	180	180	179	179	179	178	178	180	180	178	177	178	178	178	178	179	181	180	180	178	178	177	178	179	179	179	177	179	180	180	180	179	180	179	177	178	179	179	177	176	176	176	176	177	176	177	177	177	177	177	176	176	176	178	176	175	176	176	175	177	177	177	178	178	177	176	175	174	174	175	175	175	175	175	175	175	175	176	176	175	175	174	174	174	172	173	172	172	172	172	172	171	170	174	174	173	173	173	172	168	171	172	172	173	174	175	173	172	172	172	171	171	171	171	172	173	171	171	171	171	171	171	171	0	0	0
177	175	175	175	177	177	176	176	176	177	175	175	175	177	180	177	177	178	178	178	177	177	176	177	179	182	179	179	179	178	180	179	179	179	179	178	177	177	177	174	175	176	176	180	180	180	181	181	181	180	178	178	178	178	176	177	178	181	181	182	182	182	180	180	179	179	178	178	178	179	178	178	179	179	181	180	179	179	180	179	180	180	180	180	180	181	179	180	179	179	179	178	179	179	179	179	178	176	176	176	177	180	180	181	180	180	179	178	179	179	179	181	181	182	181	182	183	181	181	181	181	180	179	178	180	180	181	182	179	180	181	178	178	178	178	179	178	178	178	178	179	182	181	181	180	181	181	181	180	181	182	183	181	180	179	182	182	181	181	181	181	180	180	180	180	180	181	180	181	181	178	178	179	181	181	181	182	182	181	181	181	182	182	182	182	182	183	183	182	182	183	183	183	184	184	181	183	182	183	181	182	184	183	184	185	182	184	184	184	183	183	182	182	182	183	183	182	183	182	181	183	182	181	180	181	183	186	184	181	180	181	182	182	184	183	183	184	182	184	182	183	187	187	185	185	184	183	183	183	182	182	183	183	182	182	183	184	181	182	182	182	183	184	185	185	182	182	182	182	183	182	181	181	183	181	181	181	182	183	183	183	182	183	182	182	182	183	183	182	183	182	184	184	184	183	183	184	185	185	186	183	185	185	183	185	184	182	183	183	184	184	186	186	183	184	184	185	185	184	185	187	187	186	185	185	183	185	184	185	186	186	187	187	187	186	185	184	183	187	185	185	185	187	188	188	189	186	185	184	185	186	185	186	185	186	186	187	188	187	187	187	184	184	184	185	185	187	187	187	187	187	187	187	186	186	186	185	184	184	186	184	183	183	183	183	182	185	185	183	183	184	182	182	185	185	185	185	184	184	185	186	185	183	182	184	186	185	184	184	183	184	183	182	182	182	182	183	183	183	185	184	183	182	181	182	185	185	184	182	182	182	181	181	181	182	182	184	186	184	182	182	182	180	183	182	183	185	184	185	184	182	180	181	182	182	182	184	183	182	182	181	179	180	179	180	181	180	181	181	181	181	182	180	181	182	182	181	179	180	178	178	178	180	180	180	179	180	176	177	176	177	177	178	179	177	178	179	180	178	178	179	179	179	181	179	179	180	180	180	182	181	179	179	180	180	179	178	179	178	178	178	179	179	179	177	179	179	179	179	178	181	181	179	178	177	176	178	179	176	177	178	178	179	179	177	178	177	177	176	176	177	179	178	176	176	175	176	176	176	176	175	175	174	176	174	174	176	177	176	175	175	175	174	174	174	174	173	174	174	175	174	174	173	175	175	175	172	173	173	174	175	176	176	174	173	173	173	174	172	174	176	173	169	169	169	170	173	172	173	173	173	172	172	172	171	171	171	172	174	173	171	171	170	172	171	171	171	171	173	172	171	171	170	170	170	173	170	0	0	0
174	175	175	175	177	176	176	176	176	174	173	174	174	176	179	177	176	173	172	173	174	176	176	178	177	178	179	175	179	178	180	179	179	179	178	178	177	176	174	173	173	174	175	178	180	181	181	181	180	179	180	178	178	178	175	176	178	178	182	182	181	179	179	180	179	177	178	177	178	178	178	178	179	180	179	178	178	179	179	179	180	180	180	179	180	180	179	178	178	180	179	179	179	179	179	179	179	177	177	177	178	180	176	178	179	180	180	179	180	180	179	180	180	179	179	180	180	181	179	181	181	180	179	179	180	180	180	180	178	178	178	178	177	178	178	179	178	179	178	180	181	181	181	180	180	181	181	181	181	182	182	182	181	180	178	180	180	181	180	181	181	179	180	179	179	181	180	181	182	182	181	178	177	181	182	180	181	181	178	182	182	182	181	181	181	182	182	182	181	182	182	182	184	183	183	180	181	182	181	181	182	183	183	185	184	183	184	184	182	181	180	180	181	182	185	185	184	184	183	182	182	182	182	181	179	181	182	181	182	181	181	181	182	182	183	182	182	181	181	181	181	186	186	182	182	182	184	183	182	182	182	183	182	181	180	179	179	181	184	183	182	183	186	185	183	184	182	182	183	183	183	181	181	182	182	182	182	182	182	183	185	183	184	181	181	183	183	182	183	182	182	183	185	185	185	186	184	183	183	184	185	185	182	184	183	182	182	183	183	184	186	185	185	183	183	182	182	182	183	185	187	187	186	184	183	183	182	182	184	183	183	184	186	187	186	185	184	183	182	183	183	185	185	187	188	187	188	185	184	183	184	184	186	186	185	185	185	186	188	187	187	185	185	185	185	187	187	187	188	188	186	185	185	187	185	185	184	182	183	183	184	184	184	184	182	182	184	183	182	183	183	183	184	183	186	184	184	185	183	184	184	184	183	182	183	183	184	183	182	184	184	183	182	181	181	184	182	183	183	185	184	184	182	184	181	184	184	183	182	182	182	181	181	181	182	181	183	184	183	182	181	181	182	183	182	183	185	185	184	184	182	181	181	182	182	182	182	182	182	181	179	180	179	182	182	181	179	180	178	180	180	181	180	181	181	180	180	178	179	178	178	178	180	180	180	180	178	175	176	176	176	178	178	177	179	179	179	178	178	178	180	178	179	178	178	180	179	180	181	180	178	177	176	177	177	179	177	176	176	178	177	178	178	178	179	179	179	180	181	180	180	179	178	176	176	175	175	175	176	177	177	178	178	177	177	177	176	176	176	176	177	177	178	175	174	173	174	174	173	172	173	174	174	174	174	173	173	174	174	175	175	174	174	174	174	173	172	172	173	174	173	172	171	171	171	171	173	170	172	171	174	175	174	173	173	173	172	173	174	175	176	173	173	169	169	169	172	171	172	172	172	171	172	171	171	170	171	171	171	170	170	170	169	170	172	170	170	171	172	171	170	167	168	168	169	170	172	0	0	0
171	172	174	174	175	176	175	175	175	175	174	173	173	175	177	176	171	171	172	172	175	176	176	177	177	175	175	179	175	177	177	179	179	179	178	176	176	174	173	173	174	175	178	176	175	176	176	177	178	179	181	178	178	175	175	176	176	176	175	178	179	178	178	178	177	178	178	176	176	176	176	177	177	178	178	178	178	179	178	180	180	180	179	177	177	177	177	178	180	179	179	179	179	180	180	179	179	179	178	178	178	177	177	179	180	179	178	179	180	179	178	178	177	178	177	177	177	177	177	178	179	179	179	179	179	180	179	178	178	178	178	179	177	178	178	180	180	178	179	177	177	177	178	180	179	178	180	177	182	183	182	182	181	180	179	180	180	179	179	179	179	179	180	179	179	179	180	180	181	181	179	177	179	182	182	181	181	180	180	180	182	181	181	181	181	179	180	181	182	182	179	180	180	181	179	179	179	178	178	178	181	182	181	181	181	182	181	183	181	180	180	180	181	182	184	185	185	184	183	183	182	182	182	181	180	180	182	181	181	179	182	181	181	183	182	181	182	181	181	182	181	183	182	184	182	184	184	184	184	183	184	183	183	179	179	179	179	181	182	184	181	184	185	183	183	183	183	182	183	183	183	182	181	181	182	181	182	182	182	183	184	184	183	185	182	183	182	184	183	183	184	184	184	185	184	186	184	183	184	183	185	182	184	183	183	181	182	181	182	183	183	181	182	182	184	183	182	183	183	185	186	187	185	184	183	182	181	182	185	182	183	183	185	186	186	187	184	182	182	183	183	183	185	185	185	184	187	185	185	184	184	183	183	187	185	185	185	185	187	187	187	186	185	185	184	187	187	186	185	185	184	183	186	185	185	184	183	183	184	183	184	184	184	183	181	182	183	183	183	183	183	184	184	184	183	185	185	186	184	184	183	183	183	183	182	182	182	183	183	183	183	182	182	181	180	182	184	184	185	184	184	183	183	184	183	183	183	182	183	182	182	181	182	183	184	183	183	183	181	182	181	181	181	182	181	183	184	183	182	181	180	180	180	181	180	178	180	182	180	180	180	179	183	178	179	180	180	179	177	179	181	181	181	179	180	178	177	178	178	177	177	178	180	180	180	179	177	175	175	175	175	177	177	178	178	178	178	177	178	177	180	180	178	179	177	178	179	178	177	177	177	176	175	176	176	176	176	175	175	176	176	175	178	178	179	179	178	178	180	179	178	178	176	175	174	175	175	175	175	177	177	177	176	176	176	175	175	173	175	176	177	177	177	176	175	174	173	174	174	173	172	172	173	174	175	175	173	173	173	174	174	173	172	174	173	173	172	172	173	173	173	173	171	171	171	171	170	170	170	171	171	173	174	173	173	173	173	172	175	175	175	175	171	170	169	168	169	171	172	171	171	171	170	171	171	170	170	170	169	169	169	169	169	170	170	169	169	171	171	170	168	167	167	166	167	168	168	0	0	0
170	171	173	173	174	175	174	176	176	176	175	173	173	174	175	174	171	172	172	175	177	176	177	177	178	175	174	175	174	175	174	173	173	176	176	175	175	175	173	174	175	176	175	174	174	174	175	175	177	178	178	179	174	175	174	174	175	176	176	175	177	177	176	176	175	175	176	176	177	177	174	174	175	175	180	179	179	177	178	179	178	178	178	175	175	175	176	176	177	177	179	179	178	179	178	179	180	178	178	179	177	177	176	177	176	177	177	177	176	176	176	175	175	173	172	173	174	175	177	176	177	176	178	178	179	179	178	178	178	178	179	179	179	177	178	179	178	177	177	176	176	177	177	178	175	175	176	178	181	181	181	181	180	178	179	180	178	177	178	179	179	178	180	180	180	180	180	180	181	181	179	179	178	179	179	181	180	179	180	180	180	179	179	178	178	179	179	180	183	183	178	179	179	180	179	178	178	177	178	179	179	180	181	180	181	181	182	183	184	179	178	178	178	177	179	179	184	184	183	183	183	182	182	182	182	180	181	182	181	180	182	181	182	181	180	181	181	181	180	180	181	183	182	182	182	183	185	186	185	184	184	184	184	180	182	181	181	180	181	180	180	182	182	183	182	182	183	182	182	183	182	184	184	185	182	182	181	181	181	182	182	184	184	183	183	182	182	182	182	182	181	183	184	183	183	182	183	184	185	183	184	184	184	183	184	183	181	181	181	181	181	181	180	183	183	183	182	182	183	184	185	184	183	183	183	183	182	183	183	186	185	185	183	185	184	182	183	181	181	180	183	183	183	181	183	183	185	184	185	184	184	183	183	184	183	183	184	188	187	187	190	187	185	185	184	185	186	184	184	184	185	186	186	185	184	183	183	183	184	182	183	183	184	181	181	182	183	182	183	183	184	184	183	183	183	182	182	181	180	180	183	182	182	183	182	181	182	182	182	183	183	182	181	180	181	182	181	183	184	184	183	183	183	183	182	183	183	182	183	182	182	182	182	183	184	183	180	179	179	180	181	181	181	179	181	183	182	182	182	179	178	178	178	178	178	178	179	180	180	181	179	179	178	178	179	179	179	179	179	178	180	181	180	178	177	177	177	177	178	178	178	180	179	178	178	178	178	175	175	174	175	177	177	176	177	179	179	178	177	179	177	179	178	178	175	175	176	175	176	176	176	176	174	176	175	175	176	175	175	174	175	174	175	178	178	178	178	178	178	177	179	177	174	175	175	174	174	175	177	178	177	177	174	173	173	172	170	170	170	172	173	175	177	176	175	174	174	174	174	174	175	175	173	174	175	175	173	172	172	172	173	173	173	172	173	173	173	172	172	173	172	173	173	171	171	170	169	168	168	171	172	172	172	172	172	172	170	171	172	172	172	171	169	170	169	168	169	171	172	169	170	170	170	170	170	170	169	170	169	170	170	171	170	169	170	168	169	167	170	168	167	164	164	165	166	168	168	0	0	0
169	170	171	172	172	172	174	176	176	176	175	174	174	174	173	175	172	174	174	176	176	176	176	176	173	172	173	174	174	173	174	172	172	173	173	175	173	173	174	175	176	176	175	173	174	174	175	175	175	177	177	175	174	174	176	176	178	178	177	175	176	176	176	176	176	174	175	176	176	174	173	175	176	176	176	180	179	179	177	177	177	175	175	175	174	176	176	175	176	176	176	177	178	180	179	179	178	179	178	178	175	176	176	176	176	176	176	175	175	175	175	175	173	173	172	172	172	174	177	177	175	174	174	178	179	179	178	177	177	176	175	176	178	177	177	176	177	177	177	176	176	176	177	175	175	174	173	176	178	179	180	180	181	178	178	179	178	177	179	179	179	179	180	179	181	180	180	180	182	182	179	180	177	179	178	178	178	176	176	178	179	178	178	178	179	178	179	179	179	182	179	180	180	180	179	178	177	177	178	179	178	178	178	177	177	180	182	181	183	182	178	178	177	177	178	178	178	178	179	178	181	179	180	181	182	182	182	181	180	180	181	183	182	182	181	181	180	180	181	182	182	183	182	182	183	184	184	182	184	182	181	184	184	184	180	180	181	182	182	180	179	178	178	180	182	182	182	182	181	180	181	182	182	182	182	179	183	183	182	182	182	182	183	183	183	182	182	182	180	182	182	184	183	182	182	182	182	182	183	183	184	184	184	183	184	183	183	181	181	180	179	179	179	180	183	183	182	182	182	183	182	182	183	183	182	183	181	183	184	186	185	185	185	184	183	182	182	182	181	181	180	182	180	181	181	182	183	184	183	183	181	180	182	181	181	183	184	186	187	187	183	184	182	184	184	184	182	183	183	183	185	186	187	185	183	184	181	182	183	182	181	181	182	182	181	181	181	182	183	183	184	183	182	183	181	182	182	181	180	181	180	180	181	181	180	181	182	181	182	182	182	181	180	180	182	182	181	181	181	183	183	183	181	180	182	182	182	182	183	181	180	180	181	181	180	180	180	179	179	179	181	181	181	180	178	180	179	180	181	180	178	179	178	178	178	179	180	179	180	178	177	179	179	179	179	178	179	178	178	177	177	177	179	178	177	176	177	177	178	179	179	179	179	178	178	177	178	177	176	176	174	175	175	175	174	177	178	177	177	178	177	178	178	178	177	176	175	175	175	177	177	176	175	173	173	173	175	176	176	175	175	174	175	175	176	176	177	176	175	174	174	178	174	175	175	176	175	176	176	177	175	175	174	174	171	171	170	172	173	175	175	174	174	175	174	175	171	172	172	174	175	175	175	175	177	174	172	173	171	173	174	173	173	173	172	172	174	172	173	173	172	172	172	172	171	169	169	168	169	170	171	172	172	171	170	169	170	171	171	171	168	169	169	170	171	170	169	169	169	170	171	171	171	170	168	169	170	170	170	169	170	170	170	170	169	167	166	165	168	166	166	166	164	165	166	168	168	0	0	0
