189	189	190	192	192	194	194	191	191	191	187	190	189	189	190	190	191	191	191	190	193	193	193	191	191	193	194	194	191	191	191	192	191	192	191	192	194	195	195	195	195	197	197	194	195	195	195	193	196	196	195	194	193	189	190	194	196	197	197	196	197	197	199	198	195	195	196	196	196	195	193	193	193	195	196	196	197	196	196	196	198	198	197	195	198	198	197	196	196	198	198	197	197	197	196	194	194	194	194	194	195	194	194	194	195	195	195	194	195	195	195	195	195	196	194	193	191	191	191	191	193	193	193	193	196	196	193	193	195	195	195	194	191	197	194	198	197	193	192	190	196	198	196	199	198	196	195	196	198	194	196	198	198	198	197	194	194	196	196	196	198	196	196	198	198	198	197	197	193	193	194	193	195	196	195	196	197	197	196	195	195	194	195	196	197	198	197	198	197	198	197	197	197	199	198	198	199	199	199	199	198	196	197	197	195	195	195	197	200	200	200	198	191	198	200	199	199	199	198	199	199	197	197	196	198	196	196	197	197	197	198	195	196	196	195	195	194	198	198	193	196	196	196	197	196	197	197	200	200	201	201	197	197	196	197	197	197	198	199	199	200	200	198	197	195	198	198	198	199	199	198	198	199	200	199	198	196	195	196	199	197	196	197	197	199	199	199	197	197	196	198	198	197	197	196	195	194	197	197	196	199	199	199	194	196	195	196	197	197	197	198	198	197	196	197	197	198	197	198	200	199	199	197	198	199	198	198	200	199	197	195	197	197	194	193	193	195	194	194	195	195	195	195	195	195	193	192	193	193	199	200	197	196	198	200	198	197	197	198	197	198	197	195	196	196	195	197	199	198	199	195	196	195	198	197	198	200	199	199	197	196	197	196	192	192	194	194	196	198	196	196	193	194	197	194	193	195	196	198	199	196	196	195	197	197	198	198	196	193	195	195	196	196	196	195	195	195	194	194	193	194	196	195	194	195	194	194	194	194	195	194	192	191	191	194	196	197	197	193	191	190	191	195	195	195	195	195	194	194	195	193	192	191	192	193	193	192	191	192	192	197	194	192	192	192	192	191	192	193	194	192	192	192	193	194	195	195	195	192	195	192	191	193	193	193	192	192	191	192	190	193	193	193	193	192	192	191	193	193	192	191	191	190	189	190	192	191	190	191	190	190	191	190	191	190	190	190	193	191	191	191	188	189	189	190	191	192	194	187	187	187	187	188	189	191	191	190	191	189	188	187	188	187	186	187	187	187	188	188	187	187	186	186	188	189	189	189	188	190	186	186	187	186	188	187	187	186	186	189	190	188	185	184	187	187	189	189	188	187	185	185	184	187	186	184	185	184	183	186	184	187	187	187	186	186	185	184	183	187	184	185	184	184	186	185	185	185	185	185	186	186	186	185	187	187	188	184	183	183	183	184	184	182	182	182	182	182	181	180	180	181	182	182	183	185	183	0	0	0	0
189	189	190	192	192	193	191	190	191	191	190	191	190	190	190	190	190	189	192	192	190	193	193	191	190	191	190	192	192	191	191	193	193	191	192	194	193	194	195	196	194	190	190	190	192	193	194	192	195	195	193	193	192	188	189	193	196	195	195	194	194	197	195	195	195	195	194	193	193	192	193	193	193	194	194	196	196	196	194	194	194	197	195	196	197	198	197	196	196	198	197	196	196	193	193	194	194	193	194	194	193	195	194	194	195	194	194	194	194	194	193	193	194	194	194	193	191	192	192	192	192	191	194	195	193	193	193	194	194	195	191	189	190	192	196	195	194	193	191	192	193	198	198	196	196	194	192	192	192	193	194	197	198	198	196	195	195	194	194	196	194	192	192	195	196	195	193	195	193	194	193	195	195	195	196	196	196	197	197	198	195	195	197	196	199	199	198	195	193	193	196	195	198	195	196	197	198	199	198	199	198	198	195	194	194	194	195	195	198	198	197	198	197	198	198	199	199	198	198	199	199	199	197	197	197	196	196	195	195	195	196	196	195	195	192	192	193	196	198	198	197	197	196	197	195	196	198	198	199	200	200	199	195	197	197	197	198	197	196	195	199	199	196	198	194	195	197	197	197	198	198	198	199	200	196	197	195	194	195	199	198	194	194	195	197	196	196	196	194	193	194	198	197	197	196	194	195	197	195	196	196	195	197	193	195	196	196	196	196	197	197	197	197	195	196	196	196	196	199	199	197	196	196	197	198	196	197	197	194	194	194	196	194	197	197	195	191	195	196	197	195	195	195	195	194	193	193	193	196	196	199	195	195	196	199	200	199	198	196	197	196	196	194	195	194	194	193	196	198	197	195	194	195	197	198	196	198	197	195	194	196	195	193	193	193	194	195	197	197	196	194	197	194	193	193	193	193	194	196	196	193	193	194	195	196	198	195	194	192	194	195	196	196	193	192	192	192	193	194	193	195	194	198	195	194	194	194	194	194	195	194	192	192	193	194	194	196	193	191	191	191	192	192	195	196	196	193	194	194	194	194	192	192	192	193	191	191	190	191	190	192	192	189	190	191	191	189	189	192	189	192	193	192	193	194	194	194	192	192	193	192	191	190	192	192	192	192	192	191	191	188	190	193	191	192	192	192	192	192	191	191	190	188	188	189	190	192	191	190	190	191	190	190	191	190	190	191	195	193	191	190	189	188	190	190	191	191	191	189	188	187	184	187	189	189	190	189	188	186	187	187	186	186	187	187	186	186	186	186	187	185	185	185	186	187	189	188	190	190	187	187	187	187	185	186	187	185	186	185	187	187	187	188	188	188	188	190	189	188	186	185	184	181	184	184	184	184	185	183	183	183	185	186	186	184	183	182	183	182	184	184	182	182	184	184	184	184	184	183	185	186	184	185	185	187	185	185	183	183	183	184	184	182	182	182	182	180	179	179	180	181	181	183	184	184	183	183	0	0	0
189	189	189	187	188	188	190	190	190	190	190	189	190	189	189	191	191	190	190	190	192	192	190	190	187	187	190	189	192	194	194	192	193	191	192	193	194	193	193	193	191	190	190	190	190	192	193	195	193	193	192	192	190	189	189	191	191	192	193	193	194	194	194	196	195	190	191	191	191	193	192	193	194	193	193	195	196	196	196	194	194	193	190	191	192	194	195	195	194	193	192	190	188	188	190	190	194	194	194	194	193	193	192	192	192	193	192	192	192	192	192	192	194	193	191	191	191	191	192	192	191	191	192	191	192	191	193	193	194	193	190	190	191	191	193	193	191	191	191	192	193	195	197	195	194	191	191	190	190	191	191	193	196	194	195	195	193	194	193	191	191	191	193	195	195	192	195	194	193	195	195	194	195	196	196	196	195	194	195	195	195	194	197	197	198	198	192	193	193	193	196	192	193	193	194	195	195	197	197	197	197	196	196	194	194	194	195	193	195	195	194	195	194	192	194	199	198	197	196	198	198	198	197	196	196	196	194	193	194	195	197	195	193	193	193	192	193	196	198	199	198	197	196	197	197	196	197	196	197	197	196	198	195	194	197	197	198	195	195	194	194	193	194	193	192	194	194	196	198	198	196	198	198	199	196	194	195	195	198	198	197	193	192	194	194	195	196	194	194	194	193	195	198	197	195	195	194	195	194	195	196	196	193	194	196	196	196	196	194	196	196	196	197	196	195	195	193	192	195	194	195	194	194	194	193	196	196	196	196	195	194	195	193	198	196	194	194	195	196	197	195	195	195	195	195	194	194	194	194	196	195	193	195	195	198	196	193	196	196	196	194	194	194	195	194	194	195	196	196	195	195	194	195	194	189	195	191	193	194	194	195	194	193	193	194	193	195	196	197	197	195	195	193	194	192	194	193	194	195	196	196	192	193	195	195	196	191	189	191	193	195	193	192	192	192	192	192	192	195	195	194	194	196	195	194	193	195	193	194	195	194	192	190	192	192	194	193	191	192	190	192	192	191	194	193	194	194	196	194	193	193	193	192	193	194	191	191	190	188	188	186	189	188	190	189	190	189	190	192	192	192	194	193	193	194	193	193	192	192	191	192	190	189	190	192	192	192	191	188	187	187	189	189	190	191	191	190	190	189	189	188	187	187	187	187	190	191	188	186	187	189	189	190	190	189	190	190	194	192	190	187	187	188	188	188	189	191	188	187	187	187	188	184	186	188	187	188	187	186	188	184	185	184	185	183	183	184	185	185	186	186	185	182	184	186	187	187	185	189	189	188	187	187	184	185	184	186	185	186	187	187	187	188	187	186	189	189	189	188	187	184	183	180	183	183	183	184	185	185	183	185	185	185	185	185	184	182	183	183	184	182	182	182	180	179	181	181	183	183	185	185	185	182	184	185	183	183	183	183	183	182	183	184	183	183	181	182	182	179	180	181	181	182	182	183	182	182	0	0	0
189	189	189	187	190	190	190	190	190	189	189	190	188	188	189	189	192	191	192	190	190	190	190	188	187	186	183	185	189	189	190	190	189	190	191	192	193	195	195	193	191	191	191	193	193	192	192	192	192	189	192	190	189	190	190	192	192	193	193	193	193	193	192	193	190	189	189	188	189	189	190	190	190	190	191	194	194	194	195	192	192	191	190	188	189	190	191	192	193	192	191	190	190	191	193	193	193	194	193	194	193	192	192	192	189	189	190	190	190	190	190	190	191	191	191	191	190	189	189	191	191	191	191	191	191	191	193	191	190	189	190	190	191	190	191	193	193	192	192	192	194	192	194	194	193	191	190	188	189	190	189	191	192	195	193	193	192	192	192	192	191	193	194	192	194	194	194	194	194	195	196	193	193	196	197	195	192	190	194	194	195	197	197	197	197	195	191	193	193	195	191	191	192	193	193	193	195	196	197	196	196	196	196	196	194	194	194	194	194	193	193	190	192	190	193	193	197	193	194	193	194	196	195	199	194	195	195	192	195	196	198	194	192	193	192	192	193	193	193	196	196	198	197	197	197	196	197	196	195	195	194	194	196	196	194	197	198	194	195	194	192	192	193	192	194	194	194	195	196	196	195	195	194	198	198	195	195	195	195	193	193	193	193	193	193	195	195	196	195	194	194	193	193	197	197	195	193	194	196	196	194	193	191	192	196	197	197	195	195	194	193	191	191	191	193	194	193	194	192	194	193	195	194	194	195	196	197	196	197	196	195	194	197	197	196	195	194	194	196	195	195	194	194	195	195	194	194	194	195	196	194	194	191	193	194	193	196	192	191	193	193	193	193	194	194	193	196	192	196	196	194	193	190	189	189	191	190	192	193	193	192	193	193	193	194	193	196	195	195	196	197	196	197	194	195	195	194	194	195	195	194	195	192	192	192	189	190	189	190	191	193	193	193	192	191	192	193	193	191	193	195	194	194	194	194	192	192	192	192	194	194	192	189	190	192	194	192	193	191	190	190	190	192	189	193	191	192	193	192	192	192	193	189	190	193	192	189	189	188	187	185	189	188	187	189	188	187	191	192	192	189	189	194	194	193	192	191	192	192	192	192	190	189	190	189	190	189	188	189	186	186	185	186	186	186	187	188	188	189	190	188	188	190	191	190	190	190	190	187	187	188	188	190	189	189	188	188	188	189	187	187	191	188	190	188	188	189	188	187	186	188	188	188	186	187	187	187	186	186	185	186	184	184	184	184	184	184	184	185	185	185	182	182	181	185	186	186	185	186	185	186	185	185	185	184	184	185	184	185	186	186	186	187	187	186	186	188	188	188	185	186	184	181	182	183	183	184	185	185	185	186	186	185	186	185	184	183	183	182	181	180	180	181	179	178	178	178	181	182	182	184	183	183	182	183	182	182	182	183	182	181	181	183	184	182	182	181	181	181	180	180	180	180	182	181	181	179	0	0	0
184	184	182	188	189	189	189	189	188	187	187	187	187	188	189	189	186	190	188	188	188	189	187	186	186	185	185	185	188	189	188	188	188	189	190	193	195	195	193	190	190	191	192	192	192	192	192	193	192	188	190	189	189	189	190	189	191	193	192	193	193	192	192	190	190	189	186	189	189	190	190	189	190	190	191	192	192	192	193	191	190	190	189	188	188	187	187	188	191	191	191	190	189	191	192	193	192	192	192	193	191	191	192	193	189	189	190	189	188	188	188	189	190	191	191	190	189	189	189	189	191	191	195	192	191	193	188	193	190	192	190	189	188	190	191	191	189	189	189	190	192	192	193	192	193	190	188	187	189	190	189	189	191	193	188	191	190	192	192	192	192	189	190	190	190	190	189	189	194	195	193	191	192	193	193	195	190	188	188	190	192	195	196	197	197	193	192	193	195	191	191	190	191	191	192	194	195	193	193	194	195	195	196	194	195	194	194	194	190	190	191	190	192	189	192	192	194	193	192	194	195	194	194	194	194	195	194	193	192	195	196	195	193	192	192	193	194	195	195	196	198	196	197	196	193	195	196	194	194	194	194	194	193	194	193	194	192	193	193	193	193	192	193	194	194	193	193	194	194	196	195	193	193	193	193	194	195	195	194	192	192	192	193	193	194	195	196	195	196	195	194	193	192	192	192	192	192	194	194	192	193	191	192	193	194	196	195	194	193	193	193	192	190	190	194	194	196	193	193	193	193	193	193	193	193	196	197	197	197	196	196	194	196	196	193	193	194	194	195	196	194	194	193	193	195	194	194	195	196	197	196	196	193	191	192	188	191	193	193	193	193	194	190	193	189	192	193	195	194	197	196	193	189	190	189	190	189	190	192	192	193	192	193	193	193	193	194	195	195	194	195	196	197	195	196	195	195	192	192	191	192	191	189	190	190	192	189	188	191	192	193	193	192	191	191	192	192	192	192	192	192	193	192	190	192	192	191	191	191	192	192	192	189	189	191	192	193	192	192	191	191	188	189	190	192	190	192	192	192	191	194	192	188	188	189	190	190	190	189	189	185	188	185	187	186	187	187	192	193	194	190	191	190	193	192	190	187	189	190	190	190	189	189	189	189	190	186	187	189	188	187	187	187	187	187	187	188	187	187	188	188	187	189	189	190	189	189	189	187	187	187	188	188	186	186	186	185	187	187	188	189	190	187	187	187	186	187	186	187	186	186	186	187	185	187	187	187	187	186	184	184	185	185	185	186	188	185	185	185	184	185	182	182	182	184	184	183	184	181	184	184	185	184	183	184	184	184	185	186	186	186	186	186	184	184	184	184	186	187	185	185	183	181	181	182	182	184	184	183	185	185	185	186	185	183	182	182	182	182	181	180	181	181	180	180	178	180	181	182	182	183	183	182	181	180	181	181	181	181	181	179	180	183	182	182	180	180	180	179	180	180	180	176	179	181	181	177	0	0	0
181	183	183	188	189	187	187	184	183	182	185	185	186	186	189	182	182	183	187	190	189	189	189	187	186	185	186	189	188	191	191	187	187	188	191	192	193	193	187	189	189	190	190	191	190	190	190	189	189	188	190	190	190	189	189	188	190	191	191	192	192	192	191	190	189	188	187	188	188	189	189	191	191	190	190	190	191	191	191	191	190	189	189	191	190	191	188	188	189	190	191	190	189	186	188	188	189	190	190	186	187	189	191	191	191	190	189	189	188	188	188	190	190	190	190	189	189	189	189	189	190	188	190	190	190	193	194	194	194	190	189	191	187	191	192	191	189	188	188	189	190	192	192	190	190	188	187	189	190	191	194	193	189	188	188	189	190	190	192	191	191	191	189	190	190	188	189	190	189	191	190	190	190	191	191	191	191	190	189	189	191	190	193	194	194	192	193	193	194	191	190	191	190	192	192	196	193	194	193	193	192	193	194	194	195	195	193	193	191	192	191	192	191	191	192	190	190	193	194	194	195	195	194	193	192	194	195	193	191	194	196	192	192	192	191	191	194	196	195	196	196	195	196	192	192	195	192	191	193	193	194	194	192	193	194	194	191	191	192	192	193	194	194	193	193	194	194	195	194	195	193	193	192	192	192	192	192	193	194	189	190	191	190	190	191	191	196	194	193	193	193	192	192	191	193	192	193	193	194	194	192	192	193	195	194	195	194	191	191	192	192	192	188	192	193	193	194	193	191	192	192	193	193	193	195	193	193	193	194	194	194	196	196	195	194	193	193	194	195	193	191	192	193	193	195	194	195	195	196	197	196	196	196	193	190	190	192	193	195	192	194	189	188	189	191	191	193	194	194	196	192	193	193	190	191	190	189	190	191	191	192	195	191	192	193	193	194	195	193	193	192	191	192	193	195	192	191	192	192	190	190	189	190	190	190	191	189	189	191	191	191	191	190	191	190	190	192	191	192	192	192	193	192	190	191	192	190	191	192	191	191	190	189	191	191	191	191	192	190	190	189	189	189	189	188	189	191	192	192	193	191	190	190	187	190	191	192	190	191	192	189	186	186	187	186	186	188	189	190	189	188	184	191	190	188	190	189	191	190	190	190	189	187	187	187	184	186	186	186	188	187	187	187	188	188	188	188	188	187	187	187	187	188	190	188	190	189	187	187	187	187	188	187	187	186	186	185	185	182	184	186	188	185	187	187	186	189	186	185	184	184	186	185	183	186	186	188	188	187	186	185	185	185	185	186	186	185	185	184	184	184	182	182	185	184	183	182	183	183	183	183	183	183	182	183	184	184	185	185	186	186	185	184	183	183	183	181	182	183	181	180	181	181	181	180	182	182	184	184	185	185	184	183	182	182	182	182	178	178	179	179	181	181	181	180	181	180	180	180	182	182	180	180	180	179	179	179	180	179	179	178	179	177	180	181	180	180	180	179	177	175	175	177	178	178	177	177	0	0	0
182	183	183	185	187	187	183	183	183	183	181	181	179	180	181	180	180	185	190	190	187	187	188	187	186	186	189	189	190	190	186	187	187	184	189	189	189	187	189	187	188	189	190	189	189	189	189	189	189	190	191	190	187	187	186	186	189	191	191	192	192	192	190	189	188	186	187	187	187	187	189	189	190	190	190	190	191	191	191	190	191	191	191	187	190	188	187	186	188	190	191	188	187	188	188	188	186	185	186	186	186	185	188	188	193	190	188	188	186	188	185	189	189	190	188	189	189	189	187	186	188	189	190	187	188	191	194	193	188	188	189	189	187	187	191	188	188	188	188	189	190	191	193	191	189	188	188	187	190	191	191	191	189	186	187	188	189	192	189	190	191	190	190	189	188	187	188	188	189	190	190	190	190	188	190	190	190	189	188	188	189	190	191	190	190	189	189	193	192	193	192	191	191	193	194	194	193	193	192	192	193	193	193	193	194	195	194	193	191	192	192	192	192	191	190	191	190	188	191	193	193	191	189	192	192	195	195	194	191	193	194	192	186	187	190	190	195	196	195	194	194	194	192	192	191	191	187	191	191	192	192	191	191	192	192	189	190	192	192	194	193	193	193	193	193	194	194	193	189	189	191	191	193	193	191	192	192	191	191	190	189	189	188	189	191	190	194	192	193	193	192	190	190	191	193	193	193	193	193	193	193	193	193	191	191	190	188	190	191	191	191	191	192	190	192	192	193	193	190	189	190	191	192	191	191	190	191	191	194	194	193	195	195	194	193	190	192	193	193	191	190	191	192	192	195	192	194	194	195	195	194	195	193	191	192	192	192	193	195	195	192	191	192	191	191	191	192	193	193	193	194	193	193	193	191	191	189	190	190	190	191	196	196	195	193	191	191	191	192	192	193	193	191	190	194	195	190	188	188	189	189	189	191	190	191	188	189	189	188	188	189	189	188	189	190	189	190	191	191	191	192	192	192	192	192	193	192	186	188	191	190	190	189	191	191	190	190	190	188	188	189	189	189	187	185	188	189	190	192	193	191	191	190	188	191	191	192	191	190	189	190	189	186	184	184	187	189	191	191	189	185	185	189	187	188	190	189	190	190	189	186	184	186	186	186	186	185	184	186	187	187	187	188	188	186	186	187	187	186	187	187	187	189	188	185	186	183	183	186	191	190	189	185	188	190	189	188	184	184	184	185	186	187	187	187	190	188	187	186	184	185	184	184	184	183	183	184	184	184	185	184	182	181	183	185	184	185	184	184	183	183	183	182	183	182	181	181	180	181	181	181	182	182	181	181	180	183	182	182	184	184	183	183	183	182	182	183	183	183	181	180	180	180	181	181	181	181	181	183	183	182	182	182	182	182	180	178	178	177	176	178	180	183	183	183	181	179	179	180	179	179	180	180	180	179	179	177	179	180	178	179	177	178	178	180	180	180	179	177	176	174	174	174	177	177	177	177	0	0	0
183	184	188	188	187	183	184	184	184	181	179	179	179	179	180	180	181	185	184	184	185	186	186	188	186	187	189	184	186	186	186	184	185	185	184	187	187	187	187	185	187	187	187	184	185	187	187	188	189	190	189	189	185	185	185	187	187	189	189	189	191	191	191	190	188	187	187	187	187	187	187	187	188	188	188	188	189	190	191	190	190	190	187	187	188	185	186	186	186	188	188	186	188	189	190	188	186	185	186	186	186	185	181	187	190	193	187	189	189	188	189	187	187	189	189	189	188	187	187	187	188	187	189	187	188	188	189	192	185	184	184	184	183	184	186	189	189	188	188	188	189	190	189	193	189	189	189	189	187	188	188	188	188	187	187	187	187	187	187	189	190	190	189	188	187	187	189	188	191	190	189	189	187	190	190	191	190	189	186	189	189	186	190	190	190	191	188	192	192	191	190	191	193	193	194	193	193	193	192	192	191	191	192	193	194	194	195	193	191	192	190	190	191	191	190	189	189	190	190	192	193	194	190	190	189	190	194	192	192	191	191	190	189	189	190	190	190	191	192	192	189	190	189	190	190	188	189	187	186	190	190	192	192	190	190	189	188	190	191	193	194	195	195	193	192	192	192	192	192	192	191	191	193	192	193	192	190	190	190	189	189	188	189	189	191	191	192	192	192	192	191	191	191	191	190	192	192	192	191	193	193	193	191	192	189	189	188	191	191	191	190	190	190	190	190	190	192	192	191	189	190	190	189	191	190	190	193	191	190	195	189	189	194	191	191	190	190	191	193	192	190	190	192	194	194	192	192	191	191	194	194	194	196	191	192	192	193	192	190	192	194	194	193	192	190	192	192	192	193	194	192	193	193	192	192	191	191	187	187	188	187	190	193	193	192	190	190	190	192	191	191	191	191	190	192	189	189	189	188	189	190	190	191	190	188	187	185	187	188	187	187	187	188	188	187	190	190	191	192	192	192	191	191	190	191	193	191	189	186	189	191	191	189	191	191	190	191	190	188	187	187	188	188	187	185	187	187	187	189	189	191	189	188	188	188	191	188	188	189	188	187	188	187	185	184	187	191	190	187	187	186	186	184	184	188	188	189	190	189	187	184	183	185	185	186	186	187	184	184	187	187	188	188	188	185	185	185	184	185	187	187	186	186	183	182	183	183	184	187	187	187	188	186	182	183	189	185	184	183	184	183	185	186	186	187	186	186	186	185	185	185	183	182	183	184	184	183	183	185	184	183	182	180	183	184	184	184	183	182	184	183	182	182	183	181	181	180	180	180	180	179	181	181	182	181	181	182	181	181	181	182	182	181	181	181	183	182	183	183	182	180	179	179	180	180	180	180	180	182	182	182	181	181	181	180	180	180	178	178	177	180	180	180	181	181	179	178	178	179	178	177	178	178	178	178	177	177	179	179	179	179	178	176	176	178	180	179	177	176	175	174	173	174	174	175	175	176	0	0	0
182	183	186	186	186	183	184	184	184	182	180	181	181	179	182	181	182	182	183	183	183	185	185	187	185	189	184	186	183	184	184	185	184	184	185	185	185	185	185	187	186	186	185	184	185	185	185	186	187	187	186	186	185	184	184	185	187	186	186	187	189	190	190	190	188	187	188	187	186	184	184	187	187	187	187	185	185	188	188	189	188	185	187	186	186	185	186	185	186	186	186	186	188	190	190	189	186	184	185	188	188	182	183	188	191	188	188	188	188	189	188	186	185	183	192	188	187	186	187	186	189	188	190	188	186	188	189	185	187	185	184	184	185	184	185	187	190	187	188	188	188	187	188	189	189	190	190	189	188	188	187	188	190	190	191	191	189	186	186	187	188	190	189	186	188	188	189	188	190	189	189	188	186	189	190	190	190	190	187	187	188	186	190	191	191	189	189	190	192	190	188	190	193	191	189	187	187	188	192	191	191	190	189	189	189	190	195	191	189	188	187	192	189	189	189	190	189	190	191	193	192	189	189	189	189	189	190	191	190	190	190	190	190	190	190	190	190	192	191	192	187	188	187	187	189	189	187	187	190	191	192	191	192	189	189	188	188	189	190	191	191	192	193	191	191	191	192	192	192	192	191	192	193	194	192	191	189	189	189	189	189	189	190	193	191	191	191	192	191	192	192	192	191	190	190	190	191	190	191	192	192	192	192	189	189	188	188	189	191	190	189	190	191	189	189	190	190	191	190	190	190	190	190	190	189	189	192	192	192	189	187	187	188	190	190	190	190	190	191	191	191	191	190	191	192	191	192	191	191	193	194	193	189	192	191	192	192	192	191	192	193	191	192	191	191	191	190	190	191	190	191	194	192	192	192	191	189	187	187	187	188	190	192	192	191	189	189	188	189	191	193	190	190	191	192	188	188	189	187	189	189	189	191	188	188	185	184	184	188	188	187	189	188	188	187	187	190	191	191	191	189	189	188	190	191	192	191	189	188	189	190	190	190	193	193	192	191	190	188	187	187	187	188	186	185	187	187	187	188	188	188	188	188	186	186	188	188	186	188	190	189	188	189	186	184	184	188	187	187	187	186	186	186	184	186	188	188	188	189	186	185	183	183	185	186	186	186	183	182	187	188	188	185	185	185	185	185	185	186	187	183	184	182	180	180	182	182	184	183	184	189	183	183	184	185	182	182	184	182	183	181	182	184	186	187	187	185	184	185	185	183	183	181	182	184	184	184	183	183	181	181	180	180	182	179	179	179	179	183	182	180	180	182	183	182	180	178	180	180	179	179	180	180	180	180	180	181	180	180	180	181	181	180	180	182	181	181	181	180	180	181	180	180	180	180	180	180	180	179	182	179	180	180	178	180	180	180	178	178	179	180	180	180	180	178	178	178	178	177	177	177	177	178	177	177	177	178	176	177	179	178	178	176	176	176	176	177	176	177	174	175	173	173	173	176	175	175	0	0	0
177	182	181	181	178	182	184	185	185	187	185	183	183	183	183	183	182	182	183	183	183	185	186	186	182	187	182	183	182	182	183	183	184	184	184	184	184	183	183	186	185	183	184	185	185	185	186	186	186	183	184	182	184	183	183	183	185	185	184	183	187	191	187	187	188	186	187	187	185	183	183	183	186	186	185	183	184	186	186	185	184	184	185	185	185	185	186	186	186	186	186	186	187	189	189	187	185	185	185	188	183	183	186	188	188	188	187	187	188	189	186	185	182	190	185	188	186	184	186	185	189	187	189	186	187	187	187	185	186	185	185	182	184	185	185	188	186	185	186	188	188	189	189	189	187	187	188	188	189	189	188	186	185	187	189	188	188	186	186	186	186	184	185	189	187	188	190	190	191	189	189	188	186	188	190	190	190	190	189	187	187	188	189	191	190	190	190	190	191	192	190	189	192	190	189	187	186	187	186	187	188	187	187	187	189	189	189	189	190	188	189	192	193	190	191	191	191	189	190	193	192	188	188	188	189	190	190	189	188	186	189	190	192	190	190	190	190	191	191	189	188	187	187	187	190	190	188	188	190	191	191	191	190	190	189	190	189	190	189	189	190	191	190	189	191	191	193	192	191	190	189	194	192	192	192	189	188	188	188	188	188	189	191	190	191	190	190	190	190	188	190	190	191	189	188	188	188	190	192	191	192	189	189	189	188	187	187	188	189	187	189	190	190	188	188	188	188	190	190	189	190	190	189	189	187	188	192	191	191	188	187	187	186	189	189	190	189	190	190	191	191	191	190	188	189	189	191	191	191	189	189	188	187	188	190	188	188	192	190	191	192	194	191	191	191	192	192	191	191	192	192	191	192	192	192	192	190	189	187	188	188	188	185	190	190	187	187	186	188	188	187	190	191	190	190	189	189	188	187	189	188	189	188	188	189	188	184	186	186	187	189	187	188	188	189	188	189	192	191	191	191	188	188	189	189	188	188	187	187	189	190	191	188	191	193	191	188	187	186	187	188	188	189	188	188	189	189	188	187	186	187	187	185	185	186	186	183	187	186	187	187	188	187	187	185	186	187	187	187	188	187	187	182	182	181	182	183	183	184	186	184	183	182	183	185	185	186	183	185	185	186	187	185	183	182	183	183	183	184	181	183	183	183	185	180	181	182	182	182	182	181	182	183	185	185	182	182	181	181	181	182	180	181	183	185	185	185	184	182	182	181	181	181	181	183	183	182	182	182	180	179	180	182	180	179	181	180	179	179	180	181	182	183	183	182	177	180	178	180	179	179	178	178	180	180	181	180	180	179	180	181	181	181	181	181	181	180	180	180	179	180	179	179	178	179	177	177	177	177	178	178	178	179	178	180	180	179	179	178	179	179	178	178	177	176	176	177	178	177	178	177	177	177	177	174	174	174	176	178	178	178	178	176	176	175	175	175	175	177	175	172	172	172	173	173	176	175	0	0	0
179	178	177	176	176	181	184	185	185	187	186	185	184	184	179	182	182	181	181	182	184	185	181	181	178	180	181	182	182	182	183	182	183	183	183	184	181	182	185	185	183	183	185	186	185	185	185	183	183	183	184	182	183	183	183	183	184	185	184	184	185	185	186	186	186	187	185	187	186	183	182	184	185	184	184	183	186	186	186	186	185	184	184	185	186	186	186	185	184	183	185	186	186	185	184	185	184	185	185	185	184	186	184	188	188	187	186	183	184	185	185	184	182	183	184	184	183	184	186	184	183	183	186	187	188	188	187	187	183	182	182	184	184	187	187	185	185	185	185	186	188	188	189	186	187	181	184	185	187	187	188	185	185	187	188	187	187	190	191	185	186	188	189	188	190	191	190	192	191	190	189	187	186	187	186	186	187	187	186	186	186	186	189	190	191	189	188	186	189	191	188	189	187	186	186	186	186	186	182	187	186	185	186	186	186	187	188	189	190	188	190	190	191	192	193	190	188	187	186	186	186	186	187	187	188	189	191	190	187	186	187	192	193	191	192	191	187	190	191	189	189	187	187	187	189	190	189	189	190	191	191	189	190	190	189	190	189	189	189	189	190	190	188	189	189	192	193	191	190	191	192	189	195	193	188	188	188	188	189	188	188	188	189	189	188	188	189	188	187	187	187	189	189	188	189	189	188	189	190	190	190	189	189	188	190	187	186	190	189	187	189	189	188	188	188	187	186	189	189	189	189	188	190	188	186	186	190	190	191	187	187	188	188	189	187	188	189	189	190	191	190	190	189	190	187	187	189	189	188	188	187	186	186	185	186	188	188	189	189	191	189	190	188	189	191	189	189	189	190	190	192	193	192	191	191	192	191	190	189	187	186	187	185	185	186	187	186	187	186	186	187	188	188	186	186	186	191	191	187	187	187	187	188	189	189	189	189	187	188	188	189	187	187	187	189	192	189	188	189	189	189	189	187	188	189	187	187	187	187	188	191	190	190	190	189	187	187	185	187	186	187	186	186	187	188	188	187	189	186	186	186	186	186	184	186	187	187	184	184	186	187	188	187	186	185	184	187	187	187	187	186	184	183	180	181	181	182	183	184	186	184	183	184	184	184	185	185	186	185	185	185	185	183	184	183	183	185	184	185	183	181	183	183	185	184	182	181	181	182	181	181	179	181	181	181	181	181	180	181	181	181	181	182	182	183	180	180	181	180	182	181	181	181	181	184	184	182	182	180	180	178	179	178	180	180	180	179	177	178	178	181	178	180	179	181	180	180	180	178	176	176	177	178	179	179	179	177	179	179	179	179	180	180	181	180	179	177	179	179	178	177	177	179	179	177	177	177	177	177	177	178	178	178	179	179	179	179	179	178	178	177	176	177	176	176	175	176	176	177	177	177	175	175	175	175	175	175	176	177	177	177	176	176	176	175	174	173	173	174	173	174	174	172	172	173	173	175	0	0	0
178	177	177	177	177	180	182	185	182	182	178	178	178	178	174	179	181	181	181	184	182	181	178	178	180	180	181	182	182	183	183	182	183	182	180	180	180	181	184	184	183	185	186	186	184	181	182	181	181	183	182	182	183	183	186	185	185	185	184	184	185	184	184	185	185	185	187	186	186	186	185	185	184	184	184	184	183	186	186	186	185	186	186	186	186	186	186	184	184	183	185	186	184	184	185	183	183	184	184	183	183	184	186	186	186	187	186	183	184	184	185	185	185	181	180	183	184	185	185	185	185	185	185	186	187	187	187	185	185	184	184	184	185	185	187	185	187	185	185	185	185	185	185	184	185	187	182	183	187	187	185	186	185	187	185	185	188	190	191	186	189	189	190	189	190	191	190	191	192	191	189	188	187	186	186	187	187	188	187	187	184	187	189	190	188	188	186	187	185	186	186	186	186	186	187	187	187	187	183	186	186	186	186	185	187	187	186	188	189	189	190	190	191	192	192	188	186	187	187	186	188	186	185	186	189	189	189	187	186	187	187	189	193	192	192	190	186	189	190	189	189	187	188	188	188	187	187	188	189	191	191	187	188	188	189	190	190	190	189	190	187	188	187	188	191	192	192	191	189	191	192	189	189	194	187	186	186	187	187	187	187	189	188	187	187	188	188	188	188	188	188	187	187	189	190	189	189	189	189	188	189	190	190	189	188	185	187	186	187	186	189	189	188	188	188	188	187	186	187	189	188	188	188	187	186	186	187	190	189	188	189	189	189	190	189	187	188	189	190	191	190	188	188	188	188	188	187	187	186	187	186	184	183	184	185	186	187	187	186	188	187	186	187	187	188	188	188	189	188	186	188	189	191	191	187	185	191	187	185	185	184	185	186	189	188	186	186	185	188	186	185	186	187	188	186	189	186	183	188	183	186	187	187	189	189	190	189	188	189	187	190	189	188	188	189	188	188	188	187	186	187	187	187	186	187	186	186	185	185	188	187	187	187	187	185	185	183	184	185	185	185	185	184	185	184	186	187	186	188	186	186	187	185	185	184	186	186	184	184	181	182	181	182	182	185	184	183	186	186	186	186	184	183	181	180	181	180	182	184	185	182	181	184	185	185	184	184	184	185	183	183	183	183	184	182	182	184	184	186	184	182	183	181	180	183	183	182	180	182	181	182	182	180	181	181	179	181	180	180	180	179	179	182	182	182	179	179	180	179	181	183	184	183	183	183	183	182	179	178	179	179	177	179	181	179	178	178	176	178	181	183	180	179	179	180	178	179	179	177	175	175	177	181	179	179	178	175	177	178	180	179	180	180	181	178	177	177	175	175	175	176	177	179	175	178	177	177	176	176	177	177	177	178	178	178	176	181	180	180	178	174	173	175	175	175	175	177	176	174	175	175	175	174	175	175	174	174	176	177	177	176	174	176	173	175	173	175	173	173	172	172	172	172	171	172	173	173	0	0	0
179	177	178	178	179	179	183	184	179	179	178	178	177	174	174	179	180	181	184	182	180	181	179	179	179	180	181	182	183	183	183	182	182	181	181	181	181	179	180	183	185	186	182	185	184	180	181	183	182	182	182	182	182	186	187	185	185	184	186	186	183	181	182	182	185	185	186	187	186	185	187	186	185	185	184	184	184	185	185	183	184	184	185	186	187	187	185	185	184	184	185	184	183	185	183	183	183	183	182	183	184	184	184	185	183	183	182	182	184	183	185	184	184	184	184	184	184	185	185	186	187	185	186	186	187	185	185	185	185	185	185	185	185	188	186	184	184	184	184	184	183	182	185	186	186	181	182	187	186	184	184	185	184	186	185	185	185	185	187	187	189	188	189	188	188	189	190	188	189	189	190	189	186	187	186	186	186	189	188	187	185	184	185	189	188	187	187	188	187	186	186	186	186	186	185	186	183	186	186	184	186	186	186	186	186	186	186	186	187	185	190	189	189	189	185	187	186	186	186	187	188	187	188	186	187	186	187	186	186	186	185	0	0	188	187	187	188	188	188	187	187	187	186	187	187	187	187	188	187	189	188	188	186	187	188	190	190	189	188	188	188	188	188	186	187	191	187	185	185	187	189	189	189	187	187	185	184	187	186	187	189	190	190	187	187	188	189	189	187	187	186	185	186	189	189	189	188	189	185	187	184	190	187	186	185	186	184	185	184	187	186	187	189	188	186	188	187	187	188	188	188	188	188	186	186	185	187	185	186	188	189	189	188	189	189	187	186	187	188	190	188	188	187	187	187	187	186	185	186	186	185	183	183	184	183	184	185	186	187	187	188	188	186	186	186	186	187	188	189	189	188	188	188	188	187	189	189	189	185	184	185	186	188	188	186	187	186	186	185	185	185	185	188	191	191	190	188	186	183	184	185	187	187	188	187	186	186	184	186	188	187	189	188	188	189	186	187	187	186	187	186	187	187	187	184	184	186	185	183	185	186	185	186	187	184	182	182	184	185	185	185	185	184	183	183	184	185	185	184	181	182	186	185	186	186	185	185	185	182	182	184	184	183	184	182	183	183	186	185	184	184	183	182	182	179	180	181	181	182	182	182	182	186	185	184	182	183	182	182	180	181	182	182	183	182	182	182	184	184	184	182	182	181	180	180	181	182	182	182	181	182	182	179	179	180	181	180	179	179	178	180	180	181	181	181	183	179	179	180	181	183	184	183	182	182	181	180	178	177	177	176	175	178	180	179	177	177	175	179	179	181	181	178	178	180	178	178	177	177	177	177	179	178	180	179	176	178	175	177	178	180	179	179	180	178	177	177	176	176	174	173	175	176	175	176	178	178	176	176	176	175	175	177	176	178	175	177	177	177	176	174	173	174	175	175	177	172	174	173	172	174	174	175	174	174	175	173	174	174	176	175	175	174	173	172	174	175	174	174	173	173	172	172	172	172	173	173	0	0	0
179	179	178	178	181	181	178	180	179	178	178	178	176	174	174	178	180	183	182	181	180	180	179	179	179	179	181	183	182	183	179	180	181	181	180	180	180	181	182	183	185	182	182	183	182	180	180	182	181	181	182	182	186	187	187	183	183	183	181	181	182	181	182	183	182	184	184	186	186	187	187	186	185	183	184	183	183	184	184	184	182	184	184	186	186	185	185	184	184	184	183	182	182	182	183	184	181	181	181	184	185	185	184	184	182	181	181	182	183	184	183	183	183	185	185	185	184	184	185	187	186	186	185	186	185	185	184	185	185	186	186	186	185	186	184	184	185	183	183	181	182	182	181	182	183	184	184	186	185	184	182	182	184	186	185	185	186	187	187	187	189	188	186	186	186	186	186	189	184	185	187	186	186	186	187	189	189	187	186	186	185	185	183	189	187	187	185	188	187	186	187	187	186	186	185	184	183	183	184	185	184	185	185	185	186	186	186	185	184	184	188	188	184	185	185	185	186	185	186	187	187	186	185	186	186	186	186	185	183	182	186	0	0	184	188	187	187	187	187	185	186	185	186	189	189	187	187	187	188	188	189	188	188	188	187	187	187	187	188	188	186	187	185	185	186	185	188	186	189	187	189	190	188	187	187	185	184	186	187	187	187	188	191	190	188	187	189	190	188	187	187	187	185	186	185	185	185	182	182	183	184	186	186	184	186	185	186	186	184	185	185	187	187	185	186	185	187	187	187	188	186	186	188	187	186	186	187	185	187	187	188	189	187	187	186	185	186	187	187	187	187	186	186	186	186	186	187	186	185	186	186	184	183	186	185	183	184	185	188	187	187	187	187	186	186	186	186	186	187	186	187	186	186	187	186	187	188	189	183	185	186	186	188	188	186	186	186	184	185	186	185	184	187	187	187	187	188	186	184	184	185	185	186	187	186	185	184	183	182	183	184	185	187	188	189	186	183	184	183	186	187	186	186	186	185	184	184	185	184	182	183	185	186	185	184	183	183	183	183	185	185	185	185	185	182	182	185	184	186	184	183	184	185	185	185	185	185	185	184	182	183	184	183	183	183	181	180	179	179	181	183	183	182	181	181	179	180	181	181	182	181	183	186	185	184	181	182	181	179	180	179	181	182	182	181	181	184	183	182	183	183	182	182	181	180	180	181	181	182	180	180	180	179	180	178	180	179	180	179	180	179	179	179	181	179	181	180	180	179	182	183	183	182	183	178	179	177	178	177	176	175	178	179	178	178	176	176	178	180	177	180	175	175	176	177	174	176	177	178	178	179	177	179	177	177	176	173	175	178	178	180	180	177	175	174	175	177	177	178	179	174	177	174	176	176	177	177	177	176	175	174	176	174	177	175	175	174	174	175	175	175	173	175	178	174	176	172	173	172	171	171	173	175	176	176	175	174	174	174	173	173	175	174	172	172	172	176	175	174	174	174	172	172	171	171	172	172	172	0	0
179	179	178	177	177	177	177	177	178	177	177	178	176	175	177	177	181	183	181	180	180	178	179	178	180	180	180	182	181	179	179	180	180	180	180	180	180	181	183	184	182	182	183	181	180	178	179	182	182	182	182	186	185	186	183	180	179	181	181	182	182	181	181	181	179	181	181	182	187	182	182	180	180	182	183	182	182	181	183	181	181	182	184	185	186	185	184	183	183	183	182	183	182	182	182	183	180	180	181	183	182	184	184	184	182	179	183	183	183	181	183	183	183	184	184	184	184	184	181	183	184	184	185	186	184	184	183	183	184	186	187	187	185	185	184	185	185	184	184	182	181	179	180	182	182	183	183	185	183	184	184	183	184	186	185	185	185	183	185	186	191	186	185	183	183	181	181	182	184	184	183	186	186	186	186	189	188	184	186	186	186	187	186	185	188	186	186	187	187	187	185	185	185	186	186	184	184	184	184	186	184	184	184	182	185	185	185	186	184	185	186	186	184	185	185	185	183	183	184	185	185	185	185	185	186	186	186	185	184	184	182	186	187	187	186	187	188	187	186	185	184	184	185	186	188	187	186	184	185	184	186	186	187	188	187	186	187	187	187	187	185	186	183	183	184	183	185	187	187	189	190	187	188	188	186	184	187	187	184	184	186	188	189	190	188	187	190	189	189	187	187	187	185	186	185	185	185	186	186	184	181	185	187	186	183	183	185	185	184	184	185	186	187	187	186	186	186	185	185	187	188	186	184	186	188	187	186	185	185	188	187	186	185	186	186	186	186	188	186	187	187	188	188	188	186	186	185	185	186	185	184	185	184	185	184	182	181	182	183	183	185	186	185	188	186	185	185	185	186	187	184	184	184	184	182	183	184	183	187	185	184	186	186	186	186	185	185	184	186	187	186	186	186	187	186	186	187	186	186	183	182	184	187	185	184	184	183	182	182	182	182	184	185	187	189	184	183	184	183	183	184	184	183	183	183	184	183	184	184	183	182	183	184	184	183	181	181	183	183	183	184	185	184	183	180	179	180	184	183	185	185	184	184	184	183	183	184	187	185	184	183	181	181	183	182	183	182	182	180	181	183	183	182	182	181	180	180	180	182	182	181	182	184	186	182	181	181	178	178	178	181	180	181	180	181	183	182	183	183	183	183	183	182	180	181	181	180	180	180	180	179	178	179	178	179	180	182	179	178	179	178	178	178	180	179	179	179	178	180	182	180	181	181	180	179	176	177	178	176	177	178	177	177	177	176	177	178	178	180	178	175	173	173	175	176	173	173	175	177	177	179	179	179	176	176	173	170	177	179	179	177	177	176	175	174	177	177	175	176	175	176	176	178	178	177	177	178	176	176	176	174	171	173	176	174	174	174	174	173	173	174	175	173	174	175	173	173	169	172	172	172	171	171	171	173	174	174	173	174	172	172	173	173	172	172	172	174	175	175	175	174	172	171	169	170	172	171	171	0	0
176	175	175	176	176	176	176	176	177	177	179	179	176	175	178	178	181	181	180	180	179	178	179	179	180	180	180	180	180	178	180	178	178	180	178	178	179	179	178	180	181	181	181	180	181	180	180	182	182	185	185	180	180	182	180	180	180	180	180	181	181	181	180	181	178	180	180	180	181	179	181	180	180	181	180	181	181	181	181	183	181	182	181	181	186	182	182	183	182	180	180	183	182	181	182	181	179	180	180	184	182	184	184	183	184	182	180	180	180	182	183	181	183	182	183	183	183	183	181	182	182	183	183	184	183	181	181	182	183	185	184	186	185	184	184	184	184	184	184	182	177	179	185	183	183	183	185	183	182	180	182	185	184	184	184	182	182	183	185	184	190	186	182	182	182	182	183	183	184	184	183	186	184	184	186	184	187	183	187	187	186	186	187	182	181	183	185	188	188	187	187	187	186	187	185	184	186	184	185	185	185	184	183	183	185	185	183	184	185	185	185	184	183	185	185	183	183	183	184	185	185	186	186	186	186	186	185	185	186	186	187	188	188	187	186	186	187	186	185	183	183	184	185	185	186	187	185	185	183	186	186	185	186	185	186	186	186	187	187	186	186	184	186	185	182	182	183	185	187	188	188	190	187	183	182	180	182	184	183	182	186	187	186	186	190	189	189	190	189	187	187	185	187	187	188	185	186	186	187	187	185	183	184	186	185	185	182	184	186	188	189	188	187	186	186	185	186	186	186	185	185	185	186	186	186	186	183	185	185	186	185	186	187	187	186	186	186	188	185	185	186	187	188	188	185	184	185	184	184	184	184	183	183	185	185	182	182	182	182	183	183	185	186	186	185	186	186	186	186	184	182	182	182	182	182	182	182	184	185	184	184	185	185	185	185	185	183	184	186	188	189	186	185	185	186	186	185	185	185	184	185	184	186	186	184	183	183	182	181	181	182	184	183	185	186	187	186	185	183	184	185	185	182	184	186	184	183	183	183	183	182	182	181	182	182	181	183	183	182	181	181	182	186	185	180	178	181	182	183	184	184	184	179	183	182	182	186	184	184	184	183	181	180	180	180	183	182	181	179	180	180	180	179	182	181	181	181	182	182	182	182	182	183	183	182	181	179	178	177	180	179	181	180	178	180	181	181	181	182	183	183	183	182	180	181	180	180	180	180	180	178	180	179	179	179	181	181	181	178	177	176	176	177	178	179	177	177	176	175	176	175	178	180	182	180	175	175	178	177	176	176	177	177	176	177	176	176	178	179	178	174	172	169	170	172	173	169	172	173	177	175	176	178	176	175	172	172	173	175	178	177	177	176	175	175	176	176	176	177	178	178	178	178	178	177	177	176	176	175	176	175	171	170	171	173	173	173	175	176	173	175	174	172	171	169	171	173	171	171	169	168	169	169	170	170	173	172	174	171	171	172	172	172	172	171	171	171	173	173	175	175	174	173	171	170	170	170	171	0	0
176	174	174	175	175	177	177	177	176	177	179	177	176	178	177	179	179	178	180	179	178	179	180	180	179	179	179	178	178	179	178	178	177	176	177	178	178	178	177	178	179	180	180	181	181	180	179	180	178	177	176	176	177	180	180	179	180	180	180	180	180	180	180	181	178	179	180	177	177	179	180	181	180	181	180	180	182	180	180	182	181	180	180	180	182	182	182	181	182	181	180	180	182	181	182	181	179	179	180	182	182	181	181	181	179	180	180	181	182	182	180	182	182	181	181	181	180	180	181	180	181	183	184	184	183	181	180	182	182	180	181	181	184	184	184	184	185	184	180	179	179	182	179	183	183	185	183	182	183	178	179	182	184	183	183	182	179	182	182	184	181	180	181	180	177	180	181	182	183	183	185	183	186	186	184	182	183	185	184	183	184	183	184	178	179	181	183	184	185	185	185	186	183	182	183	183	183	183	182	181	183	184	183	182	183	182	184	182	182	184	184	182	183	183	184	183	183	183	184	185	185	186	187	186	186	186	186	184	185	186	187	186	186	186	185	186	186	185	183	183	183	183	183	184	186	186	184	185	186	187	184	184	184	185	185	186	186	186	186	184	183	184	185	186	185	187	182	184	186	187	187	184	187	183	184	183	185	185	182	185	185	186	185	185	184	186	184	186	187	187	185	185	186	187	187	187	187	188	188	188	185	182	185	188	186	183	182	184	186	186	188	188	186	186	186	187	187	187	186	185	185	184	185	186	185	183	184	184	183	182	184	185	187	186	185	185	185	185	187	186	186	187	186	185	185	185	185	183	182	183	182	182	182	183	185	181	182	181	181	183	184	185	185	185	185	185	185	185	184	181	181	181	180	181	182	182	182	182	182	184	184	184	184	184	182	183	182	183	186	188	187	188	185	187	186	184	184	185	185	183	185	185	184	183	183	183	184	184	183	183	183	181	183	184	185	186	184	183	182	185	184	185	186	183	185	183	183	184	181	182	184	182	181	182	182	181	181	183	182	181	181	181	184	184	182	181	181	181	183	183	183	181	181	179	180	183	183	185	181	182	182	182	182	180	180	180	179	179	180	179	181	181	179	180	181	182	181	182	182	181	180	180	180	178	181	181	181	177	179	178	179	178	177	178	181	178	181	178	181	180	180	181	181	177	177	178	180	179	179	179	180	179	179	178	178	180	181	178	178	177	175	175	175	174	178	175	177	176	176	176	175	174	179	182	179	175	175	177	175	175	176	176	175	176	176	175	175	175	175	171	173	174	172	173	170	170	172	174	175	178	177	176	176	176	175	171	173	174	176	177	177	177	175	175	176	175	175	175	174	174	174	174	175	175	176	173	178	170	175	175	174	172	171	171	171	172	172	174	172	177	178	175	172	171	169	171	172	172	172	170	169	168	169	170	172	172	171	169	169	170	172	172	172	171	170	171	171	170	170	170	168	174	172	172	171	171	172	169	0	0
174	174	176	176	179	177	177	177	177	177	177	174	176	179	178	177	177	177	178	178	179	179	180	181	181	181	181	181	178	177	176	177	177	176	177	178	178	177	177	178	179	179	181	181	181	181	180	178	177	177	177	179	179	179	179	179	180	180	179	179	179	179	180	180	178	178	178	177	177	179	180	180	180	180	180	183	182	182	181	181	180	180	181	181	181	181	182	182	181	180	180	180	181	182	182	181	181	181	181	180	181	181	181	181	180	178	180	181	181	182	182	180	180	181	181	181	181	180	179	179	181	184	182	183	181	180	180	181	178	181	177	181	181	181	183	185	185	184	182	181	178	179	180	183	184	183	182	181	180	177	180	181	182	181	181	180	178	181	181	180	179	178	181	179	177	178	179	182	184	184	182	181	181	184	185	182	183	184	183	182	183	183	181	180	182	182	181	186	182	185	184	181	181	181	182	182	182	181	183	183	183	183	183	182	182	182	185	182	182	182	184	183	183	180	183	183	183	184	184	184	185	185	187	187	186	186	185	186	186	186	186	185	186	185	184	185	185	183	183	182	183	183	183	185	186	185	185	185	188	187	183	182	182	183	184	183	184	183	183	183	183	183	185	182	183	184	184	184	184	186	184	184	184	184	182	182	181	184	183	182	186	187	187	184	184	183	184	185	185	186	187	186	186	188	187	186	185	187	189	185	185	185	184	185	185	184	182	184	184	187	186	188	188	186	185	186	186	182	186	183	184	184	185	185	183	184	184	182	182	182	183	183	185	186	187	185	185	184	184	185	184	185	184	184	185	185	185	185	182	182	182	182	183	183	183	183	181	181	181	182	185	185	184	183	184	184	185	185	179	181	181	180	181	180	180	181	181	182	181	182	184	184	184	183	181	181	181	181	182	186	187	185	187	186	184	182	183	182	183	183	184	179	181	182	182	183	183	183	183	183	183	182	183	183	184	184	182	182	184	185	184	184	186	184	183	184	182	183	182	183	182	182	183	184	184	182	184	183	182	180	179	180	182	184	182	181	181	181	183	184	184	181	181	182	179	180	180	183	179	179	179	180	181	181	181	178	177	177	179	179	180	182	180	180	181	182	181	180	181	179	178	179	179	178	177	180	180	178	176	177	178	177	177	176	178	178	177	176	179	177	177	176	179	179	176	178	178	179	179	178	178	179	179	179	178	177	180	177	177	176	175	173	174	175	174	176	175	174	174	175	175	173	176	180	173	179	175	174	175	175	175	174	175	176	177	178	178	175	173	171	171	173	173	172	172	173	172	170	173	173	173	174	175	175	173	172	173	173	175	176	176	176	176	175	175	174	174	174	173	173	173	174	174	175	177	172	174	171	170	173	174	173	172	172	172	172	173	173	172	174	177	174	174	172	172	171	170	170	172	171	170	170	169	171	171	172	171	171	171	170	172	172	173	173	173	169	170	170	167	169	171	167	170	172	172	172	171	169	0	0
174	177	178	178	178	177	176	176	174	176	174	176	178	177	176	174	175	175	177	178	180	180	180	180	181	181	179	179	178	177	176	176	176	177	176	177	178	177	178	178	178	179	181	181	181	180	181	179	178	177	179	179	179	179	179	179	179	176	177	179	179	179	180	180	178	177	178	178	180	180	180	179	180	180	181	180	180	180	180	180	180	180	179	178	180	181	182	180	180	179	179	180	180	179	182	182	181	180	181	181	180	180	181	180	180	178	180	181	181	180	180	180	183	183	181	180	180	179	179	179	181	180	180	179	180	179	180	179	179	178	177	181	181	181	181	185	184	182	181	181	179	179	179	182	180	182	181	180	179	179	180	181	180	180	179	179	178	179	180	179	181	178	178	181	178	180	181	183	184	184	184	180	180	180	181	182	180	183	183	182	182	183	180	180	183	183	181	181	182	184	182	180	180	180	178	181	181	183	184	184	184	183	183	183	184	184	183	182	181	181	182	182	181	180	180	181	183	184	184	183	184	185	184	184	183	184	185	185	186	186	186	185	185	185	184	184	185	183	183	182	182	183	184	185	185	185	184	184	184	184	181	183	186	184	184	182	181	182	182	182	182	182	182	182	184	184	182	184	183	185	184	186	183	183	184	184	184	184	182	182	184	185	184	183	181	182	182	184	184	187	185	187	185	186	185	186	185	185	186	186	185	185	185	185	183	182	182	182	184	183	184	187	187	186	184	184	184	183	182	182	185	184	184	183	184	184	184	182	183	182	182	182	183	183	182	181	182	182	184	183	184	185	182	182	184	185	185	184	183	180	184	185	183	183	184	183	182	182	181	181	183	184	184	184	183	183	183	183	180	182	180	180	181	181	181	181	180	182	183	183	182	183	184	184	182	179	180	181	180	182	183	184	184	184	180	180	183	182	183	182	183	182	181	183	183	184	184	184	183	183	182	182	183	185	186	180	178	181	181	182	182	183	184	183	182	181	180	180	180	180	181	182	182	183	184	183	182	182	180	178	179	180	181	183	183	181	182	182	183	182	182	180	182	181	181	179	181	183	182	183	180	181	181	182	180	182	177	178	178	179	180	180	180	179	179	180	182	181	182	179	180	180	179	178	177	180	180	177	176	177	177	177	177	177	177	175	175	176	177	175	176	176	176	178	178	174	174	175	175	178	178	177	178	177	177	177	178	176	175	175	174	174	173	172	174	174	175	174	175	174	172	172	174	175	172	180	172	175	173	174	174	174	174	174	175	176	178	175	174	171	171	173	173	173	174	176	173	172	173	173	173	172	172	173	172	171	173	173	174	174	174	175	174	173	174	174	174	172	172	172	172	173	172	172	172	171	172	171	171	171	172	172	172	171	172	172	172	171	170	169	167	168	169	170	171	171	171	172	171	172	172	172	170	169	168	170	170	170	170	171	172	172	172	172	169	171	171	169	168	168	168	167	168	169	169	168	167	167	0	0
175	177	178	178	178	174	171	172	172	173	175	178	178	175	175	174	176	176	178	178	179	180	180	180	181	180	177	177	176	176	175	176	177	177	178	177	178	177	176	176	176	176	178	181	180	179	179	178	178	177	179	179	179	179	179	177	177	174	174	176	177	177	178	178	178	179	179	179	179	179	179	177	178	179	180	179	179	179	178	179	179	177	177	176	177	178	179	179	178	178	177	177	179	179	179	180	180	180	180	180	180	179	180	180	179	180	179	180	180	180	182	183	183	183	181	180	179	179	183	182	183	181	178	178	179	177	177	178	178	179	179	178	181	180	181	179	179	180	179	179	178	177	180	181	182	182	180	180	177	177	180	181	180	180	180	179	178	179	180	180	180	179	179	178	178	179	180	181	181	182	182	182	180	179	180	180	181	182	182	180	181	181	182	179	183	182	180	181	183	180	181	182	180	179	180	181	181	183	185	184	182	182	184	183	183	183	182	183	183	181	182	182	181	179	180	179	180	182	183	184	184	181	181	182	181	182	185	186	186	186	186	185	184	183	184	183	182	181	182	180	179	183	183	185	184	183	184	184	182	185	181	180	181	185	183	182	180	182	182	183	182	183	182	182	184	184	181	181	182	186	185	185	186	184	184	183	184	184	182	183	184	183	182	182	181	180	180	182	184	184	181	184	186	183	183	185	182	181	183	184	183	185	185	185	182	182	182	184	182	184	183	185	185	184	183	183	184	184	183	182	182	180	181	182	183	184	184	185	184	181	181	183	183	182	181	181	182	182	183	184	184	184	182	182	183	185	185	185	180	181	180	179	185	183	183	182	182	180	180	180	181	184	184	183	183	181	182	182	182	180	181	180	179	184	184	183	183	182	184	182	182	183	182	180	180	180	181	182	182	181	181	182	183	181	180	180	181	183	183	183	182	182	184	183	183	183	183	183	183	181	181	182	184	183	179	178	179	180	181	182	182	183	184	183	182	179	178	179	179	179	179	180	182	181	182	182	182	182	181	178	179	180	181	181	183	180	181	182	182	182	181	180	181	181	181	182	180	181	183	183	180	180	181	183	180	179	176	179	178	179	179	179	178	178	176	176	179	182	181	180	180	179	178	177	178	179	180	178	177	176	176	175	174	172	173	175	175	177	175	176	176	176	176	175	178	176	176	175	175	176	176	176	175	175	176	175	177	177	175	175	175	174	174	174	173	174	173	173	172	172	173	174	174	170	174	173	175	174	174	172	173	173	173	173	173	175	176	175	175	172	172	173	173	174	174	176	174	174	172	171	170	172	172	173	172	172	173	172	173	173	173	173	173	173	173	174	174	172	172	172	171	174	169	170	169	170	169	169	170	171	169	169	171	171	172	172	169	173	172	168	168	169	169	170	171	171	172	173	172	171	174	172	171	167	169	169	169	170	170	171	174	173	170	169	165	164	164	167	167	170	170	169	168	166	166	166	165	166	0	0
172	176	178	178	172	171	172	174	174	176	176	176	175	174	173	174	177	175	175	177	178	180	180	180	177	178	175	174	174	175	175	175	178	178	175	174	174	175	175	174	174	175	177	180	179	179	178	178	178	178	178	178	178	178	179	177	175	174	172	174	178	178	178	178	177	178	178	178	179	178	178	176	177	177	178	179	179	177	176	178	178	178	177	177	176	177	178	179	178	177	177	177	178	179	179	179	180	180	180	179	179	179	179	180	180	180	178	179	179	180	183	183	182	178	178	181	181	181	181	182	181	178	177	177	178	175	176	177	177	178	178	178	178	177	175	180	179	179	178	178	177	177	178	181	181	182	180	179	176	178	180	180	181	181	180	180	180	178	180	180	177	177	178	180	177	176	176	176	178	180	179	180	180	179	180	181	181	180	180	179	180	180	179	180	180	177	180	180	181	180	180	178	177	180	181	181	179	181	183	183	182	182	182	183	180	185	183	182	183	184	182	182	182	182	180	178	181	182	183	183	180	180	180	180	181	180	186	185	186	185	182	183	184	180	182	181	181	181	180	179	178	179	180	183	183	182	184	184	182	179	178	178	183	182	180	180	181	182	183	184	184	182	181	182	182	182	182	180	182	183	185	185	184	183	182	182	183	182	182	183	183	184	180	181	179	179	178	179	182	182	183	182	182	179	180	179	181	183	182	182	182	182	185	184	183	182	182	184	183	182	184	184	184	181	182	180	183	183	184	182	182	183	180	181	183	184	185	183	182	182	182	183	183	182	182	181	181	182	187	185	184	183	182	181	181	182	181	179	180	180	179	179	180	179	177	177	178	180	179	179	180	182	180	181	179	181	180	181	182	182	180	180	183	182	182	182	182	182	182	183	183	181	180	180	179	179	181	182	182	182	182	182	182	180	180	179	179	181	183	182	180	182	182	183	182	183	183	183	183	181	181	180	179	182	176	176	178	179	180	181	182	182	181	180	179	180	178	179	180	179	179	179	181	182	182	181	181	180	180	180	180	180	181	181	179	180	179	179	181	180	180	179	180	181	181	181	181	181	182	180	180	180	180	180	178	177	177	179	179	179	179	177	178	178	176	175	176	177	181	180	179	179	179	179	178	177	178	179	178	178	177	175	175	176	176	177	175	175	178	177	177	176	175	175	178	177	176	176	176	174	175	175	175	173	173	174	175	177	175	175	172	175	174	176	178	177	177	176	178	175	173	174	174	172	170	173	173	174	171	171	173	174	173	171	174	174	176	176	173	171	172	176	175	175	174	177	174	173	173	172	171	172	171	172	172	171	171	171	172	170	172	172	174	172	172	172	174	172	171	170	172	171	169	169	170	170	170	168	167	167	167	167	170	171	170	168	169	168	168	168	169	169	169	169	171	171	171	173	173	171	170	168	167	169	169	170	170	169	167	172	171	171	171	170	166	166	164	164	164	166	167	168	167	167	166	165	165	166	0	0
171	174	176	172	172	171	172	173	176	176	177	176	174	174	173	174	175	174	174	175	177	178	178	178	176	175	173	172	172	173	176	176	174	175	175	174	173	175	175	174	174	174	175	175	177	178	178	178	178	177	177	177	178	177	177	176	174	171	172	173	176	176	176	177	176	176	178	178	177	176	176	176	176	177	177	179	178	176	176	174	175	177	177	176	177	178	178	178	176	176	175	175	175	178	178	178	178	178	179	179	178	177	178	180	179	179	178	178	178	179	182	180	177	177	179	179	181	181	181	179	178	177	177	175	175	176	175	175	177	177	177	177	177	176	176	181	175	178	177	175	175	177	178	179	181	180	180	177	177	177	176	179	181	181	180	179	178	177	178	179	177	177	177	177	177	177	176	177	178	179	179	180	178	178	179	179	179	177	178	179	180	180	179	181	180	178	180	178	178	178	180	179	180	181	181	181	179	179	179	182	182	182	183	179	180	181	180	183	183	183	183	182	181	181	181	183	180	182	184	182	181	180	181	180	178	184	183	184	184	184	183	182	181	180	180	181	180	180	179	178	177	178	179	179	182	181	182	182	181	180	179	181	182	179	179	179	180	180	180	181	183	182	182	179	179	176	177	179	179	183	182	183	183	183	182	183	182	181	181	178	183	181	181	179	179	177	178	179	180	182	181	182	182	180	179	180	179	181	180	180	180	181	182	179	182	181	181	184	183	182	182	180	182	182	182	181	182	182	182	184	183	182	181	181	183	180	184	182	180	180	182	182	182	184	183	183	182	185	185	186	184	180	181	180	180	180	179	179	180	181	179	177	178	176	178	176	179	176	179	181	183	182	181	181	182	181	181	182	182	181	180	179	179	178	179	180	179	181	181	182	181	181	179	179	179	180	180	182	182	183	182	181	183	182	180	180	180	178	179	180	181	180	184	183	182	181	181	185	183	180	180	178	178	177	176	178	178	179	181	178	179	179	181	179	180	180	179	179	181	182	180	181	182	180	180	179	180	180	181	180	180	180	180	178	178	178	178	179	179	178	177	178	178	181	181	181	180	181	180	180	179	178	179	180	180	178	178	179	178	177	176	175	176	176	176	176	176	178	180	179	178	177	177	178	178	178	177	177	177	176	176	177	175	177	177	177	177	178	177	176	176	175	175	174	176	177	176	175	176	175	175	175	174	174	172	173	173	173	174	174	174	174	174	176	177	176	176	176	175	174	174	173	174	173	171	170	170	173	171	172	172	174	174	172	173	175	176	175	172	173	173	175	175	173	172	173	173	172	172	172	171	169	171	169	170	170	171	171	173	172	172	171	174	174	170	170	169	170	172	170	171	170	169	171	169	169	170	168	170	170	170	171	171	170	170	168	168	168	170	169	169	169	169	167	169	170	171	172	173	170	169	169	168	167	166	166	166	166	167	167	170	170	172	171	171	166	164	164	165	165	166	168	168	167	166	165	166	166	0	0
172	172	171	171	171	169	170	173	175	175	176	175	173	173	173	173	175	173	174	174	174	176	176	176	176	172	172	171	174	174	175	175	175	174	174	174	174	174	174	175	173	173	174	173	174	176	178	176	178	177	175	175	176	177	176	176	173	171	172	173	174	176	175	175	176	177	176	177	176	175	176	176	176	177	177	178	177	176	175	172	174	175	175	177	177	178	179	175	176	178	176	176	176	175	175	177	177	179	177	173	176	176	178	180	177	177	175	176	177	180	178	178	178	178	179	179	179	178	179	177	177	177	177	176	176	177	176	175	176	177	175	175	177	177	177	178	182	181	178	177	178	179	178	178	179	180	179	179	179	177	177	178	179	178	177	178	176	177	177	176	177	176	177	178	177	177	178	179	179	178	178	178	178	176	177	178	178	177	178	179	180	180	180	180	180	181	180	178	178	176	179	179	181	182	182	179	179	179	179	179	182	183	182	180	181	179	181	182	180	179	181	181	181	181	181	183	186	187	184	184	184	182	180	181	178	181	181	185	184	183	183	182	181	181	180	180	179	179	179	178	179	179	178	177	178	179	181	178	181	179	180	180	181	180	179	179	181	181	180	180	180	181	177	181	177	178	180	178	179	181	181	181	183	182	181	181	181	180	181	178	180	180	180	179	179	180	179	181	180	181	181	180	181	180	181	180	180	179	180	180	180	179	181	178	180	180	180	183	183	181	181	181	180	180	182	179	179	179	181	181	183	182	182	183	182	181	180	180	179	180	180	181	181	183	182	183	184	184	183	182	181	179	179	179	178	179	180	181	179	180	180	180	179	177	176	178	178	179	181	182	182	182	181	181	182	181	181	182	180	179	180	181	180	178	180	179	180	180	181	182	181	178	178	180	177	179	180	180	180	181	180	181	183	182	179	178	178	179	179	180	180	180	181	182	182	180	183	180	181	183	180	178	178	176	178	178	178	179	178	179	178	179	180	180	180	180	179	179	182	178	179	179	179	177	176	176	179	179	180	180	179	178	178	178	178	179	178	178	178	178	177	177	180	179	177	177	177	179	180	179	177	178	177	180	177	179	178	179	177	176	176	174	176	176	176	176	177	177	178	177	176	175	176	177	176	177	176	176	177	175	175	176	178	177	177	176	176	177	176	176	176	174	175	174	176	178	175	175	175	175	175	175	174	172	172	172	174	173	172	172	172	174	174	175	176	179	176	176	178	174	171	173	173	170	171	170	170	169	169	169	170	175	175	173	171	169	175	173	173	171	172	174	174	173	171	171	172	171	172	171	170	167	168	170	170	170	170	171	171	172	170	169	170	173	171	170	169	170	173	170	170	169	169	170	170	170	169	169	169	170	170	169	169	170	169	168	168	168	170	170	169	169	169	169	167	168	169	171	169	168	169	168	167	166	166	166	166	166	168	166	167	171	172	168	168	167	164	164	166	164	164	163	163	166	166	166	166	166	0	0
170	170	170	169	169	169	169	170	173	175	175	174	174	173	173	172	172	173	173	173	173	173	172	171	171	172	173	173	173	173	175	175	175	175	174	174	174	173	174	174	172	172	172	172	175	174	176	174	174	173	173	174	178	178	177	177	174	173	173	175	175	175	174	174	175	176	176	176	176	175	176	176	176	176	176	176	176	174	174	174	171	172	175	175	177	177	175	175	174	175	178	176	175	175	175	175	178	178	174	173	175	175	176	175	175	177	174	175	178	175	176	180	176	176	176	177	177	175	175	176	176	177	178	175	176	175	174	176	175	176	173	173	174	175	176	177	178	178	178	177	179	179	179	179	178	179	179	179	178	177	176	176	177	178	177	176	176	176	174	174	177	177	176	177	175	177	178	179	180	179	178	178	177	177	178	178	176	179	178	176	179	179	180	180	180	180	176	175	175	176	179	180	181	181	181	179	178	178	179	180	181	181	181	179	181	179	179	179	178	177	180	178	178	177	180	183	183	183	182	178	183	178	179	180	181	182	180	181	185	182	183	181	180	180	179	179	178	178	178	178	180	181	179	178	177	181	181	183	179	180	181	181	180	179	180	180	181	181	181	181	180	179	179	180	179	179	180	180	178	178	179	179	179	180	182	181	180	179	179	178	180	180	179	179	179	179	179	182	180	180	179	180	180	181	180	180	179	180	180	179	178	180	181	180	177	180	180	180	179	180	180	180	180	180	179	180	178	178	180	180	182	181	182	183	181	179	179	176	179	179	181	181	182	181	181	182	182	181	179	179	178	179	176	177	179	179	180	182	181	181	180	179	178	176	179	177	177	181	180	181	179	180	181	182	182	182	183	180	180	180	179	180	179	176	178	177	179	179	182	182	182	182	180	180	178	178	177	178	180	180	181	181	183	182	180	180	179	177	176	180	179	180	180	179	180	180	181	179	180	181	181	178	178	177	177	178	178	179	178	179	177	178	181	179	178	179	179	179	180	177	178	178	179	176	175	175	176	180	180	180	177	177	178	178	178	180	178	178	178	178	178	177	180	180	178	176	176	177	178	180	179	178	179	178	177	177	180	175	175	176	175	175	176	176	177	177	176	176	176	175	175	176	175	175	175	175	175	176	176	174	174	175	176	176	177	177	176	176	175	174	174	174	174	173	174	175	176	176	175	174	173	174	173	173	172	172	174	172	172	172	173	173	174	177	176	175	176	179	176	176	175	173	173	171	170	170	171	171	171	169	173	172	170	169	171	171	171	174	171	171	171	173	173	173	171	171	172	170	171	170	170	169	169	167	169	169	169	170	171	171	168	169	171	172	171	170	171	173	172	171	170	170	169	168	169	167	168	169	169	169	170	170	169	169	168	167	167	167	168	169	170	169	169	169	168	167	168	168	167	167	168	167	167	167	167	166	167	166	166	168	165	164	164	164	164	164	163	164	165	166	164	164	166	164	164	165	165	166	0	0
170	171	171	168	168	169	169	169	169	173	173	173	172	172	172	172	171	171	171	172	172	174	171	171	172	172	172	172	174	175	175	175	174	175	176	174	174	173	173	173	171	172	172	173	174	174	175	174	173	173	173	173	173	178	177	175	175	174	174	175	176	175	174	174	174	175	176	175	175	175	175	176	176	175	175	176	174	174	174	174	176	176	173	176	176	180	179	175	172	172	176	173	175	173	175	176	178	176	176	173	174	174	174	175	173	173	174	177	177	175	175	174	175	176	176	176	176	175	176	176	176	175	174	176	174	176	175	174	175	175	175	173	174	174	175	177	177	177	178	176	177	177	176	177	175	174	176	177	177	176	176	176	176	174	176	173	176	174	172	172	173	176	176	176	175	175	177	178	180	181	178	178	176	176	177	175	176	177	176	177	179	176	178	179	180	179	179	178	176	177	177	180	180	180	178	179	178	178	179	179	179	181	181	181	180	181	178	178	177	176	180	181	178	177	182	182	181	180	177	179	182	179	176	178	180	180	179	180	179	180	180	182	180	179	180	177	178	178	179	179	179	179	180	178	179	179	182	179	180	180	179	177	176	178	178	180	181	180	180	180	181	180	180	180	180	180	180	181	179	180	178	178	179	179	180	183	181	179	177	179	176	179	179	178	179	178	180	181	180	179	179	179	180	180	179	180	179	177	179	178	179	178	180	180	181	179	178	178	177	178	179	178	179	178	179	178	179	180	179	179	180	181	182	183	183	179	177	179	178	180	181	182	181	181	180	180	180	179	180	178	178	174	178	179	179	179	179	182	180	180	178	178	178	177	176	177	177	177	177	177	177	176	180	181	181	180	179	180	177	177	180	180	176	175	175	175	178	179	179	181	181	181	180	180	178	177	176	176	179	179	180	180	182	180	180	179	178	176	175	180	178	178	178	179	180	181	180	180	180	179	179	178	177	177	176	176	178	179	179	176	177	180	179	178	178	178	179	178	178	178	177	178	176	175	175	175	178	178	178	177	176	176	178	179	179	179	179	178	178	178	177	177	178	179	176	176	177	177	178	180	179	179	179	177	175	176	177	179	175	174	176	175	175	175	175	174	175	175	175	174	174	175	174	174	173	173	173	174	175	173	174	174	174	173	175	175	175	174	175	174	174	173	173	173	174	175	175	175	175	175	172	172	173	172	172	172	173	172	174	174	173	172	173	177	174	173	172	173	173	173	171	171	171	171	170	170	171	169	172	172	172	172	170	170	170	172	172	171	171	170	170	170	172	171	169	169	169	170	169	171	171	171	169	169	169	169	169	169	168	166	167	168	168	169	171	170	170	171	171	171	170	169	167	166	165	167	167	168	168	167	168	169	168	168	168	168	167	167	168	169	169	169	168	168	167	167	167	168	168	167	167	167	166	166	167	166	166	167	166	166	165	165	165	164	164	162	163	166	165	165	166	166	163	163	164	166	162	162	162	0
171	172	172	170	169	169	169	170	169	169	171	171	171	173	173	173	171	170	169	171	171	170	171	171	171	171	172	173	173	174	174	174	174	174	173	173	173	174	170	171	169	172	172	172	173	172	173	173	172	172	172	172	176	177	177	175	175	174	173	175	174	175	173	172	173	173	174	175	174	173	173	171	175	173	173	174	174	174	174	174	176	176	175	176	179	179	178	173	171	170	174	173	173	173	174	175	176	176	174	174	173	173	174	173	173	172	173	177	176	175	175	174	175	175	175	176	175	176	176	174	174	174	173	174	176	176	174	175	175	174	175	173	173	173	174	175	177	177	177	177	176	175	174	178	176	174	173	177	177	176	176	176	174	173	175	175	171	171	171	172	172	174	175	176	176	177	178	178	179	178	178	174	175	175	175	173	176	177	177	173	175	175	178	180	179	179	176	177	177	176	178	178	180	178	177	175	177	178	178	178	180	179	179	180	181	181	180	178	176	176	180	178	177	179	180	179	179	178	177	177	178	174	175	178	179	180	180	179	179	180	179	179	178	178	177	177	179	179	179	178	179	179	180	179	178	178	179	180	181	180	179	176	177	177	179	178	178	179	180	179	180	181	179	179	178	179	179	180	180	177	177	179	179	178	179	180	180	179	177	179	179	176	176	178	178	177	177	180	180	177	177	179	180	180	177	177	176	176	176	178	179	179	176	177	181	180	177	177	177	179	179	178	178	179	180	179	179	181	180	179	179	180	181	182	180	180	179	177	179	178	179	179	180	179	180	180	178	178	178	178	177	172	172	179	179	179	179	179	178	176	177	177	177	176	176	177	176	176	176	177	176	177	180	177	178	176	175	176	176	176	178	179	176	176	174	175	178	179	178	178	181	180	179	179	178	176	175	175	176	177	178	179	179	179	180	179	177	176	177	180	179	179	179	179	180	179	181	179	179	178	178	176	178	176	176	177	178	178	178	176	177	181	182	178	178	178	177	178	178	176	175	175	174	175	176	176	177	175	177	176	176	176	180	178	176	177	178	179	178	176	175	177	177	177	176	176	177	176	176	177	176	178	177	176	176	177	177	176	175	174	175	175	176	174	174	175	174	174	174	172	172	172	172	173	172	172	174	173	175	175	175	175	174	173	174	174	174	175	174	173	173	173	173	174	174	173	173	174	174	172	172	172	171	168	168	171	172	172	172	174	174	171	172	171	171	169	172	172	170	170	169	171	170	169	169	170	171	172	171	170	170	170	170	170	168	171	172	171	170	170	172	170	169	167	168	168	170	170	170	172	169	171	172	169	169	168	168	169	169	166	165	165	166	167	168	170	170	171	170	168	169	168	167	166	166	166	167	168	168	167	169	168	168	167	168	168	168	168	168	168	168	168	168	168	167	167	167	167	167	167	169	168	168	165	163	166	166	166	166	165	165	165	165	165	165	164	163	162	163	165	165	164	163	163	164	165	163	163	164	0
170	171	170	170	170	170	170	170	169	168	168	168	170	172	171	170	170	170	169	170	171	171	171	170	171	171	171	172	171	170	171	171	172	173	173	173	174	174	170	170	170	172	171	171	172	173	172	173	172	170	170	170	170	176	174	174	173	173	175	174	174	171	171	171	171	171	172	173	172	172	172	170	173	173	173	173	173	174	174	174	175	177	175	175	175	174	174	171	171	171	173	173	172	173	173	174	175	175	173	173	173	173	172	173	172	171	171	173	174	176	175	174	175	175	174	173	174	175	174	174	176	175	175	176	175	175	174	175	174	173	174	173	173	173	174	175	176	177	177	176	176	176	174	174	175	176	175	176	176	177	174	174	174	174	174	174	171	171	172	171	174	176	177	176	175	175	177	176	177	175	172	172	173	172	172	173	173	174	178	174	174	174	177	177	177	176	176	176	176	178	179	178	177	175	175	176	175	178	178	178	178	178	179	180	181	181	179	178	175	176	178	178	175	178	177	175	175	177	176	175	175	175	177	179	179	180	178	178	178	179	179	179	179	180	178	178	178	177	179	179	178	178	179	179	178	179	179	179	181	179	179	176	177	177	178	177	178	178	178	178	178	178	181	181	179	178	178	178	177	177	177	178	179	175	176	177	180	178	177	178	178	176	176	176	176	178	178	179	177	176	176	177	180	176	177	176	176	176	175	177	179	178	177	176	176	179	177	176	180	177	176	179	180	181	179	179	180	180	179	180	180	180	180	180	180	176	176	175	175	175	176	177	179	176	177	177	176	178	177	177	178	173	175	175	179	179	179	178	177	177	177	177	175	175	176	177	177	177	175	177	176	176	178	177	176	177	177	175	175	174	175	178	176	175	174	174	177	177	177	176	178	177	179	178	176	179	176	174	177	178	177	178	178	180	180	178	177	175	176	178	178	176	178	178	178	178	178	179	178	175	177	176	178	175	176	176	177	176	177	176	177	179	179	179	177	176	177	176	176	176	175	175	175	176	176	176	174	175	176	176	176	175	177	177	176	177	176	176	176	176	175	175	175	175	175	176	176	176	176	176	175	175	175	175	175	176	175	174	174	174	173	177	175	175	174	174	174	175	174	171	173	173	170	171	173	172	174	175	173	173	172	171	171	171	173	173	172	171	172	173	173	173	173	173	172	172	172	174	173	171	171	170	169	169	168	170	172	170	170	172	172	172	171	169	169	171	172	172	170	169	168	169	169	169	169	169	170	170	170	170	171	169	169	168	169	170	168	171	170	168	169	170	169	167	165	165	164	168	168	171	171	169	171	168	168	167	166	167	166	164	164	166	166	167	167	167	168	167	167	168	167	167	168	169	169	166	167	166	167	166	167	168	166	167	168	168	168	168	168	168	168	165	167	166	168	169	168	166	164	165	166	166	165	163	163	163	166	165	165	165	165	165	165	166	164	164	164	163	164	163	163	166	164	164	165	165	163	163	165	0
167	169	170	170	170	170	170	170	169	168	167	169	169	172	170	171	171	170	168	169	170	170	171	170	171	171	171	172	168	169	170	172	172	171	171	173	171	171	169	168	169	170	173	172	172	172	172	171	170	169	169	169	171	172	173	173	174	172	172	174	173	172	170	172	172	172	172	172	172	171	171	171	171	172	171	171	170	171	171	171	172	173	171	170	170	172	172	171	171	172	172	173	172	171	173	175	174	173	173	172	172	172	173	173	171	172	172	172	173	174	175	174	174	174	174	173	172	172	175	174	176	175	175	175	175	176	173	173	172	171	171	171	173	173	174	174	175	176	175	176	175	175	174	175	174	178	176	174	176	176	174	173	177	174	174	172	173	171	171	171	172	176	177	175	175	175	176	177	176	174	174	173	172	173	172	173	174	175	173	173	171	175	175	175	175	176	176	175	176	178	179	179	177	175	174	175	176	178	178	177	175	176	177	177	180	180	179	173	174	173	179	176	175	174	175	175	176	177	175	177	176	176	177	179	179	179	179	177	177	178	178	178	182	181	180	179	178	177	177	178	177	179	179	177	177	178	178	176	179	179	177	176	178	178	178	178	178	179	178	178	178	181	181	180	178	177	178	178	177	178	178	178	176	176	176	177	178	176	177	178	179	180	178	176	177	177	178	176	178	176	177	177	175	178	179	178	176	176	177	179	178	178	176	176	176	176	176	175	172	176	179	174	179	176	179	179	179	179	180	179	180	181	181	180	178	177	176	175	175	175	176	177	178	175	174	175	178	179	178	178	178	174	176	175	175	176	178	176	177	174	176	175	176	176	177	177	177	178	176	175	174	174	177	176	176	177	176	177	175	176	175	174	174	174	174	174	174	175	176	175	177	176	176	177	177	178	177	175	175	175	176	175	176	178	178	177	176	173	175	176	176	176	176	178	178	177	178	177	176	175	177	177	177	176	176	176	176	173	177	177	175	177	178	178	176	174	175	176	176	175	174	175	175	175	176	175	174	173	174	175	176	174	175	177	177	176	176	176	175	176	175	175	174	173	175	175	175	176	175	174	173	173	172	173	174	174	173	174	174	172	171	171	171	172	173	173	174	175	173	171	171	175	172	171	171	171	172	174	174	173	170	169	170	170	168	169	171	172	172	171	172	173	172	172	171	172	172	173	173	173	173	170	169	169	169	169	171	170	171	172	172	170	171	172	171	170	169	171	169	169	168	169	168	168	168	169	169	169	168	168	169	171	168	168	168	169	167	166	168	166	167	166	166	167	168	165	167	169	168	168	169	169	166	166	167	167	166	165	165	163	164	166	166	167	167	167	165	164	166	166	166	167	168	168	168	168	165	165	166	165	168	167	166	166	167	167	168	165	165	165	163	163	166	167	168	169	167	167	165	164	164	165	165	163	165	163	166	164	164	164	164	164	164	165	165	164	164	163	164	164	164	165	166	165	165	165	165	164	162	0
167	168	169	170	170	170	169	169	169	168	165	167	167	170	169	169	166	166	168	166	168	168	168	168	169	169	168	168	168	170	170	170	170	169	170	170	169	169	169	168	170	171	171	172	172	172	172	169	170	169	170	170	168	169	173	171	171	171	171	172	172	172	171	171	171	172	171	171	170	170	171	170	170	171	171	169	169	170	170	171	172	170	171	170	170	172	172	172	171	172	173	173	173	172	173	175	175	174	173	172	171	173	173	172	172	173	172	172	172	173	174	174	174	172	171	170	170	171	171	173	173	176	176	175	176	171	173	170	171	171	172	171	171	171	173	174	174	175	172	176	172	174	172	173	175	176	173	174	174	173	174	173	175	176	174	174	173	171	171	170	171	171	171	172	174	174	175	175	175	175	174	175	173	174	173	173	174	175	175	173	174	173	174	174	176	175	176	175	175	174	174	175	175	175	175	175	176	178	178	177	175	174	176	176	178	178	178	174	175	177	175	176	176	175	176	176	176	177	178	176	176	177	177	178	179	178	178	178	177	177	177	177	177	178	179	179	178	177	176	176	177	178	178	176	177	177	175	176	177	177	177	177	178	178	176	177	177	178	178	178	178	181	179	178	177	177	177	176	177	177	178	178	177	177	177	176	175	174	175	174	178	178	180	180	176	175	176	175	175	174	174	176	176	179	178	178	176	179	180	180	179	178	177	178	176	175	175	174	175	177	174	175	176	175	176	176	179	177	180	178	181	181	180	179	179	177	175	174	174	174	176	177	176	175	173	175	176	180	177	177	174	174	176	175	175	175	176	176	176	175	175	176	176	175	176	177	176	177	175	174	174	174	176	175	175	175	176	175	178	176	176	175	175	174	173	173	174	175	176	176	177	176	176	177	177	177	175	176	175	175	176	174	173	174	176	176	176	176	176	175	175	175	175	176	177	176	177	176	175	175	175	175	175	176	176	175	175	173	173	177	175	175	174	176	175	174	173	176	177	174	174	173	175	174	176	175	174	173	173	173	173	173	175	177	176	170	176	173	172	172	173	174	174	174	173	173	174	176	176	176	174	172	173	173	172	173	173	173	174	171	170	170	170	170	171	172	172	172	170	172	172	172	171	171	173	171	172	175	173	171	171	170	171	169	169	170	170	172	171	172	170	172	170	169	169	170	172	172	171	173	171	170	168	168	169	170	170	169	168	170	171	170	168	168	169	168	169	169	170	168	168	167	167	167	168	167	168	169	169	168	169	168	169	168	168	166	167	166	166	166	165	166	166	166	165	167	167	169	169	169	168	167	165	164	165	167	166	165	164	165	165	167	167	167	166	165	163	164	165	166	166	166	166	165	168	168	166	166	167	167	166	167	167	165	164	163	163	163	163	163	162	163	164	167	168	167	166	164	164	163	163	165	165	165	163	163	161	161	161	161	162	162	163	163	163	162	163	161	163	163	163	164	165	165	165	164	164	163	163	0
166	168	169	170	170	171	171	169	169	168	164	166	168	168	168	166	166	166	165	164	165	168	168	168	168	167	166	166	167	171	171	170	168	168	168	169	168	168	168	168	168	171	172	170	171	171	169	169	169	171	170	168	168	167	170	171	171	170	168	168	168	171	169	169	170	169	170	170	170	171	169	170	168	168	170	169	169	169	169	171	170	171	170	171	169	172	172	172	172	171	172	172	174	172	173	174	174	175	172	171	171	169	174	174	173	173	172	171	170	172	173	173	172	171	171	170	170	171	170	172	172	173	176	171	171	168	170	170	170	171	171	173	171	170	173	172	174	174	174	172	171	171	171	173	175	175	173	173	172	173	173	170	176	176	175	175	175	171	171	171	171	172	171	172	171	173	173	174	175	174	173	175	173	174	172	175	176	174	174	174	175	175	174	177	174	176	175	175	175	175	174	175	175	175	175	175	174	178	178	177	174	174	175	175	177	178	178	178	178	177	175	176	176	174	176	177	178	176	176	175	174	173	173	176	177	177	177	177	176	174	174	174	175	177	177	179	178	177	176	176	177	179	176	175	174	171	173	178	177	177	177	176	178	178	177	177	176	176	174	177	179	179	179	178	175	175	175	175	175	175	176	175	175	175	175	174	174	175	175	173	178	178	179	180	179	179	179	177	175	174	174	176	177	176	176	176	176	177	180	179	178	176	176	177	178	176	174	174	176	174	175	174	174	174	173	174	176	177	177	177	177	177	177	178	177	176	174	175	174	175	177	176	175	175	174	174	176	177	175	175	174	175	176	176	175	174	175	176	175	174	175	176	176	175	175	177	175	175	173	176	175	173	175	173	174	175	175	175	176	175	174	175	174	175	174	175	176	176	177	177	177	176	175	176	177	177	176	175	175	175	174	174	174	174	175	175	175	176	176	175	175	175	175	175	175	176	176	176	176	174	175	174	174	174	174	175	174	172	174	175	174	175	177	176	176	175	175	174	174	175	174	174	174	175	175	175	174	174	174	174	173	173	174	176	175	173	174	173	172	171	173	173	172	173	173	172	174	175	174	173	172	172	175	172	172	171	173	172	173	171	171	170	169	169	169	171	171	170	171	172	172	172	171	172	173	172	172	172	174	171	170	171	168	168	168	168	170	170	173	171	169	169	170	171	169	170	170	170	171	171	170	169	168	169	170	170	170	169	167	168	170	167	167	167	168	167	168	170	170	170	170	167	167	166	165	166	167	166	168	168	169	169	168	167	167	167	167	165	166	168	167	166	166	167	165	164	166	168	169	169	168	167	164	163	164	165	164	164	164	164	166	167	167	166	165	165	164	166	165	165	165	165	165	165	166	168	166	166	166	167	166	167	166	165	164	163	162	162	163	162	162	162	163	165	167	167	165	164	163	163	163	164	162	164	163	163	162	160	162	162	160	161	162	162	161	162	160	163	161	163	163	163	163	164	164	164	163	163	163	0
169	168	169	171	171	171	171	169	165	165	164	166	168	168	167	167	166	166	166	164	169	168	167	167	168	168	169	171	171	171	169	169	167	167	167	168	167	166	166	166	167	169	170	169	169	169	169	169	170	169	169	167	167	167	168	169	170	170	168	166	166	166	169	168	168	168	169	170	170	170	170	168	168	168	170	169	168	168	168	169	170	171	172	173	171	171	171	172	171	171	170	172	171	171	172	172	173	174	174	171	170	171	172	174	174	174	169	168	170	172	174	172	172	170	169	168	168	173	173	170	172	175	176	171	171	170	168	170	171	171	171	169	170	172	173	173	173	172	173	173	170	170	171	172	172	175	173	173	172	172	172	173	170	172	175	174	175	171	171	171	171	173	172	172	172	172	172	173	174	175	174	175	172	175	172	174	175	175	174	175	175	175	176	177	176	173	176	175	175	176	177	175	177	174	175	174	175	176	177	175	175	173	175	175	175	178	176	175	174	174	174	174	173	173	173	172	173	175	177	176	175	175	176	176	176	176	177	177	174	174	175	174	173	175	173	174	176	176	176	175	176	177	174	174	174	174	175	177	178	176	177	176	176	177	177	176	176	174	175	177	177	177	178	177	176	176	175	174	174	174	173	174	175	174	175	174	174	175	172	176	177	176	178	178	179	179	179	177	176	176	176	176	176	177	175	176	174	175	178	177	177	176	176	175	177	176	176	175	176	174	175	176	175	174	174	174	174	176	176	176	175	175	176	176	176	176	174	173	173	173	175	174	174	174	174	174	174	175	175	173	173	176	176	176	175	174	176	177	177	175	175	176	176	176	176	178	175	175	175	174	175	174	175	173	172	172	173	173	175	174	174	174	173	173	175	176	175	175	176	176	176	176	175	176	176	177	176	175	175	175	174	173	173	174	176	175	176	176	176	176	174	176	176	174	174	176	176	175	175	174	177	177	177	175	175	175	173	173	174	174	174	175	177	176	175	176	173	173	174	174	175	175	174	173	174	174	174	173	174	174	174	174	173	175	174	175	175	173	171	175	173	174	173	174	173	173	173	174	173	173	173	173	175	172	171	172	172	172	171	171	171	171	169	169	169	169	170	170	171	172	173	172	171	171	172	171	172	172	173	172	169	167	168	169	168	171	171	170	171	170	170	170	168	168	170	170	171	170	170	169	170	169	168	169	168	170	170	168	167	166	167	167	167	167	167	167	169	170	170	169	167	167	167	166	165	167	166	166	167	167	168	168	170	168	169	168	165	166	167	167	167	167	165	164	162	166	167	167	168	168	167	165	162	163	164	165	164	164	165	166	166	166	166	166	166	165	166	163	164	165	165	165	164	163	165	165	167	166	166	165	165	165	164	165	164	162	162	160	160	162	162	162	163	164	165	165	165	162	162	162	162	163	163	162	163	163	164	163	163	162	161	161	161	161	162	160	160	160	161	163	162	162	162	162	162	162	163	162	163	0
169	169	169	169	171	171	169	165	163	163	165	166	167	167	167	166	166	167	167	168	169	169	167	167	167	167	169	172	172	172	169	167	167	167	167	166	165	166	167	167	167	167	166	167	168	168	168	168	169	169	167	167	168	168	167	170	171	169	166	166	166	166	166	168	167	167	168	169	169	169	169	167	167	167	170	168	167	167	167	168	169	170	171	171	172	171	171	171	169	170	168	166	168	169	170	171	170	170	173	172	168	173	172	172	171	171	168	167	168	172	172	171	171	169	169	168	169	171	169	170	174	171	171	171	170	170	170	170	169	168	170	170	171	171	172	172	172	174	175	174	173	170	171	172	172	173	172	171	172	173	173	170	169	170	172	172	173	173	172	172	172	172	173	172	172	172	171	172	171	171	174	173	171	171	175	176	176	175	175	175	174	173	172	175	173	172	171	170	174	176	177	176	177	174	175	174	173	174	174	175	176	176	175	175	175	175	175	174	171	172	174	174	172	170	170	171	173	176	177	177	175	173	174	176	176	176	176	175	174	175	174	175	175	175	173	175	174	174	175	176	176	174	174	174	173	175	176	177	177	176	176	175	175	175	176	177	177	176	174	176	176	172	177	176	174	175	174	174	174	174	173	174	174	174	173	174	175	176	177	176	175	175	175	175	176	176	176	176	176	177	177	174	175	176	175	176	176	175	176	175	175	176	176	177	177	177	176	176	175	175	175	176	176	176	174	174	174	176	175	175	174	174	174	175	175	176	175	174	174	175	176	176	174	174	174	174	174	176	176	174	174	174	174	174	173	174	175	175	175	173	173	173	175	176	177	177	175	174	176	174	175	175	175	173	172	172	173	174	173	174	176	175	175	175	176	175	175	175	175	175	175	175	175	174	172	175	176	175	175	175	174	173	173	173	173	175	176	176	176	174	174	173	174	174	174	175	175	174	174	175	176	177	176	175	175	175	174	172	172	173	173	174	173	175	174	170	172	174	174	175	175	174	173	170	171	173	173	174	174	173	175	173	172	172	173	175	175	172	171	172	175	173	175	174	173	173	173	173	172	173	172	172	174	171	174	173	171	171	171	170	170	170	170	168	169	167	170	171	171	173	172	172	171	171	171	170	171	171	172	172	170	169	167	169	172	172	173	174	171	171	171	170	168	168	168	170	170	169	169	169	169	169	170	170	168	169	170	170	167	166	167	167	167	167	167	168	169	169	169	167	166	165	168	166	165	165	165	166	167	167	168	169	170	168	168	167	168	167	167	166	167	165	164	163	165	165	166	166	166	165	165	165	165	161	165	162	163	164	164	166	166	165	165	165	166	166	166	163	162	162	163	165	163	162	163	165	165	164	164	164	165	165	164	164	163	163	161	160	160	161	162	163	162	162	163	164	164	164	162	163	162	162	163	162	164	163	164	164	162	162	161	161	162	163	160	161	160	160	160	162	160	160	161	162	162	163	161	161	161	0
168	168	168	169	170	170	168	165	163	164	164	166	166	166	166	166	167	167	168	168	168	169	170	168	168	166	169	171	171	171	168	165	166	166	166	165	166	166	167	168	168	166	165	166	166	168	168	168	168	169	169	169	172	172	169	168	167	166	166	166	167	167	167	168	168	168	167	168	167	167	168	167	166	167	168	167	167	168	169	169	168	170	171	171	171	172	172	171	171	168	166	169	169	171	171	171	169	170	171	168	168	167	171	170	171	168	168	167	168	171	172	171	171	171	170	170	169	169	168	170	173	171	171	172	170	169	169	168	170	168	170	169	170	170	171	171	171	173	172	175	174	172	171	171	172	171	170	172	172	173	172	170	169	169	170	170	170	172	172	171	172	172	172	172	172	172	171	170	171	171	172	173	172	167	169	174	175	176	175	176	172	171	173	172	170	170	172	170	173	173	175	176	177	176	175	174	173	173	173	173	174	174	173	173	174	174	173	173	172	172	173	172	171	171	171	168	173	173	174	176	175	172	173	175	175	174	175	176	173	174	176	176	176	176	174	174	173	173	174	174	174	174	175	174	174	174	175	177	176	176	175	175	175	175	177	177	176	175	173	174	173	173	172	172	173	173	173	173	177	172	172	173	175	173	173	174	174	175	176	176	175	175	176	175	175	175	176	175	176	177	177	174	175	176	175	175	175	175	175	173	174	175	176	176	177	176	175	174	173	174	176	176	176	174	174	173	173	176	175	176	176	174	174	173	173	176	177	176	175	174	177	175	174	178	176	175	174	175	175	175	173	170	173	173	173	174	174	175	174	172	172	174	175	176	175	176	176	173	173	172	173	174	173	173	172	172	172	174	174	175	172	175	172	174	174	174	173	172	174	173	174	173	174	173	171	173	175	175	174	175	175	173	174	172	173	173	174	174	173	173	173	173	173	173	173	174	174	174	175	175	176	176	176	174	175	171	171	170	170	170	170	173	173	170	171	171	172	174	174	175	174	173	171	170	171	171	173	174	174	172	172	171	172	169	173	172	172	171	171	171	172	171	172	172	173	173	173	172	173	173	173	171	171	171	175	174	171	171	170	170	170	170	170	170	167	167	167	170	171	171	172	172	171	170	170	171	170	171	172	173	172	170	168	168	171	172	172	172	171	171	169	169	168	171	168	167	168	167	167	169	168	169	168	169	168	168	168	168	168	168	167	167	168	167	167	169	168	168	167	165	164	166	167	164	167	164	164	165	167	167	168	168	170	167	168	166	167	167	167	166	165	164	164	166	164	165	164	161	163	165	164	164	164	162	162	163	163	164	164	165	165	163	164	164	165	164	164	163	163	162	162	160	162	161	163	165	164	163	164	164	165	166	165	165	165	162	162	159	160	163	162	162	163	163	163	162	163	163	160	162	162	162	160	162	160	160	163	163	162	162	161	161	161	161	161	161	161	162	162	162	160	161	162	162	160	161	160	161	161	0
167	167	167	169	167	167	167	163	164	164	164	165	166	166	165	165	165	168	168	168	168	168	169	167	167	166	165	168	168	168	167	165	165	166	165	165	165	165	166	167	166	166	163	166	166	168	168	168	168	169	170	171	172	166	166	164	167	167	166	169	168	168	168	170	168	166	167	167	167	167	167	166	167	167	168	167	167	167	168	170	170	170	168	171	170	171	172	170	169	170	169	169	169	171	171	171	169	167	169	168	167	169	168	169	167	167	167	168	171	171	170	170	170	171	171	168	169	168	168	169	172	172	172	172	170	169	171	169	171	172	169	169	169	169	171	171	171	169	171	174	172	171	170	171	170	169	170	172	173	173	170	169	169	169	170	170	170	173	172	171	170	171	171	171	171	171	171	170	171	171	173	173	169	166	169	172	172	175	173	175	174	170	173	169	170	171	170	171	171	173	174	175	177	175	175	173	172	172	172	173	173	173	173	174	174	174	172	171	170	173	171	172	170	172	170	170	174	172	173	176	172	172	171	171	172	173	172	175	177	175	173	174	175	174	173	174	173	172	172	173	171	173	174	175	174	174	175	176	176	175	174	175	174	174	176	174	175	175	174	171	173	173	173	173	173	173	173	172	171	172	172	173	174	174	172	173	174	173	172	172	174	175	176	175	175	173	174	174	175	177	178	177	176	175	175	176	173	173	174	175	173	176	176	177	176	176	175	174	175	175	176	176	175	175	173	172	172	175	176	175	174	174	172	172	173	175	176	176	175	174	174	174	177	175	174	175	174	175	175	175	169	173	168	172	173	175	175	174	172	172	173	174	172	173	175	175	176	174	172	173	173	173	172	172	172	170	170	171	175	175	174	174	172	172	172	171	169	171	172	173	172	170	171	170	172	172	172	173	175	174	176	174	173	173	173	172	172	172	173	173	174	173	173	172	172	173	173	174	175	175	174	175	175	174	172	171	168	170	170	169	171	170	171	171	171	171	173	173	174	174	173	172	171	171	172	173	176	174	173	173	172	172	170	170	170	171	171	171	170	171	171	170	171	172	172	172	172	173	172	172	172	171	169	170	174	174	171	170	170	169	169	170	170	170	169	167	168	168	170	170	171	170	168	169	168	170	170	168	167	169	171	170	170	169	168	168	169	171	171	171	169	172	169	169	169	167	168	168	165	166	169	168	168	168	168	168	168	168	168	168	169	168	169	168	167	167	168	168	166	165	163	163	164	162	163	164	164	165	166	166	166	166	167	168	166	163	164	165	165	166	165	163	163	165	160	161	161	161	162	163	161	164	161	162	162	163	162	163	163	163	164	163	163	163	164	163	163	162	162	162	161	160	159	157	162	163	164	164	163	164	164	165	164	164	164	164	161	161	163	163	163	162	161	162	162	161	161	159	161	162	160	161	161	160	160	160	160	160	159	159	161	160	160	160	162	161	162	162	162	162	162	162	162	161	161	161	160	160	160	160
168	166	166	168	167	167	167	166	163	164	164	164	166	166	166	166	165	165	167	168	168	169	169	167	165	165	166	166	166	165	165	165	165	165	164	164	164	165	165	165	166	166	163	165	166	168	168	167	167	166	169	169	167	166	164	164	163	164	167	167	168	169	169	169	170	166	167	167	165	166	167	167	167	167	168	167	167	167	168	168	168	168	168	167	168	171	171	169	168	169	170	169	168	167	167	166	169	167	169	169	169	169	168	167	167	168	168	170	170	170	169	170	170	171	171	170	168	167	167	167	170	171	171	169	170	170	170	170	171	171	172	171	168	168	170	171	171	171	171	171	170	170	169	167	167	168	169	170	171	172	169	169	169	169	169	169	170	170	170	170	170	170	170	169	168	169	169	170	171	172	171	171	167	166	168	170	171	173	171	171	169	169	169	170	171	171	171	170	171	172	173	172	170	172	171	172	172	171	169	170	173	172	172	173	173	173	171	168	171	173	169	170	170	171	170	172	173	176	176	171	171	171	170	171	173	174	174	172	172	172	172	173	173	173	174	173	171	171	171	171	172	172	171	174	173	174	175	176	176	174	172	173	173	173	172	172	173	174	172	172	173	174	174	174	173	172	172	172	171	171	171	172	174	174	172	172	173	172	171	171	172	174	175	175	174	173	174	173	174	174	173	174	173	172	172	174	174	174	175	174	173	175	176	176	176	177	176	173	175	175	175	178	176	175	173	172	172	172	175	174	175	174	174	172	174	174	174	175	178	175	173	173	174	173	175	175	175	174	174	169	169	168	167	172	175	176	175	173	174	174	174	171	171	176	175	175	174	174	172	172	172	173	171	171	172	171	170	172	169	169	171	170	169	167	167	166	168	171	172	172	172	169	171	170	172	172	172	172	174	175	176	172	171	172	172	172	171	172	172	173	173	174	172	172	172	173	174	174	174	174	173	173	173	172	172	170	169	169	169	169	170	171	171	171	172	171	171	173	173	173	173	171	171	172	173	173	173	172	171	170	169	169	168	168	170	166	166	167	169	170	169	170	171	172	172	173	173	172	172	172	172	170	171	170	170	171	171	170	170	169	169	171	171	172	172	170	168	168	168	170	171	171	169	166	170	168	169	167	167	167	169	168	168	168	168	168	168	168	168	168	169	170	173	172	170	169	171	171	166	167	166	167	166	166	168	168	168	169	169	167	167	168	168	167	167	168	168	168	167	168	168	168	167	164	163	164	161	163	164	165	165	165	167	167	165	164	165	165	165	165	165	163	160	158	166	161	160	161	162	164	162	162	161	161	162	163	161	162	162	163	163	162	161	162	162	162	162	161	161	162	162	160	159	159	159	163	163	163	162	162	163	164	164	162	162	160	159	161	163	162	161	160	160	159	159	159	159	159	160	160	161	160	161	160	160	160	158	159	159	158	160	158	160	159	159	162	162	161	160	159	158	159	159	158	159	159	160	160	160	160
168	167	166	166	165	167	167	167	164	162	161	161	164	167	166	166	166	166	167	166	166	167	167	167	166	166	166	169	166	166	166	166	166	165	165	165	165	165	165	168	168	165	165	167	168	167	167	167	167	166	166	166	169	165	164	164	164	166	166	166	167	168	168	168	167	166	165	164	165	163	168	168	168	169	168	167	167	167	166	166	167	167	167	167	168	169	169	168	169	168	168	168	166	166	166	167	168	169	169	169	168	167	167	167	168	168	167	170	167	167	168	170	171	170	169	168	168	166	165	166	166	169	169	169	169	169	169	169	171	170	171	171	168	168	170	170	173	171	170	170	170	169	168	167	169	167	167	168	169	169	169	168	169	169	168	168	169	169	169	169	169	169	169	169	167	167	168	170	171	170	170	170	173	172	170	169	169	168	168	170	169	169	169	170	171	171	169	171	171	172	167	167	170	170	169	171	174	172	171	171	172	170	170	170	170	170	168	168	171	169	170	171	170	170	170	172	172	174	176	172	169	169	170	170	174	175	173	172	173	172	173	169	171	172	173	172	171	172	170	171	171	172	170	169	171	172	173	174	173	173	171	171	172	173	172	171	173	171	172	170	171	171	171	173	172	170	170	172	171	171	172	175	174	173	171	171	172	171	172	173	172	174	174	172	172	172	173	173	173	172	173	168	172	170	171	173	174	174	175	174	172	173	173	173	171	172	172	173	172	173	177	173	177	176	175	175	172	173	174	175	174	175	175	173	173	173	173	173	173	170	170	173	173	172	173	173	175	175	174	173	172	176	173	173	172	171	173	174	174	174	171	171	170	170	167	168	173	173	173	173	173	171	170	171	171	172	173	172	173	169	169	170	169	167	167	170	171	171	171	172	171	171	171	173	172	172	171	172	173	174	173	171	171	171	172	171	171	170	171	172	172	172	174	171	171	173	173	173	171	172	172	171	173	171	170	170	169	169	169	171	171	170	170	172	171	171	170	171	171	172	171	171	171	173	174	173	172	172	170	170	169	169	169	167	167	166	168	172	171	171	169	168	171	173	173	172	171	172	170	172	172	171	169	169	169	168	169	168	171	171	170	169	168	172	172	170	169	168	167	168	170	167	167	165	166	168	169	166	166	167	167	167	167	167	167	168	168	168	168	168	168	170	171	169	167	168	170	171	170	167	166	167	166	166	166	168	167	167	166	167	167	166	166	166	165	166	165	166	167	166	168	168	167	165	163	162	163	163	163	164	163	163	163	163	163	163	165	165	165	163	162	161	159	160	160	161	160	163	163	163	162	161	161	162	164	163	162	162	162	163	162	162	162	160	160	161	160	160	162	161	162	160	158	159	159	161	163	162	162	162	163	163	162	161	157	157	158	160	163	163	161	160	158	158	158	158	159	159	159	158	158	159	160	160	160	158	157	159	160	160	160	158	160	160	159	162	161	160	158	158	157	157	156	156	157	159	159	158	158	158
167	165	164	164	165	165	167	165	162	159	160	162	162	164	166	165	165	166	167	165	166	166	165	166	163	166	166	169	167	167	166	166	166	165	165	166	167	167	167	168	168	168	167	167	167	167	167	167	165	165	165	167	167	166	164	168	168	166	166	166	167	167	167	166	166	166	163	162	163	162	167	167	167	169	169	167	167	166	166	165	163	167	167	167	167	168	169	168	167	167	166	166	167	167	167	168	167	166	168	166	166	166	165	166	166	167	168	166	167	168	168	170	171	169	170	169	168	167	166	166	166	169	167	167	166	165	167	167	169	167	171	169	168	167	165	170	173	171	170	168	168	169	170	169	169	168	167	168	168	168	168	168	168	168	168	168	168	169	168	169	169	169	167	167	168	168	173	172	171	171	170	173	172	171	171	170	169	167	168	171	169	170	169	170	172	169	168	169	168	167	166	166	170	170	170	172	172	172	171	171	170	170	169	169	170	170	169	170	172	170	170	171	170	168	168	170	171	172	170	169	167	168	169	171	174	175	173	171	172	172	173	172	169	170	170	171	171	171	170	170	171	170	170	170	171	171	174	173	172	172	170	171	171	171	171	172	172	172	171	173	171	171	169	170	171	169	169	170	172	171	170	171	173	170	172	171	171	171	172	172	172	173	172	172	172	172	172	173	173	172	172	170	168	170	171	173	175	174	174	173	172	173	173	173	171	171	172	172	172	172	173	173	174	174	173	172	172	174	173	172	173	172	174	174	173	173	173	173	171	171	170	173	172	172	173	173	174	175	174	173	173	172	171	170	172	172	173	173	173	173	171	170	170	168	168	169	171	172	173	173	172	171	171	171	171	171	173	171	169	169	170	170	169	169	169	171	174	172	171	170	171	171	173	171	172	171	172	172	172	173	170	170	170	171	172	172	171	169	170	172	172	172	174	173	171	172	172	169	168	167	172	171	172	171	170	168	169	170	171	171	170	169	168	170	170	170	171	171	170	171	170	170	171	172	173	172	171	172	173	171	170	168	168	168	166	167	169	172	171	171	168	170	169	172	173	169	171	170	171	171	171	170	169	167	168	168	168	168	171	170	170	169	168	171	170	170	169	168	166	168	168	169	168	166	166	167	168	168	169	168	166	165	166	168	168	168	167	167	168	168	168	170	170	170	169	168	168	168	167	166	168	167	166	167	165	165	165	164	165	166	166	167	166	165	164	165	165	166	166	167	168	168	166	164	164	166	164	165	164	163	163	161	161	160	160	160	164	164	164	165	162	160	160	161	160	160	162	162	162	163	162	161	161	162	164	163	163	162	162	162	164	160	160	160	160	160	160	162	163	161	161	158	158	158	161	162	161	162	163	162	162	162	161	160	157	157	157	156	163	161	161	159	158	158	158	158	159	159	158	158	158	159	158	158	158	158	159	160	160	160	160	160	160	160	160	162	160	158	158	157	157	156	155	155	155	157	156	156	156	156
