321	320	320	319	321	323	327	327	327	328	328	330	332	332	329	330	328	326	326	325	324	326	328	335	335	338	338	337	336	335	334	334	329	327	326	324	324	325	328	328	333	329	331	331	333	334	337	337	333	328	329	330	330	328	321	321	322	322	324	327	330	329	327	326	324	322	319	316	318	318	321	323	322	320	320	317	314	313	314	316	316	317	317	319	319	319	317	316	315	316	321	323	323	322	322	319	319	318	321	325	329	328	325	323	318	314	317	318	319	317	315	314	314	314	315	315	316	316	315	315	317	318	319	318	322	324	321	317	316	317	318	319	314	310	308	307	312	317	319	312	313	318	318	316	315	316	315	315	315	316	316	315	313	311	311	320	322	319	317	315	316	317	317	315	313	310	310	313	314	315	318	316	317	317	316	318	319	316	314	310	308	307	307	308	307	305	307	309	309	310	309	306	313	311	310	309	312	315	314	310	309	312	305	310	311	311	307	305	310	312	308	306	302	299	299	304	307	311	312	311	311	314	309	310	312	311	310	308	303	305	304	306	310	308	306	304	303	303	306	307	308	312	316	309	306	307	308	309	309	309	309	309	309	307	306	303	302	303	300	302	305	306	307	310	305	305	304	303	304	306	307	308	309	304	305	307	308	307	306	308	303	308	309	314	314	312	309	309	308	305	304	306	307	307	309	310	309	306	306	308	307	303	302	302	301	302	303	303	304	307	308	307	307	307	307	305	305	304	303	302	303	303	303	303	307	308	309	311	308	308	308	305	300	299	302	302	300	302	303	305	305	303	301	302	301	301	302	301	301	300	300	302	304	305	305	306	306	307	308	302	300	300	300	301	303	308	305	304	304	305	306	305	303	300	300	302	304	308	306	304	303	304	304	302	305	303	301	299	301	296	294	296	302	300	301	301	302	303	304	304	303	303	304	305	305	305	300	301	303	302	302	301	304	305	303	303	298	296	293	294	297	303	303	303	302	301	300	300	299	297	294	299	300	299	300	302	302	303	300	302	303	304	301	301	301	301	303	304	304	301	302	302	302	304	305	303	303	302	303	306	305	303	301	299	294	292	294	296	300	302	298	297	297	296	300	300	297	297	299	299	293	295	294	293	294	301	299	299	298	296	298	302	300	303	301	303	303	302	302	300	299	298	295	293	291	291	291	292	293	293	293	297	297	295	294	295	294	302	301	299	297	298	299	301	299	292	292	292	294	295	300	304	304	305	304	301	301	302	302	302	300	297	299	298	298	294	292	294	294	295	301	300	296	292	291	294	292	298	297	294	295	295	295	296	296	295	292	292	294	294	295	302	299	295	294	293	291	292	292	298	299	297	298	297	290	290	290	290	291	296	298	298	297	295	296	298	300	297	295	295	295	295	298	298	298	298	299	298	297	296	296	296	299	299	297	297	295	296	295	295	294	295	296	296	296	297	298	299	300	300	299	297	296	0	0	0	0	0	0	0
315	313	313	315	317	320	321	321	323	324	324	327	327	327	330	329	328	327	325	325	326	329	334	335	336	336	338	336	333	329	327	327	326	326	326	325	325	324	328	328	328	320	317	315	314	315	318	322	322	327	327	327	325	318	317	316	318	320	320	322	325	326	325	324	322	322	321	318	319	319	319	319	320	320	319	316	313	311	308	308	310	314	313	313	317	316	314	312	313	316	321	322	322	321	315	315	314	317	317	315	316	316	320	316	315	314	315	319	320	317	313	312	311	312	312	312	312	311	314	316	317	316	316	314	320	323	318	316	317	318	318	312	308	308	310	308	309	312	311	308	308	313	319	317	312	312	311	311	315	315	314	311	311	310	310	318	318	314	316	316	317	313	315	313	308	307	307	308	309	314	317	316	314	312	312	312	313	313	312	310	309	307	311	308	306	305	304	306	307	306	305	304	313	312	310	310	308	304	305	306	308	303	298	299	302	303	305	305	306	304	300	299	298	302	305	305	305	309	307	306	303	304	304	303	298	308	306	305	301	302	302	303	304	304	304	301	298	299	299	305	306	307	306	304	305	302	306	307	308	307	307	306	306	305	304	301	300	300	301	302	303	303	302	303	307	309	304	307	306	306	306	307	305	302	307	306	305	302	303	303	301	304	307	311	315	313	306	304	301	300	301	301	304	306	310	309	305	302	303	306	305	303	302	300	299	299	301	305	301	303	306	303	304	305	306	306	304	301	301	303	303	303	302	303	305	305	309	307	301	300	302	303	298	296	297	299	300	300	301	301	301	300	300	299	300	300	301	300	298	299	299	299	300	300	299	299	303	304	305	301	299	299	301	299	301	304	305	302	302	304	304	304	300	299	299	301	303	304	302	300	298	298	301	304	296	295	298	298	296	293	295	299	296	301	301	302	303	304	305	304	302	302	302	301	302	297	298	297	299	300	297	299	301	293	297	300	295	293	290	294	296	299	300	299	298	297	300	298	297	295	292	296	298	295	299	296	298	299	300	301	302	302	301	299	297	298	298	300	299	298	299	299	296	296	301	301	302	302	302	304	304	295	291	292	291	291	293	290	288	297	296	296	295	294	297	296	295	295	296	296	295	289	288	293	295	297	296	291	290	290	293	294	292	293	294	293	293	294	298	299	297	291	293	293	289	289	288	287	288	290	290	288	293	294	293	293	291	290	298	295	292	293	294	294	292	292	290	290	290	290	296	296	302	303	302	300	299	295	295	292	296	294	296	295	291	291	293	292	292	293	298	298	294	291	288	286	296	298	293	293	289	287	292	290	291	290	290	289	291	290	292	293	292	289	286	287	287	288	290	294	294	296	297	296	296	293	289	288	290	293	294	296	295	291	292	293	295	292	291	289	290	292	295	296	293	293	293	295	294	294	294	294	296	295	293	293	292	295	294	295	294	293	295	291	291	292	294	293	293	294	294	295	296	0	0	0	0	0	0	0
312	312	313	313	315	318	317	318	318	320	321	321	322	322	327	332	329	321	321	321	322	327	331	330	327	327	328	328	326	322	318	316	316	317	321	327	329	330	330	330	320	319	315	311	310	312	315	316	316	318	324	321	319	315	315	315	316	317	317	319	322	322	321	320	319	322	322	321	320	316	316	317	317	317	317	313	311	306	305	304	308	312	314	318	315	309	310	312	314	314	318	321	319	312	311	311	311	311	312	315	315	311	309	311	312	313	316	322	321	319	312	312	312	310	311	312	311	310	313	317	317	313	312	310	312	317	317	317	317	312	308	306	308	309	310	305	304	305	306	307	308	309	309	309	309	308	309	309	310	306	307	309	310	312	310	308	304	302	305	307	308	311	311	313	313	312	310	306	306	305	299	306	308	309	311	307	313	310	307	307	307	308	312	311	314	307	306	305	303	302	296	297	307	310	309	307	305	304	306	309	310	309	308	303	302	303	301	299	298	297	295	298	304	301	303	303	304	304	301	303	302	302	302	302	298	299	298	297	302	301	300	301	301	302	302	298	296	294	300	303	305	304	303	301	299	298	300	306	306	305	304	304	303	303	304	300	299	299	300	299	300	301	300	302	303	299	299	298	301	302	305	303	302	305	302	302	301	301	299	298	297	300	304	308	310	305	303	299	298	296	297	300	302	303	303	307	305	302	302	305	305	303	300	299	299	293	292	299	305	305	300	299	301	304	304	302	302	300	298	299	300	301	300	301	302	303	302	298	299	298	300	300	298	296	296	298	298	298	298	300	300	299	297	297	297	300	300	297	299	300	301	301	300	299	298	297	298	300	304	301	301	303	299	298	298	299	301	301	301	301	302	303	298	296	297	296	301	300	295	295	297	298	299	297	293	294	294	296	296	292	295	297	294	299	301	303	305	304	302	297	297	298	299	298	294	294	297	296	296	295	296	293	291	292	290	289	287	287	287	294	300	299	298	297	296	294	296	299	295	292	289	295	295	294	298	293	295	295	295	296	297	304	297	296	296	292	290	291	295	296	296	300	302	300	297	296	294	293	298	295	293	291	292	292	292	290	286	286	289	292	294	294	294	292	292	294	295	294	294	293	289	287	288	293	296	295	290	289	289	289	292	293	287	287	288	288	288	289	289	287	286	287	290	290	289	288	286	286	286	290	289	288	288	293	292	288	286	286	288	290	292	291	291	292	289	292	292	291	289	289	293	293	295	297	299	297	294	292	291	287	285	285	285	285	287	287	289	292	294	293	298	297	294	290	286	287	289	289	290	288	285	283	283	286	288	288	289	288	286	285	286	287	290	290	289	288	287	287	290	291	293	293	293	294	295	293	291	288	288	291	292	294	288	288	289	290	291	290	289	289	289	290	295	292	291	290	288	288	288	288	291	292	289	286	286	284	287	290	291	294	292	289	288	290	292	290	292	293	293	293	291	293	293	0	0	0	0	0	0	0
315	315	313	313	314	313	311	312	312	315	316	316	320	320	325	327	325	321	313	313	318	325	322	319	317	317	317	317	318	320	319	316	316	314	313	315	317	314	315	320	317	320	322	322	323	323	314	313	313	313	311	311	310	310	310	311	313	314	316	316	319	320	317	318	320	323	321	321	318	313	312	314	314	314	313	309	307	303	301	305	304	309	309	306	306	306	310	313	313	315	317	316	312	308	307	309	309	310	312	315	316	314	308	306	306	306	312	317	320	314	312	312	313	313	312	312	313	315	318	319	318	315	309	309	314	308	310	303	298	298	298	303	302	304	306	306	306	305	302	302	302	303	300	300	302	302	302	298	296	295	296	297	302	307	306	307	303	299	302	305	306	307	308	308	311	312	310	306	305	302	301	296	306	308	306	305	303	302	299	301	308	306	309	311	311	306	306	302	302	300	296	295	297	296	300	301	303	304	307	310	311	308	305	302	300	298	297	296	294	293	293	297	303	299	302	301	303	301	296	295	295	293	294	297	297	299	297	297	301	297	296	300	304	304	298	296	295	291	296	300	301	300	300	297	296	293	293	301	306	304	300	305	296	296	291	291	291	294	297	298	299	299	300	294	296	300	297	294	294	295	299	299	299	300	298	296	302	300	297	295	294	299	301	301	301	303	301	299	296	295	296	299	301	301	293	290	294	297	299	304	296	298	299	296	291	287	289	291	300	299	298	298	297	299	302	300	300	297	294	297	298	298	298	296	300	301	300	298	299	298	298	297	295	294	295	295	298	296	295	297	297	296	295	293	289	291	293	295	296	299	303	303	303	297	296	294	294	295	296	299	301	302	303	298	298	297	298	296	297	296	295	298	297	295	291	290	292	294	295	293	294	296	294	293	291	291	292	292	294	295	295	293	294	294	296	297	297	295	294	295	295	293	292	292	291	292	293	293	294	295	295	294	291	288	288	288	287	285	290	289	292	297	296	298	295	292	291	287	284	285	292	294	292	292	292	296	293	293	292	290	290	293	293	287	288	290	291	292	290	293	288	290	292	293	292	292	289	288	286	285	285	287	289	290	290	284	283	283	283	290	292	291	290	291	291	290	287	291	291	288	286	285	288	291	293	290	288	289	288	289	292	293	290	285	284	284	288	290	289	286	282	281	286	287	286	287	286	285	287	289	289	290	291	290	285	284	284	284	286	294	294	289	286	284	290	292	293	290	289	289	290	293	293	294	296	295	292	284	283	284	285	286	286	285	285	288	291	289	292	293	294	294	292	290	288	284	285	286	287	283	281	280	281	283	283	285	286	285	285	282	282	284	288	290	293	292	290	281	281	280	282	289	291	292	290	286	284	287	288	289	289	283	284	286	288	287	287	287	287	288	288	293	290	290	287	282	282	283	285	290	291	287	284	283	283	282	280	285	290	292	293	289	288	289	289	289	289	290	290	290	291	291	292	0	0	0	0	0	0	0
309	310	311	311	305	303	302	304	304	308	311	314	318	320	320	321	315	311	310	310	315	315	316	314	312	313	313	312	315	318	319	317	317	312	307	304	306	310	315	317	315	317	318	320	321	321	316	310	310	310	309	308	308	308	309	310	311	312	314	314	315	316	316	316	315	314	315	315	309	308	307	308	308	310	307	304	309	305	301	306	304	308	308	301	302	304	308	310	311	314	315	312	310	306	307	309	310	310	310	315	315	314	311	307	304	303	305	311	312	310	312	314	312	309	308	305	306	308	310	311	294	300	301	303	303	302	300	297	296	295	298	298	300	304	306	308	304	301	298	301	301	302	297	297	299	300	299	297	295	296	295	297	299	301	303	303	302	300	300	300	302	302	304	305	306	308	306	306	306	302	298	298	296	299	303	305	301	299	298	300	300	301	301	306	306	305	305	301	301	300	296	295	297	296	296	301	299	299	295	295	301	301	300	299	298	297	295	294	291	291	291	295	301	287	295	300	297	296	294	293	293	294	294	295	297	299	299	300	301	297	294	294	294	296	295	295	291	292	292	296	296	298	296	292	290	289	290	292	294	291	289	288	287	288	289	288	287	292	293	296	298	296	294	293	294	294	292	286	291	295	297	299	298	295	292	293	297	295	295	296	294	297	296	296	299	301	301	296	296	295	293	296	299	294	292	290	288	288	290	292	293	290	292	293	292	287	290	297	297	296	294	295	295	298	295	296	295	293	291	289	290	296	294	290	290	294	291	297	297	297	296	293	292	292	292	293	295	295	294	295	293	293	291	289	286	290	291	291	294	299	293	294	298	296	294	293	292	293	295	296	298	297	292	292	293	296	291	293	294	293	293	293	290	290	292	295	295	294	294	293	291	293	292	293	291	289	287	288	289	289	292	290	291	293	293	293	292	291	291	292	292	291	289	288	289	291	291	291	290	294	292	292	292	291	288	286	287	285	289	290	291	291	296	295	289	287	283	285	285	288	288	288	288	289	290	290	286	285	289	287	283	285	289	286	286	287	288	287	287	291	288	287	287	290	286	286	287	286	284	284	283	285	286	283	281	277	279	281	284	286	289	288	286	287	288	289	286	284	285	286	284	284	287	292	291	288	286	287	287	284	290	293	291	288	284	287	289	289	289	286	281	279	278	282	285	282	280	282	284	287	288	289	290	290	287	282	280	281	282	284	283	284	287	289	290	292	291	289	286	287	286	292	291	290	289	287	287	288	285	281	289	290	289	287	287	286	288	286	279	276	279	280	279	278	278	277	279	280	281	280	278	278	279	282	283	284	285	284	282	282	281	284	289	291	293	293	290	279	275	278	279	282	282	287	284	286	286	286	283	287	280	283	286	287	287	287	287	286	286	286	285	284	280	279	280	279	279	281	283	286	287	289	284	284	283	281	278	277	277	280	288	288	285	284	285	283	282	282	283	283	290	290	290	0	0	0	0	0	0	0
301	296	297	297	297	298	302	304	308	308	310	313	316	314	314	307	305	306	305	309	309	310	312	310	310	308	308	307	311	312	313	309	308	308	306	305	305	308	312	315	309	312	313	315	316	315	308	308	307	307	308	308	308	308	308	310	311	311	311	311	311	311	312	310	308	309	309	310	306	305	306	304	305	305	307	303	306	307	307	304	304	306	304	300	301	302	308	307	305	307	309	308	307	305	309	310	307	304	304	305	308	303	301	300	305	305	305	306	306	304	304	304	307	304	301	300	302	305	304	304	294	295	297	298	297	295	296	297	295	295	295	296	300	301	306	308	301	297	294	292	292	295	296	294	296	296	297	297	295	296	295	295	297	299	300	302	300	298	296	296	298	296	295	294	293	297	301	302	306	302	296	294	287	296	298	297	302	300	295	296	296	297	297	303	298	290	292	297	294	295	289	289	292	295	292	292	294	292	293	292	292	291	296	297	297	295	293	288	288	291	291	286	284	285	286	288	290	291	291	291	289	290	290	292	294	295	296	300	298	298	294	295	294	296	296	294	293	287	289	290	293	296	295	286	284	285	287	290	291	289	288	286	287	288	288	288	288	288	293	291	290	292	292	292	289	289	287	287	287	285	291	294	296	294	291	288	287	286	287	290	292	294	295	292	290	289	295	295	295	293	292	295	295	294	292	290	290	289	290	290	291	289	291	291	288	288	296	287	291	288	285	289	288	288	292	291	289	289	287	287	293	292	292	289	287	291	290	294	295	293	294	290	291	289	290	288	288	290	292	290	290	289	290	287	286	287	288	288	289	287	287	288	295	281	289	287	287	292	293	293	291	289	287	286	290	290	289	292	294	288	290	290	290	290	290	295	295	294	293	292	290	286	285	292	292	289	287	285	287	287	287	287	289	289	292	291	289	289	288	292	291	282	282	286	286	288	289	288	287	287	291	292	289	288	286	285	284	287	287	288	289	289	290	289	287	285	281	279	279	284	288	287	286	285	285	283	280	279	280	282	285	285	286	288	287	287	287	284	282	285	283	282	283	282	282	282	285	286	284	283	282	282	283	278	279	277	281	285	282	283	282	283	283	283	285	285	282	284	286	287	284	281	284	285	285	286	281	282	283	284	289	292	292	289	288	287	283	285	286	285	282	280	278	281	283	283	281	282	284	285	286	288	288	286	284	281	281	282	281	282	281	280	285	287	286	289	289	287	283	282	285	286	291	292	290	285	281	279	277	277	276	281	281	279	279	282	282	280	277	277	277	279	278	277	275	277	279	280	280	280	277	277	280	280	282	284	284	282	280	279	278	279	285	285	283	282	279	278	276	279	281	278	278	277	277	281	283	283	282	283	277	280	277	277	278	280	281	280	280	278	278	277	277	277	278	278	281	282	281	284	285	287	289	289	284	278	277	276	275	277	281	285	283	280	283	281	277	277	277	277	280	280	279	0	0	0	0	0	0	0
298	296	294	295	295	303	305	308	309	309	311	310	308	306	306	305	301	302	300	304	304	307	307	307	304	304	304	305	308	306	310	307	307	307	306	304	305	306	309	309	308	308	308	309	310	309	307	306	306	306	306	307	305	305	304	303	306	305	306	307	307	308	309	309	306	303	304	301	303	303	305	303	303	303	306	301	303	305	304	303	303	301	300	301	301	301	302	302	295	294	296	298	300	302	303	303	302	302	302	302	303	298	296	295	297	299	303	305	305	306	304	294	293	295	295	298	300	303	304	302	298	296	296	296	294	295	295	295	294	291	292	292	296	302	305	305	297	294	291	292	295	295	295	295	296	296	296	295	292	292	293	294	295	295	297	296	295	294	283	293	298	293	293	293	294	295	297	296	295	290	287	287	292	295	297	296	292	294	293	293	294	293	295	297	294	290	291	296	295	295	293	287	292	291	292	291	289	289	286	289	290	289	290	292	292	288	291	290	288	288	288	280	282	283	284	285	286	287	287	285	288	287	283	283	285	288	288	285	285	289	295	292	293	296	294	291	288	284	283	286	288	289	288	285	280	278	283	287	289	288	287	284	283	284	283	283	285	292	294	292	290	289	289	288	287	284	285	287	287	288	291	290	289	287	284	282	285	281	282	289	291	292	294	291	290	288	294	293	291	285	288	291	292	291	292	291	290	289	291	291	291	289	285	285	287	285	286	284	282	284	285	282	284	285	289	289	285	284	285	288	287	294	295	293	290	288	288	288	288	286	290	290	290	289	287	286	281	280	280	284	283	289	287	288	286	287	286	287	289	284	282	282	278	289	288	286	285	285	292	288	287	287	286	287	289	290	286	284	285	282	284	287	290	289	286	287	292	293	294	291	286	284	284	284	286	288	286	285	286	287	284	285	288	289	290	290	290	283	281	281	282	282	281	285	286	285	287	284	282	280	281	283	285	287	286	283	283	286	287	286	286	286	287	286	286	283	280	278	278	281	283	285	286	283	282	278	278	279	283	284	283	284	286	285	287	287	284	283	279	278	281	281	281	280	277	278	277	276	275	273	272	276	277	280	279	277	277	281	279	281	283	285	282	279	279	280	278	278	281	279	277	279	278	279	280	282	278	279	282	280	280	281	284	282	282	282	283	285	284	279	278	280	278	278	278	278	280	280	281	281	280	279	279	279	276	279	279	281	280	280	279	281	277	282	283	286	288	285	278	280	281	280	281	283	286	284	276	271	272	273	276	277	277	281	283	279	279	279	279	277	277	278	277	276	274	274	279	280	280	279	278	279	278	279	283	284	282	281	283	282	280	276	277	277	279	281	278	278	277	279	280	276	275	275	275	277	278	282	280	279	280	279	277	277	277	277	277	277	277	277	277	278	278	276	276	276	275	281	279	281	280	281	281	282	288	279	276	274	274	274	277	280	279	276	274	278	278	277	277	281	280	278	276	0	0	0	0	0	0	0
296	296	295	301	301	304	306	307	310	310	306	301	300	302	302	299	297	297	295	300	300	304	303	304	303	302	302	303	304	302	302	302	300	300	302	303	305	306	307	309	305	305	304	303	303	302	301	305	304	306	306	305	304	302	299	302	302	302	303	306	306	306	306	303	300	299	301	300	300	302	300	299	298	298	298	302	300	297	293	292	294	295	295	294	298	302	301	295	293	292	294	296	295	299	297	301	301	301	300	299	299	295	294	295	293	295	296	298	297	299	293	295	292	293	295	296	299	299	298	298	294	296	297	295	294	294	291	288	285	280	282	290	292	293	295	290	291	297	299	300	297	296	298	299	296	292	291	286	290	291	292	292	292	294	291	290	288	292	283	289	288	286	289	289	291	292	292	292	292	291	288	289	291	293	292	294	293	293	292	291	292	291	291	293	291	290	291	293	296	299	286	288	291	293	287	288	289	287	284	286	289	288	288	287	285	287	283	282	281	282	282	277	280	282	281	281	280	283	283	284	285	284	278	281	284	287	285	283	282	283	289	282	289	289	291	293	294	286	282	286	289	290	288	284	282	279	284	285	280	281	281	283	280	277	276	277	282	285	287	284	284	285	285	286	285	283	282	285	286	286	286	286	285	284	283	279	282	282	280	281	283	285	287	286	286	287	287	287	287	285	283	284	283	286	286	288	289	289	291	293	289	279	280	283	277	286	286	285	282	280	282	282	282	283	286	284	283	281	280	279	281	282	284	287	289	288	287	286	287	283	284	288	289	288	285	286	281	278	281	282	283	287	286	284	286	288	289	288	286	283	280	278	287	287	287	286	286	287	285	287	286	286	288	289	290	286	281	281	281	282	283	283	284	285	286	285	286	285	284	284	288	285	283	284	285	284	281	285	285	281	282	284	287	289	280	279	277	277	278	281	282	281	280	284	284	283	282	281	278	278	279	277	281	282	284	283	282	286	285	283	286	285	285	282	283	280	278	278	280	281	280	280	282	282	279	278	278	281	283	282	281	275	274	277	286	284	278	277	277	276	279	279	280	277	277	275	274	273	273	272	271	273	275	277	280	278	282	283	279	276	282	279	275	274	275	274	274	275	278	277	276	277	278	275	275	278	276	277	276	276	283	284	282	281	282	282	282	278	278	277	275	273	275	275	275	275	276	279	277	274	272	270	268	268	269	272	275	276	275	275	277	277	275	276	276	275	275	274	276	278	277	276	276	277	279	280	274	271	271	272	272	275	277	282	279	279	276	279	279	281	279	277	276	275	274	273	272	273	274	278	276	275	275	279	281	283	282	284	279	278	278	276	276	276	278	278	276	278	278	275	275	274	273	274	273	278	279	278	279	278	279	278	276	276	277	277	275	275	272	274	276	276	278	279	279	278	277	272	276	277	278	276	276	274	271	270	269	273	271	271	271	273	274	274	272	273	273	276	280	280	277	274	272	0	0	0	0	0	0	0
294	294	296	300	300	302	301	303	303	303	299	296	296	295	294	294	291	294	295	298	299	299	303	304	301	301	302	302	300	299	298	298	297	297	297	296	302	306	304	304	297	297	296	294	298	298	296	296	303	304	304	303	302	297	295	298	299	298	301	303	302	302	299	297	297	297	295	297	298	298	297	295	296	295	295	295	294	292	292	291	293	293	292	292	292	293	293	292	292	290	292	293	294	293	292	296	295	294	290	293	294	294	293	293	294	293	295	295	293	292	291	292	290	289	291	295	294	290	291	290	286	285	287	290	292	289	288	285	279	283	283	285	289	291	287	288	290	292	294	292	290	289	289	289	288	285	285	286	289	292	286	283	282	282	282	283	286	283	282	283	288	291	291	288	285	284	288	289	288	288	288	290	291	293	292	290	287	286	289	290	291	288	288	288	288	289	291	296	298	296	290	289	288	284	285	288	289	288	287	284	282	284	282	278	276	274	279	279	279	285	284	279	278	281	280	285	282	285	282	281	284	276	276	280	281	282	285	282	280	279	283	279	280	280	280	285	286	283	284	285	286	284	287	284	281	281	283	282	281	280	282	283	282	277	278	280	282	284	281	281	280	283	286	285	283	283	283	280	279	277	277	278	278	281	279	276	280	279	277	279	281	277	273	279	281	280	281	282	288	284	282	281	280	279	284	287	287	287	288	285	282	276	277	276	281	280	283	285	285	282	282	282	282	282	282	280	279	281	281	280	279	280	283	284	284	282	285	285	281	281	278	279	285	285	284	282	282	280	283	282	283	281	281	280	281	282	283	280	279	281	280	281	281	286	287	287	286	286	284	285	286	288	287	289	288	282	283	282	282	283	283	282	281	283	279	282	284	284	284	284	286	281	281	283	279	280	280	283	281	280	278	281	283	281	280	279	280	282	282	284	284	283	277	276	276	281	281	280	277	276	276	276	278	277	278	280	280	284	279	281	276	282	285	283	279	278	277	277	281	280	281	282	279	277	277	275	276	283	284	282	281	278	276	276	281	277	277	276	274	275	274	277	278	276	272	272	272	273	271	271	271	270	273	274	277	275	280	281	281	278	277	274	273	274	274	274	274	273	275	274	274	275	276	275	274	273	275	275	274	275	277	282	282	278	277	278	278	276	276	272	271	272	273	277	278	274	275	278	275	273	271	269	266	265	266	271	269	267	266	265	267	273	272	273	275	274	275	272	274	275	276	275	276	278	280	279	272	270	271	272	273	274	275	277	277	276	274	275	278	279	279	276	277	276	273	271	271	271	273	274	274	273	272	273	281	282	283	277	275	277	274	274	273	270	272	274	276	276	277	276	275	272	271	274	273	278	279	276	274	274	278	277	275	275	274	273	272	272	272	272	274	275	278	278	278	277	272	269	274	275	273	273	271	271	269	269	269	266	265	266	272	273	275	275	275	274	275	277	278	275	273	272	271	0	0	0	0	0	0	0
292	292	294	296	295	295	297	298	298	297	297	295	293	291	290	290	290	291	295	293	298	298	302	301	299	299	296	296	297	294	294	293	295	295	295	294	290	291	295	297	296	295	295	291	292	292	291	292	294	295	295	295	295	293	292	289	294	295	295	295	295	295	295	294	295	293	291	293	297	296	294	291	291	291	287	287	286	287	288	289	290	292	289	287	289	290	289	289	285	286	290	293	293	292	291	292	292	292	292	289	290	290	293	293	293	293	294	292	290	289	289	289	288	286	288	290	287	286	287	287	282	284	286	290	294	289	286	279	284	285	286	283	284	286	285	287	289	291	289	284	288	288	288	287	288	285	285	285	286	285	284	282	280	282	285	285	286	288	288	289	289	290	289	289	285	287	286	286	286	287	286	287	285	283	279	278	282	283	286	283	288	289	286	286	284	285	290	290	290	295	297	291	283	281	281	287	287	285	276	277	279	285	286	283	279	274	278	277	277	282	286	285	282	283	284	282	284	284	278	277	278	279	274	278	278	279	280	279	277	276	276	275	277	277	277	278	282	281	281	281	283	287	283	283	281	281	281	281	276	281	282	281	278	277	278	277	281	282	280	281	277	278	277	283	283	278	280	279	280	277	276	279	280	277	278	277	276	277	276	279	281	275	273	276	276	277	280	278	280	281	281	276	277	279	279	280	282	284	279	279	275	275	274	276	279	279	282	283	284	284	281	281	281	279	278	277	275	278	281	281	280	280	278	280	281	280	281	283	281	280	277	275	278	280	280	283	283	283	278	279	277	277	278	277	280	280	279	279	276	277	280	281	282	283	285	282	283	282	280	283	285	285	287	289	289	283	285	285	282	279	282	280	281	280	278	279	281	282	280	275	276	278	280	277	279	279	278	266	274	274	273	275	281	282	279	278	279	279	283	284	283	278	275	273	269	271	277	277	277	276	276	275	278	282	278	277	275	277	276	280	281	283	283	281	277	276	276	278	281	279	278	278	277	277	275	275	277	283	281	280	278	272	277	275	280	276	276	276	272	273	273	274	275	275	274	272	273	274	273	272	270	270	272	273	273	271	274	273	275	276	275	273	271	273	274	276	275	272	273	271	273	272	276	275	273	274	274	274	274	274	272	270	273	274	276	276	275	273	275	273	273	273	275	272	273	274	275	274	270	269	269	264	263	264	264	273	269	268	265	265	267	269	268	270	269	269	269	270	274	273	271	270	271	271	269	266	267	269	274	277	273	273	272	273	273	272	270	272	273	272	277	276	277	276	274	270	269	270	272	273	273	272	270	270	274	276	275	273	271	271	272	271	267	269	272	273	274	275	277	276	272	271	273	272	273	274	270	271	271	270	266	271	273	270	270	269	268	269	271	272	277	278	273	271	270	270	269	267	268	270	269	269	271	271	269	269	269	268	267	267	268	274	274	273	272	272	274	276	274	272	271	271	270	0	0	0	0	0	0	0
292	293	294	293	293	293	293	294	296	296	296	296	293	291	290	290	291	293	294	288	290	290	292	288	295	290	291	291	292	289	287	289	289	291	291	292	292	289	290	294	292	293	293	290	291	288	286	287	291	291	292	292	291	289	288	287	288	290	291	292	291	291	292	289	289	293	295	289	290	296	292	290	291	291	286	286	284	283	280	287	286	292	289	285	285	285	284	281	283	287	289	292	294	291	289	290	290	290	289	289	285	286	291	293	286	289	287	287	287	288	285	281	282	286	283	285	285	285	284	282	279	285	285	284	282	278	278	279	281	282	282	279	278	282	281	284	288	289	287	282	281	283	284	283	285	285	285	285	286	285	282	279	278	284	286	286	285	285	287	287	288	284	285	286	284	281	284	282	280	281	281	281	281	281	279	279	280	280	279	279	279	284	280	278	280	282	285	287	286	288	286	279	277	278	281	280	280	277	277	277	278	277	277	275	274	273	277	275	278	279	282	289	289	282	281	277	278	280	279	278	277	278	278	276	276	281	280	277	274	273	274	273	276	276	275	275	272	278	279	276	280	280	282	282	281	278	276	276	275	280	280	277	271	275	277	277	278	280	280	278	275	275	272	272	273	276	276	277	277	279	280	281	279	279	276	272	274	272	276	279	281	276	272	273	272	271	272	274	274	277	276	276	278	278	280	280	277	274	276	275	275	275	275	275	275	277	278	281	281	281	282	281	279	275	276	277	274	274	273	282	273	273	274	277	278	279	280	279	279	271	272	271	277	276	278	280	280	280	276	277	276	278	277	279	279	278	277	275	273	275	278	280	281	282	282	279	276	274	277	277	282	280	284	287	283	279	281	282	280	277	277	281	281	278	279	280	281	281	273	273	273	275	274	275	276	275	270	272	272	272	273	274	274	274	279	273	277	275	278	282	281	277	275	272	270	269	272	276	275	270	270	272	275	274	274	272	272	273	272	273	272	272	272	274	274	273	273	274	277	275	275	274	274	275	275	273	280	277	267	269	267	267	268	268	274	276	276	277	273	272	272	274	273	273	275	276	274	273	271	270	270	271	273	273	269	270	268	269	272	274	272	271	271	268	274	274	273	270	268	270	271	270	274	275	274	272	273	273	272	271	269	267	267	270	270	267	262	261	268	271	272	272	272	272	272	273	273	273	270	270	269	266	266	266	272	272	272	268	267	266	267	267	267	267	267	269	271	270	273	271	269	269	270	269	268	265	265	267	275	275	273	271	268	268	268	268	267	268	268	269	274	275	274	270	268	269	267	263	270	270	270	270	267	266	267	268	271	270	266	265	265	262	262	266	269	270	271	273	273	273	271	272	273	274	274	268	265	267	265	264	264	264	265	268	266	266	267	267	268	269	270	271	270	265	268	268	267	267	266	265	265	267	270	263	261	262	265	267	267	265	267	265	264	263	265	265	268	272	271	267	266	264	265	0	0	0	0	0	0	0
290	291	291	286	285	285	285	289	292	295	295	295	293	289	287	288	288	287	287	290	288	288	289	284	283	284	287	287	287	288	288	288	288	290	292	292	293	290	286	289	287	290	290	289	289	285	286	288	289	289	289	289	290	289	287	287	286	287	288	288	288	285	285	288	290	289	290	285	282	282	284	284	286	286	284	281	281	281	278	281	281	281	290	286	284	282	279	280	286	286	285	286	282	283	283	284	284	287	287	286	283	280	279	283	286	286	284	283	283	279	278	278	277	277	279	283	285	283	282	280	281	286	281	279	279	277	276	276	281	281	281	281	281	279	281	284	286	289	287	284	279	279	279	280	281	283	284	284	286	284	281	278	276	277	280	283	280	282	285	286	284	280	271	274	279	276	275	277	279	279	279	279	277	278	278	279	279	272	272	273	274	274	272	270	270	273	272	276	277	277	280	280	276	277	281	279	279	279	279	277	276	276	274	274	274	276	277	273	276	274	275	276	276	270	272	273	274	277	278	278	275	272	271	276	276	275	276	272	271	268	272	274	275	275	274	271	271	275	272	273	274	276	277	281	280	280	273	273	274	276	274	272	271	269	275	276	277	278	278	274	273	272	271	269	267	269	273	270	270	269	269	269	270	271	273	267	270	275	276	277	277	279	274	272	271	269	270	271	270	272	275	276	278	277	271	275	276	277	278	277	275	275	275	271	274	276	274	274	274	278	277	280	278	274	276	277	272	271	273	283	273	272	272	276	276	275	273	275	275	275	272	272	273	275	277	277	278	277	276	275	276	276	276	277	277	276	273	273	272	271	276	278	279	281	279	269	271	271	272	273	277	284	285	284	275	274	277	276	276	275	274	274	276	275	275	275	275	270	268	268	275	273	268	270	271	272	272	270	271	272	272	272	272	273	271	273	274	270	272	276	274	276	274	269	268	269	270	271	270	270	270	264	267	270	270	272	270	269	269	269	269	269	268	267	268	269	270	271	272	273	274	272	270	272	273	273	267	267	265	266	265	265	266	266	268	270	274	274	272	270	270	272	272	273	273	274	269	272	270	261	262	266	268	269	269	265	266	268	273	271	272	270	268	267	268	268	267	264	263	265	267	271	273	270	266	271	271	268	265	267	266	267	266	265	266	264	260	260	260	263	268	267	267	268	267	267	268	267	270	269	269	266	271	271	269	271	271	270	267	267	266	265	265	265	265	266	268	268	269	267	263	263	264	264	265	262	264	267	272	271	270	269	265	264	263	265	265	266	266	269	270	270	264	264	264	265	265	262	264	266	266	266	267	266	266	266	265	264	264	262	260	261	261	260	261	269	270	269	268	269	269	269	271	273	265	267	267	266	263	261	263	263	263	262	265	266	266	264	265	265	263	265	265	264	266	266	266	265	263	263	263	263	263	263	261	259	262	265	264	264	264	264	261	261	261	261	264	269	263	262	261	263	262	0	0	0	0	0	0	0
291	287	288	285	282	282	283	285	289	291	291	292	291	286	285	284	284	285	284	282	289	285	285	282	279	279	283	285	285	287	289	289	289	290	292	292	291	282	283	284	287	287	288	288	290	288	286	286	288	287	287	289	289	289	287	286	285	284	285	286	286	286	286	284	285	282	280	281	281	281	279	283	280	280	278	277	277	277	277	277	278	281	286	285	281	279	278	277	284	283	282	278	281	279	280	279	278	281	286	285	282	279	277	276	278	278	279	279	278	275	275	276	276	276	276	277	278	277	274	272	280	279	279	278	277	276	277	276	275	275	279	280	280	279	281	283	288	285	282	279	278	276	274	275	278	281	281	281	285	280	279	277	276	275	277	282	276	282	285	284	278	271	271	273	272	274	273	274	275	274	273	275	275	275	276	278	274	271	271	272	272	273	272	270	269	273	271	271	273	272	273	272	272	273	274	274	276	271	280	280	278	276	273	275	275	274	271	274	269	272	274	273	272	272	268	271	274	274	277	277	273	271	271	267	273	276	270	265	265	264	265	277	275	275	273	272	268	271	271	272	274	277	281	282	279	278	273	273	271	272	271	272	270	270	267	269	274	278	277	273	272	270	269	268	268	269	273	274	269	267	269	265	267	268	269	269	272	275	277	272	276	277	273	272	271	265	260	261	262	267	274	275	276	275	270	269	270	273	276	277	274	272	269	267	266	268	272	271	270	271	273	273	271	269	269	276	271	270	273	273	273	275	273	273	273	268	264	266	269	271	272	273	272	273	274	276	271	269	276	275	275	273	274	275	275	273	272	273	272	273	273	273	267	266	267	269	269	271	272	273	272	274	275	275	272	272	272	272	272	274	274	271	269	270	271	272	272	272	269	268	266	266	263	264	273	273	269	268	268	270	269	269	269	270	268	270	269	266	267	272	270	270	269	268	267	269	270	271	270	269	265	264	263	266	270	270	269	268	266	267	267	268	268	265	265	266	266	267	268	270	270	270	268	264	263	263	264	265	264	264	265	263	263	265	266	266	269	268	270	269	268	269	270	273	272	272	267	265	263	261	260	260	261	264	264	264	265	267	271	272	270	267	266	266	266	266	264	264	264	264	262	259	260	261	264	267	267	263	263	263	264	264	265	265	263	262	262	262	264	262	263	264	263	265	267	266	266	267	265	263	268	269	266	266	266	268	265	266	269	268	267	264	260	259	264	262	265	268	265	263	264	265	273	266	263	261	266	270	272	272	270	268	267	263	262	263	263	262	263	262	263	261	264	261	262	263	263	260	260	262	263	264	265	265	266	265	262	262	262	261	259	258	259	260	259	260	265	262	266	266	267	266	266	264	263	265	264	263	262	261	259	259	260	261	257	259	260	263	260	262	261	263	263	262	259	260	264	263	263	263	261	260	262	261	259	258	261	263	263	261	262	261	259	260	260	261	261	263	261	261	261	261	262	0	0	0	0	0	0	0
287	287	284	280	278	280	280	282	286	286	284	284	285	283	284	283	283	280	281	282	276	276	276	274	275	277	280	284	284	287	287	289	289	289	285	285	281	281	282	284	286	284	286	286	285	284	283	277	281	282	282	284	284	286	286	284	283	282	284	283	283	281	283	283	281	279	280	280	279	276	276	276	277	275	274	272	272	272	273	275	277	278	281	280	279	278	277	277	279	279	278	277	276	277	278	278	277	278	279	277	280	277	276	275	274	274	277	274	272	272	272	273	272	273	276	278	278	276	275	273	273	275	276	276	276	276	276	276	273	271	275	276	277	277	279	283	283	279	279	277	275	276	275	275	276	276	276	278	280	275	274	275	274	269	271	272	275	279	277	277	273	270	270	270	272	273	271	271	276	274	273	270	271	272	275	273	268	266	271	271	271	271	270	269	267	268	268	270	266	268	271	272	269	271	269	269	262	273	273	280	278	276	274	274	273	273	270	269	268	269	271	271	270	268	266	270	272	270	274	273	271	270	272	270	270	269	268	264	264	265	265	277	276	275	274	270	267	270	271	271	271	270	271	270	268	267	269	270	269	268	267	270	270	268	267	269	272	271	271	268	268	269	268	269	268	269	272	269	268	271	271	265	271	269	267	273	274	270	269	269	270	272	273	270	268	269	267	265	265	269	270	269	266	268	268	270	270	270	270	271	267	267	264	266	265	264	264	264	265	267	269	271	270	270	270	270	272	269	271	272	272	273	272	271	269	268	266	266	268	268	269	269	268	270	271	271	269	269	268	275	273	271	272	272	271	270	272	271	272	273	273	275	269	266	266	267	270	272	273	273	272	269	273	269	271	269	270	268	267	269	266	268	270	268	268	272	270	264	267	266	266	265	264	269	268	267	267	267	268	268	267	267	266	267	267	268	268	265	268	267	268	267	264	268	268	267	267	269	268	266	266	264	263	263	269	269	269	267	265	265	265	265	266	264	263	266	265	267	267	267	261	260	261	263	262	263	263	264	263	263	264	264	261	260	265	265	267	268	268	266	266	267	271	271	269	269	267	264	263	262	259	257	258	261	261	260	263	266	267	268	267	265	264	264	263	264	264	264	261	259	257	259	260	261	261	263	263	261	261	260	261	260	261	261	261	260	261	263	262	263	264	263	260	263	263	264	264	263	263	265	268	265	263	265	259	264	264	267	267	266	264	264	261	259	262	262	266	263	265	266	265	265	267	269	263	261	268	271	272	270	267	267	266	265	263	261	260	260	260	263	259	261	260	266	265	262	262	261	262	259	259	262	264	264	264	264	262	259	262	261	259	259	260	260	259	258	258	259	265	265	265	264	264	263	260	260	259	259	260	260	257	258	259	259	259	256	259	259	258	256	256	257	257	258	258	259	259	260	260	260	260	258	258	258	258	257	260	262	260	260	259	258	259	259	256	253	258	261	260	259	261	261	261	0	0	0	0	0	0	0
281	281	276	275	274	275	275	281	283	284	283	283	284	283	282	281	277	277	279	279	276	272	272	272	274	278	279	282	285	285	286	286	283	282	281	280	280	280	281	286	281	282	282	282	280	280	276	275	276	279	281	281	281	282	282	281	281	279	280	279	280	281	281	281	279	279	279	278	274	270	275	273	274	273	272	270	271	271	272	274	275	278	279	278	277	276	274	273	276	274	273	273	275	272	275	278	277	276	277	277	276	275	273	272	273	272	275	272	270	271	271	271	272	272	274	279	277	275	274	271	269	271	274	275	275	275	276	275	271	270	271	273	273	273	275	281	281	277	276	274	269	275	274	275	276	276	274	273	274	272	273	270	269	268	267	268	269	275	269	270	269	270	269	269	272	270	270	274	271	270	270	269	269	271	272	266	265	268	270	269	269	269	271	266	264	262	263	264	263	262	264	270	271	266	266	266	260	260	261	265	271	273	268	266	269	266	265	267	267	267	268	269	268	266	266	265	270	271	270	264	266	270	273	273	272	270	265	266	265	266	268	269	269	267	264	265	267	268	268	269	270	263	264	266	264	264	266	266	267	268	268	268	268	267	262	269	269	268	267	267	268	269	269	269	269	269	267	268	265	267	264	270	269	266	263	271	271	268	266	265	261	271	271	269	269	267	266	265	265	269	268	268	266	265	266	266	269	268	268	267	267	266	267	262	264	263	263	262	263	264	268	271	270	269	269	269	268	264	263	264	266	264	265	266	268	268	266	266	268	269	268	268	267	267	268	268	271	268	266	264	266	265	265	269	271	269	268	268	269	271	270	270	271	266	265	266	267	268	271	275	275	270	268	267	268	262	269	270	266	265	265	260	264	265	263	268	263	263	264	266	266	266	266	265	263	263	264	264	265	264	265	262	263	264	265	267	267	267	267	266	267	267	267	266	264	263	260	264	265	266	265	264	263	263	262	267	268	265	263	262	263	265	265	264	265	265	265	265	262	260	260	263	260	264	263	264	263	262	261	261	262	262	260	263	263	264	267	267	266	265	266	266	266	267	266	266	261	262	261	259	255	256	257	260	260	259	260	261	265	267	267	260	259	261	261	259	260	259	260	257	258	259	259	260	260	260	260	259	259	258	257	258	258	258	260	258	259	265	261	261	260	259	261	258	258	258	259	259	262	262	263	261	261	256	257	261	262	264	264	256	258	256	261	259	251	254	258	262	264	264	261	260	258	257	259	260	257	256	256	264	265	265	266	262	261	260	258	257	259	258	255	257	259	259	259	261	262	261	260	257	256	259	265	261	263	259	261	259	258	256	259	258	258	259	259	256	254	253	253	253	262	260	261	260	258	257	256	256	256	258	257	258	259	260	259	257	255	259	260	259	255	256	258	259	259	259	259	259	259	259	259	258	256	258	258	255	253	252	250	255	256	257	256	256	251	247	245	246	258	258	259	260	260	0	0	0	0	0	0	0
277	277	276	270	270	274	274	280	282	283	282	282	281	281	281	277	274	274	278	278	275	272	273	273	276	276	277	279	281	281	280	280	279	280	279	278	278	277	278	281	277	279	279	274	274	276	273	275	275	278	281	282	282	282	281	277	274	271	273	274	276	279	281	277	277	276	276	269	270	270	271	270	269	270	268	270	270	271	271	272	273	278	278	275	274	274	273	272	272	273	273	273	269	271	270	275	276	279	279	277	276	275	273	270	265	266	266	267	268	269	271	269	270	275	278	279	276	275	273	268	268	270	269	270	271	274	276	275	270	269	270	271	272	270	272	274	274	275	274	273	270	267	266	268	270	270	273	272	272	270	271	271	272	271	271	271	265	263	265	266	269	270	268	266	263	267	268	269	268	266	268	268	269	272	268	261	263	266	269	263	267	267	268	264	263	262	262	262	263	260	260	268	264	262	262	262	260	260	266	264	266	268	268	265	263	261	264	264	264	262	265	265	264	267	266	266	267	266	269	269	264	269	274	272	270	268	263	261	265	266	268	265	265	265	262	262	265	270	270	268	263	261	260	262	263	263	265	266	266	266	264	261	262	259	260	266	265	265	265	265	267	269	267	268	262	265	262	261	263	263	265	267	263	261	260	259	261	269	268	264	264	267	269	269	268	268	267	266	262	264	265	266	266	264	263	264	266	264	265	267	267	266	264	266	262	262	262	262	262	263	270	269	269	266	265	266	265	264	264	264	265	263	265	265	265	263	261	263	261	262	262	261	263	266	264	264	266	267	264	263	263	260	263	261	262	261	262	257	261	263	264	265	265	267	267	266	265	266	275	266	271	272	268	263	263	265	260	260	263	262	260	262	264	264	269	261	264	266	266	264	265	263	262	263	262	262	262	263	264	264	263	261	258	260	260	263	264	266	266	265	265	266	267	263	258	258	259	259	260	264	264	263	262	260	260	262	262	262	262	263	263	263	263	262	261	261	261	262	261	260	261	263	264	263	264	261	254	255	259	260	255	257	259	261	263	265	265	265	263	260	260	262	263	263	262	259	262	261	261	258	256	256	257	260	259	257	257	257	257	258	258	256	253	255	255	256	260	259	253	258	255	258	256	259	260	258	258	259	257	257	258	257	255	253	251	249	254	257	259	260	258	258	258	259	260	260	259	259	261	262	263	256	255	255	254	251	261	261	255	251	255	255	256	254	254	254	256	262	263	261	259	254	257	259	255	257	253	254	253	261	262	261	261	259	259	257	256	255	257	255	254	255	257	258	258	259	259	259	258	256	252	250	253	256	261	260	260	258	258	254	259	259	262	261	257	256	256	253	254	253	254	256	257	260	258	255	254	253	253	256	257	258	258	259	258	257	253	256	258	257	255	254	256	258	257	258	259	259	260	260	259	257	256	255	253	251	250	251	250	251	251	251	251	251	249	246	244	246	255	256	258	259	258	0	0	0	0	0	0	0
274	273	273	269	269	272	276	276	277	278	278	277	277	276	277	274	272	272	276	277	273	269	270	270	269	269	269	272	276	276	274	275	277	278	275	274	274	273	274	276	275	276	269	270	270	272	272	273	275	276	279	281	281	281	280	275	273	269	268	268	273	274	276	271	271	270	269	268	269	270	267	267	266	267	269	267	268	266	269	269	271	272	275	275	274	274	274	273	274	275	273	272	270	270	271	272	272	272	275	274	274	272	271	269	268	268	269	269	267	269	269	266	269	273	275	277	276	271	271	265	265	265	266	268	269	266	270	272	271	266	264	264	265	268	272	273	273	272	271	271	269	267	266	268	270	269	271	270	268	268	272	273	270	265	267	268	263	262	263	264	268	269	268	267	262	265	267	268	267	266	267	267	273	268	265	263	263	265	267	264	260	264	264	261	261	261	261	261	259	257	257	259	259	260	261	261	261	264	263	263	266	267	268	264	264	263	263	265	265	262	262	261	264	267	266	265	266	265	263	261	259	260	266	266	266	265	264	262	260	259	261	261	261	264	262	263	263	263	269	263	260	260	263	263	263	265	265	265	265	262	261	260	259	258	259	259	257	265	263	264	267	267	264	261	262	262	261	262	258	260	262	261	259	265	262	255	259	263	263	260	264	266	264	267	266	264	264	263	264	263	264	264	262	262	263	263	265	265	265	265	264	264	266	266	264	262	262	260	262	264	268	266	264	262	263	262	261	261	258	264	265	264	265	263	261	261	261	263	263	259	261	260	260	263	264	264	267	266	265	263	262	262	262	261	257	257	261	257	260	258	260	261	262	266	266	267	266	263	263	264	269	266	262	259	258	259	262	264	263	259	258	264	265	267	270	263	266	265	261	265	259	259	260	260	262	259	256	261	262	263	263	259	256	257	257	262	264	265	264	258	260	265	263	261	255	255	256	258	259	260	261	260	259	258	259	261	262	261	261	261	261	261	259	256	258	258	260	258	256	260	260	257	260	260	263	261	254	255	258	254	256	254	255	258	260	257	260	261	260	260	258	258	259	260	258	255	257	259	256	258	256	255	258	260	257	257	256	255	254	254	250	253	252	254	255	252	252	252	252	255	254	253	254	258	257	256	257	258	259	257	256	256	255	253	252	250	254	257	258	258	256	253	253	256	258	257	256	256	256	259	256	255	252	253	253	250	259	255	250	251	253	250	253	251	251	253	255	257	258	258	258	255	252	251	256	255	254	252	254	255	253	253	253	255	253	252	253	254	257	256	253	252	254	254	255	258	257	258	261	254	253	253	252	254	259	259	257	253	252	252	256	256	256	256	256	257	256	255	254	251	252	252	252	251	254	252	251	249	249	251	256	257	257	257	256	255	252	251	251	255	254	252	252	253	255	257	255	255	256	257	258	256	256	255	253	252	249	250	249	251	250	246	246	247	247	248	249	251	252	255	255	254	256	256	0	0	0	0	0	0
273	271	271	261	262	265	270	270	271	269	268	269	269	271	269	266	269	269	273	275	273	266	267	267	268	269	270	271	272	272	272	272	273	276	277	274	270	270	269	271	269	266	268	271	270	270	273	274	275	275	276	273	272	276	276	274	271	267	265	264	268	269	269	270	270	270	269	266	267	266	266	266	264	266	267	266	264	264	266	266	268	268	268	273	273	273	273	273	275	276	274	272	269	271	270	266	265	266	267	268	267	270	270	270	271	270	269	268	267	265	264	267	263	269	270	273	273	269	267	260	261	262	263	263	263	263	266	267	266	265	260	258	261	262	268	269	269	267	265	269	267	266	264	264	264	266	267	267	266	268	266	263	262	263	265	266	265	260	261	262	262	263	263	263	263	264	266	266	265	266	268	269	268	265	261	262	262	263	264	257	257	258	258	262	260	258	258	257	258	260	260	256	253	255	256	260	264	264	263	263	264	266	267	270	263	262	263	263	260	262	261	261	261	261	261	263	263	261	261	261	260	263	267	265	265	264	263	264	259	258	260	261	261	258	257	259	263	261	262	261	259	261	261	261	262	264	265	263	261	259	260	260	260	258	259	257	256	260	259	258	265	260	258	260	258	260	260	260	259	262	260	260	258	261	260	255	259	263	263	260	263	258	261	263	262	260	260	261	261	259	260	260	261	260	260	262	263	264	263	263	264	262	266	266	264	262	259	254	254	255	256	264	261	259	258	261	260	259	261	260	263	256	260	262	260	261	259	258	258	258	261	258	262	259	262	264	263	264	263	261	261	261	261	256	256	258	258	256	257	255	253	253	260	260	259	260	260	256	254	254	255	254	262	255	257	259	259	265	265	259	258	261	259	260	260	262	261	261	259	259	256	258	258	258	262	256	257	260	260	262	262	257	257	256	257	260	261	262	261	261	259	260	257	259	256	255	257	258	259	260	260	258	256	255	256	259	261	262	261	258	258	257	251	254	256	257	257	253	252	252	253	253	254	255	260	261	261	259	256	253	252	254	255	254	254	256	257	256	258	259	258	258	257	256	254	253	254	257	257	253	249	254	255	257	257	255	254	251	250	249	247	247	249	249	250	250	249	251	252	252	252	253	253	252	249	249	252	256	255	254	255	255	255	252	251	249	254	256	254	249	250	248	249	249	250	252	253	253	253	255	253	253	252	251	251	255	253	249	250	251	250	249	251	250	249	249	253	253	252	253	256	256	254	254	255	255	252	253	254	254	254	252	253	254	253	252	252	254	256	255	256	254	253	254	253	255	257	258	259	255	251	253	251	252	254	257	256	252	251	252	255	255	255	255	255	258	255	254	251	251	250	252	251	251	248	249	248	248	248	250	252	253	255	254	255	253	251	250	250	250	251	251	251	252	251	251	251	254	254	254	253	254	256	254	253	251	251	248	249	251	248	248	246	244	245	249	251	251	251	251	251	252	251	251	0	0	0	0	0	0
272	267	267	261	257	262	265	265	265	265	263	263	263	261	260	261	267	266	266	266	267	266	266	267	267	269	270	274	273	271	271	270	270	272	271	269	264	264	267	269	268	266	268	269	269	269	272	275	274	271	269	270	270	267	267	271	270	267	264	264	265	267	269	270	269	269	268	262	262	264	265	263	264	265	266	264	265	264	264	266	266	267	266	270	271	271	271	272	272	271	273	271	269	269	267	264	263	263	262	263	265	264	265	265	262	263	268	268	268	265	264	263	262	262	263	266	266	260	260	258	257	261	262	261	260	263	264	266	264	262	263	259	260	260	261	261	259	261	264	263	263	261	259	260	262	262	264	264	265	260	259	262	261	261	260	261	260	261	260	261	261	257	258	260	262	261	264	264	263	263	263	262	259	258	259	260	261	260	258	255	256	255	254	258	263	261	255	257	259	264	259	257	255	255	258	261	261	261	260	262	263	265	264	260	255	254	256	259	258	258	255	253	254	254	255	255	258	259	258	257	260	262	266	264	264	260	261	260	260	260	261	261	259	259	257	258	261	259	259	259	260	260	261	261	261	262	260	259	258	255	259	259	260	258	259	260	257	257	257	257	257	258	259	257	257	253	259	259	262	262	262	262	262	261	260	258	255	256	256	259	255	255	256	263	262	260	259	260	259	259	257	259	260	258	259	260	260	258	262	261	260	264	267	266	263	260	256	254	255	255	256	255	259	258	257	257	256	256	255	262	254	256	257	259	263	260	259	257	257	258	259	261	255	255	263	260	262	264	261	259	260	259	260	259	257	258	264	262	261	256	252	252	251	248	250	252	254	258	258	259	259	256	257	255	254	257	258	258	260	259	258	257	253	258	258	259	258	256	258	256	256	257	257	257	256	258	257	258	256	256	255	255	252	253	253	255	255	255	256	259	258	253	255	258	258	260	259	260	259	258	256	253	254	253	256	256	253	254	250	250	251	250	250	252	255	256	254	252	251	252	252	253	254	254	254	259	259	258	258	255	252	251	252	253	250	253	254	255	253	256	256	255	251	252	252	253	253	253	253	249	246	245	252	255	253	250	251	251	250	250	247	247	248	250	251	247	249	249	250	248	250	251	253	250	253	244	251	250	253	253	252	252	254	252	251	251	249	249	248	250	248	248	248	248	247	251	250	250	250	250	250	250	249	249	250	250	249	248	249	250	248	247	251	250	249	249	250	251	251	251	256	257	256	254	252	252	252	253	253	255	251	250	250	250	252	253	254	255	255	254	252	250	251	250	250	253	251	250	251	250	249	242	241	243	247	254	250	250	248	243	246	253	252	252	254	252	247	246	251	250	249	248	246	248	248	247	247	247	248	249	251	252	253	251	252	251	250	249	247	246	245	249	246	248	249	249	250	249	249	251	251	251	251	252	253	251	251	252	248	248	245	245	243	242	245	248	256	247	246	252	247	245	245	245	0	0	0	0	0	0
266	258	252	252	252	253	255	255	257	257	259	264	264	264	263	265	266	265	265	266	267	263	263	265	265	270	273	272	270	271	271	270	265	263	262	265	265	266	266	267	267	266	266	266	266	266	269	272	268	268	268	268	268	264	264	266	267	265	265	265	265	266	265	269	268	268	266	260	260	261	261	262	263	265	264	265	265	262	259	260	260	262	260	262	264	262	261	260	258	255	258	269	262	264	264	263	261	260	261	262	263	263	262	261	261	261	260	260	260	263	265	262	261	260	262	262	259	258	257	255	259	260	260	259	258	261	260	263	261	261	262	263	261	261	259	256	256	257	257	261	259	257	252	253	259	262	262	261	259	257	257	258	262	262	257	257	258	259	260	260	256	256	257	260	262	258	257	262	260	261	263	263	262	257	255	258	259	257	255	254	253	252	250	254	258	256	255	257	261	261	259	259	259	256	256	257	259	258	261	263	261	262	262	258	263	256	255	256	256	256	255	254	253	253	252	251	253	254	256	255	259	262	264	263	261	257	255	255	257	258	260	258	253	254	254	261	255	255	256	256	256	257	258	258	260	255	253	252	256	252	255	256	256	255	256	256	256	256	255	256	254	257	258	259	260	259	256	260	259	262	261	261	259	259	253	255	253	252	253	258	254	253	252	262	260	259	258	259	257	257	256	255	257	256	256	258	258	259	255	262	260	263	267	266	264	256	255	253	254	253	254	255	256	255	256	253	252	252	254	253	253	256	255	258	260	259	259	258	255	253	258	251	253	259	253	260	260	260	258	256	257	257	257	256	255	258	257	256	256	256	254	251	252	252	253	255	253	256	257	258	257	257	257	255	256	258	256	257	256	256	255	252	255	252	255	256	256	252	254	254	254	254	254	247	249	255	257	257	257	255	252	250	250	249	253	249	255	257	255	251	252	251	252	256	255	255	258	258	256	256	255	250	253	253	254	252	248	249	248	251	251	249	248	250	250	250	251	251	251	251	251	252	254	253	253	250	258	258	258	257	253	251	248	248	249	251	253	253	248	251	252	252	251	251	251	252	250	249	248	248	245	241	243	245	245	245	248	249	250	250	249	247	250	250	252	249	247	247	247	245	244	245	248	249	252	243	249	244	247	250	248	247	251	249	246	249	249	249	250	247	247	247	246	245	248	248	247	249	250	250	249	247	246	248	248	248	247	247	245	245	240	246	244	245	247	248	250	252	251	249	255	256	256	253	251	250	246	248	251	254	246	245	246	248	253	253	252	252	253	252	251	249	249	248	248	249	250	251	248	249	248	242	240	242	246	248	252	251	243	241	241	246	248	248	249	250	245	244	250	250	249	247	245	243	243	242	243	247	247	247	246	244	244	249	250	247	244	244	245	246	245	244	245	247	248	248	246	246	247	248	248	249	247	248	251	250	246	250	250	247	247	241	242	242	244	248	249	248	243	246	243	244	244	244	0	0	0	0	0	0
260	250	256	256	252	249	251	252	252	252	253	253	255	255	262	267	266	265	265	266	265	260	264	265	265	264	265	264	267	268	266	266	264	264	264	265	264	266	266	268	266	266	266	266	265	265	265	261	266	269	268	268	267	261	264	264	266	262	260	265	266	265	262	258	257	258	258	258	257	258	261	262	262	262	264	263	261	263	262	261	254	254	254	257	259	261	262	259	255	253	252	258	261	263	265	263	259	259	260	260	263	262	260	259	259	260	260	259	256	257	260	261	262	264	264	260	258	258	256	257	257	258	256	257	257	259	257	256	258	260	261	262	261	260	258	253	254	255	257	257	258	255	253	253	252	259	261	257	256	255	254	254	258	260	260	257	254	255	254	259	257	256	253	254	256	256	254	256	257	257	255	254	255	255	252	254	258	258	256	253	253	251	250	254	256	254	255	255	255	255	255	252	251	259	255	258	258	255	259	259	259	261	257	259	256	257	254	256	257	255	254	255	257	249	250	250	255	255	255	252	256	255	254	257	256	253	252	253	256	251	251	259	255	255	255	255	253	253	252	253	253	255	256	257	258	256	253	252	248	250	251	255	256	252	251	251	256	250	250	250	252	254	255	258	260	259	256	259	259	257	258	255	254	256	252	252	249	248	249	249	252	248	248	250	255	254	254	251	256	256	254	255	254	253	254	256	257	251	250	249	249	252	260	267	257	257	254	254	254	256	257	255	255	255	255	253	250	253	253	253	250	251	254	253	260	258	254	253	252	253	250	250	250	250	255	257	258	257	256	254	255	255	258	252	253	253	255	254	253	254	253	252	252	255	255	255	254	253	257	256	257	257	257	256	256	254	254	254	252	251	250	252	255	253	253	254	253	251	250	250	253	255	251	247	252	254	256	257	257	254	252	250	249	250	253	257	252	257	255	248	249	250	252	253	253	254	256	256	256	244	244	244	248	249	250	248	247	249	250	251	250	247	248	249	249	249	248	249	250	250	251	251	251	252	248	248	248	252	254	254	254	250	248	248	247	248	248	248	247	247	248	247	247	250	251	251	248	247	246	243	241	239	243	243	245	243	243	245	248	248	248	246	250	250	252	248	248	246	247	242	242	244	246	246	245	243	243	245	246	246	245	245	243	250	249	245	247	247	249	246	247	245	245	243	244	246	246	248	250	251	248	246	245	245	247	245	244	242	242	241	240	245	243	243	245	245	247	248	250	248	246	247	253	250	250	247	247	244	247	249	250	248	247	246	249	250	251	249	247	246	246	247	243	247	247	247	250	250	247	246	245	246	239	239	238	244	244	244	238	237	239	243	243	242	246	246	244	242	240	241	248	246	244	243	243	242	242	242	245	245	244	242	241	241	241	242	241	242	246	243	243	243	245	245	245	245	244	242	244	245	245	244	247	246	249	247	243	244	241	245	245	240	243	241	242	243	245	244	242	243	243	243	244	245	0	0	0	0	0	0
258	252	250	250	252	247	249	250	250	250	250	252	253	253	253	257	259	260	259	259	255	260	262	263	261	261	259	260	255	256	263	263	261	261	262	262	264	264	264	266	264	264	263	265	262	258	258	259	261	265	266	265	262	264	268	268	264	260	259	261	261	264	257	255	256	256	256	255	256	258	260	260	261	263	262	260	263	263	263	259	257	257	257	258	256	255	256	258	257	255	257	258	261	263	264	264	259	258	257	261	260	259	259	258	256	256	256	256	254	258	256	258	259	260	256	253	257	256	256	255	254	255	256	254	256	256	256	254	255	257	259	257	257	256	248	254	252	254	255	255	255	252	254	254	254	255	252	252	254	253	253	254	257	259	258	256	255	253	254	254	255	256	255	250	250	250	251	253	258	251	252	251	250	252	250	249	250	255	257	252	250	250	250	249	251	252	252	254	254	254	253	252	251	253	257	258	256	256	255	255	256	257	259	254	250	250	250	251	249	249	249	250	251	252	249	251	253	254	252	251	250	251	252	252	253	251	250	250	252	251	252	252	253	252	252	252	251	251	252	252	251	252	256	256	258	257	254	249	248	249	249	249	255	249	250	249	250	250	250	247	250	250	250	257	255	254	254	256	260	258	249	249	251	251	251	248	249	248	248	248	247	247	250	252	255	253	252	251	249	249	250	250	250	248	253	254	253	251	253	250	249	251	258	253	251	253	253	251	253	255	256	256	255	256	255	255	252	251	250	250	250	251	251	250	250	254	253	251	251	252	251	250	251	251	254	255	253	256	255	254	252	251	251	252	250	254	254	252	252	250	252	251	252	255	255	254	253	252	252	253	253	249	253	253	254	253	251	249	249	248	246	246	249	250	253	253	253	250	249	249	251	255	253	247	248	252	255	254	254	252	252	250	250	250	251	251	245	246	244	246	248	248	249	253	253	250	246	251	250	244	243	244	245	245	246	248	247	248	250	248	242	241	241	240	244	248	248	247	248	248	247	247	251	248	247	246	246	248	249	251	250	249	248	247	245	245	245	245	246	247	247	249	247	248	249	248	245	246	245	244	240	243	243	244	243	242	242	244	247	248	247	245	245	252	250	249	248	247	246	242	242	244	244	246	242	241	240	245	245	245	245	245	244	246	248	245	244	244	244	244	243	244	243	243	244	246	247	247	246	247	246	245	244	244	246	242	243	241	241	241	244	242	241	238	237	240	243	244	244	243	245	245	246	246	249	244	241	241	242	242	241	243	245	249	249	246	244	243	242	240	240	242	243	245	245	247	249	247	243	243	241	243	241	241	242	242	242	241	241	240	242	244	244	242	242	242	243	242	242	240	243	245	243	242	242	241	239	239	240	243	243	242	240	239	238	240	238	240	244	240	236	237	238	243	242	243	239	240	241	243	242	243	243	243	240	241	242	242	242	242	241	241	242	242	242	243	243	242	240	241	240	240	242	243	0	0	0	0	0	0
249	249	251	251	249	244	243	246	246	249	250	250	253	253	253	253	254	255	254	254	255	260	258	258	257	257	255	253	249	249	255	257	257	258	259	260	260	262	263	263	259	260	259	257	255	254	257	257	259	260	261	261	258	258	258	256	256	258	260	256	259	259	258	258	257	256	256	256	255	258	260	260	258	257	255	257	261	261	257	257	256	257	257	257	259	254	255	255	255	258	255	256	255	254	254	253	252	251	254	258	258	254	255	255	254	254	255	255	255	255	255	256	256	257	255	253	251	253	253	254	254	255	256	253	255	253	253	253	252	251	251	254	251	250	247	250	252	251	251	252	252	252	247	252	255	254	250	251	251	249	251	252	252	256	254	254	255	254	254	254	254	254	252	248	248	249	249	249	252	250	249	248	247	246	249	249	249	255	250	250	250	249	249	249	250	250	251	251	253	253	253	252	252	252	257	257	254	252	247	247	255	256	253	251	248	247	248	248	248	250	249	248	248	251	252	253	254	255	255	252	252	252	252	253	252	250	250	250	253	251	253	254	251	252	250	249	249	249	249	249	252	252	252	250	254	255	255	250	249	246	247	248	249	252	250	249	250	250	248	247	249	247	247	253	253	253	253	254	256	250	249	248	247	247	244	244	245	248	248	247	245	248	251	252	253	251	248	248	249	250	250	249	249	249	253	253	251	253	252	251	253	253	253	251	248	251	253	249	252	253	253	254	254	252	254	255	254	250	251	249	248	249	247	248	248	251	250	251	251	252	251	251	251	252	252	252	251	253	248	250	248	249	250	251	249	253	251	253	253	249	248	250	250	253	254	253	252	247	246	249	252	250	252	251	250	251	249	251	247	244	245	245	247	249	251	254	252	250	247	247	248	254	247	244	246	249	249	250	248	248	252	252	252	252	251	251	249	247	239	244	250	248	248	248	250	245	246	245	247	246	244	243	246	247	247	245	246	249	247	245	244	241	240	243	241	247	245	243	244	246	246	246	248	247	245	244	245	245	247	246	246	245	244	242	242	243	242	241	242	247	246	249	244	240	240	242	241	243	243	243	242	242	241	242	242	242	240	245	244	244	246	246	242	240	245	247	244	242	240	239	242	244	244	244	242	239	240	242	244	245	244	244	244	243	243	246	241	240	242	242	241	241	237	241	240	245	244	242	243	244	244	242	242	242	238	237	238	239	240	240	240	239	239	237	235	234	241	242	243	242	245	244	242	243	244	245	238	238	242	242	236	240	238	243	243	243	243	244	244	244	240	239	240	240	240	246	248	244	244	243	243	241	241	241	240	240	241	240	241	242	242	243	242	240	241	241	242	241	240	242	241	244	242	241	241	239	241	242	242	241	241	238	235	234	238	238	236	233	238	238	238	238	238	238	237	238	238	238	239	240	241	241	241	237	233	237	238	239	242	242	242	241	242	240	240	239	239	239	239	239	238	238	238	239	0	0	0	0	0	0
247	249	247	246	246	244	243	246	247	247	248	251	256	253	253	254	254	254	254	254	255	257	254	255	254	254	252	250	250	250	253	257	257	257	257	257	258	260	262	262	258	257	257	256	254	254	255	255	257	256	258	257	255	252	254	256	256	256	256	256	257	258	257	258	257	256	254	254	255	257	260	261	258	255	254	254	260	254	255	255	255	256	256	256	252	252	253	254	254	253	255	255	254	253	253	254	251	251	253	256	255	253	254	254	254	253	252	254	252	253	251	252	253	254	254	250	251	251	253	254	256	258	259	254	250	253	252	251	251	251	251	251	250	248	249	251	250	249	248	251	251	250	250	252	253	250	249	248	247	248	248	251	250	252	253	255	255	254	252	253	255	256	249	249	249	248	249	248	249	249	248	246	245	249	247	251	245	245	245	247	247	247	248	248	248	248	249	247	251	252	253	250	251	251	252	252	250	249	247	246	249	252	251	253	249	249	249	252	248	246	244	246	247	249	250	252	252	253	251	249	247	251	253	253	252	250	250	253	251	250	250	250	250	247	246	245	244	247	248	248	252	251	251	250	248	247	252	250	247	246	246	246	248	250	249	248	248	247	246	246	246	245	244	244	250	251	250	247	245	248	248	249	244	244	243	243	247	247	244	244	244	248	250	251	252	252	249	248	246	248	249	250	249	248	247	249	253	252	251	251	251	251	250	249	248	247	245	246	252	253	253	253	252	252	253	255	255	249	251	251	248	249	249	249	247	245	245	250	249	251	250	248	250	251	251	251	252	249	247	250	246	245	247	247	251	246	249	251	247	247	245	246	249	247	251	252	246	245	244	245	246	248	249	251	250	250	248	251	248	245	243	247	248	248	249	252	248	249	246	246	246	243	243	243	248	249	249	249	248	248	252	253	252	250	245	245	246	245	242	242	245	248	248	245	247	249	248	247	248	246	246	246	246	247	247	246	246	246	243	243	243	243	244	244	244	243	243	243	244	246	246	243	244	245	245	245	245	244	245	246	244	245	243	243	242	242	241	241	241	239	240	237	238	239	241	241	241	241	241	242	242	240	241	241	243	244	242	241	244	244	245	246	244	239	238	239	239	241	241	242	241	243	243	243	241	243	242	242	242	242	242	242	239	239	241	243	242	241	239	239	240	241	240	239	239	239	240	244	245	240	239	240	240	241	237	235	234	232	238	240	239	237	237	235	236	234	231	239	237	238	240	240	240	241	239	238	235	234	234	234	235	235	237	237	237	239	240	243	243	242	240	239	236	239	238	241	240	240	243	243	243	241	241	241	239	238	239	240	240	242	242	242	242	241	240	240	241	241	241	241	242	241	241	239	239	239	241	241	242	241	240	237	237	237	236	238	234	233	232	237	238	238	238	238	237	236	238	238	237	238	240	240	232	237	239	239	237	236	236	238	238	240	241	241	238	238	237	237	236	237	237	237	237	237	0	0	0	0	0	0
247	246	242	241	241	243	244	245	247	247	247	249	256	253	253	254	254	253	254	253	253	253	253	254	252	251	251	249	250	251	255	255	255	255	255	253	253	254	256	256	254	254	256	255	253	253	254	254	253	252	254	254	252	252	253	255	256	256	257	254	255	254	256	257	257	256	253	254	254	260	261	258	257	256	256	253	253	255	255	255	255	254	252	252	251	251	252	253	254	254	255	254	251	249	249	249	247	248	248	252	253	251	249	252	253	246	246	248	250	250	249	249	249	254	254	250	249	251	252	251	252	253	252	252	252	251	250	250	251	250	251	250	250	248	250	250	249	249	249	250	250	250	249	252	247	247	247	246	243	245	248	250	248	248	248	254	257	256	249	253	253	254	254	247	246	246	246	246	249	247	246	246	246	246	248	247	246	246	247	245	244	245	247	247	247	247	247	247	247	245	245	246	247	250	250	246	248	248	247	247	250	250	251	247	248	248	248	253	248	246	245	242	241	247	246	245	244	251	251	249	247	247	251	255	254	249	249	246	250	249	250	249	249	247	246	245	246	247	245	248	249	249	249	249	245	242	243	249	248	245	245	246	250	250	249	248	249	247	245	242	246	245	245	244	245	249	248	246	246	246	247	243	244	244	243	242	242	246	244	243	243	245	246	247	248	254	248	247	247	249	249	249	248	246	246	248	249	248	249	248	245	246	249	248	247	243	243	246	246	246	249	252	252	251	254	255	253	249	248	251	250	250	250	249	244	243	244	245	248	246	249	247	246	247	247	245	246	245	246	246	243	244	246	243	245	244	245	243	245	243	244	244	243	247	241	249	242	242	241	242	247	249	250	249	249	248	247	246	248	246	247	246	247	249	247	241	243	246	246	245	244	241	241	247	247	248	249	249	250	250	249	249	250	246	238	239	241	242	242	243	244	242	245	238	240	244	245	247	246	246	247	243	243	242	247	246	244	242	240	239	243	244	243	246	246	243	243	243	243	246	246	244	243	245	242	242	244	244	243	244	244	242	242	242	242	241	239	238	238	237	238	236	237	237	238	241	240	240	241	242	239	238	239	240	243	242	242	239	241	243	243	239	239	240	239	236	236	233	240	242	246	244	243	243	239	241	243	242	240	241	240	239	238	239	240	241	241	240	239	239	238	239	237	236	234	235	234	234	235	236	239	238	240	240	235	232	231	236	239	238	239	238	236	236	235	235	231	233	237	236	237	237	238	239	237	236	233	234	234	234	235	234	235	236	237	240	239	237	237	237	237	238	238	240	241	239	236	238	240	238	236	240	240	240	239	237	237	237	238	237	235	235	237	241	242	242	242	240	240	240	240	240	240	239	238	238	239	238	237	236	237	239	239	240	234	232	228	231	228	237	237	237	237	236	236	238	238	238	237	235	235	236	237	238	240	236	236	234	234	236	233	232	234	237	237	235	235	234	240	238	237	237	235	235	0	0	0	0	0	0
247	246	241	241	241	244	244	245	246	246	246	248	253	253	251	251	250	250	251	250	250	252	253	248	249	248	248	249	251	253	253	253	253	253	252	252	254	251	250	254	250	256	254	253	254	253	253	253	253	250	250	249	247	250	253	255	255	255	256	256	255	252	252	251	248	245	245	244	244	248	250	251	253	253	252	250	253	254	255	255	255	254	251	250	250	249	250	250	255	254	256	253	249	248	248	247	248	244	248	248	248	246	246	248	250	246	246	246	245	247	247	248	248	248	252	250	248	249	247	249	249	250	250	251	250	250	248	249	248	249	245	246	248	249	247	244	248	243	247	248	248	249	249	245	246	247	247	244	242	244	248	248	249	248	249	255	257	256	250	251	250	248	246	245	246	244	246	248	249	248	247	246	245	246	246	248	245	246	245	245	244	244	245	246	243	244	246	248	248	245	244	246	245	248	243	247	249	247	248	247	249	249	245	245	247	247	247	246	247	244	245	245	243	241	243	242	241	246	249	247	248	250	246	245	247	244	245	246	245	250	251	245	244	246	246	248	248	245	244	246	248	248	246	246	243	242	240	247	247	247	248	241	242	247	246	244	243	242	242	242	246	245	241	241	241	247	247	246	246	246	248	243	242	242	243	243	244	244	245	246	247	244	244	243	247	248	248	245	245	248	248	247	247	247	246	246	247	247	247	243	239	244	244	247	246	243	244	244	243	243	245	246	245	244	247	249	250	246	247	250	247	248	247	244	244	243	244	245	245	243	243	245	245	243	243	246	239	247	247	243	242	242	245	245	245	244	245	241	242	242	242	242	242	243	241	242	243	240	241	241	241	241	242	243	247	247	247	245	245	244	243	247	250	250	242	242	240	240	244	243	245	243	243	245	246	245	248	248	249	249	244	243	242	240	239	239	240	241	242	242	242	242	237	239	234	238	241	244	245	247	242	243	243	245	241	245	243	240	237	237	234	238	238	240	246	245	244	243	245	245	246	242	245	245	242	242	243	244	243	243	242	239	241	242	239	241	238	240	240	239	239	238	238	238	239	239	239	239	240	240	238	239	236	235	236	240	241	239	241	242	239	237	238	238	238	236	234	234	238	244	243	246	243	238	240	240	241	240	237	237	237	237	237	238	239	239	240	237	236	237	237	237	236	233	235	235	235	235	235	236	236	236	237	237	235	233	233	236	236	235	236	238	237	235	235	234	231	232	236	235	235	236	233	235	236	236	232	232	233	234	234	234	227	230	234	239	238	236	234	234	233	234	237	239	240	239	238	234	233	233	230	232	231	233	240	236	234	233	236	233	231	230	236	237	239	239	239	238	239	237	238	238	238	237	237	237	236	237	237	236	235	237	236	233	233	232	231	232	232	235	235	235	234	232	232	235	235	234	236	230	231	232	234	236	232	234	233	233	232	231	233	233	232	232	235	233	233	231	233	233	238	237	235	234	0	0	0	0	0	0
243	243	244	242	240	240	244	246	246	247	247	250	250	251	250	250	248	248	246	249	253	253	254	247	248	248	249	249	251	251	251	252	252	252	250	250	251	249	249	250	250	252	253	253	251	251	251	252	252	250	250	248	249	250	252	253	255	255	255	253	252	251	251	250	248	246	245	244	245	245	248	249	252	251	250	248	252	254	255	256	254	253	250	250	248	248	249	247	247	249	251	251	249	247	247	249	243	247	244	247	246	242	243	239	244	248	249	249	247	246	245	247	247	249	249	248	246	244	245	246	247	249	245	245	245	248	247	247	248	247	244	242	247	248	244	245	245	241	243	244	243	243	244	244	244	247	249	247	244	247	241	239	244	246	247	248	248	246	245	241	241	242	244	246	246	246	245	243	248	247	247	247	245	246	245	243	245	245	245	245	247	243	244	240	240	244	245	247	246	244	244	244	243	242	240	241	241	242	243	243	248	247	244	243	240	243	244	244	244	245	245	245	242	242	242	241	239	238	242	244	247	250	245	245	246	245	242	244	244	244	242	241	240	239	237	237	248	244	244	244	247	248	245	245	243	241	241	240	245	243	242	242	246	243	244	240	241	240	242	244	245	241	241	240	243	244	243	247	247	247	247	244	242	241	243	243	243	244	244	246	247	244	244	242	244	247	241	241	243	243	244	245	243	241	244	243	244	244	240	242	239	240	245	242	243	244	244	246	245	244	243	243	243	242	243	244	245	245	247	244	246	248	245	243	243	244	244	244	241	241	241	244	243	243	242	240	239	242	243	244	242	243	243	245	244	243	243	240	242	241	239	239	240	241	242	244	240	240	241	241	241	241	240	241	242	243	244	245	245	245	245	246	247	249	247	239	240	241	243	242	241	240	243	243	245	240	239	240	241	242	245	245	240	240	238	238	240	243	243	242	242	237	239	236	236	236	240	240	240	240	241	241	241	241	246	240	236	237	234	235	237	236	237	240	240	246	243	245	243	242	240	241	242	244	243	241	241	245	243	241	241	241	239	239	239	240	240	238	238	242	239	240	236	235	239	238	234	233	234	239	235	235	234	235	240	238	238	239	239	235	237	237	237	238	238	237	233	234	238	240	242	241	237	236	235	239	240	240	237	237	235	234	236	237	237	236	234	235	235	234	237	236	234	233	233	234	236	236	236	235	233	235	236	235	234	232	233	235	234	234	233	232	229	230	234	232	229	230	233	235	234	233	232	235	235	235	232	232	233	234	227	227	226	228	231	233	234	232	232	231	231	232	235	231	231	239	238	233	232	232	228	229	230	232	233	234	233	231	235	233	231	230	230	235	235	237	237	236	237	237	236	234	233	235	236	229	228	235	235	237	236	235	235	233	232	232	232	230	230	233	233	232	231	230	230	232	233	233	231	231	230	230	230	229	231	231	231	231	231	233	232	232	230	229	229	233	231	229	230	230	233	232	230	230	0	0	0	0	0	0
245	246	246	245	245	245	248	245	245	247	247	249	249	248	248	248	246	245	245	248	248	248	249	247	247	248	247	247	248	248	249	245	247	247	248	249	249	249	252	251	252	250	252	250	249	248	248	249	247	247	250	247	251	251	251	249	250	250	250	250	250	250	250	249	248	247	246	245	243	243	242	241	242	248	248	247	244	254	255	254	253	250	248	249	244	244	246	242	243	246	246	242	243	249	249	243	246	250	249	249	247	246	245	243	240	244	242	244	244	243	243	243	244	246	247	247	244	244	244	246	246	246	247	246	246	246	246	246	246	245	244	242	246	248	242	239	241	239	238	238	241	241	241	238	241	241	244	245	245	244	239	240	241	246	246	247	247	246	243	240	241	240	241	242	243	243	243	243	237	238	239	243	235	239	237	243	246	245	245	250	248	243	238	238	238	239	241	243	244	241	244	244	241	238	238	240	241	240	242	241	247	245	241	240	237	238	241	241	243	244	239	240	241	243	242	240	239	237	234	241	242	246	245	245	242	242	240	241	241	242	242	241	237	236	234	236	237	244	246	242	246	244	241	242	239	239	240	239	238	244	243	242	240	241	242	242	240	240	237	237	238	239	240	238	238	243	242	243	245	246	244	244	242	241	243	244	243	243	243	243	244	242	241	242	247	241	241	240	241	242	243	242	242	239	238	238	240	240	240	240	239	244	244	242	238	239	241	244	242	244	242	243	242	241	240	244	248	247	244	242	243	239	240	242	242	243	241	239	239	240	239	241	242	242	243	243	240	241	242	242	241	243	242	241	242	243	240	237	239	239	237	239	240	240	240	240	239	239	238	240	240	239	240	243	243	241	239	241	244	244	245	245	246	246	240	234	239	239	242	243	237	238	238	237	235	236	237	242	239	239	239	240	241	238	238	239	242	241	238	236	235	234	234	234	234	235	238	241	240	239	240	241	240	238	239	237	235	235	234	234	234	235	235	238	238	238	238	239	239	239	238	241	242	243	242	240	240	240	236	239	238	238	238	238	236	238	236	236	237	239	241	238	235	234	234	235	233	233	233	234	235	235	234	232	234	232	237	239	239	238	235	235	235	237	237	235	231	234	238	237	237	236	236	237	233	232	236	239	237	235	233	229	229	230	229	233	233	232	232	232	232	233	233	232	231	231	235	237	237	235	232	231	231	234	232	232	233	234	233	230	231	230	231	230	231	229	232	232	230	229	231	230	233	233	234	233	231	229	230	231	229	227	225	224	226	229	234	231	229	229	230	228	228	225	225	225	225	228	230	229	226	222	223	225	232	232	230	227	230	230	231	228	228	233	235	235	235	233	229	231	230	230	230	230	233	228	228	235	233	235	233	234	233	230	232	231	227	228	229	229	231	229	229	229	229	228	231	231	232	230	230	228	228	227	230	230	230	230	233	233	233	232	228	226	227	227	227	228	228	229	231	230	229	229	0	0	0	0	0	0
247	247	248	245	248	248	247	245	241	240	240	240	244	243	244	242	242	242	244	245	245	245	248	246	245	244	243	243	243	244	246	246	242	243	243	248	247	246	246	249	250	244	250	247	246	245	245	246	245	245	246	245	246	249	248	249	250	251	250	250	249	248	248	248	247	245	242	241	240	239	239	241	242	243	245	245	245	248	251	249	245	244	244	243	246	243	243	244	244	244	244	243	243	247	247	246	249	247	247	249	248	246	245	243	243	241	240	243	243	243	242	243	244	244	246	246	245	243	243	246	241	241	243	246	246	243	244	241	240	240	240	242	243	246	245	243	243	242	237	239	240	241	238	238	238	240	240	238	243	241	238	239	242	238	237	238	241	240	239	239	239	239	240	240	243	241	242	240	235	234	236	241	236	235	234	235	238	243	244	243	242	242	237	237	237	238	239	238	238	247	242	243	240	237	236	237	239	240	239	238	244	242	241	237	235	233	236	240	241	237	239	240	242	243	241	239	237	233	232	238	239	242	241	243	241	239	238	239	244	241	242	239	238	234	234	235	239	240	242	245	245	246	241	240	240	238	239	238	238	238	238	239	241	242	242	242	244	244	243	243	238	238	237	236	235	235	242	240	243	243	244	243	240	241	242	243	243	241	241	238	231	236	238	242	238	242	241	236	238	240	242	241	241	240	239	239	239	236	238	240	240	241	240	240	241	239	241	242	243	241	243	242	241	240	241	242	243	242	242	242	243	239	239	239	239	238	237	237	238	240	240	241	242	241	240	242	241	241	241	240	240	240	243	238	238	237	238	237	238	238	237	236	238	239	240	240	239	238	237	241	240	239	236	239	237	240	237	236	238	243	244	244	240	236	236	238	236	237	239	239	238	238	238	236	236	237	238	238	237	238	239	239	238	235	233	237	239	239	238	233	232	233	233	231	232	234	236	238	239	239	239	238	238	238	237	237	235	234	234	234	234	234	236	237	235	236	236	236	237	237	238	238	242	241	240	237	235	235	234	232	234	236	236	236	236	235	234	233	237	238	237	234	234	233	236	236	233	230	230	231	232	234	233	235	234	233	232	233	238	235	234	231	234	234	234	232	231	233	234	237	234	235	234	234	229	229	231	235	230	231	229	229	231	231	231	230	229	231	231	230	234	233	233	233	231	231	232	237	235	235	232	230	232	234	234	233	234	234	233	232	228	228	228	227	228	229	227	231	228	228	229	228	230	232	232	233	232	230	226	229	228	227	224	223	223	226	227	228	228	227	229	228	228	224	225	224	225	226	229	228	226	227	229	227	227	227	227	224	223	224	228	229	227	226	226	235	232	231	229	226	227	227	226	225	228	229	228	228	230	232	231	231	228	227	230	229	226	228	228	229	229	228	227	228	225	220	229	231	226	227	228	229	228	227	229	230	230	227	227	228	229	228	225	223	222	226	227	228	228	228	228	228	225	225	0	0	0	0	0	0
245	245	247	252	247	245	245	242	237	238	239	239	241	244	242	239	239	240	242	243	246	247	247	246	243	243	243	243	243	246	248	247	243	239	239	245	244	243	245	247	244	242	243	243	243	241	241	243	244	244	244	243	244	243	243	246	247	248	248	248	248	247	247	247	246	244	241	239	239	240	241	241	242	243	244	247	245	247	244	246	243	240	242	242	244	243	240	240	241	242	243	242	241	242	247	248	247	245	246	248	247	246	242	242	243	242	240	240	241	241	243	239	243	243	244	244	244	242	240	243	244	242	242	242	241	242	243	240	240	243	242	241	239	243	234	234	239	240	237	237	238	240	237	238	238	238	240	237	235	232	231	231	233	235	236	237	237	240	240	240	240	235	235	236	240	240	239	237	236	233	234	235	235	235	236	235	236	239	241	240	239	238	237	235	235	236	238	237	237	240	240	240	238	238	236	236	236	237	237	238	238	240	240	236	233	230	233	237	237	239	239	238	241	241	240	236	238	234	234	236	238	238	238	239	239	237	240	240	241	238	239	238	238	237	234	232	237	239	238	240	242	240	241	242	240	237	237	236	236	238	238	238	239	239	240	241	243	243	242	239	238	235	236	236	234	234	235	239	243	243	243	242	238	240	240	240	240	238	241	236	231	232	232	232	242	242	238	234	234	237	240	241	241	241	240	238	236	236	235	239	242	238	239	239	239	240	238	238	237	235	236	238	241	240	239	242	243	242	241	240	240	240	238	239	236	236	236	236	234	244	244	243	239	237	238	241	241	241	241	239	238	233	233	235	234	237	240	237	237	235	236	236	236	237	238	239	239	238	235	236	236	238	236	238	238	236	235	234	235	235	232	233	235	236	236	236	235	236	238	235	235	236	238	238	236	237	237	236	236	238	238	237	234	234	235	234	239	241	238	236	233	233	231	230	232	234	234	236	235	237	238	235	238	238	237	236	234	233	233	234	235	233	234	235	234	232	232	232	233	235	234	233	231	232	232	233	235	236	235	233	234	234	235	234	234	233	232	232	230	233	234	234	234	235	237	235	233	231	230	229	230	232	232	235	235	232	232	232	233	234	234	229	227	230	230	232	232	232	234	232	231	231	231	232	225	226	227	228	230	230	228	228	228	229	229	229	229	231	230	229	231	234	237	232	231	232	231	233	232	230	229	229	229	234	232	231	232	231	230	229	230	228	226	227	228	228	230	229	229	228	227	226	226	231	232	232	231	231	226	227	226	225	224	223	225	226	226	224	226	226	225	225	223	225	225	224	224	223	225	227	228	229	229	227	227	226	225	225	226	224	226	225	225	226	226	224	225	229	226	224	223	224	225	225	225	227	227	227	228	231	229	227	225	225	226	227	226	230	230	229	228	227	226	224	222	222	220	220	225	225	226	225	226	226	229	229	229	227	227	228	228	227	224	225	223	224	225	225	225	225	227	224	221	221	0	0	0	0	0	0
242	242	244	243	242	239	239	238	237	239	239	239	238	242	240	237	237	239	242	243	243	243	243	246	243	243	245	243	243	243	246	246	240	238	241	241	241	242	243	242	242	243	243	242	240	243	244	243	243	242	242	242	243	242	241	245	247	248	248	248	249	244	245	244	243	241	239	238	238	240	241	241	241	242	240	243	243	241	241	239	241	238	237	237	239	240	240	240	238	240	241	239	238	241	246	244	242	240	239	239	240	241	239	237	236	238	238	240	240	241	242	240	244	244	243	242	242	242	235	241	240	241	241	241	240	240	236	235	236	237	241	234	238	234	235	234	238	238	236	236	234	235	235	236	237	237	237	238	242	240	238	237	234	236	236	236	237	237	241	240	231	233	233	236	237	238	237	236	236	233	232	234	235	235	235	236	237	238	238	238	237	233	231	231	234	233	234	235	234	233	233	235	239	238	236	236	236	237	237	237	236	235	235	233	233	235	237	240	241	240	239	238	242	240	240	235	235	237	237	232	235	237	238	239	238	234	235	239	238	235	236	232	233	230	230	232	232	235	237	237	238	238	239	235	240	235	233	233	235	238	238	238	237	233	236	238	237	234	232	230	228	234	233	233	234	234	236	237	240	243	241	241	236	237	238	239	238	236	238	236	232	230	234	236	237	237	234	235	234	236	239	239	238	238	238	236	236	236	237	237	236	235	236	236	237	240	236	234	233	233	235	238	239	241	238	239	237	237	237	236	234	236	239	236	236	236	233	236	237	234	237	241	239	235	236	237	237	239	239	238	237	235	236	236	237	237	236	237	236	236	236	236	235	235	238	237	236	233	233	235	235	235	238	237	238	237	233	234	234	235	234	234	234	236	238	239	235	238	233	234	235	235	235	237	236	234	233	236	237	237	237	237	233	233	233	231	236	237	236	236	235	234	231	229	230	233	235	234	235	233	237	234	234	235	237	236	234	232	231	232	233	233	233	232	232	231	230	230	231	229	228	229	230	229	229	230	232	233	235	234	234	236	234	233	232	231	231	228	227	231	233	234	233	236	232	232	231	230	230	230	229	230	232	235	235	234	232	232	233	234	233	229	225	228	229	231	232	232	232	230	230	228	231	229	227	227	227	227	229	228	227	226	225	226	228	228	228	228	228	228	231	232	231	227	230	229	227	229	230	227	225	229	233	228	231	231	229	229	228	227	227	226	227	227	228	228	227	224	226	227	226	226	227	228	229	229	225	223	224	226	226	225	225	228	226	228	224	223	223	223	225	224	222	224	226	226	226	222	225	227	228	228	229	228	227	224	224	224	224	225	222	222	222	224	225	225	225	223	222	221	223	223	223	222	224	225	226	226	228	227	229	227	224	224	225	227	227	227	228	227	223	223	223	222	223	218	221	218	223	224	225	225	225	224	227	227	226	225	227	227	227	225	223	219	226	226	225	225	223	221	224	224	222	219	0	0	0	0	0	0
239	241	241	243	242	239	239	239	238	240	238	238	237	241	237	238	239	239	239	240	243	243	243	243	241	242	241	239	239	239	237	236	235	240	241	241	241	241	243	243	243	242	242	242	240	239	241	242	239	240	240	240	239	237	238	240	241	246	246	246	246	238	238	243	241	239	238	238	237	239	240	239	239	239	240	240	242	240	240	240	238	236	235	237	239	240	240	238	238	238	237	238	237	237	237	237	241	241	239	239	240	240	238	234	237	233	238	239	238	238	240	243	244	244	243	242	241	238	238	240	233	239	239	239	231	238	235	234	235	234	233	234	231	233	233	235	235	236	236	234	233	234	234	236	236	236	238	239	244	240	238	237	237	235	232	234	234	235	236	232	232	231	233	235	235	235	235	237	236	233	232	229	227	227	228	229	231	234	235	235	234	233	231	231	231	233	234	232	233	233	234	234	235	239	236	238	238	238	239	236	236	232	232	230	230	237	237	237	236	237	239	238	237	241	241	239	240	238	234	232	235	236	236	234	231	233	235	235	238	237	236	232	232	230	229	231	232	234	238	236	234	234	235	237	234	234	234	230	229	231	233	233	232	235	236	235	237	236	233	230	228	226	232	230	229	234	236	237	238	238	237	236	234	235	233	234	237	237	236	237	233	233	233	232	234	234	236	234	235	238	237	236	235	238	235	232	232	233	235	235	232	232	231	235	235	234	235	232	233	232	232	235	235	234	234	235	236	235	234	233	235	235	235	233	233	232	231	235	234	235	236	236	236	234	233	233	233	233	233	233	234	233	232	230	229	234	237	236	236	234	234	234	231	231	230	230	232	233	233	233	233	236	239	237	234	231	230	227	227	231	233	233	232	232	235	238	236	234	234	233	234	234	236	236	235	234	235	235	235	235	235	235	234	234	232	231	235	235	235	235	235	233	232	232	230	231	233	236	233	232	229	231	232	230	230	227	230	232	232	232	233	233	232	230	230	230	232	231	230	228	228	228	230	229	229	230	231	231	232	232	234	234	232	233	231	228	227	227	225	227	227	228	229	230	229	229	230	229	230	229	230	230	234	236	234	233	231	231	232	233	227	227	227	227	230	232	234	232	231	231	229	227	228	228	234	233	228	228	228	228	227	225	226	225	227	227	227	227	226	227	227	228	227	229	227	227	227	226	227	226	225	226	231	229	228	229	228	227	226	226	226	225	225	224	223	224	224	223	223	225	220	220	225	228	229	225	223	219	218	218	219	217	224	228	228	228	228	225	222	222	224	221	220	219	220	220	224	224	219	218	222	221	220	219	221	222	223	223	226	223	221	222	221	222	223	223	223	222	226	226	223	222	221	220	223	223	222	223	226	225	223	222	219	219	220	224	224	225	224	224	224	223	223	223	222	219	220	222	221	224	223	222	219	224	224	221	224	224	226	226	225	223	220	216	226	225	225	224	223	220	221	222	223	223	0	0	0	0	0	0
236	239	239	242	243	240	238	238	238	238	236	233	233	234	236	235	235	235	236	237	238	240	240	240	241	241	238	235	236	236	238	241	240	241	242	242	241	242	244	242	243	241	240	240	240	239	237	237	237	238	238	238	238	239	240	243	244	240	240	241	241	238	237	234	235	235	235	236	234	235	235	234	234	236	237	239	239	237	238	238	238	236	236	237	239	239	238	237	234	234	234	235	236	236	236	237	240	241	241	238	238	238	237	233	233	234	235	237	231	232	234	239	241	238	236	236	236	236	233	233	233	238	233	233	233	232	234	232	232	230	232	233	233	234	234	231	233	236	233	232	231	233	235	235	237	238	238	239	239	234	239	237	235	236	231	233	233	235	236	231	231	233	233	234	235	234	236	236	236	232	230	230	228	226	225	223	231	233	233	232	234	235	237	232	231	228	232	233	234	234	234	234	233	234	235	228	230	238	231	233	234	231	229	229	233	233	233	231	231	236	237	237	235	237	238	234	232	232	233	234	233	234	231	228	230	232	233	234	236	232	231	230	233	232	230	233	231	233	237	234	235	234	233	233	232	232	233	229	227	227	229	229	229	231	231	234	233	232	232	229	228	226	231	231	230	233	236	237	238	235	235	235	237	234	230	234	235	238	236	236	236	230	231	232	233	235	234	232	234	234	233	232	230	234	232	227	226	225	227	230	232	232	231	232	233	233	235	234	233	232	233	232	232	231	233	234	234	235	234	232	234	235	235	233	231	233	234	235	235	232	234	233	233	232	232	232	229	232	232	232	232	232	230	228	227	231	236	236	236	234	234	231	232	230	229	230	235	232	233	232	233	235	231	238	233	232	227	226	228	228	231	232	231	230	235	236	235	234	238	237	235	231	233	234	232	232	232	231	232	234	232	232	231	231	230	231	231	233	235	234	234	232	228	230	230	231	230	230	229	227	226	228	229	228	232	231	233	231	231	229	230	230	228	228	228	229	232	232	232	230	227	224	226	227	230	229	229	230	230	226	224	229	227	229	227	226	226	224	224	227	227	226	227	228	228	228	228	230	225	227	229	230	232	230	231	229	226	228	225	224	224	226	226	227	228	227	231	232	231	230	229	226	226	224	224	224	228	229	228	227	227	221	224	225	225	227	227	226	224	225	227	225	225	227	227	229	226	226	225	225	224	225	228	228	227	226	226	225	224	224	222	222	222	224	223	223	224	221	220	221	219	220	220	222	225	228	223	219	217	218	219	217	216	215	216	220	219	227	220	220	220	221	220	219	218	216	215	219	219	219	218	219	220	219	218	218	218	218	220	220	220	218	216	221	219	222	222	223	223	222	221	220	220	220	218	219	219	220	223	222	222	221	220	222	220	220	218	217	220	224	224	224	220	219	221	222	221	218	222	221	222	220	217	217	220	220	220	222	223	223	222	221	219	218	217	225	225	225	223	221	219	220	221	222	0	0	0	0	0	0
234	239	239	242	242	237	236	236	237	238	231	233	233	232	235	234	233	233	233	233	235	237	240	240	240	237	236	235	236	236	238	238	236	237	241	242	242	243	245	241	242	241	239	239	238	239	238	237	238	237	238	238	238	238	239	236	237	239	240	241	238	238	235	234	233	232	233	234	236	240	240	234	234	234	235	236	237	238	237	237	237	234	236	236	235	235	234	234	232	232	232	233	234	235	236	237	240	240	238	236	236	237	239	238	235	234	233	228	228	230	231	235	239	235	235	234	233	233	233	238	240	235	234	233	233	234	235	235	233	228	229	230	229	229	230	231	230	236	231	232	229	236	237	235	237	237	238	239	239	235	235	235	235	230	231	232	233	232	232	234	236	235	234	234	233	233	235	234	234	232	230	230	228	226	225	231	235	231	228	229	231	233	233	233	232	233	232	233	233	233	233	233	234	232	230	226	227	229	228	229	231	231	231	232	233	230	229	231	232	233	235	236	234	234	235	232	232	231	231	231	231	228	227	228	229	232	231	229	230	231	230	230	233	232	230	232	230	229	233	234	235	234	231	228	227	226	227	228	226	224	225	227	227	230	230	231	231	232	231	229	226	230	232	232	233	237	237	236	235	234	233	231	230	230	229	230	234	235	234	231	230	231	231	232	233	234	233	231	232	232	233	229	230	228	227	227	228	229	229	232	232	232	231	232	232	233	232	230	228	228	230	230	231	229	230	234	235	233	232	233	232	230	233	231	231	233	234	230	228	232	233	233	231	230	230	228	225	231	231	232	232	231	228	228	228	228	231	235	235	233	231	232	231	231	229	231	232	232	231	231	230	231	229	231	233	231	228	224	228	231	231	231	231	230	231	234	233	238	238	235	234	230	229	230	230	231	231	230	232	232	231	230	231	228	226	229	229	231	232	235	233	232	226	223	226	226	228	229	229	227	226	229	230	232	230	231	232	231	229	227	225	227	227	227	228	230	229	231	231	230	227	225	224	226	228	229	228	229	228	226	225	225	228	226	226	226	224	223	222	224	225	225	225	226	227	228	229	228	226	225	229	229	227	225	224	225	224	226	227	224	225	223	224	225	225	226	229	226	226	223	222	224	223	223	222	222	222	226	228	225	225	225	223	225	225	225	225	222	223	224	223	223	225	226	227	227	227	227	227	225	223	222	218	219	221	225	226	223	224	223	222	222	221	221	223	223	218	219	219	219	220	219	220	218	216	218	218	225	225	222	220	216	216	217	218	215	215	221	220	214	212	214	215	219	217	215	214	219	219	218	218	219	219	218	218	217	218	218	218	217	217	214	214	215	216	218	222	223	223	222	217	218	218	214	214	216	217	217	219	220	220	220	220	221	221	220	216	218	219	224	223	218	219	219	221	222	221	216	221	219	219	218	217	217	218	219	219	218	220	221	219	218	217	217	216	216	217	222	222	220	217	219	219	217	0	0	0	0	0	0
236	238	241	241	239	234	234	234	233	232	231	231	231	232	235	236	233	232	232	233	234	236	238	238	239	233	236	237	238	237	237	235	233	234	235	237	237	239	241	241	239	238	237	237	237	237	238	237	236	238	238	238	238	233	235	236	237	239	240	239	238	234	234	232	234	234	235	236	236	236	237	236	235	235	235	236	236	237	237	237	233	236	234	234	232	233	231	230	228	229	229	231	234	236	237	237	238	237	232	233	233	235	234	236	235	233	233	225	227	230	230	232	233	237	233	233	229	229	230	234	234	234	233	234	233	233	235	235	232	232	230	229	228	226	228	229	229	231	232	235	237	236	234	235	236	235	235	239	237	236	235	235	233	231	231	231	231	230	226	225	229	231	233	232	233	232	234	233	232	232	235	231	229	230	232	232	234	232	229	229	229	231	231	230	231	231	234	232	232	232	232	231	232	231	230	229	229	229	229	229	233	231	228	227	229	229	225	227	230	232	234	234	232	231	230	230	230	231	230	230	229	227	228	228	229	229	229	228	228	230	230	234	235	232	231	232	228	229	233	233	233	232	230	228	227	226	225	225	223	224	224	226	227	228	228	229	230	232	231	232	229	230	231	232	233	233	237	233	229	230	226	227	227	230	231	231	230	229	229	228	229	230	230	230	232	233	232	232	232	233	230	231	228	228	228	231	230	231	230	231	232	232	231	231	230	230	231	229	228	228	227	228	227	226	229	233	234	232	230	231	232	232	231	228	229	231	232	229	227	226	226	227	231	230	229	227	224	229	229	231	230	228	230	227	226	226	229	232	233	232	231	231	230	230	227	230	231	231	230	229	229	229	229	233	233	231	228	226	224	225	225	226	229	228	227	226	227	232	235	235	232	229	227	228	231	229	231	228	231	232	230	229	227	227	227	225	228	228	230	233	234	230	226	225	224	228	227	228	228	227	228	230	229	230	231	228	227	230	229	226	225	223	221	224	228	230	228	229	229	228	228	222	224	226	228	227	227	228	225	225	224	225	226	226	224	225	225	222	220	222	222	224	225	226	225	229	228	226	228	228	231	231	230	228	222	222	223	224	224	223	222	223	223	224	223	225	228	226	224	223	223	223	223	222	222	219	219	222	225	224	223	224	223	225	224	225	220	221	221	222	221	221	221	223	223	222	226	225	225	221	220	219	218	218	220	223	222	223	222	222	222	221	218	214	215	215	218	219	220	220	219	219	218	218	216	214	216	222	224	224	224	220	216	216	214	212	212	217	220	214	211	218	219	213	213	213	217	220	220	220	219	216	215	216	217	218	218	219	216	215	215	213	209	210	212	213	215	218	221	216	213	213	217	215	214	214	215	214	218	219	217	216	216	217	217	219	216	216	216	216	216	217	217	219	219	218	217	217	218	218	218	217	217	217	216	217	218	217	220	218	216	215	217	215	214	214	216	218	220	220	217	217	218	216	0	0	0	0	0	0
232	234	234	234	234	233	231	230	230	231	231	229	230	230	232	236	234	233	233	232	234	235	235	235	235	233	238	238	237	235	235	234	232	233	233	235	234	234	236	235	237	236	232	232	232	231	234	235	236	236	236	232	232	232	232	234	237	237	238	235	234	231	231	231	234	234	236	236	235	236	237	236	234	233	233	232	231	231	230	232	233	235	235	232	231	231	229	228	231	230	230	230	232	237	237	234	232	232	232	232	232	231	232	232	235	235	233	230	227	230	230	229	230	230	232	231	224	229	223	228	228	228	229	230	231	230	230	230	230	231	230	230	228	228	230	230	230	231	233	232	227	231	233	233	234	233	234	238	237	228	229	229	230	232	231	231	230	229	225	225	228	231	232	232	230	229	227	225	227	230	233	231	230	231	231	235	234	232	229	228	229	230	230	228	228	230	230	231	230	229	224	225	226	228	229	229	229	230	229	229	233	233	227	227	226	228	224	221	223	228	233	233	231	229	227	228	229	232	227	228	228	225	228	227	228	227	225	226	225	226	229	230	232	234	233	227	229	229	231	231	231	234	230	228	227	226	225	224	224	223	226	226	227	227	227	227	228	229	230	229	230	230	230	230	228	228	229	228	223	228	226	226	229	231	230	231	230	228	226	224	222	228	228	229	230	230	232	232	230	228	230	230	230	229	232	231	231	232	232	230	231	231	228	228	227	227	228	228	228	225	227	225	226	226	228	232	232	231	230	230	229	230	227	226	228	229	228	227	228	226	226	227	228	229	228	226	226	227	227	228	228	228	228	226	225	225	228	228	228	229	229	229	230	227	228	230	230	230	228	228	228	228	228	229	229	228	227	225	225	225	227	229	226	227	224	224	225	225	233	230	231	229	227	226	227	226	230	227	227	228	228	228	226	227	228	225	226	227	230	232	228	222	226	225	224	224	227	227	224	226	226	224	228	225	225	227	229	228	228	227	226	225	221	220	222	224	225	226	226	227	225	224	225	225	225	225	224	223	223	224	224	224	225	225	223	223	223	222	220	220	222	222	224	226	227	227	225	225	226	226	226	228	229	220	219	218	222	222	221	219	217	218	221	223	222	224	225	224	223	223	223	223	222	221	220	223	222	222	221	222	223	223	221	219	219	219	221	220	221	220	219	218	220	220	220	221	220	219	221	219	219	219	216	218	219	223	222	221	220	220	221	217	215	216	216	214	218	218	220	220	216	215	220	217	216	214	216	222	222	222	224	224	219	218	214	214	213	212	215	217	217	219	219	214	214	214	218	219	220	221	220	214	215	217	216	216	218	218	216	215	215	214	209	210	210	212	214	217	216	214	212	212	214	215	214	212	213	217	217	215	214	213	215	215	215	214	216	215	213	214	216	214	215	214	215	215	217	219	217	217	216	215	215	214	215	217	217	217	217	213	214	214	216	216	216	214	215	215	215	218	218	217	217	217	217	0	0	0	0	0
228	227	233	233	232	230	230	230	230	230	228	227	228	228	230	233	236	231	231	236	234	233	233	229	229	232	236	236	236	235	235	233	232	233	232	234	232	232	233	233	232	232	230	230	230	230	231	233	234	232	231	230	230	230	231	233	234	235	231	234	233	229	229	232	231	229	231	234	235	235	236	235	234	233	232	232	231	229	230	232	232	234	230	231	231	231	230	230	232	231	232	233	233	232	233	232	231	230	230	232	231	231	230	231	232	233	230	227	229	229	229	229	226	226	227	226	224	223	225	227	228	227	227	226	227	227	229	230	229	230	230	228	227	228	227	226	225	226	226	225	223	221	227	230	228	229	231	227	226	225	226	226	228	231	231	227	228	229	229	227	225	226	229	228	228	228	222	223	225	225	226	227	230	231	232	229	232	230	227	230	227	229	228	228	228	228	227	227	225	225	224	225	226	227	228	228	228	229	229	229	233	232	229	227	225	221	224	222	228	227	230	229	229	225	226	227	227	227	227	229	225	226	227	227	226	227	225	226	227	229	229	230	230	227	226	227	228	231	232	231	231	233	232	230	225	225	225	224	225	226	223	225	225	226	227	225	228	228	229	229	227	228	229	228	228	228	228	226	225	225	224	225	228	230	230	230	228	226	225	221	221	225	226	226	227	231	231	227	227	227	227	230	230	230	232	230	227	226	227	227	229	228	228	226	225	224	227	226	226	225	226	223	225	226	227	228	228	228	229	229	225	228	224	224	226	226	227	227	228	225	225	225	227	220	229	225	224	225	225	226	227	227	228	225	225	224	224	228	226	226	228	230	225	227	228	229	230	230	227	225	225	224	224	224	224	224	224	225	225	228	228	229	224	225	225	225	225	224	225	227	228	226	225	225	225	225	223	225	225	225	227	226	225	227	228	228	228	228	227	226	226	225	224	222	223	224	222	222	222	223	225	226	226	226	222	224	226	226	226	225	223	224	220	220	219	222	223	223	223	225	223	224	225	225	225	223	222	220	221	223	223	223	223	222	221	220	221	222	222	221	220	220	222	223	223	223	223	222	222	225	222	222	221	218	218	219	221	222	221	218	217	217	218	220	221	220	223	223	222	222	223	222	222	219	222	222	221	220	221	222	222	220	219	219	218	217	216	220	220	220	219	218	219	221	219	219	219	219	220	218	220	220	219	218	219	220	221	221	219	218	217	218	217	216	217	218	215	222	220	217	216	215	216	220	220	219	213	219	218	216	221	221	215	216	215	215	213	212	215	216	216	215	216	212	215	215	214	215	215	215	212	210	210	215	217	217	217	212	211	211	210	210	213	213	212	212	212	214	214	215	211	211	214	214	214	215	214	214	211	209	209	210	210	211	214	216	215	213	211	211	213	213	214	214	214	214	217	219	216	215	214	214	212	212	214	216	216	216	214	213	214	214	215	215	215	215	214	215	214	214	219	217	216	216	216	0	0	0	0	0
