0	0	0	0	0	0	0	0	0	0	0	0	0	0	0	0	0	0	0	0	0	0	0	0	0	0	0	0	0	0	0	0	0	0	0	0	0	0	0	0	0	0	0	0	0	0	0	0	0	0	0	0	0	0	0	0	0	0	0	0	0	0	0	0	0	0	0	0	0	0	0	0	0	0	0	0	0	0	0	0	0	0	0	0	0	0	0	0	0	0	0	0	0	0	0	0	1245	0	0	0	0	0	0	0	0	0	1300	1306	1315	1317	0	0	0	0	0	0	1281	1264	1249	1248	1245	1255	1270	1247	1237	1241	1265	1284	1296	1304	1318	1323	0	0	1309	1310	1311	1302	1309	1315	0	0	1275	1258	1246	1257	1274	1287	1289	1268	1250	1234	1243	1268	1308	1334	1339	0	0	0	1340	1326	1320	0	0	0	0	0	0	0	1277	1285	0	0	0	0	0	0	1308	1278	1258	1254	1256	1268	1270	1270	1283	1296	1304	1303	1285	1232	1221	1215	1225	1236	1275	1289	1289	1299	1295	1296	1297	1300	1300	1308	1322	1327	1326	1320	1316	1314	1314	1309	1311	1316	1322	1325	1330	1325	1317	1311	1310	1314	1316	1320	1316	1314	1316	1322	1327	1329	1337	1347	1350	1348	1349	1354	1356	1328	1327	1339	1340	1333	1329	1335	1343	1347	1340	1336	1344	1346	1347	1351	1352	1351	1350	1352	1358	1356	1343	1340	1351	1356	1359	1363	1361	1352	1347	1337	1333	1330	1343	1359	1367	1373	1372	1354	1349	1347	1337	1320	1310	1306	1321	1314	1303	1294	1302	1296	1307	1314	1325	1347	1362	1375	1377	1378	1372	1358	1359	1354	1355	1361	1362	1365	1371	1363	1357	1354	1349	1337	1333	1344	1356	1367	1371	1366	1363	1349	1350	1360	1349	1352	1367	1374	1375	1375	1374	1371	1357	1341	1336	1336	1339	1345	1363	1377	1372	1367	1357	1349	1340	1331	1331	1338	1338	1329	1331	1336	1359	1370	1376	1381	1393	1404	1401	1395	1372	1354	1348	1332	1319	1315	1319	1329	1330	1321	1315	1315	1318	1326	1334	1340	1335	1327	1322	1308	1279	1278	1277	1295	1308	1319	1328	1319	1304	1286	1274	1269	1267	1268	1272	1275	1275	1282	1296	1297	1294	1288	1285	1290	1291	1285	1267	1269	1274	1264	1274	1273	1268	1275	1263	1267	1261	1249	1227	1230	1233	1244	1259	1266	1273	1279	1283	1275	1265	1240	1233	1235	1239	1241	1230	1235	1223	1216	1214	1218	1212	1205	1204	1206	1212	1220	1228	1234	1235	1218	1199	1183	1185	1190	1188	1188	1196	1201	1191	1194	1143	1153	1166	1174	1174	1153	1131	1113	1122	1135	1143	1143	1136	1116	1106	1119	1122	1128	1133	1127	1126	1130	1126	1118	1107	1113	1124	1125	1113	1109	1120	1119	1127	1125	1108	1097	1088	1081	1081	1095	1126	1138	1132	1119	1090	1072	1060	1062	1075	1086	1090	1092	1101	1113	1116	1116	1110	1109	1067	1054	1058	1072	1093	1109	1120	1117	1109	1088	1063	1055	1047	1050	1067	1071	1072	1069	1068	1068	1083	1076	1061	1046	1037	1037	1041	1049	1048	1027	1022	1032	1036	1030	1023	1023	1043	1068	1071	1071	1066	1048	1052	1053	1051	1052	1052	1051	1044	1031	1034	1040	1039	1023	1019	1017	1017	1041	1037	1024	1033	1043	1052	1040	1020	1027	1028	1029	1022	1016	1019	1019	1016	1009	1010	1006	1001	997	1003	1037	1046	1050	1053	1048	1034	1014	998	987	984	990	1015	1014	1012	1013	1007	1013	1021	1024	1025	1025	1023	1034	1060	1060	1048	999	994	1002	1011	1013	1017	1010	1012	1008	985	0	0	0	0	0	0	0	0	0
0	0	0	0	0	0	0	0	0	0	0	0	0	0	0	0	0	0	0	0	0	0	0	0	0	0	0	0	0	0	0	0	0	0	0	0	0	0	0	0	0	0	0	0	0	0	0	0	0	0	0	0	0	0	0	0	0	0	0	0	0	0	0	0	0	0	0	0	0	0	0	0	0	0	0	0	0	0	0	0	0	0	0	0	0	0	0	0	0	0	0	0	0	0	0	1258	1254	1262	0	0	0	1284	1278	1267	0	1284	1288	1283	1291	1306	1298	0	0	0	1318	1292	1268	1245	1242	1236	1235	1242	1250	1238	1230	1236	1248	1263	1268	1277	1293	1310	0	0	1313	1303	1288	1281	1275	1272	1271	1270	1265	1238	1226	1236	1250	1255	1249	1233	1210	1210	1221	1260	1300	1325	1310	1299	1281	1280	1294	1273	1265	1274	1270	1272	1289	0	0	1250	1235	1243	1272	1287	0	0	0	0	0	1256	1219	1210	1226	1241	1254	1258	1262	1266	1270	1256	1244	1213	1202	1197	1195	1225	1284	1293	1298	1309	1298	1296	1306	1312	1314	1315	1324	1330	1321	1314	1315	1309	1305	1295	1292	1302	1317	1319	1322	1325	1316	1313	1314	1317	1316	1317	1313	1309	1313	1321	1320	1318	1325	1333	1347	1348	1354	1359	1358	1334	1325	1342	1333	1325	1324	1330	1333	1339	1344	1342	1349	1342	1341	1344	1343	1334	1339	1335	1340	1343	1339	1336	1338	1343	1355	1359	1354	1346	1345	1341	1336	1332	1339	1354	1364	1370	1368	1355	1350	1353	1340	1320	1311	1304	1313	1289	1265	1251	1231	1232	1245	1258	1295	1318	1349	1353	1381	1389	1378	1364	1337	1335	1348	1334	1327	1328	1335	1348	1344	1336	1332	1324	1321	1339	1350	1340	1332	1327	1321	1314	1319	1335	1350	1358	1361	1351	1336	1333	1336	1339	1335	1320	1309	1309	1304	1297	1300	1306	1301	1309	1315	1309	1301	1292	1288	1291	1283	1273	1277	1284	1288	1297	1284	1278	1280	1268	1262	1260	1258	1260	1272	1289	1285	1271	1268	1259	1250	1242	1247	1247	1248	1239	1233	1219	1221	1233	1244	1249	1251	1234	1234	1235	1243	1248	1249	1241	1240	1223	1217	1225	1241	1248	1258	1259	1259	1259	1252	1246	1236	1221	1208	1212	1217	1223	1213	1211	1218	1226	1227	1221	1217	1216	1213	1210	1203	1196	1187	1185	1182	1186	1192	1194	1209	1231	1245	1237	1222	1205	1193	1184	1181	1176	1189	1200	1196	1191	1190	1185	1177	1173	1168	1171	1176	1184	1191	1191	1190	1172	1157	1151	1152	1162	1161	1156	1154	1095	1091	1084	1084	1098	1115	1125	1130	1126	1106	1093	1090	1093	1109	1106	1104	1080	1071	1072	1094	1101	1100	1089	1080	1091	1087	1072	1063	1071	1075	1064	1060	1059	1068	1045	1027	1030	1032	1048	1054	1041	1041	1048	1057	1058	1078	1073	1046	1030	1019	1015	1018	1024	1026	1032	1054	1060	1065	1061	1069	1043	1002	1022	1030	1044	1060	1068	1073	1068	1069	1060	1041	1022	1013	1005	994	1000	1004	1000	1007	1014	1019	1003	1001	1006	1003	1004	995	987	981	977	990	1005	1006	997	988	985	999	1015	1029	1017	999	977	977	998	998	1003	1015	1011	1003	997	1001	1009	981	969	979	982	984	993	994	998	1004	1010	992	985	976	983	986	989	986	985	981	982	983	982	974	967	960	958	971	984	995	1014	1026	1022	1016	998	979	953	945	961	966	967	956	956	968	986	1003	1008	1007	1007	1000	993	982	976	965	962	968	979	985	982	976	957	949	944	939	0	0	0	0	0	0	0	0	0
0	0	0	0	0	0	0	0	0	0	0	0	0	0	0	0	0	0	0	0	0	0	0	0	0	0	0	0	0	0	0	0	0	0	0	0	0	0	0	0	0	0	0	0	0	0	0	0	0	0	0	0	0	0	0	0	0	0	0	0	0	0	0	0	0	0	0	0	0	0	0	0	0	0	0	0	0	0	0	0	0	0	0	0	0	0	0	0	0	0	1275	0	0	0	1235	1244	1244	1254	1278	1293	1298	1304	1304	1291	1297	1287	1277	1260	1261	1272	1279	1291	1301	1308	1288	1263	1232	1212	1216	1219	1220	1223	1232	1216	1206	1211	1227	1234	1236	1240	1256	1291	1303	0	1274	1263	1253	1249	1246	1235	1241	1248	1238	1220	1207	1212	1230	1235	1223	1206	1195	1204	1227	1280	1315	1311	1291	1263	1253	1249	1263	1247	1230	1227	1228	1228	1229	1244	1235	1229	1221	1231	1247	1256	1255	1242	0	0	1295	1251	1202	1188	1208	1234	1245	1248	1246	1239	1233	1229	1213	1191	1186	1188	1179	1206	1282	1291	1287	1304	1301	1296	1306	1315	1315	1315	1326	1330	1328	1321	1317	1308	1304	1289	1290	1300	1312	1321	1323	1324	1313	1309	1308	1309	1314	1310	1306	1305	1313	1321	1320	1319	1317	1328	1342	1350	1353	1364	1364	1370	1356	1349	1339	1327	1320	1325	1330	1337	1345	1349	1346	1338	1336	1337	1332	1329	1322	1326	1334	1336	1335	1330	1330	1337	1345	1353	1356	1372	1372	1363	1354	1348	1345	1351	1360	1378	1361	1333	1339	1349	1349	1323	1317	1313	1290	1257	1242	1228	1205	1190	1195	1211	1228	1276	1312	1341	1358	1346	1344	1332	1319	1323	1322	1304	1295	1299	1317	1330	1331	1328	1323	1314	1309	1298	1298	1289	1291	1295	1303	1291	1273	1270	1279	1289	1291	1276	1263	1260	1261	1250	1247	1234	1226	1221	1220	1220	1228	1247	1260	1280	1289	1281	1274	1242	1216	1212	1224	1240	1242	1248	1247	1225	1216	1226	1220	1214	1210	1203	1210	1222	1236	1237	1221	1219	1223	1210	1207	1213	1213	1212	1208	1198	1189	1186	1197	1212	1214	1203	1201	1191	1193	1196	1205	1208	1207	1201	1189	1177	1177	1195	1207	1214	1217	1216	1215	1216	1210	1195	1180	1169	1168	1170	1179	1175	1172	1177	1184	1186	1186	1170	1168	1169	1168	1162	1157	1157	1156	1156	1156	1165	1158	1159	1169	1192	1178	1174	1166	1164	1153	1146	1138	1141	1154	1159	1162	1163	1156	1143	1132	1126	1125	1124	1136	1150	1157	1158	1148	1136	1127	1122	1124	1126	1093	1082	1064	1025	1014	1028	1037	1044	1055	1068	1069	1083	1076	1045	1044	1040	1049	1071	1072	1054	1040	1022	1023	1017	1009	1006	1028	1039	1030	1022	1017	1026	1020	1018	1026	1026	1003	993	990	992	996	1010	1019	1014	1009	1006	1007	1001	1004	998	993	986	988	987	990	983	983	987	986	1001	997	975	955	953	957	960	975	989	1002	999	1001	998	997	996	995	995	980	963	955	954	958	963	969	969	964	968	971	970	969	971	961	941	934	926	945	974	987	975	961	952	960	973	974	964	950	941	939	938	943	960	972	975	968	969	978	981	952	950	948	957	951	950	950	954	954	943	931	931	944	945	938	927	928	947	951	955	956	949	939	930	926	926	932	946	967	978	995	999	984	968	942	935	927	933	943	946	938	932	931	950	976	984	980	980	961	914	903	925	928	935	940	949	960	967	954	933	931	926	922	0	0	0	0	0	0	0	0	0
0	0	0	0	0	0	0	0	0	0	0	0	0	0	0	0	0	0	0	0	0	0	0	0	0	0	0	0	0	0	0	0	0	0	0	0	0	0	0	0	0	0	0	0	0	0	0	0	0	0	1168	1165	1169	0	0	0	0	0	1211	0	0	0	0	0	0	0	0	1186	1195	1216	1231	1231	1241	1244	0	0	0	1196	1194	1206	1218	1211	1210	1197	1204	1209	1211	1211	1219	1231	1236	1234	1224	1221	1224	1225	1226	1234	1240	1257	1288	1302	1321	1315	0	0	1263	1239	1234	1245	1251	1266	1268	1259	1249	1237	1218	1206	1210	1204	1196	1194	1214	1208	1189	1188	1202	1204	1204	1205	1227	1253	1266	1255	1237	1231	1230	1233	1222	1215	1218	1234	1223	1204	1187	1202	1217	1217	1206	1194	1194	1207	1236	1280	1317	1306	1274	1253	1243	1239	1246	1228	1217	1208	1204	1195	1185	1178	1205	1211	1212	1225	1234	1231	1222	1217	1231	1269	1264	1229	1196	1184	1194	1219	1240	1239	1234	1221	1210	1202	1193	1167	1170	1172	1162	1165	1213	1260	1283	1287	1286	1283	1284	1287	1296	1288	1298	1317	1328	1319	1307	1313	1311	1274	1274	1290	1315	1336	1336	1319	1310	1305	1314	1298	1293	1283	1270	1261	1262	1296	1298	1330	1322	1314	1321	1331	1337	1340	1340	1342	1340	1341	1333	1327	1327	1312	1294	1299	1316	1332	1336	1322	1308	1303	1296	1297	1316	1324	1334	1330	1317	1300	1285	1287	1304	1322	1332	1337	1340	1344	1334	1325	1311	1307	1313	1361	1352	1316	1309	1313	1302	1272	1275	1266	1244	1236	1228	1209	1187	1170	1166	1179	1203	1228	1253	1265	1268	1266	1270	1275	1299	1308	1302	1284	1273	1285	1297	1303	1292	1287	1274	1276	1260	1259	1250	1260	1264	1271	1273	1271	1249	1250	1258	1265	1263	1248	1237	1237	1234	1234	1217	1217	1208	1206	1203	1199	1201	1216	1232	1243	1249	1244	1218	1209	1188	1177	1181	1188	1198	1194	1179	1175	1174	1171	1165	1168	1181	1179	1177	1176	1182	1184	1186	1180	1178	1173	1169	1170	1185	1187	1184	1168	1157	1155	1171	1185	1185	1156	1144	1142	1151	1153	1159	1165	1157	1160	1146	1136	1148	1163	1171	1175	1158	1155	1163	1165	1160	1149	1136	1128	1134	1147	1152	1135	1130	1136	1141	1146	1135	1120	1114	1123	1126	1124	1120	1123	1124	1088	1081	1082	1101	1112	1114	1088	1089	1088	1094	1112	1111	1109	1102	1110	1119	1126	1132	1092	1092	1083	1082	1082	1083	1089	1097	1116	1128	1127	1114	1092	1081	1029	1040	1036	1025	1023	1014	1001	976	984	988	995	1004	1009	1026	1025	996	973	968	976	997	1015	1038	1023	1012	974	972	974	980	978	984	985	986	984	976	978	981	987	989	988	971	966	968	966	973	978	970	973	979	976	966	955	954	948	933	939	942	950	951	950	947	942	927	913	915	917	918	917	936	946	950	958	964	955	957	959	964	956	949	936	931	926	931	928	930	938	942	939	936	934	934	947	933	929	931	924	910	905	918	936	953	947	929	922	921	927	922	934	928	920	917	920	917	922	929	925	928	920	921	921	908	914	922	921	924	926	921	917	915	912	907	907	911	913	904	902	897	902	911	921	920	923	916	912	908	914	917	923	933	928	933	957	952	932	925	918	910	905	919	927	921	913	905	911	929	940	934	934	904	886	876	878	889	900	910	908	919	936	935	926	911	906	899	0	0	0	0	0	0	0	0	0
0	0	0	0	0	0	0	0	0	0	0	0	0	0	0	0	0	0	0	0	0	0	0	0	0	0	0	0	0	0	0	0	0	0	0	1147	1134	0	0	0	0	0	0	0	0	0	1165	1161	1168	1176	1180	1177	1181	1201	1201	0	1238	1218	1196	1180	1177	0	1188	1197	1192	1188	1172	1172	1186	1198	1213	1213	1221	1223	1227	1231	1211	1205	1201	1216	1218	1213	1208	1197	1200	1207	1210	1202	1200	1204	1203	1197	1202	1207	1222	1213	1204	1202	1203	1220	1238	1272	1298	1302	0	0	1256	1218	1213	1220	1237	1236	1227	1216	1224	1222	1212	1198	1198	1185	1175	1176	1191	1206	1187	1182	1187	1188	1184	1183	1196	1225	1234	1224	1210	1209	1224	1219	1212	1205	1206	1211	1206	1185	1178	1179	1192	1196	1193	1189	1197	1212	1238	1266	1296	1290	1264	1236	1229	1227	1225	1218	1211	1198	1185	1169	1150	1147	1155	1181	1203	1218	1217	1210	1189	1186	1209	1224	1220	1195	1185	1172	1178	1199	1223	1234	1222	1200	1188	1190	1179	1153	1149	1152	1144	1135	1160	1194	1233	1270	1276	1269	1266	1261	1263	1266	1247	1244	1251	1246	1242	1242	1251	1256	1270	1289	1301	1294	1267	1265	1258	1249	1233	1234	1233	1230	1220	1215	1218	1207	1228	1238	1234	1228	1265	1258	1258	1261	1263	1256	1261	1268	1275	1279	1291	1289	1272	1259	1259	1263	1258	1253	1255	1262	1258	1249	1245	1255	1274	1278	1266	1252	1229	1228	1232	1233	1219	1218	1229	1250	1247	1242	1233	1241	1253	1274	1278	1275	1252	1246	1251	1253	1247	1211	1207	1215	1208	1188	1166	1146	1145	1157	1177	1199	1206	1230	1232	1220	1224	1235	1234	1239	1237	1229	1221	1212	1224	1225	1227	1218	1218	1222	1226	1209	1208	1220	1222	1219	1221	1217	1221	1221	1226	1228	1217	1204	1203	1199	1197	1192	1188	1176	1174	1173	1173	1169	1170	1181	1187	1169	1168	1173	1168	1154	1138	1122	1126	1132	1134	1128	1127	1129	1128	1129	1134	1148	1145	1146	1144	1133	1132	1135	1150	1143	1142	1143	1145	1146	1145	1147	1146	1135	1125	1122	1119	1102	1096	1096	1098	1083	1086	1087	1096	1109	1113	1113	1107	1098	1085	1112	1122	1118	1114	1112	1110	1107	1097	1089	1078	1070	1082	1087	1099	1095	1065	1067	1070	1088	1033	1008	1003	1018	1041	1074	1076	1083	1066	1032	1032	1033	1055	1056	1032	1015	1023	1028	1045	1060	1063	1063	1059	1073	1069	1068	1081	1035	1038	1032	1039	1036	1029	1027	1034	1049	1066	1082	1066	979	984	986	958	944	938	939	948	966	961	959	958	954	951	949	952	947	940	940	937	941	953	957	985	988	976	937	941	960	963	959	944	942	947	941	933	928	928	940	950	943	937	932	933	944	945	930	931	930	925	925	930	937	932	919	913	914	921	922	919	914	918	910	899	898	903	908	909	908	916	920	924	925	918	924	927	932	932	916	899	896	901	912	905	903	904	910	911	909	903	894	892	894	896	899	900	895	893	895	903	910	914	901	889	889	887	884	878	874	880	900	898	892	893	892	893	894	891	883	874	876	877	877	881	882	889	891	887	884	881	884	884	884	887	887	888	885	883	879	864	856	871	899	901	898	895	900	902	899	901	899	901	911	908	911	904	903	896	888	893	908	907	900	887	886	897	907	899	899	887	873	861	862	867	873	883	889	882	886	898	906	901	890	877	0	0	0	0	0	0	0	0	0
0	0	0	0	0	0	0	0	0	0	0	0	0	0	0	0	0	0	0	0	0	0	0	0	0	0	0	0	0	0	1131	1140	1143	1147	1147	1142	1132	1136	1144	0	0	0	0	0	1174	1170	1171	1174	1170	1186	1188	1184	1187	1206	1206	1212	1205	1192	1190	1192	1179	1166	1162	1176	1185	1182	1174	1174	1183	1194	1199	1199	1197	1197	1191	1192	1195	1201	1215	1221	1215	1213	1201	1198	1195	1203	1205	1204	1197	1190	1183	1179	1179	1193	1208	1197	1184	1178	1180	1191	1203	1221	1240	1253	1251	1244	1218	1200	1201	1208	1217	1214	1201	1190	1186	1195	1201	1201	1196	1182	1168	1163	1176	1199	1193	1186	1188	1183	1179	1169	1179	1197	1212	1205	1206	1211	1215	1215	1190	1181	1177	1185	1179	1168	1157	1153	1160	1169	1172	1177	1183	1195	1194	1187	1231	1239	1207	1207	1210	1209	1203	1200	1199	1189	1167	1150	1129	1124	1143	1165	1185	1198	1194	1179	1172	1171	1152	1145	1154	1166	1162	1153	1150	1170	1195	1209	1201	1184	1174	1169	1167	1143	1136	1132	1134	1128	1129	1143	1165	1221	1245	1232	1221	1215	1212	1212	1190	1189	1184	1187	1214	1216	1209	1200	1204	1210	1213	1225	1220	1206	1200	1202	1200	1188	1171	1166	1173	1173	1177	1169	1153	1162	1157	1159	1168	1184	1205	1243	1232	1210	1188	1175	1172	1183	1205	1216	1211	1230	1236	1233	1226	1240	1242	1242	1237	1220	1211	1215	1200	1199	1199	1190	1181	1184	1192	1210	1206	1203	1189	1179	1166	1158	1158	1167	1170	1183	1192	1184	1152	1153	1168	1173	1162	1163	1172	1176	1174	1162	1145	1133	1129	1133	1149	1167	1178	1176	1157	1139	1135	1149	1160	1152	1158	1148	1141	1141	1139	1131	1123	1139	1157	1162	1143	1123	1107	1095	1086	1094	1107	1122	1118	1126	1135	1153	1151	1142	1133	1130	1131	1134	1132	1131	1126	1124	1124	1119	1104	1090	1089	1099	1112	1116	1113	1100	1084	1077	1073	1077	1080	1081	1086	1083	1080	1088	1104	1122	1124	1120	1105	1088	1074	1074	1089	1085	1071	1063	1073	1072	1075	1072	1074	1066	1075	1060	1034	1036	1035	1039	1039	1030	1025	1024	1043	1064	1076	1081	1057	1054	1049	1059	1060	1046	1041	1036	1043	1043	1030	1024	1019	1006	1011	1017	1020	990	988	1008	1011	1000	979	967	963	965	966	970	999	1016	1015	1004	1003	1003	1007	977	971	966	973	984	1006	1023	1029	988	971	960	962	964	967	953	982	991	1004	981	968	967	994	1012	950	950	939	947	939	926	917	911	916	915	922	926	933	934	924	919	918	924	930	929	930	932	929	922	921	918	922	923	899	896	910	933	937	913	905	916	919	924	913	911	909	916	915	902	895	892	895	896	904	907	906	907	896	891	903	914	907	890	891	896	900	897	892	897	894	886	876	879	887	893	894	888	889	893	900	893	885	879	890	899	885	887	886	881	884	896	891	882	877	876	877	875	874	871	872	875	882	886	887	881	878	881	888	890	881	877	872	864	865	869	864	857	845	838	836	842	854	862	867	867	863	865	860	854	859	865	863	854	856	852	861	861	853	860	866	872	871	874	878	879	875	860	842	838	850	869	887	883	881	880	875	874	877	876	875	878	871	866	888	877	877	875	873	887	888	879	877	871	869	872	870	870	871	864	859	859	858	865	877	874	860	856	859	873	873	866	855	0	0	0	0	0	0	0	0	0
0	0	0	0	0	0	0	0	0	0	0	0	0	0	0	0	0	0	0	0	0	0	0	0	0	0	0	0	0	1126	1135	1136	1136	1141	1141	1135	1122	1125	1141	1155	1162	1157	1159	1159	1158	1162	1168	1179	1176	1182	1184	1188	1182	1184	1184	1182	1174	1184	1192	1202	1190	1172	1170	1181	1190	1188	1186	1186	1183	1187	1182	1182	1172	1171	1171	1172	1187	1204	1216	1221	1208	1201	1191	1189	1192	1196	1203	1203	1193	1175	1158	1160	1162	1171	1170	1170	1167	1165	1158	1159	1173	1181	1189	1200	1203	1200	1185	1180	1178	1188	1194	1192	1180	1162	1151	1155	1168	1176	1185	1178	1168	1163	1160	1170	1186	1185	1184	1174	1166	1164	1163	1168	1192	1199	1201	1205	1204	1193	1173	1155	1150	1153	1157	1147	1137	1125	1128	1142	1148	1155	1155	1158	1145	1128	1131	1151	1179	1190	1190	1192	1178	1168	1169	1163	1145	1131	1119	1118	1131	1147	1171	1177	1169	1158	1155	1155	1130	1125	1127	1139	1137	1126	1121	1133	1157	1173	1164	1154	1160	1152	1148	1127	1118	1119	1123	1129	1130	1135	1138	1140	1146	1153	1161	1160	1161	1165	1167	1162	1157	1156	1160	1158	1155	1151	1160	1162	1163	1167	1167	1164	1161	1155	1154	1154	1151	1149	1138	1121	1104	1098	1106	1111	1120	1122	1125	1140	1155	1155	1138	1156	1140	1132	1138	1151	1162	1161	1154	1151	1150	1158	1166	1156	1153	1159	1167	1176	1171	1159	1139	1140	1145	1158	1158	1149	1155	1163	1163	1156	1150	1124	1099	1096	1105	1109	1119	1129	1142	1138	1126	1126	1127	1128	1124	1123	1127	1135	1134	1124	1116	1112	1111	1113	1126	1135	1144	1150	1135	1115	1101	1095	1101	1103	1105	1104	1106	1114	1116	1105	1095	1092	1087	1097	1089	1082	1069	1058	1053	1052	1084	1077	1070	1078	1083	1089	1096	1093	1092	1083	1077	1075	1079	1082	1080	1071	1070	1076	1070	1056	1042	1038	1035	1024	1046	1040	1037	1033	1032	1004	993	1003	1017	1029	1034	1018	1033	1060	1065	1052	1031	1006	999	1012	1034	1031	1014	1011	1010	992	977	983	978	976	996	995	986	988	980	987	984	973	962	985	997	1013	1009	1017	1003	989	986	989	982	968	940	938	944	939	938	956	977	983	978	977	952	933	926	941	956	961	951	927	918	924	932	941	951	954	939	935	945	946	942	940	938	938	938	954	957	955	915	905	913	915	907	915	921	929	925	925	930	934	932	892	900	913	920	895	885	892	897	900	898	888	889	894	897	900	906	896	886	872	867	860	874	898	897	891	871	871	887	896	900	889	876	872	870	871	864	860	868	876	886	885	877	876	873	870	865	856	862	864	856	854	866	879	872	871	856	857	871	882	879	867	865	866	857	859	864	866	864	860	857	863	861	862	860	863	865	865	864	858	853	848	841	843	845	852	866	864	868	875	872	870	864	865	853	849	850	863	867	871	869	871	870	863	858	865	874	866	865	862	857	854	857	862	858	843	829	820	825	831	832	832	827	835	843	846	841	838	844	850	849	841	838	835	833	832	832	839	847	859	858	858	856	856	849	839	827	828	840	852	858	867	861	853	846	844	847	850	849	842	823	819	828	854	855	848	848	851	859	868	865	853	840	840	843	843	843	851	855	851	846	847	853	850	844	840	842	847	851	845	839	0	0	0	0	0	0	0	0	0
0	0	0	0	0	0	0	0	0	0	0	0	0	0	1060	1063	1062	1069	0	0	0	0	0	0	0	0	0	0	0	1121	1137	1132	1130	1131	1131	1119	1112	1107	1131	1150	1152	1142	1134	1134	1125	1137	1154	1167	1173	1179	1179	1178	1175	1168	1168	1151	1149	1163	1185	1202	1198	1183	1181	1182	1192	1189	1182	1184	1182	1173	1162	1162	1156	1158	1160	1167	1174	1196	1203	1205	1194	1181	1175	1170	1178	1185	1193	1183	1151	1137	1134	1144	1147	1145	1144	1149	1157	1151	1145	1141	1143	1141	1141	1151	1146	1158	1156	1142	1140	1157	1166	1167	1153	1138	1118	1111	1122	1143	1158	1162	1160	1152	1160	1154	1169	1164	1161	1150	1147	1147	1131	1124	1134	1153	1178	1195	1182	1162	1144	1136	1137	1140	1140	1133	1112	1078	1094	1115	1128	1126	1120	1108	1100	1083	1090	1123	1157	1173	1177	1166	1148	1116	1114	1126	1117	1102	1097	1088	1097	1112	1126	1131	1117	1116	1124	1134	1107	1104	1107	1110	1105	1088	1071	1074	1087	1098	1113	1125	1134	1132	1120	1104	1104	1107	1107	1114	1118	1110	1107	1107	1109	1118	1122	1124	1124	1132	1136	1131	1120	1115	1114	1123	1119	1109	1106	1118	1120	1121	1122	1129	1133	1130	1131	1128	1119	1124	1112	1090	1067	1063	1065	1080	1080	1069	1064	1095	1105	1093	1085	1073	1062	1063	1103	1118	1120	1116	1109	1108	1109	1114	1121	1120	1120	1133	1138	1134	1125	1110	1093	1107	1117	1117	1120	1112	1113	1121	1129	1125	1115	1091	1073	1061	1060	1069	1084	1103	1107	1105	1099	1100	1098	1091	1082	1068	1072	1078	1086	1062	1060	1068	1083	1087	1084	1088	1080	1090	1085	1073	1066	1061	1065	1067	1069	1067	1070	1073	1076	1069	1064	1058	1057	1060	1055	1047	1035	1020	1013	1004	1001	1007	1023	1032	1030	1041	1037	1044	1052	1039	1029	1027	1033	1036	1027	1020	1013	980	976	998	995	988	972	955	960	962	969	947	938	931	931	954	980	984	960	960	968	980	972	946	933	930	927	921	915	920	926	934	945	941	933	930	921	924	937	945	943	929	915	919	934	921	914	932	952	947	944	959	945	932	924	928	927	924	913	904	904	900	906	909	916	921	917	911	903	899	891	893	906	916	921	911	902	906	910	919	926	906	902	897	894	891	890	904	904	904	899	893	889	858	855	867	877	884	880	885	886	884	877	875	891	880	877	869	866	874	875	852	855	862	873	882	885	878	870	869	875	873	865	865	865	858	853	849	846	855	853	848	840	835	849	865	879	864	846	843	846	848	835	831	838	841	849	848	844	842	833	828	826	831	832	831	816	814	825	838	840	836	819	810	805	811	814	820	828	839	843	842	845	847	843	831	829	824	822	825	829	841	832	828	831	836	836	830	827	824	829	827	828	836	836	846	848	851	846	829	826	826	830	846	857	860	857	841	829	821	838	848	849	849	852	851	849	845	838	839	831	815	806	801	812	822	825	818	819	823	829	827	819	819	823	826	831	830	822	809	805	802	805	812	824	834	828	827	832	836	834	826	817	815	826	815	817	816	811	802	802	806	814	816	812	800	795	794	794	792	795	804	828	829	826	825	829	825	818	818	820	820	825	822	818	817	810	810	835	834	833	826	823	827	831	829	823	0	0	0	0	0	0	0	0	0
0	0	0	0	0	0	0	0	0	0	0	0	1049	1049	1033	1024	1026	1040	1057	1057	1077	0	0	0	0	0	0	0	1123	1111	1118	1117	1116	1111	1111	1101	1095	1097	1105	1130	1131	1117	1110	1110	1101	1104	1117	1129	1145	1160	1163	1164	1160	1150	1150	1138	1127	1136	1160	1180	1179	1177	1171	1174	1175	1181	1174	1168	1167	1160	1151	1151	1156	1160	1167	1163	1150	1143	1141	1149	1148	1151	1152	1153	1158	1171	1167	1150	1126	1116	1122	1133	1134	1128	1124	1132	1135	1129	1119	1106	1105	1111	1110	1113	1127	1129	1126	1117	1110	1122	1132	1134	1127	1116	1098	1091	1093	1101	1122	1130	1137	1138	1143	1142	1137	1143	1138	1122	1105	1105	1110	1113	1110	1119	1126	1150	1142	1130	1121	1118	1125	1127	1125	1108	1082	1053	1057	1076	1091	1095	1097	1094	1076	1058	1064	1083	1125	1143	1129	1114	1107	1080	1069	1074	1074	1052	1032	1034	1048	1063	1065	1064	1067	1070	1079	1087	1088	1080	1088	1083	1072	1052	1027	1014	1014	1022	1035	1055	1087	1094	1086	1076	1044	1055	1055	1068	1083	1078	1070	1065	1069	1075	1088	1095	1097	1103	1106	1081	1072	1071	1075	1080	1081	1073	1068	1061	1066	1067	1064	1061	1043	1025	1028	1031	1038	1038	1023	1025	1013	1000	1025	1040	1029	1011	1014	1019	1014	1009	1000	998	1004	1021	1022	1002	1053	1054	1048	1053	1054	1062	1078	1080	1087	1102	1100	1090	1075	1063	1059	1041	1048	1047	1037	1009	1003	1043	1077	1087	1080	1066	1043	1026	1027	1017	1023	1022	1020	1007	1014	1015	1012	1015	1013	1014	1010	1022	1017	949	941	953	978	990	996	994	986	990	997	985	960	921	933	945	979	997	1013	1010	965	950	951	949	941	941	953	950	958	972	982	979	942	941	957	975	983	977	962	960	954	954	957	971	994	999	982	970	938	896	915	930	960	957	936	926	920	925	927	918	918	915	920	927	932	922	910	899	918	927	926	923	915	912	906	900	887	875	871	883	899	914	905	896	893	896	910	915	911	895	889	886	890	877	873	876	884	883	883	895	902	888	893	895	893	896	897	894	888	887	892	897	900	900	889	877	870	876	877	881	882	893	902	898	887	887	873	874	876	877	873	868	860	845	838	845	856	858	856	855	841	832	830	829	833	844	845	852	845	843	847	824	833	844	848	848	845	842	833	835	837	834	833	841	848	853	848	841	833	841	845	851	856	852	844	839	835	834	831	829	825	822	823	828	828	818	822	827	833	832	820	818	820	817	822	827	830	828	818	808	807	816	817	812	810	807	811	818	822	817	808	796	779	778	783	798	814	828	832	832	830	829	825	819	813	806	803	797	801	801	799	805	807	819	824	821	815	812	812	809	806	801	800	810	812	810	802	796	797	799	803	811	825	838	834	820	802	787	793	811	827	828	830	828	811	797	790	790	810	802	789	783	791	808	811	813	812	814	814	811	800	802	785	783	784	785	794	793	790	781	779	782	785	789	792	791	785	782	786	793	794	793	794	796	794	795	792	783	786	793	808	813	803	795	786	784	784	783	786	785	791	792	791	787	779	778	775	777	779	779	776	780	776	774	771	775	784	792	817	811	804	803	809	810	806	0	0	0	0	0	0	0	0	0
0	0	0	0	0	0	0	0	0	0	0	1055	1043	1043	1030	1015	1004	1010	1030	1030	1065	1087	1110	1136	0	1158	1158	1138	1107	1084	1091	1089	1086	1086	1086	1082	1080	1081	1084	1098	1099	1096	1096	1096	1092	1082	1079	1093	1112	1134	1149	1148	1147	1140	1140	1132	1120	1119	1133	1148	1149	1149	1135	1145	1155	1159	1161	1151	1145	1141	1145	1145	1157	1163	1142	1132	1124	1114	1117	1115	1112	1105	1105	1110	1121	1129	1123	1110	1104	1100	1117	1116	1105	1099	1092	1091	1091	1081	1059	1048	1048	1054	1069	1085	1084	1084	1079	1063	1063	1098	1104	1102	1097	1087	1082	1083	1075	1074	1076	1090	1097	1102	1106	1117	1117	1117	1101	1080	1071	1077	1085	1095	1093	1092	1089	1092	1097	1097	1093	1098	1101	1103	1091	1076	1060	1041	1044	1054	1074	1074	1083	1071	1051	1041	1041	1058	1085	1099	1093	1076	1072	1066	1053	1037	1027	1012	1006	1019	1034	1036	1038	1034	1031	1038	1030	1025	1019	1040	1050	1046	1041	1022	991	989	985	984	983	991	1005	1018	1021	1017	992	994	995	1007	1006	1016	1016	1025	1029	1029	1017	1016	1027	1037	1036	1006	1002	1025	1037	1047	1045	1035	1026	1020	1016	996	979	983	975	975	975	981	990	958	943	942	947	963	960	947	947	936	941	963	960	956	953	955	950	954	970	960	944	938	975	966	963	967	962	961	964	983	980	980	970	972	970	957	967	983	977	967	945	946	977	976	978	960	953	964	978	980	990	989	971	953	941	926	919	919	924	951	977	966	945	901	901	915	927	922	917	913	914	914	906	891	888	900	913	922	922	920	926	919	920	905	909	914	907	899	898	900	900	894	895	900	910	916	927	936	935	927	930	920	909	890	895	897	912	927	924	912	891	878	881	892	911	913	907	902	902	903	883	883	896	899	904	899	903	895	876	867	851	880	900	894	895	902	900	891	869	853	854	850	873	875	872	870	865	862	855	870	870	868	860	858	858	851	847	839	831	827	844	848	845	844	838	852	865	873	879	883	878	870	864	877	884	887	876	847	848	856	862	867	874	874	875	862	850	849	854	863	865	859	854	848	833	827	817	820	817	813	812	826	823	819	815	814	820	828	835	837	795	792	799	806	806	801	799	799	808	814	818	823	819	819	816	817	815	813	806	797	789	809	826	831	830	825	813	802	800	813	817	813	807	807	809	809	807	805	798	806	808	808	811	813	813	801	797	800	812	814	809	800	797	807	808	806	803	798	799	809	817	818	808	788	771	766	776	799	804	806	809	811	810	809	803	800	798	793	791	784	783	774	778	774	776	793	806	810	799	792	783	784	777	771	767	782	784	782	782	782	785	787	783	791	797	805	800	781	768	765	772	788	798	797	787	777	769	774	770	765	758	778	778	753	756	758	765	764	765	769	768	769	770	766	772	771	770	774	777	781	781	777	772	769	772	775	775	768	759	758	758	760	768	778	776	776	766	766	760	757	773	782	796	804	796	770	768	774	774	773	773	770	770	769	771	766	763	764	762	760	757	757	757	765	764	767	767	767	770	775	764	756	752	752	756	762	759	0	0	0	0	0	0	0	0	0
0	0	0	0	0	0	0	0	0	0	0	1048	1036	1036	1026	1014	997	999	1010	1010	1033	1052	1077	1102	1121	1134	1134	1123	1076	1072	1072	1075	1071	1073	1073	1075	1075	1075	1079	1081	1082	1088	1087	1087	1077	1060	1053	1069	1085	1096	1119	1116	1117	1128	1128	1126	1119	1107	1108	1109	1114	1108	1116	1091	1093	1113	1124	1125	1111	1105	1107	1107	1105	1103	1093	1085	1096	1110	1109	1097	1089	1084	1073	1081	1089	1091	1092	1083	1068	1063	1068	1067	1073	1065	1061	1066	1063	1052	1031	1026	1030	1039	1054	1069	1066	1052	1037	1028	1027	1033	1031	1033	1033	1024	1027	1032	1027	1024	1011	1013	1013	1012	1010	1072	1089	1085	1068	1053	1043	1049	1064	1067	1067	1059	1057	1056	1062	1060	1055	1057	1062	1066	1057	1051	1036	1019	1016	1016	1030	1030	1017	1019	1017	1015	1020	1031	1048	1060	1058	1046	1051	1060	1039	1019	1004	990	986	995	1012	1018	1009	991	987	1006	998	978	980	975	981	984	971	959	937	950	948	947	943	942	947	960	968	969	966	966	965	953	926	917	932	988	996	961	932	933	941	954	955	950	950	963	986	994	984	966	953	951	954	933	908	909	919	940	940	931	931	904	911	910	911	919	917	904	899	889	889	892	895	890	903	909	910	890	890	888	896	900	901	891	913	922	928	930	933	931	920	918	915	918	911	915	917	919	920	922	919	923	937	945	942	922	921	925	920	930	936	950	944	933	916	898	897	900	894	898	908	905	893	879	878	882	899	907	900	900	898	897	884	870	871	882	894	893	894	892	888	884	877	875	876	875	876	872	872	871	871	874	880	885	886	883	884	874	858	854	856	862	863	861	866	877	882	882	872	876	869	868	870	874	870	870	873	873	870	856	851	854	855	848	845	855	864	868	853	831	816	810	830	845	830	838	838	837	837	833	830	828	839	846	843	832	829	824	825	828	826	828	822	817	811	814	816	818	814	807	808	815	816	820	819	829	841	855	858	861	857	847	836	828	820	828	840	832	828	836	842	848	845	831	817	811	803	804	809	828	837	835	835	825	818	820	811	803	797	796	795	803	802	804	805	809	815	817	790	796	789	785	784	786	790	789	791	790	793	791	794	793	792	795	798	805	807	802	795	791	782	793	806	803	806	807	805	798	791	794	792	787	792	790	789	788	787	783	782	783	791	795	802	802	797	787	774	779	789	801	797	788	779	790	794	793	787	783	783	791	806	811	801	785	770	767	775	794	794	795	793	789	789	793	788	782	781	784	779	776	769	757	754	754	761	764	769	768	764	765	761	765	765	759	751	757	760	766	769	773	770	769	771	776	782	783	779	767	758	754	760	775	769	763	746	744	745	747	748	743	738	741	748	752	752	750	751	750	747	749	756	754	759	753	754	754	760	760	756	750	750	753	749	747	754	758	758	753	746	742	735	735	738	740	744	738	740	748	747	744	749	759	753	744	740	741	745	748	752	762	752	745	750	755	753	750	750	749	750	747	743	743	741	745	749	751	758	752	746	744	739	736	737	736	739	745	750	0	0	0	0	0	0	0	0	0
1017	1032	1032	1036	1034	1022	1023	1023	1036	1041	1044	1033	1025	1025	1016	1007	998	996	1001	1001	1013	1026	1045	1068	1082	1090	1090	1077	1069	1062	1060	1064	1065	1071	1071	1071	1075	1079	1078	1078	1081	1080	1075	1075	1062	1048	1039	1047	1059	1071	1079	1084	1092	1103	1103	1106	1070	1060	1048	1039	1040	1055	1060	1058	1068	1077	1087	1088	1076	1066	1066	1066	1071	1063	1049	1035	1033	1048	1062	1065	1059	1052	1049	1048	1052	1040	1022	1006	1026	1026	1017	1006	1022	1031	1026	1024	1025	1021	1010	1017	1019	1027	1036	1040	1037	1028	1015	1001	1000	1002	989	990	996	994	985	980	977	992	987	984	980	972	972	979	1007	1007	1007	993	987	990	998	992	969	1003	1002	1009	1009	1008	1011	996	978	976	983	989	982	986	975	959	957	967	979	985	989	1002	1004	1006	1007	996	989	987	991	1009	1007	990	974	962	965	974	977	970	942	922	922	926	940	939	939	954	949	931	918	913	916	909	897	889	899	898	903	916	926	927	931	932	937	920	910	896	891	899	911	913	908	899	898	905	904	896	914	928	940	933	904	870	857	858	867	873	872	878	885	892	897	893	884	868	873	880	883	888	888	887	880	868	864	865	866	870	861	849	849	840	831	834	844	858	877	857	845	852	892	899	898	897	889	890	891	890	883	878	870	853	859	885	901	904	908	893	894	895	884	874	871	871	868	869	879	872	871	874	882	886	869	855	855	860	857	844	840	842	855	872	875	881	887	876	860	846	843	849	849	848	843	838	830	835	842	847	853	845	839	834	827	826	843	850	857	862	847	832	832	823	831	828	825	819	819	830	839	832	808	806	801	819	852	852	834	831	830	830	830	833	832	833	831	832	831	826	831	832	836	830	821	807	797	792	790	801	814	812	809	804	813	817	814	811	812	813	805	798	795	801	806	811	817	817	813	803	792	791	797	801	801	797	788	791	801	800	798	805	818	819	812	813	812	807	807	803	806	813	817	816	816	818	820	817	811	803	795	789	782	786	801	815	822	822	812	805	799	811	801	793	790	789	789	788	789	791	790	779	771	773	780	782	780	758	748	755	765	777	783	789	783	784	783	778	776	762	765	769	770	771	772	776	769	776	786	792	799	790	788	791	785	775	768	771	779	778	778	775	769	767	766	772	777	779	784	781	775	765	757	753	758	769	770	762	755	764	762	758	757	753	751	761	778	785	778	764	759	757	755	772	777	779	778	768	767	769	769	763	757	756	760	761	756	747	745	742	741	748	751	752	749	746	746	747	746	745	742	740	744	750	753	753	752	751	751	765	772	779	747	738	733	736	734	738	740	741	743	743	743	744	736	734	732	735	744	747	745	741	732	718	712	723	734	734	732	721	721	729	735	735	723	718	721	720	720	726	733	740	742	735	731	726	723	721	720	722	721	718	719	720	722	719	727	732	723	721	722	724	722	720	736	738	732	721	728	734	732	726	727	736	732	731	728	728	727	720	722	721	724	710	711	712	715	711	724	730	725	724	724	0	0	0	0	0	0	0	0	0
1009	1018	1018	1017	1008	992	989	989	1002	1017	1019	1007	1000	1000	1004	1010	1002	987	990	990	992	1000	1016	1030	1040	1050	1050	1048	1043	1044	1040	1043	1053	1060	1060	1064	1065	1078	1075	1069	1066	1063	1058	1058	1049	1037	1031	1032	1038	1042	1051	1021	1059	1061	1061	1031	1025	1015	1009	1007	1011	1016	1022	1018	1024	1024	1032	1034	1030	1022	1009	1009	1008	1015	1010	1006	1020	1015	1018	1019	1010	997	989	993	974	973	970	969	988	988	995	980	980	978	974	967	965	961	968	975	992	998	999	994	992	991	978	974	967	958	948	946	959	962	954	937	924	946	944	952	948	927	929	931	960	974	976	966	950	953	958	961	942	930	924	919	919	923	917	910	900	935	940	945	941	928	918	910	912	922	944	959	963	964	958	940	931	933	947	949	944	936	930	916	910	914	915	901	892	896	892	888	887	890	893	899	873	894	898	888	875	870	867	865	863	872	876	876	874	876	886	880	882	896	895	883	882	875	872	876	880	887	875	858	852	853	856	855	870	888	892	874	851	827	815	820	831	844	849	852	848	839	839	850	841	840	848	851	848	836	827	828	839	845	848	846	841	835	830	817	815	816	818	818	813	811	810	814	809	820	830	834	855	861	866	863	864	853	843	839	834	835	838	843	846	854	859	865	865	853	848	844	849	849	848	842	832	826	831	840	852	834	816	813	816	820	825	822	819	823	822	817	816	823	826	822	822	819	808	806	805	810	818	819	814	813	805	804	812	807	806	805	808	810	810	808	808	808	806	804	799	793	797	791	795	797	798	799	804	798	784	779	773	786	788	786	794	801	806	801	795	808	806	810	798	789	787	790	796	802	803	800	797	793	781	771	773	788	799	798	787	784	783	781	783	781	781	778	772	774	783	794	796	796	798	801	799	792	783	781	779	789	792	792	783	780	781	783	782	782	788	790	792	794	793	791	787	790	795	800	803	790	793	806	806	807	803	789	781	775	773	784	795	803	805	802	797	782	779	774	765	770	770	774	776	772	770	767	735	744	756	765	764	749	739	732	725	719	724	728	760	760	761	766	770	762	742	726	733	741	747	744	738	735	727	736	747	756	756	766	766	752	735	733	730	737	750	760	757	762	754	752	754	753	753	753	766	760	750	742	734	730	739	738	741	736	732	738	741	736	724	715	716	725	733	742	742	738	730	730	735	751	754	749	744	740	742	745	743	744	735	732	735	732	734	741	737	738	734	727	733	736	732	722	716	720	729	731	730	728	730	732	732	727	706	709	709	697	699	702	701	706	709	713	715	718	723	726	719	716	725	723	720	719	723	726	729	737	737	728	713	698	692	697	707	713	709	696	697	707	711	706	696	689	693	698	703	709	713	720	722	719	713	712	711	707	708	706	707	706	708	709	707	699	698	699	701	700	705	699	695	699	704	707	703	699	699	701	701	701	703	712	715	706	704	704	699	701	704	702	696	685	681	686	689	686	693	715	721	715	713	0	0	0	0	0	0	0	0	0
995	1001	1001	1000	983	964	966	966	981	1003	999	989	971	971	957	946	929	947	960	960	970	977	983	998	1005	1011	1011	1008	1013	1007	1001	1009	1021	1025	1025	1037	1046	1039	1048	1049	1038	1026	1027	1027	1029	1026	1019	965	960	957	964	960	961	981	981	988	964	963	963	975	978	988	986	988	983	972	972	981	984	977	967	967	960	964	973	973	974	981	989	969	964	957	950	945	948	949	947	949	949	952	956	956	963	954	942	939	938	938	931	930	939	935	929	914	915	922	929	925	918	915	918	928	937	933	925	899	886	882	892	904	900	882	874	881	905	919	918	906	898	892	893	899	900	882	877	880	891	890	868	856	849	849	857	872	868	871	860	871	861	864	876	897	915	917	914	901	890	893	894	893	876	866	857	857	860	862	862	862	861	857	845	829	830	842	845	845	844	859	856	847	837	832	831	839	846	846	851	854	848	844	843	837	851	846	844	815	816	813	809	812	826	843	841	828	822	823	828	829	844	849	840	829	818	806	801	806	813	818	819	820	811	790	787	793	794	801	824	830	823	793	794	798	801	802	802	801	800	800	798	790	788	793	794	786	790	792	796	793	798	803	813	818	813	804	822	818	818	815	819	819	814	804	801	797	797	795	808	820	840	831	817	814	815	813	808	806	814	818	819	826	798	784	783	791	796	807	807	810	813	810	806	792	787	786	783	780	778	778	776	779	787	797	804	805	797	792	785	780	783	787	787	788	786	787	789	788	785	784	780	777	776	776	777	781	781	780	778	778	781	773	769	766	760	763	768	774	777	785	785	776	769	764	772	779	778	774	770	772	772	776	772	765	760	763	759	755	752	757	762	761	759	761	761	759	766	765	769	767	763	759	759	764	767	768	769	770	771	778	776	777	776	780	784	781	772	773	777	775	771	768	768	773	777	778	769	769	776	781	778	768	763	766	760	762	766	768	778	774	764	764	772	781	787	788	781	773	767	768	759	757	750	745	753	756	743	739	718	719	723	731	740	744	740	729	720	712	710	715	712	714	712	711	707	713	712	708	709	712	718	726	731	729	724	717	706	705	710	730	734	726	715	714	718	722	720	715	714	715	717	727	725	742	742	736	729	734	740	735	705	701	703	708	713	717	715	714	716	723	723	718	710	701	700	706	715	722	722	716	710	711	728	731	730	729	726	726	728	728	724	716	715	710	711	709	722	727	733	731	722	709	707	709	713	711	708	707	710	715	690	702	708	705	703	702	696	696	692	689	689	687	683	681	684	694	699	702	702	705	704	702	696	693	696	709	712	713	712	714	712	704	690	682	682	687	696	701	697	683	684	688	689	684	682	678	682	687	690	690	693	699	702	703	702	702	702	699	696	696	698	698	699	699	696	688	678	673	670	672	672	669	672	680	688	693	689	688	686	686	681	682	685	686	677	669	669	669	672	681	692	689	678	669	667	668	674	676	673	677	684	688	691	0	0	0	0	0	0	0	0	0
957	961	961	964	944	940	952	952	967	987	984	972	954	954	942	929	918	919	928	928	932	924	926	941	959	966	966	966	961	961	965	982	986	984	984	986	990	988	993	1000	994	997	999	964	967	950	946	940	938	941	924	918	916	914	922	922	929	935	935	940	951	952	947	942	938	935	928	930	927	928	926	926	928	923	906	904	910	930	940	937	939	937	934	930	919	920	923	914	896	902	914	917	916	918	909	899	897	899	893	888	894	891	883	870	860	867	875	887	893	891	895	895	872	858	857	861	856	856	857	857	851	840	835	835	845	843	839	839	846	848	844	844	844	842	837	844	854	855	847	837	824	812	809	815	823	834	837	824	810	813	818	833	837	864	876	875	858	859	863	861	852	843	832	836	838	837	837	841	851	849	833	822	818	824	830	833	836	832	827	817	820	819	821	823	820	818	822	833	828	820	805	796	792	794	794	794	792	784	772	768	775	786	793	801	800	801	796	789	788	792	801	804	800	795	791	793	803	802	793	784	783	776	773	776	789	791	792	792	789	777	781	782	780	771	767	774	785	783	772	770	768	763	762	763	768	770	767	756	761	768	771	781	784	787	788	791	795	802	810	813	802	786	789	787	787	780	778	779	785	786	791	792	793	785	773	769	783	804	809	803	774	769	768	773	778	780	783	782	784	778	772	772	772	771	765	767	765	766	762	761	773	783	785	769	770	770	767	760	760	769	769	764	754	749	750	749	750	751	751	753	753	768	769	762	756	757	756	758	758	745	753	749	748	754	753	753	761	768	770	764	755	750	753	766	771	765	755	751	754	753	749	745	745	749	753	747	744	746	749	749	748	748	750	752	753	752	757	754	750	735	724	730	740	749	752	753	754	752	750	752	753	760	751	746	746	749	763	760	758	756	751	755	749	741	736	736	741	749	755	744	742	749	752	754	755	750	748	751	752	753	759	768	771	769	751	732	737	744	750	747	743	731	727	721	702	701	704	708	712	719	727	729	726	715	707	702	705	709	709	706	704	704	702	701	701	700	699	700	702	707	715	714	711	705	693	693	695	699	707	707	703	701	703	706	710	709	702	702	702	700	697	710	718	699	700	697	702	702	690	687	690	691	696	694	698	699	710	710	712	709	701	690	683	686	699	705	702	700	693	694	711	709	706	706	705	709	709	707	697	690	683	691	690	692	708	715	716	709	701	694	693	700	706	692	686	682	682	673	668	680	689	696	696	692	693	689	689	686	682	678	667	667	671	687	690	691	689	688	689	681	673	674	678	690	698	695	689	685	680	682	673	671	674	681	689	690	690	683	684	683	684	680	677	676	677	674	675	672	675	678	681	681	685	690	692	690	689	687	688	686	685	687	684	678	669	657	659	660	663	666	667	668	673	673	671	674	674	673	664	662	666	670	669	667	664	664	663	663	659	655	648	650	655	658	662	663	660	657	664	669	668	0	0	0	0	0	0	0	0	0
896	894	894	892	888	897	912	912	931	955	958	946	935	935	922	910	901	902	907	907	910	911	914	918	927	935	935	921	918	922	932	946	956	956	956	955	961	956	957	961	917	919	913	913	911	910	910	906	907	887	885	889	892	894	897	897	903	916	915	911	913	915	918	916	910	898	879	869	871	876	884	884	891	887	877	872	862	860	865	875	889	896	872	860	859	870	875	871	869	869	874	863	874	886	878	876	869	862	859	859	862	864	867	858	845	842	848	858	858	852	841	820	823	826	831	826	836	839	837	832	830	821	811	802	799	809	816	822	820	815	808	801	810	815	802	807	823	832	837	828	811	807	806	814	811	812	804	797	796	799	804	810	822	818	812	806	797	793	813	826	835	829	818	817	811	807	801	806	812	810	803	796	797	806	815	822	818	810	810	804	798	796	787	787	786	787	793	804	815	810	795	775	767	780	787	784	775	764	764	762	768	775	779	778	783	782	776	772	763	754	768	773	779	780	773	765	768	773	771	764	757	761	765	765	771	776	776	774	772	772	774	772	768	756	759	762	769	764	760	756	756	752	752	754	754	756	754	745	745	752	758	763	766	770	772	776	773	766	782	774	774	774	772	774	770	767	765	765	768	774	774	774	772	765	757	752	755	763	770	765	750	748	742	740	743	748	751	748	743	746	753	751	750	752	748	735	750	760	758	751	748	751	750	743	746	748	743	732	721	729	733	737	737	734	733	737	739	740	740	741	742	739	738	727	725	730	732	734	730	732	734	736	735	730	726	730	740	742	746	746	745	742	745	748	746	739	739	736	720	720	720	729	734	740	741	741	731	728	729	732	734	736	741	741	737	735	736	739	727	708	702	706	713	725	728	733	733	729	725	719	724	725	723	729	738	736	738	742	739	736	732	733	727	723	720	719	713	711	706	731	731	734	736	739	742	735	733	734	734	734	720	712	711	709	709	714	718	728	731	732	727	720	698	695	691	691	692	696	699	702	707	711	708	699	697	693	693	697	702	700	700	697	694	690	690	688	690	688	688	693	694	698	698	694	682	679	678	678	677	679	681	683	686	694	699	698	696	691	688	683	686	679	684	681	686	687	685	677	676	676	679	682	681	680	684	691	691	677	673	669	671	674	670	666	672	677	687	685	683	681	682	677	679	682	682	685	680	678	679	670	670	669	664	663	682	690	686	676	654	659	668	674	673	665	666	669	668	658	654	658	665	665	667	668	672	669	667	671	668	658	652	654	657	671	677	670	661	660	658	651	656	661	665	675	676	676	670	664	663	656	656	656	661	667	673	672	659	660	662	668	678	675	662	653	658	662	660	660	664	659	656	655	656	670	679	682	681	678	671	669	670	666	665	660	655	647	651	657	663	663	662	658	652	644	637	642	658	657	655	655	659	662	665	664	664	661	658	658	652	646	643	644	645	646	646	642	639	641	647	657	648	0	0	0	0	0	0	0	0	0
868	866	866	866	872	881	888	888	898	907	911	906	905	905	899	896	891	889	893	898	898	897	901	905	905	908	908	903	902	907	912	916	923	928	928	929	925	918	880	863	864	866	866	866	873	876	880	874	862	852	849	856	864	867	870	870	868	868	865	856	859	870	883	886	874	855	846	844	851	856	855	855	858	860	854	850	844	829	826	828	833	845	850	845	845	843	842	841	838	829	835	839	846	851	852	846	839	826	816	813	813	826	837	847	839	829	821	817	807	798	791	793	803	801	802	788	787	804	808	809	804	797	784	772	768	771	786	802	801	798	779	774	770	776	777	783	786	794	798	802	808	812	810	809	804	796	790	788	789	779	778	768	774	780	780	781	780	781	778	771	773	783	792	800	787	773	777	785	791	794	788	780	775	779	770	772	777	777	791	795	789	779	774	775	779	783	789	792	791	791	781	762	751	750	759	761	758	755	752	754	758	758	760	752	762	766	767	767	754	749	743	742	757	754	737	740	747	751	752	746	743	748	752	753	751	751	763	762	765	760	752	753	749	752	752	753	749	746	744	745	743	741	744	752	757	757	753	743	731	736	741	746	739	739	743	749	746	740	733	729	740	740	742	744	753	753	759	755	763	763	761	750	743	742	743	742	740	741	738	737	734	731	725	726	730	741	745	741	734	730	731	734	731	724	724	721	725	735	739	733	726	724	730	724	725	728	720	714	710	707	709	712	712	715	716	721	727	730	734	731	728	724	723	711	705	708	705	710	716	721	726	729	726	718	706	705	705	711	718	726	730	731	727	709	706	709	711	708	696	697	700	701	703	709	718	714	709	705	700	696	698	709	715	714	709	706	713	708	705	695	690	687	689	694	692	691	689	694	693	698	698	696	695	699	709	720	720	721	718	719	713	711	707	706	704	701	695	693	692	693	698	699	700	703	703	702	692	686	687	683	685	694	696	689	686	688	695	700	698	700	675	668	660	656	660	664	667	669	679	686	686	685	683	678	674	673	682	679	675	673	684	688	683	680	680	677	670	667	659	656	660	669	680	682	670	665	661	659	657	661	662	664	665	668	687	686	685	681	679	676	671	666	667	671	676	677	675	667	664	666	670	673	674	676	681	687	675	672	668	667	664	659	650	645	649	657	666	676	674	670	664	669	671	668	660	651	646	644	657	664	665	663	660	657	661	660	655	650	648	651	657	661	651	648	650	655	655	652	652	651	651	647	640	643	650	658	658	656	653	638	642	639	649	659	652	645	637	633	631	636	644	648	660	664	659	657	652	653	652	648	643	644	649	653	653	653	649	647	649	651	653	649	642	635	633	642	655	662	662	654	649	645	646	651	653	648	635	623	626	635	648	655	655	649	640	633	634	637	638	644	647	647	640	632	629	628	631	633	635	641	650	655	656	654	654	653	653	648	644	639	639	639	637	635	632	632	631	632	631	631	627	0	0	0	0	0	0	0	0	0
859	863	863	864	868	867	861	859	859	859	866	874	877	877	878	877	875	871	874	875	875	878	875	880	881	876	879	879	887	887	888	889	890	894	894	900	856	846	838	836	843	844	851	851	854	858	858	855	851	845	841	841	843	848	849	849	850	848	836	832	833	835	846	851	844	831	814	807	817	828	834	834	842	844	841	830	823	807	809	811	819	827	833	827	824	819	810	807	813	814	825	824	823	814	803	791	786	779	778	784	791	807	819	826	822	807	785	778	771	764	761	769	776	779	768	760	764	771	778	780	769	762	762	760	762	758	759	762	771	776	770	754	754	757	761	763	770	776	788	793	799	796	795	785	780	778	777	776	765	746	745	747	748	749	754	754	758	767	770	767	761	756	755	741	740	741	745	745	773	768	768	762	762	754	751	758	758	759	761	781	778	769	763	766	770	774	779	776	763	753	749	744	739	734	743	744	743	745	743	744	741	739	730	729	740	754	764	762	758	740	730	728	713	707	712	718	726	731	730	734	731	735	739	735	726	725	709	713	723	728	726	727	732	730	727	724	712	713	714	717	723	724	725	736	749	751	746	736	713	719	725	724	713	711	712	709	706	720	719	715	715	712	723	719	731	738	739	736	742	749	749	741	732	729	728	725	728	729	720	715	711	709	695	698	713	719	722	725	725	723	718	720	718	715	709	706	716	726	732	727	717	712	709	710	706	701	700	700	698	694	692	694	697	701	706	711	708	714	718	721	713	711	704	696	692	694	697	702	707	714	720	712	704	697	691	687	686	692	698	703	704	703	690	689	692	689	685	682	691	693	695	698	696	692	690	699	700	695	688	685	685	686	687	687	687	689	689	681	681	673	670	671	668	671	671	681	683	685	688	688	681	683	679	683	684	683	682	679	680	684	680	678	680	685	687	680	683	682	683	679	683	690	693	694	689	672	667	661	657	660	662	679	677	668	660	664	672	681	682	665	662	653	646	639	641	647	656	657	655	654	651	652	659	660	656	650	643	637	634	638	644	653	661	671	666	656	646	641	639	648	656	661	668	669	660	653	649	646	647	643	642	641	643	650	661	668	666	661	657	658	658	657	658	659	661	665	662	658	655	656	661	668	664	661	666	674	672	671	666	664	660	655	651	649	647	646	658	663	663	661	660	664	668	663	653	639	633	639	645	649	645	641	639	644	644	645	641	641	641	643	644	639	637	633	636	641	648	650	648	643	637	630	627	632	634	631	629	623	620	621	623	622	631	636	640	634	629	623	623	622	626	637	642	641	637	631	633	636	641	642	636	635	635	643	645	644	642	644	643	639	638	633	627	619	618	626	641	653	654	645	635	631	628	617	615	615	616	615	620	627	632	637	638	634	625	625	625	621	620	626	631	633	623	621	619	619	619	620	620	623	634	638	642	641	641	639	636	632	624	623	625	625	624	626	622	623	622	619	617	614	616	0	0	0	0	0	0	0	0	0
865	868	868	864	860	849	845	837	837	835	834	847	857	857	861	863	857	852	853	854	854	854	851	843	842	849	853	853	848	844	857	863	869	864	832	840	841	836	829	824	823	826	832	838	838	836	833	837	834	831	824	818	818	825	827	827	824	809	803	802	807	810	814	817	817	811	800	791	807	819	826	826	824	823	821	814	809	803	802	802	797	794	800	799	803	801	795	794	796	808	811	804	792	779	768	761	756	760	762	765	774	787	785	778	778	778	773	771	768	761	750	747	746	743	739	743	751	751	754	746	733	733	739	749	753	749	750	755	755	750	754	750	750	745	742	741	737	742	764	771	758	747	750	754	759	760	756	741	733	724	728	730	735	741	740	741	743	747	755	755	747	750	747	740	736	736	737	734	735	738	739	739	752	746	743	746	751	743	727	736	746	747	745	740	738	746	745	735	734	731	732	732	734	732	732	730	723	721	721	726	719	710	707	713	731	747	753	751	746	728	710	696	693	693	695	705	712	716	712	713	715	718	719	713	719	719	710	712	724	732	732	727	722	716	711	703	694	700	710	717	718	712	708	708	723	731	731	723	705	701	698	697	695	695	696	696	693	693	704	704	697	693	688	692	721	721	719	724	726	729	731	731	723	715	709	712	718	716	706	698	694	690	682	681	691	698	698	716	716	711	708	698	694	693	686	685	701	713	722	712	703	693	689	688	689	683	688	689	684	678	675	679	677	683	685	683	690	700	705	708	703	696	690	683	681	682	685	689	690	687	685	682	682	687	690	679	670	669	672	673	674	672	674	674	676	674	671	671	674	681	689	689	686	678	674	675	686	687	683	679	679	679	680	678	677	675	672	669	667	665	665	659	657	657	661	665	675	681	680	679	675	675	671	666	667	667	668	662	659	658	665	667	671	676	677	670	669	666	670	670	676	680	684	687	663	654	653	651	649	649	652	654	654	651	648	648	651	648	639	637	635	638	633	633	633	634	637	630	628	628	630	633	646	649	649	646	640	632	626	628	630	642	649	656	649	644	645	642	640	645	644	646	656	656	652	641	639	639	640	639	637	635	635	638	639	639	640	643	647	647	645	649	647	648	652	653	651	647	643	646	648	651	643	641	641	653	653	643	633	627	628	638	642	645	642	638	644	652	655	652	646	650	652	651	640	628	625	633	641	638	636	633	629	628	622	616	616	630	634	630	631	636	633	628	625	627	637	648	630	619	615	616	622	625	627	629	623	619	615	612	613	614	619	624	630	620	615	607	607	611	617	624	627	622	616	614	616	623	623	629	630	627	629	634	634	634	636	634	634	633	630	623	615	606	603	611	626	634	640	632	617	608	606	610	609	606	605	604	609	618	622	624	625	620	618	619	618	614	605	608	615	620	609	608	606	605	606	609	611	612	616	622	622	624	624	625	625	618	615	616	616	614	611	607	611	615	601	603	609	608	610	0	0	0	0	0	0	0	0	0
852	854	854	843	841	834	829	819	819	813	815	828	842	847	847	845	840	834	836	831	831	836	830	828	821	818	813	813	808	810	818	833	802	811	820	820	824	822	812	806	802	803	802	806	806	808	813	815	811	807	802	799	799	806	807	807	804	786	780	781	784	788	787	795	794	789	772	778	788	804	805	799	799	784	784	785	794	795	795	791	784	782	780	781	782	779	783	774	769	767	765	763	760	754	752	747	744	742	744	747	748	744	753	761	769	772	768	762	753	747	736	726	724	723	727	727	730	729	723	713	710	715	724	734	739	734	732	741	744	743	742	743	742	735	730	729	730	727	726	722	721	721	732	737	741	744	742	732	721	717	720	718	718	720	727	728	729	732	737	739	741	741	738	729	726	725	726	724	724	727	730	726	719	717	721	720	721	715	713	722	729	736	737	731	727	723	719	717	716	710	701	701	722	725	722	716	712	708	707	708	704	696	696	700	708	714	715	711	715	707	700	691	682	684	689	692	695	700	700	696	700	702	701	706	711	713	710	706	711	717	710	712	709	705	695	683	681	683	694	700	701	700	696	698	702	706	707	706	701	698	695	689	684	681	681	685	684	680	684	690	681	676	675	675	674	671	703	700	692	683	684	689	693	689	689	700	702	700	693	687	687	684	681	677	678	681	687	691	690	696	687	687	684	682	667	666	677	700	706	693	688	681	677	674	672	675	672	665	660	661	662	658	657	655	659	665	673	685	689	681	671	672	666	663	657	658	659	665	671	666	664	667	671	677	676	679	675	668	666	664	667	671	671	671	665	661	656	654	655	661	665	670	669	662	656	653	656	661	669	672	673	672	673	668	664	661	658	657	653	646	645	643	647	653	654	656	661	664	666	672	674	667	644	637	639	651	650	652	655	658	659	659	662	662	664	663	662	657	657	660	653	652	649	646	644	645	644	641	639	640	641	643	646	646	641	640	634	633	630	627	627	626	625	625	623	623	621	620	622	622	623	625	641	646	644	640	633	626	621	616	613	619	631	634	627	633	638	639	631	615	610	618	631	635	627	621	623	629	633	635	632	625	626	620	617	617	620	630	632	635	631	632	641	638	634	634	640	636	622	623	624	627	623	627	633	637	636	629	618	611	613	619	627	634	632	629	628	629	633	634	635	641	608	611	611	612	614	618	625	626	624	623	622	618	611	613	618	619	622	628	630	637	633	627	623	622	618	616	609	610	608	609	613	619	622	622	619	614	610	605	600	601	602	607	614	605	594	591	596	603	609	613	612	604	599	600	605	605	603	606	608	613	619	622	624	624	620	614	613	620	620	619	612	600	595	601	614	621	621	616	606	600	600	602	605	599	594	590	599	607	613	613	615	613	614	613	610	605	599	597	602	603	596	595	593	590	591	593	596	597	596	597	597	599	599	605	612	607	605	606	604	600	595	593	591	589	587	589	598	600	603	603	0	0	0	0	0	0	0	0
807	809	809	813	816	814	814	804	804	801	808	818	820	809	809	810	814	817	817	814	814	812	810	810	804	794	788	788	782	788	792	770	778	788	803	803	805	798	793	786	780	773	778	783	783	789	795	795	786	788	789	786	785	778	776	776	776	776	767	764	766	768	769	768	765	758	756	752	754	755	756	760	760	760	761	754	757	762	771	772	765	758	755	757	759	763	761	753	747	745	745	744	740	736	734	733	726	726	730	732	735	741	745	751	759	762	761	747	742	737	728	716	713	711	718	716	714	713	707	703	702	705	711	718	720	720	719	723	724	727	729	722	718	717	717	720	722	722	720	716	711	702	700	704	710	718	730	726	717	714	713	706	704	702	705	709	710	715	718	718	720	723	722	714	704	691	689	691	692	697	709	712	711	708	705	703	695	685	676	705	712	719	723	715	713	711	711	713	705	691	685	687	693	713	710	700	690	687	687	695	693	687	687	691	693	696	692	680	683	692	690	683	672	665	656	655	667	677	687	684	684	682	688	688	696	698	699	694	694	696	693	692	682	674	669	671	673	677	680	682	677	682	683	683	686	691	692	694	687	692	687	682	667	658	652	648	649	652	657	669	667	666	664	657	659	663	665	658	669	669	672	680	682	679	677	676	673	675	677	678	677	679	678	674	669	670	673	679	675	668	662	662	660	656	651	652	655	665	670	675	667	658	654	651	652	655	652	644	647	650	651	643	639	640	644	653	653	657	657	648	640	640	638	637	637	640	647	652	654	655	654	654	655	657	652	655	656	650	649	647	655	663	665	662	656	643	636	636	633	635	634	636	640	641	646	644	645	648	649	646	649	648	646	644	639	635	634	636	637	633	630	631	638	645	648	647	644	641	638	640	637	628	621	617	617	629	635	641	642	644	646	648	649	651	651	647	645	641	639	641	642	644	642	637	638	640	636	631	629	627	630	631	635	629	630	631	632	621	619	621	619	620	619	617	608	605	611	613	614	613	614	623	631	637	634	628	621	614	611	607	608	609	611	612	616	622	630	628	616	611	604	606	608	615	616	617	618	620	622	621	618	612	609	604	594	597	598	601	606	618	617	616	614	612	605	604	601	600	599	602	610	618	616	618	623	628	627	620	611	603	602	610	623	626	628	622	617	612	605	595	600	603	606	607	608	609	610	610	605	601	597	594	593	593	603	616	611	606	602	602	599	604	611	621	618	618	610	607	606	605	601	599	603	610	616	615	611	607	603	595	589	587	587	593	596	585	576	578	583	592	598	597	593	591	586	592	599	601	595	590	592	594	612	616	620	618	606	598	598	604	610	613	607	594	592	594	599	600	600	595	589	586	585	592	591	588	582	581	588	597	597	599	597	599	607	608	607	602	598	594	594	592	583	582	580	578	577	581	587	584	585	585	587	587	587	587	586	588	592	592	591	585	584	583	586	584	580	577	582	589	592	592	0	0	0	0	0	0	0	0
777	782	782	791	799	801	794	792	792	789	789	787	791	790	790	792	799	808	804	801	801	793	791	791	788	776	770	770	772	757	762	751	749	755	761	761	773	779	777	767	763	763	764	767	767	769	774	750	747	756	765	768	766	762	757	757	752	753	752	754	755	747	736	738	749	753	748	740	732	734	735	730	730	734	732	735	739	744	753	755	749	738	735	736	738	746	742	733	726	727	727	725	723	720	719	717	711	712	714	723	728	729	726	728	731	731	727	725	722	718	719	713	704	708	709	713	709	705	701	695	691	693	697	701	703	704	710	714	715	715	713	711	710	710	708	709	712	713	714	708	697	690	689	691	697	704	713	706	692	678	670	671	684	689	690	690	693	699	700	699	697	696	701	690	682	679	679	679	681	684	676	670	672	675	678	680	672	671	665	657	657	669	682	704	703	702	696	696	694	687	683	680	686	687	684	672	666	667	674	679	687	686	677	672	677	664	660	660	667	670	668	670	667	662	657	658	666	674	676	674	674	677	676	677	672	676	678	682	677	670	671	670	667	662	661	663	667	669	672	671	664	660	667	668	669	672	675	673	673	666	662	658	645	643	639	639	640	645	649	648	645	644	654	655	655	653	645	643	643	658	661	665	662	664	661	661	660	662	661	660	660	662	662	661	651	656	659	665	664	657	648	644	645	644	643	642	644	649	649	647	643	643	640	639	629	623	620	628	632	633	625	621	621	630	630	640	647	647	641	635	631	627	626	626	630	636	638	642	642	639	636	636	641	643	643	634	633	636	634	637	638	648	653	644	636	628	625	624	625	624	622	621	625	622	626	631	632	637	635	638	639	635	637	635	633	629	628	631	632	630	621	619	628	627	616	614	616	621	628	628	626	617	613	610	607	615	623	630	623	626	629	635	630	633	633	634	631	621	624	628	634	636	637	631	630	633	630	624	617	617	620	614	608	610	610	605	596	592	598	609	611	607	604	601	597	600	602	603	600	602	603	611	617	622	617	614	607	603	601	588	590	594	608	612	614	612	608	606	605	604	604	596	595	604	602	598	593	594	599	603	607	605	587	584	585	589	590	592	594	600	604	601	603	602	594	587	584	585	589	592	594	596	600	608	612	618	616	612	602	596	597	602	613	619	621	605	603	600	587	586	594	600	605	605	606	609	603	588	584	581	581	583	583	577	577	581	581	585	588	589	592	594	596	602	607	604	600	596	591	592	593	592	594	595	595	598	592	588	580	584	580	575	576	582	582	572	570	571	577	582	586	583	575	572	581	589	593	592	588	585	583	587	594	599	606	590	587	584	588	588	592	593	590	583	584	587	590	586	585	585	581	577	573	574	581	579	576	575	580	585	584	583	580	578	588	599	605	602	596	590	586	578	573	570	571	568	568	570	576	575	574	576	575	577	577	576	576	575	583	583	586	582	582	582	584	584	578	571	568	567	570	570	0	0	0	0	0	0	0	0
742	759	771	771	781	783	777	773	773	776	779	777	778	776	776	776	780	780	782	780	780	769	764	756	746	743	745	745	746	753	750	742	736	721	730	730	732	756	757	749	746	747	753	753	753	750	731	725	729	735	744	748	752	745	739	739	737	737	736	744	742	729	717	726	736	741	739	725	717	711	708	709	709	717	726	731	732	735	734	736	733	724	717	717	723	727	721	712	710	705	707	709	704	705	703	700	692	692	697	708	713	711	710	709	709	709	706	704	705	708	703	699	704	703	708	706	706	700	693	685	682	684	686	690	690	694	699	703	706	700	700	700	700	700	697	695	697	701	701	689	680	673	673	677	688	692	698	698	686	673	662	656	657	666	673	675	678	679	676	670	662	669	674	673	674	673	670	671	657	656	657	659	658	653	655	649	656	662	660	653	654	658	661	659	660	668	684	685	684	679	676	672	673	674	668	666	666	667	664	665	673	672	660	648	645	647	650	652	654	658	659	661	660	658	654	655	663	668	668	666	668	673	669	659	657	663	661	634	631	646	660	656	654	647	648	650	645	651	656	660	652	647	645	652	655	654	653	655	658	652	635	625	624	630	629	629	631	637	643	644	642	647	643	634	624	622	619	619	627	625	623	641	650	652	648	648	649	653	653	647	643	638	636	636	624	627	633	651	648	642	636	636	633	634	632	632	634	635	638	632	629	627	631	632	621	612	612	612	609	607	601	599	608	613	620	628	635	634	628	622	617	614	622	629	629	629	632	630	625	615	617	616	618	620	621	622	623	622	623	623	626	632	637	629	615	618	618	618	616	611	613	617	616	613	607	600	603	619	623	630	630	629	629	629	625	624	617	621	624	625	613	604	597	597	600	603	608	615	623	627	620	612	607	608	607	598	593	583	588	601	612	620	623	622	623	625	623	607	605	620	622	624	616	607	602	599	595	595	598	589	595	591	588	590	589	590	588	584	583	586	591	591	592	590	592	594	593	590	588	584	586	602	603	600	595	591	587	585	584	585	589	591	596	607	603	600	585	587	597	597	594	590	593	597	597	594	591	591	592	594	595	594	588	586	580	582	583	582	586	591	591	589	589	586	587	577	574	576	580	582	583	579	580	585	593	599	604	596	591	592	582	577	570	578	586	589	592	589	583	573	578	583	586	593	593	588	586	581	576	574	574	574	577	570	571	575	577	579	573	565	564	567	576	583	587	582	580	573	565	566	571	575	577	576	572	584	578	565	564	565	564	568	570	577	575	571	567	570	574	578	580	574	567	567	575	581	586	587	576	573	573	575	575	584	576	576	574	571	573	573	578	575	572	573	569	563	564	569	574	577	577	573	568	562	563	559	562	565	566	568	563	562	566	566	565	564	590	595	591	585	575	566	560	561	561	559	559	560	568	569	569	569	569	571	571	565	560	567	571	573	576	575	577	577	577	577	564	561	557	557	554	554	0	0	0	0	0	0	0	0
735	741	754	754	762	761	751	755	755	762	765	768	763	761	761	755	744	741	744	750	750	745	742	738	728	726	737	724	734	740	739	729	718	709	710	710	719	728	730	725	721	717	711	713	713	713	712	710	713	724	726	724	727	721	718	718	716	706	705	722	723	717	713	709	717	723	719	714	707	699	691	693	693	705	720	727	727	723	720	723	715	707	694	691	696	696	692	689	692	690	687	686	688	688	691	689	680	676	679	680	678	677	678	687	688	681	679	680	686	692	692	687	688	691	695	693	696	692	686	677	674	675	675	671	674	673	674	679	682	677	676	675	677	682	688	683	680	679	671	662	660	656	656	664	672	678	682	690	679	667	654	650	651	657	659	652	652	654	650	644	646	644	649	661	663	663	659	654	647	645	646	645	646	646	638	636	643	648	650	655	658	658	656	652	649	655	653	650	645	668	666	662	660	661	660	661	663	664	657	655	654	653	644	639	638	638	639	644	649	651	653	651	648	646	644	643	650	655	649	646	647	651	653	639	634	636	634	628	629	642	647	646	641	634	633	631	632	632	632	635	637	634	622	622	626	631	636	641	645	633	618	615	613	617	619	618	613	613	614	617	606	606	608	608	612	608	601	602	603	614	616	613	610	630	623	619	620	624	621	619	615	615	614	614	614	616	618	622	620	617	616	616	618	620	621	616	617	621	626	625	625	624	623	624	611	604	608	608	601	590	590	590	597	604	612	619	624	620	612	608	605	606	607	615	626	621	612	603	603	605	608	608	609	612	615	615	614	612	606	603	606	618	616	604	603	607	607	607	603	603	603	606	605	603	601	597	597	604	615	622	622	620	608	608	608	608	605	608	612	615	608	596	590	590	590	594	603	609	617	618	607	603	602	601	603	601	590	590	593	598	602	609	610	612	617	616	606	599	597	594	591	582	583	583	583	590	594	592	584	581	581	577	573	577	575	578	575	575	577	579	582	582	583	589	592	590	585	578	571	566	564	581	581	582	576	573	571	572	574	579	586	590	591	591	591	588	583	584	583	594	592	585	586	589	591	589	590	589	587	584	584	583	583	580	577	580	578	575	572	584	581	572	575	575	575	574	574	579	581	584	576	570	571	573	581	591	587	585	586	567	556	558	570	578	583	584	583	580	577	570	570	570	565	560	561	567	573	575	573	570	568	566	570	569	566	569	573	575	566	562	559	560	564	571	573	573	572	568	561	560	561	564	567	564	555	554	557	557	556	555	555	557	560	563	564	568	568	566	567	569	568	563	560	562	565	570	559	551	546	548	557	562	565	565	561	561	563	558	555	554	554	557	559	558	554	545	549	557	564	561	556	553	554	550	548	550	553	555	555	556	557	554	553	555	553	555	555	559	567	567	560	557	554	556	554	551	548	555	559	562	565	565	564	564	562	555	556	559	563	567	565	565	566	568	561	556	554	555	551	546	543	543	0	0	0	0	0	0	0	0
726	730	739	739	745	739	735	739	739	740	743	747	745	736	736	715	712	720	723	729	729	726	731	729	723	721	709	709	713	715	720	715	708	706	708	708	710	714	716	712	708	702	698	698	698	699	700	704	708	712	706	699	691	687	686	684	684	686	688	702	706	704	703	701	699	694	699	697	693	684	683	684	684	687	692	697	698	692	692	699	694	690	683	674	672	676	675	670	670	671	673	669	673	678	684	681	678	669	665	668	669	671	671	669	663	657	659	661	667	674	662	662	662	663	661	669	672	671	667	657	649	654	660	661	658	659	661	658	657	656	653	654	662	668	669	659	643	634	639	646	645	643	645	650	659	661	656	655	662	653	648	646	646	648	636	639	640	639	635	636	634	634	639	647	652	649	647	641	636	634	634	635	636	630	628	631	634	638	645	646	649	649	649	645	647	646	634	635	634	634	628	627	651	648	650	651	654	655	651	651	650	645	638	633	633	629	629	631	638	644	644	641	636	630	618	619	633	635	637	634	626	628	628	627	627	629	627	620	625	629	631	631	628	623	619	622	624	624	622	619	616	613	612	616	620	621	624	626	628	626	610	603	602	601	603	599	592	588	588	593	599	599	602	602	597	595	593	596	600	606	613	613	611	606	603	613	613	613	614	608	604	601	606	605	606	606	603	601	604	604	606	605	606	607	607	608	608	612	613	609	599	597	597	598	597	594	593	592	590	584	583	583	593	590	596	603	608	610	603	600	595	591	591	598	605	604	604	596	595	594	597	599	601	604	606	606	603	596	586	588	588	593	593	590	593	594	596	591	591	589	589	587	594	594	593	594	597	599	605	606	600	589	589	591	594	596	595	597	603	608	609	597	587	586	584	581	584	593	600	602	601	600	600	596	594	591	586	589	591	592	591	590	588	594	598	593	583	582	579	576	573	575	574	575	577	581	580	580	577	574	571	571	567	571	572	570	568	568	567	568	567	567	562	565	576	578	572	567	563	558	571	572	567	564	561	562	568	571	573	579	582	590	593	590	586	584	584	584	580	584	581	579	583	586	587	587	585	583	577	572	570	571	576	574	571	568	570	568	565	562	562	559	563	566	569	568	573	572	577	572	560	555	558	568	575	578	583	576	561	554	549	550	558	575	580	577	576	574	577	572	563	559	555	552	553	557	568	571	571	565	561	559	563	568	563	564	561	562	557	556	554	556	560	551	556	562	565	562	555	553	554	557	559	555	548	544	545	547	548	549	550	550	552	553	561	562	561	559	563	564	562	557	556	559	567	564	554	549	544	543	543	550	555	557	557	555	551	548	546	547	547	550	553	553	544	540	544	551	555	554	551	545	540	536	535	536	544	547	548	549	552	552	551	549	543	542	543	544	543	539	539	545	547	546	543	540	544	550	556	558	561	556	552	552	549	555	553	553	555	553	547	542	539	542	539	537	543	544	543	538	535	535	0	0	0	0	0	0	0	0
716	721	724	724	719	716	714	717	717	719	714	711	707	687	687	683	687	704	712	714	714	714	717	712	711	695	689	689	691	701	709	712	709	705	700	700	702	703	702	696	690	689	687	685	685	687	691	699	700	692	696	692	684	676	678	675	675	674	677	681	685	684	687	684	678	673	677	679	675	673	674	674	674	673	675	676	682	683	677	680	681	678	672	663	665	666	665	661	657	654	652	653	654	665	676	683	679	671	665	664	668	669	662	641	637	634	638	644	649	650	650	653	659	660	653	652	652	654	651	645	643	647	651	655	653	644	642	641	641	643	639	640	648	651	649	640	633	629	631	635	638	635	638	636	639	637	632	637	636	638	634	634	634	627	624	621	622	626	626	626	628	630	635	636	643	644	641	637	631	627	623	622	621	619	616	619	621	621	618	619	618	611	615	617	616	613	611	616	621	622	618	616	609	612	613	630	628	632	641	651	653	642	632	625	620	617	615	617	615	611	615	620	620	615	604	601	612	625	622	618	619	619	614	618	617	614	613	613	615	620	619	618	616	614	619	621	621	620	617	609	604	598	603	608	613	612	607	605	605	607	598	594	596	599	599	594	590	586	585	589	593	597	597	592	586	581	587	592	597	604	607	608	606	603	588	579	579	603	602	598	589	582	583	588	589	593	594	590	588	586	590	592	595	597	597	594	596	599	597	590	584	582	580	581	586	587	585	580	577	577	578	578	579	581	585	590	595	598	596	589	582	578	577	577	576	576	584	588	589	585	583	587	587	586	584	578	578	580	583	583	583	584	583	581	580	576	569	568	576	576	562	559	564	574	584	586	587	590	590	589	584	573	570	577	587	590	589	588	588	582	581	586	588	586	580	574	574	579	588	593	598	594	593	588	577	576	579	585	587	584	579	578	577	576	574	575	573	563	566	569	576	578	575	573	569	570	565	568	564	565	565	565	562	567	565	562	563	565	566	566	564	561	557	559	560	568	567	562	557	555	560	562	559	556	556	555	558	562	570	574	574	582	586	580	577	579	578	576	574	569	562	557	568	571	576	579	576	566	560	560	560	562	567	567	564	562	562	562	560	552	552	554	557	560	562	563	564	568	570	569	567	569	568	568	560	560	558	555	552	546	545	547	550	556	556	554	549	546	548	552	557	553	549	550	549	550	557	563	562	556	550	549	552	555	553	548	544	544	544	541	544	550	545	541	542	549	553	551	550	548	550	552	554	551	546	540	538	540	543	541	536	537	541	548	556	554	553	558	560	560	558	553	549	555	558	558	555	551	543	537	539	539	545	548	546	544	541	538	538	538	538	538	540	544	534	535	540	544	548	547	543	537	531	527	527	529	530	534	537	540	544	548	545	541	536	535	536	538	537	531	527	529	533	537	539	534	537	544	552	555	550	541	539	539	540	541	539	538	541	534	530	529	529	526	528	530	533	535	534	532	528	528	0	0	0	0	0	0	0	0
704	711	707	707	702	699	693	697	697	699	694	691	687	679	679	671	675	693	699	700	700	700	698	697	679	680	675	675	673	686	698	699	696	692	691	691	691	691	688	680	674	666	665	667	667	669	665	665	669	673	679	682	675	670	671	667	667	663	667	671	674	675	675	668	666	657	657	660	660	662	662	661	659	659	660	664	667	664	663	661	657	656	658	654	654	655	657	651	641	639	637	640	648	657	665	673	672	661	653	646	633	627	627	630	632	628	622	621	625	631	639	648	658	658	656	647	646	645	639	637	634	636	637	636	633	633	630	629	628	635	631	635	637	639	635	632	627	622	620	615	616	622	624	626	629	628	624	625	626	624	621	623	619	616	613	612	611	613	615	616	620	620	614	616	628	634	636	630	622	621	617	616	615	609	602	599	601	602	605	605	602	603	603	605	606	604	605	605	608	608	610	609	605	608	610	598	590	588	620	625	628	622	617	612	607	609	611	606	601	593	599	602	603	595	589	589	593	600	607	609	612	607	602	587	590	598	599	593	603	602	611	608	607	607	611	618	620	618	609	591	585	585	594	599	601	597	596	591	590	587	589	597	598	594	590	585	581	578	578	584	588	591	579	573	566	572	572	573	579	582	582	582	590	586	577	572	570	569	568	583	575	568	564	571	586	588	586	581	578	577	580	583	586	586	583	579	577	578	578	572	569	571	571	574	580	583	579	575	569	568	567	568	566	569	570	574	573	568	565	564	566	569	567	562	559	558	558	559	560	559	558	560	562	561	552	555	559	565	569	569	567	565	567	569	562	561	557	554	559	555	554	552	553	557	564	574	580	585	585	583	575	563	562	559	560	563	564	564	565	567	561	561	568	570	571	565	562	563	568	578	577	580	580	574	565	561	561	563	565	573	570	573	572	571	568	561	554	553	561	565	571	574	565	564	560	553	556	559	553	544	537	532	536	542	548	556	561	563	566	564	563	558	556	556	559	558	557	557	550	549	551	552	550	547	547	546	549	553	552	553	551	558	563	568	567	568	568	568	562	561	559	548	551	553	553	555	554	547	542	541	548	556	561	561	560	558	556	556	553	550	550	551	554	555	556	557	557	559	560	558	559	547	543	541	546	546	548	548	544	542	538	541	544	548	550	548	542	542	545	543	546	548	547	544	545	544	542	538	538	541	541	540	541	544	539	531	529	529	528	523	533	539	537	533	533	536	540	543	539	542	541	548	551	551	545	540	537	538	540	539	540	540	542	543	547	546	546	547	551	550	532	536	539	542	549	547	545	540	532	528	530	535	540	540	538	536	532	531	527	524	524	526	527	525	528	536	537	539	539	540	537	533	528	525	524	523	525	526	530	536	538	538	537	536	532	529	530	530	531	528	526	526	525	526	531	528	529	527	530	529	526	526	529	529	529	531	534	530	527	528	531	527	525	523	526	527	526	527	527	519	513	513	0	0	0	0	0	0	0	0
692	696	692	692	690	687	684	687	687	685	686	684	677	671	671	671	675	681	684	685	686	686	684	682	654	660	663	663	663	673	681	679	683	680	676	676	666	662	663	667	657	658	660	660	656	656	651	649	652	656	661	659	663	660	663	662	662	655	657	658	660	661	663	659	655	652	652	648	643	637	640	645	648	648	648	643	643	639	640	641	644	646	642	643	640	634	623	619	623	630	633	638	643	644	645	648	652	639	625	624	618	615	617	623	628	624	614	609	610	619	632	645	653	649	641	639	639	623	623	630	626	622	621	619	620	622	619	616	620	620	620	625	631	631	627	620	614	616	614	607	606	606	610	618	620	618	612	615	614	609	611	609	608	605	602	602	597	600	607	611	614	615	611	608	617	610	604	608	607	604	595	591	592	596	589	584	587	591	592	589	587	589	593	593	592	597	601	600	596	585	586	591	596	603	606	600	589	581	586	591	609	606	606	596	594	602	608	603	599	593	584	582	585	581	578	581	585	581	581	587	595	595	581	575	581	588	586	583	577	578	592	596	597	596	594	591	590	583	580	578	581	582	586	587	587	582	582	581	574	566	570	580	583	580	570	566	566	567	569	570	567	564	562	558	554	549	550	556	564	572	572	573	576	576	570	562	558	557	554	552	568	567	572	581	584	578	574	570	569	570	573	575	576	575	576	573	571	570	565	563	561	564	564	564	566	567	567	563	559	558	558	557	558	556	552	556	558	557	555	555	557	560	560	557	554	553	553	554	553	553	553	552	554	552	549	554	554	553	550	557	562	562	558	554	547	541	541	544	547	550	550	549	549	551	554	562	571	567	569	565	557	555	555	554	553	554	560	557	555	554	550	548	552	559	565	565	561	559	562	566	566	562	563	558	552	548	550	552	553	557	563	567	562	558	552	539	536	543	552	560	557	553	549	548	548	546	548	551	547	536	530	527	529	533	545	551	555	554	553	551	550	557	555	554	550	543	538	537	535	539	543	543	541	539	539	540	542	542	542	542	540	543	542	551	553	554	556	549	558	558	558	546	547	545	543	546	546	541	538	540	548	552	556	555	553	549	549	550	550	550	550	546	546	549	547	544	546	544	545	543	544	541	536	532	534	538	536	537	536	533	533	534	536	540	543	543	538	535	541	540	544	545	544	538	539	536	533	531	527	526	529	528	523	525	524	521	521	519	516	516	520	525	528	530	530	531	534	528	524	524	530	536	538	540	538	534	533	533	534	535	539	537	536	536	535	536	535	536	534	518	513	515	524	529	533	529	527	525	526	526	527	532	536	536	535	524	521	523	522	521	520	522	522	519	520	527	532	531	532	533	532	532	536	534	527	518	519	521	525	528	528	524	526	529	529	524	521	522	523	523	521	519	515	510	505	506	505	512	514	511	512	510	513	513	517	523	524	513	511	514	523	521	520	517	511	511	509	509	505	500	500	500	0	0	0	0	0	0	0	0
684	678	673	673	675	678	679	680	677	677	674	674	674	672	672	665	664	666	667	672	673	673	669	646	646	649	651	652	652	656	661	662	665	661	652	652	649	649	648	646	647	650	655	654	651	651	647	643	642	638	633	634	637	642	645	645	645	639	638	638	642	642	649	651	652	650	645	628	626	629	628	634	635	635	633	629	629	625	624	627	629	631	634	631	630	626	618	612	607	615	627	635	635	634	629	620	617	619	621	619	614	609	610	615	620	620	611	600	602	614	627	623	619	616	617	612	610	607	608	608	608	609	609	609	611	612	612	606	603	600	605	615	623	622	613	608	604	605	607	605	601	600	601	600	602	601	600	599	600	603	605	605	604	599	593	588	591	594	600	600	592	601	601	597	585	577	580	589	590	574	568	577	581	582	576	572	573	576	574	573	570	577	585	588	594	595	595	593	583	581	583	586	587	589	590	581	575	572	572	571	567	567	567	575	577	583	586	584	580	572	568	571	573	569	566	569	572	573	572	572	561	563	566	563	560	561	561	566	564	562	570	573	576	573	569	566	569	573	573	572	571	569	571	576	572	558	555	557	558	557	560	568	568	565	561	558	558	562	562	564	564	558	553	552	548	546	547	552	557	558	564	567	567	556	550	546	545	549	550	550	550	555	570	575	572	564	563	564	565	567	564	564	562	561	558	558	559	561	556	555	555	557	557	557	557	551	549	550	552	550	551	548	546	545	546	546	547	548	550	551	553	556	554	551	548	545	544	542	542	545	544	547	549	554	557	555	549	540	537	546	556	560	552	546	537	533	534	537	540	544	541	537	537	538	544	554	555	553	549	546	545	550	549	547	547	547	550	551	547	546	542	540	538	550	557	561	557	558	558	559	556	554	551	549	545	542	541	543	548	557	561	558	550	543	542	536	538	538	539	546	543	540	542	542	539	538	538	544	544	538	527	522	524	538	541	541	540	539	539	547	546	543	542	540	536	527	521	522	526	535	537	539	539	535	531	533	535	534	531	528	525	524	528	530	532	534	540	543	549	555	549	541	541	539	537	536	540	532	525	529	539	549	551	544	530	525	529	543	545	542	531	531	532	534	539	536	527	530	534	536	535	530	524	524	527	532	529	531	526	524	527	530	529	531	533	529	528	527	537	539	543	541	531	529	530	535	537	534	527	519	515	511	519	520	521	519	516	518	514	510	510	512	522	525	524	524	528	525	522	525	530	533	532	533	531	529	525	526	528	530	533	533	530	528	526	525	526	525	520	513	509	510	516	522	522	519	513	514	516	517	519	523	525	523	520	515	515	517	517	518	517	517	518	514	515	520	521	521	522	524	527	523	525	526	520	514	512	514	513	510	509	510	513	521	522	519	518	516	512	506	502	500	502	503	508	509	506	503	505	505	504	504	502	502	503	503	500	503	504	505	506	502	500	500	499	499	500	498	499	501	501	501	0	0	0	0	0	0	0	0
664	658	659	659	664	669	671	660	659	659	663	667	667	660	660	655	652	650	653	655	654	654	634	636	635	635	638	640	640	644	643	645	645	644	637	634	634	635	633	628	627	629	628	631	637	637	641	639	635	627	621	618	622	618	616	616	616	615	618	624	627	628	631	635	642	640	631	623	623	626	625	620	621	621	615	616	616	618	616	617	618	615	617	622	621	619	611	605	603	601	603	606	610	613	603	600	598	601	605	606	607	604	600	604	605	613	609	605	608	614	617	616	604	593	587	585	595	599	601	602	602	606	609	606	606	602	590	590	596	600	610	613	609	606	602	592	592	594	593	598	597	595	595	592	589	588	586	591	593	597	599	600	597	591	583	579	583	587	588	580	568	575	585	583	574	568	568	568	569	564	557	562	573	576	574	566	563	564	566	564	562	568	576	583	586	588	587	581	582	580	580	565	563	572	574	573	568	561	556	553	553	552	553	556	562	578	579	575	572	567	562	555	558	558	560	563	569	568	564	558	555	558	561	555	550	548	549	557	558	556	553	548	550	554	555	555	558	562	565	565	561	557	551	551	551	549	544	542	540	536	536	548	549	551	547	545	548	551	552	554	553	548	545	546	544	544	546	549	550	549	547	546	548	546	543	539	538	541	542	543	545	548	540	541	558	554	552	554	547	538	539	543	549	550	547	542	540	548	549	546	543	544	546	546	546	546	546	547	545	542	538	536	540	541	539	536	535	531	533	536	543	548	552	549	543	536	533	528	524	531	535	541	553	554	551	545	529	526	525	528	533	540	539	534	530	528	524	527	530	535	534	532	530	531	534	539	537	535	533	536	537	534	530	530	530	535	540	543	542	539	536	538	541	544	549	554	552	550	547	548	545	542	540	539	540	536	534	536	545	547	542	541	538	533	539	536	533	530	528	527	529	534	537	537	534	529	529	530	530	529	528	531	532	536	538	535	530	529	534	539	538	537	535	536	528	523	520	522	525	533	537	539	537	534	528	529	530	530	526	523	518	517	518	517	518	524	533	537	538	535	533	526	526	531	531	530	523	519	515	517	522	534	537	534	528	524	525	528	525	517	512	515	522	526	523	521	522	526	527	525	522	517	514	517	521	525	524	523	517	517	520	523	526	525	518	513	511	517	524	525	526	521	514	520	527	530	531	526	521	514	510	506	514	518	517	516	516	515	510	502	499	505	512	512	516	515	516	520	521	524	525	526	521	522	519	518	519	520	523	527	527	526	525	523	517	515	517	517	513	510	507	509	513	516	514	510	506	504	504	506	511	514	507	513	512	509	509	506	508	513	513	512	513	513	513	511	510	505	509	513	508	503	510	510	508	507	505	505	505	502	502	502	501	506	506	509	510	507	506	502	496	493	497	498	501	502	505	504	502	499	498	498	498	498	496	494	497	498	499	500	499	495	490	489	491	492	494	499	500	501	501	501	0	0	0	0	0	0	0	0
647	651	648	648	645	636	633	634	639	639	645	649	645	647	649	649	646	641	636	639	641	641	623	623	625	625	620	623	623	624	625	620	625	631	626	622	622	620	616	615	611	610	613	620	623	623	624	624	620	618	616	611	605	602	604	605	605	610	613	614	618	620	622	621	624	625	624	622	620	619	616	614	608	608	611	613	613	608	598	590	587	587	599	610	613	606	602	595	590	589	594	595	595	597	596	593	592	591	592	594	595	589	581	581	584	590	594	600	609	615	615	608	597	586	583	577	573	574	580	589	592	595	599	600	601	597	580	580	584	595	599	597	593	585	580	579	582	583	583	583	586	589	590	587	582	574	573	575	582	575	578	579	578	574	573	573	574	578	578	560	560	562	567	573	569	564	560	561	556	554	553	555	562	562	562	559	558	559	558	556	553	557	562	566	569	563	556	548	547	547	549	545	545	557	563	565	562	555	548	545	546	546	549	550	552	556	560	560	564	562	556	548	547	549	545	549	565	566	563	557	553	555	554	550	544	540	542	548	550	549	545	543	541	542	543	544	546	548	554	552	547	544	544	544	543	541	537	535	534	533	532	526	531	535	538	534	526	527	531	540	540	539	534	533	538	539	542	546	546	544	543	541	544	541	536	535	532	526	527	529	531	529	526	525	535	538	543	531	532	534	530	528	528	531	534	531	529	529	536	534	530	524	528	529	531	532	532	528	524	519	515	519	519	516	513	511	509	511	516	519	521	531	547	545	538	529	521	521	522	527	532	536	526	524	522	518	516	517	517	519	521	524	521	517	517	517	517	519	523	527	532	533	530	527	525	529	525	522	523	522	522	521	518	517	517	519	523	531	532	531	533	536	538	541	542	543	546	540	538	533	533	532	533	533	533	530	531	535	532	530	526	522	524	525	521	524	525	523	521	520	521	527	529	529	524	524	522	519	515	513	515	522	527	530	531	529	522	521	523	529	534	531	528	527	522	522	521	524	528	528	531	530	521	526	519	519	520	516	516	514	515	514	512	510	509	513	517	521	520	516	518	516	514	515	513	514	513	514	513	517	520	524	528	526	524	520	522	520	514	511	513	515	519	523	522	519	517	519	517	515	513	508	503	505	514	516	515	514	509	509	515	516	518	505	498	496	500	502	505	505	513	512	507	506	510	518	520	518	511	505	501	501	505	509	513	513	513	509	506	503	496	492	493	493	493	496	497	509	512	509	507	509	510	512	510	508	505	508	514	521	522	522	522	510	505	506	507	511	507	507	504	507	509	510	508	501	497	494	494	498	503	503	501	500	504	501	498	500	500	503	504	507	507	507	503	503	498	494	497	499	498	499	501	502	500	500	501	500	500	497	498	499	500	500	504	506	507	505	500	497	494	493	491	491	492	496	501	505	503	498	495	494	494	494	491	490	491	493	495	496	494	491	488	486	487	489	498	499	498	497	497	499	0	0	0	0	0	0	0	0
635	635	636	636	627	624	623	625	629	629	625	614	622	628	640	640	637	630	628	623	622	618	617	613	610	608	605	608	608	604	602	605	609	618	620	617	617	616	613	610	605	601	602	607	614	614	616	612	610	609	608	604	603	598	597	601	606	606	605	605	607	610	611	610	612	613	612	606	597	592	596	598	598	598	603	600	598	592	589	586	583	585	591	598	598	595	588	586	582	588	587	588	592	593	590	588	588	588	588	591	587	582	573	567	570	577	585	591	599	605	606	599	594	587	580	576	569	566	569	577	584	589	592	593	594	589	574	571	576	581	582	583	583	577	571	573	574	575	574	576	580	585	582	577	569	564	563	563	568	567	568	569	570	569	566	565	570	572	569	557	555	556	560	564	565	558	552	545	542	544	549	555	560	554	549	548	551	554	554	550	548	541	542	544	548	544	543	545	544	538	537	533	534	534	544	553	555	549	544	540	542	545	546	544	543	545	552	554	547	532	552	550	541	539	536	534	536	546	550	548	546	543	544	540	539	536	537	541	544	542	537	536	533	533	534	533	535	533	532	532	536	534	534	530	522	522	526	530	531	529	526	519	523	529	532	529	522	517	519	520	521	522	524	521	526	532	536	541	542	540	536	522	517	517	525	528	521	521	524	529	528	525	522	522	526	529	531	529	529	528	526	524	525	524	525	524	521	520	519	519	516	513	513	516	523	523	523	523	522	518	514	511	513	512	509	509	509	510	512	515	517	518	526	525	520	511	508	513	522	522	518	513	508	506	510	513	515	513	511	515	520	517	512	511	512	512	512	515	518	522	526	530	528	524	518	511	511	506	503	503	507	509	512	514	513	510	511	514	520	521	525	530	533	533	534	529	518	514	517	516	516	517	521	526	529	524	524	521	514	515	509	511	503	505	510	514	515	516	514	513	514	518	518	515	514	515	513	511	507	505	507	508	517	522	527	523	515	512	516	523	525	521	519	517	514	516	522	525	524	524	524	520	515	510	509	506	508	511	512	511	508	509	506	503	505	510	513	514	511	507	503	506	512	511	508	507	509	509	510	509	509	513	517	519	517	517	519	513	511	497	496	495	506	514	514	510	505	504	506	506	507	503	497	490	497	502	504	505	502	502	501	503	501	494	492	494	495	497	499	500	505	508	502	496	497	503	508	505	498	494	494	490	493	493	494	496	502	501	499	494	490	486	483	484	483	485	490	490	486	490	492	492	491	494	492	491	491	492	506	510	506	501	498	499	495	495	498	502	504	505	503	503	504	507	501	497	491	488	489	494	499	501	494	489	491	493	490	493	493	497	499	499	500	500	497	493	490	489	492	494	494	492	493	493	495	497	497	496	495	495	497	499	499	500	501	503	504	498	491	489	474	475	481	487	490	495	495	500	502	496	490	488	488	488	487	486	488	489	490	489	487	486	484	486	489	493	492	493	493	494	494	493	0	0	0	0	0	0	0	0
617	616	612	611	611	616	615	614	609	609	599	595	597	607	610	610	619	621	620	618	618	614	609	600	595	591	594	593	593	593	586	590	598	606	609	614	614	608	606	602	597	592	593	598	606	606	611	610	602	599	597	592	593	589	591	594	600	600	598	597	596	593	591	595	597	600	597	593	591	586	585	589	591	595	595	593	590	586	586	583	581	580	580	585	587	583	578	577	576	577	574	576	584	588	585	578	580	582	579	578	576	565	563	562	568	575	579	581	585	579	582	577	577	582	577	570	563	559	559	567	572	581	582	582	581	578	565	562	567	572	572	572	569	569	564	564	563	565	566	570	568	559	559	560	557	554	550	548	557	557	557	560	558	563	567	569	568	568	563	556	553	552	551	551	552	551	548	542	535	535	543	555	557	550	542	534	542	549	550	544	528	532	532	534	534	536	540	540	537	532	530	530	528	532	536	539	544	541	534	528	531	539	541	539	537	539	545	532	523	516	512	511	516	527	529	528	528	532	533	537	535	531	531	532	527	527	531	532	532	530	527	524	524	524	526	525	524	522	520	520	517	521	519	519	514	514	519	526	526	523	515	511	517	522	525	523	516	508	508	511	514	516	513	509	511	513	520	534	537	535	530	517	507	503	515	520	521	522	522	520	522	519	515	512	509	510	511	517	515	512	522	518	519	518	518	514	513	514	513	511	511	514	517	521	524	524	522	520	518	516	512	510	511	512	509	506	506	506	508	510	511	509	511	510	507	502	504	509	517	520	517	507	502	502	507	512	513	509	509	508	511	513	507	503	501	504	505	508	513	517	520	521	520	506	502	501	503	501	497	497	499	502	506	509	510	509	508	508	509	512	509	513	519	522	518	507	508	507	507	508	510	512	512	512	517	516	512	506	506	506	498	496	496	498	500	503	505	505	506	506	506	506	506	505	504	503	505	504	502	498	497	499	502	510	513	517	510	506	506	505	505	505	503	503	503	501	501	497	509	513	515	514	509	503	498	499	499	503	507	506	506	501	498	500	501	506	508	505	505	501	500	502	505	502	500	500	503	504	503	504	502	499	503	507	511	511	513	494	493	492	490	490	494	493	493	489	487	483	483	487	489	491	489	484	489	495	495	497	494	495	491	491	487	487	489	489	492	492	496	498	495	495	489	479	477	477	482	484	485	483	485	489	489	488	487	490	493	493	493	491	486	481	477	476	479	480	478	476	476	480	484	486	481	482	489	489	489	488	487	487	489	490	488	487	486	488	487	496	500	499	491	484	480	490	493	492	486	483	483	488	485	484	479	476	475	478	477	474	473	477	480	483	484	488	486	480	476	477	482	486	485	484	482	482	485	490	488	489	490	493	493	495	496	497	498	498	496	489	482	473	471	472	477	485	491	493	494	494	493	492	487	485	485	481	480	483	484	483	484	480	480	480	481	486	489	486	479	481	483	486	486	485	0	0	0	0	0	0	0	0
600	596	595	598	598	603	604	598	592	592	589	587	587	587	594	594	604	611	614	614	605	605	597	589	582	582	585	582	582	580	578	581	587	591	593	598	598	596	596	589	588	585	587	594	599	599	600	594	589	586	582	582	580	581	585	588	588	588	588	588	585	579	576	577	580	583	584	584	584	581	582	583	585	589	589	587	583	581	580	579	575	570	568	572	576	573	566	559	556	556	559	560	558	555	560	564	571	571	567	564	558	556	555	555	561	566	570	567	558	556	557	562	568	567	566	560	556	555	553	552	564	567	567	569	564	554	552	556	563	567	566	562	563	563	563	561	556	553	551	549	543	540	544	546	547	545	542	543	547	546	547	548	552	560	565	562	553	541	536	534	534	529	531	535	540	542	544	539	530	530	536	537	539	543	542	533	529	527	528	526	522	524	526	527	528	530	532	532	528	524	521	522	523	525	521	519	523	526	520	519	521	527	533	534	532	530	526	521	518	510	505	504	503	503	506	518	520	517	518	517	519	519	517	516	519	521	525	525	521	520	512	511	510	514	515	514	515	513	512	509	506	505	508	505	508	510	512	510	515	515	509	505	503	513	515	508	506	502	500	503	506	505	506	503	502	502	508	511	512	505	506	501	497	492	487	494	498	501	506	509	504	504	503	498	495	490	489	488	484	490	492	492	488	511	511	510	509	509	509	507	507	504	501	502	507	510	510	504	504	505	502	502	498	499	499	497	499	500	502	504	504	503	505	506	505	502	500	504	507	506	504	503	506	501	503	508	509	501	498	501	504	506	503	497	492	490	490	493	496	502	505	504	501	500	500	497	498	499	496	495	492	493	498	501	502	506	505	505	503	501	499	495	499	503	502	500	498	499	498	499	501	502	505	503	499	497	497	498	488	490	490	492	490	491	490	488	490	495	497	501	500	497	495	493	495	498	501	498	496	492	489	489	495	498	496	491	487	496	499	501	498	498	496	497	497	494	491	495	499	504	506	506	505	499	494	493	495	498	498	501	495	484	483	494	499	499	499	497	495	489	492	498	499	499	499	498	499	497	497	498	498	497	501	503	487	488	485	485	488	488	486	485	487	487	483	480	479	477	475	474	476	478	479	483	482	483	483	482	479	480	480	483	484	484	483	485	485	487	491	491	491	484	478	472	472	474	476	476	475	478	479	483	482	482	482	483	484	488	486	484	479	475	473	475	479	477	474	470	467	476	480	481	478	474	476	485	484	483	480	482	485	483	479	477	477	478	483	488	464	469	472	469	468	470	480	483	482	479	472	472	472	470	466	465	468	472	468	465	468	471	475	475	475	477	476	477	475	474	476	472	471	472	474	480	482	483	480	477	474	480	483	483	477	476	477	475	472	476	470	467	467	469	474	483	487	489	489	489	487	485	484	484	482	481	481	478	476	477	476	476	475	474	478	481	477	474	473	475	475	474	474	473	0	0	0	0	0	0	0	0
587	585	584	588	588	591	591	588	587	587	587	584	577	578	585	585	592	599	604	607	579	579	577	579	574	568	570	569	569	568	567	573	577	576	577	573	573	567	570	575	577	577	577	577	583	585	585	577	575	571	570	573	574	574	575	577	572	572	566	562	566	566	566	569	568	565	566	565	569	571	578	579	571	569	569	569	571	572	569	563	555	551	550	553	557	556	551	544	543	548	551	551	551	550	555	557	555	554	555	550	554	550	550	550	552	555	555	550	544	543	545	554	558	557	555	548	548	544	540	538	537	544	548	551	548	544	541	538	535	534	539	540	545	549	555	541	542	542	543	535	537	538	536	533	531	526	528	534	534	537	539	542	547	554	558	553	544	538	533	526	514	515	522	526	530	533	534	531	526	523	520	521	521	527	525	523	520	516	516	513	512	518	519	520	520	521	520	517	518	516	513	514	516	513	511	511	510	511	511	509	512	517	523	524	522	519	517	516	513	504	498	496	491	492	494	495	494	501	505	503	505	508	511	515	514	516	518	520	516	512	505	497	498	501	504	504	505	507	506	503	500	496	491	490	487	497	504	504	506	504	503	498	495	489	498	497	496	489	490	490	493	495	494	493	491	487	485	488	490	491	485	479	478	477	482	485	490	492	496	497	499	500	497	490	489	487	486	486	485	482	480	477	477	478	485	498	500	501	499	496	498	499	499	500	501	502	504	501	496	495	496	494	492	490	489	488	488	489	490	495	499	499	500	500	500	498	497	494	492	491	490	491	496	500	499	499	493	490	493	496	498	499	498	494	489	489	486	486	490	495	495	494	492	491	491	489	492	493	495	491	487	485	489	491	492	496	501	499	489	487	487	489	494	496	499	496	494	493	491	491	491	493	496	493	490	487	481	479	477	475	475	476	480	481	487	485	483	481	478	475	470	466	470	487	492	496	496	493	489	487	487	489	487	485	485	481	480	477	488	490	489	487	485	489	490	488	484	488	492	499	502	501	498	494	490	486	485	486	493	491	482	479	476	475	478	480	485	484	485	481	485	490	494	496	495	495	491	489	488	490	493	493	483	481	483	484	478	482	480	481	480	478	480	479	478	477	477	476	475	476	476	476	471	472	473	476	479	474	471	469	474	477	479	479	480	478	474	475	474	479	478	476	472	470	471	471	469	467	465	468	466	474	475	475	478	480	476	474	470	471	471	470	468	470	473	473	467	464	465	469	476	476	473	470	471	476	481	478	477	477	478	469	468	462	456	452	457	458	458	458	459	464	466	469	473	472	472	468	466	465	470	470	465	461	457	459	459	461	463	466	467	463	466	467	470	470	471	469	466	457	453	451	456	465	472	478	475	467	462	461	465	465	464	461	466	466	464	461	459	459	459	462	464	473	478	480	483	482	479	476	477	477	476	475	472	468	466	461	460	457	456	455	459	465	468	464	467	469	469	469	467	465	0	0	0	0	0	0	0	0
578	575	575	579	579	580	581	574	571	571	578	576	571	571	576	576	580	585	590	564	565	569	569	571	563	557	553	551	554	554	558	557	557	553	551	550	550	552	561	562	565	567	568	565	564	563	563	561	556	555	555	557	561	564	569	567	562	562	559	554	552	555	556	557	560	558	557	557	559	561	563	563	555	549	549	550	553	558	556	554	552	549	548	550	551	549	546	542	542	544	546	549	546	546	549	549	539	538	537	541	544	544	542	538	530	528	532	536	533	528	528	533	536	532	529	531	529	530	529	527	524	526	530	534	533	528	526	524	520	519	519	520	528	529	528	530	530	530	527	529	531	533	532	527	524	522	522	523	517	518	520	526	533	539	530	532	532	530	522	504	505	508	513	515	519	523	526	516	512	506	505	507	514	518	518	514	513	511	510	508	508	510	511	511	510	511	511	509	510	508	508	505	507	506	504	504	502	501	500	499	501	504	508	509	511	510	510	509	506	502	495	489	485	484	485	490	493	492	489	492	496	502	507	511	508	508	510	511	508	499	494	492	491	488	492	492	495	503	503	500	491	483	478	475	481	493	498	501	500	499	497	496	496	489	484	484	485	484	485	486	488	487	487	484	482	484	485	487	489	486	483	480	477	478	481	484	485	486	489	489	490	487	483	477	476	480	483	484	484	480	473	472	474	478	481	484	482	491	489	490	494	494	494	491	489	494	497	492	488	487	486	486	484	483	480	479	479	482	485	491	494	495	493	492	488	485	482	481	477	475	475	481	487	488	488	483	482	483	488	490	492	492	492	489	487	488	487	486	488	492	492	489	485	484	481	482	482	489	495	495	491	484	480	480	481	483	482	478	473	473	480	485	489	489	490	490	488	487	482	483	480	482	484	476	475	475	477	472	465	464	465	470	473	476	477	476	474	474	470	468	463	461	462	466	471	475	481	484	486	487	489	487	480	476	476	479	478	477	475	472	471	469	472	477	480	481	478	480	487	493	495	495	489	488	486	479	478	479	479	477	476	476	477	472	463	461	470	473	476	478	482	484	485	489	489	486	481	475	475	480	475	477	476	476	475	474	476	476	475	477	473	473	474	474	472	473	473	475	476	478	475	471	465	467	468	470	472	468	465	462	463	470	472	473	473	471	473	470	465	462	463	465	463	465	467	465	462	459	455	457	460	464	469	472	472	471	469	464	462	462	460	460	462	462	463	467	458	461	465	471	473	477	475	470	467	462	463	468	470	470	470	468	464	459	455	452	453	455	457	455	452	450	450	456	460	464	467	466	463	465	466	466	466	455	452	451	456	456	458	459	460	463	466	463	458	448	452	456	461	458	455	453	453	456	463	469	470	464	454	452	454	455	455	454	459	461	459	457	456	456	455	457	458	457	454	454	456	472	471	467	467	467	465	465	465	462	462	457	449	445	443	444	448	459	463	462	460	457	455	455	455	454	0	0	0	0	0	0	0	0
