238	238	240	241	242	240	240	239	236	238	238	238	239	239	239	239	239	243	241	235	237	238	238	242	243	240	242	241	241	240	242	243	242	241	241	242	242	242	241	242	244	242	243	241	242	242	241	238	237	233	233	237	238	238	238	240	243	249	246	246	241	239	240	240	241	242	239	236	235	239	240	240	240	240	240	240	239	239	240	240	239	240	240	242	241	242	241	241	241	241	238	238	238	241	238	238	237	238	242	242	240	236	237	240	241	237	236	239	236	238	238	235	236	237	236	239	239	240	240	242	239	238	237	234	234	239	239	238	237	235	234	234	238	237	237	235	234	236	235	239	237	238	239	239	238	238	235	235	235	234	235	237	238	239	240	239	238	236	234	233	234	233	233	232	234	235	236	236	234	234	237	237	232	233	237	240	241	241	239	235	232	235	232	235	236	235	238	238	243	241	240	239	238	235	233	237	239	240	240	238	233	236	239	239	239	238	239	240	239	237	237	238	238	240	241	242	241	239	237	237	239	240	241	241	243	240	240	239	238	238	238	243	242	236	233	234	234	238	240	241	240	238	235	236	235	236	239	235	239	239	238	236	241	242	242	239	239	236	239	238	238	237	238	238	236	236	236	236	231	233	233	238	233	236	235	235	235	239	242	244	242	241	241	238	237	237	237	237	236	236	241	241	241	233	233	235	236	238	234	236	238	237	236	233	232	232	234	235	231	235	236	235	237	236	238	238	238	238	234	237	238	239	238	240	238	237	236	237	236	235	235	236	237	238	238	241	240	237	236	230	230	233	237	237	236	234	237	239	233	233	233	233	234	237	237	236	235	237	237	237	235	233	232	231	232	233	235	235	238	233	235	232	232	233	233	234	232	231	232	232	233	234	235	234	236	238	236	233	235	235	237	235	235	234	235	235	235	234	235	233	234	231	234	235	235	236	234	238	234	232	232	233	234	233	233	233	230	229	226	227	229	232	233	233	231	231	230	231	231	231	234	234	233	232	231	231	230	233	232	233	234	234	235	232	231	231	232	232	231	230	231	230	230	231	232	234	233	234	232	232	233	233	235	234	234	232	233	233	233	229	227	226	225	228	230	232	231	232	232	231	231	230	231	230	228	223	233	231	228	227	228	229	230	231	230	226	227	227	231	228	226	225	226	227	227	230	230	230	229	227	227	226	226	229	230	228	229	229	230	230	228	228	227	228	231	229	229	230	229	229	229	229	230	230	230	231	228	226	225	222	222	224	221	222	225	221	223	226	227	228	226	226	226	226	226	223	226	223	222	222	223	226	226	226	227	226	225	226	226	225	222	222	222	227	229	223	225	225	225	226	230	229	228	227	225	224	224	226	226	223	222	227	226	227	226	224	222	224	224	227	228	221	222	224	223	223	221	220	222	224	225	225	223	222	224	224	225	222	222	225	226	225	224	222	221	219	221	221	219	219	221	221	218	219	0	0	0	0	0	0
235	235	237	239	240	240	240	237	236	236	236	236	234	237	239	242	242	239	239	236	238	239	239	240	239	238	241	240	240	238	237	237	238	239	240	240	241	242	243	242	242	236	236	237	237	238	236	237	235	234	234	238	239	239	237	238	238	240	241	241	241	239	239	239	239	237	235	233	233	236	237	237	237	239	238	236	235	237	238	238	238	236	237	239	239	239	240	240	238	236	237	237	238	237	236	236	236	236	237	237	234	236	236	237	237	235	235	234	234	235	234	234	236	236	235	234	234	233	238	239	236	238	238	237	237	239	240	240	237	235	233	232	231	234	233	232	233	234	234	236	238	232	237	237	238	238	236	234	236	236	232	230	233	239	239	237	237	234	233	235	236	233	232	232	233	232	234	234	234	232	231	231	231	230	231	234	235	229	229	230	231	235	233	232	232	229	234	235	236	238	238	238	237	237	235	235	236	238	240	238	234	233	234	238	237	238	238	236	237	238	240	239	237	238	239	240	240	238	237	237	239	241	240	240	239	237	238	239	238	238	236	237	238	236	234	233	235	237	239	239	236	236	236	235	236	237	233	235	234	237	236	236	240	239	237	237	236	236	238	238	237	236	236	236	236	236	235	234	230	230	231	232	235	233	233	234	235	235	242	239	240	240	238	237	237	236	235	238	237	235	236	240	240	232	233	235	235	235	235	233	233	233	236	233	232	231	234	234	232	228	227	228	232	231	232	233	234	233	233	231	233	236	233	237	238	237	236	236	235	234	234	235	235	237	237	237	237	239	237	239	237	236	233	233	237	237	236	236	234	232	231	231	233	235	235	233	235	236	236	236	234	231	231	230	230	232	227	233	232	233	232	231	230	231	233	235	233	232	231	232	232	233	231	232	235	231	230	229	231	230	237	237	236	234	232	233	233	233	234	234	233	233	232	234	235	234	234	231	231	230	230	229	231	232	232	228	228	231	228	228	229	230	230	231	230	231	231	232	228	227	228	231	231	230	230	231	231	232	232	233	231	231	233	232	232	234	233	230	229	230	230	229	229	232	233	234	235	234	229	229	228	231	232	234	233	233	232	232	234	233	231	228	225	227	230	232	231	232	230	230	228	230	229	227	224	222	225	226	226	227	225	224	229	231	228	226	225	224	225	227	226	224	225	226	227	227	228	227	227	226	225	225	224	229	231	231	230	227	225	223	228	227	227	228	228	228	227	226	225	226	228	228	228	228	228	230	228	228	227	223	221	222	223	223	220	220	223	223	221	229	229	225	221	222	223	224	225	224	221	221	224	223	223	223	224	225	224	223	222	222	227	222	222	221	222	221	222	221	222	222	224	225	223	223	226	223	223	223	222	222	221	223	223	220	221	221	221	221	222	222	221	221	220	222	222	223	222	221	222	224	223	224	222	221	223	223	222	221	224	223	225	224	222	221	221	220	219	219	219	218	219	221	218	219	0	0	0	0	0	0
236	237	237	237	236	235	235	235	235	232	231	231	231	234	234	236	237	237	238	237	239	241	241	241	233	235	237	236	236	235	235	235	235	235	235	235	239	240	242	242	240	234	234	234	234	235	236	236	234	233	233	239	237	235	236	236	238	237	238	238	238	238	238	238	237	235	233	231	233	233	234	236	236	236	236	233	232	232	234	235	235	233	233	237	239	238	237	235	235	236	235	237	233	231	229	230	231	233	235	235	235	235	235	236	235	234	233	233	232	231	231	233	234	236	233	233	233	235	237	235	232	231	233	235	234	232	230	230	230	229	231	232	234	234	231	231	233	239	237	233	231	234	235	235	237	239	236	237	237	236	236	234	230	235	236	236	234	231	233	234	235	232	231	231	233	232	233	232	234	234	233	231	229	230	228	229	232	231	227	227	230	234	234	233	227	229	234	235	237	235	232	233	235	236	235	234	233	234	235	234	234	232	231	232	235	236	237	237	238	239	240	239	235	235	237	236	239	238	239	236	237	240	238	237	235	235	239	239	238	236	235	236	237	236	233	233	233	237	239	239	235	233	234	234	237	237	239	230	233	235	235	236	235	236	238	233	234	234	236	237	235	234	232	232	232	235	232	231	233	228	229	230	231	231	232	234	234	233	232	233	232	237	237	237	236	236	235	235	235	235	234	235	239	236	234	235	231	232	233	232	232	233	235	236	233	234	234	232	230	228	228	226	231	231	230	230	232	233	233	234	234	233	237	234	236	232	233	233	232	232	232	232	232	232	235	240	240	239	235	234	237	235	232	230	228	231	230	231	230	228	229	230	231	232	232	229	229	233	234	233	233	232	231	231	232	230	229	232	232	232	231	231	229	228	231	232	231	231	228	228	230	232	230	231	231	229	228	228	227	228	229	230	231	233	231	232	233	231	231	234	230	231	230	232	233	233	231	227	230	230	229	228	230	230	232	228	231	231	228	228	229	230	228	230	231	231	232	228	226	227	228	229	230	229	229	230	232	232	231	229	230	230	230	231	233	233	235	234	230	229	229	228	228	230	232	231	232	232	230	228	230	229	230	232	231	231	231	232	231	230	230	230	229	229	230	231	226	224	223	223	227	227	229	228	226	225	225	226	227	225	224	225	227	228	227	227	225	224	226	223	225	225	225	225	227	225	226	226	227	226	225	224	222	222	224	226	228	225	225	227	225	226	224	226	226	225	224	223	223	223	220	225	226	225	225	226	226	225	226	223	221	222	223	221	220	219	219	223	220	223	224	223	219	219	223	224	224	222	222	222	222	221	219	219	220	225	221	218	218	222	221	225	219	219	219	219	221	221	222	222	223	222	222	220	221	222	226	225	221	218	219	218	220	220	221	221	221	220	222	222	221	220	221	219	217	222	222	222	222	223	222	223	222	220	220	220	219	218	219	219	220	221	220	220	220	219	219	219	219	219	219	217	217	218	0	0	0	0	0	0
233	234	234	233	232	228	229	229	228	230	229	230	230	232	233	233	235	235	234	235	237	239	239	239	233	232	233	234	233	233	233	235	235	235	235	235	236	238	239	238	236	237	231	231	232	234	235	234	230	232	233	233	233	235	236	237	236	236	236	237	237	238	238	235	232	232	232	230	230	231	232	234	234	233	232	230	229	231	232	232	232	232	233	235	236	234	235	235	234	234	233	234	231	230	229	229	231	233	234	232	230	231	230	230	230	230	232	231	228	227	229	231	232	235	233	232	234	233	233	231	231	230	230	233	235	229	229	228	230	229	229	230	232	233	232	229	229	230	230	228	228	226	227	232	236	235	234	235	236	237	235	234	234	235	232	235	232	230	230	233	229	230	230	231	232	233	233	231	233	234	231	230	229	227	227	227	229	228	227	227	229	228	228	228	229	230	233	230	231	230	231	232	233	234	237	236	232	231	229	232	233	229	229	232	235	236	236	236	236	237	237	235	235	234	235	236	237	237	236	236	234	237	236	236	235	235	235	237	238	235	234	236	235	231	230	233	234	236	239	234	232	232	233	234	235	236	233	230	230	227	227	235	237	233	230	229	229	231	234	236	235	234	233	232	233	230	230	231	231	232	231	231	230	228	230	231	231	230	231	230	231	232	235	235	235	236	234	233	231	232	233	232	233	234	235	235	233	229	229	231	231	233	235	235	236	236	235	232	230	228	228	230	228	228	228	229	230	231	232	234	234	235	235	233	230	231	231	233	231	231	232	232	232	231	233	233	237	236	234	235	236	235	229	227	225	225	230	230	231	229	230	231	231	232	231	228	225	228	231	232	232	230	231	232	231	232	228	231	229	230	227	228	228	228	231	231	228	227	227	226	226	226	226	232	230	229	227	227	227	227	227	230	230	231	231	231	230	230	230	228	232	230	228	229	230	231	231	228	228	230	228	223	227	230	228	227	230	231	231	228	228	228	225	227	228	231	230	228	228	228	228	228	229	229	230	231	231	230	229	228	228	227	227	229	230	232	233	233	230	229	228	229	227	229	228	229	228	227	225	227	228	228	230	229	229	229	231	229	228	225	223	224	230	227	231	228	228	224	223	223	221	227	229	228	227	226	225	227	224	226	222	223	227	227	226	227	227	225	224	223	224	224	225	225	224	223	222	225	225	226	225	223	221	221	222	224	225	225	222	226	227	225	223	225	224	224	224	222	222	221	221	220	223	222	223	221	221	224	222	223	223	221	220	220	219	219	220	222	220	221	223	223	217	221	223	221	222	221	221	221	222	221	220	219	222	220	221	221	221	221	220	219	217	217	219	223	223	222	219	220	219	219	220	219	220	220	222	221	220	218	218	217	218	219	220	220	220	222	222	223	222	220	221	218	216	221	221	222	222	221	222	221	220	220	219	217	217	217	217	217	220	219	220	220	220	217	217	218	218	219	219	217	214	215	0	0	0	0	0	0
229	230	230	231	230	228	227	227	231	230	227	228	228	229	232	232	230	230	233	232	234	232	233	233	233	232	233	232	233	233	234	234	233	234	233	234	234	233	237	240	238	237	230	230	232	231	232	232	230	231	232	232	232	233	235	236	236	234	234	236	238	229	231	232	232	231	231	229	228	229	232	233	235	235	234	231	234	231	231	231	231	230	229	231	230	231	233	232	228	233	233	233	230	230	229	229	231	233	232	229	229	230	229	228	229	231	230	227	225	225	226	230	232	230	229	228	229	232	232	230	228	229	230	232	233	230	229	229	229	228	228	228	229	230	230	226	228	229	225	225	226	228	227	226	234	234	234	233	235	235	234	235	233	233	231	232	231	229	229	226	228	229	230	230	231	232	232	230	228	231	231	230	229	226	226	226	228	228	227	227	227	227	228	228	227	226	229	229	228	227	227	228	229	228	229	231	231	235	229	230	234	227	229	230	234	233	232	235	235	235	234	234	234	234	233	232	231	232	236	234	232	231	234	234	232	233	233	234	233	233	232	233	234	230	230	233	233	233	233	233	236	234	230	232	231	233	234	230	229	226	227	234	235	233	230	228	228	230	232	231	235	234	233	231	230	229	230	234	235	235	233	233	232	231	231	231	230	229	228	230	229	230	232	232	228	226	231	226	234	231	231	229	232	228	229	232	228	228	227	229	230	233	234	235	236	237	235	231	229	227	228	227	228	228	226	228	230	231	232	233	234	234	233	231	228	229	229	230	228	225	230	232	231	231	231	233	232	233	233	236	233	231	229	229	227	226	226	227	231	231	230	225	225	232	232	225	224	226	231	231	230	229	229	231	230	229	220	220	226	229	229	228	228	227	232	228	226	229	227	227	226	225	228	228	230	229	227	226	224	226	226	229	229	232	231	229	227	229	229	230	228	230	228	226	230	229	228	229	227	226	225	225	226	227	228	227	230	231	231	226	224	224	225	225	228	229	228	228	227	228	228	228	229	231	231	230	230	229	228	229	228	228	228	229	230	233	233	230	229	228	228	229	226	228	226	228	227	225	225	227	226	228	227	228	227	228	228	229	227	226	221	219	220	221	228	225	224	226	221	221	223	226	227	227	226	226	225	226	224	226	223	227	227	225	225	224	220	222	223	222	222	222	223	224	223	223	221	223	224	224	223	223	223	223	223	224	223	223	224	221	225	224	222	221	220	221	218	222	222	221	221	218	219	219	219	219	220	222	222	223	224	224	224	222	219	218	218	220	218	216	215	216	216	220	220	220	219	221	220	221	222	218	218	218	218	217	218	219	220	219	219	218	217	220	220	222	221	221	221	220	220	219	219	219	220	220	220	220	217	217	216	215	218	220	220	222	222	220	219	221	220	220	220	220	218	218	217	217	220	216	219	220	218	218	217	216	215	215	212	215	217	215	218	218	217	217	216	216	216	217	217	215	213	214	0	0	0	0	0	0
225	225	227	227	229	230	232	232	231	228	227	226	226	227	230	231	230	228	228	230	231	230	231	231	231	232	232	231	231	232	232	233	232	230	229	230	230	231	235	237	240	237	232	231	231	230	230	230	230	231	232	232	232	232	234	236	232	228	228	228	229	228	229	230	229	228	227	225	226	231	232	232	232	232	232	233	234	233	234	227	225	227	230	230	230	231	230	225	224	225	225	225	230	228	229	229	230	233	232	231	230	229	228	229	229	226	229	227	224	225	226	227	229	230	232	228	224	226	230	227	228	228	230	226	225	225	226	228	228	228	226	229	227	225	228	228	227	225	223	225	226	229	226	225	227	228	232	232	231	231	234	234	234	232	229	229	229	227	226	224	226	228	229	228	230	230	227	228	226	227	228	228	228	227	226	227	226	227	230	232	231	227	227	227	225	226	226	229	228	227	228	229	229	228	229	230	228	229	228	229	227	227	228	228	228	226	229	233	230	231	234	234	234	234	234	229	230	232	233	232	231	229	231	232	234	234	233	232	233	231	232	232	230	228	228	229	231	232	233	233	224	226	224	224	226	230	232	232	225	226	229	230	230	229	229	228	227	230	228	230	230	230	233	231	229	230	233	237	235	233	231	231	230	231	228	229	225	229	229	229	229	228	231	229	226	225	226	226	226	229	228	229	227	227	229	228	227	227	228	228	228	231	234	235	235	233	232	228	226	225	226	227	227	229	228	228	229	227	229	232	232	232	231	229	225	228	227	225	226	225	229	230	229	229	229	228	232	231	231	229	224	230	230	228	226	225	226	230	232	234	232	230	228	224	224	223	228	225	229	231	230	228	227	229	230	229	226	225	225	226	226	227	228	227	227	231	227	226	227	226	227	226	227	228	229	229	228	224	225	224	226	228	226	225	227	225	229	229	230	228	228	226	225	226	226	228	228	227	226	226	224	224	224	224	226	225	228	222	226	224	224	223	223	224	226	227	227	226	226	225	228	228	229	231	231	230	228	228	229	228	228	228	227	227	226	224	225	225	224	225	226	223	226	226	223	224	222	223	223	224	225	226	226	227	226	226	225	225	224	220	219	218	218	222	223	225	223	223	220	223	222	222	222	222	222	221	221	223	222	225	225	226	226	221	220	219	217	218	221	221	221	221	223	223	221	221	221	222	223	223	222	222	221	224	223	222	222	222	223	222	221	222	222	220	218	217	216	217	221	221	221	218	216	216	218	218	219	220	221	221	224	224	224	223	220	219	219	219	219	219	216	214	214	216	220	219	219	219	220	220	217	216	215	218	217	217	217	218	217	217	217	216	216	218	220	220	220	219	220	220	219	219	218	219	219	218	219	216	217	215	215	215	214	216	216	215	214	213	213	217	218	220	219	216	217	218	215	213	215	214	218	218	218	218	217	216	215	215	212	211	216	216	214	214	214	214	212	213	215	216	216	215	214	213	0	0	0	0	0	0
222	223	227	227	228	233	232	228	228	228	227	224	225	225	228	230	228	225	225	227	227	227	227	228	228	232	230	231	229	229	229	229	228	227	227	228	229	229	229	231	233	233	230	230	230	228	229	231	231	232	232	231	231	231	233	231	227	226	228	228	228	230	230	227	228	226	226	231	233	228	229	229	229	232	232	233	233	234	233	228	227	226	227	227	225	225	224	224	225	224	222	222	225	228	229	229	226	227	227	227	226	225	226	225	228	225	223	224	225	226	225	225	228	229	230	227	224	224	226	226	228	229	227	227	227	227	229	229	229	230	224	222	222	224	227	226	224	225	224	224	224	226	225	225	225	225	227	228	227	229	230	234	225	232	225	228	227	226	223	223	227	227	228	230	223	222	223	224	225	226	226	227	227	227	226	227	227	227	227	224	231	226	226	227	226	225	227	230	228	228	226	227	227	227	227	229	228	228	227	226	226	227	229	229	227	225	224	223	227	230	231	232	233	233	232	228	228	228	232	232	229	227	230	231	232	231	229	230	229	229	229	230	230	230	224	230	230	230	232	227	224	226	230	230	229	228	228	226	226	225	228	230	230	228	229	229	229	229	230	228	229	228	229	229	230	231	230	233	234	233	231	231	230	229	228	227	224	226	227	227	225	225	229	228	228	229	227	227	227	227	227	227	226	225	226	226	226	228	228	227	229	228	227	229	232	229	230	227	225	224	225	227	228	229	229	229	227	227	228	229	228	228	228	228	226	223	221	224	226	228	229	228	228	225	224	225	230	230	225	224	223	224	225	228	226	231	226	228	224	225	224	227	226	225	224	227	228	225	228	229	228	225	228	229	228	226	226	227	227	228	229	227	227	226	226	226	226	224	225	225	224	222	221	224	228	229	226	224	225	225	225	226	225	224	223	226	227	229	227	227	225	224	223	223	224	224	228	226	226	222	222	224	226	229	225	222	222	224	224	224	223	223	221	223	225	225	224	222	222	222	223	227	228	229	229	228	227	223	223	225	225	226	225	222	222	224	223	224	223	224	225	223	220	222	223	223	223	222	222	220	220	223	225	222	221	218	219	221	222	221	218	218	217	218	221	222	222	221	223	221	220	222	222	222	220	220	220	222	222	222	223	222	221	219	219	217	217	217	221	220	219	220	220	217	219	220	219	220	222	220	221	218	220	224	223	223	223	223	222	220	221	221	221	220	217	216	212	212	220	221	220	217	215	213	216	218	218	219	219	222	219	219	219	219	220	220	219	219	219	220	218	212	216	214	216	217	219	219	221	219	217	216	215	217	213	213	217	216	216	215	216	216	215	217	218	217	214	218	218	219	217	215	214	217	218	217	216	215	215	214	214	213	213	213	212	211	213	212	213	213	216	215	215	216	220	220	216	214	211	211	213	216	216	216	218	217	215	213	212	212	213	214	214	212	212	212	211	212	212	214	216	215	214	208	208	0	0	0	0	0
227	228	229	229	231	232	229	227	227	227	225	222	223	223	226	227	226	225	225	226	225	224	227	224	224	229	224	226	228	226	226	226	226	226	226	226	227	227	229	229	230	231	228	227	227	225	226	223	222	229	229	228	227	227	226	224	226	227	227	229	229	227	227	227	227	226	226	231	233	228	228	227	228	228	227	227	228	228	229	229	228	225	226	225	221	222	224	226	224	222	219	219	219	224	226	226	222	224	227	227	229	226	225	226	227	224	224	221	224	225	224	224	224	225	225	225	222	221	224	226	227	227	228	227	227	227	227	227	228	229	223	222	222	225	224	225	223	223	224	226	222	223	224	224	225	225	227	225	226	226	227	225	223	222	223	225	226	226	225	223	225	228	228	228	224	222	221	223	225	225	225	225	224	225	225	225	225	223	227	227	223	223	225	226	224	225	227	228	230	229	227	223	224	224	224	223	225	227	223	226	226	225	226	227	227	225	224	224	225	224	231	229	228	228	227	229	228	228	229	229	230	228	231	232	232	230	230	230	228	224	229	229	229	229	226	224	227	230	230	224	224	227	231	230	228	229	228	227	228	229	230	228	230	231	231	232	232	229	228	227	228	226	226	228	229	228	227	228	226	226	227	226	227	227	227	223	222	223	226	229	224	227	227	228	227	227	227	227	227	227	226	226	226	226	227	225	227	227	226	224	227	226	226	227	228	228	228	226	224	223	225	223	228	229	230	231	230	227	227	225	224	224	226	224	225	223	222	222	224	224	224	224	223	223	224	228	226	225	224	222	223	224	226	228	227	227	229	225	224	221	222	222	224	223	224	224	226	225	224	221	225	225	225	221	227	220	221	222	228	230	230	228	224	227	226	227	225	225	224	224	224	223	219	221	224	228	227	226	225	224	224	224	223	221	223	228	228	228	227	226	224	224	224	223	224	224	223	223	220	221	221	221	224	223	221	221	222	224	223	223	223	221	219	219	220	224	223	221	220	221	222	224	228	229	229	228	226	221	220	219	219	221	221	224	222	222	223	223	222	222	220	221	222	221	221	221	222	222	220	219	218	219	221	220	219	219	221	223	223	221	220	218	216	217	221	220	221	220	219	223	222	220	222	222	220	220	221	221	221	219	220	221	219	219	218	217	217	217	215	220	220	219	218	216	217	217	218	218	218	219	219	218	218	218	222	219	223	221	218	218	219	220	220	218	218	212	215	214	216	218	217	216	214	212	214	217	217	219	221	221	221	220	215	216	219	221	219	218	218	218	217	218	216	214	215	215	218	219	220	217	214	215	214	213	216	214	216	211	212	213	215	214	215	216	214	214	213	214	218	217	216	215	213	216	217	216	215	215	214	213	212	211	211	212	213	212	211	211	212	213	214	212	212	214	216	215	210	211	210	212	213	213	215	215	218	217	214	213	212	212	216	213	211	211	211	211	211	211	209	208	215	212	212	211	211	0	0	0	0	0
227	229	229	228	228	227	225	224	224	222	220	222	224	227	227	226	223	221	220	220	223	221	221	221	223	223	223	222	223	222	220	220	220	220	223	223	224	224	227	227	228	228	224	222	222	222	224	225	227	228	228	227	228	228	225	225	226	226	228	226	227	225	225	225	225	223	224	225	226	227	227	226	224	224	225	225	225	224	224	226	227	228	229	221	220	222	224	224	220	219	219	219	219	219	220	222	223	224	223	225	224	227	222	226	223	221	222	221	222	224	224	224	223	223	224	225	226	224	221	223	226	226	225	224	226	226	221	220	222	222	221	221	224	224	219	220	220	225	226	226	222	222	223	224	225	225	223	223	225	224	223	222	226	224	222	222	222	224	226	226	226	225	227	224	223	222	221	223	223	223	223	222	222	223	224	224	223	225	224	224	223	224	224	224	220	221	222	223	228	224	225	225	221	221	219	224	225	224	223	224	225	224	226	227	226	224	223	223	224	227	226	225	223	223	223	226	229	229	227	229	227	228	229	231	231	227	229	229	224	225	228	229	229	230	230	227	229	229	229	227	226	225	227	228	230	230	227	227	229	228	228	228	229	227	228	228	229	227	223	226	224	223	223	225	228	227	226	223	225	224	225	226	223	223	222	223	223	221	220	226	227	221	222	225	226	226	227	226	227	226	226	225	225	227	225	225	227	227	226	225	225	226	225	225	227	226	227	226	226	221	222	222	228	230	231	231	225	224	223	223	224	225	225	224	224	222	220	222	221	222	222	223	224	226	227	225	227	227	226	224	223	224	226	226	225	226	222	219	222	220	221	224	223	225	226	225	226	223	219	218	221	222	221	222	218	220	219	222	222	230	230	226	223	227	224	226	225	225	223	224	224	224	224	224	224	222	225	224	224	223	224	224	223	224	225	228	228	227	225	225	224	224	224	219	220	220	218	223	222	220	222	218	219	219	218	220	222	221	221	221	222	220	220	219	221	221	222	221	220	219	219	222	224	227	227	226	221	219	217	217	219	220	221	221	223	222	223	221	222	220	220	220	221	222	221	221	222	220	219	218	217	218	218	219	220	220	220	222	221	222	219	215	216	216	218	219	219	217	218	218	219	219	221	222	221	219	219	221	220	220	221	222	223	224	218	218	218	216	216	216	218	219	217	216	216	216	214	215	216	217	219	218	216	217	218	218	217	219	217	216	217	216	217	217	214	214	214	215	217	217	216	215	214	213	215	216	216	218	216	220	220	214	211	215	215	215	215	213	214	216	217	218	218	216	214	214	214	217	217	216	212	213	210	211	212	213	214	212	211	211	213	215	216	213	215	213	212	211	213	218	217	215	215	216	215	215	214	214	214	213	212	212	212	214	212	212	212	211	212	214	214	213	211	210	211	210	209	211	210	211	211	212	213	214	211	210	209	208	212	213	213	211	210	210	209	210	211	207	207	207	214	210	208	208	209	0	0	0	0	0
225	226	228	226	226	223	217	215	217	217	220	222	227	224	224	223	221	220	223	223	225	227	228	226	224	224	223	222	223	221	223	223	226	225	221	221	221	224	224	225	226	224	224	223	222	222	221	223	226	227	226	223	224	225	225	224	226	226	226	227	224	225	226	224	224	224	225	225	225	227	222	221	222	221	220	222	222	224	224	226	226	227	226	219	219	218	218	218	220	219	219	219	221	221	222	223	223	222	222	223	223	223	221	222	222	222	221	219	221	222	222	222	221	222	222	222	225	221	220	220	223	224	224	223	221	219	219	220	221	224	223	222	221	224	219	220	221	225	225	221	221	220	221	221	224	220	222	222	222	222	223	223	223	225	223	221	222	224	226	225	225	223	221	221	222	221	220	222	224	223	221	220	224	223	223	223	223	223	223	222	223	223	224	221	218	218	220	218	219	225	225	225	220	221	221	222	224	224	223	223	224	225	226	225	224	223	223	224	226	226	226	223	222	222	223	223	223	225	224	220	219	221	225	230	225	225	226	226	226	225	226	225	227	228	227	231	230	228	222	225	226	226	224	226	228	230	229	228	227	227	224	227	227	228	223	223	222	222	223	222	222	220	219	222	229	225	223	219	222	223	224	227	221	222	224	229	229	228	224	227	219	220	222	222	225	224	224	224	224	226	223	224	225	227	225	225	227	227	227	224	228	225	226	224	225	225	222	223	224	221	220	225	227	229	229	227	227	224	225	226	227	227	225	223	222	222	222	220	222	221	222	224	225	225	225	225	224	223	225	224	223	224	224	223	221	221	221	221	219	215	221	222	225	226	226	225	224	223	222	222	218	219	221	224	221	221	218	221	221	228	228	224	222	223	223	225	221	225	222	223	223	223	220	219	220	224	221	222	223	224	224	223	224	224	225	226	225	226	224	220	220	220	219	218	217	220	221	221	223	219	220	219	218	219	218	220	221	220	219	218	220	219	221	220	222	221	220	219	220	220	220	219	220	224	222	224	220	218	217	218	219	220	220	221	220	220	219	218	219	219	220	219	220	219	219	217	218	217	218	217	218	219	219	218	219	220	220	220	220	220	215	219	217	216	217	216	216	215	217	217	219	219	221	221	222	217	218	218	218	218	220	221	222	221	218	218	217	217	216	214	217	218	216	216	216	215	216	216	216	217	219	218	215	214	213	214	217	216	216	215	214	216	217	219	216	214	214	216	217	216	216	215	214	215	216	216	217	214	214	213	211	211	213	213	214	214	214	213	214	215	217	218	217	216	215	213	213	215	215	215	212	212	213	212	213	213	212	212	211	210	212	213	213	214	215	214	211	212	212	213	211	215	214	214	214	212	212	213	213	211	211	211	212	214	212	212	211	211	211	212	213	213	211	210	208	208	208	206	206	210	210	211	211	210	205	208	209	209	207	213	212	212	212	208	207	210	208	206	205	204	208	207	206	206	206	0	0	0	0	0
222	225	225	223	223	220	218	217	218	218	219	223	221	221	221	220	218	219	221	226	226	228	228	226	224	224	222	217	218	222	225	225	225	224	223	220	221	222	222	222	223	224	224	223	222	221	221	222	225	221	220	220	217	221	221	222	224	225	224	224	225	221	221	221	221	221	221	220	220	219	220	219	219	218	220	223	223	223	223	224	224	224	220	217	217	217	217	218	218	218	219	218	219	223	223	222	224	221	219	217	218	220	220	222	221	220	217	218	218	221	222	222	222	220	220	222	222	221	220	218	219	221	222	221	219	218	218	219	222	222	221	221	220	219	218	218	216	216	217	217	221	220	218	218	217	218	221	220	216	218	223	224	225	224	223	221	222	224	225	223	220	220	220	220	221	218	220	222	221	220	221	220	221	225	226	223	222	221	221	221	221	221	222	220	220	219	218	219	221	220	224	224	221	223	223	223	221	223	222	222	223	225	223	220	220	221	221	224	223	226	224	221	221	220	221	223	223	221	218	218	218	219	219	219	220	223	226	226	227	226	226	226	227	227	229	227	226	227	223	222	224	224	220	223	223	224	220	221	222	223	223	226	224	225	225	223	221	222	222	222	221	220	221	224	226	223	224	225	222	222	224	225	220	221	224	224	225	225	221	216	217	216	216	222	221	223	223	223	223	223	223	222	225	225	226	227	227	228	228	227	224	225	223	224	223	222	221	220	221	222	222	224	224	225	224	223	225	224	225	225	227	227	224	223	222	222	220	219	219	219	222	223	224	225	224	222	223	221	222	221	221	221	219	217	221	220	222	221	221	220	219	220	225	224	228	226	225	220	221	220	225	223	225	224	221	221	221	217	216	219	223	220	221	218	223	221	221	221	221	221	221	220	218	219	220	223	221	223	223	222	223	223	222	223	223	223	222	218	219	219	219	219	218	217	217	213	214	219	221	222	220	218	219	219	219	221	222	222	220	218	220	220	221	221	221	219	219	219	220	220	219	218	220	221	219	216	217	217	217	220	220	220	220	219	219	219	218	218	216	219	219	215	218	216	217	217	218	219	219	219	219	218	219	218	217	221	218	218	217	218	216	218	217	219	217	216	214	215	216	217	217	219	219	222	221	219	216	215	216	216	219	215	217	220	217	217	217	216	216	216	214	214	216	216	212	214	215	217	217	218	218	217	210	213	213	214	215	217	216	215	215	216	217	220	216	213	214	216	217	217	216	215	215	216	217	216	214	213	212	211	210	210	213	214	213	214	214	213	215	213	217	216	214	212	211	212	212	212	214	213	214	213	212	212	212	211	212	211	210	212	210	211	212	213	215	214	212	211	212	212	211	211	211	213	215	212	212	211	212	212	210	207	212	216	212	211	210	209	209	211	211	209	208	208	207	204	204	205	203	206	207	209	209	204	207	208	208	208	208	209	210	207	207	208	210	209	207	206	204	203	208	206	206	206	208	0	0	0	0	0
215	218	221	221	220	220	219	219	221	222	222	223	221	218	218	218	218	215	216	221	221	224	222	220	220	219	219	218	218	221	223	222	222	221	221	220	220	221	222	222	222	221	222	225	220	223	223	223	221	220	219	218	219	220	221	221	222	222	221	221	220	220	219	219	220	220	219	220	219	219	218	217	216	217	219	219	222	222	222	222	222	221	219	217	216	217	214	214	217	217	220	218	219	219	225	225	224	221	220	217	217	217	219	220	220	219	217	218	218	221	222	222	221	216	217	222	221	222	221	218	218	218	218	218	219	219	219	219	220	224	220	218	217	219	220	219	216	216	216	217	218	217	218	217	217	217	218	216	217	219	221	223	222	222	222	223	222	224	222	222	220	220	219	220	216	218	218	221	221	221	221	222	220	225	225	223	219	218	219	219	220	220	221	219	219	217	216	218	220	221	222	223	223	221	223	223	222	221	222	220	222	221	221	220	221	220	222	223	223	226	224	220	220	219	217	217	220	220	223	218	218	219	220	219	220	222	223	223	224	222	221	221	224	225	227	225	226	225	225	223	220	222	220	220	223	222	220	221	221	221	223	224	222	220	220	222	219	222	220	224	221	221	221	222	226	224	224	225	224	222	222	222	221	222	224	224	223	223	222	218	216	216	217	221	223	223	222	222	222	222	222	222	223	223	223	223	224	224	225	226	223	224	224	222	223	221	217	219	222	221	222	223	223	220	221	222	222	222	221	219	222	224	223	222	223	219	218	217	217	218	221	221	221	223	223	221	222	221	221	222	221	217	218	217	219	221	220	220	220	221	220	217	221	224	222	224	224	218	220	223	222	221	224	222	219	221	221	221	218	217	219	220	220	218	221	219	222	221	219	221	219	219	218	216	216	218	222	221	221	221	223	222	223	223	223	222	222	217	218	220	217	219	219	216	214	213	216	218	221	220	215	216	219	218	221	222	222	221	220	219	219	220	219	219	219	219	219	219	217	218	219	219	217	218	218	218	215	214	216	217	216	217	219	220	219	218	218	217	218	218	216	216	218	218	215	217	216	217	217	217	217	216	215	215	214	216	218	216	215	214	214	216	216	217	217	216	216	219	216	216	216	219	218	217	217	215	214	214	214	215	218	215	214	214	214	216	215	214	214	214	214	214	215	216	216	216	216	216	216	216	216	215	212	212	212	216	215	212	215	213	214	215	215	216	216	215	214	214	214	214	214	214	214	211	212	215	212	211	211	210	210	212	211	211	211	215	213	213	212	215	214	212	212	212	211	209	209	213	212	212	213	212	211	210	211	210	212	210	211	211	211	210	211	213	214	213	212	212	212	209	212	210	211	211	211	208	211	211	211	211	207	212	215	210	212	213	208	210	210	209	208	208	207	207	204	204	202	203	203	203	203	207	204	203	206	207	208	208	205	206	205	205	204	207	207	207	206	204	204	204	203	204	204	206	207	0	0	0	0	0
215	215	214	217	219	219	221	221	221	221	221	220	219	215	217	217	217	216	218	218	218	219	218	218	219	218	218	218	218	221	220	221	221	221	222	223	223	220	220	220	219	221	222	218	219	217	215	215	219	220	218	219	220	221	220	220	220	219	218	218	219	218	218	218	219	219	220	220	220	219	216	216	216	215	216	217	218	221	221	220	222	222	217	216	217	218	216	216	217	219	217	217	217	216	217	218	218	218	218	218	218	217	220	217	219	218	216	217	217	221	221	218	217	217	217	220	218	218	218	219	219	218	219	218	218	218	219	221	222	221	225	218	217	219	219	220	221	220	216	216	217	217	216	216	216	217	217	215	217	220	224	226	226	223	222	218	218	222	220	223	215	217	217	216	217	218	217	216	218	221	222	221	222	221	220	219	218	217	218	218	219	220	220	219	217	217	218	220	222	223	221	221	222	222	222	223	219	219	219	219	217	219	218	220	220	220	219	220	221	220	220	220	217	217	214	218	218	220	220	222	218	218	218	219	218	218	219	221	220	219	219	218	223	224	221	221	222	222	224	221	221	223	223	221	220	221	220	220	221	227	223	222	221	220	218	217	222	222	221	222	222	223	221	221	227	228	225	225	225	223	222	222	221	228	225	222	221	222	221	217	216	216	216	219	220	220	222	222	222	221	217	218	220	220	221	221	221	222	222	222	220	218	218	218	220	220	217	221	216	219	218	221	221	219	218	218	221	219	218	220	219	220	219	220	218	220	217	217	218	217	217	218	219	220	221	220	219	221	221	222	222	220	219	219	219	220	220	220	221	219	217	219	217	221	223	219	218	219	220	220	221	222	221	219	219	221	220	221	219	218	218	218	216	218	218	217	222	222	220	218	219	218	219	217	216	217	219	220	218	222	216	217	219	219	216	220	220	217	216	217	219	219	219	216	215	215	215	218	218	218	215	213	214	216	219	219	216	217	218	219	219	219	219	217	217	218	218	218	217	218	219	220	217	217	215	218	215	215	214	213	213	216	212	216	216	218	218	218	218	218	216	217	219	220	217	215	217	215	216	215	215	215	214	215	214	214	216	214	213	214	214	214	214	213	216	219	219	218	217	216	216	215	216	216	216	214	212	209	209	209	213	211	213	213	213	215	214	213	214	216	214	215	214	215	215	213	213	214	214	212	215	210	209	210	211	214	213	211	209	211	214	215	215	215	215	214	213	213	213	211	210	209	210	212	214	213	212	210	209	210	209	210	210	210	210	212	213	213	214	213	213	211	211	210	208	208	210	210	211	211	212	211	211	209	210	209	209	209	209	211	211	210	209	210	213	210	209	210	209	208	204	202	206	210	210	206	210	210	210	209	207	209	208	209	211	208	212	207	207	208	206	204	205	205	204	203	204	203	203	203	204	204	204	206	206	206	207	206	205	204	205	205	204	206	207	206	205	203	204	204	204	204	204	204	205	0	0	0	0	0
215	211	213	215	218	218	219	219	218	217	217	216	217	215	215	215	217	218	218	220	217	217	216	215	217	219	220	220	216	216	217	219	220	220	222	223	222	219	217	216	216	217	217	218	215	213	212	212	217	214	214	217	218	220	219	218	218	218	218	218	218	210	213	213	215	216	216	220	219	217	217	216	217	216	214	215	217	214	214	215	219	219	215	216	217	217	215	215	214	213	213	214	216	215	216	216	216	216	218	218	219	218	215	214	213	213	214	216	220	221	217	216	216	213	217	214	215	216	217	217	220	218	218	218	218	217	215	215	216	220	219	216	215	217	219	220	217	217	214	214	214	215	214	212	212	211	210	213	215	216	216	215	213	214	215	216	215	217	216	216	216	216	218	218	218	217	217	216	218	222	220	218	218	220	217	218	217	217	216	216	218	219	218	217	216	216	217	218	222	221	218	219	216	217	220	219	218	217	217	219	216	217	217	218	223	219	220	220	215	216	220	218	217	218	213	214	219	220	217	219	217	218	217	217	224	224	218	218	214	217	215	215	216	219	219	217	220	223	220	222	222	222	221	221	220	219	220	222	223	222	224	224	220	220	220	220	218	219	220	220	221	221	223	219	218	227	218	218	219	222	222	219	225	224	220	221	221	218	219	218	215	216	216	217	219	220	216	219	223	221	219	218	218	219	217	223	224	218	217	220	217	217	217	216	216	216	222	217	218	219	217	219	219	219	217	213	216	215	216	220	220	219	218	219	218	217	217	217	217	218	219	220	217	217	219	220	218	222	221	221	222	221	219	220	219	219	217	217	218	219	218	217	216	218	220	218	218	217	218	216	218	220	219	218	218	219	218	218	221	218	219	219	216	216	215	215	220	220	219	217	218	218	218	217	216	216	216	216	216	216	216	218	217	217	217	217	219	217	217	217	217	219	219	215	214	215	215	215	216	216	214	214	215	217	218	216	217	216	218	218	218	218	217	216	215	213	213	214	216	218	217	215	215	218	217	213	215	214	212	216	215	212	212	212	213	215	213	214	216	218	216	217	219	219	217	216	216	215	215	215	215	213	213	213	213	214	215	213	214	213	212	213	213	213	215	216	216	215	215	215	214	215	214	215	214	211	212	211	211	211	212	212	212	213	214	214	213	216	216	217	215	213	210	210	211	211	211	212	212	210	208	209	207	208	208	210	210	210	207	207	207	208	213	213	213	214	212	211	213	212	209	208	209	211	213	213	213	211	209	211	210	210	208	211	210	207	214	214	214	213	211	211	210	210	208	208	208	209	210	211	207	209	208	208	209	208	208	210	209	209	211	211	208	209	210	210	210	208	207	204	205	203	204	205	207	206	206	208	208	207	205	207	208	208	204	208	205	204	205	203	204	205	205	205	205	204	203	203	203	206	204	203	204	204	206	206	206	208	205	204	204	205	203	205	206	203	204	203	204	204	204	204	205	204	205	0	0	0	0	0
211	208	211	214	215	214	214	214	214	214	214	214	215	214	216	217	217	217	220	220	215	215	212	214	216	212	216	216	212	213	215	217	219	219	218	219	220	217	215	216	216	216	218	216	214	213	212	212	212	212	213	215	217	218	216	216	216	216	217	214	211	213	215	217	215	215	215	217	216	216	216	213	213	213	213	213	213	213	214	214	214	215	212	214	215	216	215	213	213	213	213	213	213	214	216	216	216	217	217	218	217	218	213	213	213	211	212	216	216	217	215	214	210	213	213	213	213	213	214	216	217	218	218	217	218	216	215	215	216	215	213	212	214	216	216	215	217	215	213	214	215	217	217	215	214	210	208	209	213	216	216	217	217	217	214	212	210	215	216	216	217	218	218	218	218	216	215	218	219	217	214	212	216	218	218	217	218	219	216	216	219	220	218	217	215	215	216	215	215	215	217	218	218	218	218	217	216	217	216	212	211	214	216	219	220	217	217	215	215	218	222	221	220	213	212	215	217	217	218	216	217	217	217	216	217	218	220	211	214	213	213	214	215	216	217	216	215	218	216	217	221	221	220	220	220	220	221	223	222	225	223	224	222	219	219	218	217	216	216	218	222	222	222	220	218	220	217	220	216	218	216	222	225	221	220	219	218	218	216	214	214	215	216	216	217	216	215	216	222	218	219	219	215	216	217	218	220	218	216	218	218	215	215	214	217	218	219	220	218	219	218	218	219	218	217	212	214	214	216	218	219	218	218	218	216	216	216	215	215	216	218	220	221	216	218	219	220	219	219	217	220	221	221	220	219	219	217	217	217	218	218	217	215	216	216	216	217	215	215	214	216	220	221	221	224	220	220	220	219	218	215	215	215	213	213	215	219	218	217	217	217	217	216	215	216	216	218	216	216	216	215	214	214	216	216	217	217	218	218	218	214	213	213	215	212	214	214	215	215	216	215	215	216	217	216	216	216	216	216	217	217	217	217	217	213	210	209	211	213	215	214	214	214	215	214	215	212	209	211	212	212	210	211	212	212	213	212	212	214	210	214	216	216	216	212	216	215	215	214	214	213	213	212	212	211	211	211	213	214	213	212	214	214	213	215	215	215	213	213	213	213	213	213	212	210	211	211	211	210	211	212	212	211	211	213	212	213	214	216	216	215	211	209	209	210	211	209	209	207	207	207	206	205	206	206	206	205	207	208	208	208	210	209	211	209	208	208	206	206	206	207	206	208	209	212	212	212	210	210	210	209	209	207	204	209	209	212	213	213	212	210	210	210	210	209	208	207	205	205	205	206	207	209	208	209	206	207	207	210	210	210	211	210	209	210	210	207	207	202	202	202	203	204	204	206	206	206	205	207	206	205	206	207	204	203	205	204	203	199	203	205	203	206	205	204	202	202	204	204	204	203	202	204	204	206	206	207	204	202	200	200	201	202	204	204	204	203	202	201	203	203	204	204	204	204	0	0	0	0	0
208	211	205	204	210	212	212	210	211	212	214	214	216	216	216	215	215	217	219	214	215	214	214	210	211	213	213	213	212	213	213	214	216	216	216	217	217	215	215	218	216	216	216	214	212	213	212	211	211	212	212	214	216	215	215	215	216	216	214	213	213	213	216	215	217	215	215	215	214	215	214	212	213	213	214	213	213	213	212	212	212	213	212	212	213	215	216	215	215	215	215	213	214	216	214	216	216	216	217	217	218	218	214	211	211	214	215	216	216	211	213	209	209	213	213	213	214	212	210	212	214	216	218	215	215	213	215	215	217	214	210	212	213	213	212	212	213	213	212	211	216	219	219	213	212	211	213	213	217	218	216	216	216	214	212	212	210	215	216	215	217	216	218	218	215	216	215	216	215	214	213	213	213	216	216	216	218	218	216	216	217	219	219	216	212	214	213	215	215	215	216	216	218	218	218	215	215	217	213	218	216	213	214	216	216	215	216	216	216	216	219	219	216	216	216	216	216	215	214	213	215	216	214	215	216	216	215	214	211	211	212	216	220	220	216	216	211	213	216	216	216	218	218	219	220	219	220	220	219	220	221	221	222	221	220	219	219	215	214	215	219	222	222	221	221	215	217	219	217	216	217	224	217	217	218	217	216	216	215	215	214	215	215	217	217	215	215	215	216	216	217	219	214	217	216	215	214	214	215	216	215	215	216	217	217	217	218	219	218	216	216	215	216	217	217	215	214	213	216	214	219	218	218	218	214	216	216	215	214	214	214	220	220	219	220	220	218	216	216	216	217	220	221	220	219	218	218	217	217	217	215	216	216	216	216	216	216	214	214	214	216	217	219	221	221	217	217	217	214	215	216	215	214	212	215	213	218	217	216	215	215	213	217	215	215	219	216	216	216	216	216	216	215	214	217	217	216	218	216	218	217	215	213	213	212	214	214	214	214	214	213	214	215	217	217	216	215	215	217	216	215	217	216	217	213	214	212	211	213	215	212	211	212	210	210	210	210	209	211	211	210	208	210	208	208	209	209	209	209	211	213	214	215	216	211	209	209	211	213	214	213	212	211	211	210	210	210	214	213	211	212	212	212	212	211	214	212	211	211	212	213	212	211	209	210	211	211	210	209	209	211	212	212	210	212	212	211	212	215	212	209	210	208	206	207	208	209	208	207	206	207	207	207	207	207	207	205	206	209	209	211	210	210	209	208	206	205	206	206	207	207	206	207	205	206	206	205	209	209	211	208	206	205	204	206	208	206	206	204	202	209	207	208	208	208	208	206	205	205	205	206	208	208	209	205	205	205	206	209	209	210	209	208	208	208	209	209	205	206	206	202	202	202	204	204	205	206	205	205	204	205	204	203	202	203	204	204	204	202	200	200	202	205	205	202	203	203	203	203	203	203	204	204	205	206	205	205	202	200	200	199	201	201	203	203	203	201	200	200	202	202	203	203	202	202	0	0	0	0	0
205	205	209	210	206	208	210	210	211	212	214	214	215	214	213	212	214	214	214	215	214	213	213	211	212	212	211	212	212	211	211	213	210	209	209	209	211	212	216	217	214	214	214	212	211	212	211	211	212	212	212	212	212	213	215	215	215	215	214	213	213	212	212	216	213	213	213	213	213	213	212	212	212	213	213	213	213	213	212	212	212	212	212	212	212	214	215	216	215	215	214	215	214	214	215	214	214	214	213	213	213	212	212	212	211	213	215	216	212	212	213	209	210	212	211	211	210	212	211	211	212	211	212	214	213	211	212	212	213	210	209	209	210	211	210	210	210	212	212	211	211	209	214	212	213	214	213	212	214	215	215	216	212	214	211	210	210	213	215	216	216	216	217	217	215	215	215	215	214	214	214	212	214	217	216	216	216	216	215	217	217	217	219	218	212	213	215	215	214	214	215	216	217	217	215	215	214	215	216	215	214	213	214	215	216	215	216	216	217	216	218	216	217	214	216	214	215	214	214	213	214	214	214	216	217	216	215	213	213	213	215	215	217	217	216	214	214	215	215	216	215	217	218	219	218	219	216	218	218	219	219	218	219	219	219	218	214	214	214	215	217	218	220	221	216	216	215	214	218	216	217	216	215	215	214	216	216	215	215	216	217	218	217	217	217	217	215	216	217	219	218	217	213	216	215	214	213	213	213	212	215	216	215	215	214	216	217	217	215	213	213	213	215	217	216	215	213	211	214	214	211	214	216	215	212	212	212	217	214	213	212	215	216	215	218	218	217	215	214	213	215	216	214	214	215	217	216	213	214	216	217	220	217	216	216	214	209	209	210	210	214	217	218	216	215	213	213	213	212	214	215	215	215	214	213	215	215	216	216	215	212	212	212	217	218	216	213	214	217	216	216	215	214	216	217	215	214	214	214	213	213	213	214	215	214	214	214	214	214	214	214	214	215	216	217	213	214	214	215	214	213	213	217	216	215	215	213	212	215	215	215	216	214	209	209	211	212	211	209	212	209	210	209	212	210	209	209	209	209	212	212	212	213	213	210	208	209	209	211	214	214	214	211	212	209	209	209	210	211	211	212	212	211	210	209	212	212	212	211	210	211	210	208	207	209	209	211	211	209	209	212	211	209	210	210	211	210	211	211	207	209	210	209	208	208	211	210	208	207	205	206	207	206	205	207	208	207	207	204	207	210	213	209	208	206	204	205	206	208	208	205	205	205	205	204	202	202	205	204	204	207	206	205	203	205	205	204	206	206	206	206	205	205	206	207	208	206	205	205	207	208	208	207	207	206	204	205	205	205	210	210	206	209	209	208	209	208	209	204	207	203	202	202	202	204	203	202	202	201	202	205	204	204	203	203	203	203	200	199	199	200	203	199	201	204	204	203	203	203	203	204	205	206	205	205	203	201	200	200	200	200	200	200	201	201	200	200	200	200	200	201	202	201	201	200	0	0	0	0	0
210	209	209	211	210	207	209	209	210	211	213	213	213	212	212	212	210	210	211	213	214	213	213	212	212	210	211	211	211	209	210	211	210	208	209	209	209	213	213	212	213	213	210	210	211	209	209	212	212	212	211	213	212	211	211	211	212	213	213	213	213	212	209	208	208	209	212	212	212	212	212	213	213	213	212	213	212	212	212	212	211	211	212	212	213	213	213	213	213	210	215	215	213	213	213	212	211	212	210	210	213	213	214	213	213	214	215	215	213	212	209	209	208	207	210	210	210	211	209	210	211	210	208	208	208	210	208	209	209	211	209	209	210	209	207	207	211	212	213	208	208	209	209	212	211	213	214	212	214	214	217	216	211	211	210	209	208	213	214	216	217	215	214	216	215	214	213	214	214	213	212	212	213	213	213	215	215	215	216	217	217	217	216	218	212	212	214	215	215	214	214	215	213	214	214	214	214	214	216	215	213	212	212	214	215	216	216	215	215	214	216	217	216	215	213	211	214	214	213	213	214	214	213	217	216	215	214	214	213	213	214	215	216	217	216	215	211	214	215	215	216	215	214	218	219	217	216	214	214	215	217	219	218	218	218	218	213	214	214	214	217	219	220	220	217	214	214	215	218	216	214	218	214	213	214	215	215	213	214	215	216	215	214	215	215	217	212	215	215	218	218	214	215	215	215	212	212	212	212	212	213	215	215	214	214	214	212	212	212	212	210	213	213	215	215	214	214	211	211	212	211	212	212	215	210	210	213	212	211	209	215	214	213	213	216	215	215	215	211	210	213	214	213	213	214	215	213	212	213	214	216	216	216	215	214	214	211	209	210	210	215	216	215	214	215	215	213	212	213	215	215	214	215	215	214	213	216	215	216	212	210	211	210	213	213	213	213	213	216	216	215	214	214	215	215	214	212	211	212	211	211	211	212	214	213	213	212	214	214	213	213	214	215	215	215	213	214	214	213	214	213	211	213	214	216	216	213	212	212	213	215	215	214	211	211	210	212	211	210	210	210	209	209	212	211	209	209	208	208	210	211	210	212	211	207	210	208	208	210	211	211	211	211	211	209	209	209	210	211	211	212	210	209	209	208	210	212	212	211	211	209	209	207	206	209	209	211	209	208	207	208	208	209	208	209	207	203	202	204	206	208	208	210	209	208	208	209	208	205	204	205	208	208	205	205	205	204	205	204	205	204	209	210	207	203	204	206	207	205	205	206	205	205	204	205	203	202	204	201	201	203	203	204	203	203	203	207	207	206	206	205	205	205	206	207	206	206	205	205	206	208	208	207	205	205	205	204	204	204	209	208	208	206	208	209	208	208	206	207	206	208	208	202	202	201	201	202	201	201	201	203	204	204	203	203	200	202	199	199	199	200	202	200	199	199	200	202	202	201	199	204	205	206	205	200	202	200	200	200	200	200	199	199	200	201	200	200	200	200	200	203	203	202	200	200	0	0	0	0	0
210	210	211	210	207	205	209	209	209	211	211	211	211	210	210	210	208	208	210	211	212	212	212	212	208	209	210	209	209	209	208	209	209	208	207	207	211	213	209	209	208	209	209	210	209	207	207	208	210	213	213	213	212	210	210	210	210	211	211	213	212	211	206	206	207	207	210	211	211	211	212	211	211	212	212	211	212	211	211	211	212	211	211	210	211	211	211	210	208	209	210	214	213	212	212	209	209	210	210	209	211	214	214	214	214	214	212	211	210	209	208	207	205	204	208	208	210	209	208	210	209	208	207	207	206	208	206	206	208	208	209	209	208	208	208	206	206	209	208	209	209	209	208	208	209	210	213	213	210	212	212	213	212	208	207	208	211	212	213	215	216	213	212	214	214	214	213	213	213	214	214	213	212	212	212	215	215	215	216	216	217	216	216	211	210	211	211	213	213	212	211	210	210	213	213	213	211	211	212	210	210	212	212	214	214	215	218	215	213	214	216	212	213	212	212	213	213	213	213	213	211	212	211	214	211	214	214	213	213	213	213	213	216	216	215	213	211	211	213	213	215	215	215	217	214	212	213	213	212	216	217	210	215	215	215	213	213	213	214	214	215	215	216	216	214	212	214	214	217	217	214	213	211	211	211	213	214	212	211	214	214	214	213	213	212	209	212	211	211	214	217	214	216	215	212	212	211	212	212	212	213	214	215	213	212	212	209	208	208	210	212	211	211	214	210	212	211	211	210	212	213	211	212	213	210	210	211	210	210	212	210	209	209	210	211	211	210	213	211	212	212	213	211	212	208	212	213	213	212	208	208	210	215	214	217	214	213	212	213	211	215	215	214	214	214	214	214	214	215	215	214	212	214	214	213	215	216	215	216	211	209	210	209	209	212	212	210	212	213	216	215	209	209	212	212	212	211	211	210	211	212	212	213	212	210	210	211	214	213	213	213	216	216	216	214	215	214	213	212	212	212	211	211	213	214	212	210	209	210	211	214	213	212	211	209	210	211	211	210	209	210	209	209	210	210	208	208	208	208	208	208	209	211	209	212	210	208	210	211	210	209	208	208	210	210	208	210	210	210	211	211	209	208	208	206	208	209	209	206	206	207	206	208	208	209	208	208	209	208	206	207	208	209	210	207	207	205	205	208	210	207	208	209	209	207	208	210	208	205	204	204	206	206	206	205	204	203	204	204	204	203	204	207	209	204	204	207	204	204	204	205	204	206	204	204	204	202	202	205	204	203	202	203	203	204	203	207	207	208	206	206	200	201	205	205	205	205	204	205	204	205	206	206	207	205	203	204	203	204	207	204	203	204	204	205	204	206	207	206	209	209	202	202	202	201	201	202	200	201	200	203	205	204	202	200	200	201	199	198	198	198	198	199	199	201	199	198	200	199	198	198	202	202	200	199	197	199	199	200	198	198	198	196	196	197	197	198	200	200	200	203	203	202	199	199	0	0	0	0	0
212	212	210	210	204	206	208	209	209	210	209	208	207	207	207	205	208	209	209	210	211	205	205	205	208	208	208	207	207	207	206	208	208	208	204	204	209	208	208	209	209	209	209	207	206	205	206	206	209	212	212	212	212	210	210	210	209	210	211	211	213	211	207	207	206	208	208	208	206	206	206	209	210	210	210	210	211	211	211	211	211	210	210	210	209	209	208	208	208	208	209	210	213	212	207	208	207	208	209	209	210	211	213	213	212	209	209	208	207	208	206	205	204	204	205	209	209	209	207	207	208	207	205	208	208	208	208	207	206	208	208	207	207	206	207	207	207	208	209	209	209	210	208	208	209	210	210	212	210	211	211	212	209	210	209	209	211	212	212	213	212	211	212	206	204	204	205	211	212	211	207	209	204	205	205	206	210	209	210	211	209	214	210	211	211	212	211	211	212	211	208	207	207	208	213	212	210	210	211	210	210	211	212	213	214	213	213	214	215	212	211	213	213	212	212	212	212	213	211	210	208	210	210	211	208	209	215	215	213	213	212	214	214	215	213	213	213	212	213	212	214	213	213	215	209	209	210	210	212	213	209	209	213	213	214	211	212	213	211	213	211	211	211	213	209	207	213	214	215	218	213	213	212	208	211	210	210	208	210	209	212	213	211	211	209	211	212	211	211	211	212	214	217	213	211	210	210	211	212	212	213	212	211	212	213	211	211	209	210	210	212	211	209	210	212	210	209	209	212	212	211	211	213	213	211	211	211	213	210	208	210	209	209	210	211	211	211	210	210	211	210	212	212	208	209	210	213	211	210	208	208	212	210	217	214	211	210	211	210	212	213	212	212	212	214	214	214	214	214	212	212	212	212	213	213	213	214	215	215	212	212	209	209	207	209	210	211	210	210	210	209	209	208	211	212	212	210	209	211	211	213	212	212	211	209	210	211	211	212	211	214	216	215	215	215	214	214	210	211	211	210	209	208	208	209	209	210	209	209	210	211	214	212	210	209	209	210	210	210	209	209	208	209	208	208	208	210	211	210	206	206	205	209	209	211	211	211	210	211	210	209	208	207	209	209	210	208	207	209	210	211	208	207	207	206	208	209	207	209	207	208	209	207	206	205	207	206	207	206	206	207	206	208	210	207	207	206	205	209	208	207	210	209	206	204	206	206	205	205	205	204	205	203	205	203	203	203	204	203	200	201	202	204	207	206	206	204	204	204	203	203	204	204	205	205	202	202	201	202	202	204	203	203	203	203	203	205	205	208	206	202	202	200	201	203	204	205	204	204	204	204	203	202	204	204	202	202	203	203	202	202	203	203	203	205	204	201	199	199	199	199	202	204	202	202	201	200	200	200	200	201	205	201	200	198	200	200	199	196	196	196	198	198	198	200	203	201	199	198	197	198	199	200	200	197	195	198	198	199	198	197	196	195	194	196	196	196	196	197	200	200	203	203	200	201	0	0	0	0	0
208	206	205	205	205	206	206	207	207	206	206	207	205	205	204	207	205	208	208	204	204	203	205	205	205	206	205	204	206	206	206	207	205	203	204	202	202	205	208	208	209	207	209	209	206	205	205	205	206	209	209	209	208	208	206	207	206	208	209	209	208	207	205	206	206	208	209	208	208	207	207	208	209	209	207	211	211	210	210	209	210	207	207	207	206	205	207	207	207	207	208	209	209	209	207	207	207	207	207	207	209	211	211	209	209	208	206	206	206	207	206	205	205	206	205	207	207	208	207	207	206	205	207	208	207	208	210	208	209	209	208	209	206	206	206	206	207	207	207	208	208	209	207	208	208	208	208	209	207	207	209	210	209	210	209	209	209	208	209	209	209	209	206	206	205	207	206	206	210	207	207	207	203	204	205	205	206	208	211	211	210	208	209	209	209	211	208	209	211	211	210	207	207	207	210	210	210	209	211	212	211	210	212	212	213	214	213	214	211	211	211	211	211	212	211	211	214	212	211	210	208	208	208	207	207	207	215	216	211	210	211	213	213	213	208	210	211	211	212	212	211	212	212	209	209	209	206	208	212	211	208	208	209	210	210	208	210	211	211	211	213	211	211	212	208	208	209	212	213	217	213	212	209	207	207	210	210	209	209	209	209	208	207	211	208	211	213	213	210	211	210	215	212	213	212	208	208	210	211	212	212	212	212	209	207	208	209	210	208	210	209	208	207	208	210	208	209	209	208	210	210	210	213	213	211	210	211	213	213	210	208	208	208	209	210	210	208	207	208	210	212	212	212	211	209	210	211	210	210	208	209	210	212	214	212	210	209	209	211	212	212	211	210	212	211	214	213	214	212	212	211	209	211	212	212	212	214	214	212	211	210	210	209	207	209	208	208	208	210	209	208	209	208	211	212	211	209	209	210	212	212	210	210	210	209	209	213	211	211	211	209	214	213	211	211	213	212	209	208	209	207	207	206	205	207	209	210	210	209	209	207	212	210	209	209	209	208	210	209	208	208	207	208	208	206	207	209	208	207	206	206	208	208	210	211	211	209	205	205	207	210	210	209	211	211	209	207	207	208	208	208	206	206	205	205	206	207	207	207	207	208	208	207	206	205	205	205	204	204	206	206	204	204	204	204	206	204	210	208	208	208	206	205	202	200	200	202	204	207	207	205	205	203	203	201	203	203	204	203	199	202	201	203	204	204	204	204	203	203	203	203	202	202	202	201	200	199	199	201	202	204	204	203	201	202	201	198	198	203	203	203	202	201	201	204	204	204	204	203	203	202	202	200	199	201	201	201	202	202	201	201	201	203	203	203	203	199	199	199	198	201	203	201	202	201	200	199	199	199	200	201	199	198	197	198	200	199	197	196	196	196	197	197	198	199	200	198	199	198	198	198	201	200	199	196	195	195	197	198	197	197	196	195	194	194	195	198	198	197	199	198	199	199	198	199	0	0	0	0	0
208	205	204	205	205	205	204	202	202	204	206	206	206	206	199	200	205	202	204	204	201	203	204	205	205	203	205	207	207	206	206	209	207	201	200	201	201	202	205	205	208	209	208	208	205	205	205	205	205	205	206	206	207	205	204	203	204	204	205	205	205	204	204	206	207	207	209	208	208	207	207	205	203	205	205	206	210	207	206	206	208	205	205	205	205	205	206	205	205	202	207	208	208	207	206	207	206	207	207	205	207	210	211	209	208	208	205	205	205	203	206	205	205	206	204	207	206	207	206	206	206	205	206	207	208	208	209	206	208	208	207	207	207	206	206	207	207	206	206	204	205	205	206	208	208	208	208	207	205	205	205	207	206	205	206	207	208	209	209	209	209	209	207	206	206	206	204	203	206	209	209	207	205	204	202	203	205	206	208	212	211	211	210	209	206	210	208	209	211	211	210	208	208	207	208	208	211	211	211	211	211	211	210	208	211	213	211	211	210	209	210	211	210	211	209	211	211	211	209	209	209	207	209	208	208	210	214	214	210	210	210	211	210	207	206	208	209	210	210	209	208	207	207	207	209	207	207	208	208	211	207	207	209	210	205	209	213	213	212	211	209	208	210	212	210	209	207	208	211	211	214	211	211	208	208	210	210	209	208	210	207	206	206	207	208	208	209	213	211	209	209	213	211	211	209	208	208	209	209	211	211	212	211	211	205	208	208	208	208	211	209	206	209	212	212	211	209	209	211	209	208	210	212	212	210	210	211	212	213	210	210	209	208	208	210	212	210	209	211	211	213	213	214	212	207	209	210	210	210	209	208	209	212	212	210	210	207	210	211	213	210	209	209	210	211	209	212	212	211	210	209	210	208	208	210	209	214	215	214	210	211	210	208	207	208	208	207	206	206	208	209	209	208	209	211	210	209	209	209	211	211	209	208	211	209	207	209	211	209	207	209	210	209	210	209	209	207	208	209	210	207	207	206	206	206	206	209	209	210	207	207	208	209	207	207	208	205	206	207	206	207	207	207	208	207	207	208	206	205	204	206	208	208	209	210	210	206	206	204	201	208	208	211	210	209	207	206	206	207	206	205	204	204	203	204	204	205	205	205	206	204	205	204	204	207	204	201	201	200	205	205	204	204	202	202	205	202	204	206	207	206	205	205	201	200	199	201	202	203	200	201	205	202	203	198	199	200	203	203	200	204	202	202	202	202	202	202	203	203	203	202	202	201	201	200	199	198	199	201	200	202	203	200	200	199	198	198	198	198	203	201	199	200	200	200	198	198	200	200	198	203	201	200	199	201	201	200	199	199	199	200	200	202	202	201	200	200	199	198	199	200	199	200	201	200	199	200	200	200	200	199	198	198	197	198	199	199	200	200	199	197	197	196	196	197	196	196	197	196	197	196	200	198	196	195	195	196	195	196	195	195	196	194	193	193	192	192	194	197	196	195	196	196	198	197	197	0	0	0	0
200	196	195	201	201	205	201	199	200	200	204	207	206	199	199	200	203	202	200	200	201	200	201	203	205	205	205	206	207	211	211	209	207	204	203	202	202	202	202	204	205	205	205	207	207	207	206	206	205	205	204	206	206	205	205	206	206	204	204	206	203	203	200	201	202	205	206	206	209	205	207	207	206	204	205	205	205	206	205	203	205	206	206	205	205	205	205	202	201	205	205	206	206	205	205	205	206	207	206	204	204	207	208	207	206	205	205	203	203	203	202	205	205	205	205	205	205	205	205	204	205	205	203	205	205	204	205	206	206	207	207	206	207	207	207	206	207	207	205	206	205	207	206	207	207	207	208	206	204	203	203	204	204	206	208	208	208	209	209	209	206	207	206	206	206	205	203	203	205	208	208	207	205	204	201	203	202	204	207	209	211	210	209	209	208	210	209	208	208	211	209	208	208	208	207	207	207	208	210	210	209	208	208	208	208	212	211	211	210	211	209	209	209	209	205	209	208	210	209	209	210	210	209	208	209	208	210	209	208	208	206	206	207	206	204	205	206	209	208	208	207	208	206	205	208	209	211	211	208	208	207	205	209	208	207	207	208	207	207	212	206	207	210	211	206	206	206	206	206	211	212	207	207	208	207	208	209	208	206	208	208	205	206	206	207	207	208	208	210	209	208	208	210	209	208	208	208	208	209	209	210	211	210	206	205	206	208	209	211	211	212	208	213	212	212	210	207	209	208	205	208	206	208	207	208	210	211	211	210	206	206	208	208	207	208	208	211	212	211	212	214	214	213	211	206	209	210	210	210	209	209	208	209	209	207	207	207	209	210	211	209	209	208	209	208	209	209	210	209	209	208	208	208	209	209	209	212	213	211	210	210	208	207	205	205	206	206	207	207	207	207	208	210	211	211	208	208	204	206	204	207	209	206	207	208	207	207	209	208	208	207	208	208	207	208	208	207	208	208	210	209	209	207	204	203	205	207	209	209	208	207	205	205	207	204	204	204	205	205	206	206	208	208	209	210	209	208	207	204	203	205	208	208	207	208	209	206	205	202	203	202	205	207	206	202	201	200	201	203	203	204	203	203	202	203	204	203	204	204	205	203	201	202	208	204	207	201	199	200	204	204	203	202	201	199	200	201	202	205	206	203	204	201	200	198	200	202	202	202	202	199	201	200	198	198	198	198	202	205	204	204	200	202	202	201	201	204	204	203	203	201	200	200	199	199	199	197	200	199	200	200	199	197	200	198	197	198	197	200	200	197	197	198	199	199	198	196	198	200	200	200	198	201	199	201	198	198	198	197	199	198	197	197	200	200	201	200	198	198	199	198	197	198	200	198	199	199	199	200	198	198	198	198	197	198	198	199	200	200	199	199	199	198	196	195	195	194	195	195	195	195	196	196	196	196	196	196	192	192	193	194	195	196	194	192	191	191	192	192	194	193	193	196	193	192	192	0	0	0	0
195	193	198	196	197	197	197	194	195	195	197	204	204	201	201	201	201	203	200	200	199	199	200	200	200	200	204	205	206	208	209	209	205	204	204	203	204	204	203	203	202	202	203	204	204	205	206	207	207	206	206	205	205	204	206	207	205	200	201	201	200	200	198	200	201	204	206	206	203	204	205	206	206	204	203	203	204	206	205	205	205	203	201	204	205	205	207	205	201	200	204	204	204	204	204	204	205	205	205	205	205	207	208	206	204	202	201	201	201	201	201	203	202	203	203	204	205	204	200	200	201	203	202	201	204	204	205	206	206	206	205	203	205	205	205	205	206	206	205	205	205	205	206	207	206	207	205	205	204	203	203	203	203	205	207	205	207	209	209	207	206	203	205	206	206	203	202	202	205	207	207	206	205	204	201	202	201	204	206	206	209	209	208	205	203	205	206	206	207	206	208	208	208	207	207	207	207	208	207	210	210	208	205	206	209	209	209	208	207	206	209	208	206	206	204	208	207	209	209	209	211	207	208	208	208	208	207	207	207	205	206	206	207	206	205	205	205	207	208	207	207	208	206	207	208	207	209	212	209	203	208	207	207	207	207	207	204	206	207	205	204	205	206	207	208	208	206	206	206	211	208	206	207	206	206	207	205	206	208	205	207	206	208	205	204	206	207	208	208	208	208	208	208	209	209	207	207	208	208	208	209	209	206	206	205	205	206	208	211	212	208	209	212	212	211	210	207	208	208	208	205	206	205	205	206	210	208	208	209	204	203	205	205	206	208	208	208	213	213	214	207	210	212	207	207	208	210	210	210	208	207	207	208	207	205	207	208	208	208	209	208	208	208	208	206	207	207	209	207	206	207	205	207	207	208	208	209	209	209	209	208	208	207	205	203	204	206	208	207	207	207	209	210	211	211	208	204	205	206	202	201	205	203	204	203	204	208	208	211	208	207	207	206	206	207	207	207	206	204	204	205	206	207	209	208	208	207	208	205	202	202	206	203	202	202	203	204	204	204	204	206	206	208	210	211	209	207	206	203	204	205	207	205	205	207	207	206	204	202	203	202	202	202	203	201	200	200	200	199	199	201	204	203	201	200	203	203	202	204	203	202	201	201	201	204	202	198	199	203	201	201	200	200	199	198	200	200	201	204	202	202	202	201	202	203	204	202	202	202	202	199	200	199	198	197	198	198	201	206	202	202	200	199	199	197	197	198	201	200	198	198	200	198	198	199	200	197	200	198	198	199	199	198	199	200	199	198	200	198	196	196	198	196	197	196	198	197	199	200	199	199	199	200	201	201	197	196	197	194	196	196	196	196	197	196	195	196	195	197	198	198	199	196	199	195	200	197	196	198	198	198	198	197	197	197	196	196	197	199	199	199	198	196	196	194	193	194	194	193	193	193	193	193	195	195	195	195	192	190	191	191	192	192	191	192	192	192	193	193	192	193	195	192	193	193	190	0	0	0	0
197	195	197	197	196	196	197	194	195	198	198	201	204	202	202	202	202	199	200	198	198	198	199	200	201	201	203	203	204	206	204	204	203	202	203	205	204	204	204	202	201	202	202	204	205	205	206	204	204	207	206	204	201	201	203	206	203	200	201	200	198	198	198	199	201	204	206	204	202	201	201	203	203	201	201	202	205	205	205	204	205	201	201	204	204	207	207	202	202	199	199	203	203	203	203	204	204	205	205	203	205	204	205	204	203	201	201	199	199	200	201	198	201	201	203	202	202	201	201	200	201	206	206	203	199	202	206	206	205	204	203	203	203	203	202	205	205	204	204	205	204	204	205	205	203	204	204	205	204	202	202	200	202	204	206	204	204	207	207	205	203	202	203	205	206	204	203	203	205	206	206	205	204	204	203	202	202	202	204	206	207	207	206	205	202	204	204	205	205	204	204	207	207	207	206	206	206	207	207	210	206	204	207	206	208	209	207	203	206	205	205	204	203	203	205	206	207	209	210	207	211	208	206	205	207	205	206	205	205	207	208	207	206	205	204	204	205	207	207	207	206	206	206	206	206	207	208	210	205	209	201	207	209	207	208	205	204	206	208	204	203	203	203	206	208	209	209	206	208	210	208	205	206	206	205	206	207	205	205	206	205	206	206	205	203	206	207	207	208	208	208	208	208	209	211	207	207	206	206	206	206	207	207	208	205	206	207	208	206	207	207	209	212	209	208	207	207	207	208	207	207	206	205	204	208	209	208	209	206	204	203	204	204	206	206	206	208	208	208	206	206	206	207	206	206	208	208	207	207	207	208	207	206	207	208	208	208	208	209	206	206	206	207	206	206	206	206	207	207	206	205	205	207	207	208	208	208	204	204	207	207	206	206	207	207	205	206	205	206	208	208	209	211	211	208	207	204	205	203	204	202	204	203	204	204	205	207	207	208	207	207	206	206	205	205	206	206	203	203	203	204	205	202	205	205	205	205	205	205	203	205	205	206	204	202	203	203	202	203	204	205	207	207	208	208	208	208	207	203	203	205	204	204	203	204	204	201	202	202	202	202	202	202	202	203	200	200	201	200	200	202	201	201	203	200	200	201	201	202	203	202	202	201	201	198	197	199	200	202	200	200	200	198	199	199	201	201	201	202	202	202	201	201	201	203	203	200	201	202	201	199	198	198	197	197	198	198	199	200	200	200	200	199	196	198	199	200	200	199	198	196	194	198	198	198	196	195	197	198	194	194	194	194	195	200	199	200	198	195	195	196	198	198	196	197	198	196	197	197	197	198	198	198	198	199	198	197	196	196	194	194	195	196	195	195	195	195	194	196	198	198	198	195	194	193	195	194	194	196	197	198	197	195	196	195	195	194	194	197	197	197	197	197	195	194	193	193	193	192	193	192	192	193	193	194	194	192	192	191	190	191	191	191	191	191	191	192	193	192	193	193	193	193	192	192	189	0	0	0	0
196	196	198	197	196	196	194	194	195	198	198	201	203	195	196	196	198	196	196	197	197	197	197	200	201	202	202	201	200	200	203	203	203	203	202	204	203	203	203	203	203	202	201	203	205	205	205	201	202	204	205	204	203	203	200	202	200	202	202	201	200	199	199	199	200	202	202	201	199	198	199	199	200	200	200	202	204	204	203	203	201	199	199	202	204	201	202	202	201	199	198	198	201	202	201	203	202	201	201	202	202	202	202	203	200	201	201	199	202	199	199	198	197	199	200	199	200	199	198	199	201	202	204	203	200	200	203	204	204	203	201	201	201	201	202	202	203	204	204	204	203	203	200	200	201	202	203	203	202	199	198	199	198	203	203	203	203	203	202	203	202	202	202	205	204	204	203	201	204	203	203	204	203	203	202	202	202	202	200	201	206	205	205	202	203	203	205	205	203	203	203	207	207	205	204	204	206	202	201	202	205	204	205	205	207	207	207	205	205	203	204	206	205	205	205	205	204	206	205	207	207	209	207	205	203	202	205	206	206	207	207	206	206	204	202	204	204	205	206	206	206	205	205	203	205	207	207	208	206	203	204	205	204	206	208	205	203	202	204	206	201	202	200	201	200	211	209	209	207	205	203	206	206	205	204	205	206	204	204	205	206	206	205	203	205	205	205	204	204	208	206	208	208	209	209	210	206	205	205	205	204	206	207	206	205	206	207	204	204	204	206	208	208	206	204	208	205	205	209	206	206	204	204	204	208	208	208	206	204	204	204	205	206	206	205	204	204	207	206	206	206	206	206	207	207	207	206	205	204	204	207	204	205	206	208	208	208	210	208	206	204	205	206	206	205	205	207	206	205	205	206	206	206	208	208	208	208	207	206	204	204	207	204	207	206	206	204	205	206	207	207	207	206	206	207	206	206	204	204	203	206	204	203	203	205	205	206	207	205	207	206	206	205	203	204	206	206	203	202	201	204	202	204	204	203	202	202	204	204	203	205	206	206	204	203	203	202	202	202	204	204	206	206	207	208	207	207	205	205	201	202	203	200	198	201	202	202	201	202	202	203	203	203	203	202	201	200	203	203	201	201	201	201	202	201	200	199	199	198	201	200	201	201	199	198	196	196	198	200	201	199	199	198	199	201	201	200	200	198	199	200	198	199	199	201	201	199	200	201	200	197	198	197	196	196	196	197	197	199	196	197	199	200	197	197	199	199	198	198	197	195	193	194	197	196	195	195	197	197	194	192	193	193	196	197	199	199	199	194	193	196	198	197	196	195	197	199	199	198	198	198	198	198	199	193	198	198	197	197	197	196	195	195	195	194	194	194	194	197	197	196	195	194	194	193	192	192	190	193	193	193	193	193	192	192	192	194	192	192	192	192	193	193	194	194	194	194	192	192	192	193	191	192	192	193	192	192	192	192	191	191	191	191	190	190	190	187	187	192	192	193	190	189	189	188	191	0	0	0	0
196	196	198	198	197	195	195	194	198	197	197	195	194	193	195	195	195	197	196	197	200	200	199	198	199	200	200	200	198	199	200	201	201	201	203	201	202	202	199	199	201	200	201	201	201	201	201	199	201	204	205	204	199	199	199	200	202	202	203	199	200	199	199	198	199	199	200	199	198	197	196	197	198	200	200	200	202	200	200	201	201	201	202	199	200	200	199	199	198	198	197	196	197	199	199	199	200	201	202	201	202	201	200	199	201	200	199	199	201	201	198	198	198	197	198	201	200	200	198	198	200	201	201	201	201	200	200	202	203	201	200	201	198	198	200	202	203	204	204	203	201	199	198	199	200	201	202	202	201	201	197	197	198	200	201	202	202	202	202	200	201	201	201	201	200	203	202	200	202	202	202	202	203	201	201	201	201	201	201	203	203	203	202	201	201	202	204	203	204	203	201	200	201	202	204	204	204	202	201	201	200	200	200	202	205	206	206	200	201	202	204	206	205	205	202	204	203	204	204	201	204	204	204	202	202	204	204	204	204	207	208	204	203	201	200	200	200	204	204	206	204	202	202	204	205	206	207	206	204	203	203	204	204	204	205	203	201	201	201	203	201	202	200	201	203	207	208	205	203	203	203	206	203	204	203	203	206	204	204	206	206	206	204	203	202	203	204	204	205	204	205	205	206	208	208	209	212	203	205	204	204	204	207	205	204	204	202	203	201	201	205	205	205	203	203	204	204	204	203	205	202	205	204	207	205	205	205	205	203	203	204	204	204	204	206	202	202	205	207	207	206	205	206	207	206	206	205	204	203	204	207	202	204	205	207	207	208	209	209	208	206	206	206	206	206	205	206	205	205	204	205	207	207	207	207	208	208	204	205	205	204	204	206	207	206	205	205	204	205	207	207	207	206	206	204	205	206	204	204	204	202	206	203	203	203	205	205	204	201	200	200	201	204	203	205	206	204	202	201	200	202	202	202	204	202	202	203	203	204	204	204	205	205	205	203	200	201	201	201	202	203	204	203	204	205	203	201	200	197	198	199	199	198	198	198	200	201	201	201	202	202	202	202	201	201	201	202	202	197	201	201	201	200	201	199	200	199	197	196	197	200	200	200	198	197	196	197	197	196	200	200	200	200	198	199	198	200	199	199	195	195	196	198	200	199	200	199	197	198	198	198	196	197	197	196	197	196	196	197	197	198	198	199	195	195	196	196	196	196	196	196	193	193	195	195	195	194	194	196	194	192	193	193	194	194	196	198	198	197	193	195	196	195	195	196	194	196	196	198	198	199	197	198	195	197	193	193	193	193	195	194	194	194	194	195	194	193	192	190	191	195	194	193	191	191	193	192	192	192	191	191	190	191	192	192	193	192	192	193	190	189	190	191	192	193	193	194	192	192	191	192	191	191	190	191	190	190	191	192	192	193	191	190	190	189	188	187	187	187	189	191	191	192	192	187	187	0	0	0	0
197	199	199	199	197	192	192	193	198	195	190	190	191	192	193	196	196	196	202	202	198	198	197	196	196	197	196	196	197	197	197	200	201	199	200	200	199	199	199	199	199	201	200	201	200	200	200	195	198	201	202	201	199	199	199	199	199	200	202	199	198	199	198	199	199	199	198	198	197	196	194	197	200	198	198	199	198	198	199	201	202	200	200	199	198	197	196	197	197	196	196	196	197	198	198	198	198	200	200	200	200	198	198	199	201	201	199	199	199	199	196	197	197	196	197	199	200	200	199	196	196	199	200	201	201	200	200	199	200	199	198	199	198	198	198	199	203	205	203	200	197	197	198	199	199	200	201	200	200	200	197	198	198	199	197	198	202	202	198	197	197	199	199	198	200	202	202	201	200	199	202	202	203	202	201	201	201	200	200	202	202	202	201	201	201	201	201	203	202	201	198	196	200	204	204	204	203	203	203	203	200	202	204	202	200	201	200	200	200	203	203	206	207	206	204	202	202	200	200	201	201	203	203	201	202	202	199	197	203	202	202	199	201	201	201	200	201	204	203	204	205	204	204	204	205	204	204	202	202	203	203	203	203	203	202	204	200	202	202	201	201	202	202	203	206	202	204	207	203	203	201	204	201	203	203	203	204	203	204	204	206	205	204	204	203	203	204	204	204	203	203	204	203	206	207	208	206	204	202	203	204	205	206	205	204	202	202	201	201	201	203	204	204	204	203	203	203	201	204	203	205	204	204	205	205	204	206	204	202	202	202	201	202	202	201	203	201	203	205	205	202	201	202	206	205	205	204	201	199	201	201	201	203	203	202	205	207	208	209	208	207	206	206	206	206	205	204	205	204	205	205	205	205	203	205	205	204	206	203	203	204	204	205	206	205	205	204	204	204	204	206	205	203	203	202	204	205	203	203	203	200	201	203	203	202	204	204	202	201	200	199	200	202	206	207	206	202	201	202	202	202	202	202	202	203	202	203	203	203	202	202	203	203	201	202	203	201	201	201	201	203	203	202	202	202	203	202	199	199	200	199	200	198	197	199	201	202	202	200	201	200	199	199	200	199	199	201	198	197	199	201	201	200	199	199	200	199	199	199	199	199	199	198	197	197	196	197	197	196	199	200	200	200	199	198	198	199	198	198	195	196	195	197	200	199	196	197	196	194	197	197	197	196	196	194	195	195	196	196	197	200	200	200	195	195	194	192	192	193	196	193	194	193	193	194	194	194	193	194	194	194	193	193	193	194	196	197	196	194	193	194	194	194	194	192	193	195	195	194	194	194	194	194	196	196	194	190	190	194	193	194	193	193	194	193	193	192	191	190	190	189	189	189	190	191	192	192	188	188	191	190	191	191	192	192	193	193	192	190	188	188	188	190	190	191	193	192	191	189	188	191	191	191	191	190	189	188	187	188	188	188	188	189	189	189	189	187	187	186	187	189	190	190	190	188	186	0	0	0	0
195	199	199	200	192	197	198	198	198	197	196	196	193	195	195	195	195	198	199	200	198	196	196	195	195	196	195	195	197	197	197	197	199	199	198	199	198	198	198	197	197	202	201	201	198	196	195	195	197	199	200	200	200	198	198	198	199	199	200	197	197	198	199	198	198	199	198	198	197	195	197	199	200	199	198	198	198	197	199	201	201	201	200	199	198	198	196	197	197	197	196	195	196	197	197	196	197	197	198	198	198	197	198	199	200	198	198	197	198	198	197	196	197	197	197	198	197	194	196	194	196	198	199	199	199	200	198	198	198	200	199	196	197	197	199	200	200	201	199	196	197	197	198	199	199	198	199	200	196	197	197	198	199	198	197	197	202	199	199	199	199	199	198	199	198	200	201	201	200	200	200	200	201	202	202	200	201	200	199	199	199	200	201	201	200	199	199	199	198	199	198	199	199	203	204	202	201	201	201	200	199	203	203	201	200	199	198	199	199	201	202	203	202	201	197	197	196	198	198	199	200	199	200	199	200	199	201	199	204	201	199	197	198	201	201	200	201	202	202	204	205	205	206	205	206	205	204	203	203	203	203	203	204	205	202	204	202	202	202	199	200	202	203	203	203	203	203	202	201	201	201	204	200	199	198	204	204	202	201	205	206	206	204	203	199	200	200	200	199	201	203	201	201	201	202	205	200	201	200	201	201	203	205	203	203	203	201	200	201	200	202	201	202	201	202	203	204	202	204	204	202	204	202	204	208	207	201	203	201	201	201	201	201	203	202	204	201	204	201	200	200	200	201	201	203	203	203	200	201	203	201	200	203	203	203	203	204	203	203	205	205	203	204	204	206	205	204	204	205	205	205	206	204	202	203	203	201	203	201	199	202	203	203	202	204	203	204	203	203	201	200	202	203	203	201	201	202	202	202	201	201	201	202	202	202	204	203	203	199	200	201	202	203	206	207	206	203	203	201	201	200	200	202	202	202	203	202	202	201	202	201	202	202	201	201	200	202	201	200	199	200	199	201	200	201	198	198	200	198	198	199	200	197	198	200	200	200	201	200	201	199	199	199	198	197	197	197	197	196	198	199	199	200	200	202	201	200	199	199	198	199	199	197	197	196	196	195	194	194	198	199	199	200	199	198	196	197	197	198	196	195	195	195	198	197	196	195	195	196	197	196	196	196	195	194	194	193	195	195	196	196	196	194	193	194	194	194	194	195	196	197	195	195	194	193	194	193	192	193	194	193	193	193	192	192	193	198	197	195	195	193	193	193	193	192	192	191	191	190	192	193	193	194	195	195	193	191	189	189	190	192	193	193	192	192	193	192	191	191	190	189	189	190	190	191	192	188	188	188	190	190	191	191	191	192	192	192	191	189	188	188	186	186	190	189	189	188	189	188	188	188	188	190	191	189	188	187	187	185	188	187	188	188	186	186	184	184	186	186	188	189	189	189	189	187	185	0	0	0	0
198	193	193	194	196	197	199	199	199	192	195	193	193	193	193	195	197	197	197	199	198	195	195	194	193	193	196	197	197	197	196	195	195	198	196	196	196	197	196	195	195	196	200	200	197	194	195	195	196	198	199	198	198	199	199	199	199	194	193	194	196	195	194	198	198	198	198	197	197	197	198	200	198	198	197	197	198	198	197	198	199	199	198	197	198	197	198	198	198	196	196	194	195	197	197	195	194	195	196	196	197	197	196	195	196	196	196	195	196	196	196	196	196	195	197	197	196	194	195	195	196	197	198	198	198	197	197	197	198	198	196	198	198	198	199	200	200	196	196	195	194	197	198	199	199	197	197	197	194	195	196	198	198	199	200	200	201	199	199	199	198	199	200	198	200	199	200	199	199	199	200	201	200	201	201	202	201	199	199	198	198	198	199	198	200	198	198	199	199	198	199	200	202	204	205	203	201	201	202	198	198	199	200	199	198	197	198	199	200	201	201	201	201	200	199	197	195	197	198	198	199	200	202	201	200	198	198	200	200	200	199	198	198	198	201	200	201	201	201	203	204	205	205	205	204	204	202	202	202	202	200	199	202	204	204	203	202	202	201	201	201	201	203	201	199	201	201	201	202	201	202	203	201	201	201	203	201	202	203	202	205	205	204	205	201	199	199	200	199	200	200	200	201	201	199	197	198	200	199	199	200	202	200	200	201	201	200	200	200	200	200	200	200	200	200	200	197	198	201	201	201	201	201	199	200	200	201	201	200	201	201	201	201	205	202	201	202	201	199	199	200	200	200	197	200	200	201	203	204	204	204	204	204	204	202	201	203	203	202	202	201	202	202	203	204	203	203	203	205	204	204	204	201	201	202	203	202	199	198	199	199	202	200	201	202	202	203	202	201	199	201	202	202	202	201	201	201	203	201	201	200	201	201	201	201	203	204	202	201	200	201	202	202	204	203	202	203	201	201	200	199	200	200	200	202	201	201	201	200	201	198	204	201	201	198	199	199	199	199	199	198	199	201	200	197	198	198	197	197	198	199	199	199	197	199	200	200	200	200	199	197	195	198	197	196	196	195	193	198	199	198	196	197	198	199	201	200	199	198	198	199	198	196	196	195	196	195	193	195	197	199	199	199	199	198	193	193	194	195	196	194	194	194	197	195	194	195	196	196	195	195	195	194	196	194	195	195	195	195	195	197	197	195	194	193	194	194	195	195	196	195	193	192	192	192	194	193	192	192	191	193	194	189	189	189	191	193	193	192	192	191	192	192	192	193	191	188	192	191	191	190	192	193	194	193	192	191	190	190	191	189	191	191	191	192	192	192	191	191	190	189	189	189	189	190	189	189	188	189	191	192	192	192	191	191	191	191	190	189	189	188	189	188	186	188	188	188	189	187	188	188	188	187	190	190	188	185	185	181	188	186	186	184	185	187	187	187	184	186	187	187	187	189	188	186	184	0	0	0	0
188	191	193	193	198	198	194	194	192	192	194	194	194	193	192	191	194	194	194	196	197	195	193	192	190	190	191	195	195	195	195	195	192	196	196	195	195	195	196	196	194	194	197	198	197	196	196	196	200	199	197	195	195	196	198	199	199	199	197	197	197	197	197	198	196	196	196	197	198	198	197	198	198	197	195	192	192	194	196	195	196	199	193	194	196	197	198	198	198	197	195	195	194	194	193	193	194	193	193	193	193	195	195	194	196	196	194	193	193	194	194	195	196	196	194	194	193	193	192	199	200	201	199	198	197	198	198	197	197	195	197	197	198	198	200	198	196	196	195	193	196	196	197	199	199	197	196	193	194	195	196	197	195	196	197	200	200	200	199	199	198	199	200	196	203	199	197	197	197	198	200	201	201	200	200	201	201	200	199	198	196	195	197	198	196	198	198	199	198	199	199	201	204	204	203	203	201	201	201	198	198	198	199	198	197	196	196	198	199	200	200	200	199	199	198	196	197	197	197	198	198	201	202	202	200	197	197	199	200	199	198	198	198	198	198	198	200	200	199	199	200	202	202	204	205	200	201	202	201	201	198	200	201	198	198	200	201	200	200	200	200	201	200	199	198	198	199	198	200	201	201	200	201	201	200	200	199	201	202	202	204	203	204	201	200	198	197	199	199	199	198	198	199	200	199	197	196	199	200	199	199	199	199	200	200	200	200	199	200	200	200	200	200	200	199	198	199	199	200	201	201	201	200	199	199	199	200	200	200	200	200	200	200	201	202	201	201	199	198	198	197	198	197	197	195	199	201	202	203	204	204	202	202	204	202	202	203	202	203	203	202	202	201	202	202	201	200	201	202	204	204	201	200	201	201	202	202	200	197	198	199	200	200	200	202	201	201	201	199	199	199	201	199	200	202	202	202	201	201	199	200	200	200	200	200	203	202	201	203	203	201	203	202	201	202	203	202	202	200	199	198	198	200	200	200	201	201	201	196	194	196	197	199	199	199	199	199	199	199	199	199	198	198	197	199	197	198	197	196	196	196	197	198	198	198	200	199	200	199	199	197	197	194	194	195	195	195	194	196	195	195	195	195	196	197	199	199	198	197	198	197	198	195	196	196	196	195	192	197	196	199	199	198	199	198	193	193	194	195	194	193	193	194	196	193	193	194	196	197	196	194	194	195	196	194	195	196	195	196	196	196	197	197	193	193	192	192	192	193	194	195	194	190	192	191	191	192	192	191	189	188	188	188	189	190	190	191	192	191	191	192	192	192	191	193	190	191	191	191	190	190	190	189	187	190	188	190	189	188	190	191	189	190	191	192	192	190	189	189	189	190	190	189	190	190	188	188	188	188	190	192	192	191	191	191	189	189	190	190	190	191	188	188	187	186	184	184	185	187	187	188	188	189	189	188	186	184	185	181	182	183	183	185	185	186	186	187	184	185	186	186	187	188	185	186	183	0	0	0	0
186	189	190	190	197	193	192	190	190	191	194	192	194	194	194	192	189	192	192	191	193	193	188	188	190	190	191	191	193	193	194	194	192	195	195	193	194	195	195	196	194	194	192	194	195	194	198	200	200	196	195	194	193	196	198	197	197	198	199	199	197	196	196	195	196	196	196	197	198	198	196	197	197	196	193	192	192	192	194	194	193	193	193	195	196	197	198	199	198	197	195	195	195	194	193	194	193	193	193	193	194	194	194	195	195	195	193	192	192	192	194	194	195	196	195	195	192	193	193	197	199	198	197	197	197	197	198	197	197	197	198	196	197	197	196	196	196	196	194	193	194	196	196	196	197	197	197	197	197	196	197	197	195	194	196	195	195	195	198	199	199	199	199	197	198	198	197	195	195	196	196	198	198	198	199	200	200	198	197	197	193	197	194	198	196	197	198	198	197	196	200	200	201	199	200	201	197	198	197	198	198	197	196	197	196	195	196	198	198	199	198	198	197	197	196	197	196	197	199	199	197	198	201	202	202	198	197	198	199	199	197	197	198	197	199	199	199	200	199	198	201	202	201	200	199	199	200	201	201	198	200	200	201	198	198	197	199	198	199	200	199	199	199	200	198	199	198	198	198	201	200	200	200	201	201	200	199	200	199	200	202	201	201	198	197	195	199	198	199	199	199	201	201	200	199	199	197	198	198	198	198	199	199	197	199	197	200	198	199	199	198	199	200	199	196	195	197	199	200	200	201	201	199	198	198	198	199	199	200	200	198	198	199	200	201	201	200	198	198	198	198	198	198	198	196	199	201	202	200	200	201	202	202	201	203	201	201	203	203	202	201	200	201	202	202	201	199	200	201	201	199	200	199	199	200	202	202	202	201	198	200	199	199	198	201	197	200	201	201	200	199	199	198	200	201	201	201	200	199	198	200	200	201	200	200	199	200	201	201	203	203	202	202	200	200	202	202	201	200	199	198	199	200	199	200	201	200	200	198	197	197	196	195	198	198	199	197	197	198	200	199	199	199	198	197	197	198	196	195	195	196	196	197	197	197	197	197	199	199	199	197	196	196	196	195	195	193	194	196	194	194	194	195	196	196	196	196	196	196	196	196	198	195	195	196	196	195	195	194	197	196	198	198	196	198	193	193	193	193	193	194	192	193	194	192	192	195	197	198	196	194	194	194	197	196	195	193	195	190	190	194	196	196	194	192	191	190	191	194	193	189	189	190	191	191	192	192	192	192	191	191	189	188	188	189	189	190	191	193	193	191	191	191	191	191	191	191	190	190	190	190	188	188	187	191	191	189	190	188	188	189	189	189	189	190	193	189	189	190	188	188	190	188	189	188	188	188	187	187	190	190	190	189	189	190	188	188	188	188	186	188	187	186	187	187	186	187	187	186	187	187	187	187	188	187	186	184	184	184	184	184	184	184	184	185	184	184	183	186	186	186	187	185	185	184	183	0	0	0	0
186	186	192	191	191	193	193	191	191	188	189	189	191	191	191	191	191	190	190	189	190	189	188	188	189	191	191	191	193	193	192	193	194	193	193	193	194	195	196	195	193	191	191	190	191	192	194	195	196	195	195	193	192	196	196	196	195	195	194	194	194	196	195	195	193	194	194	196	196	194	194	195	196	195	192	195	191	192	192	194	194	193	190	192	196	196	195	196	198	194	194	194	194	194	193	193	193	191	193	193	194	194	194	194	194	195	194	194	194	192	194	194	195	196	195	192	193	193	193	197	197	196	194	194	194	194	193	194	195	196	197	199	196	195	195	195	196	195	192	192	193	194	196	196	197	195	195	197	197	197	196	196	196	196	196	193	193	194	194	197	198	197	198	198	197	197	196	194	193	194	193	199	198	198	197	199	198	198	196	194	194	194	195	198	196	197	197	195	194	194	197	201	201	199	200	200	199	197	197	197	197	197	197	197	195	195	199	198	196	196	198	196	196	197	196	198	197	198	199	198	199	199	200	202	197	196	196	198	198	198	197	197	197	199	198	199	199	199	200	197	197	198	199	198	198	198	198	198	200	198	200	201	201	200	200	201	199	198	199	199	199	199	199	198	197	195	197	196	196	198	199	198	199	200	198	196	198	199	199	198	200	199	199	198	196	197	199	198	198	200	200	200	199	200	198	198	196	198	197	199	198	199	198	197	196	197	197	198	196	198	198	197	200	192	196	196	197	199	198	199	199	199	198	197	198	197	198	199	199	197	197	197	197	200	200	199	199	197	198	198	199	199	199	198	196	196	199	197	198	198	199	199	200	200	202	202	201	201	201	200	199	200	201	202	202	199	199	199	200	197	198	197	198	199	199	202	201	201	202	201	199	200	199	196	196	195	200	200	200	200	199	199	199	197	198	198	200	200	200	200	200	200	201	202	200	198	199	200	201	201	203	202	201	199	198	199	200	200	199	201	201	201	199	198	198	199	199	201	197	198	197	197	194	197	197	198	196	197	197	199	201	199	198	198	197	197	199	197	194	195	195	196	197	197	197	196	196	199	198	199	199	197	195	196	195	194	194	193	196	197	195	195	194	196	196	196	195	195	194	196	195	194	194	191	194	194	194	195	197	193	195	196	196	196	196	192	193	193	193	193	194	195	193	194	192	194	194	194	193	194	192	195	196	197	196	195	192	194	190	189	193	195	194	195	194	192	190	192	193	192	191	190	189	188	190	190	191	191	190	190	193	190	188	188	187	187	188	188	193	194	190	189	189	192	192	192	191	191	190	191	191	188	186	186	187	187	189	189	188	188	188	189	188	188	189	186	190	190	189	187	188	189	187	188	188	186	188	188	188	188	187	187	187	187	186	188	186	183	184	185	185	185	186	186	187	189	190	189	189	186	187	186	187	186	186	185	184	186	183	185	185	184	184	184	185	182	183	183	181	181	184	184	184	186	184	186	0	0	0	0
186	186	191	191	191	192	190	189	188	188	187	189	190	190	190	189	191	190	190	188	190	188	188	190	190	191	192	192	193	193	193	193	192	193	193	194	193	195	196	195	190	190	190	189	189	191	192	194	195	195	195	193	192	190	195	193	192	194	194	193	194	193	194	195	193	194	196	196	193	193	193	193	194	195	196	193	192	191	191	192	192	190	194	192	191	192	192	191	192	195	193	192	193	193	193	193	194	191	191	191	192	194	195	193	194	194	194	194	193	192	193	194	194	194	194	193	193	194	194	193	192	193	193	193	193	193	193	192	194	196	198	197	196	195	193	195	192	193	191	192	193	193	195	197	195	195	196	197	197	198	195	195	196	196	193	191	192	193	193	192	197	197	195	197	197	194	192	192	193	193	194	199	198	197	195	196	195	197	195	194	197	197	198	199	199	197	195	192	193	193	194	194	200	200	200	197	197	196	197	197	198	200	201	200	199	200	199	198	196	196	198	197	196	196	199	199	199	199	197	197	198	196	196	197	196	195	193	194	195	196	197	196	196	198	197	197	196	198	200	197	197	198	197	198	195	194	196	197	198	201	201	202	202	198	198	197	197	197	199	201	200	199	198	197	197	195	197	195	196	193	198	198	196	196	195	196	197	197	198	198	198	199	199	199	197	197	199	199	199	199	200	199	199	199	198	197	197	197	196	196	196	198	196	195	194	195	197	198	197	196	198	199	197	196	193	194	197	197	200	200	198	197	197	196	198	197	197	198	197	197	197	198	197	197	197	197	196	195	198	198	198	198	200	198	198	196	195	196	196	196	197	197	198	199	199	201	201	200	200	201	200	200	200	201	200	200	199	199	199	197	195	195	196	197	199	200	200	200	201	200	200	199	199	198	196	197	198	200	199	199	199	199	197	198	197	197	197	199	199	200	200	201	200	199	198	197	198	199	198	198	198	202	200	199	198	196	196	195	197	197	197	198	199	198	197	197	197	197	198	199	199	198	198	197	196	196	195	197	196	196	195	196	197	196	196	196	197	197	194	194	195	196	198	197	196	195	196	196	197	199	199	196	194	195	196	194	194	193	194	195	195	196	197	196	196	196	195	194	194	193	191	195	190	193	192	192	193	195	196	195	194	195	193	193	193	193	193	192	192	193	192	192	195	191	191	194	194	194	192	192	191	190	191	193	195	194	193	191	190	190	191	192	194	196	196	193	193	192	192	191	191	189	191	188	190	191	191	190	189	192	191	188	189	188	186	187	187	188	190	193	188	188	188	191	188	189	191	190	190	191	190	191	189	184	184	187	186	185	186	186	187	187	188	187	187	188	186	188	188	188	187	188	188	188	183	183	186	187	188	188	188	188	187	186	186	186	185	183	183	184	184	184	185	185	186	187	189	189	189	187	186	186	186	186	185	185	185	183	185	185	185	184	181	182	182	183	182	180	179	179	180	184	184	185	187	184	0	0	0	0
184	186	192	193	193	190	190	189	188	188	188	186	188	188	188	189	190	187	186	186	188	188	190	190	190	191	192	193	192	190	190	191	192	193	193	193	191	193	194	190	191	189	188	188	188	190	191	192	194	195	192	192	189	189	189	190	191	189	189	193	194	193	193	193	192	192	192	192	192	190	192	193	193	194	192	193	192	191	191	191	191	194	192	194	192	192	192	192	192	192	193	190	190	191	191	189	189	189	193	193	194	194	193	194	190	193	192	193	192	191	190	192	192	194	194	195	191	192	192	192	193	193	193	192	192	192	191	192	193	194	195	191	192	193	193	192	191	190	191	191	193	194	195	195	194	194	195	197	196	194	194	194	194	194	193	193	193	193	193	192	194	195	196	196	197	192	191	192	193	196	198	199	196	194	194	194	195	195	194	196	196	197	199	197	199	195	194	193	193	193	194	194	195	196	199	198	196	194	193	196	197	196	194	194	198	198	198	197	196	197	197	196	196	196	198	199	199	198	196	196	195	196	196	196	196	195	193	192	193	195	196	197	196	195	196	196	195	196	198	199	198	198	196	193	193	194	198	198	200	200	202	201	200	198	198	197	198	197	198	197	199	198	198	199	198	195	197	196	196	193	193	193	195	195	198	198	197	197	196	196	197	199	199	199	197	198	199	199	199	199	199	199	199	199	196	195	195	196	196	196	196	194	195	193	194	195	197	198	197	197	198	198	198	196	195	196	197	198	200	198	197	196	195	195	195	194	196	196	195	197	197	197	198	198	196	195	195	195	194	198	198	198	198	199	198	198	194	194	196	196	195	195	195	196	198	198	198	200	200	200	199	199	199	200	200	198	197	197	197	196	195	195	196	196	198	197	199	198	200	199	199	198	197	196	196	196	197	197	197	200	198	199	198	196	196	196	199	200	199	199	200	199	198	197	197	198	197	196	197	198	198	198	198	198	197	196	197	196	196	197	197	195	198	198	198	199	197	197	196	196	197	198	196	196	196	196	195	194	196	195	194	196	195	195	196	195	193	193	193	194	195	196	197	197	196	195	194	194	192	193	194	192	192	192	192	194	194	193	193	194	196	197	197	197	198	195	193	192	192	191	196	195	194	194	194	193	193	194	191	193	191	192	193	193	191	192	192	192	191	189	189	190	187	187	191	193	195	194	194	193	192	190	191	193	194	194	192	190	189	188	188	188	187	190	190	189	190	191	191	190	190	188	189	188	189	190	190	189	189	192	190	189	187	188	187	186	186	187	188	192	190	190	188	186	187	187	191	190	190	190	190	187	185	184	186	186	186	185	183	184	186	186	187	187	187	188	190	189	189	188	188	190	189	190	183	183	186	186	187	188	188	186	185	184	184	184	184	184	184	184	185	184	183	183	186	187	187	187	186	186	186	186	187	185	185	186	183	186	186	186	185	185	180	182	181	183	181	179	179	180	180	181	184	184	183	183	183	0	0	0
186	186	187	190	190	190	188	189	190	190	188	189	188	188	188	187	187	186	187	187	187	188	190	190	190	190	190	191	190	191	191	192	192	191	190	191	193	187	187	189	190	189	187	187	189	189	191	192	193	192	191	191	187	187	188	190	188	187	188	188	189	191	191	191	191	190	192	188	188	188	188	191	193	192	192	192	191	190	190	191	191	192	191	191	191	191	190	191	192	191	192	190	188	187	188	188	188	189	192	192	192	191	190	191	188	189	189	191	191	191	189	190	191	194	192	191	191	188	191	193	194	194	192	192	190	190	192	192	191	191	191	190	191	192	192	189	190	190	190	191	192	192	192	194	194	194	196	194	194	193	192	192	192	191	192	192	194	194	192	191	191	189	192	193	197	196	191	190	194	194	195	196	193	193	193	193	195	195	195	195	195	195	196	196	197	194	194	192	193	195	194	194	196	193	194	195	194	193	194	194	195	195	194	194	198	197	196	195	195	195	197	196	193	194	196	198	198	196	196	197	195	196	196	195	196	196	193	192	193	196	198	196	197	197	195	194	195	196	199	200	200	198	196	194	193	194	196	197	196	196	197	197	199	196	196	196	196	195	196	195	197	196	195	195	195	196	195	196	195	193	194	193	195	196	198	198	198	198	198	196	197	199	198	198	195	197	197	196	198	199	198	197	197	196	195	193	195	194	195	196	197	195	194	194	194	194	194	195	194	196	197	197	197	197	197	197	196	196	196	196	196	195	196	194	193	194	196	196	196	197	198	198	197	197	196	194	194	192	194	197	197	197	197	197	198	198	195	195	195	196	196	193	193	195	196	196	197	199	200	199	198	197	198	200	200	199	197	197	196	196	196	196	196	197	197	197	199	194	197	198	199	197	197	196	196	193	194	194	195	195	199	199	199	198	196	199	199	199	199	199	197	196	197	197	196	198	196	195	195	195	195	196	196	196	195	195	198	195	196	197	195	195	197	198	198	197	197	196	195	195	196	196	195	192	192	195	195	196	196	196	195	195	195	194	193	192	193	192	192	193	192	193	195	195	195	193	192	193	193	193	193	192	191	190	191	193	193	192	192	192	194	194	197	195	194	193	193	191	191	193	193	191	190	192	191	193	193	192	191	189	191	191	192	192	192	191	191	190	189	190	191	190	189	187	188	193	194	194	194	192	192	189	191	193	193	190	190	189	189	185	184	187	188	188	189	189	189	191	189	188	190	190	190	187	188	189	190	188	188	189	187	187	188	189	189	187	186	187	184	185	191	190	188	187	186	187	187	188	188	188	187	185	183	181	184	183	184	184	183	183	186	186	187	185	186	187	188	189	188	186	185	186	184	182	183	183	184	186	185	187	186	186	185	185	184	184	184	183	183	184	184	184	184	183	182	181	181	183	183	185	185	185	184	184	184	184	183	186	186	185	184	184	180	178	180	180	180	180	179	180	180	180	181	182	182	183	183	0	0	0
186	186	187	187	189	189	190	188	190	190	190	191	187	187	186	186	186	186	186	188	188	188	190	190	190	190	190	189	190	189	189	189	189	190	190	188	187	187	187	188	188	188	187	188	188	190	191	192	192	192	191	189	189	186	187	190	189	188	188	188	189	190	190	190	190	192	189	189	189	189	189	188	188	189	192	191	191	190	190	191	191	191	189	189	190	190	190	190	189	188	188	187	187	187	186	187	187	187	189	193	190	189	189	189	187	189	188	188	190	189	189	189	190	192	192	192	188	189	190	191	194	193	192	191	191	190	190	192	190	189	191	191	191	191	189	188	191	191	189	191	192	192	192	191	194	195	194	193	193	192	191	191	191	191	190	192	192	192	192	192	189	191	192	193	193	196	190	190	192	195	196	194	194	192	192	191	192	191	191	193	193	193	195	195	196	192	192	193	195	195	194	193	195	196	195	191	192	191	193	194	194	194	193	195	195	195	195	194	193	195	196	195	194	194	196	195	195	193	194	195	194	195	195	196	197	195	195	194	195	195	198	196	196	196	193	193	194	196	196	198	197	196	194	194	195	195	196	196	195	194	196	194	197	196	196	193	192	194	195	195	194	191	190	194	194	196	195	193	192	193	194	193	194	197	198	197	197	196	193	194	195	197	196	193	193	196	196	197	196	196	197	197	196	194	194	193	193	193	195	197	196	196	194	193	195	195	195	194	193	194	194	194	194	193	193	195	196	195	195	194	195	198	195	195	194	195	196	196	197	196	198	198	197	196	194	194	193	191	194	194	194	195	195	197	197	193	194	195	196	194	194	193	194	195	194	195	196	198	199	198	197	197	197	200	199	197	195	195	197	197	196	196	196	197	197	196	194	194	195	196	196	196	196	195	195	193	194	194	194	196	197	199	198	199	198	201	199	199	197	196	195	195	195	194	194	193	194	195	195	195	195	195	195	195	194	193	193	197	195	195	195	194	193	194	194	197	194	194	193	194	194	194	194	191	192	195	194	193	192	193	194	193	193	193	192	191	192	191	192	192	192	192	191	193	192	191	192	193	193	193	193	192	190	191	191	191	193	191	193	191	191	190	194	194	193	192	190	193	193	194	190	190	189	189	190	192	193	189	189	189	190	190	190	188	187	189	188	189	190	190	190	188	188	188	188	187	190	191	187	186	186	188	190	190	192	188	188	187	188	189	189	190	183	185	187	187	186	185	185	186	187	187	187	187	186	184	186	187	188	185	185	185	188	186	187	188	187	184	184	185	184	188	188	187	187	187	187	187	186	186	185	182	183	181	181	183	183	184	183	183	186	186	185	185	186	186	188	188	188	184	184	184	184	182	183	183	184	183	183	185	185	185	185	186	184	184	183	183	182	182	182	184	184	184	182	182	180	183	182	184	184	184	183	183	184	183	182	182	186	184	182	181	181	179	180	182	181	181	180	180	180	180	181	181	181	181	180	0	0	0
