680	681	683	683	687	687	679	682	682	687	692	691	687	683	683	672	665	668	669	672	672	677	684	690	675	672	668	668	669	678	689	693	686	678	671	671	670	675	676	677	680	680	679	680	680	673	667	657	653	657	660	663	667	669	671	672	672	678	684	687	686	685	684	676	676	681	694	696	689	683	680	681	683	683	689	691	696	695	683	681	675	674	678	678	677	674	673	671	658	663	664	667	667	673	677	681	687	689	684	674	666	665	670	675	682	682	675	671	670	675	683	687	690	683	679	682	674	671	674	687	696	694	682	672	665	668	674	676	673	675	677	682	683	681	677	666	671	673	673	670	670	677	679	680	679	681	679	674	671	666	658	652	645	648	652	659	670	683	678	666	666	665	662	661	682	684	682	678	674	671	672	679	682	678	669	672	677	678	680	675	671	675	673	669	664	662	661	665	673	676	676	676	664	659	664	677	676	675	685	681	677	680	687	685	679	675	674	675	678	675	671	667	670	668	671	670	668	662	669	672	672	668	668	669	669	669	666	663	663	670	670	668	668	668	666	666	668	668	666	658	660	667	674	673	668	665	668	671	668	662	660	669	678	678	668	656	654	661	667	672	675	671	658	652	647	648	657	667	672	676	672	664	671	670	666	668	671	673	668	676	677	680	678	680	678	678	684	683	683	679	673	672	675	687	689	684	680	678	680	677	688	698	704	704	700	679	678	683	683	679	670	661	660	665	668	673	675	670	677	679	677	673	674	675	672	668	672	677	680	687	687	687	683	675	669	669	670	673	671	665	664	669	677	682	685	681	671	649	654	658	668	672	674	673	670	672	679	689	694	691	680	675	670	671	671	678	690	691	687	685	678	672	681	685	688	689	692	693	699	695	692	694	699	698	700	703	701	699	697	692	685	680	689	689	691	682	671	667	673	681	688	686	680	680	682	688	689	686	680	670	664	666	676	681	684	684	675	665	667	665	672	675	683	689	690	689	686	689	682	676	667	669	674	676	680	691	697	701	698	696	687	690	688	685	682	698	708	711	699	689	694	705	707	713	709	706	694	684	676	673	681	687	683	685	685	690	695	702	701	697	696	696	701	702	703	700	697	692	690	683	683	669	673	682	691	685	689	687	678	664	661	666	668	670	668	666	674	689	691	687	687	686	684	679	680	678	684	690	689	684	677	674	672	675	673	671	680	686	687	687	688	688	677	662	661	676	681	687	697	702	694	690	684	683	675	672	678	685	691	693	688	680	678	684	689	689	684	688	691	694	698	705	705	702	700	694	695	692	678	675	677	682	687	686	692	695	698	696	703	713	717	713	703	691	684	688	700	708	708	705	702	704	700	698	696	692	691	688	687	686	685	686	685	688	691	693	696	699	696	694	692	695	698	702	706	701	702	701	701	691	687	688	691	691	689	682	679	680	685	690	680	682	688	691	691	687	684	686	693	696	693	693	0	0	0	0	0	0	0	0
656	657	662	662	671	668	662	665	665	672	681	681	673	664	664	662	662	662	663	663	666	666	675	678	664	664	660	659	659	668	675	675	667	656	656	656	660	666	669	671	666	668	666	662	655	655	646	645	646	647	648	654	657	657	664	667	667	671	675	672	667	665	665	663	664	669	681	681	669	662	662	666	667	667	672	676	678	673	665	658	657	662	667	671	668	667	660	650	646	646	651	657	647	642	645	654	658	659	663	663	652	656	665	670	670	667	665	663	658	659	667	673	672	664	662	654	648	643	645	664	675	676	672	665	657	652	661	657	659	664	667	669	664	658	658	660	663	667	666	659	657	659	665	668	662	662	661	655	653	650	644	634	629	635	638	644	647	649	647	646	647	650	652	653	662	666	664	659	656	651	652	652	651	654	651	651	651	659	668	652	651	654	657	653	650	648	652	652	656	654	655	652	648	648	648	658	661	654	648	647	663	664	669	665	652	649	651	654	660	664	661	648	645	648	652	653	652	651	656	659	661	653	651	655	656	656	653	651	644	649	654	650	652	654	654	657	657	654	642	644	652	655	656	648	645	647	644	642	644	643	647	649	648	643	640	639	643	647	650	649	647	648	647	646	642	641	643	644	644	642	642	647	653	659	663	659	656	653	655	654	662	669	674	672	670	667	644	641	645	648	649	648	652	664	671	676	675	678	679	673	664	665	663	663	646	650	662	666	669	665	663	657	654	657	660	661	661	662	668	673	671	668	665	665	659	648	652	660	672	675	679	680	674	666	663	662	662	662	662	661	662	666	668	666	661	657	651	646	642	646	656	660	663	661	659	657	655	651	651	655	655	655	656	657	659	662	676	681	679	672	663	657	664	671	677	677	680	682	686	677	679	678	676	672	672	673	682	684	672	663	657	654	662	662	667	666	660	658	660	668	658	664	665	658	656	661	672	667	661	654	651	652	652	652	651	655	655	657	661	662	664	663	665	682	686	680	675	675	667	660	660	660	662	661	665	671	675	678	680	677	677	677	671	669	667	668	671	664	671	670	680	692	695	704	692	685	670	671	669	665	666	669	665	673	675	675	680	683	672	672	673	678	684	687	684	678	674	676	678	667	664	658	655	653	671	673	670	670	657	651	647	653	661	664	665	665	666	664	677	676	677	678	674	666	669	661	652	655	659	668	666	662	661	666	665	663	666	664	663	662	658	658	657	654	649	649	654	663	671	675	675	677	677	674	669	664	664	671	678	680	677	666	666	668	671	667	665	670	674	674	670	665	662	661	661	663	660	649	654	660	663	662	662	656	662	674	686	689	692	699	701	698	688	672	664	670	676	691	689	685	680	685	684	685	684	679	676	671	671	672	674	673	673	672	676	680	682	682	678	677	675	676	682	686	682	682	686	687	681	670	667	666	666	666	664	656	651	649	647	650	659	664	672	675	671	669	671	671	673	677	677	676	0	0	0	0	0	0	0	0
633	637	647	647	650	649	648	652	662	662	667	667	664	656	656	651	653	657	657	653	654	654	660	641	637	636	637	635	635	637	635	636	636	633	640	640	650	655	656	642	642	643	643	641	642	642	641	640	641	640	640	644	646	651	658	664	664	666	667	662	658	655	656	654	656	655	654	650	648	646	647	648	645	645	646	648	652	651	648	638	635	640	650	657	659	660	655	652	645	641	640	639	635	635	644	650	652	651	651	649	645	646	654	661	658	651	650	652	650	644	646	648	651	651	650	644	635	630	635	636	635	642	650	652	643	637	634	635	647	652	656	654	642	643	646	650	650	651	653	655	648	644	638	633	636	642	649	645	639	633	625	617	619	624	627	630	628	631	629	634	639	641	639	635	643	646	646	646	641	634	629	633	636	635	631	625	624	629	633	634	629	630	637	640	638	637	633	635	632	627	630	637	637	637	640	643	640	637	624	617	622	624	625	636	636	640	642	644	646	645	643	632	629	631	635	638	640	640	642	643	638	638	639	635	640	638	636	632	630	633	634	630	637	642	642	630	624	617	617	628	638	644	643	640	640	638	637	635	636	635	636	634	636	637	637	637	637	639	634	631	630	626	635	639	636	629	622	619	616	622	625	631	638	646	651	650	646	644	646	645	639	631	662	663	653	646	634	638	641	642	641	642	639	639	645	652	660	671	652	642	632	632	635	635	634	637	642	648	651	651	653	648	645	643	645	649	645	636	639	643	646	657	653	649	643	640	640	645	654	660	667	664	655	657	657	658	657	653	650	652	660	666	661	658	653	647	645	637	634	637	640	647	645	643	647	651	651	648	646	650	650	649	645	644	652	657	658	658	656	656	655	654	651	659	662	656	651	657	663	662	663	663	659	662	652	652	654	654	648	641	638	637	643	648	658	659	657	654	648	640	641	646	654	651	646	642	644	651	643	643	643	638	638	638	639	637	644	647	646	657	660	655	647	644	660	669	662	656	651	644	647	650	648	649	651	661	664	663	662	664	661	659	660	658	656	650	648	644	652	662	662	662	666	666	668	657	656	651	658	659	653	648	655	655	657	663	669	670	648	658	661	664	668	670	663	658	638	645	644	648	653	650	640	633	617	634	642	647	641	637	638	643	648	658	661	661	660	655	655	666	669	670	659	656	654	654	645	637	634	638	648	650	657	658	659	657	656	656	652	651	650	650	651	647	642	635	636	648	656	661	662	664	664	665	662	660	656	658	664	665	662	654	648	645	648	645	644	646	653	658	654	646	643	642	648	647	633	631	634	643	649	647	646	640	641	653	659	664	669	677	684	678	663	644	640	645	646	649	652	654	657	655	657	669	672	668	662	658	659	658	662	660	661	654	659	662	661	657	656	653	653	660	667	669	665	654	651	653	654	648	647	647	645	645	645	638	633	631	630	634	641	649	653	654	655	650	645	644	641	635	635	632	0	0	0	0	0	0	0	0
627	630	628	628	628	627	632	641	646	646	651	649	648	642	642	641	646	649	646	639	638	638	619	620	623	623	623	626	626	625	621	619	618	617	626	633	633	638	626	619	621	625	625	628	631	631	635	632	632	629	628	635	638	639	646	655	655	656	648	642	638	639	642	647	651	649	643	637	631	630	627	623	628	628	630	627	627	630	625	622	624	622	622	631	636	643	647	648	644	636	630	622	617	620	626	630	636	637	636	629	630	629	637	632	621	627	629	633	633	631	627	626	628	641	638	628	617	610	613	621	628	633	632	622	616	611	605	607	619	627	631	632	630	628	627	625	625	624	624	625	627	626	623	625	629	630	633	634	630	626	621	616	616	619	621	622	623	619	618	624	629	629	626	622	623	624	629	629	631	627	616	616	620	620	608	607	614	619	619	617	616	616	613	605	601	602	609	609	606	612	616	620	625	624	626	631	627	621	612	606	606	609	612	611	612	630	633	635	637	637	633	621	619	613	620	627	628	629	626	625	628	626	625	622	621	619	613	615	617	620	612	602	603	609	618	617	611	606	607	614	621	624	629	632	637	637	631	630	627	625	621	623	628	632	631	630	630	627	623	620	617	617	621	624	628	616	611	610	610	612	613	616	616	619	626	626	623	622	626	630	623	621	624	621	630	628	626	631	635	636	637	635	629	622	619	617	619	624	626	627	620	620	624	624	625	626	631	638	640	642	641	636	630	623	623	623	624	623	627	627	626	630	629	627	627	623	626	628	632	635	637	639	644	647	644	643	636	629	615	610	619	621	617	619	620	623	623	620	624	629	634	639	640	640	639	632	624	618	635	646	643	631	617	613	620	635	642	645	640	634	629	633	640	650	647	641	636	639	646	652	651	647	646	642	642	640	640	644	639	635	630	630	635	638	635	632	606	602	608	621	634	639	639	640	636	627	627	627	625	628	628	629	628	626	624	625	627	632	642	647	650	647	641	636	634	638	638	634	629	624	625	632	632	637	641	644	649	649	644	638	639	642	645	646	646	643	638	635	635	634	645	648	651	656	652	647	643	640	642	643	644	646	644	641	642	645	652	650	634	621	638	645	646	639	626	623	629	634	635	628	622	620	621	619	612	612	612	615	614	616	631	636	641	645	647	653	648	645	646	648	646	638	635	631	647	646	639	631	630	631	631	634	641	640	651	651	652	645	640	634	634	640	638	632	632	627	631	642	648	650	647	641	638	643	653	653	649	648	650	652	649	642	639	637	633	629	631	638	639	639	645	638	635	635	632	623	618	618	619	622	634	638	631	629	628	640	646	644	637	641	650	651	645	639	635	631	628	624	629	642	649	641	642	643	645	652	650	647	646	647	647	644	633	635	639	640	617	611	609	613	622	634	649	656	650	646	642	642	639	633	628	633	633	632	630	629	623	621	618	624	630	637	643	644	643	636	630	624	619	617	617	619	0	0	0	0	0	0	0	0
617	618	612	612	606	610	620	629	630	630	629	628	625	622	623	623	625	633	635	627	621	621	599	603	607	612	614	615	615	615	611	606	601	605	610	615	615	610	607	606	607	607	614	613	617	617	615	617	616	621	625	626	622	617	614	619	619	628	631	629	625	622	621	624	623	627	624	625	620	616	615	613	616	616	623	624	623	621	617	615	617	617	618	622	626	629	634	636	622	620	616	609	605	608	614	616	622	622	622	620	620	617	613	609	606	616	618	624	623	623	618	616	615	614	615	610	603	601	608	616	625	626	622	608	601	597	597	600	606	612	614	616	618	617	614	616	617	617	618	621	620	619	618	619	625	623	619	621	621	616	612	610	608	614	617	619	615	612	604	603	604	606	605	603	608	608	611	618	620	616	608	605	610	605	599	599	600	604	606	605	602	602	597	591	590	591	596	597	593	591	595	596	598	605	610	614	607	599	598	598	599	598	601	598	596	602	604	604	627	628	625	609	605	605	606	610	616	616	614	616	618	617	611	609	606	604	598	598	605	611	602	599	599	603	600	601	602	603	607	611	608	604	602	607	616	625	624	616	614	609	613	610	608	610	609	611	621	616	611	609	608	607	607	610	609	606	605	607	607	603	604	603	605	605	599	598	598	604	608	609	609	612	609	605	600	598	611	614	620	627	627	624	619	616	611	612	615	617	615	610	609	612	616	614	613	614	619	625	627	627	626	620	612	608	610	612	613	614	616	615	611	607	606	609	609	608	601	605	609	617	618	620	621	625	624	621	614	607	604	601	600	597	597	602	607	612	611	617	624	626	632	636	638	638	627	612	606	610	611	615	620	616	605	601	603	613	619	619	612	603	602	604	614	620	630	624	622	620	621	621	621	621	617	618	627	631	631	631	626	624	617	609	610	617	609	608	603	597	599	611	623	629	628	625	622	617	611	603	605	606	608	611	614	610	609	607	612	619	624	630	634	630	629	627	624	624	619	621	615	613	608	608	608	610	613	627	635	632	628	622	620	620	624	629	635	633	628	624	623	624	633	637	639	631	627	624	622	629	632	640	639	640	635	630	632	635	644	638	619	616	617	615	631	628	621	618	621	626	623	616	612	611	613	613	610	607	606	606	604	604	610	613	617	613	622	622	620	621	626	628	628	621	612	604	620	637	634	629	624	616	619	625	633	635	634	638	638	628	623	621	622	622	624	623	621	623	625	632	635	637	629	625	619	623	624	630	635	634	632	634	634	627	626	624	623	624	627	632	631	633	631	632	631	628	623	614	611	608	610	615	621	625	626	625	625	629	631	628	623	626	638	637	634	626	617	610	608	608	615	625	637	634	623	621	624	626	636	632	631	620	620	617	618	611	611	611	609	605	601	600	600	618	629	628	633	637	634	628	622	615	615	619	619	624	623	620	616	609	603	603	611	618	621	619	615	613	614	612	610	608	608	612	0	0	0	0	0	0	0	0
607	600	596	596	590	597	608	612	614	614	609	607	602	598	600	600	605	605	607	602	600	580	581	587	593	601	602	596	596	596	597	595	596	600	601	603	603	601	597	598	597	599	601	604	606	606	605	603	606	612	615	611	607	595	601	612	623	623	627	626	620	615	610	609	610	612	611	612	610	607	605	604	606	606	615	616	621	620	618	614	614	613	612	611	614	616	613	607	600	602	600	595	592	597	603	606	606	607	605	606	606	609	602	597	594	594	606	613	610	612	610	607	602	600	599	599	595	596	598	601	603	601	600	597	589	586	589	595	596	603	609	610	611	606	602	606	609	610	611	615	616	614	612	613	614	612	607	602	607	605	602	601	600	603	606	606	605	592	588	592	596	599	598	598	601	598	595	597	590	586	584	586	594	595	596	594	591	593	594	592	600	599	595	591	589	588	589	593	594	594	590	580	579	579	586	587	590	586	586	587	588	589	586	588	590	591	592	593	594	592	609	608	591	594	597	599	604	609	611	611	611	604	604	600	596	595	589	590	597	603	593	592	591	591	589	590	595	600	601	600	600	596	593	591	596	598	595	589	596	599	594	590	597	600	600	603	606	603	595	587	585	591	600	604	603	601	599	596	594	595	598	595	594	597	595	595	592	595	599	596	591	590	590	592	594	591	591	593	606	605	602	598	600	602	606	611	613	609	605	599	595	601	605	607	609	603	605	608	614	613	610	608	600	597	600	602	606	608	605	601	599	597	596	595	598	601	596	595	605	608	612	609	608	606	610	603	600	600	594	594	592	592	593	593	597	598	602	613	615	615	618	619	619	619	607	601	596	596	602	606	606	600	598	595	594	595	585	586	592	594	595	599	603	605	607	603	604	607	608	605	605	606	608	608	610	609	611	613	615	610	597	602	600	598	601	600	598	592	591	594	600	604	596	592	597	590	588	586	586	593	595	592	591	595	595	595	596	603	608	614	617	613	615	613	608	610	611	607	608	609	605	597	595	600	609	614	617	620	615	606	613	615	613	612	625	624	617	613	608	593	612	616	616	605	607	609	612	610	620	623	631	634	629	626	625	629	634	617	612	601	602	600	601	619	618	615	614	617	613	601	597	598	599	605	606	604	602	600	595	596	598	601	602	601	605	608	613	612	613	616	614	606	593	587	592	603	612	612	604	601	601	601	619	615	613	609	607	607	607	608	610	611	614	614	612	615	614	606	614	618	612	610	611	613	610	607	609	610	614	616	610	612	616	612	613	613	615	624	627	617	617	614	612	607	600	602	601	606	609	613	614	609	599	598	613	615	613	617	612	610	611	611	604	598	595	588	589	599	608	611	611	603	597	600	610	616	616	612	608	607	606	605	587	588	593	602	602	596	588	582	578	577	584	597	614	625	624	617	610	604	601	601	601	596	596	601	602	597	595	597	600	603	607	610	608	606	605	606	604	603	603	604	0	0	0	0	0	0	0	0
585	579	574	577	577	587	595	600	596	596	594	591	583	577	578	578	588	590	590	584	580	574	573	575	580	584	586	584	584	588	586	585	582	580	577	576	576	577	584	588	591	594	597	598	598	598	598	599	601	604	599	594	591	588	595	605	617	617	621	620	604	600	593	594	591	596	586	587	588	592	597	601	603	602	602	607	609	609	605	599	594	592	601	602	600	596	598	599	601	601	594	584	583	588	595	591	585	585	587	589	592	592	591	589	589	590	592	596	597	586	577	584	584	582	585	586	585	587	590	592	590	590	585	576	571	572	577	581	588	593	596	600	595	593	591	595	599	600	594	589	582	581	592	598	602	600	593	584	590	593	595	593	594	595	594	592	587	580	581	584	589	591	590	588	591	588	586	583	575	578	583	589	590	592	591	592	588	580	579	582	589	586	585	582	580	579	582	583	582	578	576	575	571	570	566	568	574	574	573	568	571	572	576	579	586	589	593	593	591	588	580	573	572	583	586	589	592	598	606	612	609	603	594	593	587	587	585	584	585	581	584	584	577	578	580	580	584	587	590	588	588	587	581	573	572	575	577	573	569	566	566	570	581	586	592	596	595	585	577	573	573	575	588	593	593	589	587	583	578	576	582	585	584	579	589	591	590	589	587	582	582	585	588	589	588	584	581	580	581	584	593	593	597	599	598	598	599	601	594	588	587	587	590	595	597	596	589	586	589	601	598	588	585	590	594	589	588	590	592	594	593	593	590	592	589	592	593	596	602	606	608	597	594	591	591	592	587	585	586	588	588	589	588	589	587	584	586	589	590	595	599	600	602	602	597	596	594	595	594	594	598	595	589	588	586	579	576	580	584	591	590	593	594	594	594	593	593	595	597	594	595	596	599	596	600	601	601	600	594	588	577	584	595	591	589	587	586	578	582	583	581	578	577	576	574	569	567	567	575	580	582	580	578	577	577	580	580	588	597	603	601	600	599	598	593	585	588	588	594	592	591	589	591	601	604	606	605	597	591	593	591	606	603	602	604	613	611	605	587	581	585	590	595	595	595	595	595	598	595	604	602	606	610	608	604	602	600	590	592	592	590	586	585	588	593	593	592	592	594	590	579	581	590	599	599	597	594	591	591	591	594	595	591	587	593	599	602	603	602	602	601	590	583	577	582	591	597	599	595	592	588	587	596	597	591	589	586	582	582	589	594	601	600	595	589	586	580	578	575	575	579	585	588	593	600	597	594	591	596	595	598	600	607	605	601	604	604	610	599	592	591	596	595	592	591	590	586	595	576	581	581	579	569	569	573	594	594	587	581	582	582	584	580	575	567	565	565	569	575	587	585	578	577	581	584	584	581	583	585	595	592	581	578	580	585	593	593	588	576	569	566	567	573	584	601	613	611	604	600	598	593	591	591	590	591	595	593	594	595	593	594	593	593	601	601	597	591	589	587	584	584	585	0	0	0	0	0	0	0	0
567	566	563	560	560	567	582	587	587	587	584	577	572	568	571	571	576	581	579	577	575	575	576	577	576	575	574	576	576	577	574	569	567	562	563	568	568	573	579	586	589	591	592	587	581	581	580	582	586	590	590	587	583	586	591	594	595	595	596	591	586	586	570	566	566	572	572	576	578	579	585	595	596	592	592	587	588	593	589	584	581	581	579	576	574	573	587	599	600	597	592	583	574	575	581	576	572	573	579	585	583	587	588	586	587	588	588	589	582	572	571	567	569	573	575	577	581	583	583	585	584	581	575	568	564	567	576	576	578	578	574	576	571	569	570	571	572	573	573	575	563	556	570	580	587	592	584	576	576	581	580	583	587	585	585	582	579	576	576	575	580	582	578	580	577	568	564	567	571	575	580	583	584	584	583	580	572	563	562	564	572	579	576	575	575	572	572	573	572	570	570	571	568	562	562	557	562	562	556	553	550	552	558	565	572	578	574	574	581	579	572	569	559	560	562	576	580	580	578	593	591	588	576	578	576	573	572	579	578	570	554	558	562	569	572	572	569	569	570	570	567	563	562	560	562	562	562	560	559	561	565	571	574	581	579	580	574	570	567	567	568	568	571	571	568	569	573	574	572	566	566	566	567	571	574	581	581	578	571	569	574	579	580	575	572	570	569	568	567	574	574	577	579	593	592	590	583	576	572	571	576	580	582	582	580	575	574	569	577	581	581	577	573	571	573	577	580	581	581	587	589	587	584	580	577	571	566	571	579	590	589	578	579	576	572	571	570	572	578	580	582	583	580	578	576	579	581	581	579	581	582	583	584	584	587	592	596	595	591	584	581	586	583	574	565	568	570	574	577	581	582	584	588	586	585	584	585	585	584	582	582	581	578	579	582	588	585	578	566	561	567	578	584	581	578	574	567	556	555	570	568	564	566	568	569	563	559	557	559	564	571	573	576	572	564	563	563	569	579	586	586	582	581	581	578	571	569	577	577	578	579	582	583	583	595	594	588	576	576	580	580	581	577	575	579	588	602	593	582	568	573	583	587	585	585	580	582	580	583	583	582	579	584	586	564	568	569	581	587	584	582	578	579	580	579	576	578	576	574	572	571	574	575	589	589	588	584	576	574	585	578	577	579	578	579	586	583	584	591	592	588	582	577	571	572	580	585	586	583	584	580	560	552	559	576	575	570	571	575	584	584	582	578	578	571	569	569	567	562	566	570	573	574	576	572	578	583	581	581	583	585	587	595	593	586	586	588	587	570	565	563	563	565	569	576	579	572	567	564	568	571	573	567	565	564	575	575	570	567	572	575	575	571	566	562	555	550	543	539	539	555	560	562	564	559	555	556	564	566	569	566	567	570	569	559	555	556	572	566	566	566	563	568	578	591	604	600	593	588	588	589	589	584	586	589	585	575	575	578	581	578	572	570	577	573	574	574	574	572	571	571	574	0	0	0	0	0	0	0	0
553	552	548	548	548	549	555	554	556	556	561	567	563	561	562	562	563	566	567	570	570	570	571	570	570	565	561	560	560	564	561	559	555	553	555	563	563	568	571	570	576	582	584	574	573	573	573	572	576	578	579	577	577	578	577	572	568	568	570	571	571	570	568	565	561	562	564	566	570	571	575	582	584	583	583	578	574	576	576	576	575	572	569	566	561	556	563	570	578	582	577	569	567	566	566	565	564	555	558	559	571	574	578	579	578	577	578	576	566	564	562	562	564	564	559	559	562	564	560	560	558	558	563	563	562	563	572	570	565	559	555	557	562	565	567	569	568	567	568	561	556	554	555	558	564	565	567	563	563	566	569	573	574	574	574	569	570	570	570	570	574	575	571	571	567	554	551	555	560	567	560	561	561	560	554	556	559	564	567	566	567	571	568	564	563	565	566	563	562	563	564	569	568	562	558	554	549	550	550	547	547	547	550	556	562	561	557	557	561	561	565	566	558	557	556	554	549	551	552	554	558	562	565	568	570	568	568	571	564	558	551	546	552	560	567	564	565	566	567	563	558	558	559	560	557	555	552	551	552	555	562	566	570	570	567	561	559	561	562	562	558	553	551	547	546	549	555	562	564	562	560	558	558	559	566	568	566	554	551	551	557	562	563	561	559	557	554	554	555	553	554	554	549	548	546	562	560	559	558	562	567	568	572	569	558	556	562	567	563	560	557	555	554	558	562	564	570	574	572	575	579	576	573	566	558	552	551	556	562	571	567	563	563	562	562	561	561	563	570	573	571	564	566	566	566	569	570	569	570	573	572	573	573	573	574	566	565	571	575	575	570	569	566	560	557	560	563	565	566	563	564	566	571	569	568	565	570	575	570	568	562	566	574	579	581	575	565	566	560	554	549	561	562	560	557	553	548	544	542	549	554	557	558	560	560	557	551	551	551	556	561	567	568	563	558	552	551	554	561	565	566	562	562	563	567	562	559	567	567	566	568	570	570	570	570	569	564	563	566	571	574	573	567	565	567	569	572	572	568	554	557	569	577	578	575	565	563	569	570	570	571	572	545	550	555	557	555	570	570	571	569	565	566	567	562	560	556	551	551	557	564	572	574	579	578	564	567	564	562	556	553	548	553	553	553	562	559	571	576	575	576	577	578	574	573	570	569	567	566	567	562	549	544	543	558	563	559	564	569	578	579	575	572	569	568	567	568	564	560	556	558	559	559	556	553	555	559	563	564	563	568	545	552	565	565	558	564	564	562	558	554	553	557	557	558	553	554	555	562	562	560	560	556	555	554	562	559	555	554	562	567	571	571	567	561	552	540	535	535	536	544	552	554	550	544	542	544	548	556	558	555	555	552	542	535	533	541	547	551	554	555	563	571	585	593	594	593	590	578	578	581	581	576	569	566	564	561	559	564	566	563	554	548	547	551	557	569	568	566	566	563	562	0	0	0	0	0	0	0	0
543	541	542	544	544	543	543	546	549	549	554	553	550	550	554	554	558	560	560	557	564	563	563	560	556	553	554	553	550	550	553	550	548	547	550	557	557	560	563	562	555	551	549	554	560	562	562	560	557	560	563	564	564	568	573	571	565	565	563	561	564	566	564	560	560	561	563	562	559	561	566	572	575	575	575	573	563	560	557	558	562	567	566	564	559	553	550	549	550	556	560	562	557	550	543	541	538	540	543	547	551	554	551	548	548	542	547	555	559	557	552	553	551	543	541	540	540	540	542	540	539	538	540	544	542	542	539	535	539	541	545	557	559	564	565	568	567	567	562	558	554	554	552	552	553	555	555	552	555	554	552	551	551	554	555	564	565	566	566	566	565	566	566	558	555	544	546	550	556	545	538	533	543	547	549	553	555	558	558	555	551	550	548	546	549	557	557	554	550	553	557	560	563	556	555	551	547	547	547	543	539	539	542	546	550	549	548	550	552	554	556	557	556	553	552	551	547	541	543	550	552	554	555	556	558	559	559	557	552	548	541	534	537	550	562	560	560	564	563	555	551	549	551	553	551	549	545	544	545	549	555	559	562	540	540	542	546	553	554	552	541	535	538	540	542	543	545	549	552	556	555	552	550	548	547	545	545	547	545	544	542	552	555	552	553	551	549	547	546	544	544	539	535	535	538	543	545	551	551	551	553	553	555	551	548	551	556	563	564	561	556	550	551	554	552	549	549	556	563	566	567	567	564	560	557	550	541	543	547	550	548	548	548	549	550	555	550	554	560	562	560	560	561	562	559	557	556	555	555	562	564	565	565	562	556	558	558	558	554	556	553	550	547	549	552	554	557	558	559	557	555	555	557	556	555	555	556	560	559	556	554	556	562	551	551	554	550	548	546	541	542	542	538	541	544	545	539	534	537	543	547	549	550	551	555	552	546	545	548	550	557	563	562	558	553	548	545	544	550	553	554	552	554	553	554	554	556	558	556	557	559	560	558	557	558	559	557	559	562	566	569	567	563	561	557	560	562	560	558	545	553	557	556	551	548	548	553	554	553	552	536	530	526	531	535	543	548	549	549	552	548	551	550	552	548	546	542	539	536	547	556	562	561	556	556	555	556	556	557	555	551	546	544	543	539	540	545	547	549	553	557	560	560	562	562	563	560	558	552	549	547	539	538	540	546	552	554	553	553	558	563	564	565	564	563	564	562	559	554	553	547	549	545	543	540	532	532	539	546	544	539	532	527	553	558	545	545	548	548	548	548	549	550	550	543	539	535	531	526	529	542	545	543	540	543	539	536	535	537	544	553	564	570	569	561	547	539	532	536	540	544	546	546	542	540	540	540	542	547	551	548	547	545	527	528	535	541	546	548	549	547	554	563	562	561	556	555	576	566	557	550	550	541	538	540	542	548	553	557	561	558	554	548	546	546	547	553	556	555	555	550	547	0	0	0	0	0	0	0	0
533	538	540	541	541	542	543	545	544	544	549	548	546	544	544	544	547	547	551	547	551	552	552	552	553	550	549	548	544	544	544	541	537	536	534	543	552	552	554	550	543	529	535	545	552	554	554	552	550	554	556	557	555	558	563	567	565	565	564	563	561	556	557	557	560	560	559	557	554	554	554	564	567	566	559	559	555	552	550	550	552	561	564	562	556	551	546	546	543	537	540	542	538	534	535	537	537	537	538	540	541	543	538	535	532	534	539	545	548	543	542	544	539	536	535	532	530	532	535	534	532	532	536	542	542	541	534	533	533	535	538	535	525	529	535	546	553	556	552	546	550	548	546	546	544	546	544	544	541	541	541	537	536	535	534	531	530	536	545	549	548	545	543	536	538	545	539	531	524	515	516	521	532	540	547	550	551	550	547	540	537	542	544	543	541	541	539	535	541	544	550	553	553	552	551	547	545	544	540	537	535	534	537	539	541	540	541	544	544	543	544	544	544	544	544	543	541	535	538	536	535	544	544	542	538	541	544	542	533	530	533	535	537	538	543	545	545	545	538	531	532	534	542	545	545	541	535	539	540	542	540	531	526	525	528	531	536	542	546	542	535	534	535	535	536	537	534	541	543	541	545	542	535	526	525	527	533	537	535	534	532	535	544	549	548	542	541	542	541	541	538	533	529	531	533	532	533	533	537	536	544	546	545	544	541	541	545	549	550	555	551	545	540	544	544	533	541	549	557	560	561	561	560	556	549	544	540	536	536	535	536	536	534	535	539	540	540	545	552	553	552	553	555	558	554	548	545	545	544	547	550	554	556	551	551	552	551	549	545	543	541	540	539	542	544	550	548	553	554	555	553	548	544	545	543	545	545	544	546	551	549	538	538	540	541	542	542	539	537	535	530	531	527	530	533	533	529	526	527	530	535	539	540	543	545	542	539	544	549	551	551	549	546	544	542	542	543	546	546	544	544	547	545	542	540	542	543	539	538	541	545	549	549	549	550	553	554	556	557	554	550	550	550	547	540	547	550	549	541	536	534	544	546	545	546	545	549	550	533	530	530	525	521	525	530	533	536	538	538	538	537	541	543	543	540	536	531	529	528	530	534	541	545	542	542	540	542	543	545	547	547	545	539	538	537	535	533	528	529	534	540	540	540	545	548	553	549	547	537	533	531	534	539	542	542	543	545	546	545	545	549	553	554	552	553	555	553	547	543	540	531	528	528	526	525	525	527	529	534	537	535	526	521	525	529	533	539	541	541	542	539	539	543	541	537	533	531	524	515	512	523	532	533	530	529	534	529	526	528	531	539	545	544	545	535	531	529	535	536	540	541	544	542	536	533	531	531	534	536	538	538	527	519	521	524	533	539	542	544	547	547	542	545	546	543	543	540	538	537	520	523	538	535	532	528	528	528	532	538	555	556	555	549	545	536	533	534	540	540	540	538	538	0	0	0	0	0	0	0	0
531	532	532	532	532	538	541	541	544	544	544	546	540	535	533	533	531	535	527	532	538	538	538	539	539	538	535	529	531	531	530	526	522	525	523	525	531	531	537	542	527	528	531	537	541	544	544	544	546	551	552	550	549	552	555	558	556	558	558	555	542	536	541	546	551	553	554	550	546	546	547	546	542	542	544	544	546	547	544	546	550	553	554	547	528	528	530	533	530	530	532	532	528	527	523	525	534	535	536	537	539	537	535	531	529	529	533	535	530	524	535	533	531	528	525	526	527	531	534	533	531	528	532	536	538	538	530	528	528	528	528	523	520	521	520	523	526	529	532	532	525	528	532	531	531	529	537	537	539	541	538	534	530	529	527	523	519	519	519	523	527	534	531	532	533	530	528	519	514	511	512	521	528	532	533	541	543	539	530	527	529	533	533	530	530	529	524	525	527	529	533	537	531	528	527	528	529	536	534	532	531	530	532	535	534	532	536	540	540	536	531	530	530	531	530	520	524	524	525	522	517	516	516	520	527	528	529	527	522	524	529	530	523	522	524	527	532	532	527	520	514	517	524	518	518	525	527	525	524	522	520	519	517	516	519	523	526	531	535	532	531	531	532	532	532	528	524	520	523	531	535	532	528	514	514	519	525	526	522	522	526	529	533	536	533	525	528	534	534	530	532	530	528	527	524	521	521	525	530	531	532	530	538	538	528	528	529	534	543	549	547	539	530	526	521	527	536	537	535	536	538	541	540	537	534	528	527	531	532	533	530	528	523	520	526	531	533	530	531	536	541	541	544	541	536	535	537	538	541	543	543	541	542	540	542	545	544	544	538	540	537	537	536	535	540	544	547	546	551	553	551	546	536	523	527	532	532	531	524	526	527	520	515	511	511	520	531	532	528	525	525	526	527	524	524	519	519	516	514	517	518	522	523	519	521	522	524	528	533	536	536	531	528	533	533	533	533	535	535	537	534	534	532	531	530	529	527	528	530	528	530	530	529	528	530	532	543	549	547	535	538	540	542	537	529	523	522	528	539	542	540	539	538	535	536	538	526	525	522	520	519	516	516	518	524	530	533	529	526	517	518	529	537	537	532	529	525	522	523	520	521	524	527	521	516	523	525	529	530	532	529	523	524	528	532	534	525	524	525	530	531	532	533	538	537	536	533	528	527	530	528	524	526	529	536	537	532	532	534	538	540	543	542	545	537	538	528	527	528	526	526	525	522	521	520	517	517	517	518	522	521	519	516	510	511	516	524	533	533	532	531	531	529	530	527	526	524	520	516	510	510	523	525	527	526	528	522	518	519	518	522	529	532	535	530	526	521	525	528	532	531	530	533	532	527	526	527	524	523	520	518	515	513	512	517	517	528	532	537	543	541	536	529	534	526	516	509	506	510	515	515	519	523	530	535	537	535	528	527	529	533	533	532	529	525	526	520	520	521	521	518	522	0	0	0	0	0	0	0	0
531	526	518	515	515	519	534	541	544	541	541	535	532	526	520	519	519	524	520	524	525	527	527	523	525	527	524	518	515	515	515	519	521	521	523	525	524	524	524	524	519	523	528	531	533	534	534	540	544	549	545	544	545	542	542	528	530	540	540	535	533	532	534	537	539	545	543	540	538	537	534	529	526	527	535	535	539	541	537	538	537	533	528	527	524	522	524	528	527	527	524	523	518	514	513	516	526	527	530	529	528	530	528	527	523	522	525	522	523	521	518	517	513	515	515	516	514	518	525	529	528	522	521	525	524	522	520	521	517	516	517	518	516	516	516	518	518	519	514	517	519	521	526	528	526	524	525	530	530	534	530	519	522	524	526	522	516	515	515	516	519	524	531	527	524	525	525	521	516	513	515	519	522	524	525	527	530	526	520	517	522	527	527	526	525	524	521	521	521	524	524	524	522	520	518	520	519	528	529	524	522	522	522	521	519	518	514	516	517	511	509	509	507	501	502	517	525	527	524	519	511	506	509	514	514	515	519	508	502	508	513	521	515	516	519	522	526	526	518	510	504	506	511	509	505	507	513	518	520	517	519	516	511	507	505	514	516	520	522	523	524	524	525	525	525	516	515	514	515	520	524	519	519	516	507	515	521	520	513	512	514	514	509	510	514	516	519	519	519	520	516	512	502	500	504	511	515	518	517	519	519	520	516	511	508	519	520	524	536	539	536	528	521	516	516	521	526	528	521	516	516	519	515	515	515	515	513	517	520	519	517	513	512	516	521	528	528	526	524	524	525	528	529	525	521	522	526	530	534	534	534	536	538	539	538	538	535	530	528	529	529	529	529	533	540	545	539	531	544	544	537	534	525	520	515	511	512	515	517	516	512	505	498	495	496	503	519	525	524	514	518	522	523	523	521	516	512	508	508	513	516	515	512	508	509	510	509	516	523	528	529	525	521	521	524	527	528	526	524	523	525	523	524	523	523	522	524	525	523	525	524	519	518	529	526	525	521	517	517	514	523	527	530	525	521	515	515	520	537	538	532	532	528	522	511	516	515	518	516	513	513	514	515	513	515	518	527	523	515	508	514	520	524	528	525	521	522	520	516	512	516	524	523	516	508	502	504	510	516	516	516	514	510	509	513	526	524	520	520	522	523	524	525	524	525	527	525	521	521	520	519	514	516	516	519	519	518	516	517	526	531	519	517	515	515	519	521	513	510	511	511	510	511	510	512	512	506	504	503	504	509	512	509	505	502	505	514	523	528	526	522	516	514	516	517	515	510	506	506	510	509	511	523	522	522	508	506	500	500	504	508	515	523	525	523	515	513	519	520	516	516	520	522	525	523	522	520	521	518	516	511	508	507	508	508	510	513	519	523	527	530	524	518	512	506	503	500	501	504	511	511	516	514	507	505	509	510	522	521	516	511	512	518	519	524	524	514	512	512	512	510	514	0	0	0	0	0	0	0	0
526	521	510	505	505	508	525	533	535	529	529	524	518	512	513	514	514	516	515	515	515	514	514	516	517	519	521	519	516	516	517	518	521	522	524	522	521	521	520	519	517	516	521	526	528	527	527	528	531	532	525	522	520	520	518	517	519	522	522	528	530	530	527	530	531	531	530	528	527	524	523	519	516	517	523	523	528	529	533	534	529	523	522	522	521	515	517	522	528	526	518	514	508	506	504	507	511	513	513	515	520	524	521	519	515	514	515	517	516	514	511	508	508	508	511	513	513	512	515	514	516	516	515	514	512	509	507	510	512	509	509	510	513	514	515	514	514	510	505	502	500	503	512	521	516	519	522	520	506	504	506	511	510	511	508	501	513	509	508	508	510	514	515	515	517	517	520	516	511	507	509	513	518	520	520	520	517	514	511	512	514	518	523	520	521	522	518	517	519	521	520	517	515	512	510	511	515	522	512	508	511	512	510	506	503	502	502	505	509	510	508	505	504	505	513	518	516	514	507	505	497	490	491	493	497	503	513	508	500	501	505	511	512	513	516	519	522	520	513	505	501	502	503	503	503	505	511	516	517	515	513	507	498	493	496	504	506	509	512	514	515	517	517	518	514	511	512	509	508	503	501	502	506	509	513	517	518	515	506	502	503	505	503	504	506	510	514	510	505	505	504	500	494	493	496	498	510	513	508	506	508	512	511	510	507	507	509	514	529	530	525	517	511	510	512	515	517	518	513	510	506	502	499	496	501	502	504	510	515	514	510	507	505	509	514	519	520	520	518	517	518	518	517	517	516	514	515	520	523	523	525	523	514	515	522	530	524	517	515	512	510	512	518	525	537	537	521	512	511	523	526	525	512	505	505	505	505	508	513	516	517	513	501	493	495	503	511	515	518	510	509	510	513	517	514	510	505	503	506	510	509	512	507	505	503	504	505	509	514	518	518	520	516	515	518	522	521	520	518	510	510	515	519	520	519	518	520	523	525	523	518	516	517	517	520	517	512	506	502	507	513	514	514	514	512	507	509	513	514	518	517	517	502	504	507	508	509	508	507	506	506	507	506	504	503	513	516	511	508	507	507	505	513	513	514	513	514	516	514	507	509	518	512	504	494	491	494	499	504	505	504	503	498	495	497	502	513	514	514	513	510	505	499	501	514	517	514	513	510	509	504	503	503	503	503	505	505	507	500	498	498	502	503	497	493	503	502	497	493	492	493	498	499	500	498	492	490	493	498	503	506	508	505	500	498	497	497	500	498	494	490	490	491	497	504	501	496	499	497	503	508	510	509	506	503	500	499	496	494	495	496	503	510	510	512	511	509	507	505	505	507	510	512	512	515	513	512	512	511	507	502	502	501	500	502	501	503	507	512	512	513	511	507	504	496	495	496	498	501	506	506	505	499	494	491	494	502	507	511	508	506	503	510	516	519	520	515	508	508	501	495	502	0	0	0	0	0	0	0	0
518	513	504	500	503	503	513	523	522	517	517	509	506	505	509	512	512	515	506	504	505	508	508	509	512	518	521	519	517	517	518	518	519	520	520	520	519	519	517	516	513	510	512	519	521	519	518	518	522	522	518	516	516	514	511	505	507	514	514	519	523	520	521	521	521	521	514	509	506	506	507	510	508	508	513	511	511	506	504	507	508	507	510	508	505	500	501	501	505	506	503	499	501	500	498	500	501	502	503	505	513	521	518	511	507	507	510	512	510	506	501	499	501	504	507	510	508	506	507	509	509	511	510	506	503	499	501	505	506	505	503	503	503	505	505	501	501	499	495	491	488	490	494	493	492	490	490	489	488	489	490	495	496	497	498	499	501	500	493	490	489	502	503	504	504	511	513	510	501	498	497	504	513	516	515	511	509	507	506	508	508	509	513	515	517	517	514	514	515	516	513	511	504	502	498	500	506	513	498	496	507	509	506	501	495	494	496	498	500	488	483	485	485	487	494	494	495	493	497	494	489	486	487	487	489	487	489	492	499	495	494	494	508	511	512	517	517	512	509	505	497	494	489	498	503	506	510	515	514	511	509	497	491	488	491	497	499	504	508	508	506	506	508	507	504	506	505	504	503	492	492	489	491	499	501	503	500	496	496	497	499	500	498	494	494	496	498	497	488	486	486	492	490	486	487	486	489	497	499	501	506	508	507	505	501	499	499	496	501	500	495	491	494	502	505	505	505	503	502	501	499	497	497	493	497	498	500	504	507	506	502	498	498	503	509	510	510	506	498	493	500	505	499	496	496	508	507	509	515	517	516	505	500	499	504	512	510	506	506	504	503	505	506	511	513	512	510	506	501	493	498	503	499	491	492	494	495	496	502	509	513	511	501	494	492	498	500	504	509	505	502	501	502	507	507	507	506	506	505	502	504	506	506	503	500	499	499	504	506	506	506	507	511	509	508	511	517	508	504	501	500	505	507	509	514	512	516	521	512	510	513	513	515	513	509	508	506	500	496	497	503	505	506	505	504	504	506	510	505	500	489	489	494	499	503	503	502	502	499	499	498	499	497	495	493	500	504	505	503	500	499	497	496	497	500	503	501	501	500	499	491	501	497	488	487	485	485	488	492	494	492	491	489	486	484	485	506	511	512	509	507	503	498	494	494	497	497	495	496	493	493	493	491	492	480	480	486	494	495	491	489	487	487	484	482	485	486	485	482	483	486	492	496	495	494	490	485	484	490	498	497	499	501	496	492	491	486	482	479	480	482	483	486	489	490	491	494	496	493	495	500	506	506	503	500	495	491	491	491	491	492	494	498	503	508	509	502	500	498	496	498	502	503	503	500	498	502	503	499	493	488	483	486	490	493	491	490	494	499	503	503	502	498	494	489	489	491	495	498	501	501	497	490	485	483	487	494	503	507	502	489	484	495	500	502	496	489	486	486	484	489	493	0	0	0	0	0	0	0	0
500	487	487	486	493	493	501	508	510	502	502	493	495	501	507	507	507	495	494	498	497	502	502	506	511	511	514	514	515	515	515	514	514	509	512	516	515	515	514	511	511	508	505	504	502	502	503	503	507	509	511	512	514	512	504	501	500	503	503	506	507	507	510	512	511	509	504	501	500	499	500	488	505	509	507	502	502	497	497	497	500	503	504	501	495	489	488	488	490	496	495	492	490	492	494	494	494	494	495	499	510	518	517	507	497	495	499	504	504	499	496	492	492	497	501	503	502	502	501	501	504	506	504	499	493	492	496	500	499	497	498	495	497	497	494	494	489	489	486	486	483	485	485	484	484	484	483	480	481	486	487	488	489	492	495	498	497	496	493	485	486	488	490	491	489	501	508	495	492	493	491	490	486	486	487	490	489	489	495	500	502	502	507	508	509	510	509	508	508	504	501	496	488	490	489	490	488	484	485	485	489	489	487	477	474	478	480	484	482	479	475	474	477	481	492	494	493	492	489	484	484	485	481	478	479	481	481	482	489	494	494	490	493	501	498	498	498	488	485	483	481	479	486	490	498	501	505	504	502	504	499	494	489	487	482	486	491	490	487	490	492	494	495	495	497	496	501	500	495	489	483	477	479	485	492	483	478	476	476	481	487	492	491	490	490	491	490	486	484	481	475	476	474	479	479	478	481	480	483	496	502	502	502	491	484	474	479	481	488	489	485	483	481	487	489	495	496	496	495	493	492	493	495	496	495	492	493	498	500	499	496	493	493	498	502	501	494	487	483	486	489	491	490	487	487	491	497	501	503	506	501	493	490	489	492	496	497	497	500	499	496	491	483	480	484	485	491	495	495	494	495	487	480	481	483	486	488	490	494	501	498	506	502	498	492	493	495	495	490	489	487	485	487	491	493	492	494	493	488	490	493	495	495	496	489	484	481	486	490	491	491	491	489	488	489	487	495	493	489	489	493	495	496	493	495	504	507	507	500	501	504	508	510	504	496	500	496	494	492	491	496	497	499	498	498	501	503	505	490	486	484	486	488	491	490	492	492	497	494	491	486	484	491	488	490	497	498	498	498	495	491	486	485	484	489	492	486	482	480	477	475	480	480	477	480	477	480	482	484	480	482	481	483	482	484	483	487	491	490	496	500	499	496	490	489	491	492	488	485	482	479	476	476	476	471	468	470	475	477	477	478	475	475	475	473	474	477	475	474	474	478	483	489	492	492	487	483	484	484	486	489	495	496	493	486	483	478	476	473	473	474	477	479	476	480	481	490	495	496	494	484	476	481	490	495	491	488	485	484	483	484	487	492	496	500	504	503	497	492	490	490	493	489	482	474	473	482	487	486	479	476	477	479	480	482	480	477	480	482	485	485	484	479	476	479	484	487	490	493	493	492	488	480	480	481	483	491	501	504	490	483	480	479	482	493	490	485	480	480	478	484	489	0	0	0	0	0	0	0	0
482	481	481	481	485	485	488	490	492	487	487	486	490	497	496	498	498	492	492	491	491	496	500	500	499	502	506	507	508	507	507	505	502	499	497	497	500	503	503	505	503	502	502	501	500	499	501	501	502	504	503	503	505	506	502	496	496	496	499	499	500	502	500	501	501	503	502	500	498	492	485	481	482	493	497	494	494	491	488	491	494	497	497	496	492	487	485	484	487	488	488	487	486	485	490	491	488	487	489	492	496	501	494	483	483	487	492	493	494	491	486	481	482	486	492	497	496	498	496	497	498	499	495	491	486	486	488	491	488	484	489	490	491	492	491	490	486	483	482	483	481	479	477	477	478	478	475	473	476	481	482	485	486	486	487	488	490	491	487	485	485	488	490	489	485	480	476	476	478	483	487	486	481	479	476	481	486	488	487	487	491	497	500	495	497	495	492	487	481	482	483	481	480	481	482	483	482	484	484	480	478	479	479	475	471	470	472	473	475	469	468	468	471	475	477	490	490	485	482	481	477	476	471	469	469	473	472	473	475	482	485	481	477	477	481	480	478	472	468	467	468	472	479	483	490	495	498	497	492	484	482	480	473	468	470	469	472	471	468	459	460	468	480	488	492	491	495	492	489	483	476	470	472	480	482	473	466	464	462	461	470	478	483	485	485	486	486	484	482	480	475	472	469	470	473	472	471	474	479	483	484	469	467	465	463	464	469	476	477	476	473	474	474	473	473	473	476	479	477	477	479	481	482	489	490	490	491	494	490	483	479	474	476	484	488	488	484	479	475	477	481	481	483	481	480	483	488	491	495	494	492	488	485	486	487	488	490	494	495	492	486	473	470	469	472	478	482	484	481	476	474	473	472	471	476	481	482	484	485	485	486	486	495	494	492	487	487	485	484	484	481	475	476	479	474	482	483	478	477	478	482	484	483	482	480	473	469	473	476	477	481	482	481	477	476	479	478	475	474	482	489	495	496	493	488	486	485	487	486	487	479	475	473	472	487	481	481	486	486	485	485	476	475	475	482	496	484	479	477	478	480	481	478	481	478	471	469	466	465	470	473	476	478	483	487	489	483	483	485	489	484	480	477	477	482	484	479	473	468	467	466	472	473	470	472	478	477	477	479	477	473	474	477	482	483	481	478	477	477	482	488	490	491	485	486	487	489	474	469	470	470	469	470	469	468	465	468	470	471	471	473	473	474	473	469	467	468	468	467	463	465	468	471	477	481	482	483	478	470	469	473	479	489	485	481	476	473	470	468	466	467	469	470	471	466	468	467	468	465	459	460	455	463	470	483	486	484	479	477	478	479	482	484	488	490	492	495	496	489	485	482	482	477	470	468	468	474	480	478	474	471	471	471	472	470	468	472	476	477	473	470	469	466	464	471	477	481	485	486	486	486	476	478	477	477	478	480	480	484	483	477	477	475	476	477	476	479	474	474	474	479	483	0	0	0	0	0	0	0	0
480	477	477	478	479	479	480	482	484	483	483	484	490	496	495	493	493	493	491	487	488	491	493	493	489	494	497	498	500	498	498	498	497	495	493	491	489	492	492	493	494	491	496	498	497	493	489	489	491	495	499	500	500	498	494	492	490	487	488	488	491	491	492	493	497	500	502	497	491	482	480	476	471	475	484	487	487	486	484	485	487	490	490	491	491	487	486	480	483	483	482	480	478	482	484	484	482	476	475	479	485	485	479	476	480	483	487	487	487	485	474	472	473	478	476	480	488	490	487	486	488	488	487	484	481	481	483	483	476	474	473	473	476	480	480	479	479	477	478	475	474	472	470	470	472	471	470	468	469	476	476	476	476	475	475	478	483	483	483	481	483	486	486	483	478	475	473	475	477	482	484	481	477	473	475	478	482	484	479	477	480	481	482	482	480	476	475	474	474	476	479	478	476	478	480	480	482	483	482	477	475	475	473	468	469	470	470	470	469	465	461	458	462	464	464	480	481	479	479	478	470	469	465	462	459	461	465	467	471	473	474	473	471	470	470	470	474	470	464	463	466	470	474	478	478	486	489	486	481	473	466	465	464	463	462	459	459	460	458	457	458	464	474	482	485	485	485	481	480	478	465	465	473	471	465	467	468	469	467	461	463	465	467	473	477	481	478	476	478	475	472	469	465	466	464	462	456	463	477	479	474	463	462	460	460	462	465	466	467	467	467	468	468	466	465	467	471	474	473	465	465	464	461	460	466	478	485	484	479	470	468	469	471	477	479	481	477	472	469	470	475	477	478	478	476	476	478	484	488	488	485	482	482	483	485	471	469	466	463	462	463	465	465	465	467	472	474	468	466	463	464	462	460	463	470	475	476	477	476	476	474	474	480	486	486	483	478	479	479	474	469	467	468	473	470	458	457	463	468	471	474	476	473	473	466	465	465	469	471	472	474	475	474	470	470	473	474	472	473	477	483	486	490	489	484	476	478	476	473	470	469	469	470	472	468	469	469	474	476	474	468	465	466	470	467	470	473	469	469	471	473	473	461	467	468	469	467	466	464	464	465	465	465	472	474	472	472	471	472	475	477	475	472	474	479	482	478	469	464	461	460	461	469	472	471	478	478	476	474	473	468	469	474	481	481	478	474	470	469	473	477	480	479	480	470	472	469	467	465	464	462	460	460	461	462	463	465	464	466	465	465	467	468	471	465	462	463	459	456	456	456	457	458	457	461	462	465	464	463	460	465	472	477	475	472	470	466	461	458	457	458	460	459	459	463	466	468	463	456	449	444	448	453	460	470	476	476	474	472	472	468	465	469	479	480	481	481	477	473	470	470	468	463	462	464	469	471	475	475	471	467	465	465	465	463	464	469	475	476	473	470	466	464	462	464	469	474	477	475	475	472	467	469	472	473	473	473	469	465	464	468	470	469	471	473	470	469	470	470	472	477	480	0	0	0	0	0	0	0	0
482	479	478	477	476	476	475	477	480	481	485	485	493	494	494	493	493	487	485	483	483	487	484	484	483	482	484	489	489	489	489	492	494	493	488	482	478	478	478	479	484	489	492	490	488	484	478	478	478	485	493	492	490	489	486	484	483	484	483	483	481	482	485	486	493	490	495	491	484	478	477	477	473	467	464	471	483	483	484	489	486	485	485	487	488	489	488	486	482	479	474	470	470	472	474	474	473	469	467	471	471	468	466	471	474	479	480	480	477	471	470	469	469	469	473	477	479	479	467	463	466	474	474	474	473	475	477	475	473	470	465	461	460	459	459	464	472	473	474	473	474	472	470	469	468	469	468	466	466	469	473	470	472	472	473	475	478	478	477	472	471	473	474	474	470	469	469	471	473	475	476	475	471	470	470	468	471	469	469	471	472	463	460	466	465	464	463	464	466	469	475	475	475	477	478	478	479	481	482	475	473	472	470	465	466	468	470	471	470	467	460	455	454	454	456	470	474	475	476	473	471	468	464	457	452	452	458	461	465	468	469	468	467	464	459	465	468	471	468	464	465	466	469	472	471	473	475	477	472	464	460	462	466	463	458	455	456	456	456	454	455	455	467	475	477	473	459	448	450	452	455	460	460	460	461	464	467	469	467	460	460	459	461	461	461	460	466	467	464	466	466	463	462	463	463	456	451	457	473	473	462	464	465	460	459	460	462	463	461	460	460	463	464	462	461	463	465	464	458	460	458	456	454	454	458	464	466	468	466	458	455	454	460	460	459	457	472	468	465	466	469	475	477	477	473	467	466	466	459	454	457	464	467	467	459	459	464	465	460	457	457	456	460	460	463	465	465	463	461	455	454	453	451	454	460	465	465	467	470	468	466	464	464	469	469	467	452	456	458	458	458	457	457	461	463	455	452	452	459	463	463	462	465	464	460	459	459	463	465	465	467	469	468	468	468	467	467	462	460	466	468	469	466	470	478	468	459	461	462	463	460	462	466	469	468	466	466	465	465	463	458	451	442	452	457	461	469	466	464	465	466	461	459	459	463	467	468	466	464	464	464	460	456	457	456	459	461	459	456	451	456	461	461	466	472	473	464	461	459	462	458	458	466	474	478	481	475	464	456	453	454	462	465	471	475	469	465	463	464	467	471	467	466	463	461	461	463	458	460	466	458	454	451	452	454	458	458	458	456	458	462	467	468	466	462	459	458	453	450	449	455	457	456	453	450	454	457	458	460	459	461	465	469	466	464	460	456	453	452	452	451	453	454	456	458	466	465	459	450	442	438	443	447	456	463	461	461	462	462	462	453	453	459	470	471	473	474	466	468	468	466	462	455	452	451	458	466	468	468	464	461	461	462	461	461	463	469	471	470	467	463	458	456	456	461	472	476	474	474	469	466	464	465	467	470	467	463	464	462	458	459	463	465	465	463	456	456	456	459	464	466	468	0	0	0	0	0	0	0	0
476	474	473	474	472	472	472	472	473	475	481	481	487	487	488	487	482	482	481	481	480	478	476	476	477	477	481	481	479	480	480	484	485	485	480	473	471	473	473	477	482	489	490	485	479	475	472	472	470	481	487	488	484	481	480	479	475	472	476	476	475	476	478	470	471	473	476	477	477	478	478	478	473	469	468	469	469	469	479	478	478	478	479	484	485	485	484	482	477	473	468	464	462	463	469	470	470	468	465	465	463	461	460	462	465	468	470	470	469	469	470	470	468	470	473	475	474	471	465	460	464	462	463	463	464	464	469	468	470	468	463	459	454	449	452	460	468	471	470	472	472	471	470	467	465	467	467	464	463	463	465	469	470	469	469	468	469	471	472	468	466	462	461	464	463	464	466	466	466	467	468	467	468	468	466	462	460	460	463	465	459	458	457	460	460	456	457	457	461	464	469	468	464	463	473	479	479	480	479	475	472	469	466	461	461	465	472	472	469	464	458	453	449	443	438	446	452	462	464	468	469	469	466	463	451	449	451	450	454	457	461	462	461	456	456	460	465	469	468	464	462	460	465	467	466	465	466	469	465	459	455	459	461	461	456	454	453	447	444	443	447	446	447	449	448	447	441	442	441	444	446	449	454	458	460	459	459	459	458	455	454	456	458	457	454	455	459	454	454	454	459	459	457	455	456	445	439	438	443	452	450	451	452	455	454	456	459	459	459	455	456	458	459	457	456	456	455	449	446	449	451	449	446	447	452	458	465	462	457	453	451	452	458	461	456	455	455	455	455	459	463	465	459	456	454	458	454	450	445	445	449	451	454	457	454	450	452	457	455	451	451	450	450	452	456	457	457	456	454	451	449	447	448	449	454	455	455	459	463	462	460	458	457	457	453	454	461	458	453	454	453	452	451	448	449	452	449	449	451	453	448	446	447	453	454	455	457	453	456	457	455	452	447	442	440	444	448	450	452	447	456	460	460	461	461	449	445	443	447	452	456	456	459	459	461	461	459	459	459	458	453	445	440	438	444	453	459	462	460	461	463	460	455	452	456	463	466	465	465	465	464	463	455	449	446	449	452	449	443	441	443	447	447	448	449	450	452	448	448	456	452	455	459	462	462	457	449	444	444	446	449	451	453	457	467	462	459	457	458	457	457	458	459	459	457	456	458	454	457	465	461	453	445	445	448	450	455	453	452	451	452	452	448	448	454	455	454	452	450	454	457	455	454	451	448	450	452	455	458	459	456	459	459	458	456	452	447	446	447	448	447	449	450	452	457	463	459	452	441	433	437	440	443	457	462	452	446	445	447	453	448	449	450	461	450	453	458	460	462	464	462	451	452	449	448	447	446	445	447	450	450	450	452	455	456	458	460	460	460	462	462	457	451	448	448	447	450	449	449	449	449	447	448	449	452	456	461	461	457	452	453	460	461	460	457	457	457	457	458	455	453	458	0	0	0	0	0	0	0	0
467	459	458	462	464	464	467	467	468	469	472	472	472	475	473	479	462	462	460	458	460	463	465	465	467	471	472	469	467	470	470	474	477	474	472	467	467	470	470	471	479	483	484	479	472	465	461	466	466	472	479	479	473	469	472	474	470	464	464	464	467	467	463	458	453	455	458	455	456	461	463	464	467	468	469	469	466	466	465	466	463	467	465	471	476	478	476	473	470	468	468	466	464	460	461	463	466	463	458	457	460	458	456	453	455	460	464	466	466	467	467	467	465	464	466	467	460	457	455	455	459	467	468	464	458	455	459	467	469	469	461	450	443	444	449	454	457	461	463	464	464	465	464	462	459	462	462	461	460	457	458	454	459	463	462	458	457	462	464	463	462	459	452	453	459	461	463	448	448	452	455	460	461	461	461	459	455	455	454	453	452	454	452	454	453	453	452	453	453	448	448	451	451	453	456	454	453	457	463	459	455	453	452	453	456	460	455	454	452	450	449	446	441	431	429	433	441	447	451	458	465	465	464	460	455	447	446	450	453	456	455	451	451	452	452	455	459	462	464	462	457	450	452	460	461	462	462	462	460	456	454	457	460	459	457	454	443	438	439	432	434	435	440	442	441	439	437	438	440	443	444	448	451	455	455	457	455	446	446	451	450	450	451	452	450	450	451	447	446	447	449	452	453	452	447	439	428	429	434	438	439	437	439	445	442	439	449	447	440	432	429	434	442	445	444	440	436	440	447	446	446	445	444	444	445	450	455	455	452	448	447	452	460	459	462	460	458	455	449	447	447	444	443	443	446	445	442	438	437	439	446	451	454	452	447	445	444	444	444	445	443	445	442	443	449	451	451	449	449	446	442	445	448	448	449	448	446	449	450	445	446	448	447	447	456	456	456	454	451	449	449	447	446	443	439	436	437	437	440	440	440	442	443	446	445	445	447	451	450	447	442	436	433	437	442	448	446	444	445	448	450	452	454	455	447	446	445	443	443	445	449	451	452	452	452	453	452	454	447	449	451	450	449	448	447	441	439	448	450	446	454	456	455	453	451	452	456	463	466	465	464	460	455	447	447	447	446	442	441	440	442	444	441	438	432	434	439	441	441	438	438	438	446	446	448	445	435	431	439	443	446	446	447	451	459	454	456	456	458	458	453	451	447	448	450	451	451	442	439	443	444	442	439	433	431	430	434	436	442	444	442	440	447	451	448	443	442	444	447	447	450	451	451	446	445	447	450	454	457	458	456	452	452	451	450	446	442	444	444	440	440	441	440	447	453	453	447	439	433	431	434	440	443	446	456	446	439	437	439	438	437	439	441	438	440	440	438	440	438	440	445	449	450	447	445	445	446	443	446	445	444	445	447	449	451	449	447	445	445	447	443	443	439	438	437	439	441	442	442	445	444	444	446	450	452	453	454	447	447	446	445	447	451	452	451	454	450	450	450	451	450	451	0	0	0	0	0	0	0	0
454	452	452	455	460	464	464	464	461	462	458	458	458	457	459	461	450	450	452	455	459	461	461	461	465	464	462	457	451	445	445	445	459	461	461	461	461	460	460	460	464	472	474	473	464	460	458	459	459	462	465	462	460	463	467	469	466	460	457	459	456	459	458	451	448	449	451	449	453	455	455	452	452	455	461	459	456	455	455	454	454	455	459	456	459	461	465	466	464	463	457	456	455	453	455	455	454	454	455	456	457	457	455	454	455	457	459	461	462	459	458	457	457	456	455	455	454	452	448	447	446	450	456	457	454	448	444	452	457	457	453	444	441	442	443	442	446	449	452	453	452	448	448	448	454	458	457	454	451	452	448	452	456	458	454	446	442	446	454	457	460	458	453	448	444	443	444	445	444	446	449	449	448	447	448	445	446	447	447	447	446	443	444	443	449	450	447	443	441	442	447	450	453	455	452	449	449	453	454	449	444	437	445	448	450	449	447	445	444	441	438	434	429	427	430	433	439	441	444	448	456	457	453	440	438	439	442	443	441	439	436	438	444	438	437	443	444	444	446	447	449	447	441	438	453	455	457	460	458	455	453	450	450	450	448	442	439	435	440	438	436	437	439	442	444	440	439	437	439	445	445	445	446	449	452	454	454	446	446	447	442	443	445	447	447	443	444	444	447	448	448	446	446	444	441	434	430	432	433	435	436	435	437	440	445	447	448	446	443	436	434	434	437	438	437	438	442	447	449	446	442	436	439	439	435	442	448	455	453	445	442	445	451	455	455	459	455	450	442	442	442	440	436	438	441	441	441	438	436	438	442	447	451	444	440	438	438	434	433	431	439	437	437	436	442	445	445	444	441	435	436	439	442	445	446	443	435	431	435	442	447	452	457	446	448	450	452	452	445	441	441	441	440	438	436	435	436	437	438	438	439	439	443	449	447	442	438	438	438	438	439	435	436	437	441	440	441	442	442	441	443	444	447	442	442	445	444	441	439	437	444	445	443	442	439	437	435	431	432	436	442	447	444	440	435	437	436	437	438	442	439	438	441	446	445	445	445	446	448	445	442	439	439	440	440	439	439	437	437	438	440	442	438	436	435	435	434	436	436	438	441	445	441	445	445	441	436	435	436	443	444	443	443	440	435	435	440	447	452	452	444	440	442	444	447	444	440	430	431	438	440	440	440	441	438	434	432	431	437	443	442	440	440	441	442	439	440	438	438	439	443	444	441	440	442	441	442	444	448	454	447	433	433	438	443	446	447	443	438	436	435	436	436	439	439	445	442	436	429	429	436	440	446	445	446	443	440	439	439	440	436	435	434	433	436	436	435	436	438	438	442	443	444	441	439	442	443	442	441	437	438	440	442	443	444	444	442	440	438	432	428	428	428	433	438	435	435	435	436	437	437	440	443	447	447	445	442	437	439	440	438	435	431	431	436	441	444	444	445	444	444	443	0	0	0	0	0	0	0	0
443	443	446	448	452	457	457	457	455	451	446	446	444	441	444	444	442	442	447	451	455	458	458	458	458	453	448	445	441	440	439	439	442	448	452	451	453	449	449	449	451	459	461	457	457	456	455	454	454	453	453	452	453	455	460	462	459	454	453	452	452	450	447	446	445	445	443	440	441	445	447	447	448	447	447	445	444	443	443	444	444	449	450	453	454	456	458	459	456	448	446	446	449	447	444	442	439	441	448	451	455	456	455	454	455	455	455	456	455	451	448	449	449	450	451	450	450	446	443	442	442	445	450	450	448	445	442	446	450	453	449	447	446	442	439	437	439	439	442	441	434	435	439	442	444	451	451	447	444	444	446	448	450	448	442	435	431	434	439	446	452	450	443	437	432	432	435	437	439	443	446	446	442	439	435	434	435	436	438	437	438	435	433	430	423	423	426	439	441	443	445	448	451	453	453	451	450	450	444	444	442	441	443	446	444	442	442	441	439	436	434	432	428	427	429	434	440	440	441	443	442	439	437	436	436	439	442	441	439	434	430	429	427	437	441	439	437	435	437	439	437	437	433	431	433	434	438	443	446	449	449	446	445	444	439	437	434	434	438	442	440	437	438	439	442	443	440	437	440	440	436	434	434	441	445	445	442	436	437	438	437	436	436	436	436	438	440	443	445	445	445	443	441	439	438	437	435	432	432	432	433	432	434	438	442	444	446	441	435	432	431	432	433	434	433	435	440	446	448	436	428	429	427	425	427	431	441	444	443	440	439	435	434	436	439	438	436	434	432	431	432	433	435	434	431	426	428	434	433	431	432	431	429	428	434	433	433	433	430	429	432	435	433	433	435	440	441	439	435	432	432	434	435	434	431	430	430	430	429	434	438	440	434	438	440	442	445	445	441	442	441	437	436	433	432	432	433	436	436	434	432	432	438	446	444	438	437	431	432	434	436	436	437	432	433	436	439	441	434	436	438	442	442	436	436	440	442	441	438	436	435	441	438	438	441	442	436	432	430	432	436	436	434	431	430	428	428	431	434	436	436	433	433	436	437	439	439	439	437	435	435	438	441	435	435	435	432	428	426	431	434	437	439	439	438	436	433	433	431	437	440	441	440	442	443	440	437	437	440	442	446	441	435	431	428	429	432	435	435	433	432	432	432	431	438	434	423	424	423	434	438	437	437	439	437	434	431	431	437	432	438	436	434	437	438	435	433	432	433	435	437	439	439	440	440	439	429	429	433	439	439	430	430	430	431	431	433	435	436	434	432	431	434	437	433	432	436	432	429	434	435	443	443	442	438	437	435	431	435	439	439	435	431	429	431	432	434	438	437	437	436	437	435	435	435	437	438	436	431	433	432	434	437	438	437	436	436	436	431	423	420	422	428	436	439	438	434	434	434	434	435	436	439	441	439	438	436	433	432	434	435	432	429	428	430	434	434	437	440	438	437	435	0	0	0	0	0	0	0	0
438	438	440	441	444	444	444	442	441	439	441	441	440	440	442	441	436	436	438	446	452	454	449	448	448	446	445	440	435	436	436	436	439	441	445	449	446	444	441	441	442	445	447	449	451	450	449	447	447	447	448	448	447	447	450	452	451	443	442	441	441	442	443	441	443	442	439	436	433	434	438	440	443	442	440	437	442	444	444	443	440	443	446	447	445	448	450	446	436	436	439	440	444	443	442	442	440	437	437	440	447	451	452	451	446	441	437	438	436	437	439	444	446	448	446	445	444	444	439	436	439	440	444	444	442	440	438	446	449	447	446	446	444	440	433	432	431	437	438	429	429	433	436	438	440	437	433	430	433	439	442	441	427	423	427	425	426	428	434	438	439	439	434	431	429	430	432	433	435	439	442	441	437	433	433	435	435	436	434	433	432	430	430	428	421	420	425	428	430	435	442	442	434	434	440	440	441	438	433	434	440	439	439	442	440	437	437	438	433	431	429	428	426	425	429	432	434	437	438	436	438	436	433	432	433	435	440	439	437	432	428	424	423	426	433	431	425	427	429	429	427	425	425	427	426	420	412	410	424	422	420	419	428	430	430	430	430	430	434	434	439	438	435	431	433	441	442	440	440	437	434	430	437	437	427	422	422	426	430	431	431	432	433	435	435	435	437	440	439	442	444	439	435	435	438	440	431	428	427	430	429	428	431	434	440	443	440	432	432	432	430	428	426	426	426	429	436	441	437	423	421	421	422	422	423	432	436	437	437	436	434	430	426	426	427	421	421	421	422	422	423	423	423	423	423	422	420	422	423	422	426	427	425	425	424	425	426	428	430	431	431	432	431	431	431	434	439	438	434	431	428	428	429	428	428	428	427	427	427	429	429	426	427	434	435	435	435	435	435	432	438	438	435	431	427	425	427	431	433	429	427	423	426	427	431	432	431	427	428	432	432	430	427	421	422	432	435	437	433	434	436	418	416	419	426	432	433	429	425	431	429	429	422	424	430	429	430	430	430	433	432	431	427	428	425	424	423	426	429	432	432	427	424	423	422	420	423	426	427	428	432	435	436	432	432	434	429	427	425	426	430	433	437	440	439	435	430	425	426	431	433	436	436	436	433	428	434	423	426	427	442	437	431	427	423	426	428	430	431	430	429	426	426	424	422	419	419	420	426	432	436	436	431	434	433	431	429	426	426	428	428	429	431	430	430	429	427	426	426	428	432	435	435	434	431	424	424	424	424	425	427	423	427	428	428	428	429	430	430	429	427	427	431	431	426	426	427	430	432	432	431	435	436	435	431	427	427	429	435	438	439	432	429	427	427	426	426	427	435	425	428	429	428	430	435	439	437	432	428	427	427	429	434	435	435	433	432	429	423	424	421	419	420	425	426	431	434	434	433	433	432	431	432	433	430	427	426	429	430	432	433	432	428	425	426	428	428	427	427	431	431	419	0	0	0	0	0	0	0	0
431	431	432	432	434	435	435	435	436	438	437	437	437	437	438	434	426	426	430	436	443	443	440	440	440	440	439	436	434	433	436	436	439	446	450	447	441	434	429	429	426	431	439	444	444	442	441	439	443	443	444	443	441	439	440	441	434	434	434	435	435	437	438	435	435	438	436	432	429	429	431	435	438	438	437	438	442	442	440	440	440	438	440	440	437	433	428	431	428	430	432	436	437	438	441	442	441	438	434	433	440	442	444	443	436	432	431	431	430	431	430	431	428	429	437	437	437	434	431	431	432	432	436	438	436	428	429	438	440	441	441	442	439	433	427	425	424	426	425	423	425	427	433	434	432	430	427	424	424	431	435	428	422	418	417	420	423	427	430	433	430	427	424	424	425	427	429	429	430	430	431	431	429	426	427	428	427	426	423	421	421	428	431	428	420	418	421	423	424	425	427	427	426	429	428	426	425	426	429	430	431	430	431	434	433	430	429	430	428	428	426	423	424	425	425	425	423	433	434	433	431	432	430	427	426	430	430	432	432	428	422	420	419	421	422	424	422	424	425	422	421	421	421	423	423	418	414	415	418	421	420	420	419	421	424	428	430	431	422	425	425	425	422	419	419	420	421	422	421	421	422	419	420	420	417	417	418	427	424	421	420	420	422	427	429	429	429	432	429	429	427	425	423	422	426	427	426	423	418	421	418	419	420	422	424	426	427	430	434	435	432	426	420	425	426	424	426	427	421	418	418	416	419	418	423	430	433	432	430	428	427	425	418	416	414	415	415	417	421	423	420	413	413	416	419	419	416	414	413	412	414	419	420	416	417	418	421	420	425	425	424	424	428	428	427	428	430	428	427	426	425	424	425	424	426	426	425	424	424	423	421	421	421	426	427	429	427	418	418	422	427	433	433	429	426	421	422	426	428	429	425	422	422	423	426	427	424	424	425	427	428	428	425	420	420	428	433	431	430	426	415	413	413	417	422	429	432	429	424	423	420	418	418	421	424	426	427	425	423	426	426	426	425	424	421	420	420	421	424	427	425	422	420	417	421	424	430	430	428	426	426	428	431	429	428	429	429	429	425	426	431	427	427	426	424	422	422	425	427	427	427	430	431	431	428	421	418	416	413	415	419	422	425	419	420	420	421	424	425	426	425	424	422	416	412	413	418	425	427	427	428	428	430	429	427	425	422	419	421	423	423	422	418	419	418	420	419	421	423	424	425	423	420	418	419	419	419	418	417	421	422	422	421	424	426	424	423	425	426	426	424	423	424	423	422	423	425	427	428	427	426	424	428	427	426	424	425	428	432	436	435	431	427	425	421	421	421	420	418	418	422	422	420	420	422	423	429	432	430	427	423	425	427	432	432	430	424	422	423	421	419	415	412	414	419	422	422	428	428	429	428	426	424	422	422	420	422	425	424	422	422	421	421	420	418	418	418	417	419	417	412	410	0	0	0	0	0	0	0	0
422	422	422	421	425	427	427	427	430	431	432	430	430	432	431	430	423	422	422	425	425	427	424	425	425	428	431	431	430	432	438	438	445	445	438	436	432	428	422	422	418	424	433	439	437	430	430	434	438	438	440	438	433	429	429	421	424	426	427	429	428	428	431	429	430	432	434	431	427	425	427	430	432	428	428	431	429	430	431	431	437	436	430	420	412	408	412	419	421	422	423	430	430	433	435	436	432	428	422	421	422	423	426	432	429	428	428	427	426	426	423	424	421	420	423	429	430	427	427	426	426	426	428	428	425	423	426	433	435	438	438	435	432	427	421	419	419	421	422	421	421	421	419	425	426	424	417	413	413	420	425	425	422	419	416	416	423	426	425	425	424	421	419	419	420	424	426	429	423	421	419	418	416	418	416	416	419	417	417	414	413	416	425	425	417	416	417	419	420	420	420	421	423	420	416	420	419	422	426	427	423	421	421	425	428	428	428	426	423	421	420	421	422	424	421	419	421	425	426	426	425	423	420	421	423	424	424	424	424	421	417	415	416	418	420	419	418	419	420	418	417	417	418	419	418	415	412	414	415	416	416	418	418	419	420	425	426	420	420	421	411	408	406	407	408	411	419	416	413	412	413	414	413	416	412	411	412	412	416	419	420	420	419	422	422	424	424	425	427	426	424	421	420	419	422	422	424	420	413	414	414	415	416	417	417	419	425	428	429	434	432	429	419	414	416	414	412	414	413	411	413	417	415	414	417	422	426	425	423	422	419	414	412	412	411	410	411	411	415	419	418	416	411	412	415	414	413	410	408	408	409	411	414	409	412	411	412	414	408	407	409	418	417	417	424	425	423	426	424	420	419	419	422	425	425	424	424	422	420	417	417	417	414	419	422	419	408	410	414	418	420	424	425	427	421	417	417	418	420	416	413	417	419	420	421	417	418	419	422	424	425	425	424	422	423	425	427	427	419	413	408	408	410	412	418	422	426	425	421	419	415	413	415	417	421	423	419	414	411	417	421	423	423	416	416	415	417	415	418	416	413	413	410	411	416	416	424	426	425	422	419	417	418	420	426	427	429	431	429	429	416	421	427	421	419	417	416	420	424	424	423	425	409	415	415	416	414	416	413	408	411	414	413	417	415	415	416	417	419	421	420	417	413	408	409	411	415	419	422	419	419	423	427	425	422	418	416	416	417	417	414	413	412	413	410	405	403	405	407	409	409	413	415	415	414	415	415	413	412	414	417	422	423	423	422	420	420	420	411	419	420	418	419	418	419	418	420	422	424	423	418	416	418	422	423	421	423	423	426	417	416	417	414	419	417	416	413	409	411	415	418	420	417	413	414	408	409	414	418	419	417	418	418	419	416	413	413	412	415	415	413	412	411	412	414	417	417	418	417	416	414	412	415	413	413	415	419	422	420	419	419	419	419	418	414	412	412	411	411	410	407	407	0	0	0	0	0	0	0	0
419	419	418	418	420	422	422	425	424	422	423	425	425	426	424	422	419	419	419	419	416	413	410	413	413	417	421	426	426	429	427	427	428	429	428	427	423	421	416	415	415	419	427	431	427	424	422	425	430	430	433	433	429	425	415	410	413	415	416	421	421	421	422	418	423	426	429	425	421	420	420	418	416	413	414	415	417	419	425	425	430	430	424	422	415	412	412	413	414	414	414	420	429	430	431	431	424	420	417	415	416	416	415	416	422	425	427	426	424	422	420	419	418	416	416	420	424	424	421	419	419	420	421	415	418	420	422	428	432	434	431	427	423	419	416	414	413	415	417	418	415	415	414	416	416	415	413	412	410	412	416	423	421	416	413	413	416	419	421	422	421	420	416	416	418	421	424	427	425	404	402	407	410	411	411	412	413	414	412	411	411	413	416	418	415	408	411	414	415	414	415	414	416	413	412	408	411	414	423	424	422	412	414	416	421	423	424	424	423	422	420	419	418	412	410	414	417	418	419	419	419	418	416	416	417	421	419	420	419	416	412	410	414	417	420	417	412	410	405	405	409	413	414	416	415	413	413	412	413	415	411	417	418	418	422	422	417	413	412	413	405	402	403	405	407	413	415	414	412	412	411	411	416	413	410	409	409	410	413	415	420	420	420	421	422	423	424	424	423	423	421	417	417	417	418	419	419	416	414	412	411	414	415	417	420	422	422	421	418	418	417	414	415	416	415	414	413	412	406	406	408	408	408	411	418	421	419	409	409	409	405	406	407	407	406	406	405	406	406	410	410	411	411	409	410	410	407	407	407	407	406	406	406	404	407	408	401	404	404	404	403	406	410	413	416	415	420	417	414	405	402	404	408	409	413	414	414	406	403	403	406	407	410	409	408	406	407	408	410	412	413	414	413	412	411	409	409	416	416	406	405	405	409	412	409	411	414	416	417	420	421	423	423	416	415	414	420	418	409	406	401	403	406	410	413	416	415	416	411	410	407	410	411	415	417	419	417	410	415	418	415	418	418	412	409	407	411	410	413	410	406	404	407	404	408	411	414	418	423	419	414	408	408	407	416	420	417	414	410	404	403	414	421	413	414	414	414	414	416	414	407	404	406	407	410	409	406	403	404	406	407	407	407	402	398	400	404	407	402	403	403	404	406	405	408	410	411	412	414	413	412	416	421	412	408	412	414	414	413	409	407	408	409	407	406	402	400	401	402	405	409	410	410	410	410	411	410	408	407	409	418	420	416	415	414	414	414	403	399	406	415	416	417	415	415	413	411	413	418	415	412	411	413	418	419	417	417	417	412	411	407	407	412	413	413	413	409	407	409	412	415	414	412	409	401	399	404	410	414	414	409	408	405	412	410	408	407	408	407	407	407	406	407	408	409	409	411	412	412	407	405	404	406	407	408	407	414	415	413	413	413	416	417	414	412	412	411	410	407	405	406	403	0	0	0	0	0	0	0	0
416	416	414	414	414	417	421	421	419	416	417	420	420	421	418	419	414	415	415	415	411	409	409	410	408	408	411	412	413	416	408	410	410	412	413	415	418	420	418	410	410	410	414	419	422	420	417	416	412	412	418	422	423	413	412	407	408	413	419	426	428	428	428	423	420	420	420	418	416	416	415	414	412	412	413	414	414	416	415	416	416	420	424	422	414	406	406	410	410	410	411	411	413	419	419	419	418	414	411	408	405	407	411	413	416	422	425	424	422	416	417	417	416	416	413	412	413	414	415	411	408	405	405	407	405	410	419	419	416	414	420	424	421	419	415	409	411	411	410	412	410	408	410	410	408	409	411	412	412	412	414	415	413	411	411	412	415	414	414	410	411	409	408	410	411	410	410	410	410	402	399	401	404	403	404	408	410	411	410	409	408	408	410	409	406	404	406	410	409	408	408	406	407	407	405	406	407	411	413	412	414	408	409	413	416	415	422	424	423	421	419	415	409	405	402	404	411	411	411	413	414	414	412	410	408	406	411	416	416	411	408	406	410	414	411	410	407	404	402	402	404	407	406	403	403	404	407	404	406	407	413	409	407	404	401	396	410	409	408	407	405	398	400	401	404	409	412	412	410	409	409	407	406	410	407	406	407	410	415	417	416	415	415	414	414	412	412	420	418	416	413	413	413	415	415	415	415	413	415	414	410	412	412	405	407	406	405	404	406	409	409	405	408	412	413	412	413	408	403	405	407	407	406	404	405	409	414	412	405	403	401	403	402	402	399	400	400	403	403	405	406	408	408	407	406	404	404	404	403	403	401	399	401	403	404	397	398	399	401	402	402	403	405	407	408	411	406	403	401	400	401	400	402	404	408	410	411	407	407	407	404	405	406	407	406	403	403	405	404	406	406	404	405	405	402	401	403	401	397	396	399	401	405	407	410	411	410	410	411	413	418	421	419	412	409	410	410	408	404	401	400	400	400	401	400	402	408	409	403	403	403	402	403	406	407	407	410	413	415	417	412	411	412	406	402	399	403	407	407	404	401	399	402	402	403	405	406	409	419	417	410	401	400	402	404	413	413	409	403	400	396	398	403	406	407	407	411	407	404	403	404	401	400	401	404	405	404	401	400	401	400	401	401	396	392	392	394	394	398	403	402	402	401	399	401	407	408	407	402	403	402	401	404	403	399	400	407	407	404	401	400	400	405	402	401	399	397	397	402	402	402	402	402	405	405	404	405	405	403	405	413	414	409	404	403	401	397	395	396	399	405	413	413	412	412	406	402	401	403	408	407	407	410	409	406	406	412	409	406	403	401	402	404	407	409	410	405	402	403	403	404	408	405	394	397	399	402	405	407	406	405	404	399	398	406	400	402	404	403	401	392	390	390	396	401	401	403	404	402	401	398	398	398	400	399	402	399	400	402	404	406	408	409	413	412	412	410	406	403	401	393	390	0	0	0	0	0	0	0	0
411	409	409	406	409	409	414	414	411	411	412	412	412	411	411	411	411	413	413	414	410	408	409	407	401	401	398	396	398	402	409	408	408	407	407	410	414	416	417	413	413	409	402	406	410	411	406	403	397	397	399	404	408	413	415	414	414	418	419	415	413	413	420	425	425	422	416	412	410	410	410	411	409	407	409	409	409	407	405	407	407	407	407	405	404	402	403	402	406	406	408	409	409	412	415	413	412	410	408	404	401	401	404	407	409	411	408	406	405	404	405	409	417	416	409	406	405	405	413	407	404	402	402	400	400	403	413	415	410	405	407	411	414	413	409	407	409	407	403	402	403	405	405	404	404	406	410	414	408	408	407	407	409	409	408	409	407	406	402	399	403	403	403	402	402	404	405	406	407	398	397	398	397	397	394	397	400	401	398	395	395	401	401	401	401	397	396	399	405	405	404	401	400	402	405	406	407	407	403	405	404	408	407	410	412	411	415	419	420	419	416	411	406	400	397	395	397	403	407	407	407	406	404	401	399	396	398	407	408	405	402	403	409	409	407	406	405	403	401	400	398	398	394	393	396	399	403	403	397	394	394	398	403	400	395	393	391	393	401	401	401	395	395	395	400	404	408	409	407	406	404	404	401	397	401	402	402	403	405	406	404	404	405	403	405	404	404	400	398	404	403	402	398	397	402	401	402	401	402	404	409	404	401	401	395	393	392	395	397	398	397	397	399	399	406	411	403	404	402	403	404	403	401	399	401	403	403	404	400	400	398	399	400	396	394	394	396	399	401	400	404	405	405	405	406	404	404	403	401	398	395	392	393	401	397	398	399	399	399	401	401	397	403	403	401	400	399	399	399	399	399	398	398	401	404	407	402	402	402	404	400	399	400	401	400	400	400	401	397	397	396	397	396	399	398	397	395	394	394	396	397	398	402	406	405	402	402	401	400	400	405	418	416	411	402	399	398	398	399	400	398	391	391	396	398	396	396	395	397	398	400	399	398	400	402	404	407	409	408	408	405	406	408	406	403	395	398	402	403	400	398	400	400	397	394	398	401	403	404	409	405	395	397	399	402	404	404	399	396	394	391	390	392	397	399	395	389	396	398	398	397	395	395	396	398	398	401	401	397	391	393	393	392	389	389	388	392	393	394	400	402	401	400	397	398	402	403	397	398	397	391	393	396	397	399	396	389	386	391	391	392	395	398	398	397	397	395	396	391	389	392	397	399	395	393	397	401	403	401	402	405	401	397	396	396	395	395	394	393	397	399	404	409	408	400	394	394	396	398	399	399	401	401	394	400	399	398	404	401	397	397	394	395	399	402	404	403	400	400	399	397	393	391	391	393	396	396	394	393	389	389	387	392	391	391	393	391	392	396	394	389	387	387	390	395	395	399	398	394	387	385	389	395	397	398	396	396	394	394	394	399	400	400	403	405	405	405	399	395	389	387	388	0	0	0	0	0	0	0	0
405	400	400	396	398	403	404	404	404	402	403	404	404	404	404	398	400	401	401	401	400	400	398	398	396	396	397	402	404	408	405	403	403	401	404	404	409	414	412	408	408	402	399	397	402	401	403	398	399	402	402	400	399	400	403	407	412	414	409	403	402	405	405	406	410	413	411	406	404	404	406	407	408	406	404	404	402	397	402	403	403	402	398	395	398	399	400	401	400	401	402	403	405	408	412	410	409	407	406	401	399	397	400	404	407	406	404	400	398	400	400	401	404	404	402	400	398	399	401	406	406	404	399	399	400	400	401	409	407	401	398	395	394	396	402	408	408	403	396	393	394	396	398	399	400	402	405	402	403	407	406	405	405	404	402	402	400	397	395	396	398	400	400	401	402	404	404	402	399	390	394	395	394	394	392	393	395	396	395	391	394	396	397	395	397	390	389	393	399	402	402	400	399	396	399	402	406	401	399	395	398	405	400	400	401	407	407	410	412	414	411	407	402	396	393	390	391	397	401	400	396	396	397	399	397	398	397	397	398	398	397	399	401	401	399	401	402	403	397	394	392	391	390	387	388	389	393	395	395	396	396	394	391	389	390	390	389	387	391	396	397	399	394	392	395	397	396	396	397	398	399	401	402	397	400	397	395	395	396	397	399	402	402	403	401	398	401	401	401	401	399	397	393	394	396	398	392	392	391	392	395	398	396	398	394	391	391	395	398	395	396	392	388	385	385	388	392	394	396	398	399	394	392	391	389	394	393	391	397	395	397	397	397	395	391	392	394	398	400	398	396	399	401	401	403	406	405	403	397	385	388	387	390	395	398	397	398	400	400	400	397	396	401	399	399	395	392	389	390	392	395	396	394	394	396	396	398	400	400	398	398	395	395	397	404	404	404	400	397	393	391	392	393	393	394	393	392	391	393	395	395	395	396	398	399	394	394	393	395	393	394	394	394	394	393	393	391	393	397	393	390	387	393	393	398	395	395	394	395	397	398	399	398	398	401	400	397	397	398	396	395	401	402	406	404	396	392	396	393	393	396	400	398	391	393	392	397	398	399	398	392	391	392	396	399	397	394	395	392	390	387	387	389	391	392	387	387	393	393	392	387	386	382	383	386	383	386	387	387	386	388	387	383	384	384	388	388	391	392	393	398	398	395	396	395	399	398	392	392	391	390	391	394	396	396	395	391	386	385	385	386	389	393	395	394	397	392	390	388	386	391	395	395	394	394	403	405	403	401	400	400	398	395	394	394	394	394	391	392	396	397	396	394	386	384	381	377	384	388	391	395	394	388	383	382	386	388	389	388	388	390	389	392	398	398	399	399	396	396	394	392	388	387	387	388	390	394	391	387	384	385	383	383	387	388	386	384	386	387	387	388	384	384	388	388	391	395	392	387	385	384	383	389	395	395	395	394	393	389	388	389	393	397	397	397	397	396	391	388	383	385	387	0	0	0	0	0	0	0	0
398	394	394	391	390	393	393	393	393	393	393	393	395	395	395	393	394	394	392	392	390	391	390	394	398	398	399	401	400	397	400	400	400	397	395	398	404	404	403	402	402	401	399	397	398	398	399	403	402	402	399	395	392	394	395	397	402	403	400	396	395	395	395	398	403	405	404	400	401	400	397	398	403	401	401	396	395	393	397	396	395	395	395	393	392	396	398	397	397	396	397	399	401	401	405	407	406	403	403	400	398	396	398	402	400	400	399	396	394	394	395	396	395	392	385	382	384	388	391	397	401	400	400	400	400	398	396	392	391	387	388	385	386	390	400	404	400	392	386	384	387	388	393	396	393	392	392	392	396	395	392	391	395	397	396	397	398	399	396	394	395	396	396	396	396	393	391	387	386	387	388	392	394	392	391	391	391	391	393	394	396	402	401	401	398	394	389	389	389	391	394	396	396	395	393	389	400	396	391	388	390	389	393	394	395	396	393	392	404	404	401	401	397	393	390	390	391	400	401	396	395	390	386	394	391	390	388	383	382	385	388	390	390	394	393	390	388	394	396	393	390	389	389	386	386	388	389	391	394	394	393	389	387	385	385	384	386	386	382	380	384	390	387	388	388	388	389	388	388	385	386	396	397	398	398	392	390	389	392	394	395	397	398	398	394	392	392	396	398	398	397	392	390	387	389	388	390	391	390	390	389	393	393	391	389	387	387	389	391	392	389	387	384	382	382	385	386	387	387	393	393	390	387	382	381	385	386	385	383	390	393	390	390	389	388	394	395	391	391	394	395	391	387	387	391	396	399	401	386	383	383	386	389	389	389	387	387	392	394	395	393	392	391	392	391	389	387	384	383	386	389	392	390	388	388	389	394	398	399	394	393	393	392	391	388	384	381	378	377	382	386	389	392	391	392	391	388	388	390	393	393	394	393	392	388	389	390	389	389	388	389	391	389	390	392	391	391	387	386	384	385	389	390	389	386	385	384	385	390	392	390	381	380	378	378	382	391	389	389	390	389	397	396	390	387	379	378	386	386	388	394	396	388	388	390	391	390	392	390	389	389	390	391	390	393	388	387	388	388	388	388	380	386	388	388	388	389	389	389	385	381	380	378	381	383	377	376	380	382	383	382	382	382	382	382	383	384	387	389	392	392	394	392	392	391	395	395	387	389	389	388	386	388	391	391	387	386	384	382	382	383	384	387	383	383	388	392	389	387	384	383	380	383	388	396	390	391	389	393	392	393	391	387	387	388	384	376	372	374	382	388	385	381	378	378	374	373	375	383	388	394	391	386	383	383	391	387	389	387	380	378	378	372	378	386	389	388	384	379	390	381	380	379	382	386	387	389	387	383	381	380	379	379	382	383	382	382	384	385	385	384	382	381	384	384	388	390	387	385	383	381	380	384	390	393	392	388	382	377	380	386	391	393	393	393	392	388	383	381	380	384	386	0	0	0	0	0	0	0	0
386	384	384	383	383	390	391	391	390	388	390	391	391	391	392	390	391	388	386	386	384	383	386	390	394	394	396	391	387	392	393	395	393	393	391	391	392	394	393	395	397	397	395	394	392	391	391	398	400	399	390	390	391	393	393	394	394	392	392	393	392	391	391	392	395	397	398	397	397	394	388	391	389	389	389	392	391	390	390	390	389	389	390	392	392	393	395	395	395	394	392	392	391	387	386	388	390	394	399	401	397	391	387	390	392	396	396	393	389	388	386	388	388	387	384	380	379	381	388	390	393	397	400	400	399	395	393	389	385	387	389	392	394	391	390	391	393	392	390	391	391	391	389	390	390	391	395	395	393	389	387	385	385	387	389	394	396	397	392	392	393	392	391	393	393	390	385	383	383	383	386	390	389	388	386	386	389	389	389	388	388	392	391	390	388	389	387	385	383	383	384	386	388	388	384	374	376	376	380	381	384	381	385	386	385	383	380	378	377	383	401	398	389	386	386	392	397	398	397	394	391	391	373	369	371	382	382	381	380	380	382	382	384	384	385	381	378	383	387	392	392	392	389	384	383	385	389	390	390	387	387	386	383	385	383	383	381	380	375	374	375	378	380	381	380	383	384	383	380	377	379	384	389	391	388	390	387	385	383	388	394	391	388	391	388	387	386	389	391	395	393	394	386	383	383	391	393	394	389	383	380	383	390	389	387	387	386	386	386	385	385	382	382	380	381	382	380	378	381	386	387	387	383	380	377	377	380	380	379	382	387	388	384	383	384	385	386	386	387	393	394	390	386	385	388	391	392	391	387	387	389	391	392	390	386	383	381	381	380	381	379	382	386	388	386	386	383	382	382	383	384	388	383	379	381	382	391	391	392	390	386	386	389	388	386	382	379	377	377	378	384	388	389	391	392	390	388	385	387	390	391	392	391	387	386	386	387	385	383	381	385	387	387	386	385	381	383	385	382	378	374	374	379	383	380	383	382	384	383	384	380	376	376	375	375	378	381	379	382	384	385	387	384	388	383	377	376	376	380	384	387	385	385	384	387	388	389	387	390	388	383	384	388	387	383	382	381	381	379	376	374	375	378	386	387	390	390	386	384	381	380	380	377	380	380	375	372	371	374	380	380	380	380	381	381	381	383	382	382	382	382	386	386	387	387	390	392	381	382	384	386	386	383	381	380	379	378	379	377	375	377	379	382	381	380	382	386	389	391	386	381	378	379	381	384	389	382	380	379	379	377	382	382	383	381	381	373	370	372	374	374	377	374	373	369	368	370	370	370	376	380	380	374	374	377	380	377	375	372	375	374	372	374	382	387	390	390	389	385	379	372	373	374	374	375	382	385	384	382	381	378	375	376	379	381	379	377	379	380	382	382	381	380	380	380	384	385	383	382	381	377	379	382	385	384	382	379	376	378	379	379	380	383	385	385	391	391	380	377	377	377	377	0	0	0	0	0	0	0	0
378	378	378	378	388	389	389	388	388	384	387	390	389	389	389	388	386	383	382	382	379	380	382	385	390	385	385	376	382	387	388	386	387	387	388	387	385	382	382	387	388	388	386	387	385	382	383	387	389	387	389	389	390	390	391	391	391	388	390	389	387	384	385	385	387	388	389	390	390	389	385	386	388	391	393	393	392	388	386	385	385	387	387	388	392	387	393	395	394	395	394	385	385	385	384	385	384	387	391	390	389	387	386	387	390	392	393	391	388	385	385	387	388	386	384	380	378	376	376	377	383	388	391	393	393	391	388	384	385	390	392	393	388	385	386	388	389	391	391	392	390	387	384	387	386	387	390	392	391	386	385	385	384	382	383	379	378	379	388	388	390	386	383	383	387	384	379	378	378	381	387	390	392	392	387	384	383	383	383	381	377	383	387	386	382	383	384	381	383	382	383	383	385	380	381	376	369	370	376	380	382	383	383	379	379	379	376	374	376	381	378	376	380	382	385	391	395	396	396	394	383	378	374	369	369	371	377	378	376	377	377	378	380	382	380	378	376	374	377	384	386	384	384	381	381	382	385	389	386	384	382	382	383	385	383	380	380	377	373	368	369	373	375	376	378	378	376	374	374	378	374	377	381	384	385	385	386	384	379	379	381	382	385	381	384	383	381	379	381	381	377	376	375	379	384	389	389	387	380	376	375	379	386	387	385	385	381	381	379	378	375	378	378	378	376	374	373	374	374	378	381	380	379	375	372	371	376	375	372	372	374	374	375	381	382	382	383	376	379	379	383	385	384	383	385	386	386	385	382	381	383	388	390	388	382	378	377	376	372	373	375	378	383	386	386	382	383	381	382	382	382	382	378	375	376	380	384	385	385	383	380	378	380	386	383	382	379	376	375	375	381	383	386	387	387	388	388	387	387	384	388	388	385	381	381	381	383	382	378	376	376	377	380	385	384	380	380	377	374	367	368	367	365	371	373	371	371	376	380	379	375	374	373	373	371	365	362	364	368	374	381	380	381	382	380	376	375	376	379	380	381	382	382	382	383	383	383	386	387	385	378	376	377	383	380	379	375	379	380	376	370	371	372	372	373	376	382	384	381	377	373	371	377	381	379	374	369	369	369	370	370	377	373	375	378	382	381	379	377	368	369	379	383	387	390	389	376	373	371	375	381	383	379	377	375	372	372	374	375	372	373	378	378	377	377	381	383	385	385	383	375	378	379	380	379	381	379	377	377	377	376	380	378	376	373	375	370	367	367	371	372	373	373	371	367	367	366	367	368	372	373	373	372	373	376	377	371	367	366	367	368	370	371	371	370	384	386	385	382	378	372	371	374	374	371	371	373	377	376	380	378	375	376	379	378	375	373	372	375	377	379	377	372	372	371	372	373	372	372	373	378	380	378	374	370	370	369	371	376	377	375	373	374	374	371	372	377	372	369	368	368	369	0	0	0	0	0	0	0	0
381	383	384	384	385	386	386	385	385	386	386	388	389	389	388	386	384	380	378	378	374	373	369	369	368	367	367	371	378	380	381	383	384	384	384	383	379	378	378	382	383	383	382	379	374	377	381	384	379	382	385	385	388	389	388	386	386	384	386	385	381	379	377	377	377	381	383	385	383	382	383	385	386	383	381	381	383	386	382	383	384	384	384	387	385	384	384	386	388	390	385	382	383	384	385	383	383	385	387	386	384	384	386	384	386	388	387	386	385	383	383	385	386	385	378	376	372	371	370	371	375	380	382	383	382	374	369	372	378	381	383	381	379	375	375	376	378	380	388	387	386	383	380	378	378	380	383	386	385	384	384	383	382	380	378	374	373	374	377	381	384	381	378	376	377	378	375	376	375	379	386	390	387	385	384	376	377	378	378	375	375	376	373	369	369	372	379	380	380	380	382	380	376	376	375	373	369	370	373	378	376	378	369	373	372	374	371	370	373	373	372	372	373	373	372	375	374	375	375	376	379	375	371	367	364	367	368	370	375	374	372	372	375	379	380	378	374	371	374	379	380	380	375	375	375	375	374	373	373	372	373	381	384	382	379	378	377	375	366	366	368	369	371	372	376	377	377	376	376	374	375	375	374	378	378	381	381	380	378	375	376	378	378	378	372	370	369	370	372	374	372	371	372	373	378	381	387	387	382	378	373	371	373	378	383	375	371	372	374	374	373	374	376	378	376	374	372	372	372	374	378	382	382	376	372	370	370	370	369	369	368	368	371	373	375	374	370	369	373	375	379	382	382	383	383	383	381	378	375	376	381	384	386	382	375	375	375	372	371	368	372	374	379	379	381	381	381	382	382	381	380	378	377	375	374	377	378	378	376	375	375	377	377	383	380	381	380	378	376	374	376	380	380	384	386	389	390	389	382	378	375	379	381	380	380	377	379	378	377	374	376	382	383	381	381	383	378	374	365	365	368	367	365	362	362	362	359	363	367	373	373	371	371	370	366	362	357	355	357	365	378	380	380	380	379	375	375	378	378	374	376	380	381	379	380	378	378	379	381	375	375	374	376	374	369	366	371	374	378	376	370	371	371	360	362	365	368	369	370	370	370	368	368	371	366	364	365	365	368	370	371	364	363	363	363	367	367	366	366	366	368	371	380	384	383	375	366	366	366	365	366	371	372	374	372	370	370	370	370	369	375	376	373	373	375	364	370	370	371	370	371	371	371	371	372	371	372	374	375	377	374	378	373	370	367	368	368	366	366	366	366	366	367	370	371	370	367	365	365	364	368	371	372	372	372	371	367	364	362	364	365	359	364	366	366	366	379	373	376	373	369	366	363	362	362	365	365	365	363	364	369	370	369	377	371	370	366	366	369	371	374	369	369	367	367	371	372	374	378	377	376	374	367	366	367	365	366	366	368	371	370	368	364	364	363	363	363	359	361	362	364	366	0	0	0	0	0	0	0	0
382	381	378	378	379	380	382	383	383	383	382	383	385	385	385	376	374	375	372	372	367	368	367	365	363	364	364	370	376	378	380	381	383	383	383	382	378	377	375	378	378	378	376	373	371	376	378	379	378	379	382	382	380	373	373	376	380	384	379	371	361	363	366	366	369	374	376	378	378	379	380	383	383	381	380	379	377	379	379	377	381	385	385	384	382	382	378	380	383	385	382	379	374	379	381	380	381	383	383	383	382	384	379	379	377	378	380	373	373	373	375	375	374	375	377	375	372	371	371	372	373	376	374	374	377	374	370	371	375	377	378	376	372	372	374	374	372	372	375	380	375	373	372	370	368	367	375	378	380	380	381	379	378	377	375	370	369	369	374	378	378	377	375	372	369	374	372	372	375	376	379	380	380	375	373	373	374	373	370	370	372	372	372	365	363	365	368	376	377	377	375	369	366	366	369	368	364	367	371	368	369	367	364	362	363	360	366	364	372	369	368	369	370	369	369	369	370	374	375	374	376	370	365	363	364	366	366	366	368	367	366	366	368	373	375	375	372	368	367	367	373	372	370	367	365	363	367	367	367	363	357	361	363	362	363	361	361	363	363	360	359	360	363	365	370	374	374	374	371	371	371	374	373	369	374	377	378	378	376	369	367	363	364	366	365	364	362	361	362	366	360	364	367	372	373	374	379	385	384	378	371	367	366	370	370	362	364	367	368	370	371	372	375	376	377	375	372	364	365	369	373	377	379	375	369	372	370	366	365	364	367	366	366	369	371	373	371	369	369	371	372	366	370	373	377	379	377	374	373	375	380	380	378	374	370	371	371	370	367	365	368	369	376	377	380	381	382	381	380	380	378	377	375	375	375	375	376	370	368	368	371	373	373	375	377	377	374	371	374	374	375	380	381	381	380	379	378	375	373	370	369	374	379	377	378	375	375	374	358	371	375	378	376	375	377	378	376	373	364	361	365	365	365	367	367	362	354	360	362	366	371	374	375	370	369	366	360	358	361	370	378	381	378	376	373	370	369	371	369	369	370	372	378	380	376	373	373	375	374	369	373	375	364	363	362	358	365	367	369	368	367	360	358	356	357	359	357	357	361	364	367	367	366	367	367	368	367	365	363	360	360	355	350	348	349	353	354	357	362	365	363	366	370	372	371	366	361	360	363	366	368	369	371	372	370	369	367	370	372	372	373	370	369	367	364	366	365	364	368	370	370	368	367	366	367	368	369	368	371	378	375	373	368	363	362	360	360	362	363	363	362	360	358	357	360	365	371	369	362	365	368	369	371	369	368	364	363	361	359	355	354	357	360	362	361	358	361	364	365	366	362	355	351	353	358	359	360	360	360	363	365	365	365	364	362	363	361	362	363	355	358	362	362	364	365	366	372	375	374	373	371	367	361	360	360	361	361	361	364	366	366	362	359	359	361	360	360	357	357	357	352	354	0	0	0	0	0	0	0	0
373	375	375	375	374	376	379	379	379	376	376	377	377	377	377	370	368	367	366	364	364	363	364	361	362	365	365	363	363	364	372	378	380	380	379	378	377	373	373	373	373	369	369	368	370	372	373	371	371	369	370	370	369	368	372	374	379	382	374	369	369	363	366	369	369	371	371	372	370	372	377	380	381	378	373	371	371	371	371	375	378	377	368	368	377	377	375	375	377	374	372	365	364	366	370	377	378	378	379	378	377	374	371	371	368	367	365	367	368	370	370	368	366	371	374	374	371	369	368	369	369	369	371	370	365	364	364	368	374	376	375	372	368	369	371	369	363	365	366	369	367	363	361	361	362	364	364	366	368	369	370	371	373	376	371	371	368	367	369	374	376	375	370	365	364	364	364	366	369	368	371	366	367	368	370	373	371	367	366	366	370	371	372	367	364	362	363	370	374	369	358	358	359	364	365	364	364	362	365	366	365	362	362	359	360	358	356	361	360	359	359	364	366	366	366	366	369	373	371	372	370	368	364	363	364	365	365	365	365	362	362	363	364	365	367	371	371	365	363	363	364	362	359	358	359	361	364	363	362	359	357	355	358	359	358	359	361	363	363	359	354	352	356	357	363	368	370	371	370	370	368	368	368	364	364	363	367	366	364	365	364	363	364	365	364	363	358	356	357	357	357	360	361	363	364	365	366	370	371	369	367	364	362	361	359	358	354	355	358	357	358	360	363	364	363	363	364	363	363	362	365	373	368	359	360	364	366	365	362	363	364	363	365	367	371	373	372	371	367	364	363	365	365	363	367	373	372	367	367	373	374	372	370	368	366	367	369	367	365	366	366	369	373	374	374	370	368	366	368	370	373	375	375	375	372	371	369	369	365	364	366	372	370	370	372	371	365	364	367	369	370	380	375	372	367	364	358	359	359	356	360	360	364	375	373	361	360	359	361	362	364	360	356	355	366	373	370	367	360	358	359	363	363	365	368	364	359	357	359	363	367	369	372	370	368	365	363	367	372	374	371	369	369	372	373	372	369	368	364	357	362	367	370	369	365	363	365	367	372	372	357	358	355	355	361	359	358	357	359	361	363	363	357	355	356	358	358	357	357	355	359	359	364	364	365	367	365	363	360	358	356	357	353	351	352	353	357	359	359	360	362	360	359	362	362	361	357	357	360	363	365	364	363	362	357	354	357	353	355	360	366	369	369	367	362	361	361	360	359	366	368	364	354	355	359	361	363	365	364	363	364	360	360	359	358	358	358	358	359	361	360	359	358	357	358	360	368	369	363	360	361	369	361	358	362	358	355	352	352	352	353	354	357	359	356	353	353	357	361	361	357	350	348	351	354	356	356	356	358	361	362	362	361	355	350	347	347	347	349	350	354	354	359	364	365	365	368	366	367	365	363	361	360	358	358	359	360	360	358	361	362	362	362	363	361	362	359	356	357	354	353	353	0	0	0	0	0	0	0	0
362	364	369	369	370	371	369	370	370	370	370	370	371	369	369	366	365	363	361	361	361	360	360	359	359	357	357	356	356	359	364	369	374	374	374	373	371	370	368	370	367	365	365	366	369	370	372	368	368	366	365	365	365	367	369	372	377	374	370	369	369	367	366	367	367	369	368	364	365	366	370	373	376	375	372	368	366	366	368	369	366	363	362	362	364	366	369	367	366	364	361	360	362	365	364	371	374	376	364	364	366	366	368	361	360	360	361	364	367	367	367	365	364	363	364	365	366	365	365	365	366	367	367	364	359	355	357	364	370	371	369	366	365	364	362	358	356	360	360	363	364	359	357	357	359	361	362	366	366	366	364	363	367	366	369	368	368	369	363	368	367	370	366	362	359	358	359	365	361	363	364	367	364	364	363	360	357	354	357	366	369	368	365	363	361	361	361	357	356	348	349	352	354	355	356	361	364	362	359	359	360	361	362	363	359	362	363	362	358	355	358	362	361	357	354	352	353	356	357	354	357	362	363	363	364	364	364	367	362	359	360	366	362	361	363	366	362	361	361	357	356	355	354	353	355	356	354	354	356	357	354	352	358	359	361	358	361	362	363	359	360	356	353	355	358	364	365	367	362	362	361	361	362	362	358	356	359	363	361	361	363	364	362	362	362	356	355	353	355	355	360	358	359	361	362	362	362	362	365	365	364	362	361	362	358	356	361	358	358	355	354	355	351	353	354	354	356	360	362	365	361	359	358	356	358	360	361	358	360	363	362	359	362	362	364	365	364	364	361	361	364	367	366	365	363	367	365	362	362	361	360	353	358	364	363	362	363	366	362	362	361	360	363	364	366	366	363	362	368	370	370	371	371	370	369	364	366	365	363	362	362	364	370	365	364	363	363	361	360	361	362	360	365	365	363	358	357	358	358	357	353	356	359	354	355	359	361	358	357	358	361	358	354	354	356	360	367	363	357	356	357	359	361	364	368	369	361	357	360	363	359	360	362	364	365	363	361	363	365	365	365	358	364	368	363	367	367	363	361	359	363	366	364	363	360	360	360	359	354	355	356	356	353	352	351	358	356	356	355	354	353	356	356	353	354	358	358	354	352	351	351	350	357	361	364	365	364	362	359	356	352	354	355	354	354	355	357	359	358	354	350	348	349	352	355	354	357	358	359	361	361	359	356	350	351	349	348	347	352	353	356	369	366	362	359	356	355	354	353	354	353	352	350	350	352	354	346	343	346	350	351	353	355	356	354	354	354	355	356	357	356	355	356	355	354	355	356	361	363	358	358	358	345	345	348	353	351	351	352	352	352	353	358	353	350	347	353	357	362	357	354	349	345	350	351	352	353	355	356	355	352	349	346	347	346	343	343	344	346	348	353	353	358	361	364	364	365	358	359	361	363	361	359	359	358	358	357	354	353	354	359	362	362	361	359	358	357	354	352	352	351	351	0	0	0	0	0	0	0	0
