0	0	0	0	0	0	0	0	0	0	0	0	0	0	0	0	0	0	0	0	0	0	0	0	0	0	0	0	0	0	0	0	0	0	0	0	0	0	0	0	0	0	0	0	0	0	0	0	0	0	0	0	0	0	0	0	0	0	0	0	0	0	0	0	0	0	0	0	0	0	0	0	0	0	0	0	0	0	0	0	0	0	0	0	0	0	0	0	0	0	0	0	0	0	0	0	0	0	0	0	0	0	0	0	0	0	0	0	0	0	0	0	0	0	0	0	0	0	0	0	0	0	0	0	0	0	0	0	0	0	0	0	0	0	0	0	0	0	0	0	0	0	0	0	0	0	0	0	0	0	0	0	0	0	0	0	0	0	0	0	0	0	0	0	0	0	0	0	0	0	0	0	0	0	0	0	0	0	0	0	0	0	0	0	0	0	0	0	0	0	0	0	0	0	0	0	0	0	0	0	0	0	0	0	0	0	0	0	0	0	1182	1224	1260	1267	1282	1300	1312	1320	1313	1304	1296	1298	1303	1310	1314	1319	1315	1307	1297	1297	1303	1303	1290	1294	1304	1317	1327	1328	1326	1325	1320	1308	1333	1375	1552	1580	1598	1602	1598	1601	1603	1602	1604	1606	1599	1609	1608	1599	1595	1597	1598	1588	1583	1588	1594	1606	1620	1620	1623	1610	1606	1610	1612	1623	1610	1591	1625	1634	1637	1637	1636	1640	1651	1654	1644	1623	1604	1602	1608	1614	1580	1510	1485	1491	1513	1549	1557	1572	1585	1593	1601	1598	1596	1593	1615	1615	1611	1610	1609	1594	1604	1616	1578	1567	1546	1520	1503	1504	1534	1532	1546	1539	1523	1505	1490	1489	1510	1502	1521	1534	1548	1535	1514	1521	1526	1517	1523	1497	1512	1532	1534	1521	1501	1479	1483	1498	1525	1546	1570	1576	1555	1518	1489	1475	1458	1445	1462	1473	1489	1496	1499	1497	1496	1509	1517	1520	1504	1495	1482	1460	1431	1388	1347	1313	1304	1299	1297	1308	1322	1334	1350	1364	1375	1378	1382	1376	1367	1361	1366	1370	1375	1374	1375	1397	1406	1400	1384	1366	1374	1382	1386	1389	1395	1394	1387	1392	1391	1387	1380	1376	1375	1382	1395	1398	1401	1403	1402	1398	1400	1395	1383	1370	1363	1374	1389	1408	1418	1409	1393	1374	1352	1360	1378	1373	1364	1354	1354	1365	1364	1361	1367	1378	1375	1367	1362	1366	1380	1385	1392	1393	1394	1395	1394	1395	1393	1378	1375	1370	1370	1372	1380	1384	1382	1368	1361	1367	1380	1397	1409	1407	1404	1397	1385	1384	1391	1391	1393	1390	1395	1383	1376	1370	1374	1364	1346	1338	1339	1340	1371	1382	1384	1387	1397	1394	1387	1369	1360	1324	1300	1283	1288	1301	1347	1360	1383	1389	1392	1368	1341	1334	1339	1351	1347	1341	1319	1289	1279	1294	1295	1307	1302	1295	1286	1288	1275	1258	1256	1268	1288	1289	1272	1226	1227	1225	1236	1253	1262	1258	1258	1258	1253	1247	1238	1227	1215	1216	1232	1247	1256	1258	1263	1260	1252	1262	1269	1278	1274	1267	1273	1274	1272	1263	1253	1241	1228	1211	1205	1208	0	0	0	0	1187	1178	1193	1197	1200	1215	1219	0	1214	1211	1214	1221	1227	1204	1179	1174	1188	1205	1235	1230	1211	0	1213	1199	1180	1157	1142	1136	1135	1142	1154	1168	1170	1162	1143	1129	1130	1140	1159	1182	1183	1156	1146	1146	1169	1192	1194	1173	1146	1150	1183	1207	1229	1224	1194	1164	1149	1136	1121	0	0	0	0	0	0	0	0	0
0	0	0	0	0	0	0	0	0	0	0	0	0	0	0	0	0	0	0	0	0	0	0	0	0	0	0	0	0	0	0	0	0	0	0	0	0	0	0	0	0	0	0	0	0	0	0	0	0	0	0	0	0	0	0	0	0	0	0	0	0	0	0	0	0	0	0	0	0	0	0	0	0	0	0	0	0	0	0	0	0	0	0	0	0	0	0	0	0	0	0	0	0	0	0	0	0	0	0	0	0	0	0	0	0	0	0	0	0	0	0	0	0	0	0	0	0	0	0	0	0	0	0	0	0	0	0	0	0	0	0	0	0	0	0	0	0	0	0	0	0	0	0	0	0	0	0	0	0	0	0	0	0	0	0	0	0	0	0	0	0	0	0	0	0	0	0	0	0	0	0	0	0	0	0	0	0	0	0	0	0	0	0	0	0	0	0	0	0	0	0	0	0	0	0	0	0	0	0	0	0	0	0	0	0	1272	0	0	0	0	1208	1222	1241	1262	1279	1303	1326	1323	1310	1297	1285	1283	1293	1301	1312	1317	1313	1300	1287	1290	1292	1291	1283	1297	1307	1313	1319	1319	1318	1317	1320	1328	1344	1377	1475	1527	1578	1592	1584	1587	1598	1607	1606	1603	1598	1587	1587	1581	1585	1588	1575	1561	1555	1548	1541	1548	1533	1501	1497	1504	1506	1493	1475	1471	1472	1494	1473	1474	1477	1491	1520	1530	1509	1488	1473	1471	1468	1461	1443	1439	1430	1428	1445	1454	1466	1500	1517	1555	1563	1579	1578	1582	1545	1524	1549	1541	1536	1588	1600	1585	1598	1601	1566	1545	1531	1494	1479	1490	1491	1497	1491	1471	1455	1438	1426	1412	1432	1447	1475	1478	1452	1444	1449	1461	1422	1396	1405	1418	1424	1426	1421	1385	1370	1362	1367	1390	1419	1435	1434	1427	1411	1411	1409	1404	1388	1377	1385	1400	1419	1428	1428	1423	1424	1438	1458	1469	1457	1439	1423	1409	1385	1374	1363	1360	1356	1358	1359	1371	1373	1382	1392	1404	1408	1392	1372	1362	1361	1363	1367	1374	1378	1385	1394	1408	1412	1410	1397	1386	1386	1387	1389	1387	1387	1384	1382	1397	1401	1394	1383	1381	1382	1379	1383	1392	1396	1396	1395	1395	1387	1374	1372	1362	1362	1364	1379	1381	1386	1388	1383	1373	1349	1348	1355	1364	1358	1354	1349	1356	1355	1358	1367	1373	1374	1366	1360	1358	1373	1389	1397	1401	1395	1386	1385	1391	1395	1388	1381	1368	1370	1371	1378	1376	1374	1367	1359	1370	1381	1400	1410	1406	1396	1386	1376	1374	1325	1323	1314	1322	1330	1337	1325	1317	1325	1360	1366	1346	1325	1333	1345	1320	1280	1254	1246	1250	1243	1233	1229	1228	1229	1235	1245	1255	1278	1265	1275	1284	1277	1264	1250	1227	1230	1255	1273	1270	1241	1216	1222	1241	1260	1264	1261	1258	1261	1266	1258	1237	1222	1227	1232	1214	1214	1204	1197	1193	1205	1215	1228	1234	1232	1232	1235	1232	1227	1208	1196	1193	1196	1211	1224	1242	1250	1242	1237	1239	1247	1250	1244	1234	1234	1234	1229	1221	1222	1212	1209	1178	1166	1169	1193	1199	1199	1192	1183	1163	1160	1168	1175	1182	1198	1201	1201	1205	1208	1194	1186	1177	1169	1171	1191	1204	1214	1203	1197	1189	1193	1198	1184	1156	1125	1112	1104	1101	1114	1145	1164	1165	1146	1128	1123	1122	1132	1139	1132	1120	1112	1112	1126	1162	1174	1119	1116	1122	1148	1201	1194	1191	1151	1116	1113	1107	1099	0	0	0	0	0	0	0	0	0
0	0	0	0	0	0	0	0	0	0	0	0	0	0	0	0	0	0	0	0	0	0	0	0	0	0	0	0	0	0	0	0	0	0	0	0	0	0	0	0	0	0	0	0	0	0	0	0	0	0	0	0	0	0	0	0	0	0	0	0	0	0	0	0	0	0	0	0	0	0	0	0	0	0	0	0	0	0	0	0	0	0	0	0	0	0	0	0	0	0	0	0	0	0	0	0	0	0	0	0	0	0	0	0	0	0	0	0	0	0	0	0	0	0	0	0	0	0	0	0	0	0	0	0	0	0	0	0	0	0	0	0	0	0	0	0	0	0	0	0	0	0	0	0	0	0	0	0	0	0	0	0	0	0	0	0	0	0	0	0	0	0	0	0	1300	1335	0	0	0	0	0	0	0	0	0	0	0	0	0	0	0	0	0	1285	0	1306	1314	1321	1325	1324	0	0	0	0	0	1281	1274	1277	0	0	0	0	0	0	1261	1267	1263	0	0	1242	1256	1236	1240	1257	1280	1299	1319	1316	1303	1295	1280	1278	1280	1299	1309	1310	1306	1296	1287	1287	1287	1289	1296	1305	1308	1310	1306	1309	1309	1313	1321	1339	1362	1387	1450	1481	1479	1477	1460	1461	1466	1462	1454	1464	1501	1533	1533	1520	1540	1566	1564	1548	1540	1525	1515	1522	1514	1464	1467	1474	1476	1460	1447	1443	1444	1459	1437	1438	1442	1464	1485	1491	1474	1459	1445	1447	1450	1427	1398	1374	1372	1391	1400	1396	1402	1396	1397	1399	1402	1398	1380	1367	1362	1377	1386	1395	1397	1400	1402	1405	1404	1420	1431	1434	1427	1398	1371	1382	1398	1401	1390	1375	1369	1368	1366	1363	1378	1389	1402	1399	1393	1393	1402	1410	1382	1378	1376	1376	1381	1384	1392	1397	1383	1370	1366	1367	1379	1385	1387	1385	1384	1385	1381	1382	1388	1391	1390	1388	1385	1379	1379	1380	1386	1394	1406	1411	1415	1409	1403	1391	1386	1375	1372	1377	1380	1370	1364	1367	1368	1378	1389	1400	1406	1385	1364	1352	1356	1360	1369	1376	1384	1393	1403	1416	1422	1421	1405	1391	1388	1390	1390	1387	1384	1376	1384	1395	1402	1393	1385	1382	1380	1385	1389	1387	1386	1385	1385	1384	1378	1370	1368	1356	1357	1365	1376	1384	1390	1391	1389	1380	1371	1358	1355	1363	1355	1350	1345	1348	1353	1352	1356	1356	1355	1342	1320	1319	1330	1359	1370	1380	1386	1384	1376	1369	1369	1368	1365	1353	1342	1334	1323	1318	1318	1331	1351	1388	1399	1393	1368	1348	1279	1275	1259	1244	1240	1243	1257	1279	1289	1285	1275	1270	1274	1288	1282	1263	1255	1250	1279	1253	1233	1222	1224	1231	1225	1209	1202	1211	1214	1215	1203	1193	1202	1211	1226	1238	1236	1220	1203	1183	1189	1204	1228	1226	1200	1182	1188	1198	1212	1212	1218	1216	1221	1240	1234	1213	1189	1175	1174	1171	1190	1186	1174	1166	1176	1187	1194	1196	1205	1205	1210	1207	1212	1204	1191	1184	1175	1182	1193	1202	1216	1217	1208	1209	1208	1212	1207	1199	1199	1192	1182	1179	1184	1175	1158	1135	1126	1132	1165	1180	1176	1178	1145	1137	1132	1142	1143	1157	1167	1165	1177	1193	1195	1180	1158	1158	1160	1166	1172	1167	1163	1166	1164	1162	1167	1167	1157	1136	1109	1101	1090	1087	1089	1118	1137	1148	1139	1119	1101	1099	1108	1115	1112	1104	1110	1110	1114	1107	1115	1095	1080	1103	1119	1115	1090	1072	1065	1059	1079	1085	1085	0	0	0	0	0	0	0	0	0
0	0	0	0	0	0	0	0	0	0	0	0	0	0	0	0	0	0	0	0	0	0	0	0	0	0	0	0	0	0	0	0	0	0	0	0	0	0	0	0	0	0	0	0	0	0	0	0	0	0	0	0	0	0	0	0	0	0	0	0	0	0	0	0	0	0	0	0	0	0	0	0	0	0	0	0	0	0	0	0	0	0	0	0	0	0	0	0	0	0	0	0	0	0	0	0	0	0	0	0	0	0	0	0	0	0	0	0	0	0	0	0	0	0	0	0	0	0	0	0	0	0	0	0	0	0	0	0	0	0	0	0	0	0	0	0	0	0	0	0	0	0	0	0	0	0	0	0	1358	1338	1320	1296	1284	0	0	1246	1252	1273	0	0	0	0	0	0	1307	1344	0	0	1333	0	0	0	0	0	0	0	0	0	0	0	0	0	1325	1291	1276	1281	1289	1301	1308	1313	1334	0	0	0	1262	1253	1259	1255	1235	1228	1246	1286	1321	1327	1313	1292	1280	1284	1281	1271	1267	1274	1309	1312	1305	1299	1305	1300	1298	1290	1282	1277	1273	1293	1301	1304	1300	1297	1292	1286	1281	1287	1289	1302	1299	1293	1293	1294	1295	1300	1313	1345	1356	1377	1433	1461	1454	1429	1422	1435	1442	1439	1427	1427	1454	1475	1444	1413	1389	1375	1373	1377	1371	1357	1351	1352	1357	1375	1383	1376	1363	1352	1353	1359	1368	1358	1344	1357	1371	1389	1392	1389	1391	1380	1370	1363	1355	1352	1336	1324	1316	1313	1321	1325	1338	1378	1395	1401	1397	1384	1377	1370	1359	1351	1360	1360	1366	1364	1365	1366	1378	1395	1405	1402	1397	1379	1373	1382	1393	1396	1393	1387	1379	1365	1350	1348	1360	1361	1363	1370	1374	1379	1385	1380	1368	1370	1358	1358	1376	1390	1396	1401	1393	1379	1369	1368	1367	1368	1368	1371	1372	1366	1363	1365	1385	1393	1394	1392	1388	1380	1375	1369	1377	1387	1395	1407	1410	1407	1395	1385	1381	1376	1372	1380	1381	1381	1376	1359	1350	1348	1363	1395	1401	1380	1358	1352	1356	1360	1369	1377	1387	1393	1401	1403	1402	1411	1411	1399	1388	1387	1388	1389	1383	1378	1373	1386	1384	1377	1373	1376	1405	1402	1398	1377	1363	1363	1369	1368	1375	1364	1351	1346	1353	1376	1399	1416	1421	1410	1384	1359	1345	1332	1322	1320	1303	1264	1293	1323	1343	1344	1338	1334	1334	1323	1300	1292	1286	1262	1254	1259	1275	1291	1298	1291	1284	1284	1269	1258	1246	1240	1241	1247	1263	1285	1313	1325	1236	1228	1237	1239	1240	1230	1217	1216	1217	1218	1231	1241	1247	1240	1229	1233	1235	1239	1233	1224	1210	1204	1211	1203	1202	1201	1212	1221	1216	1191	1177	1183	1185	1184	1172	1163	1150	1164	1180	1194	1193	1181	1170	1153	1149	1160	1169	1179	1163	1144	1154	1158	1164	1163	1164	1168	1180	1191	1197	1181	1156	1142	1133	1137	1162	1163	1144	1140	1142	1145	1148	1159	1169	1171	1166	1181	1195	1200	1193	1173	1146	1144	1143	1146	1153	1144	1141	1148	1149	1153	1152	1169	1158	1138	1129	1139	1135	1130	1120	1105	1096	1094	1126	1133	1119	1109	1101	1098	1101	1109	1112	1113	1115	1122	1131	1146	1152	1142	1132	1129	1138	1148	1133	1108	1103	1122	1126	1130	1128	1125	1111	1106	1100	1101	1093	1081	1071	1083	1094	1108	1111	1089	1069	1069	1077	1084	1091	1079	1091	1091	1098	1095	1077	1057	1060	1067	1083	1072	1052	1034	1034	1036	1057	1068	1065	0	0	0	0	0	0	0	0	0
0	0	0	0	0	0	0	0	0	0	0	0	0	0	0	0	0	0	0	0	0	0	0	0	0	0	0	0	0	0	0	0	0	0	0	0	0	0	0	0	0	0	0	0	0	0	0	0	0	0	0	0	0	0	0	0	0	0	0	0	0	0	0	0	0	0	0	0	0	0	0	0	0	0	0	0	0	0	0	0	0	0	0	0	0	0	0	0	0	0	0	0	0	0	0	0	0	0	0	0	0	0	0	0	0	0	0	0	0	0	0	0	0	0	0	0	0	0	1274	1255	1231	1232	0	0	0	0	1273	1282	1305	0	0	0	0	0	1310	1342	0	0	1351	1321	1302	1314	0	0	0	0	1378	1391	1382	1362	1342	1325	1299	1280	1259	1251	1246	1258	1280	1301	1315	1309	1306	1307	1321	0	0	1331	1307	1294	0	0	0	0	0	0	0	0	0	1331	1342	1344	1325	1290	1266	1262	1269	1283	1289	1290	1299	1301	1274	1254	1228	1233	1256	1276	1288	1277	1285	1307	1334	1346	1335	1334	1318	1331	1328	1314	1302	1300	1313	1325	1324	1323	1323	1325	1332	1319	1315	1314	1309	1314	1316	1313	1312	1307	1306	1310	1321	1323	1316	1304	1291	1290	1303	1318	1313	1312	1317	1345	1353	1349	1370	1386	1389	1366	1361	1358	1357	1357	1348	1347	1344	1338	1340	1334	1325	1322	1320	1328	1350	1364	1360	1353	1351	1356	1363	1356	1348	1352	1358	1361	1357	1348	1339	1347	1353	1360	1363	1351	1339	1345	1344	1344	1341	1333	1307	1293	1291	1294	1305	1330	1366	1373	1377	1381	1379	1359	1354	1352	1356	1352	1358	1366	1382	1395	1392	1390	1381	1372	1370	1365	1366	1367	1368	1374	1378	1379	1381	1380	1375	1363	1349	1345	1353	1362	1373	1376	1370	1370	1371	1366	1355	1351	1345	1350	1373	1389	1398	1404	1395	1381	1368	1367	1362	1362	1361	1365	1365	1367	1365	1365	1386	1395	1395	1395	1392	1382	1372	1364	1368	1376	1390	1399	1393	1373	1357	1358	1369	1369	1365	1359	1357	1338	1326	1321	1315	1319	1337	1365	1386	1376	1363	1346	1325	1324	1330	1339	1340	1337	1325	1317	1325	1373	1400	1398	1390	1375	1369	1370	1372	1370	1345	1341	1340	1339	1342	1354	1345	1340	1331	1331	1320	1319	1308	1297	1306	1306	1308	1319	1343	1360	1353	1338	1318	1299	1287	1275	1272	1277	1289	1291	1267	1232	1241	1269	1285	1291	1287	1275	1264	1261	1262	1263	1257	1254	1241	1233	1239	1244	1246	1245	1240	1232	1225	1217	1214	1210	1210	1209	1170	1181	1186	1196	1198	1194	1184	1190	1186	1175	1169	1177	1181	1183	1189	1206	1206	1201	1199	1194	1192	1192	1182	1172	1161	1157	1165	1165	1162	1166	1188	1198	1190	1157	1138	1151	1153	1153	1146	1134	1110	1121	1125	1141	1147	1142	1137	1124	1119	1119	1119	1117	1108	1109	1118	1123	1119	1119	1120	1129	1138	1143	1142	1132	1115	1114	1111	1103	1109	1109	1104	1101	1105	1096	1107	1121	1134	1135	1136	1139	1151	1175	1159	1147	1108	1095	1093	1095	1096	1104	1104	1100	1095	1089	1085	1084	1064	1051	1056	1079	1087	1083	1085	1074	1068	1064	1071	1060	1053	1049	1060	1062	1063	1063	1060	1058	1068	1078	1082	1086	1079	1085	1097	1108	1106	1100	1070	1066	1063	1068	1082	1082	1076	1068	1057	1064	1064	1079	1079	1063	1046	1041	1045	1062	1064	1051	1035	1043	1024	1020	1018	1030	1042	1042	1064	1059	1036	1034	1034	1044	1042	1041	1021	1002	998	1016	1036	1044	1030	0	0	0	0	0	0	0	0	0
0	0	0	0	0	0	0	0	0	0	0	0	0	0	0	0	0	0	0	0	0	0	0	0	0	0	0	0	0	0	0	0	0	0	0	0	0	0	0	0	0	0	0	0	0	0	0	0	0	0	0	0	0	0	0	0	0	0	0	0	0	0	0	0	0	0	0	0	0	0	0	0	0	0	0	0	0	0	0	0	0	0	0	0	0	0	0	0	1190	1199	1207	1210	1215	0	0	0	0	0	1174	1185	1197	1226	0	0	0	0	0	0	0	0	0	0	1320	1292	1276	1274	1282	1283	1284	1266	1241	1230	1254	0	1285	1272	1269	1286	1302	1320	0	0	0	1296	1327	1351	1376	1364	1326	1291	1283	1295	1314	1318	1321	1345	1367	1374	1364	1355	1346	1330	1303	1276	1251	1237	1226	1228	1259	1279	1301	1293	1294	1298	1309	0	1316	1292	1279	1276	0	0	0	0	0	0	0	0	1327	1308	1300	1297	1284	1269	1253	1259	1266	1267	1258	1262	1269	1267	1237	1211	1195	1225	1265	1279	1270	1299	1297	1308	1317	1324	1332	1340	1319	1317	1308	1296	1292	1302	1315	1325	1326	1326	1323	1322	1328	1333	1333	1329	1330	1335	1339	1340	1332	1326	1334	1348	1355	1345	1327	1315	1309	1315	1328	1330	1334	1333	1337	1333	1340	1342	1352	1359	1358	1352	1346	1340	1346	1347	1348	1342	1334	1325	1324	1323	1328	1325	1312	1311	1321	1329	1335	1348	1351	1352	1354	1347	1344	1336	1335	1339	1341	1335	1331	1331	1341	1349	1352	1346	1337	1327	1326	1329	1328	1300	1270	1263	1268	1280	1295	1327	1367	1374	1377	1382	1375	1360	1354	1360	1361	1356	1357	1367	1386	1399	1398	1390	1379	1363	1367	1363	1364	1363	1366	1370	1372	1358	1348	1345	1331	1331	1340	1348	1355	1366	1372	1377	1366	1357	1355	1336	1334	1347	1365	1377	1368	1356	1352	1355	1351	1335	1314	1305	1330	1329	1333	1343	1341	1340	1338	1345	1357	1358	1359	1365	1366	1362	1350	1338	1337	1336	1337	1336	1327	1314	1302	1306	1305	1296	1293	1292	1285	1273	1266	1270	1274	1292	1307	1327	1343	1344	1329	1297	1285	1289	1304	1325	1327	1318	1307	1296	1292	1295	1306	1309	1301	1286	1275	1278	1275	1275	1276	1279	1275	1268	1277	1282	1287	1269	1268	1272	1273	1260	1251	1246	1246	1239	1235	1241	1252	1268	1268	1257	1251	1245	1243	1237	1232	1233	1236	1233	1215	1206	1214	1234	1250	1252	1250	1242	1233	1230	1233	1240	1240	1228	1221	1218	1215	1217	1212	1202	1193	1184	1200	1198	1166	1160	1154	1148	1144	1129	1127	1133	1147	1147	1134	1137	1136	1124	1123	1134	1130	1131	1135	1160	1165	1160	1159	1151	1131	1129	1119	1105	1100	1106	1108	1113	1117	1128	1131	1130	1122	1090	1083	1081	1114	1118	1105	1076	1046	1045	1049	1050	1069	1087	1096	1091	1078	1063	1055	1046	1054	1070	1082	1080	1076	1079	1086	1097	1109	1110	1108	1098	1080	1071	1057	1049	1036	1021	1028	1034	1044	1052	1056	1075	1079	1091	1070	1069	1079	1078	1055	1057	1055	1036	1026	1032	1043	1060	1065	1062	1054	1048	1042	1040	1035	1026	1011	1011	1034	1050	1053	1046	1036	1038	1038	1022	1010	1012	1014	1028	1036	1036	1021	1019	1031	1038	1027	1035	1033	1036	1052	1054	1034	1030	1024	1028	1033	1034	1038	1031	1020	1018	1016	1041	1043	1033	1014	1002	1001	1000	1008	1013	1008	1002	992	1000	995	996	995	1002	1007	1007	1010	1003	997	998	1006	1010	1012	1002	990	965	956	975	996	1006	992	0	0	0	0	0	0	0	0	0
0	0	0	0	0	0	0	0	0	0	0	0	0	0	0	0	0	0	0	0	0	0	0	0	0	0	0	0	0	0	0	0	0	0	0	0	0	0	0	0	0	0	0	0	0	0	0	0	0	0	0	0	0	0	0	0	0	0	0	0	0	0	0	0	0	0	0	0	0	0	0	0	0	0	0	0	0	0	0	0	0	0	0	0	1222	1220	1219	1211	1207	1212	1217	1224	1228	0	0	0	0	1189	1195	1206	1210	1242	1270	1298	1300	1259	1254	1263	1279	1309	1334	1334	1316	1286	1267	1266	1268	1274	1270	1253	1236	1221	1225	1284	1278	1259	1249	1263	1271	1277	1257	1247	1242	1276	1311	1348	1356	1343	1297	1264	1262	1278	1294	1298	1308	1325	1340	1335	1327	1327	1327	1314	1284	1261	1238	1230	1217	1219	1236	1264	1284	1283	1271	1268	1279	1276	1267	1246	1248	1262	0	0	0	0	0	1248	1298	1327	1312	1287	1259	1241	1231	1228	1227	1239	1250	1246	1239	1238	1250	1242	1209	1188	1179	1216	1259	1270	1301	1310	1319	1306	1314	1322	1329	1325	1312	1309	1301	1293	1298	1304	1319	1324	1319	1318	1322	1313	1317	1329	1331	1326	1326	1339	1348	1348	1342	1335	1341	1347	1348	1340	1331	1326	1328	1333	1338	1337	1334	1334	1330	1329	1328	1336	1361	1365	1355	1349	1343	1340	1354	1352	1353	1351	1337	1326	1324	1321	1324	1322	1318	1314	1317	1319	1332	1340	1340	1341	1348	1348	1345	1338	1334	1337	1344	1348	1335	1330	1342	1350	1354	1342	1333	1323	1317	1326	1280	1261	1247	1250	1257	1260	1264	1285	1324	1367	1384	1373	1367	1366	1371	1361	1348	1342	1353	1365	1378	1389	1374	1345	1343	1335	1339	1341	1337	1328	1328	1324	1310	1307	1313	1321	1328	1330	1335	1337	1348	1353	1352	1341	1330	1315	1303	1304	1308	1314	1329	1340	1308	1292	1277	1275	1289	1278	1264	1260	1269	1271	1273	1274	1265	1263	1267	1274	1281	1265	1261	1261	1280	1292	1297	1295	1288	1275	1269	1266	1262	1253	1244	1240	1240	1238	1238	1229	1233	1224	1213	1218	1232	1230	1220	1233	1253	1258	1250	1241	1237	1226	1223	1233	1257	1273	1284	1275	1263	1250	1245	1236	1244	1241	1235	1228	1228	1228	1234	1239	1240	1225	1209	1209	1212	1220	1226	1230	1229	1227	1220	1214	1204	1195	1196	1205	1212	1220	1220	1214	1215	1218	1220	1213	1196	1195	1198	1202	1194	1181	1170	1176	1194	1203	1210	1186	1173	1179	1209	1215	1219	1206	1194	1186	1180	1180	1177	1163	1155	1113	1129	1138	1133	1132	1124	1116	1105	1094	1078	1088	1107	1090	1086	1088	1096	1081	1089	1081	1072	1073	1086	1098	1106	1119	1108	1071	1072	1076	1075	1066	1055	1049	1055	1048	1039	1031	1018	1005	1004	1026	1038	1042	1039	1041	1037	1035	1010	1006	1012	1020	1022	1024	1043	1037	1020	1006	1006	1009	1021	1043	1054	1053	1048	1048	1052	1049	1069	1072	1062	1066	1055	1028	1018	1013	988	982	982	989	995	1007	1011	1018	1034	1026	1013	1011	1011	1012	998	1001	1005	996	975	968	966	984	991	995	992	999	992	993	997	999	990	987	997	1008	1007	1006	995	1000	993	966	949	944	949	983	982	984	970	965	989	988	982	969	963	975	975	981	974	982	991	993	984	982	979	967	956	958	969	996	995	980	969	948	954	957	959	962	962	958	963	965	974	977	978	982	981	981	982	974	968	963	964	978	979	976	965	949	944	943	954	966	964	0	0	0	0	0	0	0	0	0
0	0	0	0	0	0	0	0	0	0	0	0	0	0	0	0	0	0	0	0	0	0	0	0	0	0	0	0	0	0	0	0	0	0	0	0	0	0	0	0	0	0	0	0	0	0	0	0	0	0	0	0	0	0	0	0	0	0	0	0	0	0	0	0	0	0	0	0	0	0	0	0	0	1219	1205	1191	1180	0	0	0	0	0	1226	1218	1215	1220	1223	1222	1217	1219	1222	1227	1230	0	0	0	0	1199	1215	1228	1235	1242	1250	1254	1247	1234	1226	1231	1244	1277	1301	1312	1304	1280	1264	1255	1258	1248	1241	1223	1203	1197	1205	1245	1247	1236	1237	1239	1249	1255	1240	1230	1221	1242	1280	1314	1328	1310	1286	1250	1244	1258	1262	1270	1297	1300	1311	1304	1300	1293	1293	1272	1261	1258	1249	1240	1228	1213	1217	1243	1272	1270	1252	1238	1218	1219	1222	1213	1221	1244	0	0	0	0	1211	1217	1280	1318	1304	1276	1231	1202	1194	1197	1197	1217	1239	1239	1235	1242	1239	1216	1195	1177	1165	1192	1254	1273	1282	1306	1321	1308	1312	1321	1328	1324	1309	1306	1303	1299	1305	1312	1324	1323	1317	1312	1311	1311	1318	1328	1326	1323	1323	1325	1341	1344	1340	1332	1343	1346	1345	1339	1331	1331	1333	1341	1339	1343	1341	1340	1327	1328	1331	1338	1350	1364	1357	1350	1344	1343	1359	1364	1364	1351	1336	1334	1325	1332	1336	1332	1321	1318	1312	1313	1314	1326	1324	1337	1342	1345	1346	1345	1338	1337	1342	1349	1340	1350	1347	1343	1331	1331	1360	1360	1343	1297	1260	1247	1238	1245	1250	1243	1241	1255	1284	1318	1344	1329	1338	1349	1364	1355	1336	1306	1300	1305	1313	1319	1317	1303	1289	1279	1295	1283	1286	1283	1280	1290	1294	1288	1271	1258	1251	1253	1269	1275	1280	1290	1290	1277	1273	1258	1241	1227	1230	1246	1263	1259	1248	1238	1230	1228	1232	1218	1203	1206	1218	1231	1224	1215	1206	1202	1200	1207	1216	1210	1215	1214	1229	1236	1242	1237	1222	1191	1187	1189	1194	1202	1203	1199	1197	1188	1180	1180	1177	1170	1172	1179	1185	1186	1169	1163	1176	1195	1205	1209	1202	1188	1180	1190	1207	1229	1243	1235	1222	1207	1196	1193	1200	1199	1197	1189	1187	1187	1193	1205	1207	1192	1177	1168	1167	1180	1187	1195	1193	1186	1176	1173	1155	1150	1152	1161	1169	1169	1170	1168	1170	1179	1182	1177	1162	1155	1163	1172	1176	1147	1134	1128	1138	1142	1132	1120	1113	1131	1154	1189	1185	1176	1169	1159	1150	1145	1115	1105	1093	1064	1065	1068	1079	1097	1096	1088	1072	1059	1051	1052	1046	1010	1025	1063	1064	1061	1030	1023	1018	1026	1025	1031	1045	1038	1025	1014	1028	1056	1047	1039	1025	1023	1020	1019	1001	998	994	978	962	963	977	999	1000	997	997	989	975	970	971	990	996	993	983	966	961	963	964	975	988	1012	1009	1012	1019	1020	1014	1004	996	996	1003	1009	1010	1001	993	991	964	953	956	961	964	970	972	979	987	988	980	974	969	969	963	961	958	951	949	945	931	925	922	921	929	952	952	947	946	958	968	969	972	962	963	956	948	947	924	923	918	920	920	922	922	925	927	923	923	930	931	932	929	928	926	933	948	951	948	954	952	944	933	927	925	938	949	952	956	948	924	913	909	916	925	929	933	934	943	946	951	954	961	959	953	953	949	949	943	943	935	936	945	945	940	935	930	925	931	935	947	0	0	0	0	0	0	0	0	0
0	0	0	0	0	0	0	0	0	0	0	0	0	0	0	0	0	0	0	0	0	0	0	0	0	0	0	0	0	0	0	0	0	0	0	0	0	0	0	0	0	0	0	0	0	0	0	0	0	0	0	0	0	0	0	0	0	0	0	0	0	0	0	0	0	0	0	1243	1238	1233	1233	1233	1233	1225	1209	1191	1166	1168	0	0	1202	1199	1206	1208	1226	1233	1226	1227	1225	1225	1222	1211	1216	1224	0	0	1196	1211	1232	1244	1246	1241	1242	1231	1227	1216	1209	1210	1218	1239	1256	1272	1273	1274	1261	1248	1243	1240	1222	1192	1168	1161	1179	1220	1219	1224	1228	1235	1242	1251	1250	1235	1223	1232	1249	1267	0	1283	1260	1244	1229	1238	1242	1243	1271	1279	0	0	1272	1263	1253	1235	1237	1247	1260	1252	1230	1208	1201	1217	1239	1239	1222	1206	1187	1176	1184	1199	1210	1227	1233	1235	1215	1171	1171	1198	1279	1295	1290	1252	1221	1198	1182	1170	1177	1193	1219	1244	1254	1247	1240	1205	1197	1180	1166	1164	1210	1259	1274	1285	1287	1280	1275	1274	1275	1269	1280	1283	1279	1276	1286	1300	1306	1291	1283	1281	1291	1309	1319	1316	1317	1323	1331	1306	1253	1247	1250	1254	1253	1280	1288	1335	1331	1335	1344	1336	1321	1311	1306	1322	1324	1314	1302	1310	1326	1341	1340	1337	1336	1342	1343	1338	1330	1322	1316	1315	1327	1330	1334	1326	1314	1310	1307	1297	1298	1298	1307	1313	1302	1293	1291	1298	1301	1305	1304	1302	1302	1315	1317	1322	1328	1313	1301	1294	1279	1263	1246	1231	1216	1221	1224	1219	1216	1212	1233	1258	1274	1276	1284	1284	1296	1309	1311	1298	1274	1262	1273	1285	1286	1295	1289	1290	1259	1248	1245	1250	1261	1271	1282	1272	1256	1244	1233	1232	1242	1253	1255	1263	1261	1246	1237	1224	1214	1209	1213	1224	1231	1227	1219	1204	1198	1196	1199	1193	1179	1168	1173	1191	1190	1180	1173	1168	1164	1160	1144	1145	1157	1162	1181	1196	1197	1185	1168	1160	1157	1146	1149	1149	1157	1156	1158	1153	1150	1149	1150	1144	1138	1136	1134	1129	1134	1134	1134	1144	1149	1157	1154	1145	1146	1142	1151	1174	1180	1177	1166	1154	1149	1156	1165	1170	1166	1162	1152	1139	1144	1148	1162	1149	1125	1108	1116	1126	1123	1124	1122	1129	1114	1099	1096	1105	1111	1118	1123	1122	1116	1110	1116	1124	1125	1112	1114	1105	1111	1130	1145	1119	1093	1087	1096	1082	1060	1057	1067	1080	1101	1103	1151	1092	1078	1000	1033	1025	1015	1010	1002	1003	993	995	1011	1012	1011	1007	1013	1018	1030	1024	985	979	994	1015	1023	1012	1000	989	991	988	994	1001	1002	997	982	983	990	1014	1022	1015	982	986	993	988	984	978	976	963	949	945	958	970	966	950	940	947	955	949	947	948	951	945	945	942	941	935	940	953	955	958	948	969	981	981	966	951	951	950	955	960	967	959	950	954	949	937	937	940	931	932	925	931	954	960	942	914	915	919	923	913	902	912	920	919	910	904	905	908	907	904	899	898	910	926	935	952	939	927	917	912	905	908	900	904	908	905	905	901	900	903	910	918	913	901	894	899	899	898	899	906	914	905	912	917	914	908	900	901	910	926	939	938	930	918	899	887	878	887	900	908	915	919	929	934	936	935	939	927	914	914	909	928	932	934	928	920	909	908	921	915	901	898	892	894	900	0	0	0	0	0	0	0	0	0
0	0	0	0	0	0	0	0	0	0	0	0	0	0	0	0	0	0	0	0	0	0	0	0	0	0	0	0	0	0	0	0	0	1155	1155	1147	0	0	0	0	0	0	0	0	1180	1185	0	0	0	0	0	0	0	0	0	0	0	0	0	0	0	1199	1199	1188	1198	1213	1221	1224	1220	1220	1216	1216	1220	1210	1195	1169	1148	1158	1180	1194	1206	1205	1212	1227	1244	0	1233	1232	1225	1230	1214	1197	1200	1209	1210	1190	1186	1207	1232	1253	1246	1229	1223	1222	1217	1208	1203	1197	1207	1213	1218	1222	1237	1235	1238	1224	1219	1209	1194	1163	1144	1149	1164	1202	1212	1220	1221	1224	1232	0	1261	1263	1242	1224	1221	1227	0	1254	1245	1231	1214	1206	1199	1204	1222	1228	1244	1255	1250	1238	1223	1209	1217	1236	1250	1243	1211	1181	1176	1185	1199	1203	1196	1179	1168	1166	1176	1194	1207	1216	1211	1204	1180	1165	1161	1175	1259	1269	1255	1221	1205	1190	1174	1170	1175	1190	1214	1233	1250	1240	1218	1197	1191	1178	1163	1148	1164	1202	1234	1256	1258	1258	1258	1258	1256	1263	1257	1251	1258	1258	1254	1266	1278	1273	1260	1244	1239	1238	1240	1247	1266	1293	1301	1284	1216	1202	1199	1203	1200	1195	1198	1208	1220	1231	1307	1291	1273	1265	1271	1277	1281	1279	1281	1287	1295	1279	1272	1274	1286	1295	1296	1300	1283	1273	1261	1258	1246	1231	1226	1226	1243	1252	1247	1223	1218	1224	1226	1239	1247	1247	1251	1255	1251	1255	1248	1248	1253	1263	1256	1252	1258	1228	1235	1241	1229	1224	1198	1183	1182	1189	1188	1190	1190	1183	1178	1196	1223	1233	1231	1219	1198	1197	1196	1182	1174	1197	1196	1196	1202	1215	1226	1229	1215	1193	1188	1190	1209	1229	1241	1235	1227	1206	1194	1192	1202	1212	1212	1201	1200	1190	1183	1173	1171	1178	1186	1196	1194	1187	1178	1171	1164	1153	1159	1151	1136	1123	1123	1141	1154	1144	1135	1135	1122	1109	1105	1105	1098	1111	1134	1150	1154	1148	1144	1137	1125	1110	1111	1117	1110	1112	1111	1116	1119	1113	1111	1102	1098	1098	1100	1099	1101	1096	1097	1098	1099	1107	1106	1103	1094	1092	1094	1096	1099	1115	1115	1104	1103	1115	1128	1137	1111	1096	1112	1090	1090	1086	1087	1094	1070	1042	1040	1051	1064	1067	1065	1067	1064	1060	1061	1067	1082	1078	1078	1073	1065	1057	1063	1065	1067	1033	1015	1040	1041	1059	1076	1054	1027	1017	1032	1024	1020	1019	1028	1043	1048	1058	1043	968	969	976	981	973	948	940	950	958	966	965	965	970	968	963	965	963	952	934	931	935	939	941	952	987	981	962	960	948	952	962	963	962	950	934	940	953	960	954	949	957	956	955	947	946	935	928	927	932	943	939	919	900	896	907	933	927	917	913	912	917	923	925	922	922	927	930	932	906	904	932	935	934	925	925	927	923	916	908	909	915	908	901	874	876	886	884	884	887	889	895	907	905	901	897	891	889	883	876	881	888	889	895	890	893	900	903	902	898	885	881	885	895	903	896	896	896	890	877	869	880	881	885	888	888	887	882	880	891	905	918	913	897	882	867	865	871	876	880	882	884	888	893	897	894	889	886	897	915	932	922	911	903	889	873	865	871	878	893	899	907	915	923	923	922	920	911	904	904	904	908	915	917	903	898	899	897	887	880	868	860	863	870	867	0	0	0	0	0	0	0	0	0
0	0	0	0	0	0	0	0	0	0	0	0	0	0	0	0	0	0	0	0	0	0	0	0	0	0	0	0	0	0	0	0	1162	1155	1155	1151	1152	1160	1177	0	0	0	1207	1207	1192	1176	1188	1209	1208	1217	1207	1203	0	0	0	0	1239	1221	1216	1225	1223	1207	1181	1174	1182	1196	1210	1215	1212	1206	1194	1194	1190	1189	1175	1149	1129	1139	1176	1202	1218	1221	1229	1241	1249	0	1230	1219	1217	1215	1202	1191	1187	1195	1198	1185	1178	1199	1221	0	1243	1212	1203	1204	1203	1193	1182	1186	1189	1198	1192	1175	1177	1199	1193	1181	1179	1177	1173	1159	1154	1157	1167	1189	1195	1208	1201	1191	1197	1223	1244	1255	1245	1215	1192	1198	1206	1208	1202	1189	1180	1171	1169	1174	1176	1172	1192	1210	1215	1215	1200	1193	1198	1205	1213	1211	1180	1154	1142	1154	1161	1171	1159	1156	1155	1163	1178	1191	1204	1200	1197	1187	1171	1157	1156	1160	1209	1199	1193	1184	1170	1166	1155	1155	1165	1183	1199	1226	1228	1197	1175	1158	1166	1172	1167	1164	1133	1148	1165	1211	1222	1215	1200	1196	1200	1216	1215	1198	1200	1204	1224	1227	1229	1222	1205	1188	1181	1188	1194	1203	1199	1206	1202	1194	1158	1147	1149	1156	1162	1152	1152	1160	1165	1167	1167	1170	1170	1238	1226	1214	1210	1211	1208	1217	1231	1219	1197	1196	1193	1192	1198	1219	1224	1215	1219	1219	1200	1188	1183	1196	1201	1177	1163	1155	1157	1173	1177	1173	1169	1166	1163	1162	1161	1160	1171	1177	1185	1185	1175	1163	1140	1145	1163	1171	1166	1168	1158	1146	1137	1141	1150	1150	1152	1149	1141	1138	1141	1146	1146	1138	1133	1133	1131	1120	1104	1080	1079	1094	1118	1142	1150	1149	1128	1126	1129	1135	1143	1155	1159	1171	1153	1142	1134	1129	1132	1129	1134	1137	1135	1128	1125	1123	1116	1101	1089	1107	1125	1128	1125	1112	1100	1100	1106	1104	1086	1081	1085	1091	1113	1122	1115	1100	1080	1077	1079	1070	1060	1063	1082	1096	1096	1096	1115	1111	1074	1055	1067	1070	1065	1047	1047	1051	1049	1043	1041	1030	1018	1043	1055	1051	1061	1061	1059	1056	1061	1059	1062	1060	1037	1003	995	1009	1022	1040	1058	1066	1063	1074	1089	1078	1017	1018	1054	1030	1021	1017	1026	1029	1029	1007	991	981	985	987	985	1005	999	988	979	992	996	983	981	977	993	992	985	986	982	964	964	970	977	976	977	981	980	975	972	969	969	972	986	994	954	951	952	947	949	946	936	911	903	906	917	926	923	924	932	937	938	939	933	926	913	917	920	914	911	902	897	902	889	893	911	923	932	936	920	912	899	901	902	913	935	931	909	918	918	918	899	894	897	897	901	899	899	892	890	875	869	898	901	883	849	848	869	894	903	908	908	906	903	904	904	885	885	894	895	892	898	902	900	899	891	882	876	880	877	874	849	846	850	853	862	874	884	883	882	875	874	876	872	862	851	853	862	867	867	867	867	880	888	897	897	888	877	870	873	879	878	875	872	874	868	865	858	847	848	855	856	855	863	873	875	885	903	916	912	896	875	852	844	848	856	862	866	869	868	870	875	877	873	871	877	894	907	898	885	873	862	852	856	859	862	871	876	896	905	893	892	897	897	900	897	897	896	889	885	876	874	883	886	884	878	859	845	850	854	861	861	0	0	0	0	0	0	0	0	0
0	0	0	0	0	0	0	0	0	0	0	0	0	0	0	0	0	0	0	0	0	0	0	1095	1098	1120	1120	0	0	1138	1149	1157	1158	1153	1153	1150	1158	1172	1189	1203	1212	1216	1213	1213	1184	1173	1174	1184	1196	1204	1196	1188	1184	1197	1197	1207	1205	1207	1218	1234	1230	1207	1176	1166	1176	1197	1213	1216	1206	1197	1179	1179	1165	1157	1150	1132	1123	1129	1160	1194	1205	1215	1222	1234	1237	1227	1197	1185	1189	1192	1179	1175	1170	1175	1180	1177	1168	1177	1193	1204	1200	1181	1169	1174	1175	1168	1155	1156	1173	1176	1166	1158	1164	1169	1162	1150	1146	1150	1160	1163	1168	1169	1159	1158	1185	1199	1187	1163	1144	1156	1196	1218	1210	1183	1163	1155	1166	1167	1155	1155	1152	1153	1151	1157	1159	1148	1144	1155	1180	1189	1186	1181	1172	1165	1170	1165	1156	1132	1121	1125	1127	1134	1127	1127	1129	1149	1163	1174	1181	1176	1175	1168	1148	1145	1143	1139	1136	1139	1129	1128	1121	1116	1113	1122	1143	1161	1177	1162	1136	1133	1125	1132	1145	1156	1165	1150	1137	1140	1144	1152	1149	1149	1151	1154	1167	1170	1157	1160	1155	1165	1168	1166	1171	1167	1150	1134	1132	1148	1169	1176	1164	1150	1144	1146	1126	1126	1128	1130	1129	1121	1109	1112	1122	1134	1132	1128	1129	1131	1123	1169	1163	1162	1165	1172	1179	1172	1166	1165	1161	1162	1157	1155	1153	1153	1159	1159	1148	1135	1132	1146	1148	1143	1130	1123	1138	1151	1139	1117	1102	1092	1102	1105	1114	1118	1127	1136	1139	1131	1103	1102	1104	1115	1113	1119	1119	1117	1113	1098	1101	1103	1111	1119	1116	1107	1104	1108	1112	1105	1102	1098	1092	1096	1094	1083	1067	1054	1056	1068	1088	1104	1101	1099	1091	1094	1092	1098	1110	1117	1117	1088	1074	1075	1075	1075	1088	1089	1089	1087	1082	1081	1090	1089	1081	1065	1054	1056	1069	1065	1060	1048	1055	1046	1033	1027	1030	1028	1036	1047	1065	1078	1073	1050	1030	1017	1009	1009	998	989	976	970	973	991	1000	985	979	1009	1013	1007	1001	991	980	987	1002	1008	1009	995	972	961	968	968	964	974	983	995	1001	1008	1005	991	972	950	933	927	935	962	982	976	973	982	994	979	984	980	944	940	942	962	974	978	978	969	939	950	951	946	936	928	922	918	912	921	931	931	930	931	934	935	939	941	943	942	946	946	942	948	964	971	967	947	935	935	940	920	925	923	917	908	898	886	882	873	872	864	869	879	889	892	886	883	888	894	899	900	894	894	893	897	896	893	887	880	872	868	876	878	881	882	880	880	866	862	861	867	881	880	869	860	852	875	883	884	869	856	856	868	871	878	873	872	869	859	853	844	832	828	826	830	839	868	882	889	886	884	876	864	859	868	867	872	870	869	874	882	880	874	866	850	840	833	830	836	832	829	831	843	850	859	867	867	862	864	864	866	864	848	841	835	845	842	841	846	848	864	877	880	864	847	844	846	856	866	862	860	853	852	849	849	847	836	836	834	830	829	837	859	871	880	884	898	894	887	864	847	837	838	839	839	842	845	844	846	844	852	855	850	856	851	852	851	843	837	834	838	842	845	850	842	852	859	861	865	868	867	873	879	886	886	887	882	866	845	840	852	859	857	851	844	840	844	851	854	855	0	0	0	0	0	0	0	0	0
0	0	0	0	0	0	0	0	0	0	0	0	0	0	0	0	0	0	0	0	0	1058	1064	1066	1083	1110	1110	1128	1125	1107	1125	1146	1150	1147	1147	1153	1158	1174	1194	1206	1205	1199	1187	1187	1170	1142	1131	1165	1182	1185	1177	1162	1153	1145	1145	1147	1162	1184	1197	1208	1220	1197	1170	1161	1176	1188	1201	1193	1188	1180	1162	1162	1145	1135	1130	1121	1118	1122	1146	1165	1176	1186	1181	1195	1192	1169	1145	1140	1139	1140	1142	1147	1147	1138	1144	1147	1160	1167	1176	1171	1158	1135	1128	1123	1119	1132	1128	1130	1150	1163	1158	1155	1153	1149	1142	1134	1132	1145	1156	1166	1170	1158	1143	1134	1162	1180	1172	1143	1128	1134	1153	1164	1171	1144	1125	1110	1123	1124	1115	1127	1145	1157	1157	1152	1153	1133	1119	1135	1144	1160	1164	1157	1139	1124	1129	1131	1133	1120	1113	1104	1102	1100	1097	1094	1104	1118	1131	1141	1149	1154	1152	1141	1119	1117	1118	1118	1098	1105	1110	1111	1108	1100	1095	1099	1096	1095	1084	1090	1108	1105	1104	1115	1127	1137	1132	1119	1114	1117	1123	1125	1117	1115	1113	1114	1113	1115	1113	1116	1109	1109	1112	1113	1119	1115	1107	1106	1100	1112	1125	1133	1122	1106	1094	1093	1083	1106	1110	1111	1099	1088	1084	1086	1096	1104	1098	1087	1088	1094	1087	1071	1059	1049	1125	1125	1125	1121	1123	1132	1134	1130	1124	1119	1117	1119	1120	1116	1109	1101	1093	1110	1121	1114	1107	1099	1106	1119	1121	1097	1077	1070	1076	1080	1087	1089	1092	1098	1100	1089	1063	1068	1076	1087	1085	1083	1080	1061	1052	1039	1045	1063	1085	1096	1089	1077	1063	1062	1064	1057	1053	1048	1054	1052	1036	1038	1032	1027	1025	1024	1040	1073	1067	1051	1036	1036	1045	1025	1027	1020	1006	1000	1018	1021	1019	1020	1010	1019	1004	1003	1024	1028	1004	1001	1012	1008	1005	1011	974	980	995	999	996	979	980	985	984	983	980	971	978	978	975	961	955	946	939	933	936	935	943	947	946	945	942	924	921	924	931	930	925	932	929	937	936	949	963	949	935	916	912	909	917	926	928	917	909	912	936	938	935	925	915	906	909	911	912	913	927	934	932	929	923	929	925	925	922	913	922	929	934	908	901	912	914	909	902	910	908	892	882	886	907	912	912	912	908	902	904	901	914	924	924	921	912	921	946	963	939	899	900	884	881	871	871	874	872	869	869	871	872	868	863	857	856	857	868	872	867	864	866	868	870	869	864	870	874	878	873	871	871	868	867	863	862	862	859	860	859	855	847	845	847	848	847	832	818	813	816	842	845	845	833	832	840	845	850	849	851	857	856	848	834	805	801	800	811	816	823	829	838	840	847	851	846	838	832	840	841	849	851	850	854	855	854	847	834	824	815	808	802	805	814	817	818	825	829	834	833	833	837	848	853	855	855	832	821	815	819	820	822	828	827	827	815	807	818	825	820	814	822	835	835	833	832	836	833	832	828	824	814	812	809	815	810	815	826	833	836	834	837	849	843	835	826	824	821	822	822	822	822	806	813	816	814	809	800	804	808	804	800	800	803	806	805	806	806	809	839	850	850	848	843	836	840	850	859	859	854	845	830	818	820	829	836	836	831	829	832	840	845	847	842	0	0	0	0	0	0	0	0	0
0	0	0	0	0	0	0	0	0	0	0	0	0	0	0	0	0	1069	1059	1059	1049	1051	1045	1055	1066	1092	1092	1106	1088	1076	1091	1116	1135	1139	1139	1136	1144	1160	1172	1173	1156	1151	1146	1146	1135	1123	1108	1114	1159	1168	1161	1138	1126	1115	1115	1119	1126	1155	1166	1182	1174	1156	1141	1144	1156	1175	1169	1162	1155	1152	1133	1133	1131	1126	1120	1116	1113	1121	1135	1145	1146	1153	1149	1136	1132	1129	1123	1119	1117	1120	1130	1140	1135	1129	1129	1142	1147	1150	1156	1153	1143	1130	1112	1106	1103	1107	1107	1122	1145	1159	1163	1151	1145	1139	1123	1112	1119	1136	1151	1161	1153	1141	1128	1112	1137	1155	1154	1132	1113	1112	1114	1116	1112	1095	1080	1075	1066	1067	1074	1109	1141	1152	1153	1147	1144	1119	1108	1115	1122	1125	1132	1132	1114	1102	1097	1100	1105	1103	1096	1089	1077	1075	1074	1075	1079	1086	1089	1097	1110	1126	1126	1106	1098	1088	1089	1089	1079	1090	1097	1109	1104	1093	1085	1076	1063	1050	1049	1062	1083	1091	1099	1087	1080	1089	1070	1072	1089	1096	1079	1074	1061	1063	1068	1071	1071	1078	1082	1072	1069	1071	1076	1081	1080	1080	1077	1069	1055	1043	1051	1059	1054	1045	1030	1020	1023	1050	1074	1070	1043	1036	1043	1048	1056	1046	1021	1023	1014	992	978	1004	1008	999	994	991	1064	1066	1043	1044	1046	1062	1078	1079	1082	1083	1074	1069	1056	1045	1057	1075	1086	1086	1073	1071	1064	1075	1073	1057	1057	1050	1042	1047	1054	1052	1039	1038	1040	1031	1019	1014	1030	1030	1035	1036	1026	1014	1005	993	987	1006	1034	1040	1020	1018	1016	1017	1008	984	945	934	934	970	990	994	989	970	977	977	971	963	969	959	956	949	947	921	927	937	945	934	940	933	943	943	943	939	932	927	926	912	918	927	927	923	928	907	911	922	933	926	920	923	942	953	951	934	924	910	916	928	932	928	918	914	908	910	911	916	919	923	922	918	917	912	905	907	908	907	906	904	895	884	882	887	897	893	877	865	867	878	883	887	902	896	889	890	900	905	910	906	896	876	879	888	893	902	901	898	889	883	884	888	892	892	892	881	871	883	885	887	883	884	874	876	878	881	872	857	850	852	868	877	875	860	853	852	854	856	865	871	878	882	883	881	879	880	880	859	855	860	853	842	845	846	852	848	854	857	857	847	829	814	813	819	821	836	845	846	843	839	835	840	838	844	846	852	852	845	856	855	852	846	842	838	837	832	824	829	834	836	836	838	832	820	808	804	801	807	806	798	803	816	831	837	834	830	828	834	835	831	822	793	791	792	792	795	796	793	793	797	804	828	828	822	819	816	817	821	826	829	830	825	825	824	815	810	802	793	789	792	795	797	798	804	811	815	813	813	812	808	798	792	793	798	805	807	801	798	799	801	798	784	786	793	795	793	789	790	791	803	807	809	810	817	811	806	809	804	781	769	762	761	774	779	787	784	786	787	785	788	792	791	793	789	786	781	773	781	783	793	800	798	790	782	779	783	792	795	791	790	791	794	798	802	801	788	782	777	784	787	785	791	792	784	773	773	771	771	778	783	785	777	771	780	822	819	821	831	833	837	828	0	0	0	0	0	0	0	0	0
0	0	0	0	0	0	0	0	0	0	0	0	0	0	0	0	1067	1048	1054	1054	1056	1053	1053	1058	1076	1086	1086	1084	1071	1060	1074	1101	1123	1134	1134	1123	1116	1114	1124	1130	1125	1104	1104	1104	1113	1097	1093	1096	1115	1137	1143	1124	1115	1109	1109	1114	1114	1123	1134	1140	1133	1124	1115	1121	1132	1142	1133	1126	1122	1112	1113	1113	1109	1115	1109	1101	1096	1091	1101	1126	1146	1147	1132	1113	1095	1083	1088	1106	1119	1134	1139	1140	1131	1118	1109	1106	1100	1091	1097	1110	1105	1094	1086	1085	1079	1085	1092	1102	1108	1151	1151	1142	1131	1116	1101	1090	1095	1114	1134	1142	1135	1123	1111	1103	1107	1119	1118	1107	1082	1064	1068	1072	1065	1058	1043	1037	1035	1036	1055	1084	1113	1131	1125	1122	1124	1105	1099	1092	1093	1089	1082	1080	1075	1078	1070	1074	1080	1087	1081	1069	1056	1053	1054	1051	1053	1049	1053	1071	1075	1088	1101	1087	1073	1065	1061	1041	1037	1069	1083	1094	1097	1091	1071	1048	1026	1016	1018	1036	1062	1074	1057	1034	1037	1041	1039	1035	1031	1013	1010	1009	1016	1014	1001	1007	1014	1020	1015	1013	1018	1026	1050	1058	1055	1021	1008	987	984	971	966	972	970	967	973	973	966	979	983	972	968	977	990	990	982	960	943	940	946	944	940	947	958	964	960	951	948	954	1000	1004	1007	1013	1003	980	978	1003	1030	1018	1007	1001	992	994	1000	997	978	971	955	961	969	965	967	958	957	964	964	945	938	934	924	918	917	921	922	920	923	916	926	939	951	939	914	912	916	918	924	929	939	952	947	933	908	897	895	903	919	924	928	933	938	936	917	910	915	918	922	920	899	883	884	886	894	901	906	921	931	925	916	906	899	892	890	884	889	899	900	902	901	892	897	899	906	902	897	890	889	895	878	879	870	864	871	895	906	895	879	878	872	885	888	897	905	877	865	861	861	869	879	889	893	895	894	888	863	857	856	861	862	860	841	832	829	846	861	867	879	881	873	863	857	849	841	857	851	852	851	856	870	882	885	875	862	862	870	868	861	853	846	840	839	841	860	864	862	857	854	859	845	826	821	824	823	837	838	835	826	824	831	835	834	842	846	852	851	848	853	857	816	829	847	845	829	818	812	820	825	829	833	832	829	829	823	809	802	799	801	807	806	804	809	814	793	800	797	799	798	817	827	826	827	814	808	820	825	825	814	814	811	807	807	810	816	813	813	820	820	812	798	788	789	790	780	780	782	792	803	820	817	811	807	804	809	808	809	795	787	782	783	782	781	780	780	784	789	797	808	806	802	794	800	797	792	797	804	802	801	795	787	790	786	782	777	777	780	785	788	789	789	787	798	799	798	789	778	773	774	783	794	795	785	778	779	780	776	777	778	782	781	780	776	758	756	753	754	760	769	767	764	760	757	770	768	762	759	762	768	773	777	777	771	773	773	774	773	769	770	770	758	750	745	754	760	765	757	759	756	749	748	750	761	770	771	768	762	764	770	784	785	774	767	763	760	763	770	774	770	762	752	752	753	755	760	764	765	755	751	747	748	750	756	760	760	755	751	0	0	0	0	0	0	0	0	0
0	0	0	0	0	0	0	0	0	0	0	1061	1065	1065	1067	1061	1044	1042	1051	1051	1057	1057	1052	1061	1067	1076	1076	1065	1054	1052	1063	1086	1114	1120	1120	1110	1100	1094	1104	1104	1091	1075	1066	1066	1071	1070	1062	1075	1092	1112	1113	1101	1092	1101	1101	1105	1105	1095	1086	1093	1103	1102	1103	1089	1082	1079	1077	1081	1085	1087	1083	1083	1080	1089	1092	1082	1061	1050	1064	1081	1111	1121	1104	1091	1077	1069	1066	1083	1111	1120	1125	1123	1104	1089	1082	1072	1063	1052	1051	1065	1064	1062	1061	1067	1064	1067	1069	1073	1076	1062	1046	1034	1047	1038	1027	1026	1039	1051	1049	1034	1032	1063	1077	1098	1088	1078	1060	1052	1046	1036	1036	1032	1036	1024	1013	1004	1008	1019	1034	1055	1085	1094	1092	1083	1069	1078	1063	1057	1046	1039	1042	1044	1034	1033	1033	1046	1051	1060	1055	1044	1042	1040	1028	1026	1024	1016	1013	1017	1045	1048	1050	1034	999	1000	993	976	972	1000	1023	1035	1039	1003	983	979	964	951	955	966	990	1006	1011	1001	961	958	964	964	947	935	935	978	976	970	952	941	945	942	950	958	959	956	964	968	976	961	929	921	917	924	918	927	929	933	929	921	925	943	917	907	924	938	947	955	948	925	907	900	896	907	906	922	929	931	927	911	912	909	907	916	951	960	961	963	950	939	926	928	930	938	916	903	902	902	920	930	934	939	940	938	930	922	901	892	892	883	883	883	883	883	886	881	883	892	897	896	894	895	899	896	876	873	877	882	882	886	877	884	886	891	889	879	877	879	884	886	889	889	887	868	866	874	881	870	866	865	862	865	859	859	858	878	891	909	918	911	883	873	870	864	861	861	864	876	876	865	866	866	867	867	887	885	877	868	865	851	857	859	855	844	837	850	860	846	842	840	837	844	850	859	861	847	849	846	842	843	848	856	873	881	884	860	848	837	833	837	837	835	826	816	811	809	818	830	830	821	813	822	824	827	818	811	820	827	830	840	848	855	855	850	843	845	850	857	849	840	831	825	817	812	813	830	832	827	823	826	814	807	804	798	807	817	822	820	814	812	807	810	815	821	830	833	831	824	801	792	779	782	804	810	804	799	786	781	793	797	800	799	798	793	788	787	788	786	791	794	790	783	783	769	772	775	783	783	779	788	797	802	786	769	772	783	790	787	780	780	783	788	787	784	778	765	759	775	789	790	780	774	774	775	769	763	761	770	785	795	800	790	784	786	792	792	783	772	771	772	776	779	778	780	776	773	774	778	778	783	781	781	782	784	774	764	760	756	755	758	761	768	770	768	767	766	767	767	768	770	768	753	750	760	768	767	763	760	763	770	776	775	757	756	751	758	756	756	759	761	755	748	747	749	747	746	742	739	738	739	739	738	742	748	755	753	753	756	760	768	768	766	763	762	764	761	754	754	746	743	742	742	739	739	742	737	742	748	742	735	733	738	748	750	747	748	750	751	755	767	767	761	755	751	747	744	750	746	745	741	731	731	729	728	735	743	744	737	729	732	739	745	752	749	746	739	739	0	0	0	0	0	0	0	0	0
984	988	988	997	1016	0	0	0	0	0	0	1036	1020	1020	1019	1023	1026	1031	1036	1036	1037	1040	1039	1039	1041	1040	1040	1034	1033	1036	1051	1071	1093	1101	1101	1092	1080	1076	1088	1089	1077	1051	1033	1033	1038	1037	1041	1055	1071	1088	1083	1075	1071	1075	1075	1085	1047	1048	1044	1039	1047	1053	1054	1052	1046	1054	1066	1077	1081	1080	1063	1063	1054	1052	1041	1022	1018	1022	1018	1025	1039	1047	1057	1056	1057	1055	1046	1048	1048	1052	1046	1044	1015	1001	1033	1037	1019	1016	1022	1035	1040	1039	1043	1048	1043	1035	1039	1036	1032	1016	995	984	982	971	975	989	1001	1009	1011	998	993	1009	1023	1043	1029	1008	1002	997	981	964	958	958	956	990	988	986	991	1003	1016	1031	1045	1047	1020	993	980	979	970	985	990	984	988	995	1001	1002	1001	1008	1013	1015	1007	996	990	976	956	963	966	957	950	949	969	976	978	960	936	945	944	933	933	949	942	931	926	949	944	929	913	874	874	884	903	926	935	933	923	927	934	930	911	899	894	902	934	930	905	883	875	876	888	905	916	897	888	895	905	908	888	873	870	879	884	897	898	896	886	885	882	856	856	862	877	893	913	916	912	893	877	870	862	870	888	893	876	861	859	864	858	859	868	877	877	854	902	912	911	902	877	875	878	874	868	873	878	886	889	893	900	895	898	893	883	860	850	855	854	852	845	845	859	856	857	848	854	872	881	876	868	857	853	851	853	854	861	862	858	847	848	835	841	853	866	861	860	865	866	858	849	842	843	847	851	846	850	843	842	839	838	834	818	816	827	835	843	852	859	856	829	828	842	844	843	825	812	818	815	813	820	829	832	831	838	842	836	827	825	839	842	841	829	822	819	817	814	814	821	819	821	817	811	807	810	822	833	833	823	815	808	808	810	818	818	816	820	818	806	798	801	809	813	810	801	799	807	810	809	804	802	804	811	811	808	803	798	800	805	813	821	829	838	836	832	831	827	822	835	827	814	797	794	794	793	791	809	811	806	802	801	801	800	799	785	786	796	806	804	797	790	790	796	804	805	801	781	786	787	776	765	767	777	783	790	785	775	765	762	765	769	773	771	764	765	770	764	760	767	777	772	755	758	765	769	768	769	775	773	766	765	765	764	761	761	769	770	760	760	769	774	780	783	779	769	758	748	747	756	762	759	757	759	759	754	746	743	747	755	766	772	772	768	767	764	758	755	754	754	759	761	766	773	775	769	758	755	755	761	765	768	768	767	764	759	749	739	736	736	739	742	747	748	753	754	752	750	748	746	744	740	736	731	737	737	743	714	706	705	718	731	726	734	742	747	749	753	746	746	741	737	737	736	738	737	734	728	718	709	708	709	710	720	727	734	739	742	740	739	737	734	737	741	747	753	749	741	731	726	724	730	735	732	726	716	718	718	732	737	729	726	727	721	720	727	733	734	737	742	745	751	750	748	740	727	721	714	714	715	720	717	717	715	709	714	722	726	713	711	714	724	733	744	745	736	723	713	0	0	0	0	0	0	0	0	0
976	978	978	987	1004	1014	0	0	0	1031	1019	1001	990	990	986	987	996	999	1018	1018	1022	1023	1024	1026	1017	1010	1010	1006	1002	1009	1026	1045	1055	1062	1062	1063	1060	1057	1068	1069	1058	1028	1014	1014	1013	1016	1025	1032	1054	1065	1066	1008	1014	1028	1028	1028	1035	1043	1038	1031	1024	1019	997	977	986	1007	1034	1051	1043	1031	1014	1014	1007	999	979	974	983	985	985	992	989	996	1008	1014	1020	1014	1001	980	970	968	980	979	971	954	948	976	987	987	998	1004	1015	1021	1023	1020	1007	1006	1008	1017	1009	971	949	936	932	936	943	947	946	948	950	951	948	942	934	934	966	933	931	933	931	927	926	933	933	925	934	928	916	918	918	922	924	977	964	952	945	903	891	917	937	934	945	954	959	966	967	955	952	949	953	946	926	906	886	889	901	906	896	885	893	899	906	904	904	913	915	909	910	911	903	887	878	887	901	888	852	846	848	861	875	887	890	890	893	894	893	885	878	877	874	868	864	873	868	853	850	851	856	867	874	872	869	868	861	852	838	828	827	839	854	863	862	838	849	858	850	820	820	823	834	840	819	825	836	844	838	840	839	834	833	828	820	808	808	832	839	825	824	824	823	820	811	816	848	852	851	853	850	851	853	856	855	860	846	846	847	849	864	863	855	839	829	834	833	824	827	823	823	827	829	829	834	843	846	847	835	826	819	821	826	837	837	822	823	816	813	804	806	815	813	805	809	820	822	820	815	808	816	829	837	832	826	824	820	821	819	816	801	791	788	792	791	805	800	787	786	790	796	801	796	789	783	787	790	799	800	800	804	808	815	809	805	804	805	819	820	814	794	792	798	798	792	788	785	789	790	794	792	789	782	776	767	767	767	770	779	782	784	777	766	767	784	789	788	787	784	784	794	791	778	780	788	790	792	789	788	788	794	801	795	789	783	776	778	791	801	807	809	803	803	802	800	786	798	778	769	772	780	780	774	764	767	784	789	784	783	787	791	790	782	768	760	770	774	777	776	772	772	777	738	724	728	738	753	752	753	757	751	746	753	761	765	755	750	748	747	745	736	738	738	739	734	726	723	721	723	724	727	732	749	753	760	757	748	740	736	731	743	752	750	751	749	735	748	761	767	772	772	763	746	745	739	735	739	738	738	740	745	744	739	734	732	738	743	748	746	752	751	748	742	742	738	736	741	745	745	753	759	761	752	743	731	735	743	750	758	759	754	751	746	736	724	721	724	727	727	728	728	730	735	739	729	727	729	729	714	710	710	701	694	694	695	697	697	703	707	720	728	736	735	734	727	709	707	710	717	724	725	723	722	717	710	703	698	697	700	697	699	699	696	699	714	719	712	691	688	697	715	729	734	729	723	716	711	709	719	724	722	707	696	701	697	701	714	716	717	711	702	699	698	704	713	721	723	724	720	714	711	706	699	694	697	703	706	707	704	704	702	704	709	714	703	701	697	696	699	701	699	708	708	704	696	0	0	0	0	0	0	0	0	0
960	966	966	979	988	997	1006	1006	1005	1006	991	977	963	963	953	955	961	973	989	989	999	1009	1011	1009	1001	982	982	971	973	985	994	1005	1012	1023	1023	1029	1030	1025	1030	1029	1017	983	983	983	995	1004	1009	964	957	957	969	961	973	980	980	1000	1021	1030	1027	1005	984	962	947	949	959	972	979	985	987	993	996	996	985	966	960	958	960	959	959	957	958	958	948	940	950	961	961	950	938	935	934	938	935	919	919	931	947	943	937	926	937	965	969	950	969	977	978	964	938	916	895	890	899	907	920	920	919	909	899	896	909	913	883	876	884	873	867	868	864	867	869	873	877	885	895	904	902	890	888	884	887	892	894	900	897	872	862	872	888	905	919	919	916	916	916	898	888	890	893	888	883	875	857	854	851	844	849	862	877	887	883	867	861	864	886	886	886	879	874	859	853	847	841	840	825	823	825	835	851	863	867	857	849	849	843	843	840	846	847	839	839	849	846	837	817	814	820	832	845	835	829	831	834	831	828	818	805	797	792	799	809	814	823	828	822	809	803	802	802	789	788	792	800	801	800	801	803	800	799	792	787	784	780	792	817	819	813	809	804	804	799	792	794	791	823	823	826	829	832	832	826	806	808	811	814	821	834	834	835	824	814	807	804	797	803	809	816	817	815	817	803	803	805	813	813	815	808	806	812	807	798	779	771	782	785	774	772	772	767	766	775	797	799	796	793	792	792	797	811	827	820	804	787	790	796	801	793	785	777	778	772	773	767	765	765	768	773	773	771	768	774	776	770	773	770	772	779	781	779	777	772	768	768	772	769	773	770	765	764	764	762	752	748	749	752	765	773	777	772	761	752	750	752	755	759	757	756	755	754	754	758	770	771	770	769	766	763	756	745	744	756	765	769	770	768	767	758	759	760	762	763	764	766	770	766	763	762	765	772	776	766	756	747	742	745	752	753	747	737	736	745	754	761	764	764	769	775	777	768	756	745	746	755	761	765	766	750	738	716	706	710	722	727	731	727	716	719	730	737	746	748	743	734	728	723	709	710	714	721	722	722	719	714	710	715	715	706	706	718	727	730	725	729	733	731	719	711	712	713	715	716	723	737	742	738	734	733	727	713	708	711	718	716	714	719	723	724	729	726	722	718	723	723	723	726	728	734	735	729	727	723	723	723	720	726	735	745	745	735	721	716	716	729	737	739	733	733	723	713	709	711	712	715	717	717	716	714	714	695	706	707	702	702	703	700	696	690	685	685	688	690	693	694	697	702	713	719	709	708	706	701	690	681	686	691	699	710	707	700	696	693	687	685	686	689	688	684	680	683	686	692	699	692	674	669	676	693	705	707	710	705	699	697	692	692	693	686	679	679	681	686	692	697	702	702	698	693	687	683	684	687	692	695	699	700	692	686	690	685	683	685	689	690	693	688	688	687	694	698	698	691	685	683	684	681	683	681	686	691	688	682	0	0	0	0	0	0	0	0	0
936	941	941	948	955	974	987	987	983	982	966	954	940	940	936	935	938	952	965	965	971	982	993	991	981	960	960	943	948	959	963	966	974	989	989	994	1001	998	996	992	969	955	960	943	944	941	940	936	927	930	913	914	928	940	954	954	970	990	996	975	946	923	914	921	931	943	952	944	942	937	941	941	939	932	937	928	924	914	915	912	919	921	901	894	890	919	921	902	890	892	899	901	898	892	891	898	908	900	893	880	885	902	902	890	898	902	886	884	885	884	879	870	869	880	894	889	881	874	874	871	875	880	857	849	855	853	846	843	840	840	838	838	845	852	862	864	860	833	830	831	835	840	845	847	844	844	829	826	824	832	829	817	816	863	875	867	853	851	853	853	849	842	833	835	829	820	824	839	858	862	859	845	839	839	850	851	844	848	842	831	829	823	817	810	807	803	807	817	831	840	828	811	803	812	806	800	791	788	788	789	810	827	819	799	786	781	779	784	800	809	816	820	819	819	815	800	774	763	763	772	784	789	798	802	806	803	777	767	768	770	774	780	779	779	780	783	789	791	786	779	770	768	764	765	784	798	797	788	789	786	774	770	767	768	770	771	780	799	818	818	798	793	801	804	806	806	805	798	803	796	774	764	757	757	772	791	803	803	800	793	784	788	789	790	792	793	784	782	778	774	767	765	764	764	766	761	760	764	760	758	759	762	770	778	767	767	776	782	788	791	779	760	750	744	745	754	763	767	766	759	755	756	756	752	754	762	769	769	763	759	764	765	764	756	753	757	760	765	761	759	757	754	756	754	751	748	753	753	750	748	748	747	742	739	744	753	760	765	762	753	742	742	744	749	747	744	742	744	741	741	744	749	756	756	751	746	743	735	730	730	731	735	737	741	751	747	744	743	749	750	748	739	736	737	742	748	749	754	756	757	747	735	731	737	744	745	736	726	723	726	732	734	742	750	751	754	758	754	734	722	715	715	723	729	702	710	710	706	706	706	711	713	718	723	712	702	703	712	724	732	731	728	722	713	704	698	699	705	712	714	715	707	697	700	703	700	700	699	699	699	704	709	716	720	719	710	697	691	692	692	691	696	699	707	716	721	720	716	708	699	694	689	689	691	687	689	705	712	712	708	704	704	703	705	702	708	717	724	717	713	709	699	690	691	707	718	730	735	723	704	693	701	713	721	724	718	705	692	690	692	694	698	706	704	701	695	690	680	684	698	698	693	691	689	685	679	679	676	679	684	688	690	678	683	684	696	692	681	682	684	671	670	668	671	677	683	686	685	677	673	671	671	673	674	673	672	673	674	677	681	686	689	683	669	660	663	675	678	677	675	682	680	673	673	677	677	676	674	672	672	675	680	686	690	689	689	688	683	675	670	674	676	676	679	681	681	674	671	669	670	670	671	670	674	674	674	668	667	672	673	670	664	666	670	668	667	662	663	665	669	662	0	0	0	0	0	0	0	0	0
907	909	909	912	920	937	956	956	962	953	932	924	919	919	917	909	908	919	938	938	948	945	954	948	939	933	933	928	929	935	944	942	938	936	936	939	955	958	958	951	911	891	889	889	898	913	912	915	908	888	878	880	885	895	906	906	918	922	921	915	909	900	894	881	873	874	887	891	890	885	876	876	881	883	887	887	882	877	872	873	886	891	874	862	853	859	859	861	857	862	865	870	871	870	858	865	882	878	859	843	833	845	847	847	847	850	841	845	849	859	856	849	838	839	843	844	819	819	830	832	832	830	831	825	817	825	825	815	814	817	823	828	834	841	843	837	827	823	821	822	827	828	810	807	807	808	804	805	803	802	810	809	796	794	793	805	806	806	827	820	817	816	812	819	817	814	813	818	825	830	826	818	817	819	818	816	813	815	801	792	788	793	792	787	784	789	797	808	818	810	794	778	775	766	770	770	762	765	769	771	773	780	793	787	779	775	772	769	771	776	785	788	790	782	780	768	755	748	751	758	767	771	774	775	777	774	760	758	759	762	769	772	771	768	770	773	780	777	777	766	759	750	742	743	750	764	782	771	770	769	760	758	759	757	758	756	755	752	773	768	771	776	788	794	800	798	793	780	762	747	741	747	746	753	760	766	776	782	776	771	770	781	782	780	778	771	763	754	750	754	757	758	751	746	735	736	743	742	729	732	735	735	734	731	735	745	757	755	757	749	739	733	726	721	719	722	730	738	743	743	745	744	746	742	743	746	750	752	746	736	731	733	738	737	739	737	741	746	748	747	743	743	743	743	742	740	745	744	733	721	726	734	738	734	733	739	737	738	741	742	733	730	735	734	727	725	730	730	730	725	726	734	735	736	738	730	724	719	712	715	723	729	730	726	734	736	741	738	737	732	719	719	724	723	721	720	730	729	732	727	719	715	721	731	736	732	717	713	713	715	721	722	725	726	733	738	728	712	708	703	697	697	681	680	685	692	689	695	702	705	711	712	713	708	701	694	692	696	710	714	714	712	707	697	693	687	692	698	704	711	701	691	681	684	689	693	693	691	685	684	689	694	703	708	703	696	687	684	686	685	689	682	682	688	696	704	703	697	694	689	685	684	679	674	670	676	682	688	694	693	689	685	685	681	685	688	703	708	697	689	684	675	673	681	687	692	701	700	698	686	681	674	673	682	696	695	682	678	656	657	660	658	657	665	669	676	673	660	666	691	685	683	680	666	661	659	662	665	670	668	669	671	666	672	677	675	673	669	665	662	662	660	658	665	666	674	675	670	665	659	656	657	661	661	657	654	656	660	670	675	678	681	677	666	653	651	655	650	645	648	653	655	657	658	660	668	669	666	665	664	662	666	675	679	680	678	675	668	658	653	651	650	646	648	652	652	650	650	656	657	655	654	654	651	651	649	655	660	666	664	658	647	648	652	655	650	644	640	642	641	644	0	0	0	0	0	0	0	0	0
886	888	888	885	884	900	919	919	924	907	892	889	895	895	888	886	884	885	894	910	910	915	924	919	912	902	902	899	902	907	917	918	909	897	897	898	904	908	892	882	877	857	826	826	834	850	871	875	853	855	861	859	862	870	876	876	881	879	866	865	862	868	868	858	854	856	858	853	850	844	841	841	853	853	856	856	857	857	856	856	858	856	848	839	834	832	833	828	840	836	845	837	835	843	846	837	841	839	823	814	809	806	808	810	817	817	811	817	824	823	814	801	795	797	813	817	798	799	798	798	802	805	808	803	789	798	802	791	787	790	794	799	799	799	790	793	792	809	809	810	806	780	777	775	777	782	792	784	779	771	772	777	775	776	774	778	777	773	768	766	770	774	781	807	808	810	810	808	808	807	794	787	791	803	795	788	796	787	786	776	761	760	761	765	771	775	788	797	801	791	778	770	755	742	747	747	747	749	752	754	751	754	758	768	777	772	764	753	748	752	747	740	742	742	740	739	734	732	739	746	753	758	759	763	763	758	750	748	750	751	751	754	756	754	752	753	760	759	755	749	741	733	731	731	733	736	744	742	753	749	747	751	750	751	745	738	735	728	724	720	748	757	762	763	780	783	783	769	752	739	733	734	740	750	754	756	756	757	759	758	756	763	768	758	758	753	750	744	746	745	745	746	740	730	727	721	713	709	700	704	710	717	718	714	716	726	729	731	736	734	729	724	719	713	707	709	722	731	739	734	730	724	720	721	720	727	729	735	730	720	717	720	723	722	729	729	727	728	734	733	731	720	713	718	723	729	731	722	705	688	697	706	708	706	695	696	701	716	713	712	709	712	714	708	710	711	713	713	703	694	694	707	716	718	716	708	694	690	684	698	711	714	713	707	712	717	720	725	716	703	699	704	710	710	705	701	702	699	703	698	692	686	698	720	719	706	692	684	691	707	711	713	712	704	703	703	705	703	698	690	669	667	668	671	674	677	679	683	692	699	699	700	698	688	682	677	676	680	685	691	698	700	693	686	681	679	678	677	671	666	663	663	670	670	676	681	680	674	669	668	672	682	691	694	689	683	677	676	681	680	680	672	668	670	676	682	680	676	669	670	671	676	672	667	658	656	658	674	680	683	680	677	670	671	675	677	681	681	678	674	669	667	667	669	668	673	676	676	676	672	671	669	671	673	668	666	662	652	642	633	630	636	644	645	650	656	658	649	649	676	671	663	653	646	642	647	646	645	647	633	637	639	650	659	665	662	656	661	657	658	655	651	654	655	656	665	664	663	657	650	641	639	641	642	642	642	645	648	656	655	646	643	643	641	637	636	635	636	637	640	648	652	651	648	643	648	652	653	638	622	624	639	652	658	657	655	654	650	641	638	638	635	636	634	638	639	639	637	645	648	645	638	636	632	632	635	649	651	656	650	636	632	630	633	640	636	634	627	622	625	633	0	0	0	0	0	0	0	0	0
865	868	868	864	863	870	882	880	880	870	864	861	862	862	862	857	854	856	865	878	878	892	889	882	883	879	876	876	872	877	892	891	886	870	870	869	852	858	863	857	837	820	808	808	804	806	815	810	810	819	830	838	842	846	851	851	849	838	831	821	821	827	840	841	841	837	833	832	836	817	813	813	817	823	832	839	837	836	836	829	819	809	809	818	818	816	817	815	807	795	801	803	807	807	809	801	792	789	785	784	783	784	790	798	799	791	784	789	804	801	790	775	778	781	785	789	783	785	785	785	785	775	773	775	773	768	771	770	775	772	770	758	757	762	765	759	755	764	788	794	761	758	760	760	761	757	752	745	738	729	729	734	747	748	748	750	759	754	749	743	747	750	748	753	772	784	785	781	794	784	777	773	772	769	766	761	759	761	760	758	755	748	745	751	760	768	773	780	785	776	762	749	737	726	731	733	735	739	741	738	738	739	744	740	746	747	741	739	739	741	735	734	730	731	732	723	718	719	727	736	741	745	747	751	747	743	732	728	724	725	732	738	743	736	730	718	713	710	714	717	718	717	718	720	722	720	721	720	717	720	720	717	724	729	729	724	713	709	704	697	705	713	740	746	762	769	769	758	740	731	722	722	731	741	744	742	739	730	723	719	724	729	714	716	721	718	710	717	716	719	721	725	723	719	718	710	702	691	690	692	699	705	706	709	707	702	706	709	710	714	716	713	706	702	698	690	696	709	709	717	714	711	702	703	706	709	718	721	720	715	708	708	709	707	715	719	707	704	702	700	692	684	684	683	705	715	706	691	679	680	685	691	690	687	678	671	673	677	683	686	692	691	691	689	693	697	698	688	674	667	674	683	694	695	692	692	687	681	678	681	683	694	690	690	690	684	686	686	677	679	682	689	694	690	687	682	684	685	687	685	682	668	666	674	676	671	667	666	667	671	680	688	687	680	680	688	695	695	688	661	661	658	652	644	646	645	654	653	654	660	665	672	676	673	667	667	660	663	664	675	674	672	667	669	663	660	656	663	662	659	657	659	666	668	665	666	666	660	653	642	646	653	664	668	670	665	661	654	649	649	653	655	653	656	661	668	666	659	653	652	656	662	659	651	646	643	647	661	667	676	675	675	671	668	669	671	669	666	662	660	659	659	659	659	657	660	665	666	663	663	635	631	644	653	660	658	653	645	638	632	632	630	628	632	632	639	642	640	632	653	657	651	636	629	630	626	622	619	620	625	629	630	641	647	650	643	642	639	641	642	639	640	641	637	639	638	637	632	629	627	629	632	634	636	635	633	634	631	627	623	620	622	624	629	633	635	632	631	633	636	640	642	638	630	623	623	626	625	621	619	624	630	637	638	629	625	625	624	627	626	624	623	621	623	628	633	633	630	629	634	632	630	627	625	625	624	625	625	623	628	625	625	625	626	627	626	622	618	617	615	614	0	0	0	0	0	0	0	0	0
854	853	853	841	841	842	854	851	851	852	849	844	840	840	835	826	831	832	836	842	842	842	840	837	847	848	845	845	846	851	861	863	863	854	820	820	829	844	847	829	814	804	800	795	795	790	793	794	798	803	802	810	817	819	818	818	812	798	788	789	796	799	811	811	808	816	817	807	812	805	794	794	789	791	800	806	809	808	807	802	792	784	783	781	786	798	802	797	766	766	773	782	783	788	790	786	779	775	764	755	765	772	784	789	785	777	771	774	775	778	770	761	761	758	755	761	766	772	779	774	766	758	757	765	765	751	747	745	755	752	754	747	743	739	741	734	731	730	737	739	742	745	749	755	761	757	742	730	721	711	709	711	715	719	723	732	739	737	726	725	730	731	730	736	748	758	764	760	760	750	743	743	766	758	750	737	735	737	739	733	742	737	736	739	743	747	754	761	765	758	749	739	732	716	715	716	719	721	715	719	722	722	716	716	719	722	726	731	734	721	715	717	721	720	720	718	710	711	716	725	731	733	734	733	726	727	715	712	713	714	716	717	719	718	718	710	699	700	710	711	708	706	706	706	706	712	714	708	708	705	702	697	697	709	717	708	695	684	680	682	689	697	701	706	742	738	735	732	723	705	696	698	705	709	712	710	707	706	698	697	699	698	693	699	708	707	698	696	692	698	699	705	695	688	689	687	690	685	685	684	689	691	696	700	698	693	695	690	685	686	695	682	669	665	666	665	670	679	682	691	694	693	694	694	694	692	686	682	683	688	697	696	692	692	693	678	669	665	665	664	660	663	665	668	679	684	682	675	672	674	681	681	679	678	676	671	668	667	668	669	675	675	680	682	683	683	676	663	654	653	665	677	678	686	682	681	681	675	669	672	675	672	668	661	666	671	674	672	667	667	671	676	679	675	675	672	669	668	668	670	665	655	653	656	660	662	661	662	665	666	667	668	667	663	655	653	656	647	650	649	644	639	644	637	633	629	633	638	642	644	643	641	636	638	642	643	644	644	650	651	644	639	635	633	639	644	648	655	657	655	653	658	664	660	652	644	633	623	620	621	629	634	639	643	639	634	633	635	636	637	638	640	641	645	653	659	656	648	638	637	639	644	639	634	625	637	645	650	644	645	654	658	658	661	663	663	661	655	651	652	652	650	651	650	650	646	632	636	635	621	618	616	621	629	641	645	648	650	649	641	638	641	634	628	626	626	628	633	622	620	623	627	625	622	618	615	613	615	616	616	620	624	631	638	641	628	623	618	614	613	612	618	622	622	624	624	623	621	619	619	626	630	630	633	632	627	622	623	620	615	614	612	613	619	627	632	631	629	628	632	635	633	627	620	608	609	615	615	615	616	617	620	628	623	623	622	618	617	612	610	608	607	607	611	617	621	627	624	621	617	616	614	606	603	603	615	617	617	617	616	617	618	621	620	619	615	606	605	612	611	609	0	0	0	0	0	0	0	0	0
840	826	826	815	817	823	830	834	834	839	835	830	821	806	806	806	813	818	822	821	821	825	820	819	820	825	828	828	837	847	855	846	801	788	788	788	799	805	798	794	799	794	792	785	785	781	781	785	785	785	784	788	794	792	782	782	776	770	767	771	773	772	769	776	772	773	780	791	794	786	779	777	777	774	774	778	776	775	775	777	771	769	766	764	764	779	783	760	755	754	757	760	762	762	773	774	762	758	747	750	755	764	771	773	771	762	747	740	740	748	746	746	743	743	749	750	754	756	765	760	748	745	747	751	754	740	732	734	735	735	735	734	731	725	724	723	721	718	718	717	725	728	733	742	747	752	734	722	706	700	700	701	707	711	718	715	718	714	692	691	699	709	714	713	716	721	729	737	741	725	714	700	710	727	733	730	729	727	722	717	713	727	726	715	714	728	733	738	737	720	712	722	715	700	703	706	705	702	699	701	707	706	704	703	700	702	702	707	716	708	702	702	710	712	706	698	685	684	688	704	709	705	693	693	694	695	691	698	702	707	703	703	703	703	700	694	688	692	703	704	702	697	682	675	677	684	689	693	694	694	691	687	681	685	699	699	688	681	681	679	680	684	689	685	682	678	702	697	688	672	665	666	671	673	683	691	690	693	688	681	683	673	673	688	695	693	687	681	674	681	674	674	673	667	669	669	675	681	683	679	679	680	687	693	695	693	683	679	674	669	663	661	658	647	651	655	663	671	675	668	664	667	683	686	683	675	670	669	671	666	670	676	681	668	655	644	641	638	643	643	647	654	658	660	661	662	664	670	669	672	673	672	669	653	650	657	653	651	653	657	670	672	661	657	658	655	650	649	647	646	652	648	648	651	644	637	642	659	662	664	667	661	644	640	652	658	659	663	661	661	659	659	653	656	660	659	655	651	646	645	641	637	638	646	654	654	654	658	660	661	661	659	657	650	641	623	622	636	640	640	636	630	625	627	627	626	629	630	630	633	632	629	635	636	634	631	632	633	634	633	633	629	625	619	614	622	634	640	635	625	626	632	639	643	640	631	626	624	627	631	632	629	632	632	630	629	621	620	624	626	625	626	634	637	637	640	642	636	627	621	617	617	618	621	620	623	625	624	613	610	616	620	622	634	647	641	634	633	638	641	645	643	601	608	609	618	620	623	617	616	612	607	607	608	613	617	622	628	629	628	625	630	631	626	619	612	615	620	609	607	608	613	614	614	614	611	609	607	609	610	611	616	621	625	624	617	611	605	602	602	605	611	613	613	612	614	612	612	611	615	623	625	622	619	621	618	617	611	613	615	611	607	606	611	619	619	617	612	612	616	619	623	612	602	599	599	602	603	607	609	612	609	608	612	615	615	609	606	602	598	594	593	593	597	606	610	612	615	612	605	597	585	578	583	583	589	600	608	606	604	607	609	605	602	594	591	583	579	586	599	600	600	0	0	0	0	0	0	0	0
802	798	798	793	792	803	807	809	809	813	817	810	780	783	783	791	802	809	809	807	807	805	804	806	804	808	819	819	823	837	839	802	793	782	776	776	777	782	785	784	782	778	778	776	776	765	754	752	746	741	743	756	767	771	768	768	756	751	750	754	757	756	756	760	759	762	766	766	764	762	760	763	763	766	763	755	751	756	760	763	761	759	756	755	753	756	747	745	745	745	745	745	744	747	749	752	747	733	731	733	743	757	760	759	755	746	734	722	722	728	732	734	736	732	739	736	734	732	730	734	732	732	730	734	734	728	721	723	721	719	712	698	696	696	699	704	709	710	709	704	705	712	717	726	726	729	719	709	698	693	691	693	699	702	705	704	695	687	682	678	681	688	696	698	694	687	689	698	707	701	694	684	675	675	684	693	695	700	685	697	694	697	700	696	695	701	707	712	706	689	683	680	679	685	690	691	690	685	682	679	676	682	687	681	681	681	681	682	690	693	689	682	680	678	674	671	671	672	676	682	691	685	683	677	683	683	683	686	691	694	692	689	686	686	686	681	679	679	681	685	672	667	664	663	666	672	676	682	683	684	677	672	672	673	676	675	681	678	676	671	671	673	672	665	665	664	663	649	656	654	656	661	662	663	662	666	671	674	673	667	661	651	659	672	673	662	654	650	659	652	644	647	656	662	663	660	661	672	675	675	670	667	669	667	659	656	658	656	652	651	646	640	636	638	642	650	653	660	660	655	653	658	666	667	661	658	657	660	659	660	657	656	657	650	644	639	640	637	639	639	639	644	648	656	653	652	648	653	654	655	644	635	637	637	631	629	631	635	639	643	649	639	642	647	646	643	641	640	645	648	645	643	636	630	629	626	626	629	644	646	643	634	627	625	638	649	653	651	648	639	635	629	621	638	643	641	638	632	633	636	635	633	634	642	647	646	647	650	653	654	653	650	645	621	616	609	613	620	622	623	624	621	618	618	624	623	621	620	620	620	621	625	630	634	631	627	622	622	623	626	625	622	618	614	615	617	622	617	610	607	599	605	611	617	636	637	637	633	631	629	622	620	623	628	632	632	626	621	615	609	619	621	619	615	612	612	610	617	614	612	616	614	614	616	615	617	615	608	602	599	601	601	600	603	613	615	611	612	613	604	600	592	587	582	591	595	603	603	606	609	607	605	603	604	611	611	604	598	598	597	600	615	620	611	601	594	593	600	604	602	601	603	605	604	607	604	602	599	599	600	601	601	600	609	606	603	601	597	594	593	599	606	611	610	604	604	604	604	606	610	618	610	605	602	608	611	604	602	599	601	607	603	603	604	604	603	599	596	598	598	600	599	596	593	591	590	588	586	588	587	592	587	589	598	604	604	601	598	595	590	586	584	585	589	598	598	599	597	592	584	574	571	572	575	575	576	583	581	583	588	592	594	578	575	578	578	576	575	574	575	574	574	0	0	0	0	0	0	0	0
776	772	772	773	776	780	784	787	787	782	777	763	762	768	768	780	789	793	791	800	800	795	786	784	778	771	767	767	779	760	776	782	778	774	763	763	766	769	770	760	746	744	761	761	761	750	745	742	740	739	740	746	755	758	755	755	750	745	740	741	742	739	741	742	750	753	752	745	737	737	737	744	744	748	743	738	740	739	742	747	747	746	747	745	740	736	734	732	732	731	728	728	729	732	734	731	722	719	716	720	727	735	741	738	737	729	715	703	701	705	720	725	718	717	717	722	720	720	716	710	708	705	706	706	708	712	710	712	705	702	699	694	690	687	686	691	698	700	699	694	693	697	704	709	705	703	694	690	686	679	677	676	677	687	688	684	672	669	670	671	677	684	690	687	680	676	678	682	684	680	679	672	669	669	672	677	678	678	672	662	662	666	674	687	689	694	697	697	685	682	681	676	671	666	676	678	671	661	661	655	656	657	656	662	667	670	670	674	681	676	671	668	666	669	667	662	659	661	666	675	680	676	672	670	672	676	674	675	678	681	680	667	661	662	668	669	667	669	672	664	661	656	655	656	656	659	664	670	671	667	663	659	653	650	641	638	637	646	660	662	661	648	644	649	646	648	641	641	641	646	649	654	652	653	652	657	658	657	653	650	650	649	649	659	654	647	648	646	640	638	637	640	647	653	655	654	652	652	654	654	646	642	648	645	642	630	631	638	643	645	640	632	628	632	636	638	644	642	640	639	642	645	648	651	639	638	641	645	647	647	626	630	644	646	640	636	635	636	635	636	633	636	641	641	632	627	628	636	640	635	629	625	627	626	624	621	622	625	628	631	629	627	627	632	634	631	629	633	637	645	643	636	631	628	623	618	615	617	624	628	630	620	613	619	625	631	633	633	632	615	604	603	607	619	623	628	626	625	627	629	628	624	627	633	637	636	634	636	638	639	640	613	610	607	598	596	599	599	600	602	612	610	611	612	613	614	611	610	606	609	611	616	623	628	626	623	619	617	616	616	612	615	610	605	607	612	612	610	603	601	600	601	607	604	603	604	603	606	604	598	596	594	606	615	625	631	624	616	597	594	600	600	601	596	592	589	584	588	600	609	612	614	617	616	615	608	607	606	598	594	593	591	593	597	600	595	596	600	595	594	592	586	578	573	570	582	576	579	580	579	577	580	595	604	603	595	590	589	587	589	591	597	603	604	597	588	585	589	604	603	601	599	598	598	595	592	583	581	584	584	588	586	586	586	590	589	592	592	590	591	596	600	597	601	599	596	595	598	601	609	608	600	589	585	585	587	589	587	589	588	589	589	589	591	594	593	587	586	585	587	589	586	584	585	581	581	575	574	577	575	572	574	578	582	588	591	591	593	591	587	583	579	583	583	586	589	586	579	574	571	568	568	566	569	569	568	566	565	570	575	579	570	566	568	570	573	572	571	572	571	570	570	0	0	0	0	0	0	0	0
756	762	760	760	762	766	762	757	757	757	757	751	758	766	766	773	776	766	767	760	760	755	753	752	747	742	745	745	735	745	754	759	760	754	757	757	750	753	747	733	726	724	725	731	731	738	739	739	738	739	741	743	747	751	751	751	746	739	734	733	727	723	721	724	731	736	734	724	712	710	713	720	720	724	729	728	726	726	720	725	730	729	723	712	713	721	725	725	726	719	714	710	710	718	721	717	707	707	704	704	710	715	719	717	714	709	698	687	683	693	699	703	707	706	706	705	709	707	701	691	685	684	680	683	679	677	690	691	690	693	692	692	685	679	677	681	687	693	691	685	684	686	692	694	694	691	686	677	675	668	658	661	667	675	677	671	664	662	665	669	674	679	679	665	663	664	669	675	674	672	670	665	661	655	661	656	659	663	664	653	653	655	658	657	656	654	678	676	675	674	673	670	663	658	665	667	663	655	646	643	645	646	643	646	653	661	665	667	670	671	660	659	656	658	657	651	649	653	660	669	670	663	661	663	666	671	666	664	663	670	665	649	643	645	649	648	646	652	653	654	652	651	650	650	651	645	648	657	659	651	648	640	632	631	629	628	629	630	633	634	637	636	628	628	626	630	632	634	632	632	635	646	648	649	646	648	646	647	646	642	635	636	636	637	629	634	639	638	634	629	624	622	632	638	642	635	630	627	633	633	637	631	625	623	620	620	624	630	633	629	627	617	621	621	627	628	630	629	622	621	619	621	622	622	621	618	621	622	622	615	612	614	622	624	623	621	625	630	631	628	625	629	632	627	617	616	615	618	620	621	620	622	620	615	614	614	615	619	621	623	621	618	614	612	621	618	614	622	626	623	616	616	613	613	613	609	605	607	617	623	616	608	608	609	616	620	619	617	614	606	605	604	607	610	614	621	617	612	610	622	617	614	617	622	627	622	616	613	610	597	596	595	601	598	593	593	596	595	595	596	600	604	600	594	589	590	592	593	593	588	587	595	594	601	602	612	616	616	614	604	598	595	590	594	599	606	603	602	598	593	591	592	599	595	593	594	594	593	589	588	587	587	590	593	597	611	604	589	589	593	593	591	586	580	573	570	573	572	574	578	583	587	592	593	588	587	594	592	592	593	591	584	578	576	577	576	576	577	581	586	583	579	573	570	571	570	569	570	569	567	564	567	578	590	586	584	582	582	579	576	578	577	582	585	581	578	575	572	570	571	572	574	575	577	578	581	580	575	574	575	574	572	570	570	569	569	577	589	588	589	587	583	581	581	584	587	581	580	581	583	586	578	571	570	572	574	574	573	577	573	578	579	575	573	573	572	574	576	575	577	575	574	569	562	561	555	556	562	564	564	560	561	566	574	574	575	577	582	586	588	584	576	569	565	563	567	569	566	566	566	566	564	563	563	563	561	557	560	565	568	566	561	558	556	552	564	565	569	569	567	562	562	0	0	0	0	0	0	0	0
738	735	740	740	745	745	734	734	734	738	742	746	751	762	762	768	764	758	748	752	752	747	744	741	733	730	729	720	725	731	737	728	725	728	733	733	737	738	731	722	717	715	716	719	719	724	729	732	733	736	740	741	743	744	743	743	737	730	724	721	715	711	703	698	716	716	716	713	706	701	698	705	705	711	715	717	716	715	713	719	719	712	708	701	701	706	715	717	720	714	703	696	696	700	706	696	689	690	691	687	679	680	683	692	694	695	685	675	672	680	683	687	691	693	688	685	689	688	688	679	671	666	663	663	663	664	665	674	682	685	685	683	680	674	669	671	675	680	682	678	676	674	679	680	681	680	672	656	656	655	655	658	662	669	669	653	656	659	663	667	664	669	671	661	659	660	661	663	664	664	662	657	652	649	646	645	649	652	645	646	645	646	644	644	642	643	645	643	644	659	662	662	654	649	656	660	657	645	642	643	644	641	640	642	648	655	658	658	661	662	657	652	648	646	644	643	641	642	646	651	643	644	646	645	639	638	638	637	641	648	646	634	634	638	640	638	630	629	637	641	644	646	646	644	640	627	627	641	647	636	626	620	618	617	611	607	604	616	618	611	614	620	622	620	618	618	620	623	623	624	627	623	613	635	630	627	629	630	631	624	621	623	617	615	616	619	621	624	620	619	613	609	609	616	620	615	612	614	616	620	620	619	618	619	616	615	620	622	615	603	600	601	606	610	613	615	617	608	608	607	602	601	586	588	593	598	601	604	603	599	602	605	609	612	611	611	611	612	615	613	614	615	616	612	610	607	604	606	606	610	613	616	607	597	594	602	607	611	615	618	617	612	605	600	595	594	594	594	601	604	602	603	602	604	601	601	600	599	604	609	602	597	596	597	605	613	610	609	606	610	610	610	606	604	606	606	604	602	602	594	595	603	605	601	595	595	598	599	587	588	589	586	589	594	589	591	588	589	589	588	586	580	581	579	577	575	578	582	585	582	577	578	578	579	582	589	594	595	594	592	587	585	583	583	591	603	604	602	593	591	588	589	589	584	582	582	584	586	586	584	580	580	580	579	585	588	583	579	584	591	589	585	579	572	565	562	562	565	570	575	572	577	580	580	578	583	586	589	589	570	570	571	573	571	567	567	569	570	570	578	577	572	569	567	566	566	566	565	566	565	563	559	564	573	577	577	575	571	562	563	567	569	569	567	571	571	569	564	561	562	566	568	569	570	567	568	569	568	566	561	559	559	560	562	565	561	559	565	577	579	576	570	566	567	571	579	568	555	551	557	563	566	566	565	567	568	564	559	554	556	558	566	567	565	562	561	566	570	571	563	556	551	547	543	538	538	543	549	556	557	559	559	563	567	565	565	568	570	567	568	568	565	557	552	552	556	557	559	559	557	563	563	561	561	557	554	550	553	561	563	560	554	547	543	532	537	545	555	558	558	553	553	0	0	0	0	0	0	0	0
719	717	723	723	724	717	713	712	712	719	725	736	744	753	753	755	750	740	730	726	726	728	737	733	725	722	713	713	716	722	722	711	707	713	722	722	726	724	720	713	710	710	711	715	715	714	713	718	725	729	737	734	727	718	714	711	711	710	710	702	703	701	696	690	689	696	700	702	699	688	687	692	692	698	700	703	705	703	704	709	708	704	696	689	684	685	685	688	687	680	673	671	683	686	677	675	679	678	677	672	669	668	673	679	683	683	678	673	671	669	660	657	657	657	659	663	666	666	666	667	666	664	657	650	649	645	647	651	659	666	660	657	658	660	663	664	667	669	670	662	663	662	663	664	666	659	658	645	641	640	649	647	647	649	649	651	651	654	658	661	662	659	655	660	655	648	644	642	644	646	649	648	644	638	633	634	636	628	626	636	634	633	634	633	635	632	629	631	634	635	635	631	634	630	636	639	639	638	631	637	644	644	642	640	641	641	647	651	654	652	650	642	631	613	609	613	620	631	634	627	629	628	627	630	626	622	619	614	609	614	623	624	626	629	625	618	613	614	613	617	618	625	628	626	617	614	614	622	629	627	610	607	607	610	608	604	600	599	601	601	599	599	606	610	609	611	612	613	612	614	617	613	606	599	596	614	618	622	620	617	610	606	602	604	605	612	609	605	606	604	601	599	598	603	606	605	601	601	606	608	601	602	606	610	607	604	598	592	592	596	595	596	598	599	603	603	601	600	595	587	591	574	569	572	576	579	586	588	589	585	589	594	599	601	603	602	603	605	594	587	589	598	604	602	601	598	597	592	592	587	592	595	596	590	583	583	594	608	616	616	612	604	601	595	589	587	583	585	587	588	588	591	593	597	596	598	600	596	592	591	591	590	589	587	595	599	598	597	596	596	594	596	594	595	595	593	598	593	591	591	594	599	595	585	580	576	567	572	579	582	584	587	584	588	588	586	583	579	572	567	566	569	572	572	570	568	570	575	581	580	569	570	572	576	577	579	583	587	584	582	579	577	575	577	589	597	601	596	585	586	583	582	583	577	571	572	577	581	581	582	581	578	576	574	575	575	574	571	572	587	583	577	572	564	562	561	563	561	562	565	568	571	575	577	572	569	574	561	549	552	553	556	560	565	563	562	566	569	569	571	570	570	568	564	562	562	562	563	564	562	561	560	561	564	569	571	566	561	550	550	554	555	550	553	564	568	568	561	550	554	559	561	563	563	561	561	561	558	557	555	557	559	562	564	561	556	550	551	561	566	568	564	560	560	564	553	546	542	542	544	550	555	564	566	563	556	558	554	550	546	552	561	562	559	554	553	555	561	561	561	557	547	540	536	534	533	534	542	550	554	555	558	561	560	556	558	559	556	555	558	558	554	553	548	546	548	548	550	551	550	557	557	556	556	552	548	544	544	547	557	544	535	531	527	527	524	528	546	546	546	540	540	0	0	0	0	0	0	0	0
702	705	709	709	709	698	690	689	689	699	714	723	731	726	726	716	704	703	704	705	705	697	706	703	706	678	689	689	703	712	712	699	695	701	708	708	714	713	711	706	699	699	703	706	706	706	710	713	719	722	720	708	701	690	689	689	689	690	685	687	691	687	686	683	681	672	681	684	678	676	676	680	680	684	687	688	693	695	690	691	696	691	681	673	667	663	660	662	663	659	659	657	653	654	655	664	668	667	664	658	656	660	665	667	664	657	655	660	661	650	648	645	644	645	644	642	643	651	654	654	652	650	642	630	623	629	631	635	641	647	642	643	645	648	650	651	657	655	653	646	636	632	631	629	636	636	636	630	629	631	632	632	633	638	643	643	643	648	653	658	658	648	647	639	636	632	632	631	634	637	641	641	640	633	627	624	623	620	615	608	614	619	625	624	619	613	611	616	623	631	631	631	628	625	617	627	624	619	616	621	628	636	638	638	633	630	626	625	626	628	624	618	613	612	619	620	613	615	612	609	611	614	611	621	614	604	604	600	598	601	607	608	613	611	610	607	604	604	605	606	605	604	605	608	607	599	591	593	594	597	598	603	608	611	608	601	596	594	594	595	595	595	595	591	585	584	587	591	593	594	601	599	596	589	585	589	596	614	611	606	600	595	593	595	599	601	599	590	586	588	595	593	587	588	592	592	588	586	588	592	593	589	583	585	589	587	585	582	582	581	583	587	590	592	591	594	595	596	590	581	565	565	568	568	565	565	565	571	574	573	572	582	588	590	595	597	596	590	577	569	566	572	575	582	582	581	573	578	586	586	582	579	573	571	572	578	588	605	607	604	599	591	588	591	588	586	582	580	578	574	568	565	570	570	567	571	575	586	582	577	579	578	579	581	586	587	589	586	578	578	580	580	581	582	582	582	581	573	575	576	581	578	572	564	549	551	555	561	567	577	578	580	577	579	577	572	570	567	560	555	557	560	561	564	564	567	568	571	573	569	562	565	569	571	575	575	575	574	573	568	568	570	572	576	584	587	582	567	561	557	559	557	561	561	560	559	562	566	572	578	578	574	572	569	567	567	564	563	565	572	575	570	564	561	558	558	557	556	554	556	555	555	557	567	566	562	553	545	542	539	541	537	541	549	556	563	563	557	555	555	554	554	551	557	557	555	554	553	557	555	555	556	559	555	553	550	549	547	542	539	544	544	542	544	549	556	560	545	545	545	554	554	554	553	554	554	554	551	551	553	557	562	562	561	557	552	546	541	552	562	567	567	560	546	545	545	541	537	533	534	541	548	556	558	551	547	540	548	541	546	552	557	556	551	545	541	539	539	544	554	553	545	536	527	525	529	531	537	544	546	546	548	550	546	547	548	549	548	542	544	544	544	537	540	542	541	540	542	542	540	538	539	537	537	534	530	529	528	536	532	530	529	527	522	519	521	523	536	536	533	525	525	0	0	0	0	0	0	0	0
687	692	691	691	693	686	677	674	674	678	683	685	680	676	676	678	684	695	697	694	694	687	678	669	659	668	680	680	692	700	691	685	681	682	689	689	697	701	700	692	689	686	689	694	694	698	703	709	707	700	693	686	679	670	672	669	669	671	676	679	677	675	671	662	659	657	662	664	664	662	662	661	661	661	665	669	667	664	662	661	662	669	665	655	650	647	650	648	642	651	650	647	643	641	638	645	652	647	641	640	643	645	654	659	656	649	642	639	637	633	635	633	635	633	625	626	633	636	636	641	644	641	634	623	615	613	621	632	640	646	640	636	630	625	625	624	627	620	621	626	618	614	616	622	624	622	623	620	620	623	625	625	626	628	633	635	636	640	638	643	639	627	622	618	619	622	625	624	624	624	627	629	632	628	626	622	618	608	602	601	606	609	611	610	608	602	599	602	613	621	626	627	612	603	599	598	596	594	598	599	606	614	626	631	626	620	607	604	608	609	603	602	604	600	609	617	621	615	597	586	588	596	606	595	583	583	578	577	595	597	594	594	599	601	600	595	594	594	601	599	593	593	594	593	591	587	584	586	586	584	579	592	600	605	604	587	581	576	576	583	590	593	591	588	580	575	574	577	577	575	579	582	583	572	571	573	575	579	576	600	593	589	586	589	588	589	595	588	585	586	587	581	576	575	575	574	570	568	578	587	586	584	579	577	580	583	580	577	572	572	573	571	571	571	574	578	576	572	570	567	566	570	571	567	560	557	557	558	561	560	559	560	565	568	572	580	580	574	564	557	555	557	557	559	560	564	568	565	574	577	575	570	564	557	555	560	575	587	591	587	578	572	569	570	571	572	573	572	568	563	555	551	555	557	561	561	564	569	568	566	562	565	571	562	559	562	562	563	565	569	568	566	566	568	575	567	559	562	567	571	571	571	558	553	546	545	549	553	557	562	569	566	562	559	560	563	563	560	556	550	551	550	551	551	558	560	562	567	564	561	557	560	562	565	568	567	564	561	554	553	551	557	566	571	571	567	561	555	548	546	546	541	541	544	541	542	541	539	544	556	567	569	568	564	559	558	555	554	554	558	559	557	554	557	555	553	551	550	547	539	546	542	539	538	544	540	541	542	538	535	531	530	532	540	544	549	552	549	543	539	541	539	534	527	548	550	546	543	544	543	541	546	549	550	549	540	537	541	538	536	539	539	541	542	545	544	542	537	538	542	543	544	542	542	542	542	544	546	545	546	548	546	546	548	542	538	536	534	536	538	541	539	534	529	532	532	537	536	532	529	535	539	540	539	536	536	534	532	530	534	539	553	552	543	535	534	533	533	533	539	538	538	528	522	525	529	532	536	540	540	533	533	532	531	531	537	535	529	527	529	536	534	532	528	522	520	526	528	530	528	523	518	518	518	520	520	521	522	524	526	525	523	522	518	519	521	523	527	527	518	511	511	0	0	0	0	0	0	0	0
661	668	678	678	680	677	673	671	671	675	677	672	662	660	660	666	675	682	684	682	677	677	670	662	650	659	663	669	669	673	673	671	668	666	671	671	670	679	682	680	672	671	672	674	679	679	672	662	652	658	667	664	660	656	656	659	659	660	665	668	663	661	657	650	648	650	656	656	655	647	646	645	645	645	645	642	642	641	641	641	643	645	639	637	628	626	627	628	628	633	642	639	636	630	628	635	638	631	630	634	637	644	650	653	651	647	638	635	632	629	627	625	617	615	611	616	620	620	624	626	626	629	630	622	615	611	618	635	638	641	637	634	625	616	610	605	597	595	597	604	606	609	613	615	614	615	619	615	613	613	613	609	611	611	613	615	614	607	596	592	603	604	606	603	608	611	613	613	610	607	607	605	618	618	608	606	602	599	594	596	599	601	599	597	595	591	585	580	584	587	594	595	585	581	580	588	588	590	592	593	599	604	613	615	612	608	606	601	601	600	584	577	580	585	594	604	608	605	598	592	591	591	588	579	577	579	580	574	570	579	576	580	585	588	587	581	577	584	587	585	582	583	583	581	576	572	571	576	578	576	574	575	581	584	568	564	560	559	560	565	569	572	571	570	568	570	569	565	566	565	563	559	561	562	561	562	563	560	559	560	574	577	580	577	568	565	570	572	566	562	560	560	569	569	565	560	556	555	563	573	570	571	568	567	567	565	565	568	569	568	570	571	572	568	562	559	559	560	562	565	566	565	566	564	557	551	549	550	553	554	554	552	552	553	557	558	558	557	553	548	546	551	552	550	552	552	555	561	566	570	570	566	560	554	549	556	565	561	559	568	559	559	559	562	561	557	564	565	560	554	544	543	550	554	555	556	557	559	561	556	553	552	551	552	553	554	556	555	555	558	558	557	554	551	553	553	553	553	554	562	549	546	547	546	545	541	545	548	553	553	557	551	548	544	544	545	548	550	550	546	543	542	541	541	547	553	557	558	554	549	550	552	554	554	558	558	556	549	543	536	534	542	546	551	555	551	546	536	540	538	542	537	538	535	533	533	534	534	539	544	559	563	563	559	553	548	546	547	550	552	552	539	536	542	540	537	537	535	536	535	535	533	525	529	533	535	535	538	536	531	527	526	527	529	532	536	541	538	535	532	528	525	521	519	529	532	529	525	526	529	529	529	538	542	540	530	528	525	533	530	534	538	542	544	543	541	537	532	534	537	535	535	532	531	531	530	531	533	535	536	540	540	538	537	532	530	525	522	521	512	516	520	522	524	528	533	534	530	527	531	535	536	534	530	525	521	518	519	522	525	527	530	529	523	525	532	533	528	527	527	528	527	520	518	521	523	529	530	530	532	534	532	527	524	524	524	525	525	524	523	524	523	524	515	507	507	505	508	515	513	511	509	515	515	519	519	520	520	520	520	519	519	520	523	522	525	528	526	518	508	508	504	0	0	0	0	0	0	0	0
653	658	668	668	670	668	667	669	672	672	672	667	661	658	658	661	663	663	662	660	664	664	662	641	640	637	643	650	650	656	662	665	662	656	649	649	651	663	667	664	659	654	651	649	643	643	639	640	640	639	644	644	643	641	644	648	648	650	653	651	651	649	645	642	644	646	650	645	631	629	629	636	635	635	632	627	626	626	628	634	638	638	636	625	622	621	617	613	610	611	619	627	627	627	626	624	623	622	626	632	637	642	646	644	642	637	637	637	633	627	619	609	603	605	606	607	611	607	605	608	610	610	615	617	617	616	615	615	630	629	618	616	615	608	596	587	586	587	590	593	598	599	603	605	609	611	610	606	605	607	602	603	606	607	606	601	594	590	590	588	586	584	581	583	590	594	598	596	598	599	596	598	598	591	592	593	594	592	590	588	580	576	578	580	581	581	579	577	576	574	579	579	574	570	571	576	575	573	572	565	563	565	572	589	590	592	592	588	584	578	572	563	561	565	566	573	581	587	585	581	580	578	573	571	574	579	575	572	568	571	572	562	560	556	555	553	555	553	553	555	558	559	563	564	560	552	551	555	564	568	567	569	572	564	559	554	549	549	552	557	561	556	557	557	551	546	544	548	553	556	558	556	556	553	550	550	551	552	553	557	559	562	571	568	561	557	561	563	564	560	555	556	561	564	555	549	545	546	545	542	550	560	561	557	555	550	549	554	560	562	566	567	566	558	552	549	548	551	560	562	561	559	556	551	548	543	543	545	549	550	549	547	547	554	559	549	546	543	543	542	543	547	545	544	542	543	541	546	552	560	564	560	557	551	548	550	551	549	548	545	545	550	549	549	548	546	546	548	553	543	541	541	541	546	548	548	547	548	549	546	543	541	542	546	548	551	549	546	547	553	555	553	545	540	545	545	549	548	539	540	542	535	538	539	535	531	531	535	537	537	541	542	542	540	537	534	532	533	537	541	540	538	535	535	537	540	538	543	542	543	542	545	546	548	546	547	538	530	529	529	529	530	534	539	541	541	538	528	524	529	532	533	533	529	525	526	530	528	530	536	545	553	557	551	541	540	539	541	543	546	529	526	526	528	531	532	531	532	532	524	524	519	517	518	524	528	530	535	531	522	516	517	517	520	524	529	533	530	528	527	524	519	513	516	520	516	508	511	517	521	521	519	516	511	508	507	511	514	519	524	531	538	544	543	540	535	533	528	526	526	527	527	524	519	515	515	516	520	528	530	531	527	525	522	521	519	515	511	510	513	515	515	516	517	517	516	518	520	522	527	529	530	527	523	520	518	517	517	520	524	524	524	523	516	515	521	527	522	517	517	517	508	505	502	507	510	511	514	519	521	522	520	517	511	510	511	513	518	516	512	510	513	512	508	505	505	506	509	510	509	508	507	507	507	512	514	515	516	509	506	507	509	514	516	513	514	514	511	504	499	499	496	0	0	0	0	0	0	0	0
645	652	658	658	660	653	653	655	658	658	666	664	658	656	656	658	659	655	646	643	646	646	623	617	619	624	631	639	639	647	655	659	655	647	636	637	637	646	649	654	650	644	637	631	628	628	629	629	628	628	628	629	628	622	628	639	639	638	642	640	636	635	635	631	631	632	632	626	620	617	617	622	627	627	623	619	616	618	622	630	630	625	619	616	615	614	611	607	604	605	605	606	609	614	610	608	604	601	606	613	619	621	618	611	605	607	617	620	615	598	595	595	598	599	596	593	592	589	592	598	600	598	595	594	602	605	601	599	599	596	594	594	592	590	585	581	581	582	581	583	585	590	597	598	599	601	600	595	596	588	589	590	595	596	582	582	586	585	584	584	582	582	580	576	574	574	579	587	594	594	587	582	582	581	580	578	574	571	574	580	580	578	576	578	581	580	578	572	571	565	562	558	556	558	559	555	549	545	548	553	556	559	560	561	560	569	566	564	566	569	566	560	556	555	560	560	561	577	575	569	559	561	562	564	569	572	566	565	562	565	562	556	553	551	549	549	548	547	550	553	553	550	547	542	537	538	539	542	545	540	537	554	554	555	552	544	541	541	545	546	546	547	549	547	542	539	539	540	540	539	536	537	541	540	537	530	532	538	541	543	544	545	544	545	558	552	550	554	554	553	551	550	548	551	550	539	536	534	535	536	540	551	554	551	544	540	541	546	548	550	549	550	551	548	541	536	537	545	556	557	550	541	536	532	534	532	531	528	528	534	540	544	547	553	546	539	536	534	531	529	526	535	533	528	526	527	527	526	527	531	537	541	542	541	540	533	528	532	534	535	534	533	534	536	535	532	534	539	537	538	536	534	535	536	535	536	534	536	537	532	532	533	538	541	546	546	542	536	540	546	548	545	538	530	538	538	530	526	522	520	520	526	531	533	530	522	521	521	523	527	536	541	539	537	533	529	524	522	532	537	539	536	533	530	529	529	525	526	528	534	534	532	531	536	533	532	527	525	523	524	525	527	530	530	530	530	529	520	516	515	521	526	526	524	523	522	521	522	521	522	524	535	534	533	524	520	525	529	533	529	520	518	518	518	512	510	513	515	516	513	512	508	510	514	516	520	526	529	518	511	507	505	508	512	517	524	526	524	518	522	525	521	518	514	515	511	507	509	513	515	518	514	511	509	507	507	507	506	506	509	515	520	523	521	526	526	525	523	519	517	518	519	515	511	508	506	508	512	521	523	514	512	514	518	512	509	507	506	508	513	515	512	510	509	510	509	509	512	515	519	522	521	519	517	513	514	514	516	516	518	519	519	517	512	508	508	512	507	508	507	505	499	505	503	501	501	504	507	510	512	514	512	505	507	504	505	507	509	504	502	503	506	508	500	498	498	504	506	505	504	503	503	503	506	511	513	512	509	504	502	503	504	505	503	502	501	503	503	498	495	495	493	0	0	0	0	0	0	0	0
623	635	638	638	641	638	637	639	647	647	655	655	648	653	657	657	656	647	635	632	630	630	605	606	610	615	621	627	627	635	645	632	621	620	617	617	617	623	631	634	633	630	625	620	621	621	621	618	616	615	619	620	611	607	610	620	620	628	628	619	618	619	624	624	622	623	617	614	613	613	613	614	615	615	619	616	611	612	613	617	615	608	608	610	608	606	604	600	592	592	592	593	597	599	596	595	596	595	595	598	599	600	597	592	582	574	576	582	583	586	586	591	593	589	587	580	577	579	587	592	592	590	585	584	587	590	589	587	585	587	588	587	586	581	576	577	577	576	571	569	571	578	586	589	591	586	588	582	572	577	576	573	570	569	570	574	580	581	579	574	570	575	575	573	570	568	572	579	582	582	574	571	571	570	569	567	565	563	568	571	574	573	567	563	552	547	554	554	547	547	549	546	549	547	548	544	543	543	544	545	552	551	552	550	548	551	548	550	558	563	563	557	556	557	554	554	556	551	551	550	549	551	552	555	559	559	556	551	551	555	554	552	549	549	546	544	542	539	544	548	548	544	539	534	530	531	530	530	530	526	523	520	535	544	544	541	534	530	528	533	532	540	540	540	536	532	531	533	530	527	528	531	534	533	530	525	522	524	529	530	528	532	535	536	537	535	536	540	542	533	533	536	542	546	546	536	525	519	520	525	530	537	547	543	537	536	537	535	527	519	521	522	522	525	529	533	533	535	532	531	532	532	529	525	518	511	510	516	522	529	532	535	538	539	534	531	527	527	523	520	520	521	526	527	522	517	513	509	513	519	527	533	534	532	530	523	521	526	528	530	527	524	518	516	518	521	519	517	518	520	524	522	517	518	520	516	516	514	515	521	526	530	532	533	534	535	536	534	530	533	537	532	524	525	525	527	524	519	513	510	510	516	521	523	523	519	518	519	520	523	526	532	538	530	523	520	515	514	516	530	536	532	528	524	522	520	518	516	519	522	522	519	524	527	527	526	522	518	520	519	522	524	526	524	524	524	519	515	512	511	515	523	522	523	519	516	516	515	517	520	518	517	519	515	514	514	520	522	521	521	517	516	515	512	509	509	513	514	509	505	502	499	500	505	510	512	517	520	515	509	501	498	502	504	510	516	523	518	507	512	514	512	510	512	512	510	506	503	506	508	508	508	509	509	506	504	505	502	500	501	503	510	512	505	504	503	502	504	506	508	506	508	504	502	498	497	498	507	510	506	501	501	503	508	503	501	501	505	505	512	512	510	506	503	504	502	502	503	506	509	513	514	510	508	508	508	510	512	512	510	511	513	513	503	500	500	500	500	500	503	500	500	501	501	499	499	500	501	504	504	505	502	503	503	502	502	503	502	497	496	498	502	500	495	495	495	496	498	497	496	496	497	497	503	505	506	506	503	498	497	500	501	500	498	496	495	498	498	493	491	491	489	0	0	0	0	0	0	0	0
