747	751	751	752	751	750	753	756	756	759	759	756	759	762	762	765	768	764	757	760	760	763	761	763	775	774	764	764	749	730	732	719	707	705	713	713	725	723	720	714	706	713	721	724	724	720	710	700	703	712	718	714	721	734	737	737	737	736	734	735	734	731	730	726	725	720	714	709	707	704	704	712	712	710	714	714	706	696	691	694	702	712	726	726	720	713	696	692	697	702	711	710	707	704	702	704	710	713	715	705	707	713	716	716	716	710	700	690	690	695	710	711	702	702	700	704	696	698	698	680	685	694	697	690	689	696	699	696	688	689	696	706	711	711	704	704	703	700	698	693	688	680	668	660	666	670	679	680	684	677	677	673	668	671	671	667	659	659	670	670	665	663	668	673	670	660	652	649	653	656	663	663	659	660	661	664	662	662	663	662	659	660	662	671	670	671	665	661	661	661	663	670	680	684	698	708	702	684	675	668	676	682	683	683	677	674	675	677	677	664	657	654	651	659	661	658	659	658	660	657	654	657	655	656	651	651	656	663	660	653	652	647	650	653	656	658	654	641	643	645	646	644	641	642	642	641	640	640	637	630	622	620	634	640	638	637	638	638	639	635	630	632	634	637	633	639	644	647	652	657	653	650	644	643	643	647	646	643	639	637	633	642	647	650	638	637	634	634	633	634	631	628	627	628	631	628	625	625	624	626	631	636	639	640	637	635	631	627	619	616	617	621	618	625	625	630	636	633	632	624	615	615	619	622	623	624	628	633	635	635	633	635	634	634	635	640	650	655	656	645	639	648	643	631	623	615	616	620	625	625	624	618	621	623	624	624	627	630	627	626	629	630	628	623	629	632	636	636	643	642	641	638	635	621	616	620	621	621	625	624	623	615	614	614	614	620	629	637	645	646	639	627	617	614	616	621	620	618	619	619	617	611	614	613	612	613	609	610	610	615	620	602	608	619	619	613	610	613	616	617	609	600	601	602	600	597	603	614	630	637	634	618	616	615	612	606	610	612	610	608	606	603	598	596	599	598	597	597	597	601	607	610	616	603	598	593	594	621	622	615	609	610	612	615	617	619	615	612	607	604	595	597	611	618	607	602	602	595	593	593	601	607	611	610	611	609	604	600	600	602	599	590	584	588	601	590	593	597	590	590	592	593	592	591	589	598	600	600	604	599	589	588	592	602	605	605	599	594	593	589	584	582	587	592	593	591	588	589	593	591	589	584	583	581	584	587	584	579	571	564	562	564	573	578	585	585	590	590	593	594	591	587	585	588	588	585	581	576	573	573	579	583	588	590	590	587	598	599	601	600	596	595	592	590	582	581	583	582	585	586	589	588	584	582	581	583	585	589	591	593	595	597	596	594	595	598	601	600	593	590	588	585	585	583	579	578	576	577	581	582	583	588	586	587	587	585	583	580	578	578	580	579	583	588	589	586	586	586	579	572	565	565	0	0	0	0	0	0	0	0
726	734	733	733	730	727	726	726	726	734	738	736	742	745	745	744	741	740	732	715	715	718	726	733	733	733	732	732	712	715	707	692	685	683	694	694	703	710	707	700	701	710	712	714	714	707	696	690	690	695	698	704	712	719	721	721	719	718	718	719	720	722	717	715	709	702	701	700	695	692	688	689	689	694	698	698	690	682	670	674	683	690	688	698	694	690	673	670	674	683	691	693	693	693	693	692	690	689	685	683	687	692	698	700	699	693	680	674	676	682	678	689	697	702	702	694	687	675	666	662	667	685	690	686	684	686	677	668	668	674	683	693	690	682	675	669	671	671	655	658	662	664	658	659	662	659	659	661	652	652	644	645	643	651	656	651	648	646	648	648	644	647	653	659	654	648	644	645	647	651	655	651	651	650	655	652	654	651	651	650	644	644	645	641	639	643	657	655	651	649	648	650	661	664	670	679	671	660	651	645	642	638	634	638	642	649	655	659	663	661	651	649	649	653	647	644	645	647	650	652	648	645	649	653	652	652	650	653	647	646	640	638	639	643	643	636	630	623	625	620	616	626	634	638	635	634	637	639	635	617	607	616	626	634	633	629	628	626	622	623	623	622	620	624	625	621	621	623	620	618	626	645	642	641	637	636	633	631	625	621	621	625	633	644	629	627	628	625	625	627	627	624	623	626	625	619	615	611	613	615	619	620	624	628	627	625	616	609	603	601	600	598	607	610	613	614	615	612	604	601	601	604	612	615	613	609	610	617	619	609	610	613	620	624	626	636	643	644	638	626	619	625	628	620	610	605	607	612	617	620	614	613	612	612	612	609	603	602	606	607	604	603	608	612	619	621	618	617	619	620	619	618	611	604	603	604	611	615	620	622	619	617	614	613	612	612	617	625	632	628	622	614	609	607	610	611	613	612	613	614	606	604	607	607	605	603	603	599	596	587	589	585	588	592	594	595	602	603	603	602	597	590	586	587	590	591	592	596	600	603	603	605	601	596	587	594	601	605	602	604	604	599	596	593	593	593	589	590	594	597	604	607	604	600	595	592	593	599	603	606	603	599	601	604	600	596	592	591	588	588	590	594	606	613	599	594	590	588	586	585	587	592	593	593	589	577	579	579	582	585	582	574	570	568	570	571	580	590	588	584	586	585	584	585	591	589	587	585	578	574	571	571	580	596	598	596	586	581	583	588	587	583	581	585	588	587	580	577	579	582	582	583	583	585	586	586	586	578	575	570	568	570	572	575	579	579	579	581	583	585	584	582	581	581	577	572	567	567	565	565	572	577	580	584	584	584	590	596	595	584	582	581	574	569	570	573	574	575	574	575	575	575	575	574	577	578	583	585	581	573	570	574	577	581	579	579	582	575	577	578	579	579	579	577	572	569	570	569	574	578	580	581	582	576	576	573	574	575	575	572	569	572	579	581	579	580	581	583	581	575	565	565	0	0	0	0	0	0	0	0
710	711	714	714	713	711	693	702	702	716	726	728	724	718	718	714	714	708	702	704	704	701	706	704	705	706	709	686	692	687	682	669	665	668	675	675	685	689	685	685	692	702	706	701	701	686	680	681	684	686	690	695	700	702	706	706	706	703	702	707	704	700	699	698	694	689	688	689	686	678	670	672	672	675	681	682	676	670	667	669	673	670	663	654	651	653	655	656	660	664	667	667	673	679	680	679	674	672	676	675	675	676	678	680	676	664	652	655	657	653	651	658	669	677	680	667	659	654	655	653	655	656	678	677	674	671	662	657	658	658	663	666	665	658	651	644	641	639	637	637	640	647	648	653	653	650	648	640	637	637	636	634	634	635	636	635	636	638	637	636	633	634	639	645	645	641	641	643	645	648	648	642	642	645	646	645	639	634	636	635	630	630	630	630	623	629	629	630	631	638	635	641	646	655	655	649	652	640	635	632	629	623	618	621	632	640	643	642	640	633	646	645	645	640	636	630	629	631	639	641	639	636	635	630	636	629	631	641	636	632	632	629	626	625	627	621	611	610	611	614	614	619	623	622	620	623	631	639	633	604	601	608	619	626	625	622	613	610	609	608	608	611	615	616	616	615	609	605	602	606	607	610	610	636	634	629	622	621	611	607	607	613	619	607	614	620	618	615	610	617	616	613	615	618	616	608	601	600	603	607	609	614	616	621	622	620	613	608	605	600	596	593	599	603	602	596	593	588	588	590	595	601	606	608	606	600	599	599	597	598	598	595	597	603	607	612	617	620	610	607	610	610	608	600	598	600	601	602	601	602	591	586	587	588	594	596	598	597	597	597	596	595	596	598	603	607	610	603	599	604	605	605	599	597	594	596	601	605	608	609	607	602	604	600	600	602	608	618	620	617	613	611	605	600	598	596	607	605	606	606	599	595	597	598	598	598	595	589	577	578	577	576	576	584	583	589	590	593	595	594	590	585	583	582	587	587	587	591	593	591	586	586	582	579	579	585	593	596	598	599	597	597	593	590	590	591	588	590	593	599	600	601	597	592	590	591	595	598	600	600	595	584	582	582	575	584	588	586	583	587	588	586	587	588	590	589	588	586	584	589	586	590	591	587	583	572	570	572	574	555	554	555	558	562	565	568	572	573	573	576	578	580	580	579	580	577	573	574	576	571	566	564	569	585	586	577	567	568	569	573	576	580	576	574	573	567	568	565	561	562	569	576	578	581	581	585	584	581	577	573	571	571	571	573	575	575	572	562	557	555	559	564	566	562	557	561	563	562	557	554	559	569	575	578	578	575	576	578	577	575	571	570	565	561	560	565	570	570	567	565	567	568	566	566	567	575	577	578	565	567	570	567	567	568	566	569	569	569	568	567	569	570	571	571	567	563	563	568	559	556	564	571	573	573	571	571	575	581	578	571	567	568	569	570	572	572	576	578	578	575	566	566	0	0	0	0	0	0	0	0
687	689	694	694	697	686	681	690	690	702	713	716	709	693	693	686	690	690	688	691	691	691	688	683	683	683	669	669	671	665	663	656	656	657	663	663	666	660	662	670	673	684	687	681	681	676	674	676	677	678	680	682	684	689	689	689	689	688	688	686	684	683	683	682	677	673	675	676	672	662	656	653	653	655	658	666	665	661	658	659	658	658	655	647	642	644	646	648	652	657	659	657	658	660	662	658	661	661	662	662	659	657	656	659	647	639	633	636	635	638	641	651	658	660	654	651	649	647	647	645	643	644	648	659	663	656	653	646	641	643	639	642	643	639	634	633	636	633	637	634	632	637	637	641	641	639	635	631	631	630	633	632	628	628	625	626	627	630	631	628	625	625	624	630	631	637	646	646	640	631	626	623	627	632	636	631	624	620	624	619	613	612	616	618	612	609	607	617	626	633	636	639	642	644	641	636	632	628	625	622	620	617	616	616	626	630	633	629	619	618	629	631	631	626	620	617	615	620	627	629	625	623	619	624	620	614	609	598	599	604	613	615	616	616	613	614	614	615	610	608	608	607	608	607	609	613	618	619	615	610	599	605	612	611	611	609	603	595	592	595	599	605	609	611	610	604	598	596	595	597	599	601	597	594	588	609	606	601	597	591	600	599	598	599	601	605	608	606	597	594	589	596	602	609	607	599	592	592	594	599	601	603	607	611	615	612	605	603	598	593	592	591	593	593	595	595	590	586	586	588	587	590	600	602	602	596	597	595	595	591	589	586	583	581	582	581	579	575	581	587	592	592	586	583	585	590	596	592	593	583	582	580	583	586	587	590	594	596	593	592	591	588	587	588	592	600	599	595	589	587	587	590	581	577	583	589	592	593	584	587	589	593	595	589	594	596	598	601	603	597	583	581	584	583	583	582	589	594	594	594	594	590	587	587	590	590	580	573	567	569	568	569	568	576	581	581	584	587	585	583	581	579	576	576	576	575	577	583	585	581	581	579	575	572	569	569	575	580	585	584	579	575	577	572	568	567	571	583	588	593	594	593	592	588	586	588	592	595	592	591	584	569	569	562	566	573	576	574	575	583	584	579	580	583	586	584	585	581	582	581	588	591	589	580	567	563	560	556	553	552	551	555	561	566	567	566	563	559	560	568	567	566	564	564	562	562	562	562	571	569	563	561	562	570	565	557	543	552	555	562	566	567	562	563	560	556	556	556	557	556	560	564	569	570	574	578	578	576	568	559	551	548	547	546	559	560	549	549	554	557	558	558	557	553	549	551	552	554	553	550	553	562	568	570	567	563	564	558	563	567	566	563	559	555	555	557	559	559	559	559	564	563	561	560	562	568	570	559	561	564	566	566	564	559	556	559	562	559	561	562	561	559	558	556	557	558	555	553	552	551	558	558	559	559	562	568	570	572	571	566	562	559	555	554	556	559	562	564	566	562	556	556	0	0	0	0	0	0	0	0
676	677	684	684	681	670	664	674	674	682	692	698	680	666	666	658	655	668	676	676	676	671	675	673	672	654	651	651	653	655	656	657	656	653	651	651	647	646	652	657	659	663	668	667	667	666	667	669	672	671	667	666	666	670	675	671	671	662	660	667	664	663	663	665	663	655	660	656	650	648	646	641	641	640	641	648	659	657	648	643	645	645	645	641	639	635	636	640	645	647	647	647	646	647	648	652	649	647	649	648	648	646	645	639	631	626	618	620	624	631	642	649	655	654	642	635	637	639	638	633	627	628	631	640	643	646	644	640	634	633	628	626	623	622	626	631	634	634	633	630	622	621	620	623	627	626	623	622	624	626	626	621	619	617	615	612	614	619	613	608	605	605	611	609	619	629	634	628	619	612	610	610	612	613	613	613	610	611	612	605	598	597	600	601	602	607	606	610	618	631	626	626	621	615	597	620	620	619	616	613	612	613	613	616	617	613	604	605	604	606	620	623	622	616	610	607	604	608	610	609	610	609	604	612	608	604	594	588	589	597	603	608	611	610	608	610	611	611	606	601	597	593	594	593	597	604	608	607	602	596	593	601	605	597	600	600	595	591	586	585	589	595	595	592	592	594	588	588	590	596	596	593	588	580	562	558	563	575	576	579	582	583	583	586	587	592	596	597	592	580	578	581	581	584	588	590	589	588	587	589	590	592	595	602	606	603	602	594	586	577	576	581	584	586	588	590	592	597	596	590	581	576	579	584	587	589	590	593	593	588	581	575	572	572	574	572	570	569	569	572	578	584	584	584	586	586	581	580	581	574	564	561	563	570	581	586	584	585	582	583	583	582	576	584	590	596	595	585	579	578	579	574	573	573	577	581	576	574	580	581	582	581	586	587	589	590	594	582	574	571	570	571	572	575	571	573	575	574	573	569	568	568	567	567	561	567	562	563	563	563	559	560	562	571	576	577	579	579	576	574	574	568	562	559	562	568	564	562	559	566	570	568	569	566	565	562	562	565	568	567	567	568	568	565	562	559	559	570	579	580	578	577	583	579	577	580	586	584	581	578	567	559	556	555	562	569	570	566	564	562	561	568	572	577	574	571	570	572	574	573	578	575	565	556	549	551	552	549	545	546	549	554	553	554	551	548	545	544	547	554	554	539	539	542	546	550	555	556	560	560	557	555	555	552	549	544	537	538	544	552	556	554	547	535	536	541	547	551	552	553	556	557	556	557	557	558	551	551	545	542	539	549	552	555	542	541	544	549	554	556	557	553	546	541	540	545	547	557	560	556	553	554	558	558	553	544	538	539	545	549	550	551	555	551	549	549	549	548	550	551	553	559	551	547	550	552	551	550	553	556	560	555	549	548	548	552	550	551	553	554	552	550	551	550	553	553	552	550	550	550	546	545	546	546	549	553	554	554	549	546	545	544	543	542	545	547	548	549	551	554	551	551	0	0	0	0	0	0	0	0
663	668	672	672	671	659	652	657	657	661	667	667	659	647	647	639	642	656	664	662	662	660	661	663	643	643	636	636	636	643	649	652	653	648	639	639	634	639	643	645	647	648	649	649	649	646	646	649	653	653	648	649	652	649	643	643	643	636	634	635	644	648	641	627	624	628	649	645	640	639	639	639	639	639	635	632	632	630	628	630	630	630	634	631	624	622	625	631	630	635	637	637	636	637	635	640	639	636	633	632	633	630	628	627	622	617	615	615	615	620	631	642	648	641	632	630	631	632	626	618	612	611	613	613	614	629	634	635	630	628	617	610	608	606	610	615	620	622	624	616	605	602	605	608	611	610	608	612	616	613	613	608	608	607	604	601	599	599	598	593	596	595	595	595	611	617	620	610	603	600	597	600	598	596	589	595	597	601	605	595	586	580	585	591	597	601	601	595	595	598	596	597	593	593	593	591	592	602	608	601	601	609	613	610	601	599	597	597	599	599	595	590	595	595	592	588	581	580	583	589	592	595	596	597	590	590	590	591	590	594	596	594	595	597	597	597	597	600	601	591	584	580	580	575	561	566	570	573	573	569	569	578	582	580	580	582	584	583	583	580	580	577	575	569	563	562	563	570	575	576	570	566	567	564	559	556	556	564	576	575	577	574	568	570	575	581	588	581	574	573	571	568	564	562	568	574	578	569	566	565	569	581	589	591	589	588	580	577	566	565	565	565	566	568	571	577	579	580	575	575	578	578	570	563	560	564	576	583	585	580	571	566	565	565	563	565	564	566	569	573	578	583	582	582	582	580	578	571	572	566	560	555	556	559	561	564	565	563	564	571	572	572	563	565	573	580	577	573	570	570	568	570	572	571	570	567	564	564	567	573	570	572	577	576	581	584	579	568	565	565	563	564	564	561	562	564	564	563	566	562	560	560	557	558	555	553	552	554	558	553	549	550	555	562	572	575	573	562	560	558	556	554	551	553	559	556	552	551	548	549	555	559	562	565	565	561	558	560	559	559	558	561	564	562	558	553	551	550	548	551	555	557	561	563	562	561	557	556	554	553	555	552	551	554	559	562	563	560	556	554	551	551	555	558	556	554	555	559	559	563	567	552	549	545	543	539	541	541	539	542	545	546	544	543	537	537	537	537	533	527	531	535	540	540	544	547	548	550	550	553	550	549	546	543	542	536	531	534	538	547	544	537	529	526	529	538	542	539	542	545	546	548	544	537	529	520	517	520	526	534	541	546	550	547	542	536	539	544	543	540	538	536	535	532	533	531	544	541	542	544	544	541	540	537	535	529	531	534	540	544	544	545	545	542	539	540	538	538	539	543	544	538	537	540	542	544	544	539	537	535	538	542	543	540	536	535	537	538	542	546	543	542	542	544	545	543	547	543	540	537	536	537	539	539	541	543	537	530	531	536	535	535	534	538	540	542	543	543	543	546	541	541	0	0	0	0	0	0	0	0
654	658	653	653	647	642	643	646	646	650	655	654	645	635	635	632	633	637	641	644	646	646	651	650	633	632	631	626	626	634	640	647	648	636	621	621	619	619	617	617	614	617	623	627	632	632	636	640	638	631	630	635	636	628	628	626	626	624	622	622	625	630	618	611	608	612	624	631	634	632	635	639	637	637	631	624	620	618	619	621	623	625	620	620	615	618	621	624	622	618	613	609	616	623	628	632	630	623	619	620	618	617	617	617	619	619	617	612	610	609	613	625	629	624	621	619	620	617	615	611	605	601	602	602	605	609	615	620	616	613	602	602	599	595	595	601	607	614	614	608	600	595	598	599	596	593	600	605	604	602	591	588	587	588	591	595	595	589	585	581	580	578	582	588	599	602	602	600	594	590	588	590	591	583	575	575	583	594	601	585	579	576	577	579	582	583	582	581	584	583	584	586	583	580	579	574	580	582	585	587	593	593	599	600	592	591	592	592	597	596	589	584	579	579	578	578	577	576	578	581	581	584	588	587	586	585	583	584	585	579	580	579	579	577	573	570	570	574	573	570	564	558	555	550	551	553	557	561	561	562	562	561	560	561	564	568	575	577	577	573	566	563	560	554	547	547	553	555	556	559	555	547	541	547	552	553	558	566	566	554	578	570	564	562	569	581	586	575	563	557	555	554	554	556	559	561	555	553	553	555	558	569	576	574	571	571	567	565	560	559	556	556	554	563	562	563	559	554	553	551	557	566	566	558	555	554	558	562	568	566	563	562	562	561	559	557	558	562	563	564	567	569	569	573	569	568	559	555	554	554	553	550	550	553	553	556	557	557	555	552	552	553	556	550	546	549	554	559	561	564	563	563	566	558	555	551	555	554	557	560	563	564	566	561	561	566	567	564	561	561	561	558	552	550	547	546	554	556	557	556	550	551	553	553	552	548	546	544	543	543	542	546	549	555	561	566	560	550	546	546	545	545	545	544	548	546	544	545	544	542	548	551	555	557	561	557	554	552	553	552	552	557	557	556	552	547	543	537	542	543	548	552	561	558	552	546	546	546	548	548	548	547	550	554	555	553	551	551	548	549	547	546	547	546	544	543	545	547	551	544	544	544	543	540	534	535	535	535	536	541	544	543	540	535	532	531	533	531	529	526	528	534	537	536	543	542	539	538	540	544	541	539	528	532	531	527	520	519	528	534	529	531	526	523	526	530	534	541	541	542	540	537	534	529	523	518	517	519	523	527	532	534	534	528	526	527	528	526	524	524	528	526	523	520	519	520	525	529	535	536	538	536	535	534	532	524	525	532	537	541	541	543	541	532	522	520	525	527	532	534	532	535	536	536	536	533	525	523	524	528	532	538	536	534	531	529	530	531	534	535	535	533	533	532	535	537	534	530	524	522	525	530	533	533	532	529	528	526	523	523	527	527	529	532	530	529	528	537	536	527	527	528	0	0	0	0	0	0	0	0
649	646	639	639	632	630	631	634	637	637	642	643	641	635	635	629	623	621	623	626	634	634	639	627	626	625	627	626	626	624	618	610	609	605	610	610	613	611	608	605	603	602	605	608	618	618	627	633	632	624	620	620	616	611	609	606	606	597	597	600	604	607	610	604	601	598	602	607	620	625	628	630	625	625	623	618	615	611	612	615	615	612	609	609	610	613	614	615	610	601	602	609	615	619	617	615	614	608	607	612	609	604	607	613	613	614	614	612	607	604	603	602	601	607	611	612	611	607	607	605	598	593	591	592	592	592	594	597	600	599	595	596	595	592	590	593	599	603	601	596	590	591	594	589	586	592	597	589	583	579	580	581	582	583	585	586	587	584	578	570	567	571	574	577	577	578	580	582	581	574	572	581	581	576	569	568	579	584	589	584	576	570	571	573	576	579	578	578	576	575	576	576	573	571	569	563	561	561	561	560	564	563	559	574	572	571	583	586	588	582	580	573	567	564	566	573	573	575	574	570	569	572	573	575	577	577	573	571	569	562	568	556	560	566	564	560	563	562	560	561	562	557	554	551	550	546	546	551	556	556	555	547	544	546	547	548	565	570	565	561	557	553	545	543	542	545	548	553	554	553	548	539	529	528	533	543	550	552	550	544	540	541	550	553	557	555	555	550	550	547	544	545	547	549	547	545	540	542	545	549	554	560	567	564	558	558	559	558	552	548	548	548	548	550	556	555	552	547	542	543	547	551	556	553	548	548	551	557	558	557	555	553	556	558	557	555	555	552	549	554	557	557	554	557	553	545	533	530	530	532	538	541	544	544	547	551	554	554	549	547	545	547	546	535	535	537	545	548	553	555	555	550	541	548	547	543	541	542	551	554	556	555	554	552	554	558	561	559	558	554	553	546	541	540	546	543	544	547	543	547	548	548	548	545	544	541	542	539	534	527	521	524	535	546	551	550	545	540	534	537	536	533	532	534	537	540	540	539	539	537	538	541	544	549	550	551	545	537	534	535	539	544	546	542	537	535	540	539	537	539	538	547	554	549	543	536	536	537	542	543	540	543	548	547	541	533	531	530	539	539	537	538	538	535	532	532	523	527	533	539	542	541	539	536	530	534	534	534	534	537	539	538	531	528	527	526	524	521	526	526	528	528	526	531	535	536	534	533	533	530	533	529	526	523	522	511	503	513	522	526	524	520	517	517	518	524	529	532	532	530	529	528	528	526	523	520	516	516	519	520	520	518	519	515	516	517	516	517	517	519	521	520	517	513	510	511	513	519	524	527	529	530	529	530	527	519	522	527	530	533	533	530	530	522	514	512	507	510	516	523	524	522	526	526	524	517	514	515	521	524	527	525	523	526	525	526	524	524	518	509	510	513	517	519	522	524	525	514	515	514	516	519	520	520	521	520	519	520	518	515	516	520	524	524	522	521	521	516	510	509	509	512	0	0	0	0	0	0	0	0
631	630	627	627	620	617	616	617	618	618	628	633	633	629	629	624	621	618	614	620	625	625	612	613	613	615	621	620	620	617	606	602	595	597	603	607	607	606	602	599	597	596	598	599	609	609	623	627	625	614	608	605	599	587	587	589	589	588	589	594	599	603	603	603	599	594	590	589	596	606	613	615	615	615	611	606	604	600	592	593	599	598	598	602	604	606	604	601	601	599	602	604	602	594	590	594	594	594	589	584	593	598	599	605	607	607	603	604	601	597	592	588	585	583	583	583	584	587	588	592	589	589	588	587	591	590	582	582	590	592	590	585	585	586	588	588	592	587	583	585	583	579	578	585	591	589	588	573	574	574	574	575	577	579	581	582	586	583	578	571	567	565	560	561	572	567	560	560	564	568	569	570	574	571	567	564	567	568	570	572	574	570	566	568	571	573	574	569	564	552	548	547	545	548	549	548	545	546	548	553	556	556	554	553	554	567	570	573	574	577	574	569	559	553	557	566	569	558	557	557	561	563	564	560	560	560	550	549	547	553	552	549	547	547	552	556	556	553	553	557	560	557	555	551	546	541	533	536	541	543	541	539	541	541	536	534	537	553	552	549	540	536	534	536	538	537	529	532	534	540	537	533	530	528	532	536	539	539	537	536	534	535	539	539	546	545	537	544	541	537	536	533	529	529	535	535	536	534	538	541	543	547	551	551	552	549	549	547	540	537	541	541	539	541	542	543	541	534	532	533	538	540	543	544	543	539	542	542	543	547	546	548	552	554	553	550	546	544	545	548	548	544	540	540	539	535	532	530	529	528	530	532	536	541	546	547	543	543	539	540	537	532	530	528	530	533	534	541	544	545	544	538	534	540	542	541	536	536	539	538	536	543	544	543	547	543	535	529	530	529	529	534	532	532	543	541	539	537	536	534	538	536	536	536	533	531	530	535	525	518	513	514	522	532	541	543	540	538	537	531	528	527	525	527	530	534	534	533	530	529	529	530	530	538	542	540	532	526	521	520	517	523	531	535	533	535	544	546	540	530	527	522	524	525	532	529	526	526	526	531	533	537	538	537	531	526	526	530	522	516	516	520	528	525	512	512	516	519	522	524	525	517	511	511	519	532	536	538	535	533	534	534	529	524	520	519	515	516	526	529	524	521	522	523	530	531	529	526	524	525	527	525	523	519	514	505	503	507	514	518	518	515	515	511	515	517	521	523	522	520	517	518	520	521	519	515	512	509	511	511	506	504	504	512	511	512	511	510	511	514	517	516	513	509	507	506	507	510	515	520	522	523	522	524	520	517	516	523	524	521	520	520	527	525	520	512	505	501	505	511	515	514	516	517	511	510	511	511	514	515	516	512	506	507	509	517	517	509	498	495	493	496	501	506	511	514	513	511	508	509	509	511	511	513	513	512	512	510	505	509	511	515	518	517	515	512	507	502	501	505	505	507	0	0	0	0	0	0	0	0
608	614	611	611	608	607	607	607	610	610	615	620	615	611	612	612	612	608	608	611	613	613	591	585	584	588	592	595	595	601	598	594	589	592	597	601	601	599	594	592	589	587	589	592	596	596	603	609	608	602	597	594	584	579	579	582	582	587	588	591	596	599	595	595	592	590	586	583	584	594	602	603	602	602	598	588	584	587	589	590	589	586	590	595	598	598	595	591	586	591	595	593	588	583	580	580	586	588	585	581	579	579	584	593	598	602	600	596	592	586	583	579	575	570	570	572	574	579	581	580	581	580	584	587	591	590	574	572	571	576	579	575	570	567	571	577	579	580	577	576	576	573	571	569	574	574	570	561	559	563	566	566	570	574	578	581	581	577	569	561	558	553	553	554	560	558	553	550	549	551	553	555	557	557	558	563	565	565	565	563	561	556	548	549	549	556	558	555	547	541	542	543	544	543	542	541	539	537	542	546	549	549	547	545	544	546	545	545	559	556	552	553	557	557	554	554	556	548	545	548	552	557	553	545	541	544	543	543	542	544	543	544	544	542	542	544	542	538	540	545	549	547	537	529	527	527	528	528	530	533	536	535	531	531	527	521	521	522	524	526	525	526	522	522	521	518	515	516	516	523	531	528	528	527	529	530	531	530	529	530	531	533	534	530	526	524	531	539	538	534	527	525	524	524	525	524	526	526	527	527	528	530	534	536	538	541	540	537	532	530	530	529	526	524	523	532	531	527	525	525	529	532	532	533	532	529	524	524	526	532	533	534	538	545	546	546	540	540	538	538	538	535	534	534	533	533	532	530	528	526	525	528	530	534	535	538	534	532	530	530	527	528	525	523	523	527	530	535	538	539	537	530	528	533	538	539	540	535	531	528	529	530	533	537	540	530	525	521	519	525	523	514	521	528	524	526	534	534	530	525	524	527	526	528	525	524	521	519	516	510	507	510	520	528	533	536	534	531	525	521	519	518	521	524	526	528	528	525	520	523	521	515	511	515	522	526	518	517	518	515	515	514	520	524	527	534	539	539	534	523	518	510	510	512	509	509	508	510	511	518	521	525	528	524	522	517	522	522	514	510	510	506	510	511	510	509	511	513	517	519	517	509	505	505	508	513	520	524	523	523	526	526	527	518	516	514	516	513	523	523	519	513	511	513	521	522	522	518	513	508	506	509	521	518	512	507	503	505	508	512	513	512	509	505	507	513	515	515	514	511	508	510	509	508	508	508	507	506	507	504	501	499	498	503	505	507	507	507	506	512	513	512	510	506	504	501	502	503	502	508	512	511	509	513	514	509	508	510	516	512	511	512	514	516	516	510	503	500	502	505	510	513	512	508	503	501	505	507	507	508	510	508	507	504	503	500	500	499	497	499	497	494	492	494	501	505	507	506	505	498	497	500	500	505	505	504	501	499	500	504	512	512	511	509	505	501	498	496	497	498	498	500	0	0	0	0	0	0	0	0
588	595	596	596	599	604	603	601	601	601	603	599	591	589	594	594	596	596	599	602	598	591	588	584	582	583	582	582	582	583	581	561	560	567	580	589	589	593	590	585	583	578	576	577	581	581	587	590	590	589	590	586	582	573	573	578	583	583	582	582	584	582	578	574	574	575	577	580	584	582	581	581	581	581	585	579	576	573	576	578	579	584	587	589	591	590	587	580	574	580	584	581	576	572	570	574	579	582	578	574	571	570	565	563	567	571	571	573	571	566	565	568	563	557	560	567	571	575	575	571	566	564	567	573	576	577	563	554	551	556	559	559	558	552	555	559	561	563	564	566	563	561	560	552	549	549	551	552	553	550	549	551	553	556	569	569	562	559	556	551	550	548	545	545	552	555	550	547	544	544	545	545	548	548	549	551	559	560	557	555	547	529	532	540	543	545	546	544	541	539	538	536	537	533	535	529	528	530	536	539	542	541	532	536	534	532	533	533	532	530	539	541	532	527	523	524	528	537	538	537	536	532	531	528	529	533	530	534	537	531	535	539	535	522	521	524	529	532	533	534	531	522	511	503	506	514	522	529	531	531	528	524	517	515	514	517	518	520	522	520	519	519	519	515	512	511	511	511	508	507	510	520	524	526	525	525	524	522	522	524	524	526	526	523	519	516	517	515	523	521	522	520	522	521	520	522	522	522	521	522	523	522	521	521	527	527	528	525	524	524	524	521	520	514	513	517	521	522	522	521	519	520	521	522	518	515	511	513	521	520	519	521	532	541	541	535	532	530	528	525	524	526	526	526	528	527	528	527	519	516	516	520	522	525	526	526	523	521	519	518	520	520	520	522	523	522	523	527	535	537	531	526	525	526	530	531	530	528	525	522	520	524	530	533	534	532	528	521	521	523	512	511	505	509	514	520	524	525	521	511	507	508	510	510	518	517	517	512	509	508	508	514	520	526	528	522	515	510	510	511	513	512	513	519	524	524	520	516	517	520	517	504	499	499	502	506	509	511	511	510	510	514	516	514	512	512	512	515	515	508	493	494	497	498	499	497	497	498	502	503	509	513	513	510	506	511	515	509	505	495	498	500	505	504	501	498	505	510	511	510	508	504	502	501	504	509	515	516	512	507	505	506	507	510	508	512	514	516	521	519	515	506	498	499	503	510	509	510	503	498	496	498	516	515	509	506	504	505	510	512	510	508	504	503	503	506	510	506	502	505	504	504	499	501	499	499	497	500	502	504	502	499	495	499	502	502	502	504	505	508	509	507	504	501	498	496	492	488	492	500	503	501	496	495	502	504	499	504	506	507	504	500	497	499	499	499	499	498	497	500	504	507	503	501	500	498	497	495	496	499	505	508	506	500	494	495	493	495	497	496	497	494	491	490	493	497	498	497	494	485	484	488	488	492	498	500	501	496	490	489	502	506	505	503	501	499	494	493	489	492	492	492	0	0	0	0	0	0	0	0
578	582	585	591	591	595	595	591	585	585	585	586	583	582	582	582	584	587	588	586	591	583	583	581	577	573	572	569	569	567	555	554	557	560	563	568	568	567	567	566	565	564	565	569	570	570	569	572	570	575	584	585	574	567	566	569	574	574	572	572	572	570	567	566	567	575	577	578	575	567	559	561	561	559	559	559	563	564	567	569	567	574	574	578	579	573	572	576	571	573	576	572	566	562	563	568	568	570	566	557	559	557	558	555	557	559	559	554	552	547	550	551	551	555	559	560	559	563	565	565	561	560	561	567	570	568	550	543	544	547	548	546	543	542	539	539	540	544	545	542	535	535	544	540	541	542	543	541	543	543	544	546	547	545	544	545	547	545	544	541	542	541	535	539	545	551	544	541	538	537	539	541	538	537	532	523	525	543	542	542	521	513	519	526	530	534	534	533	532	531	531	532	529	527	527	523	522	524	530	532	530	522	518	515	514	512	517	521	522	522	521	524	515	518	514	515	521	532	534	533	530	526	522	521	514	513	509	509	512	513	520	519	517	515	516	519	520	521	520	520	520	514	506	500	499	502	510	515	515	512	509	508	513	510	512	514	516	516	517	514	516	515	514	510	507	506	509	508	505	500	501	506	513	512	512	512	510	513	513	513	513	514	515	518	515	506	499	500	509	516	521	519	519	518	518	516	515	517	517	516	516	514	509	510	512	512	508	506	510	512	512	506	506	511	514	519	521	520	517	514	512	514	518	514	512	508	507	507	511	513	512	510	510	521	528	528	522	517	516	510	509	510	515	517	519	519	518	514	512	511	512	513	517	520	519	515	515	515	512	510	510	512	509	510	514	519	519	516	518	520	513	515	514	520	522	520	520	521	518	512	510	512	521	526	532	533	528	525	521	518	507	503	504	507	508	510	517	517	510	506	505	506	505	502	503	506	509	507	501	500	498	501	502	505	504	505	501	501	501	500	499	498	498	508	510	502	502	503	507	503	501	498	497	499	498	499	498	499	500	505	511	514	519	516	507	505	505	504	503	494	486	489	494	494	493	492	491	492	494	495	493	492	491	493	495	500	503	488	487	489	493	494	497	495	490	485	480	482	492	498	498	498	498	500	503	507	510	506	498	495	493	496	495	494	494	494	495	500	503	510	505	498	490	486	492	500	503	502	502	493	488	488	503	502	501	503	498	501	508	511	511	507	502	497	493	494	495	494	487	485	483	486	487	492	494	493	493	493	496	497	497	496	491	489	492	500	496	497	502	503	497	491	484	478	477	478	480	484	480	484	485	483	478	478	478	479	480	483	486	492	493	489	487	484	480	478	483	484	482	480	478	483	485	483	480	482	481	479	477	490	493	491	490	491	484	483	483	487	491	493	492	490	488	487	485	483	479	478	479	478	476	477	477	480	484	489	492	489	487	483	485	488	489	492	492	490	489	493	492	481	481	477	0	0	0	0	0	0	0	0
573	574	575	578	578	579	576	573	574	574	578	578	576	574	573	573	572	572	574	577	563	563	563	565	563	564	565	566	566	563	555	553	556	559	557	553	553	552	550	551	555	559	563	565	556	556	552	554	557	563	566	567	569	569	569	572	568	568	561	555	550	548	551	557	563	571	572	572	566	559	556	556	555	554	554	551	552	556	556	559	559	559	555	558	557	558	559	563	563	565	569	568	559	556	563	565	561	550	547	550	552	553	551	550	551	546	541	543	541	540	542	544	550	553	552	553	557	559	559	558	556	551	552	557	558	549	536	532	530	531	530	536	540	538	535	531	531	534	534	533	533	528	529	531	532	530	529	532	534	534	536	539	538	535	524	524	534	534	532	526	525	527	524	525	534	543	536	533	529	531	534	533	529	523	515	514	509	512	519	522	523	510	511	517	521	525	525	523	521	522	523	525	524	519	519	515	516	519	521	525	517	512	509	511	512	512	515	517	519	517	516	517	511	499	493	498	509	517	519	520	516	516	517	519	516	510	509	506	508	511	517	514	511	511	510	511	511	506	505	509	513	512	505	497	498	501	508	510	505	502	499	501	502	494	487	484	485	489	497	507	512	513	510	504	502	504	505	501	499	497	495	496	501	503	500	502	501	503	505	504	506	504	505	502	491	490	492	493	494	505	510	513	512	517	517	516	513	511	511	511	506	501	503	504	505	502	498	495	496	499	498	499	498	503	510	516	519	516	507	496	497	500	502	503	502	499	495	497	502	506	509	505	503	499	509	513	510	508	502	499	498	499	505	507	508	510	512	513	511	508	508	511	513	518	514	509	508	510	507	505	503	502	498	496	503	505	505	507	508	508	507	508	508	509	510	510	510	510	508	506	505	507	512	519	521	521	521	519	490	490	490	489	499	501	501	504	504	503	500	498	497	497	498	496	493	488	491	494	494	493	492	493	494	495	496	496	494	495	495	495	493	494	493	494	494	494	494	498	498	495	495	494	496	498	496	492	490	489	491	498	504	505	502	498	496	495	497	498	499	481	482	487	489	490	489	488	488	490	494	497	497	491	489	488	483	484	483	482	486	486	488	489	491	485	479	478	477	479	484	488	489	491	490	494	485	485	484	482	477	476	485	490	490	489	488	485	483	489	493	497	498	488	483	479	486	490	488	486	488	484	477	475	483	491	485	482	483	488	489	491	492	500	497	493	487	485	490	490	478	476	476	478	481	487	490	491	487	488	489	489	492	489	487	482	485	487	489	495	480	477	478	482	484	485	485	480	471	469	468	469	468	466	465	463	469	469	468	469	476	480	487	486	482	478	474	471	469	466	462	460	464	470	469	466	464	467	470	470	471	473	473	472	471	473	472	472	472	481	484	485	485	484	488	485	482	480	477	475	473	472	473	473	474	477	480	482	482	479	473	470	466	473	475	474	475	480	480	481	487	485	485	479	0	0	0	0	0	0	0	0
563	564	565	565	565	562	554	550	556	556	568	571	570	569	567	567	564	564	563	558	549	549	546	549	554	560	564	560	560	549	546	547	553	554	551	548	548	545	542	545	550	554	552	545	540	548	548	552	557	558	560	561	560	562	563	561	558	558	554	547	542	542	548	557	559	561	562	565	558	554	553	554	551	550	550	547	545	546	547	549	550	550	549	543	543	547	549	548	550	556	553	557	556	556	561	557	545	540	538	539	551	546	546	546	543	537	535	533	531	532	535	539	542	544	545	546	549	552	551	550	545	529	525	528	535	536	530	527	530	529	527	526	531	531	528	522	524	525	528	529	528	524	519	517	520	520	518	521	524	526	526	524	520	519	519	512	513	518	519	517	520	520	519	514	514	527	522	519	516	521	520	515	515	512	501	497	497	499	504	510	512	510	509	510	513	517	515	513	513	516	518	521	521	513	511	511	510	508	509	506	503	503	504	505	507	507	508	513	515	514	512	513	505	503	498	494	494	509	515	515	513	510	511	516	510	505	502	500	501	504	507	498	496	493	492	491	490	493	496	500	506	507	505	500	497	498	500	505	506	501	497	495	494	491	488	488	488	489	488	491	493	493	490	484	480	484	488	492	494	492	490	488	492	492	493	493	494	492	496	497	498	494	490	483	483	483	483	486	489	494	490	489	490	487	488	506	502	498	494	492	497	501	503	503	502	496	490	486	486	488	492	490	490	493	501	508	511	508	496	494	493	492	493	492	491	488	486	488	492	496	499	498	495	492	489	491	490	492	492	489	488	491	499	498	493	493	498	502	501	499	497	507	511	513	509	505	502	502	501	498	498	492	488	483	490	492	493	494	498	501	500	500	501	501	500	501	501	501	499	499	498	502	506	510	509	506	484	484	483	485	485	485	493	493	493	492	491	492	491	490	488	488	490	490	485	483	483	487	487	488	487	487	487	489	492	493	493	490	492	488	487	485	485	487	488	490	490	483	481	482	487	489	492	493	491	487	486	483	484	488	485	485	489	489	489	488	485	488	489	477	479	484	485	485	484	484	484	487	492	494	494	487	481	482	482	481	473	480	478	480	482	486	485	480	475	473	474	477	481	484	487	487	482	478	478	478	477	473	468	467	473	476	475	472	473	477	481	481	482	480	481	480	482	484	487	484	479	474	471	467	464	480	484	479	479	483	482	481	476	479	484	484	477	475	484	483	484	475	470	469	470	475	479	485	489	490	487	478	477	480	481	467	466	469	465	465	470	473	475	477	478	477	480	483	476	470	466	466	469	467	462	459	455	459	460	463	465	468	474	476	479	481	479	477	473	469	468	465	462	459	462	465	466	466	465	466	466	466	464	465	462	467	467	465	465	465	466	467	466	466	465	468	471	478	477	473	472	470	469	469	470	470	468	469	474	474	473	470	465	461	458	456	457	457	461	464	469	473	472	472	477	478	0	0	0	0	0	0	0	0
552	555	556	556	556	552	546	543	545	545	553	556	554	557	560	560	564	567	563	555	547	542	542	541	539	542	543	535	530	530	533	536	545	547	545	543	543	539	537	540	541	538	535	531	534	541	541	547	551	553	550	547	546	549	552	551	552	552	549	542	539	540	546	552	555	554	553	553	551	552	551	550	547	544	544	542	541	542	540	542	543	543	539	536	532	536	540	539	536	539	539	531	530	533	542	545	526	524	520	519	517	517	517	521	525	527	529	521	515	511	511	515	514	513	514	511	513	514	512	512	506	505	504	502	503	506	515	516	517	519	514	519	518	518	514	508	502	503	503	504	505	507	508	507	510	511	514	517	507	506	506	509	509	511	510	502	504	508	510	510	510	510	510	506	503	511	510	507	511	510	509	507	507	506	497	491	490	490	493	496	502	505	504	503	504	507	510	504	496	493	494	493	493	493	494	497	502	498	497	493	489	490	495	495	499	497	496	495	497	507	505	504	497	494	491	490	488	488	484	500	496	493	490	488	489	491	497	496	492	487	484	487	490	491	493	487	484	485	487	492	499	500	498	494	489	489	492	499	503	499	496	494	492	489	487	490	490	487	487	487	488	486	487	482	477	477	482	486	488	487	484	482	483	487	486	487	487	491	491	493	491	484	479	476	478	479	478	479	483	484	485	483	480	475	472	481	488	485	485	486	494	498	501	501	498	493	487	481	480	484	488	487	485	486	493	500	500	493	487	488	486	485	484	483	481	481	480	481	484	485	488	490	488	485	485	483	485	484	479	475	475	476	480	491	486	487	487	487	486	490	493	495	496	496	491	489	488	494	497	497	491	488	480	478	475	474	477	477	480	493	494	496	498	496	493	492	494	493	492	493	491	494	503	490	486	481	480	480	481	483	485	482	480	482	486	485	485	485	482	480	477	476	480	481	480	478	477	478	482	481	474	478	483	483	488	491	491	488	478	474	475	473	472	478	482	482	481	480	479	481	480	482	482	485	484	481	481	481	481	481	479	479	482	482	475	476	477	477	478	476	481	482	481	481	481	480	478	480	480	480	469	473	474	479	478	474	472	474	473	475	476	482	483	478	474	469	466	472	477	482	484	480	476	474	472	470	471	470	472	470	468	468	469	466	460	460	469	471	470	467	470	475	480	484	483	478	473	468	464	461	461	479	488	488	484	484	482	478	474	475	472	473	467	466	468	471	458	456	461	464	466	473	476	480	480	460	457	460	463	466	467	462	460	467	468	469	468	470	474	474	473	470	466	470	466	465	463	463	464	464	461	457	455	452	454	457	460	465	471	475	475	477	477	475	472	467	465	459	459	458	459	461	464	465	465	465	463	463	460	460	460	461	463	464	460	459	458	460	459	461	461	463	465	462	458	454	453	463	465	466	465	465	462	462	466	468	469	467	464	460	456	454	453	453	456	458	459	461	465	465	467	474	0	0	0	0	0	0	0	0
544	549	552	554	554	553	548	548	542	542	547	544	545	550	559	559	567	570	567	546	541	536	536	535	534	532	534	529	521	521	522	525	536	540	536	535	526	526	530	536	537	535	531	527	527	532	532	539	541	537	537	537	539	541	545	547	549	549	547	541	538	539	541	542	546	543	542	544	543	548	547	544	539	531	528	528	530	531	532	533	533	536	534	532	526	525	525	531	529	526	525	524	523	519	520	523	525	522	518	511	508	507	511	517	521	528	528	522	514	506	505	506	502	499	496	491	489	491	490	491	495	499	499	497	494	494	501	506	508	506	503	501	501	504	500	500	497	494	491	490	498	499	500	505	505	511	513	512	501	499	497	497	496	495	493	493	494	498	498	496	494	494	493	490	488	494	497	499	502	500	499	498	500	495	491	490	489	488	484	485	492	500	499	497	495	496	490	493	498	494	486	485	483	486	488	488	488	487	485	482	481	476	479	486	489	491	490	488	485	479	480	482	479	485	487	482	476	471	474	473	474	478	478	480	480	484	491	494	488	480	479	482	487	492	493	489	484	482	482	485	490	494	495	492	484	480	480	484	480	477	479	482	485	481	485	488	489	485	483	479	479	479	478	473	474	475	478	484	484	484	481	475	468	468	469	476	483	486	487	489	484	477	476	477	477	477	477	474	475	480	484	481	475	473	473	471	469	468	471	475	484	485	481	481	488	487	483	478	476	480	483	484	481	478	477	475	473	473	475	477	479	475	469	469	473	477	478	477	478	480	481	480	477	472	468	470	476	481	482	484	483	479	477	473	473	474	476	475	477	478	474	478	483	485	484	482	483	483	482	479	476	478	476	475	473	475	469	473	475	478	489	494	493	489	481	475	474	476	480	484	482	476	479	479	478	475	476	478	482	485	482	480	475	473	475	477	477	476	472	471	472	474	477	480	478	476	473	475	476	464	464	468	475	476	482	486	484	475	476	472	465	469	466	465	470	474	480	477	475	476	475	477	475	475	477	475	472	476	480	476	474	473	471	469	466	467	471	470	465	464	460	460	460	462	466	467	472	471	453	460	467	467	469	468	460	460	466	468	467	467	470	476	474	476	472	465	461	457	458	461	463	461	461	471	467	465	468	471	466	467	464	464	461	460	456	457	461	468	467	464	463	466	468	472	472	472	466	463	461	458	456	468	476	477	474	471	469	473	470	458	458	459	458	458	460	459	453	452	453	458	454	455	456	456	455	453	452	452	456	462	459	459	459	464	461	462	463	458	456	456	461	464	457	451	448	447	451	460	459	456	457	455	454	449	447	451	453	455	459	460	463	470	470	465	465	466	461	458	455	455	454	459	462	464	465	462	459	455	453	454	457	456	452	451	448	451	451	451	453	454	459	460	460	458	456	438	440	443	451	444	442	459	456	457	460	466	467	465	462	458	456	455	451	449	449	450	453	455	457	457	459	464	0	0	0	0	0	0	0	0
535	538	542	544	544	543	540	539	535	534	534	536	536	536	540	540	545	549	539	540	537	531	531	523	522	523	524	520	517	517	515	516	526	532	531	516	517	517	522	529	531	531	526	523	522	525	525	528	527	527	525	525	529	534	537	543	545	544	544	541	537	533	528	525	521	530	523	529	534	538	538	532	522	519	518	518	521	521	518	518	519	523	527	528	515	512	511	511	508	509	511	512	513	513	516	520	523	519	511	504	501	500	503	508	518	518	514	508	505	499	499	498	496	493	489	487	487	489	491	489	493	494	493	490	488	484	489	494	497	494	493	492	493	491	488	486	491	489	488	485	483	485	486	488	492	495	506	505	503	491	488	487	485	486	488	487	488	490	494	493	491	491	489	486	483	482	486	490	490	486	482	481	482	486	490	490	491	488	483	479	483	494	495	494	491	489	487	491	490	480	481	478	475	472	477	480	480	478	472	470	470	469	469	474	477	479	481	479	476	473	472	472	471	478	481	475	469	462	464	465	467	468	468	469	475	472	471	468	461	464	464	477	480	482	481	479	476	475	477	476	474	465	462	463	466	465	465	467	465	465	463	464	467	470	478	482	479	479	480	476	473	470	469	467	466	469	477	481	481	480	475	464	463	463	468	473	474	473	475	477	478	482	481	478	477	479	478	475	475	474	473	474	473	473	473	468	462	459	465	468	471	467	468	465	468	474	477	478	474	470	471	469	469	471	472	470	469	462	464	466	467	468	468	467	468	473	474	471	467	465	464	466	466	457	456	461	471	475	479	481	479	476	470	469	468	469	470	470	471	473	473	474	478	481	479	479	476	476	473	474	471	470	469	470	471	470	465	465	469	473	478	481	483	480	478	475	475	473	468	469	473	473	472	467	466	466	468	470	477	482	479	478	476	467	458	457	458	460	459	461	463	465	468	470	471	468	468	463	460	460	460	461	463	461	460	462	458	465	467	469	467	467	466	465	465	469	476	471	470	471	471	468	464	464	467	470	467	472	475	470	469	469	467	466	465	466	466	461	457	458	458	459	460	459	459	457	456	453	450	448	447	445	445	449	449	446	453	459	459	459	462	460	460	461	461	456	452	448	449	448	450	454	456	463	457	456	457	459	460	462	462	460	457	457	455	455	460	460	459	458	459	460	463	467	468	462	459	455	453	454	450	452	455	460	468	463	461	457	451	448	447	454	456	458	456	453	446	447	445	444	448	446	446	446	452	449	447	443	441	443	454	454	447	445	449	454	454	452	443	449	450	456	449	442	438	439	443	445	450	450	454	455	452	447	445	444	445	446	449	451	449	446	447	449	452	454	453	453	452	451	452	450	451	456	458	456	451	447	444	447	450	451	445	442	441	439	447	448	450	450	448	448	451	452	452	449	437	438	440	438	438	435	437	445	451	456	461	459	458	456	454	449	447	441	440	442	445	447	447	447	447	453	0	0	0	0	0	0	0	0
526	527	529	527	527	527	525	527	527	522	522	518	520	525	529	531	531	533	527	529	525	518	518	513	513	515	516	514	512	512	509	513	520	523	515	510	510	510	511	515	518	523	522	520	519	516	516	515	517	515	513	515	518	520	522	531	536	536	536	527	525	523	520	514	509	509	512	511	513	516	517	514	509	507	508	508	508	509	507	506	501	506	507	503	505	506	507	506	501	495	500	505	507	506	502	499	494	490	494	499	496	496	500	502	502	501	499	498	493	490	493	496	494	492	488	483	482	484	485	485	486	485	485	485	480	473	470	483	484	484	483	485	486	481	478	479	480	483	482	479	477	475	475	478	479	485	490	489	482	475	471	468	477	479	481	482	482	485	489	489	489	487	486	484	482	481	478	477	478	478	481	481	478	481	485	488	489	486	481	479	481	489	497	496	487	484	483	482	474	472	472	470	466	465	467	473	471	475	472	468	466	465	461	460	465	467	469	470	470	470	469	467	468	474	474	468	461	459	457	458	459	460	462	465	464	463	467	464	461	461	457	459	465	470	476	478	475	467	466	463	460	459	458	460	461	464	464	465	463	459	461	463	463	465	468	471	471	473	475	471	465	463	463	462	463	464	466	470	474	472	463	457	457	459	464	471	472	466	464	466	467	463	461	464	463	460	462	464	462	459	452	454	462	467	469	463	456	452	452	459	462	460	456	454	455	467	471	472	469	464	460	456	456	457	459	456	456	459	461	462	462	463	463	462	461	460	460	464	469	469	467	465	459	449	449	457	463	464	463	469	470	469	466	465	464	462	463	464	464	463	465	469	471	473	471	470	468	463	458	459	462	463	460	464	465	458	454	458	463	466	471	472	478	469	470	464	462	460	459	465	468	467	464	460	457	458	462	463	464	476	473	473	464	456	455	453	452	450	450	454	459	459	458	452	452	455	451	450	451	452	454	456	459	458	454	452	454	460	462	463	460	463	466	461	457	455	458	463	460	461	461	458	459	456	453	462	466	468	463	456	456	453	451	447	447	445	444	446	452	455	455	456	456	455	451	451	448	447	446	446	445	446	448	450	451	449	446	439	438	439	447	451	449	449	450	451	449	443	443	445	449	454	450	450	447	444	445	453	454	455	456	456	451	453	451	451	455	454	453	454	456	458	459	460	462	456	452	449	449	449	449	449	448	448	453	452	451	450	447	445	446	444	446	446	447	447	443	440	439	433	437	439	437	438	440	442	442	444	442	441	443	448	441	441	444	447	447	440	442	443	442	441	442	438	438	436	437	440	441	445	448	452	448	442	438	433	434	438	439	441	441	442	444	447	450	446	447	451	453	452	442	434	431	430	435	435	437	440	438	435	436	438	441	440	439	438	437	440	436	439	443	445	449	449	449	446	440	438	437	436	436	436	435	434	438	444	445	452	451	450	442	441	439	435	436	437	439	441	442	442	441	440	0	0	0	0	0	0	0	0
520	521	517	512	512	507	512	516	515	514	514	513	517	518	518	518	518	520	517	513	508	503	503	503	507	510	512	509	507	507	508	508	510	505	501	501	502	502	503	503	504	510	516	518	512	509	509	506	507	505	504	500	500	502	505	509	513	513	513	513	513	515	514	508	501	498	498	497	500	504	508	506	501	497	495	495	493	488	491	492	495	495	496	495	497	499	501	502	498	492	490	492	499	498	496	491	484	481	480	485	490	494	492	492	487	483	482	481	483	483	486	492	495	492	486	482	480	479	478	478	478	481	481	479	475	469	462	470	478	473	472	475	478	475	474	474	477	477	475	471	469	468	468	469	468	474	475	473	472	465	462	460	461	464	471	474	479	482	484	484	482	479	478	476	475	474	475	475	474	474	479	477	475	473	473	482	481	472	471	475	477	481	489	489	477	477	473	466	465	459	458	458	458	459	461	470	477	473	468	459	456	457	458	456	461	463	463	462	458	454	450	451	462	470	470	458	452	451	452	451	452	452	455	460	460	459	460	459	461	459	455	453	458	465	472	477	473	461	460	461	461	457	456	457	459	462	463	463	458	455	454	456	459	459	459	452	449	454	458	461	460	459	460	461	462	458	456	449	448	453	456	455	455	458	464	466	465	461	457	458	455	456	458	451	453	454	454	451	450	449	450	452	455	458	462	457	450	445	444	450	453	452	447	444	448	454	460	453	467	463	458	454	452	452	449	448	445	451	459	460	458	455	454	450	450	455	456	461	466	466	463	461	455	448	448	453	458	460	460	459	457	460	462	458	459	458	458	459	455	452	456	459	463	463	460	457	450	449	446	448	451	454	455	455	456	450	451	452	457	461	462	460	450	453	455	456	452	450	451	458	464	463	455	449	448	451	455	456	452	452	450	447	443	451	452	451	449	449	448	449	449	455	451	450	449	452	450	448	448	443	440	448	455	456	453	450	450	452	451	450	451	455	456	449	446	447	451	452	454	453	450	452	454	454	452	452	452	451	451	452	451	450	449	447	443	438	437	439	447	448	450	452	446	449	449	443	439	438	443	446	445	439	436	435	434	436	438	439	441	443	436	430	435	434	432	434	434	437	439	440	443	445	444	443	442	442	441	448	444	445	448	449	445	444	444	445	434	437	441	443	448	452	451	452	450	448	447	443	443	445	442	443	443	441	442	443	445	443	434	437	439	438	437	436	438	440	433	433	435	433	433	435	433	433	434	439	441	442	440	438	437	436	436	435	436	436	434	437	437	435	431	429	431	430	434	435	436	437	434	438	441	441	439	434	428	425	428	431	432	432	433	435	436	436	432	430	433	440	441	438	430	429	426	424	425	428	431	433	432	434	438	436	433	436	435	435	434	433	434	436	436	440	442	444	441	438	436	434	435	437	437	437	435	433	431	429	429	430	428	428	437	437	438	436	433	431	433	436	436	435	433	431	0	0	0	0	0	0	0	0
511	508	507	503	500	500	501	506	508	509	509	512	514	514	512	509	509	512	507	503	498	496	496	496	502	500	497	497	498	498	501	499	493	492	493	492	494	494	494	494	495	499	505	505	502	499	494	494	496	495	494	492	492	492	497	499	503	497	497	499	498	505	504	498	497	497	496	494	494	495	498	496	491	489	484	485	485	485	484	480	478	481	486	488	489	487	486	486	487	483	478	473	485	490	489	482	474	473	474	476	480	485	484	482	477	476	474	477	477	478	482	487	491	495	488	481	470	465	468	474	480	481	478	475	472	466	463	466	471	467	461	463	468	468	467	469	472	473	470	466	464	464	465	465	465	466	467	467	466	457	454	452	455	461	464	465	466	461	456	455	455	469	471	471	468	468	469	469	469	470	472	466	468	471	472	471	469	463	458	449	448	449	457	463	468	469	466	462	453	453	453	454	453	449	450	462	467	470	460	456	459	459	452	448	450	454	454	453	449	442	440	440	446	454	454	448	446	445	445	446	443	444	446	447	448	445	446	445	443	440	449	447	452	456	461	464	460	456	454	453	452	451	448	446	445	443	442	450	450	450	453	454	454	453	452	448	447	449	452	453	453	452	454	459	457	453	449	444	442	438	443	441	442	450	454	457	453	438	440	441	441	443	442	441	442	443	448	448	446	447	448	447	449	449	449	450	445	442	441	446	451	449	437	433	433	436	439	442	443	439	438	436	447	448	448	444	445	445	451	450	450	450	447	440	437	444	454	459	461	457	455	454	452	446	447	451	455	457	454	446	442	450	453	452	450	453	450	447	444	443	444	449	452	451	449	446	443	445	445	444	444	443	448	448	447	447	447	451	454	432	435	442	442	446	449	449	430	425	432	439	444	444	436	430	432	434	436	431	435	438	438	437	440	445	449	449	444	444	446	455	456	455	449	448	448	448	447	447	443	441	439	438	443	452	449	446	443	441	441	441	441	444	445	444	441	440	444	448	446	437	436	441	445	447	448	450	449	449	449	449	449	449	450	447	440	437	435	440	444	445	444	444	446	446	445	440	436	437	440	443	441	430	428	431	429	434	436	438	439	439	430	428	426	423	425	427	429	430	432	435	438	440	440	439	439	437	437	441	438	438	439	437	438	438	437	434	425	428	432	435	440	442	444	443	436	435	436	431	431	432	433	431	429	431	422	422	421	422	424	427	429	428	428	431	429	427	429	430	429	431	432	431	430	428	434	436	433	436	435	434	431	430	422	421	423	426	430	432	431	427	423	421	423	427	430	434	435	433	428	427	428	430	432	429	423	423	425	428	427	427	428	428	428	425	423	423	421	426	427	425	424	423	422	423	422	424	434	438	440	441	437	432	428	425	425	426	428	431	434	435	435	434	435	433	428	428	428	430	431	433	433	435	432	430	426	421	419	419	419	420	420	426	436	430	429	424	425	429	429	424	423	426	0	0	0	0	0	0	0	0
496	496	498	497	496	496	496	500	503	504	504	507	510	512	507	505	505	501	503	501	497	496	496	496	496	493	489	486	487	487	487	487	484	485	485	487	487	487	486	487	487	488	492	493	492	489	487	487	491	491	488	486	485	486	487	486	483	485	485	486	486	487	489	492	494	494	494	492	490	490	489	482	486	486	480	475	475	470	473	471	470	469	471	477	481	484	484	479	474	474	472	471	470	475	475	471	464	464	466	468	471	474	476	475	470	466	467	470	472	472	468	462	461	463	463	463	461	463	466	475	482	479	472	471	468	465	461	461	461	456	453	450	453	460	465	467	469	470	464	464	462	461	461	461	459	458	457	458	460	453	446	445	448	451	454	457	453	445	442	445	452	459	464	463	459	461	455	453	449	449	451	456	457	455	450	447	442	440	441	440	442	445	451	453	455	456	455	451	450	448	449	452	447	439	436	440	453	459	457	450	449	449	446	439	435	441	443	444	442	437	432	431	433	436	445	445	444	444	444	440	439	441	442	442	441	439	438	439	438	438	438	435	435	443	447	448	449	450	451	451	446	446	448	446	443	438	435	436	447	448	448	454	452	449	448	450	445	444	445	447	442	442	447	450	449	445	444	442	440	439	437	434	438	442	441	437	433	433	437	435	436	439	437	436	438	439	442	440	441	442	440	442	440	436	437	440	440	443	445	449	443	437	432	432	432	432	435	437	437	435	433	433	433	436	439	442	442	437	435	436	437	441	442	440	438	434	436	440	443	443	445	443	441	440	442	444	444	442	441	438	439	446	445	443	441	445	447	444	441	439	439	442	441	439	438	434	436	434	438	440	439	437	436	438	440	429	429	430	428	424	424	426	433	442	442	430	421	419	426	432	438	443	438	432	425	422	421	428	433	430	427	430	438	442	444	445	437	437	442	444	446	448	451	447	447	446	443	439	440	442	439	437	434	441	442	437	437	435	437	440	441	442	442	441	434	434	439	439	433	422	421	421	433	438	443	450	453	452	450	450	447	448	447	445	439	435	434	439	438	442	442	442	437	434	428	425	435	436	439	438	433	423	424	427	428	435	435	435	432	427	423	423	422	419	422	421	422	424	426	429	431	434	432	427	429	429	429	424	432	430	430	432	433	432	429	424	424	427	429	431	435	435	435	432	426	423	419	422	423	423	414	411	412	417	419	419	419	419	421	422	423	425	429	426	422	430	430	430	428	425	424	424	423	426	432	427	424	427	429	428	425	422	414	417	420	422	426	431	430	426	421	418	419	422	426	429	430	428	426	426	426	426	424	424	424	424	424	420	420	420	422	421	421	421	422	421	421	421	424	423	423	421	421	420	420	425	428	428	428	430	432	430	424	419	417	418	420	424	427	431	430	423	417	415	416	420	420	423	427	427	429	428	427	427	423	418	416	416	416	414	414	413	415	418	426	422	418	417	417	416	419	420	0	0	0	0	0	0	0	0
485	491	493	493	493	493	492	494	497	495	495	497	501	503	500	498	498	480	484	491	494	495	489	489	486	483	483	484	488	489	489	485	480	478	479	480	482	482	482	483	479	476	477	482	481	481	482	482	485	483	477	473	476	480	482	479	477	478	482	482	484	483	478	477	484	489	487	484	482	474	473	469	469	467	466	467	467	467	465	465	463	461	463	468	475	475	478	473	469	467	469	467	464	460	458	455	455	456	457	458	462	464	464	462	458	461	463	465	458	454	456	458	459	457	456	454	459	463	468	474	473	473	467	463	460	455	453	456	457	454	449	446	447	448	452	457	461	459	452	452	452	450	447	448	447	448	448	449	452	445	441	442	446	451	454	451	445	439	435	438	445	454	458	454	449	446	445	449	450	449	446	447	447	448	444	441	440	440	441	441	442	445	452	450	447	444	442	444	446	446	444	440	436	435	435	438	444	451	443	443	443	444	443	440	438	438	438	434	433	433	432	433	433	435	434	437	440	441	437	433	430	433	435	434	437	435	435	435	435	432	431	430	432	442	443	443	444	447	448	443	440	442	444	445	444	437	432	430	432	439	449	449	449	447	445	446	443	442	441	434	427	428	429	430	432	437	440	441	440	438	434	434	435	437	436	433	431	431	435	433	435	434	430	430	433	435	435	435	435	436	434	435	436	437	424	419	420	427	437	439	436	426	423	422	422	428	431	432	429	427	428	430	431	431	432	434	432	430	427	427	432	430	430	429	429	426	424	428	434	439	439	433	426	423	422	424	429	434	436	436	439	440	438	433	422	429	439	438	437	434	432	432	431	430	428	426	426	430	432	434	434	427	423	421	419	422	429	427	426	422	421	424	424	428	426	424	417	421	433	432	434	435	437	434	430	426	429	432	430	426	424	425	432	431	433	436	428	427	427	435	430	430	433	443	441	439	435	436	435	432	430	426	425	431	430	426	425	425	432	439	441	441	441	435	427	426	426	429	423	421	421	421	424	429	434	440	442	442	442	442	446	444	427	428	432	432	423	431	435	432	427	424	422	420	417	415	421	428	431	427	424	420	425	426	426	430	430	431	430	426	421	418	420	418	417	417	418	419	421	423	424	423	425	423	421	423	418	415	415	421	428	428	429	429	426	424	425	427	430	432	433	432	430	424	420	417	414	413	413	410	409	410	413	415	417	417	416	416	416	416	416	420	425	428	422	423	428	427	424	420	416	417	420	423	423	423	423	423	426	424	421	417	413	413	416	419	424	424	427	424	418	414	415	420	424	426	423	422	418	419	422	422	420	417	420	421	416	414	415	416	417	418	419	421	421	420	419	418	420	421	420	415	417	415	414	418	423	419	415	416	420	421	418	417	418	418	418	420	422	421	419	415	407	407	407	411	414	417	420	420	423	422	418	414	414	418	422	419	415	409	406	409	409	412	413	409	417	414	414	414	413	416	0	0	0	0	0	0	0	0
477	482	486	489	490	490	489	487	486	485	485	487	486	483	482	487	487	472	469	474	481	483	480	480	476	478	479	481	487	489	489	483	476	467	465	467	467	472	472	474	472	471	473	472	473	475	475	475	475	476	464	463	469	475	477	475	472	469	473	473	478	475	474	473	475	482	483	473	470	465	464	462	462	464	463	463	463	462	458	457	457	456	458	462	460	461	466	465	463	460	456	453	453	451	448	445	446	445	446	448	450	454	451	451	454	457	456	453	451	451	453	453	455	457	452	448	449	454	461	466	458	456	452	446	440	443	447	448	448	449	450	450	449	446	443	446	448	448	449	449	450	445	442	440	439	441	444	446	441	435	431	434	440	446	446	442	442	439	435	434	438	443	444	439	428	429	432	442	445	443	442	438	437	437	439	442	444	442	439	442	446	447	450	432	432	430	427	431	431	431	431	433	432	432	436	440	443	438	441	438	439	439	440	436	437	437	436	428	431	434	437	432	429	429	430	437	437	434	434	436	435	436	435	431	429	428	429	433	434	434	431	430	429	432	431	428	430	429	430	432	429	431	431	435	439	438	435	434	429	426	425	429	434	442	447	445	441	431	427	425	425	424	425	426	427	429	430	435	437	437	432	426	423	428	428	430	429	430	432	434	431	428	424	419	420	426	429	430	431	429	425	429	432	432	422	419	419	422	428	431	429	419	419	418	418	421	427	426	421	419	421	426	426	422	424	428	427	425	421	418	418	416	413	413	413	420	420	421	430	433	431	428	421	414	413	415	418	427	429	429	428	431	425	419	419	420	428	429	429	427	416	415	425	424	423	421	422	422	422	422	420	417	416	416	419	422	424	423	421	420	421	421	421	420	426	419	416	425	426	424	416	416	420	422	423	423	418	417	418	417	420	422	425	426	427	426	424	424	423	422	420	417	420	423	424	426	421	423	422	422	423	417	419	423	422	423	423	423	426	427	427	425	425	428	426	423	423	419	419	418	420	421	423	425	429	434	435	436	434	430	425	420	418	419	415	416	417	419	419	419	420	416	416	418	415	415	414	420	421	419	419	420	423	424	421	421	416	416	420	421	421	418	416	417	414	414	414	416	419	419	415	416	422	423	417	416	413	410	410	415	417	422	427	430	423	416	414	418	424	427	430	431	426	421	409	408	408	412	410	407	406	408	411	414	415	415	413	413	415	414	412	411	415	423	419	414	417	418	417	413	412	413	416	418	417	414	416	415	407	404	406	408	408	409	409	411	414	418	418	414	411	412	413	416	417	419	419	412	408	412	415	417	415	413	411	405	407	410	412	414	413	416	417	418	419	417	414	415	416	413	412	407	406	409	410	413	415	411	409	409	407	406	412	420	421	419	418	418	417	415	413	410	405	402	403	405	406	408	412	412	414	411	409	408	409	414	420	420	416	412	408	406	406	408	408	406	404	407	407	408	410	414	0	0	0	0	0	0	0	0
469	471	478	481	483	483	481	477	478	481	479	479	474	467	461	467	467	455	451	451	457	462	461	461	452	448	453	458	462	464	464	461	459	461	460	460	460	460	460	461	467	472	474	473	471	471	471	471	471	466	458	459	461	466	471	471	469	468	466	466	467	467	467	469	471	464	460	461	460	453	452	456	459	462	463	463	460	460	454	452	452	453	453	454	455	459	461	462	459	456	453	451	448	446	445	444	443	442	439	445	449	454	451	449	451	457	457	453	449	447	447	448	447	445	443	442	440	440	438	438	434	433	431	431	435	442	445	446	447	447	448	447	447	440	439	438	438	439	439	438	438	434	430	433	432	431	429	429	431	430	428	426	429	430	434	438	439	435	431	429	432	435	436	422	422	424	427	436	438	441	439	435	431	431	432	436	437	434	434	436	438	434	431	427	428	429	429	426	424	426	426	426	424	426	428	428	427	431	435	438	435	435	435	434	431	425	425	426	427	430	431	431	428	427	429	426	427	427	433	436	438	435	429	419	417	420	425	430	430	427	425	423	422	423	422	422	420	427	423	424	425	427	426	426	426	428	428	424	418	420	420	422	425	426	428	430	429	419	425	423	422	422	421	421	420	419	419	423	424	423	420	416	417	418	420	423	421	420	418	419	422	420	415	412	414	416	423	421	416	416	421	426	427	428	425	418	417	420	424	425	419	418	418	415	414	414	418	417	414	411	415	417	417	413	412	414	417	418	417	418	416	413	410	409	410	411	412	413	412	409	410	407	412	413	415	417	415	416	424	424	424	429	426	421	419	416	417	419	420	418	416	413	412	416	420	419	418	421	421	417	412	411	412	414	416	418	415	410	418	416	418	422	420	418	414	412	411	418	421	415	413	411	414	419	422	421	417	415	414	415	415	417	419	418	417	419	420	421	421	419	417	414	416	417	420	419	418	419	417	418	418	413	415	416	419	419	417	419	422	420	420	420	416	420	421	420	414	415	413	413	417	419	420	421	422	424	428	427	424	422	420	419	415	415	414	412	411	408	407	408	411	414	413	411	408	409	413	412	414	414	417	420	419	418	413	412	411	410	410	407	413	409	409	413	412	410	411	413	415	415	410	409	415	418	416	413	408	408	411	412	409	407	410	416	417	407	410	411	415	419	424	407	404	402	403	410	412	411	409	404	400	399	404	406	406	412	409	408	412	412	410	409	405	408	416	412	410	409	408	411	413	410	412	414	413	407	402	400	399	400	399	401	403	403	404	407	410	412	411	407	405	407	410	411	412	409	406	409	402	402	402	408	410	408	404	400	403	406	410	411	409	409	409	411	411	416	415	413	411	409	405	402	400	402	406	406	408	402	403	401	401	400	401	410	417	421	418	412	406	404	403	403	403	401	401	402	402	399	399	395	394	392	390	392	396	404	414	412	411	407	403	402	399	400	400	399	398	398	396	398	399	400	0	0	0	0	0	0	0	0
463	466	470	473	473	473	468	466	469	467	464	464	462	458	456	453	444	444	443	448	449	448	445	445	443	442	445	449	454	458	458	457	458	458	458	454	450	451	451	457	465	472	471	468	464	462	459	459	454	455	455	454	454	456	460	466	464	461	461	461	458	459	461	454	454	456	457	452	445	438	435	440	449	457	462	464	457	457	450	445	447	449	451	452	453	456	460	461	458	453	451	448	445	441	443	447	449	450	450	450	449	446	440	437	444	450	453	450	446	444	445	444	441	438	434	429	423	423	428	430	434	433	431	433	437	437	437	440	445	446	443	437	437	436	435	431	428	426	428	430	431	430	431	429	426	424	422	425	426	426	427	428	425	425	430	433	432	431	427	424	424	421	416	416	416	419	425	432	433	435	437	433	429	427	428	429	429	427	431	436	433	429	425	419	422	425	427	425	424	424	426	425	424	425	425	425	422	427	430	434	435	432	431	430	424	422	421	421	423	422	423	424	424	425	425	425	424	421	424	425	427	426	421	417	419	418	419	417	408	406	407	406	405	406	418	419	422	426	427	427	420	422	425	425	422	421	420	415	413	415	419	422	419	419	420	421	421	416	416	418	420	419	417	417	416	413	415	417	418	416	413	414	415	416	417	414	412	412	414	416	417	416	411	407	403	407	407	406	409	410	412	415	422	420	419	421	420	419	419	417	417	416	415	412	411	412	412	411	408	407	410	411	412	412	409	410	408	411	411	412	412	410	410	408	409	409	407	406	402	401	402	404	409	413	414	416	408	405	407	411	413	413	414	415	416	414	416	419	418	416	414	409	410	412	417	419	418	415	413	408	405	405	403	404	405	404	406	407	407	407	410	411	413	412	411	407	408	414	415	415	411	409	411	413	413	412	411	406	407	413	415	413	411	404	404	405	415	417	414	410	406	406	409	413	419	420	418	413	412	412	408	411	413	411	410	414	415	417	417	417	416	415	409	412	414	413	411	411	411	410	410	415	415	413	413	415	418	419	417	418	412	410	413	414	407	404	406	406	405	406	406	402	400	401	403	405	408	409	411	412	415	413	411	408	409	409	405	401	402	401	400	402	403	406	408	408	406	406	405	404	403	405	413	413	408	404	399	398	410	409	405	401	398	395	398	404	410	410	395	394	392	389	389	388	387	390	396	401	403	402	391	388	394	396	401	403	403	405	405	404	404	403	401	398	395	401	397	394	395	403	406	406	410	411	414	411	403	398	395	394	394	397	398	397	400	403	406	407	403	403	400	400	403	407	405	402	398	396	394	389	392	394	400	402	400	394	395	401	406	406	405	403	401	404	405	409	413	411	405	401	399	396	397	397	399	399	396	395	398	398	395	395	395	396	401	409	409	404	400	397	398	398	397	398	400	401	401	394	394	395	392	389	386	387	392	398	403	405	404	401	402	402	397	398	399	399	395	395	393	392	392	395	0	0	0	0	0	0	0	0
462	463	466	465	456	456	450	452	452	453	450	450	450	449	449	447	440	440	443	447	448	447	442	442	439	439	442	446	451	454	454	457	458	457	450	442	442	451	451	460	465	462	457	451	447	446	447	449	449	450	451	450	450	452	458	461	457	451	452	452	455	453	443	445	450	453	452	442	436	433	436	439	445	444	446	449	444	444	438	437	438	443	448	452	455	454	450	447	444	444	442	441	440	436	439	439	439	441	441	436	432	426	426	429	433	438	440	441	439	441	441	440	439	437	435	432	427	424	426	429	433	435	436	436	430	428	427	432	434	437	434	432	431	432	432	428	425	423	423	426	427	429	428	426	424	423	426	426	426	424	425	425	423	424	426	427	428	428	423	420	419	415	412	410	413	415	422	429	429	430	431	429	426	422	425	426	428	426	422	418	417	421	418	416	418	422	422	420	418	416	425	425	423	425	424	422	420	424	427	430	431	429	427	422	416	416	414	412	413	410	410	417	417	420	421	423	416	411	409	412	415	415	413	412	414	415	417	415	405	404	405	404	401	404	417	418	419	422	425	423	420	417	419	417	420	415	411	408	409	412	416	417	413	414	414	413	413	410	412	413	412	412	413	412	410	408	403	404	403	410	408	411	412	415	412	410	409	408	410	412	414	413	409	406	399	397	402	406	406	403	402	404	407	412	411	409	406	405	408	412	413	414	411	407	404	404	404	407	407	406	407	409	409	409	409	408	409	410	405	402	401	405	408	407	407	408	406	404	401	399	398	401	404	407	406	406	404	405	405	406	407	409	411	410	411	411	409	412	412	411	410	408	407	404	412	414	414	410	406	402	398	399	399	401	406	408	406	404	400	399	400	404	407	407	408	406	405	407	408	408	407	408	408	409	409	407	404	401	400	406	413	411	408	404	401	403	404	411	411	408	404	402	405	411	411	411	409	405	404	405	408	410	408	408	406	406	408	405	407	410	410	408	406	407	408	407	409	410	409	408	405	406	408	408	407	408	409	411	404	405	407	410	411	403	404	397	394	404	407	407	404	402	401	401	401	401	401	406	408	408	408	400	400	400	399	396	397	396	393	394	394	395	394	397	401	404	402	401	399	394	396	397	394	387	386	386	390	390	399	402	402	400	398	398	396	393	393	393	393	394	393	389	388	388	386	383	387	395	400	399	388	386	391	396	396	394	397	396	397	397	397	396	395	394	394	387	384	386	392	398	403	405	405	400	400	402	399	391	387	384	390	392	392	394	399	401	400	400	397	395	394	396	400	401	400	395	392	392	391	391	391	394	398	401	400	389	387	389	394	395	397	398	398	397	398	406	405	406	398	393	390	393	392	392	390	388	392	391	393	393	392	392	390	392	395	396	395	391	391	394	394	395	393	391	392	392	390	389	389	388	390	386	383	382	388	394	399	399	401	402	399	398	395	395	396	396	393	393	391	391	389	389	0	0	0	0	0	0	0	0
463	463	463	446	441	442	442	445	444	443	438	438	438	440	441	440	438	438	440	445	446	443	437	437	436	438	443	443	445	446	446	445	443	440	441	442	443	448	453	453	457	453	445	441	439	440	441	443	443	446	447	446	447	446	446	448	448	448	446	445	434	435	435	433	436	438	440	438	436	436	436	441	441	440	438	428	431	429	429	427	426	428	431	434	440	442	440	440	439	435	436	434	428	431	435	436	436	435	436	431	424	421	419	421	424	428	431	433	436	433	433	433	434	434	433	431	430	427	427	427	424	418	415	413	411	414	422	424	425	421	416	410	415	427	429	428	423	420	419	421	424	424	423	420	421	422	425	428	428	419	422	422	423	421	423	423	423	424	422	422	418	414	410	408	409	413	417	427	423	418	419	418	416	413	411	423	424	419	410	407	405	403	403	404	414	419	418	415	412	410	411	415	410	407	408	409	413	417	417	410	407	404	407	409	409	407	407	406	409	411	411	411	411	412	413	412	410	408	407	408	406	407	407	405	407	407	398	396	398	401	403	398	398	401	405	414	416	408	412	414	415	412	407	402	407	408	406	405	406	407	408	407	408	411	413	412	411	408	409	409	408	408	405	405	404	401	399	396	397	399	398	397	401	402	404	402	399	401	400	401	403	403	405	403	402	403	402	402	401	401	402	401	402	404	405	404	403	404	403	406	406	407	397	393	394	397	400	402	403	401	400	402	405	404	403	405	407	408	400	397	399	402	406	406	405	404	404	402	400	393	392	394	396	397	401	404	405	405	406	405	403	401	395	395	398	400	401	401	401	398	401	397	396	397	398	400	402	400	396	394	393	391	394	394	398	399	399	396	393	393	398	403	404	405	406	406	404	404	403	404	403	403	407	406	404	402	400	397	400	403	404	408	404	400	400	403	403	401	402	401	397	395	404	406	408	407	402	400	400	399	402	402	400	398	401	401	400	394	391	401	406	405	402	400	401	402	401	396	395	395	397	400	404	404	402	400	400	402	402	399	398	405	393	396	394	391	389	398	405	407	403	401	401	400	395	392	391	395	402	397	395	396	399	395	393	389	388	387	388	388	389	392	393	395	394	393	388	387	394	394	393	392	389	386	386	388	391	395	399	401	401	398	397	390	391	391	391	391	390	391	392	390	389	388	388	386	386	389	394	392	384	385	388	392	395	393	394	393	390	387	387	388	387	388	390	389	383	384	389	393	398	398	396	395	395	390	388	385	383	383	384	384	386	391	400	401	399	393	392	393	393	394	393	394	394	392	389	389	389	390	391	392	391	391	392	388	387	391	392	393	391	390	390	386	386	388	397	396	389	383	382	383	388	388	387	392	390	389	389	389	389	387	386	387	387	389	388	386	387	389	390	392	390	390	389	388	386	386	385	385	387	385	383	381	385	393	396	389	388	387	391	390	390	392	392	388	389	389	388	388	387	383	0	0	0	0	0	0	0	0
443	443	439	436	436	437	437	439	439	437	434	434	432	434	437	435	433	433	436	440	440	435	433	435	435	439	441	440	439	437	435	435	436	438	440	439	442	444	449	449	446	438	433	430	430	432	435	439	439	442	442	442	439	438	439	441	440	440	437	432	432	431	429	427	427	429	432	433	432	436	441	441	439	434	429	427	425	424	424	425	423	426	427	430	431	431	432	434	432	428	424	421	422	427	430	431	431	429	428	422	419	418	418	420	421	423	426	425	424	423	423	427	429	430	431	430	429	423	423	424	420	416	415	406	404	407	415	421	422	420	414	408	407	414	420	420	417	413	413	415	416	414	413	414	415	419	424	424	413	413	418	418	418	419	420	422	420	415	418	419	423	421	410	409	409	407	408	413	412	414	416	416	409	407	407	405	401	403	403	404	406	407	405	402	399	402	406	411	412	414	415	409	404	401	403	406	407	407	406	407	408	404	406	405	405	402	403	403	408	408	409	409	406	402	405	408	405	402	401	402	399	398	396	396	399	397	392	391	393	397	398	394	398	398	397	400	398	397	400	406	408	407	404	399	397	394	398	401	402	402	403	402	403	407	408	408	407	408	408	408	405	398	399	402	403	401	399	396	394	396	399	399	399	401	401	399	398	395	396	398	401	400	400	398	402	402	402	399	399	398	400	399	398	398	393	391	400	400	400	400	399	394	389	390	390	393	398	398	398	395	394	395	395	396	394	395	396	397	392	393	397	399	401	404	403	400	396	394	392	390	388	390	392	393	398	401	403	404	406	405	399	396	393	392	390	390	391	391	390	392	392	390	385	392	394	388	387	386	385	385	387	390	390	390	391	394	395	392	391	390	392	397	402	401	400	401	400	398	397	396	396	394	398	399	397	396	396	396	400	401	401	399	393	391	395	400	399	398	395	386	386	383	396	398	401	401	400	398	396	396	394	396	397	397	396	396	395	393	392	393	400	400	397	395	393	395	395	394	394	395	395	396	397	402	385	397	400	396	392	389	387	383	388	389	391	388	385	391	400	402	402	398	397	395	393	385	386	387	390	392	393	395	397	390	386	384	383	380	385	385	386	387	389	391	392	390	386	386	388	391	392	390	389	387	388	389	396	399	400	398	394	389	387	387	388	388	387	388	388	386	385	386	392	390	389	384	384	384	385	383	380	381	381	381	383	387	389	387	380	378	377	379	379	382	385	387	385	383	385	389	391	389	391	390	389	387	383	382	383	382	381	382	382	383	390	393	392	391	391	390	388	387	387	388	390	389	386	387	386	386	386	383	377	376	378	386	387	387	388	389	386	385	385	380	380	380	382	384	378	376	374	373	374	377	389	389	387	387	384	383	383	382	381	382	382	382	382	382	382	382	383	387	389	388	387	385	383	383	383	383	383	384	383	385	387	390	391	384	387	384	381	381	381	379	378	381	381	384	389	385	383	380	0	0	0	0	0	0	0	0
436	436	434	433	433	434	434	434	434	436	436	436	436	435	435	431	430	430	429	435	435	434	433	435	435	438	438	438	435	434	432	432	432	435	437	438	437	435	434	434	430	429	427	424	425	426	429	431	431	430	432	434	435	433	434	434	433	430	427	429	429	431	430	425	429	431	433	429	427	427	429	437	436	431	427	423	424	422	422	420	419	419	423	425	425	425	426	426	425	423	419	415	417	421	424	427	426	422	416	413	414	415	416	419	420	420	416	411	409	413	416	418	424	430	431	429	427	424	422	420	418	413	409	404	404	405	409	418	421	424	423	418	415	416	418	419	418	417	415	415	411	408	406	404	406	409	411	403	402	402	406	408	405	401	405	405	403	402	401	403	406	410	408	407	406	408	411	411	407	407	408	408	404	401	398	399	402	401	401	400	401	401	402	401	392	398	404	405	406	403	408	404	401	399	400	401	403	402	403	405	410	408	402	397	394	395	397	401	399	401	404	403	397	395	394	396	395	396	395	391	394	392	391	390	390	386	386	386	389	392	390	389	394	396	396	397	394	395	398	399	401	397	395	395	391	388	386	389	398	399	399	396	399	400	401	403	404	404	406	404	399	397	396	397	399	399	398	396	396	395	400	400	399	401	399	399	397	393	392	393	397	395	391	393	399	402	398	393	393	392	392	392	394	392	391	392	391	397	397	395	392	387	380	380	385	392	395	394	393	391	391	392	393	391	388	386	387	385	387	390	393	394	398	398	395	390	382	384	387	385	385	388	391	392	393	392	393	395	398	402	401	397	392	390	388	385	383	382	385	386	389	390	384	382	380	380	381	384	386	387	387	389	389	387	384	387	391	391	387	388	390	391	390	388	386	387	390	391	394	393	394	394	395	398	396	393	392	393	394	395	397	396	391	388	387	394	394	392	390	385	377	377	385	392	395	396	393	394	395	397	398	398	397	392	390	389	389	390	394	393	390	395	391	388	390	391	392	393	391	386	385	385	384	381	382	385	385	383	385	384	379	377	381	386	388	385	382	382	391	397	394	393	389	387	381	380	384	385	385	388	391	393	391	387	383	382	376	376	376	380	381	381	383	388	389	388	385	385	387	390	390	387	382	380	381	387	390	385	386	385	384	384	384	384	384	379	377	381	380	380	382	383	384	383	381	381	380	383	380	375	373	374	375	383	385	386	382	378	374	373	372	371	373	376	379	384	384	381	381	376	379	379	382	387	386	385	384	382	381	377	378	377	381	381	383	382	381	380	380	380	383	382	381	383	384	385	383	380	377	375	376	376	373	373	373	382	385	386	386	383	381	382	381	376	371	371	373	373	373	372	369	367	370	381	384	384	386	385	381	379	378	376	375	377	375	376	376	376	379	381	377	377	379	384	380	380	380	380	381	382	381	381	381	384	385	382	373	376	376	379	376	375	371	366	368	371	371	373	381	384	381	380	0	0	0	0	0	0	0	0
430	430	431	432	433	430	430	429	431	434	431	427	427	430	431	429	424	424	424	428	433	434	434	436	436	437	437	437	436	432	428	428	425	429	432	431	426	423	422	422	422	421	420	418	419	421	419	422	419	419	420	422	424	426	429	430	431	426	420	421	421	423	422	424	426	428	426	422	418	417	418	421	425	426	425	422	421	419	413	413	410	413	417	418	419	420	418	419	419	414	412	411	411	416	417	407	407	407	404	402	405	408	412	414	413	412	411	408	406	405	412	415	418	419	419	417	415	415	418	417	414	409	408	407	406	411	409	403	408	411	410	407	404	403	404	409	408	407	407	405	404	402	403	407	409	409	405	403	401	402	404	408	404	400	398	398	400	399	399	401	403	406	405	403	401	401	404	405	405	403	403	402	400	396	396	400	401	399	396	393	393	395	398	394	388	391	402	404	403	396	393	391	391	397	397	396	396	399	400	401	400	394	392	392	391	388	386	386	383	383	384	388	390	389	388	389	388	385	388	389	388	387	385	383	382	383	383	383	385	387	383	384	384	385	387	383	389	388	390	389	386	385	380	384	386	382	382	382	385	387	394	387	388	391	391	394	391	393	395	397	394	393	391	392	393	394	393	394	393	398	400	397	394	393	395	396	393	389	388	390	393	390	386	386	389	390	390	388	387	387	386	388	389	389	389	390	390	390	386	390	385	379	375	376	381	390	393	392	389	388	387	386	388	389	386	383	381	381	383	385	386	388	392	393	382	380	378	383	385	389	388	387	382	381	379	382	383	384	385	385	386	385	386	390	387	385	381	381	382	384	385	383	383	383	380	379	380	383	387	386	384	386	386	387	384	385	388	388	387	388	388	385	381	378	378	376	376	389	390	387	391	393	393	394	394	390	382	380	378	383	382	386	387	383	387	388	387	387	385	376	373	376	384	389	391	392	390	389	390	394	390	379	380	383	385	383	383	381	387	391	385	381	374	369	383	388	390	389	381	383	381	381	383	384	381	379	378	380	377	379	379	382	382	383	384	382	379	376	379	383	384	386	383	378	376	374	382	383	384	382	384	389	387	383	381	379	378	375	376	377	377	377	379	384	385	383	384	387	391	389	387	383	379	376	379	378	381	380	383	384	382	377	377	377	375	372	372	371	373	377	380	378	375	376	379	383	382	381	377	374	372	373	377	379	380	382	380	376	374	372	372	370	370	371	378	379	382	379	372	366	369	369	372	383	385	383	381	378	375	373	374	377	377	375	376	374	373	372	373	374	375	376	378	378	379	378	373	368	367	369	372	374	373	369	370	378	383	383	380	381	378	376	373	371	370	369	368	369	371	368	366	370	375	380	379	379	377	381	380	377	375	371	368	370	370	370	370	372	375	378	375	373	375	379	376	375	375	377	377	380	380	379	377	379	377	373	364	364	370	374	372	371	366	364	365	367	367	367	367	370	379	377	0	0	0	0	0	0	0	0
425	425	428	428	428	426	426	427	430	426	421	422	422	426	427	424	418	418	418	422	423	422	422	423	423	425	429	427	422	418	415	415	413	415	418	417	417	417	418	418	419	418	418	418	419	418	417	415	417	417	418	418	419	421	425	422	422	414	410	412	415	415	417	420	422	421	418	415	410	411	412	412	413	411	412	414	412	410	407	407	404	406	408	413	413	411	403	406	410	410	408	408	407	408	405	403	404	403	401	398	392	392	404	407	408	407	406	407	406	403	403	404	402	400	397	396	397	401	406	409	410	411	413	412	411	407	405	403	403	406	407	405	402	400	400	402	400	400	402	401	400	400	402	403	405	406	406	405	402	401	403	407	405	399	396	396	397	396	392	393	394	396	402	398	393	398	400	402	399	401	401	397	395	391	394	398	397	395	391	387	387	388	389	388	385	387	396	398	395	392	389	388	387	384	383	384	386	391	395	397	395	392	393	393	394	393	388	386	384	385	384	383	382	385	385	385	384	381	387	387	385	384	384	383	381	381	380	381	380	376	374	377	381	384	385	380	384	384	386	386	386	382	379	383	381	380	379	379	380	383	382	380	381	380	382	380	385	388	388	384	383	387	385	384	383	387	387	388	390	393	398	395	393	391	393	392	392	385	386	387	388	387	383	382	386	389	388	384	383	381	384	384	381	385	386	384	386	386	382	381	381	377	374	375	380	383	387	387	383	382	382	382	382	380	383	381	377	375	375	375	378	382	387	384	377	370	375	382	383	385	385	385	382	378	374	372	375	375	377	379	379	382	385	388	387	382	378	377	379	381	380	382	381	380	382	381	379	384	384	376	373	375	381	382	380	378	380	384	388	389	388	382	378	378	371	370	371	373	387	383	390	391	391	391	387	381	376	373	374	376	379	380	382	386	386	383	383	380	381	376	370	378	383	389	390	388	386	384	386	381	377	377	379	383	385	382	376	375	378	378	379	377	371	374	376	377	378	379	383	380	374	365	365	371	370	370	369	374	377	382	382	379	377	384	383	378	375	375	376	380	380	385	380	378	376	373	374	375	375	376	376	378	378	375	378	378	376	375	370	377	377	375	377	380	379	378	377	376	382	383	384	380	375	373	376	376	377	376	381	381	377	376	372	372	370	370	371	372	374	376	374	371	369	371	375	381	381	378	371	371	371	374	376	376	370	370	369	369	370	371	372	369	369	370	375	377	373	368	364	364	364	365	367	374	379	382	381	374	371	369	371	374	372	367	368	368	370	370	369	371	372	373	377	379	379	375	371	368	367	368	370	373	373	372	370	372	374	374	376	372	369	368	367	367	367	365	366	367	367	365	370	372	373	375	371	372	371	368	368	368	368	367	365	363	367	366	363	359	361	367	369	371	370	373	374	373	373	371	371	376	376	372	371	372	373	367	365	364	363	367	368	367	364	362	362	363	363	363	363	364	366	367	0	0	0	0	0	0	0	0
422	422	417	416	417	419	419	423	424	414	411	417	417	420	419	416	409	411	411	414	414	414	416	415	415	417	421	425	414	406	403	403	407	410	411	416	416	417	418	418	418	418	416	418	418	417	415	414	415	415	415	415	415	416	412	409	407	405	401	404	407	407	413	416	417	415	412	406	404	406	407	408	406	404	402	408	409	407	404	404	400	398	398	401	401	400	399	401	404	405	405	407	408	407	405	402	401	397	398	398	397	395	399	397	396	396	399	399	400	399	398	399	399	396	399	397	397	397	397	399	399	400	407	407	405	403	400	402	403	402	402	401	400	397	396	395	393	396	397	397	397	397	397	399	402	404	406	405	404	401	402	402	401	398	393	393	392	390	388	387	389	390	392	391	387	387	392	396	396	390	387	386	386	387	390	392	391	390	387	385	383	381	381	379	380	382	387	387	387	386	384	382	383	382	383	381	382	382	392	393	393	391	392	390	392	391	387	386	387	388	384	380	379	379	384	385	383	383	379	386	384	383	384	381	378	376	375	378	377	374	373	375	378	382	385	383	383	380	383	388	387	383	381	379	379	378	378	378	380	382	382	380	378	373	377	380	384	385	384	378	376	382	380	378	378	380	381	383	385	384	382	379	377	376	375	375	373	373	372	375	377	378	377	381	382	382	382	378	372	369	368	367	375	382	382	381	376	375	380	376	376	380	378	375	378	375	374	374	375	376	378	379	377	378	379	378	375	373	373	373	374	377	379	375	370	367	370	377	381	381	380	375	373	372	370	369	369	368	369	374	378	380	384	386	384	380	376	374	374	375	376	377	379	378	379	379	378	377	374	371	370	369	368	369	370	371	373	375	375	372	371	371	371	372	374	366	366	369	375	381	383	376	379	380	379	376	374	373	372	374	379	380	380	380	381	372	373	377	381	380	381	383	384	384	381	375	370	369	374	374	376	375	381	380	383	380	374	372	372	376	367	367	372	371	369	374	366	367	367	367	367	363	362	364	364	363	363	362	369	374	375	367	369	379	380	377	372	369	368	364	368	369	371	370	372	370	369	368	370	370	369	370	371	373	375	378	375	374	371	369	370	379	375	373	373	374	372	369	369	374	371	369	367	365	371	376	376	375	377	374	375	373	370	367	361	360	362	363	365	365	364	362	365	366	373	375	376	371	368	369	371	374	373	368	367	367	366	366	367	371	369	368	368	368	370	373	368	365	364	362	358	358	361	364	368	370	368	361	359	357	362	364	358	360	363	366	365	365	367	366	368	369	376	376	375	371	367	364	365	366	369	370	372	371	369	364	364	362	359	355	356	362	365	363	364	363	359	357	359	365	370	368	367	365	365	363	363	365	365	366	367	366	364	361	359	357	354	353	354	357	357	359	361	362	361	361	359	360	358	360	366	365	366	368	368	366	365	362	359	362	363	362	361	358	356	356	357	359	361	361	362	360	0	0	0	0	0	0	0	0
408	408	405	407	409	411	414	414	409	403	403	405	405	407	411	412	408	410	410	411	412	415	416	416	416	416	417	416	407	404	407	409	409	408	406	405	410	414	416	415	415	411	412	413	413	413	410	408	407	407	407	408	409	399	405	403	400	398	399	399	401	401	407	409	408	407	405	402	398	399	402	405	401	402	401	401	404	405	400	393	393	389	388	390	395	402	401	399	397	397	399	401	409	410	405	401	393	393	395	394	394	395	394	395	394	396	396	397	396	395	397	397	394	391	397	396	395	396	399	400	399	398	398	399	400	399	398	399	403	399	400	399	392	389	388	390	393	394	395	399	400	400	399	397	397	399	401	403	403	401	399	396	386	381	382	384	383	382	381	378	379	384	386	386	384	385	386	390	391	386	386	385	385	386	386	386	384	384	384	384	381	376	377	375	376	364	368	373	380	380	378	377	380	382	380	380	374	375	378	381	390	386	388	387	386	377	380	387	387	384	381	379	376	374	377	385	384	383	377	375	374	376	378	377	370	370	372	375	374	373	372	375	376	375	375	373	372	370	377	382	382	377	377	378	372	364	366	369	374	376	374	371	369	370	371	371	378	377	375	377	376	376	375	375	373	376	378	379	377	376	376	372	372	367	371	374	374	374	374	373	373	375	378	380	380	377	370	367	366	366	364	365	366	377	380	376	369	368	372	374	373	373	374	373	372	368	368	369	370	372	377	375	374	375	376	376	374	370	366	369	373	376	378	372	363	363	365	370	378	377	374	373	368	365	362	361	364	367	369	373	376	380	380	380	378	377	374	371	372	373	374	375	376	375	373	372	360	362	365	369	368	367	364	364	367	369	369	366	366	367	367	365	365	367	367	364	365	365	368	368	370	369	368	369	371	374	375	371	369	376	378	378	378	376	369	369	372	374	374	375	379	384	383	381	377	375	371	367	371	374	379	379	378	369	369	373	370	369	374	372	368	366	365	364	362	362	365	365	365	364	364	362	359	359	358	358	363	364	364	364	362	362	365	366	367	372	370	366	363	361	360	361	361	367	369	369	364	366	368	370	368	368	368	369	370	375	374	372	371	370	369	370	371	364	362	361	362	364	361	364	365	363	362	360	358	366	368	370	363	359	360	367	366	357	355	355	358	356	356	356	356	362	360	360	364	368	372	368	367	368	370	370	369	364	364	365	363	362	364	369	366	365	364	364	364	365	364	359	357	349	352	355	359	362	361	362	363	363	356	357	355	354	354	355	358	360	361	361	363	365	364	365	366	372	370	364	361	360	360	361	362	365	366	362	361	357	357	356	354	355	356	359	361	361	360	362	359	355	354	356	359	360	357	358	359	359	359	361	361	362	360	360	363	361	358	355	356	354	354	354	354	356	358	360	361	361	363	360	358	355	354	360	363	363	362	360	358	358	356	355	353	354	354	354	353	353	354	356	358	356	355	356	0	0	0	0	0	0	0	0
400	398	398	398	398	398	401	401	402	401	402	405	405	407	407	407	406	408	408	408	408	411	415	413	409	409	406	405	403	404	407	408	408	406	403	402	403	406	406	404	404	405	406	409	409	404	403	404	403	403	403	400	393	393	396	398	397	397	396	395	396	396	400	402	401	397	391	385	387	393	398	401	398	397	397	394	385	387	391	390	390	390	393	396	398	398	397	394	392	390	390	390	392	391	389	389	388	389	391	392	392	392	390	390	391	393	393	393	391	389	392	393	388	384	383	387	391	394	396	397	395	394	393	393	394	395	394	393	396	396	396	392	387	386	384	387	391	394	396	398	401	401	397	394	391	392	395	399	398	397	393	386	380	373	373	376	378	378	378	378	380	381	383	381	382	382	384	387	385	381	383	384	383	381	376	375	378	379	377	379	378	375	374	372	371	363	364	369	373	372	372	375	376	379	377	375	372	370	367	365	364	367	369	380	380	378	379	379	380	380	378	375	373	370	371	374	379	378	373	371	371	373	372	369	367	367	368	370	372	373	372	374	374	374	374	372	371	371	366	366	372	372	367	365	366	364	361	360	361	362	362	359	362	365	367	369	368	366	371	373	370	372	371	367	364	362	362	365	370	371	370	371	369	367	362	370	373	373	372	370	367	368	376	379	378	374	368	366	368	366	365	363	362	362	372	366	364	364	365	368	369	368	363	363	365	366	365	364	365	362	362	364	366	367	367	367	366	363	363	365	367	364	364	362	361	360	362	365	369	374	371	366	358	357	356	358	361	366	368	369	368	369	371	374	373	369	367	369	370	370	367	359	358	357	356	358	360	360	361	363	366	364	364	365	367	369	364	365	365	366	366	365	363	365	365	363	357	356	358	362	366	366	365	365	360	367	368	366	359	359	363	365	368	368	368	369	366	368	367	366	363	364	364	364	364	365	365	369	370	371	379	375	371	364	360	358	356	361	362	368	366	361	361	362	361	361	363	363	363	361	361	361	359	358	355	355	361	363	365	363	359	358	361	355	357	357	365	362	360	359	359	361	360	359	359	366	365	364	361	361	362	362	363	365	366	365	371	368	368	364	363	360	356	353	355	353	354	356	358	359	361	363	362	358	358	356	357	358	357	353	353	352	355	354	352	349	353	353	353	353	355	357	358	357	358	359	362	364	366	366	364	361	360	361	360	359	360	358	358	359	360	361	361	362	361	359	355	350	347	346	348	353	357	358	356	358	359	360	357	353	353	353	351	352	354	356	357	357	358	360	360	360	361	361	359	359	357	357	358	363	363	359	358	359	363	360	357	357	356	357	358	360	358	357	355	353	347	350	354	353	354	353	349	351	353	355	355	359	358	354	353	354	356	355	354	356	356	354	351	351	351	353	355	360	360	360	359	357	355	353	350	353	359	357	357	354	352	353	352	347	348	348	348	342	342	342	345	349	351	349	351	351	0	0	0	0	0	0	0	0
397	394	394	391	390	395	398	398	402	403	401	402	402	405	407	403	403	402	402	399	400	405	407	405	402	402	402	401	398	402	404	403	403	401	399	398	401	401	402	401	401	400	399	398	397	398	401	402	401	399	399	387	388	390	391	391	397	396	392	385	386	394	394	397	395	388	386	383	379	377	379	386	394	399	400	391	383	385	387	390	390	390	390	389	388	393	394	392	390	389	388	386	386	387	384	384	383	386	388	389	389	388	387	387	387	388	388	385	383	382	386	387	383	379	377	378	385	388	390	388	386	386	387	387	389	388	388	388	389	391	392	386	382	381	379	382	383	386	389	389	391	388	380	382	385	384	388	393	388	386	385	380	377	372	372	373	375	375	375	378	379	381	380	376	378	380	382	383	378	377	377	377	375	373	371	368	366	367	372	374	377	373	373	371	370	361	363	366	368	368	369	370	370	370	371	370	368	362	361	355	360	363	366	365	366	374	375	376	376	376	372	369	369	367	369	369	368	372	370	367	366	368	366	364	362	363	365	369	370	370	369	370	371	371	371	370	369	366	365	362	364	368	365	364	364	362	359	359	359	360	360	358	355	357	360	363	365	361	358	361	364	368	364	360	355	354	359	363	366	368	367	366	368	364	363	365	372	371	368	362	361	359	361	362	362	356	367	370	369	369	363	359	358	358	363	362	361	359	359	362	363	361	361	361	362	363	362	357	357	357	357	358	359	357	359	362	363	365	365	364	361	358	356	356	352	355	356	358	363	364	363	360	355	354	355	357	358	362	362	364	364	365	366	363	361	360	361	363	365	364	362	356	353	354	355	357	358	359	359	359	359	358	356	358	363	362	361	363	365	363	364	362	360	359	359	359	356	351	354	358	363	362	360	357	361	363	363	359	357	360	362	362	360	360	363	361	360	357	359	364	364	358	356	358	361	359	358	359	360	361	362	363	360	360	357	356	355	357	360	355	355	354	356	358	360	361	363	363	362	359	360	363	360	357	352	351	355	362	364	362	356	349	347	354	357	355	355	354	357	357	357	360	359	357	354	352	349	347	350	353	355	361	360	361	361	357	355	355	356	356	352	351	350	349	349	350	350	352	354	357	357	357	360	360	357	356	356	353	353	353	353	352	348	350	347	347	345	348	350	353	354	357	355	354	356	356	354	354	363	363	363	360	358	358	357	355	357	357	356	356	355	356	357	359	360	356	350	349	348	346	349	352	354	354	353	353	353	353	352	347	351	351	352	352	352	352	354	354	355	357	357	356	355	349	348	346	344	344	347	347	355	357	355	355	358	358	356	353	349	349	359	358	357	357	351	347	346	348	348	353	351	348	347	348	349	351	354	353	352	353	353	353	355	356	354	353	353	352	352	353	353	352	354	353	353	355	355	354	351	347	346	348	350	348	345	344	346	347	343	343	345	345	344	340	340	338	341	344	344	344	346	345	0	0	0	0	0	0	0	0
395	393	393	390	388	393	398	398	402	401	399	395	400	400	402	397	395	386	389	389	395	400	401	399	396	396	393	392	393	394	397	397	397	396	395	395	398	400	398	397	397	396	396	395	395	395	397	398	394	389	382	383	384	386	382	382	384	386	384	386	388	391	391	394	393	387	388	384	384	383	384	384	387	389	389	382	382	382	386	387	388	388	387	387	384	390	392	390	388	387	385	384	384	379	377	372	371	374	382	385	385	385	384	385	384	384	382	380	379	378	382	381	375	372	371	372	378	382	383	382	380	380	381	383	383	381	381	380	380	384	381	376	379	380	378	379	380	381	382	383	384	381	376	377	376	378	381	379	376	371	375	375	373	369	367	369	369	370	371	375	377	374	369	368	369	370	376	383	379	375	375	375	373	370	364	363	362	361	368	375	373	374	372	370	369	365	359	363	364	366	366	365	364	362	363	365	361	358	356	352	351	351	360	361	361	361	352	351	364	361	361	364	364	364	365	365	362	362	362	362	362	361	359	359	358	361	366	366	365	365	366	367	365	365	367	367	360	358	363	360	361	364	362	362	361	358	355	356	357	357	356	353	351	350	351	356	359	358	354	352	353	354	356	356	352	350	354	357	363	363	364	362	360	360	361	362	364	362	359	355	353	353	353	355	356	355	361	368	370	361	362	354	354	356	357	357	356	357	358	358	358	360	358	357	358	360	357	353	354	355	354	356	356	353	354	358	362	365	364	357	354	355	355	354	353	352	352	351	349	351	354	355	354	351	351	354	355	359	360	360	361	360	362	352	352	354	355	359	357	358	351	353	354	353	355	355	354	354	353	356	353	351	354	355	358	359	359	359	360	360	361	360	359	358	356	354	352	351	349	359	361	360	358	357	361	360	359	355	354	356	356	357	358	357	363	360	359	357	358	362	363	360	356	357	358	358	358	358	355	357	359	360	360	360	356	354	354	350	351	352	353	353	355	356	359	359	361	362	360	357	358	360	361	357	355	351	357	362	361	359	352	344	348	351	354	354	354	353	353	353	354	355	355	353	351	349	347	348	348	351	354	355	358	358	357	352	350	350	353	354	353	351	352	350	347	347	346	351	353	353	351	353	354	351	350	348	350	349	350	352	353	353	345	341	339	341	344	345	344	347	350	354	353	352	349	349	349	348	348	352	353	356	356	353	349	349	350	352	352	352	353	350	347	349	350	349	347	346	349	345	350	352	352	351	351	350	351	348	346	346	349	349	342	343	345	347	346	344	342	345	343	343	347	348	346	343	341	339	336	339	342	344	343	344	349	351	350	349	347	345	344	345	346	353	351	350	349	348	347	347	346	346	345	344	340	342	346	351	352	351	349	349	351	352	351	349	348	347	349	354	353	350	345	343	343	343	350	349	347	342	339	336	346	346	342	342	344	343	342	344	346	345	344	337	337	335	336	338	341	337	336	339	0	0	0	0	0	0	0	0
392	392	392	389	387	387	391	391	392	389	386	385	389	389	393	387	382	381	386	386	392	398	397	395	390	390	387	384	385	388	389	390	391	391	391	394	395	394	394	394	392	392	392	389	389	392	390	391	388	382	379	380	381	381	378	373	375	379	383	383	383	383	383	385	384	383	381	380	384	383	382	382	383	383	377	376	377	380	380	382	381	381	382	380	378	386	388	386	383	381	379	380	379	377	372	368	367	369	374	379	380	381	381	382	383	382	379	378	375	370	366	368	367	365	364	366	371	376	377	377	376	376	379	379	379	375	373	364	366	367	369	373	375	378	379	374	368	371	374	378	378	379	375	371	372	372	376	375	371	367	362	365	366	369	369	367	366	368	368	372	372	364	363	364	364	365	365	369	367	364	361	363	358	353	351	352	352	352	365	369	371	372	372	369	366	364	356	350	350	354	357	360	358	355	354	354	355	355	351	349	349	347	351	354	357	350	351	348	346	344	352	357	361	360	361	361	360	356	355	354	353	354	355	357	359	358	355	351	352	354	354	357	360	359	358	353	353	354	353	352	354	356	359	360	356	353	352	352	352	353	353	353	350	348	348	349	350	352	349	348	348	349	348	346	342	348	347	354	352	356	360	359	359	356	356	358	358	356	352	351	354	347	345	348	351	353	359	356	358	358	351	352	352	353	354	356	359	360	359	359	357	357	357	355	355	357	356	349	350	352	352	351	351	350	351	355	358	360	356	352	349	345	348	349	349	348	348	346	344	347	352	351	352	351	349	348	352	353	354	351	349	349	349	347	350	351	355	355	352	350	351	349	351	353	354	353	355	355	354	353	351	350	351	356	357	358	359	358	358	356	353	351	353	356	355	354	350	348	347	350	353	354	356	357	354	356	351	350	351	354	354	354	354	355	356	352	351	357	361	360	360	358	356	357	358	360	359	356	354	354	352	356	360	359	354	346	346	348	349	351	349	350	349	352	356	355	353	357	353	353	354	356	353	355	351	350	350	352	354	350	344	344	348	351	352	354	351	350	352	353	350	352	352	350	347	345	347	347	348	348	349	349	351	353	349	346	345	347	343	345	347	351	352	348	348	345	347	345	344	351	349	349	347	347	345	343	342	343	348	351	349	349	344	343	338	340	342	341	341	343	346	350	351	349	337	338	341	341	340	337	343	348	349	344	343	343	345	347	347	348	346	344	344	343	346	345	342	341	344	345	348	351	353	351	346	347	338	338	341	344	336	335	334	337	338	342	345	344	344	344	343	342	342	342	343	341	336	329	327	332	335	337	339	341	343	345	345	344	343	343	341	339	342	347	350	350	347	345	344	342	340	339	338	334	334	340	344	347	350	347	345	345	348	349	349	345	344	346	347	348	351	343	342	342	341	340	343	343	339	339	335	335	335	339	339	339	337	337	339	341	344	344	342	338	338	334	334	334	338	335	333	335	0	0	0	0	0	0	0	0
