855	863	852	852	859	873	877	887	887	884	875	870	868	868	868	850	850	854	850	853	853	860	861	862	825	834	836	836	836	835	834	837	833	835	836	836	842	848	849	844	840	835	830	824	824	829	845	864	876	861	853	856	845	833	826	825	825	819	821	823	838	850	861	858	856	843	842	844	844	847	844	846	845	845	842	837	843	849	843	840	838	842	849	840	837	845	854	869	868	870	860	856	859	862	859	856	855	851	851	851	847	844	844	849	841	830	828	834	838	838	840	851	863	865	859	850	838	828	830	840	835	820	818	830	836	841	840	846	855	868	866	836	836	836	840	834	830	833	838	846	846	842	838	840	841	841	846	842	844	839	830	824	823	826	829	834	839	832	828	832	831	829	823	822	834	840	840	838	832	834	836	834	831	840	837	841	851	853	847	818	818	823	829	835	840	836	826	824	830	837	841	845	835	821	821	835	828	821	862	851	829	818	819	837	845	846	837	833	826	819	825	830	836	836	837	841	845	848	842	847	853	850	843	832	829	831	834	831	816	817	827	834	835	820	813	813	819	826	828	822	809	801	801	802	800	792	788	789	790	782	784	790	799	799	800	806	814	800	800	797	789	783	783	794	789	790	802	812	816	819	813	801	796	804	803	806	807	810	811	810	808	810	809	806	807	810	825	820	815	815	816	810	794	794	799	809	819	830	833	830	827	832	830	828	836	838	823	809	794	795	796	796	803	810	816	819	820	824	830	826	826	816	815	811	807	808	814	806	788	788	795	804	811	816	815	820	819	813	808	805	813	816	812	816	824	828	835	823	822	809	796	795	797	800	805	813	834	832	822	819	819	810	810	803	798	791	780	795	801	805	802	804	815	819	822	821	824	825	831	833	830	825	804	792	782	790	805	818	812	797	799	806	814	817	817	788	773	781	797	804	804	805	775	774	777	777	774	774	802	804	802	794	787	772	776	785	790	788	787	785	788	786	782	778	778	778	783	790	800	797	781	781	785	788	792	787	781	777	779	787	787	781	783	783	784	796	806	804	797	788	781	766	757	758	765	771	769	767	771	774	779	793	799	796	789	784	779	767	768	771	767	765	764	760	758	757	777	776	766	761	762	761	757	757	751	746	749	745	734	732	741	750	758	770	777	777	772	767	770	764	760	754	752	748	752	754	752	750	754	764	774	773	774	758	759	755	755	756	752	751	750	749	752	753	760	768	765	770	768	766	763	766	768	763	757	754	754	766	789	799	800	794	787	783	790	793	787	795	804	809	799	787	778	778	786	783	788	790	802	791	784	788	792	799	801	792	774	778	785	791	798	796	786	778	785	794	792	788	777	773	771	785	789	789	791	793	800	810	814	812	802	803	801	810	809	797	785	787	794	808	814	811	803	793	789	801	807	806	807	811	814	814	814	814	809	798	782	775	785	791	795	792	795	793	790	789	786	778	777	778	771	771	0	0	0	0	0	0	0	0
842	830	826	826	840	854	857	853	853	835	833	832	823	824	824	823	827	818	813	817	826	826	830	831	799	807	809	803	803	801	801	806	810	819	823	823	823	828	826	826	822	821	817	817	820	820	831	842	846	813	809	812	809	808	810	813	813	810	811	808	802	817	831	826	813	807	811	818	827	829	828	824	818	818	820	822	823	827	828	826	823	820	813	813	811	818	822	823	826	828	825	827	827	830	833	836	838	832	821	813	803	803	816	824	820	813	810	815	819	815	814	820	824	827	825	821	815	811	813	812	804	796	794	805	813	815	820	821	821	823	815	812	810	810	809	809	811	814	822	823	806	802	807	819	824	824	816	812	817	813	813	807	805	806	807	808	804	805	802	802	799	793	789	785	797	809	814	811	813	820	822	815	807	798	799	813	826	836	830	807	806	807	814	816	821	820	811	808	815	812	806	799	790	789	784	798	799	797	796	792	804	805	809	815	824	825	824	818	814	808	805	815	815	807	791	782	788	800	808	808	806	795	780	782	794	799	803	814	810	801	801	806	806	798	790	784	791	796	798	792	792	786	788	787	783	776	773	775	775	766	759	760	760	762	760	760	760	765	767	766	752	756	761	766	766	769	779	793	801	792	778	769	769	772	778	782	787	785	770	766	799	798	797	795	799	810	819	807	793	781	769	763	760	757	765	781	799	804	796	795	813	811	805	799	797	791	780	763	755	765	772	769	769	768	773	780	784	777	779	784	787	792	792	790	782	773	767	768	772	773	780	794	801	799	797	789	781	777	783	789	785	771	754	764	769	777	778	775	768	766	764	764	769	781	784	792	796	794	792	780	778	782	791	787	778	771	762	770	778	788	777	761	761	772	784	796	808	805	802	799	802	787	778	762	763	768	779	788	778	777	774	783	791	784	783	769	761	760	766	783	752	753	749	746	745	742	742	740	738	747	754	753	748	749	762	772	772	763	756	754	771	779	777	771	767	761	763	764	759	754	750	752	757	760	762	757	751	748	753	765	770	775	771	768	767	769	779	777	773	766	761	744	744	747	748	751	751	747	747	748	761	758	761	766	771	764	752	755	758	756	753	750	749	753	752	749	750	748	750	748	751	752	750	737	738	738	738	735	726	718	719	733	746	756	762	760	762	751	745	743	746	745	743	739	750	751	745	739	739	739	743	747	738	723	724	729	737	735	735	737	737	739	740	741	743	747	749	756	757	754	755	749	744	746	742	734	732	738	750	762	767	764	751	740	740	745	741	740	740	743	755	764	765	769	778	780	777	768	759	756	756	756	762	773	779	773	750	745	750	759	769	778	767	753	756	770	776	775	765	756	752	763	773	781	780	777	773	777	775	776	779	781	786	785	767	765	765	770	774	784	775	760	758	751	754	755	752	764	771	779	784	793	794	794	790	775	761	758	758	763	767	766	765	763	754	753	758	756	755	749	749	757	0	0	0	0	0	0	0	0
830	815	807	807	822	838	838	820	812	812	803	806	810	809	809	809	808	800	798	799	803	803	806	781	788	793	798	791	791	785	784	785	792	800	808	808	808	804	806	808	804	804	800	797	801	801	802	804	781	780	778	789	790	796	802	803	803	801	796	792	790	791	807	798	781	770	778	784	786	787	784	787	789	789	796	800	799	802	808	807	802	798	795	791	799	806	803	781	771	771	783	790	795	803	815	820	820	812	788	782	776	775	787	805	810	805	804	807	806	802	799	796	798	794	788	787	789	787	781	773	773	772	781	785	791	795	771	768	782	793	793	795	796	792	790	790	795	799	800	783	769	772	778	800	804	802	793	776	774	773	767	771	782	785	783	781	757	763	779	790	797	796	783	774	762	764	766	774	779	789	798	803	787	774	770	762	778	792	799	797	796	789	784	771	764	764	766	766	770	771	774	764	758	753	760	774	769	758	764	763	769	762	755	784	797	793	786	786	787	776	778	800	798	784	755	741	744	752	764	779	778	769	758	762	772	769	767	769	767	767	766	751	746	766	763	758	762	765	768	770	771	772	771	773	769	762	761	761	759	749	741	743	749	750	749	747	751	754	753	745	745	745	746	748	745	750	758	769	772	750	745	745	750	759	763	761	746	725	727	736	740	740	774	775	772	774	795	790	775	747	738	737	742	750	755	765	770	759	756	764	767	766	758	756	753	750	747	745	745	746	751	750	749	749	748	760	761	750	755	762	767	763	767	769	766	754	750	753	759	761	761	757	758	758	759	760	765	767	773	776	768	752	734	730	745	753	736	732	736	740	740	738	743	757	760	759	756	755	755	759	760	762	765	771	762	748	744	741	751	756	748	740	732	741	747	765	774	772	768	770	760	748	742	744	745	748	751	754	753	748	744	743	750	753	751	756	759	753	744	746	745	735	731	730	731	730	728	722	719	721	725	721	719	720	734	745	743	739	734	740	746	754	761	758	753	753	755	753	749	743	742	740	736	730	728	735	728	728	735	741	740	732	738	736	732	728	733	737	743	749	745	734	738	738	733	730	729	729	729	727	724	723	726	722	734	739	742	749	748	744	739	734	739	745	747	744	735	729	725	724	726	722	720	717	722	729	729	731	722	715	716	728	735	736	735	728	743	740	732	734	728	722	711	732	739	743	737	734	732	732	730	729	717	713	716	717	722	726	727	728	727	726	724	724	726	726	733	734	737	741	742	740	732	732	728	722	714	719	725	734	743	743	741	724	723	727	727	729	726	724	729	746	750	754	755	756	750	744	739	742	738	735	734	737	749	745	739	734	736	744	749	752	746	727	721	731	741	744	738	737	735	743	758	769	766	761	755	750	753	754	756	766	762	756	756	754	749	745	742	747	750	750	747	739	729	718	719	727	743	746	746	746	755	755	758	751	746	749	750	751	740	741	741	740	741	740	742	735	734	737	737	741	0	0	0	0	0	0	0	0
807	798	789	789	784	795	796	784	778	778	782	782	782	779	779	787	791	791	786	782	781	781	760	767	775	778	776	770	770	766	764	762	751	755	758	760	760	750	746	747	758	762	765	775	777	777	770	760	758	759	762	768	773	778	791	796	796	789	783	776	772	771	775	774	760	742	744	757	767	774	774	766	768	768	764	758	759	770	781	785	779	775	773	779	779	776	768	756	756	767	775	783	789	792	795	801	788	778	770	763	763	764	765	774	785	796	798	799	792	788	786	784	780	776	774	774	775	770	762	756	750	750	760	760	764	756	744	747	761	772	777	778	778	779	780	775	778	782	779	771	763	757	758	761	768	772	777	760	752	747	744	748	754	760	755	748	750	753	762	774	781	784	781	770	754	751	744	741	730	740	747	766	773	756	746	745	754	761	765	761	767	766	760	749	746	747	750	750	744	740	752	750	740	737	734	741	726	716	721	725	733	733	730	729	732	762	751	750	759	760	760	780	773	750	740	735	732	740	745	743	743	742	741	737	735	733	735	736	733	738	735	734	735	736	741	744	742	746	749	755	761	762	760	755	738	736	734	744	745	742	735	732	732	737	737	731	732	734	732	733	733	732	730	731	731	734	744	749	739	740	738	739	743	747	740	731	710	705	705	708	715	722	718	718	734	739	739	734	721	718	728	730	733	737	742	739	729	722	717	714	710	720	722	725	731	736	740	740	733	733	737	736	735	734	733	727	725	720	734	741	746	746	747	743	738	731	724	720	723	733	740	728	711	711	725	734	737	736	731	728	719	716	703	699	702	709	715	707	713	727	734	732	731	731	723	715	718	727	734	743	743	744	738	731	719	716	720	728	732	730	723	712	715	726	736	735	728	730	729	723	720	724	729	733	734	730	729	733	734	734	725	723	725	727	730	727	708	712	712	717	717	716	711	708	703	704	709	707	706	709	712	716	716	715	718	720	719	709	711	712	717	716	739	740	739	734	733	741	738	735	730	722	714	710	706	703	708	712	711	712	712	711	711	710	707	710	716	714	715	711	713	719	718	715	718	716	711	709	709	707	709	712	713	711	708	719	732	742	736	732	726	718	724	730	712	720	723	715	709	710	710	704	697	705	708	715	705	700	698	699	705	715	725	722	710	703	707	714	719	721	717	710	703	702	714	715	713	710	712	718	723	716	713	716	720	724	725	721	718	713	712	707	707	700	707	709	714	715	723	732	733	725	714	710	709	710	707	709	714	723	725	728	727	715	703	702	708	712	716	718	720	727	729	722	720	718	725	728	726	726	728	711	704	708	722	734	730	725	726	732	742	738	734	723	714	706	696	701	713	717	719	722	735	743	748	741	737	734	737	735	737	740	743	744	744	746	740	735	730	728	732	731	735	729	717	709	714	720	725	732	731	732	732	727	725	728	734	739	738	734	732	727	724	726	728	728	728	727	727	731	731	728	0	0	0	0	0	0	0	0
784	781	769	769	762	760	760	759	757	757	753	755	752	753	766	766	777	777	771	761	760	760	745	755	761	760	759	752	752	747	740	734	730	728	731	733	733	729	726	725	726	728	733	742	748	748	749	752	753	751	753	753	755	751	757	762	762	763	758	750	744	742	746	748	737	733	734	743	756	762	763	758	749	749	747	745	747	756	763	766	761	759	764	764	756	747	744	734	731	755	768	777	772	760	762	762	764	759	749	747	748	750	752	754	756	763	771	775	771	771	772	773	767	761	762	761	759	755	753	749	744	741	746	747	737	730	722	726	734	751	758	762	766	769	769	766	761	767	764	756	749	745	743	740	743	748	749	740	735	731	724	719	721	727	738	741	741	740	724	714	712	716	749	748	733	735	736	720	703	709	710	731	742	730	728	733	738	741	741	741	715	721	724	724	728	735	739	728	715	710	714	726	729	726	719	703	700	704	708	712	712	704	699	689	688	696	700	705	738	743	748	738	747	735	729	729	733	730	730	724	729	732	730	725	720	718	717	717	716	719	722	726	729	731	730	727	727	726	730	738	747	745	745	740	723	718	711	713	713	709	708	706	716	721	719	715	706	697	704	714	716	715	715	712	706	707	711	719	714	720	724	722	718	708	700	698	691	689	690	695	699	702	699	696	700	701	720	707	707	706	712	716	715	715	714	710	705	702	701	701	704	709	714	716	720	728	731	727	719	716	720	723	724	718	714	707	702	708	711	712	729	726	729	728	715	705	694	694	695	706	707	695	693	690	702	714	715	717	705	705	707	704	704	704	702	698	692	692	695	699	716	720	715	705	693	689	697	702	713	723	722	722	718	707	699	701	706	711	715	708	695	691	696	706	716	715	701	693	695	695	696	699	707	706	704	706	714	721	716	713	709	696	699	698	696	701	698	696	700	700	701	698	701	699	694	692	693	692	693	696	699	709	713	712	712	713	705	697	697	697	700	696	704	714	716	724	722	716	718	715	713	698	694	693	694	689	686	688	695	698	701	700	701	699	695	701	707	708	707	705	699	691	676	678	686	681	679	678	688	689	698	703	707	705	702	702	713	717	728	722	710	696	695	697	695	701	706	705	701	698	697	692	689	685	687	692	690	688	685	686	691	696	704	703	698	693	695	697	697	704	705	704	696	694	694	696	696	701	704	706	705	706	709	717	720	720	722	718	711	702	695	690	684	679	683	694	698	695	698	703	706	708	700	696	689	686	695	704	708	710	710	704	703	700	693	692	693	700	700	707	710	715	716	710	704	696	689	697	699	699	704	696	690	689	692	702	707	709	707	709	722	727	724	704	689	680	680	689	697	702	708	712	719	721	723	717	716	721	722	720	719	715	711	695	690	691	706	718	716	714	713	713	711	706	703	696	703	709	712	716	715	713	713	713	710	712	723	725	724	721	717	712	704	708	709	710	711	714	715	717	717	717	0	0	0	0	0	0	0	0
771	764	750	750	738	732	735	734	734	734	731	729	728	733	745	745	760	760	755	748	744	736	731	729	727	734	736	738	738	729	723	715	716	722	725	727	727	723	723	718	711	708	700	708	723	723	736	743	744	745	744	743	739	731	734	737	745	745	739	731	727	723	726	727	723	725	727	731	744	744	741	744	743	743	744	737	734	735	737	739	742	748	753	748	742	733	730	727	723	732	755	755	735	728	722	722	728	735	734	732	734	737	735	734	735	738	744	743	738	737	740	743	741	744	740	740	741	741	734	730	731	732	726	725	723	717	706	709	715	718	727	739	730	727	732	730	734	740	738	740	737	730	727	730	732	728	716	699	689	693	694	692	695	705	722	726	723	714	709	703	698	696	699	705	702	692	683	681	683	692	698	704	711	711	710	707	709	713	716	713	692	689	697	698	701	704	710	708	702	699	696	695	704	702	706	697	688	691	694	694	692	689	687	671	671	677	683	686	686	695	727	732	696	701	706	707	706	706	705	707	710	706	706	706	706	701	695	699	703	702	698	704	710	712	715	713	711	709	705	708	707	702	699	708	701	694	696	699	699	694	687	685	704	711	711	694	683	684	689	697	697	701	702	696	691	683	681	686	693	693	694	690	691	687	685	681	672	670	670	679	683	685	685	681	683	680	682	687	697	700	705	701	700	692	685	686	690	690	693	698	704	702	704	706	712	707	705	708	704	696	691	688	685	683	681	682	687	696	700	701	702	702	705	691	688	691	684	682	684	682	678	675	679	684	688	690	697	699	698	701	701	701	701	701	699	693	686	684	683	685	688	695	694	693	684	679	674	679	690	701	708	710	704	694	686	689	694	695	696	684	674	675	679	686	693	690	677	677	681	682	673	669	675	689	695	696	700	702	701	695	676	667	657	658	661	665	683	678	687	689	686	684	683	680	681	683	681	672	670	676	680	681	683	685	695	700	691	687	688	689	678	682	685	692	697	697	696	692	680	685	683	678	682	682	679	676	676	681	684	689	690	695	687	678	680	694	698	700	691	674	678	674	670	667	666	671	671	666	662	656	681	696	708	710	703	699	700	695	695	669	675	680	684	684	681	682	685	688	686	684	684	681	681	683	682	680	681	681	677	679	681	686	688	686	684	685	685	689	687	686	693	695	691	689	687	689	687	688	685	687	689	685	690	689	700	709	709	709	706	698	689	678	669	666	665	674	682	679	672	680	689	698	697	689	675	666	666	672	679	684	683	683	685	694	692	688	687	689	694	696	698	696	696	695	683	677	664	664	671	677	681	678	674	672	675	686	688	692	693	690	682	673	670	671	672	672	671	680	689	693	697	690	700	707	710	704	702	701	703	702	700	694	684	681	678	678	678	687	695	692	689	679	681	676	677	683	689	699	703	698	695	698	698	697	696	697	702	703	701	702	703	700	698	695	700	699	697	696	701	702	702	701	0	0	0	0	0	0	0	0
764	752	733	717	717	710	714	719	719	719	718	718	717	707	711	711	714	719	731	737	736	720	712	700	695	696	705	710	710	716	711	709	707	709	712	712	712	705	703	699	696	693	695	701	710	710	722	730	730	729	719	712	704	692	693	698	712	712	718	719	722	719	712	714	715	718	718	722	724	725	726	732	732	730	730	718	713	707	709	706	711	718	726	725	724	720	718	719	714	716	714	718	716	715	714	714	717	722	726	724	720	716	716	716	718	720	710	708	710	716	722	729	729	722	705	694	693	696	703	708	710	712	710	708	705	699	694	698	698	698	699	696	696	701	702	698	691	696	710	719	715	710	706	707	706	703	692	675	672	676	678	679	681	685	691	695	694	697	695	689	684	679	679	684	685	672	662	660	668	672	681	687	692	695	694	694	691	686	684	678	668	667	669	669	669	675	680	683	685	690	688	687	682	689	686	681	674	674	675	668	668	668	668	666	664	664	672	679	676	671	667	661	658	685	693	698	698	697	695	701	703	698	692	690	681	680	682	691	694	690	684	687	689	686	693	691	686	675	672	683	685	681	678	675	672	676	683	688	688	685	680	678	687	689	686	674	667	666	674	680	688	687	685	679	675	670	674	680	685	683	683	683	676	667	671	668	664	664	667	670	671	672	671	669	671	667	664	665	677	682	694	689	685	672	664	657	673	685	688	688	688	693	694	696	696	696	694	695	692	683	671	665	660	671	671	668	665	664	665	668	673	671	671	672	675	678	681	675	663	661	663	665	672	679	681	681	676	676	681	693	694	697	695	694	687	681	671	675	673	673	675	679	686	685	676	670	666	668	665	666	671	671	667	663	666	674	680	683	674	671	660	668	671	675	671	667	662	667	672	675	672	669	665	669	681	686	689	689	680	676	654	654	650	630	630	657	659	664	672	664	665	667	659	651	648	655	657	659	655	651	652	654	672	672	670	665	660	662	664	664	663	670	676	684	688	683	678	674	653	651	662	670	672	666	655	655	657	665	667	673	675	674	670	667	670	683	689	686	667	656	661	661	660	655	654	658	669	666	660	656	657	665	674	674	672	672	686	663	663	662	659	659	661	662	667	668	668	665	663	666	672	674	675	682	680	674	672	674	672	673	673	675	674	671	672	672	673	681	681	677	676	680	682	675	676	671	671	673	672	669	654	658	669	676	680	692	695	698	683	677	675	668	664	661	664	668	663	657	650	657	674	686	690	683	669	658	659	662	667	666	667	667	670	686	690	684	675	679	682	682	675	669	668	663	661	656	656	656	658	660	660	658	648	658	667	671	662	657	661	660	657	655	656	661	658	658	658	652	651	656	658	656	649	644	642	657	666	668	670	684	680	672	671	668	665	662	661	659	658	656	662	665	668	668	670	674	678	684	689	680	676	682	682	676	668	665	664	670	678	682	687	688	686	682	682	680	670	669	673	681	681	682	0	0	0	0	0	0	0	0
754	730	700	688	688	688	696	705	711	711	715	702	693	683	687	687	691	708	719	723	687	687	682	679	677	679	688	700	700	710	711	702	699	690	689	688	688	681	682	686	691	694	698	704	707	707	712	716	716	717	708	692	689	687	685	683	684	684	701	713	715	706	695	689	689	694	696	694	692	699	708	714	702	701	701	694	695	697	692	685	686	690	696	703	706	705	704	705	702	700	693	696	699	701	704	708	710	714	709	697	686	694	698	700	704	703	703	701	703	706	708	709	703	693	691	689	686	686	686	689	689	689	689	687	682	682	681	682	681	684	680	680	684	686	687	680	674	681	693	693	690	689	688	685	687	680	677	667	655	661	664	668	673	671	673	670	671	674	677	672	666	662	663	668	668	660	653	651	659	670	678	680	680	683	681	679	675	672	671	665	662	654	655	656	662	671	677	679	674	671	675	672	659	655	663	668	665	665	662	656	651	651	655	653	652	654	666	669	668	664	661	656	644	642	650	688	688	683	681	681	687	689	686	680	676	674	673	672	676	674	674	672	671	668	664	661	658	653	653	664	667	663	659	655	657	652	646	645	648	656	661	660	660	666	659	655	653	652	656	665	673	674	665	652	650	658	666	669	670	657	656	649	642	638	639	646	647	651	660	663	667	664	663	659	658	656	653	653	652	661	662	656	655	660	650	651	658	671	675	672	669	670	666	671	677	681	688	686	672	667	659	647	643	652	652	655	655	652	648	647	646	649	654	658	663	668	665	661	654	649	649	655	666	667	669	667	664	661	653	652	654	654	666	680	664	659	658	659	661	664	665	671	673	672	669	661	659	663	662	660	658	655	647	649	651	656	660	667	656	649	649	652	655	656	653	652	651	654	659	664	664	662	662	661	661	661	660	662	651	648	647	647	627	627	628	631	639	649	641	644	648	647	641	638	640	642	644	642	642	642	642	643	647	654	658	650	644	646	650	653	654	658	669	678	679	672	663	655	654	659	668	669	665	650	646	647	649	652	654	656	655	651	650	652	655	664	670	664	650	642	643	647	647	645	644	649	659	663	660	654	654	655	661	659	639	636	638	645	654	657	658	651	651	650	654	652	646	642	637	639	643	655	657	660	660	656	660	665	664	664	663	666	664	663	662	659	659	666	669	669	665	664	662	658	655	661	662	657	651	645	642	655	661	666	666	670	676	671	667	664	660	657	656	658	662	658	652	643	636	648	665	680	682	675	663	655	652	655	654	659	661	656	657	662	664	670	668	667	647	647	646	647	653	655	656	655	655	654	651	649	643	638	636	643	654	662	653	644	642	640	640	640	640	645	649	650	652	647	645	645	642	633	627	628	628	634	647	654	655	655	651	645	641	641	641	641	639	646	645	645	649	655	653	648	649	661	668	671	666	667	664	664	660	660	657	653	653	656	662	666	672	671	666	639	638	639	641	651	653	661	661	664	0	0	0	0	0	0	0	0
676	677	676	670	670	672	680	685	692	692	696	687	679	675	677	677	685	696	698	689	669	669	667	672	674	676	682	689	689	700	696	686	669	672	674	671	671	669	668	675	684	692	699	697	694	696	696	697	698	692	680	671	678	682	682	681	679	679	681	680	684	688	682	677	676	679	676	670	668	670	679	681	672	674	674	676	681	682	669	662	662	667	671	677	682	687	687	682	680	681	680	679	683	683	686	692	694	699	691	678	675	668	670	682	688	680	687	692	694	690	686	677	667	665	665	675	680	676	670	673	674	674	670	668	664	658	663	665	665	664	664	670	673	674	669	660	655	664	673	666	666	673	675	665	660	657	658	654	643	646	648	651	651	659	649	647	649	652	654	647	649	647	650	649	648	650	642	644	653	668	668	660	658	664	661	657	655	654	654	655	653	648	646	647	656	664	670	672	670	667	664	661	654	650	650	654	658	650	642	639	638	642	644	641	640	638	648	656	660	655	651	649	636	633	636	641	646	663	664	667	671	673	672	669	663	664	664	664	660	659	661	658	643	639	644	651	651	651	650	648	647	648	650	652	652	646	634	627	627	629	637	640	648	647	649	653	654	654	652	639	637	642	643	640	637	638	640	642	637	635	632	618	625	629	634	632	634	629	638	642	645	648	650	652	653	649	644	637	630	622	627	636	638	629	625	641	646	650	654	651	643	645	648	652	652	655	661	663	654	647	644	638	637	642	641	642	642	643	641	638	635	632	633	637	640	646	647	647	641	637	634	637	643	653	653	658	652	647	644	646	644	644	643	644	644	643	640	642	644	652	653	654	649	650	643	638	637	643	647	651	649	644	641	636	636	638	635	636	639	641	642	644	646	648	649	645	644	644	643	644	646	650	654	655	653	646	636	633	631	634	632	627	620	623	622	619	622	621	622	629	629	625	621	624	627	635	636	636	635	637	636	635	633	638	643	640	635	637	643	647	649	651	656	667	670	661	650	640	646	650	651	653	650	642	639	639	640	642	644	643	641	638	638	639	639	641	643	642	635	628	633	634	634	633	635	638	640	645	645	632	631	634	628	630	631	628	624	642	635	639	645	642	644	643	639	635	629	627	627	637	642	640	636	637	638	638	641	645	650	652	654	656	655	654	650	640	637	643	645	645	642	642	646	647	653	657	656	651	642	637	637	650	655	655	657	657	650	652	653	652	647	645	648	655	659	658	646	639	639	638	656	671	673	665	658	647	642	641	645	651	652	640	636	624	618	620	630	635	637	636	633	634	635	636	637	645	645	643	646	643	637	627	626	631	637	650	640	627	622	622	625	622	626	630	634	633	634	637	633	628	623	620	621	622	622	623	628	635	637	646	638	635	625	623	627	634	635	632	620	611	621	632	637	640	632	628	630	641	643	641	644	644	637	637	641	640	637	635	634	633	634	630	618	624	630	629	632	635	640	640	644	643	0	0	0	0	0	0	0	0
660	661	662	663	663	661	662	664	669	669	675	672	667	670	674	674	683	682	674	655	654	655	655	661	666	668	670	661	656	656	653	647	646	648	655	661	661	660	662	669	678	688	681	672	671	670	670	670	669	667	664	666	674	678	682	683	680	680	673	659	652	654	655	656	658	661	661	659	655	657	659	661	656	650	650	653	655	657	659	662	662	662	664	669	671	669	667	667	668	671	670	671	665	659	656	660	651	660	662	662	660	657	649	642	638	635	637	644	650	652	645	648	646	641	631	630	628	618	614	615	626	644	641	634	624	626	628	627	626	623	623	633	640	646	645	644	642	643	637	637	640	657	654	647	633	631	631	632	631	635	636	638	638	638	636	640	639	633	630	630	635	637	638	630	630	642	641	640	653	657	653	644	639	639	642	634	634	636	644	645	646	639	637	638	644	653	656	659	659	661	656	642	641	639	638	638	629	621	618	618	619	629	631	631	630	627	629	634	636	636	628	619	622	626	624	628	632	633	634	647	652	656	654	652	650	652	655	647	639	629	624	623	624	628	638	640	642	647	646	646	645	645	646	647	645	636	623	618	621	620	621	618	615	622	635	641	641	637	620	611	606	600	602	609	631	635	632	626	622	619	618	612	608	612	620	625	627	628	632	636	636	630	626	634	636	622	613	609	610	612	620	620	622	619	618	622	628	636	637	634	631	631	631	625	620	618	617	629	634	632	632	630	631	630	634	630	626	630	631	631	626	620	614	613	616	624	632	639	636	631	626	622	617	615	628	646	645	640	638	639	636	633	632	631	630	631	630	628	627	632	632	634	637	642	635	632	632	635	639	643	643	638	632	629	629	630	626	625	629	637	642	639	634	630	636	635	635	628	620	624	629	637	646	637	634	625	622	626	628	626	623	616	613	614	612	610	609	607	617	624	625	623	617	612	614	623	626	631	631	630	631	629	623	620	621	622	623	625	630	633	639	641	648	654	659	649	638	627	630	636	642	644	639	631	633	631	627	627	629	631	627	624	626	623	617	623	627	614	621	612	619	624	625	626	622	623	626	628	624	625	617	615	615	618	615	613	610	610	609	616	620	625	629	630	633	632	625	621	625	636	638	635	632	636	635	634	632	633	642	645	646	649	648	636	622	615	614	626	634	637	636	632	628	624	626	629	629	623	618	633	633	643	648	649	645	641	640	641	639	636	630	630	639	643	640	641	645	638	632	629	630	643	646	651	644	617	610	607	611	617	617	620	615	611	610	612	614	619	623	625	621	615	612	609	614	627	630	632	631	625	622	617	615	616	626	619	611	602	604	608	608	610	611	611	616	617	621	617	624	618	616	615	616	615	615	619	626	632	633	627	620	612	609	611	617	624	618	605	601	608	615	619	621	616	602	601	612	631	628	627	625	625	622	624	630	628	624	620	622	622	613	611	612	618	621	621	623	624	623	623	625	627	0	0	0	0	0	0	0	0
644	646	645	646	646	651	651	650	648	648	652	652	652	657	661	661	671	671	661	636	635	642	642	644	643	640	642	648	646	646	646	640	639	641	643	649	652	652	655	661	665	662	657	653	647	650	650	655	657	659	657	662	669	675	679	679	672	672	664	652	646	646	644	642	642	642	643	645	644	649	652	654	650	639	641	641	643	650	655	661	659	655	656	661	660	655	651	652	653	630	626	627	630	633	631	633	638	647	644	645	650	647	642	631	625	623	621	627	632	630	632	637	635	622	616	616	615	610	605	603	607	612	622	620	620	621	621	618	614	618	619	620	619	619	623	624	625	627	623	620	627	627	625	625	618	619	620	622	621	623	628	628	629	631	633	630	624	622	624	624	623	626	619	617	617	622	632	633	642	639	631	626	624	620	621	619	620	629	634	636	633	626	625	625	628	633	630	620	614	618	622	626	626	624	623	623	622	616	612	607	608	610	623	624	624	620	619	617	618	607	604	607	612	612	604	604	618	617	615	606	611	636	633	631	623	624	629	633	625	619	616	611	613	619	626	632	632	628	620	620	622	638	642	642	632	609	605	609	611	613	606	598	599	601	608	613	616	613	609	603	598	596	599	601	609	617	619	616	614	612	613	604	601	600	606	613	619	620	622	624	626	614	611	606	608	605	603	603	603	608	619	619	617	616	613	617	626	629	624	622	622	624	620	617	613	611	613	617	622	624	623	621	621	619	619	615	617	625	626	625	622	616	610	606	608	609	612	620	625	624	617	611	606	605	607	623	632	635	630	617	609	605	610	624	626	624	623	620	621	623	617	624	626	631	632	627	627	629	633	635	634	631	620	611	606	611	606	609	617	627	631	622	610	606	620	624	619	612	610	615	620	610	622	625	613	611	613	617	622	623	616	610	603	601	600	600	597	593	602	614	618	617	612	605	604	610	615	617	619	622	623	620	613	607	604	606	607	611	610	615	620	630	631	637	639	633	620	614	608	620	630	635	631	622	617	619	614	613	618	621	615	610	609	606	600	600	602	604	602	600	604	613	616	617	610	603	605	606	592	600	602	597	599	603	605	606	608	608	607	608	610	612	603	594	608	625	622	617	621	629	626	604	599	606	612	608	607	612	621	623	622	623	620	614	604	594	592	619	626	631	630	624	618	614	613	615	612	609	611	610	618	633	637	634	631	630	628	628	627	620	613	611	612	620	625	626	632	621	616	614	604	607	608	610	609	608	605	594	589	591	601	604	602	601	602	603	608	608	611	610	608	605	606	608	607	606	617	618	612	608	605	603	602	601	605	606	600	596	599	600	603	601	595	598	603	611	611	612	611	613	609	611	612	612	608	607	607	612	614	607	610	606	604	609	612	612	609	607	610	612	609	606	605	600	600	602	602	608	610	603	598	609	615	622	624	619	617	615	613	611	607	604	606	610	612	615	614	611	609	609	598	594	0	0	0	0	0	0	0	0
630	631	633	636	636	640	641	637	636	634	634	638	636	633	642	642	654	656	627	622	622	626	626	631	632	632	634	638	642	642	639	634	631	635	636	637	634	634	636	634	639	643	642	636	628	631	631	638	643	649	649	652	657	662	659	658	656	644	644	636	639	637	635	629	625	625	630	628	626	632	640	639	632	622	625	625	631	640	644	644	640	639	645	648	619	619	613	608	604	606	610	611	614	612	610	612	618	620	611	609	620	625	624	617	611	606	605	603	611	612	616	612	609	608	610	606	602	602	604	604	603	596	597	602	612	617	613	607	603	600	606	607	606	605	605	609	608	611	613	609	602	603	601	601	599	602	613	614	617	616	611	611	614	623	621	611	614	616	618	621	617	613	607	604	605	602	602	604	606	606	608	612	612	608	606	608	614	621	625	626	619	618	616	610	610	612	605	606	599	599	599	604	603	599	600	608	611	606	602	601	600	602	608	611	610	610	608	605	603	595	595	599	602	602	597	594	599	601	601	595	586	581	580	583	599	601	608	617	610	610	605	602	600	603	611	614	612	606	606	606	604	603	599	598	596	591	593	599	606	605	599	594	591	590	593	593	598	598	600	597	593	592	597	602	608	613	611	609	606	603	595	585	587	584	588	592	605	611	613	600	596	599	598	596	592	594	596	597	599	598	605	617	618	614	610	608	607	609	611	608	611	615	615	612	608	606	608	613	617	619	612	611	613	611	610	608	616	615	607	610	612	609	603	596	596	601	604	602	604	607	603	600	597	594	596	601	605	609	603	597	597	596	595	603	606	612	614	611	610	605	598	602	608	613	616	616	615	608	605	616	621	617	604	597	599	597	597	598	610	620	623	612	601	595	596	606	610	601	579	580	586	593	598	595	595	600	598	598	606	612	607	601	598	593	586	584	582	579	583	592	600	600	597	595	595	597	603	609	613	614	614	609	607	603	597	597	596	595	603	612	622	632	631	617	613	614	604	593	595	604	619	624	621	613	605	601	597	595	587	588	595	600	599	596	593	592	593	594	590	595	603	610	614	608	600	585	573	581	589	592	594	591	588	591	596	601	600	601	601	602	597	591	588	585	590	595	597	592	594	595	586	583	579	582	593	599	597	595	601	608	604	600	604	604	601	597	592	597	604	612	616	612	610	607	602	600	598	598	604	605	604	616	618	621	622	617	618	622	616	603	592	592	599	612	615	615	592	592	597	599	597	591	584	583	584	585	585	581	578	582	589	595	591	589	587	589	590	595	599	600	601	611	612	610	603	599	595	595	597	599	596	593	593	592	585	589	585	585	590	592	596	592	593	594	596	591	597	600	594	588	594	604	606	604	599	597	595	593	595	596	602	602	603	596	590	590	600	602	604	603	597	595	592	593	595	599	599	600	601	598	598	592	590	589	602	603	605	607	608	601	597	596	599	597	599	598	590	581	578	578	577	582	0	0	0	0	0	0	0	0
627	625	625	625	625	629	631	631	631	628	628	624	613	616	625	631	631	632	601	604	611	618	618	621	624	625	625	622	617	617	613	612	618	624	627	621	615	615	616	615	616	625	624	618	613	612	612	618	629	631	633	637	643	641	638	639	637	631	631	624	620	617	615	613	614	615	613	614	612	611	610	609	609	613	620	620	623	627	627	620	604	605	609	612	609	613	609	602	598	600	603	603	595	589	588	592	598	598	598	598	601	601	604	611	605	598	595	597	601	602	599	594	589	600	600	585	583	587	584	585	582	581	587	593	591	589	588	594	580	576	581	590	594	599	601	602	602	601	598	597	595	589	585	584	581	578	579	580	579	574	573	573	593	601	598	592	595	601	609	614	613	608	599	594	593	592	588	588	587	590	595	595	593	588	590	596	598	599	597	607	610	615	603	597	594	594	595	594	590	587	587	586	577	579	590	598	598	594	594	588	589	595	598	596	591	597	600	598	593	586	585	589	592	591	589	589	588	587	585	576	573	579	580	579	573	569	592	593	590	592	585	590	587	590	594	598	592	591	591	589	587	584	580	580	581	581	586	587	590	591	593	586	581	576	575	582	585	590	592	590	588	589	594	602	606	602	598	598	601	589	580	573	569	563	564	572	576	581	587	585	586	587	584	580	580	582	585	578	570	572	579	593	597	594	586	580	584	589	591	595	597	593	584	576	570	600	602	606	606	593	588	594	603	605	599	601	604	594	596	596	595	592	587	584	585	588	592	592	589	588	590	589	586	587	587	587	587	584	585	583	585	587	588	591	597	601	594	583	581	584	587	595	602	604	605	605	600	594	589	593	592	590	584	585	587	584	585	591	604	610	611	602	593	587	583	571	571	570	570	573	580	586	588	586	582	580	582	586	591	598	597	591	588	585	581	576	571	569	572	580	589	590	593	587	589	592	595	601	604	602	598	598	600	595	590	590	589	593	596	599	603	610	610	604	593	581	577	576	575	578	581	582	578	581	585	593	589	580	569	570	578	586	588	588	585	581	583	583	583	592	601	605	595	587	568	563	562	569	575	582	586	585	585	585	588	591	583	576	574	574	576	577	575	577	581	589	591	589	586	583	580	577	576	576	577	582	586	581	586	595	594	588	590	594	597	593	585	587	593	594	597	599	599	593	593	590	592	596	595	596	594	587	586	585	590	593	601	597	592	587	584	580	578	576	583	588	585	585	590	587	590	589	585	579	578	576	566	569	571	574	575	575	575	574	575	579	579	575	589	593	601	589	581	585	589	584	581	584	586	588	592	589	579	577	577	572	573	577	565	568	576	584	587	588	588	578	574	576	571	572	580	589	595	595	591	588	584	584	586	587	588	589	587	577	571	574	587	590	584	581	583	580	582	581	586	588	589	588	587	583	583	584	582	581	579	578	578	588	586	587	588	588	586	585	585	584	575	567	566	566	568	568	0	0	0	0	0	0	0	0
622	624	622	620	620	616	610	608	606	604	604	594	598	602	609	611	611	603	586	588	590	594	594	601	608	615	618	612	604	604	600	598	599	603	602	599	596	596	594	598	605	612	613	608	603	599	599	598	605	604	606	612	620	621	623	622	622	614	614	612	610	607	606	607	605	606	608	608	607	604	601	601	599	606	613	613	616	601	607	602	599	599	601	601	599	597	594	591	598	602	604	601	590	585	584	588	588	588	587	588	587	591	589	594	589	590	588	591	595	593	586	585	585	586	584	583	585	579	580	579	579	579	583	588	590	589	583	575	576	573	573	578	585	594	599	599	600	596	592	587	584	581	574	572	567	573	568	568	571	565	562	564	569	572	576	574	580	585	595	603	603	600	590	589	587	585	585	588	581	575	571	571	575	577	579	581	577	577	576	578	580	583	578	574	569	568	565	576	578	578	574	570	568	570	569	571	578	566	562	559	564	574	577	574	575	574	574	578	579	566	564	565	569	577	585	583	575	574	570	564	562	561	571	578	574	570	564	561	576	575	578	582	579	582	583	579	577	574	573	574	569	565	566	565	562	560	567	574	576	573	573	573	569	559	560	574	576	579	580	581	577	577	585	592	589	586	585	580	577	573	569	564	557	556	557	562	570	577	578	577	574	572	565	566	571	577	579	570	561	561	568	576	582	580	579	573	572	575	577	578	582	580	574	571	565	558	556	557	594	584	579	579	578	576	571	568	574	580	584	585	573	570	570	567	573	579	581	577	578	577	576	575	577	580	579	577	571	572	572	575	575	580	584	585	581	580	575	570	568	568	570	576	582	583	585	584	580	568	570	579	578	576	576	577	575	574	571	567	574	579	576	572	561	557	554	549	550	553	562	569	577	583	582	579	576	574	573	573	574	581	581	579	575	573	568	566	563	562	565	573	580	581	580	577	574	574	571	572	574	578	584	589	584	583	584	582	575	572	572	576	590	591	584	580	583	566	564	565	566	564	567	570	569	570	570	578	571	561	557	560	562	578	578	578	577	574	575	573	574	579	585	588	573	567	561	555	552	556	567	573	563	563	566	570	572	568	562	561	561	559	560	559	563	562	564	572	580	585	584	578	568	568	568	569	571	572	571	570	571	576	583	581	576	572	570	578	565	567	581	584	584	578	572	570	573	577	585	589	585	582	577	580	577	577	579	581	581	581	568	564	565	567	565	562	562	575	572	572	574	575	570	569	579	574	567	560	558	559	564	567	566	568	565	567	574	576	570	567	566	569	572	569	570	570	567	569	570	572	571	574	567	568	568	567	567	566	564	561	556	556	561	567	579	579	580	576	566	561	562	564	569	577	578	588	585	569	574	579	579	578	577	576	572	565	566	568	570	573	573	568	568	570	568	570	568	568	568	572	576	573	573	574	574	573	571	569	564	561	571	573	578	573	576	575	574	574	563	557	557	559	560	561	0	0	0	0	0	0	0	0
608	609	610	604	598	598	594	593	587	585	585	582	589	594	596	592	592	587	582	584	579	576	576	584	601	606	606	598	591	591	585	585	580	590	592	589	586	586	583	583	585	587	587	589	589	585	586	586	593	594	592	592	592	603	604	597	593	594	594	596	596	594	596	596	595	598	600	602	597	592	588	586	590	597	575	575	575	575	584	587	583	583	588	586	581	576	571	573	580	583	584	582	581	578	577	578	580	577	577	573	572	581	584	584	582	577	571	573	573	574	572	576	580	580	578	577	575	579	574	570	568	570	571	576	584	585	585	577	573	574	571	572	576	577	571	570	566	564	561	561	563	562	558	557	556	555	555	559	562	562	559	562	563	568	566	562	562	557	561	566	569	583	580	574	572	574	583	581	579	573	565	562	571	574	575	571	571	575	575	572	569	560	555	551	548	546	549	556	562	563	566	564	560	556	555	560	563	563	556	559	570	573	572	568	562	561	561	561	559	548	553	561	563	561	560	561	561	559	556	547	538	539	549	562	566	563	558	558	556	559	568	568	562	563	564	563	560	560	563	564	560	558	558	558	555	553	555	561	563	562	559	550	547	545	551	560	563	566	554	549	547	552	556	564	567	567	567	567	570	566	564	557	553	552	553	555	558	558	560	561	563	565	564	561	557	557	560	562	560	560	563	566	572	577	574	567	562	561	559	561	569	570	568	567	563	556	547	542	540	549	555	556	562	561	561	561	567	566	567	564	559	558	558	557	566	573	574	570	566	562	559	557	556	562	566	566	565	565	565	567	572	577	577	575	569	566	563	560	557	557	558	564	570	571	565	558	552	554	557	564	570	570	570	568	566	565	563	565	567	561	556	554	553	551	547	544	544	546	547	550	555	556	558	564	568	568	563	562	553	549	561	563	564	567	568	567	556	549	550	560	563	561	555	550	548	552	554	557	553	550	551	558	564	567	566	542	538	542	551	562	569	569	567	563	563	549	550	549	548	551	559	565	565	562	563	563	558	552	549	550	554	568	572	569	567	567	564	563	569	574	558	549	546	549	553	550	548	549	554	559	560	559	558	560	557	546	544	548	555	552	550	550	550	548	551	558	568	577	577	561	558	560	560	562	564	562	556	554	555	557	558	558	558	560	562	560	558	563	573	578	581	574	569	564	558	558	570	567	556	553	560	567	565	569	549	545	544	547	552	554	554	549	552	553	551	554	556	558	562	556	551	548	548	560	555	550	547	548	551	558	558	558	559	562	568	563	560	558	556	558	556	556	558	559	562	563	562	562	557	555	551	549	554	553	555	559	559	554	554	556	557	556	559	570	574	566	556	551	552	557	561	566	565	563	559	560	566	567	566	566	564	563	559	561	564	562	557	552	551	558	561	561	560	561	562	562	563	561	558	561	561	562	560	556	557	553	550	552	557	563	562	557	556	559	565	565	555	553	553	552	552	554	0	0	0	0	0	0	0	0
594	590	590	590	584	584	584	582	576	571	571	573	579	586	585	578	578	574	578	577	574	572	572	580	591	594	592	580	576	576	569	570	570	570	580	583	580	580	577	575	572	566	563	565	569	575	577	577	584	582	578	575	570	572	571	571	570	571	571	573	577	582	586	583	581	578	579	581	579	578	577	566	569	569	566	563	563	556	555	566	566	570	577	579	577	573	570	567	567	572	573	570	569	569	566	563	560	560	558	556	560	565	574	578	573	568	563	554	549	553	567	569	573	565	557	559	559	555	551	551	556	563	564	565	570	576	576	566	558	554	559	558	560	558	555	557	558	557	554	554	555	554	550	549	548	547	546	549	552	559	559	559	561	561	555	552	549	548	549	549	551	556	557	556	551	557	565	567	568	562	550	550	554	557	556	557	565	567	570	562	554	551	547	546	545	542	539	543	554	558	557	553	547	547	543	547	559	558	554	554	560	565	563	559	555	552	545	543	540	543	549	554	557	556	552	552	552	551	545	536	530	526	524	531	536	544	549	550	553	557	562	560	559	551	549	547	545	551	555	560	552	547	548	549	551	548	546	547	554	553	551	546	537	538	543	549	544	545	545	545	544	543	546	550	554	557	560	562	566	566	559	546	543	545	544	547	547	548	548	544	548	558	559	556	547	543	544	545	545	548	546	548	549	566	569	565	558	553	549	553	559	563	562	562	559	552	542	536	536	537	543	545	544	545	550	559	562	559	557	552	550	549	550	552	557	561	561	565	560	552	546	543	544	550	560	558	556	552	555	555	559	567	570	567	563	562	560	556	552	549	551	556	559	558	556	549	547	544	547	553	563	565	564	559	557	547	553	556	557	550	544	544	545	543	541	540	543	545	543	540	542	542	544	539	535	539	548	551	548	545	544	546	552	558	561	556	547	541	542	549	550	546	543	541	539	534	541	542	541	536	531	541	560	564	539	535	536	534	540	548	556	559	559	556	545	544	541	539	536	540	536	540	545	549	553	553	551	546	543	543	546	552	565	562	558	553	549	551	538	540	541	539	539	541	543	547	544	548	548	548	550	551	554	552	551	542	535	533	532	535	537	538	538	540	545	552	559	561	558	551	546	547	548	548	554	552	547	543	546	549	550	550	552	553	555	554	554	555	555	570	567	568	566	561	553	549	548	549	545	540	539	537	535	533	531	531	535	540	542	546	544	539	537	538	537	536	540	543	545	544	541	536	532	532	542	535	535	538	538	542	547	552	554	553	550	547	548	551	549	548	542	542	543	548	557	557	554	548	546	545	544	538	537	536	536	545	550	548	547	550	549	547	545	551	557	554	543	539	538	544	551	554	555	551	549	551	553	555	554	551	553	550	551	553	555	554	550	545	540	538	551	552	548	549	555	558	553	546	548	548	548	548	547	544	540	543	543	544	547	551	551	547	545	551	563	561	557	554	554	553	551	547	0	0	0	0	0	0	0	0
575	571	571	572	571	571	569	570	567	561	561	550	554	563	566	568	568	560	567	564	565	566	569	569	570	570	568	561	558	560	560	563	565	565	563	567	569	570	570	569	563	557	553	554	560	567	573	573	577	579	578	574	569	565	565	562	560	555	561	561	570	579	577	577	572	570	572	572	572	547	544	545	558	561	561	559	559	552	546	548	549	554	561	565	568	562	560	556	556	554	555	553	554	554	559	557	556	554	552	550	553	557	561	558	558	557	554	548	541	536	538	540	542	540	541	545	544	545	545	545	546	548	547	552	558	566	567	555	547	546	548	553	557	554	554	553	552	549	545	544	545	544	544	544	550	548	543	543	548	543	545	548	552	551	548	545	541	540	541	542	544	549	550	549	541	537	538	538	540	534	532	531	536	538	541	545	552	559	560	555	548	543	543	543	543	540	535	531	529	537	540	539	536	535	535	537	541	549	548	548	549	548	548	550	550	545	538	533	535	538	543	550	551	552	546	543	543	538	533	528	520	520	521	526	534	540	541	545	548	553	556	554	551	539	536	534	535	539	547	548	542	539	537	540	543	545	543	543	541	544	546	546	543	538	540	540	536	540	540	542	541	539	542	545	546	545	549	554	556	557	549	541	534	534	537	539	538	536	536	533	541	546	549	548	541	537	536	537	539	540	539	536	535	536	537	532	526	526	531	531	535	541	550	546	542	536	532	530	529	529	530	532	534	531	528	526	527	530	532	537	541	540	535	536	537	537	534	540	543	540	537	534	531	535	540	540	537	539	543	549	546	550	553	550	550	553	555	550	547	544	543	545	547	541	544	542	541	542	543	547	556	552	549	544	539	540	546	549	547	541	537	537	536	536	535	539	543	539	532	529	533	533	533	531	532	535	544	553	546	545	545	547	544	541	533	530	530	529	530	528	532	535	536	535	535	529	527	531	532	529	529	528	535	537	534	532	531	529	530	530	534	540	544	544	534	533	534	533	529	527	524	524	526	534	540	541	539	538	537	538	540	541	544	548	549	545	537	528	530	532	533	534	532	533	528	531	534	530	533	538	539	542	534	537	539	531	529	527	525	524	522	524	528	530	536	542	547	552	549	544	534	530	534	535	537	542	536	533	534	543	543	536	534	534	531	539	540	542	548	548	548	553	556	553	548	542	534	524	526	528	529	527	525	524	524	525	531	533	530	526	525	524	527	534	534	526	531	534	531	534	534	529	521	519	523	524	530	531	531	532	531	537	543	536	538	537	537	539	541	539	535	533	536	542	543	543	541	536	532	531	521	523	527	532	537	532	529	531	534	539	537	535	536	542	545	542	537	532	532	536	542	547	546	542	537	539	543	545	545	538	534	531	536	538	542	543	542	535	533	528	529	539	535	536	534	540	530	531	537	537	539	539	538	538	537	538	539	539	541	533	531	531	524	518	521	524	551	549	549	550	546	541	0	0	0	0	0	0	0	0
555	547	544	551	557	557	560	557	551	547	547	542	544	546	548	550	550	532	535	542	549	554	558	558	555	555	553	548	546	550	550	554	555	552	550	552	554	555	555	555	552	552	552	550	552	557	560	560	565	570	562	554	553	561	557	551	545	539	544	544	551	556	562	564	563	550	548	539	537	532	531	534	544	551	552	547	547	543	540	538	535	538	541	543	548	550	549	545	541	536	536	538	542	544	548	548	551	549	548	546	546	540	542	549	555	556	552	545	536	531	528	528	535	534	532	532	535	538	539	542	538	537	539	542	546	550	556	545	538	540	543	549	552	551	550	549	547	543	539	536	538	527	533	541	548	549	544	540	538	536	535	535	535	536	538	538	538	534	535	536	538	541	543	537	530	529	532	531	524	521	522	520	527	534	538	541	544	549	548	547	543	535	535	540	538	533	527	521	521	524	531	532	532	531	531	531	535	536	537	536	534	534	535	534	536	534	530	526	530	533	537	534	537	539	538	537	533	530	526	522	516	518	521	527	532	534	535	539	543	539	537	537	537	531	530	531	530	530	532	528	526	525	526	530	535	538	535	533	530	533	535	543	545	539	537	537	532	533	539	538	537	537	539	541	539	535	536	539	542	545	540	536	531	528	531	532	530	527	526	528	532	537	540	537	531	531	528	528	535	535	534	527	526	527	527	514	512	513	518	521	518	518	531	532	528	523	517	516	519	523	525	524	527	526	523	521	522	521	518	516	517	522	524	527	526	528	526	525	531	534	532	530	526	528	528	528	531	531	531	534	535	527	527	531	541	538	540	541	541	539	536	536	536	532	526	510	517	521	524	528	529	541	539	535	534	534	534	531	531	532	533	527	524	522	527	530	530	526	520	521	523	523	524	526	530	535	544	544	547	546	547	542	528	515	510	508	507	510	514	517	521	524	524	524	521	520	520	524	525	525	528	526	521	522	528	530	530	526	521	525	530	534	538	534	526	511	518	523	522	515	515	518	519	521	523	526	533	536	536	531	526	522	528	535	534	532	526	521	517	515	518	518	521	520	516	519	513	511	512	525	529	529	528	526	521	521	521	518	516	514	515	514	513	522	529	532	536	541	541	539	523	518	520	524	524	529	526	521	516	521	532	531	528	525	524	526	525	515	512	511	516	528	534	537	522	514	509	510	516	520	520	520	521	519	518	519	522	531	527	516	505	501	506	514	513	512	515	511	517	524	527	524	516	512	513	518	526	529	525	519	518	521	520	522	523	525	524	526	529	529	526	528	531	530	526	523	518	511	508	510	513	515	519	525	526	522	521	523	527	528	525	523	526	534	535	534	530	525	523	522	528	533	537	534	530	530	533	537	536	527	521	518	520	518	526	532	529	527	521	516	519	527	527	524	524	523	519	519	524	524	529	526	526	530	535	538	536	532	526	511	511	512	511	512	513	512	514	528	528	533	536	535	0	0	0	0	0	0	0	0
526	524	525	528	538	538	541	533	533	533	530	530	529	529	527	530	530	526	526	523	525	536	542	542	540	540	541	540	540	543	543	545	547	541	539	542	545	549	549	552	555	553	552	549	547	549	549	549	544	544	546	546	542	545	546	542	537	533	531	531	534	535	540	540	543	536	534	532	530	523	525	532	543	547	545	543	538	538	531	528	529	533	536	536	536	539	543	540	536	531	532	535	538	538	537	537	541	539	534	528	524	525	529	538	548	549	547	539	529	522	516	517	520	527	529	530	533	534	532	525	522	523	531	534	538	544	544	539	535	535	540	539	536	536	535	542	540	539	534	521	521	522	528	531	532	531	530	528	524	529	534	531	530	528	529	527	526	521	518	511	516	526	528	526	523	525	528	522	516	514	512	512	513	514	516	532	532	533	530	528	525	524	527	531	529	525	521	518	519	522	526	531	530	527	525	524	527	530	531	520	522	525	526	526	517	515	509	512	515	518	521	524	523	525	527	528	527	524	521	518	518	516	518	527	529	527	525	522	521	523	528	529	518	509	517	525	529	533	535	533	527	522	521	522	525	527	525	522	521	524	526	520	518	512	506	504	505	510	517	519	523	528	531	536	531	526	523	525	530	533	532	528	524	525	524	515	512	513	517	520	520	517	525	525	518	510	513	515	515	518	517	517	517	518	518	511	511	511	514	515	511	505	507	515	517	511	506	507	513	518	516	514	515	516	517	515	516	516	513	509	509	510	514	516	517	516	514	519	522	523	524	515	513	510	514	521	517	519	523	527	527	523	521	517	520	506	510	515	517	515	514	514	511	510	513	512	514	517	519	518	522	520	517	515	519	520	517	517	518	521	523	524	521	520	524	521	516	515	516	513	515	513	515	520	525	524	523	521	521	526	521	511	504	502	502	504	508	510	511	512	514	515	516	516	516	517	512	515	516	520	522	520	516	514	512	515	517	516	517	521	523	527	529	525	515	504	498	501	502	509	511	514	516	514	512	513	520	526	527	527	520	517	512	525	531	527	507	500	501	505	515	519	517	513	512	508	499	497	496	510	516	517	519	515	513	514	513	512	508	506	507	506	512	520	523	523	522	522	524	522	513	511	511	507	502	499	497	500	504	509	512	521	524	522	518	515	514	513	514	512	511	510	514	513	509	503	495	497	504	515	516	517	514	514	510	510	509	508	508	506	499	493	489	492	498	510	508	505	509	517	521	517	512	508	508	516	524	526	521	513	510	511	512	511	510	511	512	514	517	516	518	520	520	511	512	511	507	498	494	498	501	509	514	516	521	516	517	517	515	515	515	515	514	516	518	522	522	517	514	511	510	516	518	524	522	520	523	527	517	513	509	506	502	504	509	522	520	513	506	509	511	511	510	508	507	510	512	514	514	511	511	514	518	523	513	507	509	505	501	495	497	505	512	512	512	509	511	511	513	521	525	526	0	0	0	0	0	0	0	0
521	518	515	517	518	518	519	524	530	530	526	526	522	520	522	524	520	520	520	520	519	522	525	525	525	521	526	532	538	539	539	536	537	535	532	537	542	546	546	548	548	549	545	540	527	526	524	524	523	533	538	538	537	539	539	537	532	531	537	537	534	536	536	524	525	528	529	525	521	518	518	521	530	536	541	540	534	534	529	525	525	528	529	527	527	528	531	534	533	529	527	525	527	528	529	530	532	530	526	524	521	519	519	521	531	538	537	533	523	514	505	503	505	511	518	519	525	521	516	507	510	510	515	519	522	529	530	519	521	520	517	517	517	521	520	516	523	522	519	518	517	515	518	518	520	520	522	520	522	522	522	526	524	517	510	509	509	507	505	505	512	516	518	517	512	507	508	494	494	502	504	506	503	498	498	499	499	497	506	509	511	512	515	519	517	514	514	516	518	519	521	523	516	510	507	517	520	523	524	519	517	518	516	510	508	506	505	503	502	504	507	508	511	513	514	518	520	517	509	511	515	520	522	520	511	510	509	507	503	506	509	509	506	503	509	517	522	523	521	516	522	514	514	518	521	522	520	514	506	503	506	506	508	507	504	503	501	503	505	508	513	519	521	525	525	518	513	514	519	522	523	523	519	512	509	495	497	498	508	508	508	506	506	510	506	500	501	505	508	508	511	511	512	511	510	509	510	510	510	506	504	504	505	508	509	504	497	495	501	510	510	509	508	512	510	508	510	509	500	494	497	501	503	506	506	506	506	509	513	515	508	503	501	506	510	516	521	518	516	512	504	500	499	498	500	499	498	496	496	499	501	499	501	506	512	517	518	515	511	508	508	510	507	499	502	502	504	504	509	515	516	512	510	512	513	512	510	512	514	512	510	508	510	513	512	506	506	508	509	507	494	494	502	499	502	507	509	511	514	510	509	508	504	502	506	512	514	506	509	506	505	501	495	490	496	504	512	512	514	519	522	520	515	505	506	505	503	498	498	501	507	512	513	512	506	506	510	518	517	515	507	501	505	521	519	513	495	489	488	494	504	508	512	507	503	492	493	494	495	497	504	506	504	505	506	505	507	508	505	503	505	510	513	515	515	513	509	507	512	515	509	509	511	506	496	487	486	488	493	497	502	511	515	512	512	512	512	512	506	507	505	500	499	500	500	491	486	490	498	508	509	509	504	498	497	497	498	498	498	498	493	488	486	488	499	504	508	508	508	506	507	506	500	496	496	507	515	519	514	508	502	500	500	498	500	500	498	487	482	478	480	486	493	497	497	494	490	488	488	489	496	503	509	513	514	508	507	505	505	509	512	512	507	504	498	496	499	503	503	502	501	498	503	501	499	498	499	501	503	501	499	498	496	496	494	493	495	495	496	500	504	493	491	492	494	498	505	507	507	509	508	508	510	504	503	502	504	501	496	493	498	502	508	512	511	504	494	494	495	492	495	509	0	0	0	0	0	0	0	0
520	514	510	511	514	514	518	521	526	526	522	522	520	519	518	521	513	513	514	513	509	508	508	508	509	509	514	524	529	530	530	526	523	522	521	528	537	538	538	540	530	527	523	521	521	519	518	519	519	525	529	530	531	532	533	531	523	522	526	526	534	531	515	502	503	505	509	509	511	512	512	512	513	515	518	521	518	518	515	516	520	524	523	522	520	521	523	527	525	519	515	514	516	520	524	526	526	519	514	512	516	516	515	515	518	521	523	522	513	506	501	500	504	507	511	510	509	508	506	504	502	503	503	509	514	516	519	513	512	508	499	499	503	512	514	509	502	499	502	503	503	502	504	505	507	513	517	518	518	517	507	508	508	507	498	496	497	502	507	509	506	508	509	507	506	505	501	487	491	497	501	502	501	499	499	499	499	497	496	497	496	504	506	508	507	506	508	512	513	514	513	508	500	499	501	503	509	515	519	514	514	512	505	501	501	503	501	499	498	496	493	490	492	494	493	489	486	485	490	497	504	506	506	504	501	496	497	497	499	496	496	495	496	500	502	501	501	501	504	504	500	501	506	509	512	515	514	508	497	493	493	500	503	505	503	502	500	495	498	500	500	497	500	510	512	513	510	508	505	502	501	501	498	489	481	481	486	493	495	499	499	497	493	497	494	494	498	496	495	493	500	504	506	508	506	501	493	497	501	500	499	499	503	506	504	499	493	489	497	492	489	494	505	506	505	502	498	495	492	491	493	498	501	499	499	497	499	502	503	501	496	494	495	499	503	507	506	504	498	494	492	493	493	493	495	494	489	486	486	489	492	494	495	498	501	505	506	499	508	504	497	495	493	496	498	495	493	486	494	499	509	507	499	495	498	500	508	508	506	504	499	499	499	501	503	498	500	501	498	491	489	490	497	502	506	507	508	507	511	508	498	493	492	488	488	488	496	496	492	487	488	484	482	485	491	497	506	505	506	506	507	508	492	493	504	506	507	499	496	500	504	508	507	505	492	488	488	494	489	490	492	491	494	498	485	483	482	481	483	488	489	488	487	486	484	486	490	494	494	494	493	492	490	490	491	491	488	488	491	496	503	501	495	490	490	493	492	493	499	504	506	506	507	502	495	485	482	480	486	490	496	500	503	504	506	498	500	500	499	497	497	494	491	490	487	486	489	493	495	497	498	495	493	488	486	484	489	487	490	492	490	485	483	485	487	490	492	498	498	497	496	497	494	488	487	491	498	502	501	492	484	474	483	488	488	486	483	480	475	470	471	478	485	488	488	487	483	479	478	484	488	494	501	506	504	498	491	495	500	503	509	508	504	496	489	487	485	489	493	492	492	490	494	492	489	490	492	487	489	491	492	489	485	483	481	481	484	485	482	479	477	478	481	482	485	492	499	502	502	504	505	507	502	498	496	498	499	495	493	491	488	490	486	480	481	482	480	480	482	484	488	492	0	0	0	0	0	0	0	0
509	505	503	509	514	516	516	517	519	521	516	516	513	512	512	513	506	506	500	496	495	495	495	495	498	502	508	514	521	521	521	517	512	505	509	516	518	515	511	511	504	508	511	517	518	515	513	512	512	511	510	510	514	515	516	513	507	505	508	508	502	499	496	495	493	498	503	507	510	510	511	511	509	506	505	503	500	497	497	503	513	518	518	511	513	513	516	519	515	508	507	508	511	515	518	519	509	504	504	506	507	508	510	512	515	515	511	508	505	503	503	503	506	509	508	507	506	506	503	499	495	493	495	498	504	505	507	509	505	494	488	486	488	497	509	506	500	496	494	495	495	495	491	488	489	501	512	516	514	503	500	501	501	500	495	492	491	497	502	507	510	503	499	499	500	495	486	488	488	492	497	501	502	500	498	496	495	494	492	491	487	486	486	487	499	499	497	498	502	504	502	497	497	498	497	497	499	502	507	509	505	499	494	494	495	497	497	495	497	494	492	489	489	489	488	486	485	485	488	494	496	495	493	492	492	492	492	489	488	487	488	491	490	491	493	497	497	497	499	496	492	487	484	486	498	501	502	501	498	493	489	486	493	501	503	496	493	493	491	489	488	485	488	493	496	495	491	494	494	495	496	497	494	486	479	479	480	485	486	489	492	485	484	484	484	486	491	491	486	483	482	485	491	492	490	487	481	484	492	495	494	493	492	482	479	486	484	483	483	481	480	482	491	501	499	496	489	486	487	487	485	486	486	485	486	490	494	497	500	497	493	487	489	492	494	496	487	474	473	476	484	488	490	491	496	494	489	484	482	484	487	487	489	490	490	482	486	485	481	481	485	486	489	489	489	487	481	480	486	492	497	498	496	490	487	489	494	493	492	485	484	489	496	498	497	496	494	494	491	486	486	487	490	498	505	504	503	492	489	491	493	489	486	482	482	483	484	486	484	484	483	480	480	481	488	491	498	498	498	498	499	496	487	485	488	491	494	493	492	494	497	499	495	490	485	485	483	486	487	486	477	477	479	477	475	472	472	474	477	481	482	483	482	480	480	484	489	491	489	487	484	480	479	482	482	476	474	479	484	492	489	490	488	485	484	486	485	489	494	498	499	502	501	500	496	492	487	486	486	488	491	488	489	477	475	487	493	492	490	488	487	487	487	484	481	479	479	480	478	478	479	478	477	479	480	482	483	482	483	485	484	484	482	481	484	483	481	485	486	481	482	482	481	482	483	482	485	487	489	486	479	474	476	479	481	483	481	474	471	468	470	473	479	483	483	479	475	470	466	470	475	480	479	480	490	479	475	479	487	490	491	494	490	486	485	484	483	481	482	481	482	481	477	475	477	483	485	481	476	472	475	479	479	476	473	479	483	485	478	473	469	470	470	475	478	485	492	492	496	499	496	493	489	484	488	490	490	478	473	471	469	466	465	465	467	471	477	477	479	479	479	477	0	0	0	0	0	0	0	0
494	494	501	506	508	507	507	502	500	500	502	502	504	499	501	501	493	493	488	486	488	489	490	494	494	499	501	505	507	507	503	503	497	497	502	503	506	505	502	502	499	504	507	511	508	501	493	491	491	494	494	486	488	492	498	501	501	501	503	500	500	495	491	488	489	491	495	501	504	506	508	503	499	498	497	494	489	487	487	495	498	501	504	504	506	507	506	502	494	491	494	500	504	508	509	501	497	497	494	494	497	501	504	508	513	508	502	498	496	493	493	493	505	508	507	502	499	495	496	497	494	490	488	486	487	492	491	489	487	487	486	485	488	491	497	502	499	495	492	491	491	489	485	483	483	490	497	500	495	494	494	495	497	496	491	486	484	488	494	500	501	497	488	482	482	482	479	478	482	488	493	499	498	497	488	487	487	487	484	482	481	480	481	483	484	480	478	491	496	498	498	497	495	494	493	495	498	498	499	502	500	487	485	485	487	488	489	491	495	493	492	490	487	483	482	482	479	481	484	486	487	489	488	489	489	487	488	490	491	487	484	483	480	481	484	490	490	489	489	488	483	476	472	475	480	484	494	494	493	490	484	478	476	481	479	483	489	492	492	481	479	479	482	487	492	492	488	485	485	487	488	488	483	477	477	478	476	479	481	484	481	473	476	480	481	479	480	480	481	480	479	478	479	481	481	481	477	478	477	483	484	478	477	475	472	472	472	471	474	474	473	478	483	488	490	490	487	480	477	475	475	477	478	479	480	483	484	487	489	490	484	479	479	480	483	479	469	469	468	470	472	481	487	490	491	486	482	478	475	475	480	482	480	479	474	473	475	474	470	474	478	484	485	485	484	482	477	475	479	485	490	493	490	480	482	480	478	484	478	478	478	482	488	495	489	485	484	484	484	482	480	482	482	484	489	491	490	486	484	484	486	484	481	479	477	476	475	475	476	481	479	479	481	482	482	482	491	495	492	490	490	486	481	478	478	485	487	487	483	487	489	487	486	484	477	479	482	483	478	473	472	471	471	470	471	471	472	472	476	477	477	478	476	473	473	476	482	484	481	479	475	475	475	474	474	475	474	472	475	479	477	480	483	481	481	482	483	490	492	490	485	483	486	490	493	489	481	481	485	483	480	479	477	472	466	470	477	483	481	477	478	480	480	479	475	471	469	470	470	477	475	468	466	470	471	468	467	468	469	470	469	473	473	477	477	474	470	470	473	480	483	484	481	475	468	461	460	465	478	477	476	475	479	479	477	475	475	474	473	471	469	472	474	476	476	475	470	461	460	462	468	471	469	471	470	465	467	469	473	478	486	488	488	482	481	480	480	477	474	472	472	468	467	468	470	471	466	461	458	462	465	469	470	466	464	470	476	473	470	466	462	462	467	470	472	475	484	484	487	483	480	480	475	474	473	476	476	470	467	465	461	460	458	457	457	464	464	471	476	477	474	472	0	0	0	0	0	0	0	0
491	491	498	500	500	498	498	495	491	490	490	490	485	491	495	497	485	485	479	482	484	485	485	488	488	495	498	499	494	492	482	482	477	482	488	496	499	501	497	497	494	495	499	501	498	489	483	478	478	478	478	480	482	484	487	491	494	494	496	496	496	491	486	480	483	484	490	495	501	501	494	488	489	489	483	474	479	481	481	484	488	493	496	498	500	499	494	487	482	480	486	490	494	496	493	492	491	485	482	488	494	497	501	505	508	504	498	492	488	487	487	487	491	504	501	491	488	489	493	492	492	486	480	478	481	483	483	482	483	486	487	488	490	490	491	495	498	497	493	490	487	487	486	484	483	482	483	484	486	487	487	489	489	489	484	478	477	479	484	485	484	478	475	471	469	473	476	474	479	484	488	490	490	488	485	480	482	480	474	472	475	475	479	479	479	475	474	470	465	465	479	483	485	484	481	480	487	488	491	492	485	479	478	479	479	476	476	480	479	482	484	481	478	475	479	477	473	478	480	478	479	479	480	482	484	484	485	482	484	482	480	474	474	473	479	482	484	481	478	475	471	470	475	479	483	483	479	476	487	483	479	472	468	469	473	480	485	488	488	479	476	476	479	482	486	486	483	480	480	480	481	478	473	474	473	477	472	473	476	476	469	467	472	476	477	475	474	474	476	478	476	474	473	471	472	474	476	471	469	471	469	469	469	468	465	463	464	466	470	471	470	471	480	481	483	484	482	474	469	467	469	470	470	470	473	475	475	474	475	471	472	469	467	466	466	465	464	464	465	467	470	474	480	484	479	469	469	469	470	470	474	476	475	472	469	465	465	460	465	469	470	471	481	480	478	475	471	469	471	477	480	479	474	471	473	476	476	472	473	472	471	472	472	478	475	472	472	469	463	472	473	472	471	463	473	475	476	475	474	476	478	477	479	476	470	463	464	464	468	475	477	479	479	478	475	475	474	473	475	475	476	472	472	473	476	480	482	480	479	479	477	479	470	470	471	475	479	479	473	466	463	463	465	469	473	476	473	469	470	471	468	460	454	456	460	466	472	475	477	475	473	471	470	469	470	471	470	468	468	469	475	476	477	477	475	475	474	478	486	480	474	464	461	458	459	461	467	465	466	465	466	469	470	466	457	453	453	457	463	467	474	476	475	470	468	465	464	466	468	468	467	462	462	466	468	466	463	458	457	456	456	457	459	460	471	468	466	467	472	480	484	485	481	475	464	458	458	459	467	468	472	469	469	469	468	468	468	468	473	470	469	464	461	461	462	461	455	451	454	460	463	464	464	465	462	455	458	463	466	466	468	473	477	478	473	471	468	469	468	465	462	463	466	468	469	467	462	458	455	456	459	461	458	456	453	457	460	463	460	456	452	453	456	457	453	454	464	464	466	470	472	471	469	468	468	466	463	464	463	458	454	454	450	450	452	457	457	462	462	468	466	465	0	0	0	0	0	0	0	0
485	485	489	489	489	486	486	484	482	478	475	481	481	486	493	490	472	472	473	475	479	478	476	471	471	474	479	482	487	483	476	476	470	475	483	490	494	496	492	492	487	486	482	481	478	476	474	471	473	473	474	476	480	482	483	484	482	486	487	485	485	484	481	480	477	479	484	490	494	494	487	481	481	480	476	471	470	476	482	482	485	487	488	490	490	488	487	482	475	474	478	483	484	483	483	482	482	478	474	474	485	492	494	499	499	498	495	487	482	480	482	484	483	484	486	483	481	483	488	490	485	480	474	472	473	476	477	475	474	478	481	486	490	490	487	488	496	496	492	483	480	474	473	473	474	474	476	479	482	486	482	482	482	478	475	474	475	477	477	478	474	474	470	467	463	464	469	469	474	478	476	477	475	475	473	474	473	472	468	466	468	472	474	474	474	472	468	462	460	459	462	465	466	476	473	470	470	473	477	476	474	474	472	474	475	469	463	462	460	463	465	466	465	467	470	469	463	465	464	460	457	465	471	474	469	474	473	475	475	474	471	466	463	462	465	471	480	478	470	463	462	459	460	466	469	468	464	458	451	451	472	463	460	465	470	477	481	483	482	478	475	476	476	480	481	479	476	473	473	462	463	473	466	469	473	469	467	467	466	464	462	464	466	471	472	471	468	469	469	464	457	467	465	465	465	462	459	457	454	459	459	460	460	463	461	460	461	465	467	468	464	458	456	473	475	474	466	463	462	462	462	461	458	462	463	467	467	463	461	464	464	463	458	459	458	457	459	461	463	465	468	471	475	476	466	464	464	465	466	468	470	471	470	467	465	461	459	456	460	460	461	464	466	470	465	461	456	457	461	466	465	463	462	461	465	469	471	469	466	466	466	468	461	464	465	464	460	456	452	452	452	452	453	455	460	465	466	466	466	466	470	473	475	473	468	461	458	457	457	462	469	474	475	473	470	470	467	461	463	464	462	462	466	471	471	475	473	472	472	473	466	460	458	460	464	465	470	469	459	459	456	456	460	465	473	471	461	454	458	461	459	452	445	440	442	448	462	471	474	472	469	465	465	466	464	466	467	467	466	468	470	472	473	473	472	471	472	472	470	465	462	459	456	455	455	456	458	459	457	454	452	452	460	464	457	449	445	445	450	456	462	459	458	458	460	462	459	456	459	463	464	464	464	464	464	463	460	454	451	451	448	447	446	448	455	459	459	457	454	451	457	463	476	471	461	454	451	454	460	464	465	460	456	457	464	462	462	463	462	460	458	455	454	455	456	452	446	442	444	450	444	443	448	458	457	452	459	463	465	465	466	467	466	468	464	459	457	457	459	459	458	459	462	465	462	458	454	454	453	452	450	449	451	451	449	448	449	454	454	450	446	448	452	453	451	449	449	448	460	464	465	465	464	462	459	447	441	454	453	452	451	449	445	443	446	451	451	455	456	453	448	444	0	0	0	0	0	0	0	0
473	473	477	476	478	475	475	474	472	472	473	478	478	485	484	474	462	464	464	469	469	467	466	467	467	470	475	478	478	476	467	467	465	466	474	482	487	487	485	485	479	476	474	474	474	472	468	465	468	468	468	471	475	479	480	476	476	478	477	477	477	477	480	481	480	477	476	478	474	471	468	470	472	469	467	468	469	472	480	480	484	484	482	477	469	468	469	473	472	472	470	475	473	473	474	474	472	470	466	469	473	482	485	488	484	478	475	478	476	475	476	480	480	479	478	477	475	476	484	485	483	477	472	467	468	470	471	464	463	468	475	478	479	478	475	475	473	472	471	470	468	467	469	469	470	471	471	469	467	478	482	475	471	470	470	473	477	478	475	473	469	465	466	464	461	461	463	464	465	467	467	464	460	458	459	465	470	470	467	461	463	466	470	470	468	461	461	458	455	454	455	456	456	456	458	462	463	468	472	473	467	465	464	464	465	464	462	459	453	452	455	457	457	458	460	461	460	456	457	454	452	447	446	452	458	452	459	465	465	461	456	451	451	454	456	456	464	464	457	452	454	456	459	459	460	460	457	455	448	445	444	445	459	463	468	472	475	475	472	473	475	476	475	473	473	471	466	463	453	449	450	454	454	456	457	458	458	458	456	453	452	453	458	465	468	469	466	462	457	452	450	450	456	457	452	450	454	453	449	451	451	453	456	458	459	459	459	462	462	461	455	452	450	450	460	463	460	457	456	455	456	453	452	446	451	451	447	449	451	455	458	456	456	452	451	449	448	453	459	461	463	466	466	460	457	456	460	461	461	457	456	458	456	462	460	457	449	449	455	455	457	461	457	459	457	454	449	448	452	454	455	450	451	452	455	459	463	463	461	458	460	456	459	462	463	460	455	451	448	449	444	441	444	448	452	457	453	454	453	446	443	448	451	453	461	458	455	451	451	454	461	466	468	469	469	467	463	463	463	460	456	457	461	463	466	464	463	463	457	457	456	453	450	449	454	455	452	450	450	450	451	450	457	465	458	450	447	446	445	449	450	447	438	436	435	438	445	455	458	451	451	451	452	458	459	462	469	469	465	465	467	466	465	464	465	467	466	464	465	464	460	459	451	447	448	453	452	453	455	453	450	450	450	448	445	443	440	438	440	446	450	450	453	453	454	455	455	452	449	452	457	462	460	457	459	459	455	449	445	441	439	440	444	444	450	453	454	450	444	430	436	445	457	458	455	450	450	451	452	454	452	450	454	451	453	450	448	449	447	449	447	445	449	451	452	447	441	438	439	440	439	439	441	442	443	445	450	462	463	464	463	463	460	456	455	452	449	448	448	449	452	454	453	453	451	448	450	448	446	443	447	448	450	449	446	444	443	444	446	447	446	451	451	450	447	445	445	442	446	460	460	459	456	449	435	433	436	440	443	447	449	446	441	440	445	448	448	446	445	444	435	432	0	0	0	0	0	0	0	0
463	463	463	461	458	456	456	460	462	466	468	474	474	477	473	464	463	464	464	463	461	460	460	461	461	463	467	469	467	462	459	459	456	460	465	473	475	478	477	475	475	472	473	473	472	468	465	462	462	462	461	465	470	474	465	465	465	468	471	474	474	474	475	476	477	476	475	473	468	465	463	463	463	462	463	467	473	476	477	477	476	474	466	465	462	464	466	467	470	471	468	466	464	463	464	464	462	460	459	460	462	468	473	474	469	467	465	463	466	468	466	469	471	469	470	470	467	466	471	474	475	475	471	469	469	469	469	463	460	461	465	470	473	473	472	468	466	466	466	466	464	463	462	462	464	466	466	464	461	459	457	456	458	463	469	475	479	479	475	467	464	461	460	461	460	460	460	460	460	454	453	456	456	454	457	460	460	462	458	455	452	454	460	460	457	457	456	455	453	451	451	451	451	449	450	450	452	452	467	469	464	461	462	461	462	461	461	457	453	453	452	452	451	451	451	453	454	454	456	454	453	449	448	444	443	445	449	452	453	450	447	446	447	448	448	448	450	453	451	452	452	453	454	454	455	453	450	449	445	444	443	442	439	441	468	469	468	460	449	447	462	466	463	464	465	466	461	453	447	449	449	450	451	450	451	454	454	452	454	455	452	450	452	458	466	466	461	456	451	447	447	444	443	445	448	450	450	450	449	449	449	449	453	457	457	457	454	456	454	454	454	450	448	448	452	455	455	455	453	451	451	451	449	441	437	436	440	442	443	447	450	449	446	444	443	441	441	441	450	455	455	452	446	448	449	449	449	450	452	449	444	442	444	445	449	451	445	445	444	448	451	449	449	448	449	445	441	440	443	444	440	444	445	446	448	452	455	454	449	448	451	455	458	458	456	454	449	449	444	438	438	437	440	445	449	450	450	449	445	443	442	443	444	443	444	444	444	448	450	451	451	457	461	455	457	454	454	456	453	449	444	449	455	456	454	451	439	437	436	437	440	441	439	442	446	448	445	443	443	437	439	448	448	452	450	445	441	437	437	438	444	441	436	431	432	434	433	432	436	450	448	451	446	444	456	455	451	450	449	449	450	454	454	453	455	460	460	458	450	454	453	450	448	446	446	442	444	446	450	450	446	444	446	441	436	435	432	434	442	447	443	444	445	444	445	446	450	445	438	438	440	448	454	453	449	448	447	444	440	436	433	438	441	440	434	443	445	441	427	429	436	444	452	449	446	445	446	448	447	446	445	446	448	451	448	446	444	446	442	439	438	439	443	443	442	442	437	435	436	435	433	435	435	436	434	438	440	446	444	444	447	453	453	448	445	443	440	441	442	443	445	444	445	443	445	444	443	442	441	440	444	447	448	447	445	441	440	441	441	445	445	446	446	442	438	438	434	426	428	431	450	450	442	432	433	433	435	436	439	442	445	444	441	440	440	440	441	437	437	434	431	427	0	0	0	0	0	0	0	0
453	453	451	453	452	454	454	454	454	455	459	466	466	471	468	465	460	460	460	458	457	456	455	455	458	458	462	462	461	456	455	455	455	458	464	469	474	476	477	472	472	471	471	473	470	468	465	462	459	459	458	460	461	457	463	464	466	466	468	467	467	467	466	463	460	459	461	460	460	462	461	460	457	457	460	463	468	469	468	470	470	468	467	464	463	463	461	463	465	466	465	461	458	457	456	457	459	460	459	459	458	459	460	462	463	464	461	458	458	460	462	458	459	459	457	458	455	455	460	463	464	464	468	469	467	466	463	463	456	455	458	462	465	466	463	462	460	460	460	462	461	458	456	455	455	458	460	457	454	451	452	452	454	455	455	465	472	472	469	464	462	459	454	455	455	457	458	458	458	452	450	453	451	449	444	444	447	450	449	446	444	444	447	443	441	450	454	454	453	449	447	444	441	442	442	444	444	442	443	446	456	457	455	456	458	457	459	457	454	452	451	448	447	447	444	446	448	449	452	454	453	449	447	443	441	442	448	449	448	448	445	444	445	448	447	448	449	450	448	448	449	448	446	446	446	445	444	441	443	445	444	442	435	437	440	444	449	449	447	447	446	454	450	447	445	444	443	443	446	447	450	451	451	446	443	447	448	449	453	455	452	450	450	454	458	463	457	450	442	444	444	443	441	440	442	446	444	444	443	444	445	442	437	435	446	450	450	449	448	447	445	441	442	443	444	439	431	433	432	440	443	443	444	439	433	435	435	436	441	444	443	442	440	437	434	433	433	435	441	446	445	443	443	443	446	444	440	442	443	443	441	437	437	439	442	445	442	440	438	438	437	435	434	433	438	439	436	435	437	433	432	433	435	438	441	443	443	444	445	445	449	452	451	451	447	444	439	438	437	437	433	429	431	435	437	441	442	441	439	438	440	442	442	440	440	440	441	446	445	444	444	444	446	442	442	446	448	449	447	441	441	443	442	442	441	438	436	433	431	432	431	436	435	435	436	436	435	433	428	427	430	438	447	444	444	438	436	432	430	431	433	432	428	428	429	433	434	435	434	434	431	444	439	439	436	438	437	437	440	440	440	441	438	435	433	438	447	448	433	442	446	441	438	436	434	432	436	440	440	437	435	434	436	433	429	428	428	432	439	443	439	437	436	433	434	436	437	435	432	432	433	434	432	430	428	428	433	432	429	428	430	434	437	435	431	427	431	427	427	430	436	444	446	441	438	437	437	440	442	444	442	442	441	440	441	439	442	442	436	435	434	437	439	440	439	434	433	432	430	428	426	426	429	431	431	438	437	435	436	434	432	436	440	439	431	430	426	426	428	430	429	430	432	435	437	439	437	436	435	435	437	440	443	444	441	443	441	441	442	442	442	441	438	431	425	425	416	414	415	420	423	424	428	432	433	433	433	432	431	433	432	434	432	434	433	433	433	431	427	426	425	424	0	0	0	0	0	0	0	0
447	447	447	447	450	449	448	448	449	450	455	461	461	463	464	463	452	454	454	454	453	451	451	452	451	451	450	452	455	455	455	456	456	458	461	463	468	471	469	466	466	461	456	457	464	464	464	466	466	466	462	458	449	450	455	460	464	466	462	456	454	454	456	458	457	455	453	452	452	455	459	459	453	452	453	456	454	455	455	461	461	464	465	462	458	453	451	452	453	456	459	455	454	453	454	456	458	459	459	459	457	453	448	451	458	462	457	453	452	452	450	450	452	453	451	448	444	446	450	454	456	460	465	467	467	462	457	452	448	449	452	456	459	458	455	456	455	455	455	455	455	455	453	450	446	448	452	453	447	445	439	441	440	440	441	445	449	450	450	449	449	451	451	451	450	450	450	444	443	445	447	450	448	445	441	436	439	442	440	439	439	441	439	440	438	438	441	451	448	447	443	442	441	441	441	441	438	436	435	443	438	444	448	451	451	451	450	449	448	451	449	446	443	438	437	438	441	443	447	449	448	445	441	441	439	439	447	449	447	444	442	444	444	443	442	438	438	443	443	442	443	439	439	439	439	438	437	438	442	445	445	437	432	433	434	439	439	439	445	445	443	436	433	429	429	432	431	431	435	438	444	448	444	438	432	434	436	441	441	440	437	436	436	436	435	432	430	429	431	432	433	432	432	432	432	434	435	434	435	437	440	433	428	429	431	438	441	443	442	441	437	436	436	434	431	430	427	429	430	432	432	430	431	428	425	431	433	431	436	437	435	434	434	431	429	427	422	426	433	437	440	439	438	437	438	435	433	433	435	435	435	434	432	435	434	436	439	437	436	435	434	432	429	425	425	428	432	432	431	431	433	430	425	428	439	437	435	436	438	442	445	446	443	443	439	434	433	436	434	435	433	432	432	432	433	432	431	434	435	435	435	440	438	435	436	437	437	437	435	438	437	439	438	434	436	435	433	435	435	439	438	436	436	434	433	432	431	428	427	427	431	430	430	431	431	431	428	426	424	421	424	428	438	439	439	434	431	428	427	429	429	430	426	427	427	429	431	430	430	430	427	425	429	428	427	427	427	428	432	434	433	431	425	427	427	422	423	421	422	426	431	430	426	424	426	425	426	430	435	434	433	430	428	425	425	426	427	430	434	436	433	428	424	417	416	419	427	429	425	425	423	423	423	422	422	426	428	428	428	427	427	422	426	430	428	425	424	426	427	427	430	430	433	432	429	427	425	421	435	440	437	435	433	432	433	433	435	432	430	432	432	435	437	436	434	429	429	428	426	425	421	421	424	425	428	435	433	431	428	427	425	425	419	422	423	422	421	422	422	424	420	423	426	430	423	425	429	429	429	426	425	428	431	434	439	438	438	436	432	429	425	418	415	407	402	402	404	406	410	413	418	424	429	430	433	431	430	431	429	428	419	418	416	417	421	421	422	419	413	418	421	422	0	0	0	0	0	0	0	0
443	445	445	448	446	444	442	442	442	443	446	450	450	455	456	438	442	446	446	447	445	446	448	449	448	448	449	450	452	455	455	456	456	455	455	457	458	461	461	456	456	453	450	447	447	450	457	462	460	457	457	443	443	446	450	451	453	450	450	450	451	454	454	454	453	448	445	442	444	449	453	456	454	450	442	441	442	444	446	450	450	453	456	454	452	449	448	448	450	451	450	449	448	447	451	451	447	445	449	448	446	445	446	448	454	457	453	448	445	443	442	443	446	449	448	446	444	444	445	446	449	454	461	465	463	457	450	444	440	440	440	439	441	441	444	446	445	441	438	435	436	438	437	437	437	440	446	447	446	440	432	427	429	434	436	437	441	442	442	442	441	442	442	446	445	444	438	439	439	441	444	445	445	442	436	435	433	436	436	435	438	437	436	435	436	436	437	438	437	433	432	432	432	436	440	437	433	429	431	433	432	428	432	433	433	435	434	437	437	439	439	438	437	435	436	437	438	439	441	444	443	441	438	435	434	439	446	448	446	442	441	443	442	438	434	432	429	428	431	431	431	431	430	429	425	424	426	427	432	433	433	432	431	429	428	429	430	434	435	435	430	435	428	425	426	429	436	436	433	430	429	431	429	425	425	426	426	432	437	433	432	429	427	424	422	418	423	425	426	427	425	426	426	425	424	424	425	426	427	432	435	425	423	424	425	428	428	428	424	422	421	426	428	429	426	424	423	425	427	430	427	421	422	422	418	430	429	425	428	428	427	428	426	426	425	423	422	424	431	435	435	432	432	431	430	428	428	429	427	422	420	418	421	419	420	419	423	425	430	432	430	427	426	424	424	426	427	427	429	429	426	420	420	423	426	430	432	435	435	434	425	426	430	433	432	428	430	432	434	437	434	431	426	423	424	421	422	425	428	428	430	435	434	432	436	433	433	432	431	432	432	432	428	427	428	429	427	427	428	425	428	428	428	428	429	428	426	422	421	421	429	427	427	427	428	425	421	421	419	418	418	415	414	421	423	423	422	422	422	424	425	425	425	426	425	427	429	425	427	428	424	423	424	422	424	420	422	425	426	423	420	416	416	411	411	416	421	425	422	419	417	417	418	421	422	423	423	423	425	426	432	432	422	419	416	419	422	426	431	429	427	420	416	415	413	411	414	422	414	414	414	414	416	418	422	421	423	426	427	427	423	419	423	429	429	429	425	426	424	421	423	425	427	427	423	420	418	418	429	434	428	427	426	426	427	429	428	428	427	429	427	429	429	419	419	420	417	415	414	413	413	414	416	417	422	422	421	419	418	414	413	412	413	415	415	415	418	420	421	418	417	417	418	418	412	412	418	420	423	421	416	413	414	419	423	426	423	419	414	410	405	408	410	411	411	406	409	411	414	418	421	424	427	426	425	424	423	420	414	415	415	415	414	416	416	419	418	415	411	413	414	415	0	0	0	0	0	0	0	0
442	445	445	444	440	438	434	434	432	432	436	437	440	440	437	431	433	435	438	438	439	440	442	444	443	443	445	448	449	453	454	455	455	452	446	445	447	451	447	437	437	437	436	436	440	445	450	453	446	445	438	437	438	441	444	446	447	446	443	446	448	450	450	450	448	442	439	435	437	441	438	437	445	444	440	439	441	443	445	445	445	445	445	447	446	445	443	444	446	446	444	439	435	434	434	435	434	436	438	438	434	434	443	446	447	446	446	441	437	437	436	436	439	443	442	440	438	438	437	438	442	444	451	458	456	448	440	433	435	436	436	434	435	435	436	436	433	434	434	429	432	433	433	434	433	433	439	443	441	435	428	423	423	425	426	429	432	434	434	436	438	435	431	430	431	432	434	436	437	438	438	441	441	435	433	431	428	422	423	432	430	433	433	432	433	431	424	419	418	421	422	423	422	423	428	430	427	426	428	428	424	420	424	425	424	423	424	427	431	434	433	430	429	433	435	440	439	435	426	425	429	430	435	435	432	435	435	430	423	421	424	428	429	431	429	423	419	416	421	421	423	423	423	418	420	422	421	421	424	425	427	426	424	420	420	421	419	421	420	421	423	423	407	418	418	425	432	430	430	428	427	424	418	418	419	420	422	425	427	428	426	425	421	419	420	420	419	422	427	426	423	422	420	420	421	422	423	418	419	418	418	419	419	420	421	423	420	417	417	419	417	420	421	422	417	411	409	413	412	413	413	417	417	409	407	410	416	419	419	418	420	419	419	420	421	421	420	424	428	430	422	419	422	424	426	420	416	417	414	414	411	412	410	407	407	409	410	411	412	422	424	423	425	420	417	415	413	414	420	423	417	417	419	421	424	426	427	429	430	422	414	413	414	416	422	425	425	427	430	430	426	419	415	417	415	410	407	411	414	421	422	426	429	428	430	431	429	422	425	424	422	421	420	421	422	421	422	418	416	418	422	423	423	422	424	424	421	417	418	420	421	422	424	424	424	422	418	418	415	406	409	411	410	414	419	411	410	411	412	415	418	420	421	421	420	418	415	418	421	423	419	419	421	419	418	417	420	421	423	423	419	413	410	407	406	406	407	417	413	411	409	410	411	413	415	414	412	409	408	410	414	417	410	403	400	402	406	413	422	422	419	415	413	410	408	405	401	402	404	408	410	414	416	417	417	417	417	417	419	422	424	420	418	418	422	427	431	428	422	416	420	421	423	422	419	416	417	421	429	429	418	417	409	409	409	409	409	407	406	407	407	407	406	406	411	408	402	402	401	407	412	412	410	408	416	417	415	410	411	413	411	409	405	402	402	404	407	401	401	412	410	411	413	413	410	407	407	413	415	416	415	413	405	408	416	418	416	413	409	404	407	410	411	411	411	408	407	407	413	414	416	418	421	421	418	417	417	407	403	410	410	409	410	410	410	410	412	414	411	410	409	406	0	0	0	0	0	0	0	0
434	435	435	433	432	431	429	429	426	422	420	424	429	429	430	420	425	429	432	432	433	435	435	436	437	437	440	439	440	443	442	446	439	439	440	441	438	431	431	431	429	429	424	425	430	438	442	444	441	438	434	433	435	439	441	440	438	438	438	441	443	447	447	448	445	441	436	433	435	431	429	432	434	438	438	439	439	441	441	440	438	438	438	439	440	439	433	430	429	427	424	422	425	427	428	430	430	430	432	432	432	431	430	434	437	436	431	429	426	431	429	430	429	432	433	430	431	431	431	432	430	431	433	434	433	426	426	425	430	432	433	432	432	433	433	431	428	427	426	430	432	433	431	428	427	425	431	434	433	429	424	421	421	423	423	423	427	428	428	430	431	431	427	426	426	428	428	432	433	434	431	431	424	418	419	425	422	421	420	422	427	429	424	418	414	415	418	417	418	421	421	421	418	418	419	414	413	412	418	421	420	418	422	421	419	416	416	419	420	421	426	423	426	426	429	424	420	420	420	427	428	430	431	431	428	422	420	418	416	414	415	421	423	423	421	416	411	410	413	416	416	414	413	414	416	418	418	418	419	421	423	423	419	414	417	417	418	415	413	410	408	404	402	409	415	422	426	426	424	421	421	417	415	410	411	413	416	418	419	419	420	417	412	413	417	417	416	418	419	427	423	421	416	417	417	418	413	407	407	407	408	410	416	415	417	418	414	410	410	413	415	412	408	406	406	405	403	403	405	409	410	413	410	402	400	401	405	406	410	412	413	414	411	417	418	418	418	421	422	408	402	403	408	409	410	410	410	410	406	407	409	409	408	406	406	405	406	407	409	411	417	421	420	415	411	408	408	411	416	413	410	413	415	418	419	421	422	422	419	412	406	407	413	415	418	419	420	421	426	423	416	413	419	417	415	409	406	405	407	404	405	414	418	417	418	421	414	408	411	409	411	411	410	411	411	408	410	406	405	409	411	415	413	417	418	417	414	412	413	417	419	419	411	411	412	412	408	404	401	402	407	407	408	411	410	406	405	406	409	408	412	413	413	408	411	411	408	407	407	407	412	414	416	415	411	412	415	420	412	412	409	409	407	401	402	403	411	411	410	409	406	405	405	408	414	413	407	405	403	402	399	397	402	402	397	396	399	402	405	408	411	411	410	407	402	400	397	392	396	400	410	409	412	412	412	410	409	407	405	405	405	403	398	400	398	407	406	402	404	408	408	411	409	404	402	412	404	407	408	407	400	404	404	403	404	403	397	395	395	397	400	398	399	402	401	399	397	395	399	405	407	406	407	405	405	405	401	397	407	411	411	408	402	401	400	399	397	392	392	399	403	405	408	406	403	405	405	407	410	411	411	401	401	404	405	401	399	400	403	405	407	409	411	411	411	408	402	398	396	407	409	413	414	413	411	408	399	393	394	393	396	396	403	405	405	403	405	405	408	405	405	401	0	0	0	0	0	0	0	0
423	421	421	422	422	426	425	420	420	410	413	418	422	422	420	419	421	423	428	428	429	429	427	428	432	429	429	427	427	431	425	425	428	428	432	433	430	427	426	423	421	421	420	421	424	428	432	438	436	430	431	431	431	429	429	430	433	433	437	438	440	445	444	444	442	438	434	433	429	426	426	424	427	430	432	432	435	435	435	432	429	431	431	433	434	427	424	424	424	421	420	418	421	423	425	426	425	426	429	428	427	426	425	426	430	430	428	428	425	425	423	422	421	424	427	428	429	431	429	422	418	419	420	421	422	418	415	416	425	427	424	421	418	420	422	427	425	424	422	424	428	426	423	419	415	415	421	426	427	424	423	423	425	423	421	419	419	422	425	427	429	426	423	421	420	420	419	423	425	428	426	421	411	411	411	413	418	416	417	421	416	413	413	412	411	411	413	412	413	416	417	417	415	413	414	414	413	414	411	413	417	417	417	419	416	415	415	415	415	414	416	411	420	414	413	412	414	415	417	419	420	418	423	423	422	417	417	417	414	414	413	414	413	410	406	410	405	401	402	411	412	409	407	408	411	415	415	415	415	418	421	418	413	409	408	406	414	412	409	408	404	399	398	397	403	409	413	419	417	417	414	414	410	408	406	408	411	413	412	413	415	413	410	407	408	410	413	414	417	418	415	414	412	408	408	408	406	407	406	406	406	406	409	412	412	413	407	404	404	406	404	402	402	402	403	402	403	405	406	410	413	412	407	399	395	396	398	399	404	406	407	406	396	393	394	397	406	406	403	399	400	402	404	399	397	399	400	399	399	405	406	407	405	405	405	404	402	402	401	403	402	400	404	404	408	406	405	407	411	411	408	409	409	409	412	416	415	414	409	406	404	407	411	414	416	416	404	404	410	411	414	414	414	415	413	407	400	398	396	394	396	407	411	412	415	413	412	410	406	404	405	405	405	404	403	404	406	403	402	404	406	407	406	405	406	407	407	406	407	408	408	409	408	406	404	399	401	400	400	401	402	403	401	405	406	401	401	401	402	402	406	407	406	404	395	398	398	398	399	399	395	397	399	401	401	403	400	403	406	406	404	403	403	400	401	402	404	403	403	404	404	403	401	404	403	402	401	401	396	394	394	398	397	399	398	395	395	397	398	402	406	407	407	403	398	395	388	387	392	398	406	405	404	404	404	401	400	398	398	395	396	398	396	395	393	401	399	397	400	402	396	394	393	395	395	395	394	395	396	398	400	403	403	399	396	394	393	392	392	391	392	393	395	398	399	398	395	393	390	392	393	390	391	397	399	395	394	392	390	393	399	404	399	392	391	393	390	389	388	396	399	401	402	399	397	395	392	395	394	404	400	399	399	400	398	397	396	396	395	396	403	408	410	410	408	403	395	391	389	391	399	400	402	402	401	400	396	389	387	385	390	393	396	396	397	400	401	401	401	400	396	395	0	0	0	0	0	0	0	0
416	416	414	414	416	420	415	411	411	408	409	414	419	419	419	416	417	418	420	420	424	421	421	421	423	422	422	416	417	418	416	417	419	419	424	421	421	421	420	417	416	416	415	416	420	422	426	430	423	427	427	427	427	424	423	425	429	431	434	437	439	441	438	438	433	433	431	430	421	418	420	423	425	425	428	429	430	431	423	425	425	426	426	427	422	421	420	421	420	418	417	416	419	421	423	422	422	423	424	424	423	422	422	422	424	427	428	429	429	428	424	421	419	418	420	424	428	422	415	414	412	412	412	413	414	406	403	408	406	409	410	411	414	414	416	414	415	414	418	418	418	416	413	411	408	408	416	419	421	420	421	425	427	424	419	414	412	414	418	423	425	423	420	416	412	411	412	413	417	419	409	407	407	405	404	405	409	408	406	407	405	407	408	405	405	406	407	407	406	411	412	410	408	410	412	413	412	410	409	408	407	409	413	411	410	412	412	413	411	407	407	410	410	408	407	412	412	415	418	420	415	412	410	411	411	411	412	413	412	410	408	405	405	404	406	407	410	409	406	399	398	398	398	401	407	409	408	408	410	413	407	405	405	403	402	401	409	410	409	405	401	396	396	397	395	397	402	405	406	406	408	411	406	404	401	402	406	411	412	411	410	409	406	404	404	407	409	409	410	407	405	402	403	405	406	405	405	406	406	408	406	404	401	405	410	408	404	400	397	396	396	396	399	401	402	402	402	402	404	406	407	405	402	399	394	393	394	397	400	403	403	399	396	393	393	394	397	399	399	396	395	397	394	395	397	397	396	394	392	397	403	404	403	403	403	399	400	401	401	399	400	397	397	401	401	404	401	404	405	403	400	398	398	398	394	406	407	408	398	397	398	404	408	411	408	404	401	402	404	406	407	410	408	410	407	403	398	397	392	392	395	398	399	400	403	406	408	406	407	401	393	394	397	397	398	400	399	397	398	401	403	399	398	389	389	391	391	402	400	402	406	408	407	403	398	394	392	392	394	393	391	393	394	397	399	397	395	397	398	396	400	401	401	397	393	391	393	393	390	393	394	396	397	397	396	393	395	393	398	399	398	399	398	397	395	400	401	398	399	402	403	403	401	395	392	391	396	396	393	392	393	395	392	393	397	396	394	394	395	398	404	406	405	401	395	392	389	389	390	389	395	398	395	397	396	396	390	389	390	389	390	393	393	391	389	386	386	389	393	391	391	390	390	392	394	391	390	390	393	394	394	394	396	391	387	382	379	389	390	389	387	387	389	391	394	394	393	387	386	384	383	384	385	387	391	392	392	392	388	390	390	393	393	390	388	388	385	384	384	382	393	385	387	389	389	389	389	389	388	384	386	388	391	396	396	395	393	392	389	389	394	403	403	406	404	397	389	385	387	389	392	395	394	397	397	392	390	387	382	382	388	391	394	394	393	397	401	401	399	395	394	393	0	0	0	0	0	0	0	0
415	415	412	412	408	407	407	408	408	408	409	415	418	418	418	412	409	413	414	414	414	415	415	414	412	407	407	410	411	411	411	410	412	412	412	414	414	417	416	416	413	413	413	415	417	419	421	423	421	417	415	415	418	420	418	421	425	430	429	432	436	435	430	430	426	421	419	419	414	416	421	425	426	424	423	426	421	420	420	423	424	428	428	424	420	420	418	418	420	418	416	415	419	419	417	417	416	417	418	419	417	414	415	418	418	420	421	412	416	418	418	416	411	409	409	408	408	408	408	407	406	406	408	410	410	410	410	412	404	403	407	408	409	411	411	409	406	407	407	411	409	408	408	405	408	410	412	416	416	416	419	421	421	418	414	411	410	411	416	418	415	413	409	404	399	400	403	404	407	407	405	403	400	401	403	403	405	409	407	405	404	404	406	403	404	404	401	403	402	402	402	402	406	408	410	408	407	407	405	405	405	405	407	403	402	401	402	405	406	404	405	405	406	405	405	404	404	411	414	415	409	405	404	403	403	401	404	407	408	405	401	398	398	400	401	404	404	401	399	398	394	393	392	392	400	407	408	405	403	399	398	399	400	399	399	399	405	407	404	398	394	387	388	391	393	393	393	395	396	398	397	393	398	395	397	398	401	407	408	402	399	396	394	394	395	398	402	406	408	406	401	400	400	402	403	403	403	404	404	405	403	397	393	394	401	404	403	398	395	393	391	392	394	392	395	398	400	402	402	402	401	400	396	394	392	392	393	393	396	398	400	398	394	391	392	393	394	395	395	392	392	389	388	388	391	398	394	391	391	393	398	395	394	392	392	394	396	398	400	397	398	393	395	394	399	395	398	402	402	400	399	396	396	396	387	387	390	398	388	388	388	396	403	406	405	403	399	398	400	403	405	405	406	406	401	393	395	395	392	389	390	392	395	396	397	398	397	399	392	391	391	388	386	386	391	387	384	385	386	388	394	394	384	388	389	383	379	387	390	397	401	406	405	395	393	392	385	382	383	384	388	391	394	392	392	393	391	391	391	392	393	394	398	395	392	389	388	387	384	390	394	394	394	394	393	389	387	388	394	393	390	380	381	384	386	395	397	396	396	396	397	396	392	390	390	391	389	391	389	388	386	387	389	389	388	387	387	390	390	393	395	400	400	400	395	390	387	387	387	388	387	390	391	391	391	388	386	383	383	379	382	380	383	383	385	384	384	381	381	381	378	380	384	387	389	388	385	387	388	392	390	390	390	388	385	381	379	379	380	382	383	382	384	385	388	391	388	385	385	383	380	378	382	383	385	388	388	388	389	386	384	384	385	388	388	386	385	383	380	380	379	380	382	384	386	387	389	388	384	378	377	378	379	381	390	394	392	385	382	383	388	391	391	392	394	394	393	392	387	386	387	389	389	391	390	387	384	382	382	386	388	391	392	392	392	388	388	402	400	395	391	390	0	0	0	0	0	0	0	0
408	405	401	401	399	403	408	410	410	410	411	414	416	416	416	408	406	406	411	410	410	409	406	403	404	402	402	402	405	406	406	407	407	407	407	407	410	413	417	417	416	414	414	414	414	415	417	413	412	408	410	410	412	413	412	410	413	416	423	424	425	421	419	417	417	416	414	412	411	414	419	424	426	425	420	417	418	417	417	421	420	416	412	412	413	413	417	417	414	412	410	412	412	411	411	410	413	413	411	412	411	409	406	407	406	402	399	399	402	408	412	412	410	407	408	408	405	406	404	403	401	402	405	410	410	408	406	402	398	400	401	403	404	408	407	405	402	402	402	406	406	400	401	401	403	404	403	401	398	400	402	400	395	402	400	403	405	399	402	406	408	406	405	399	398	400	404	405	406	402	402	399	399	398	400	401	400	400	404	403	402	404	404	404	402	393	392	399	399	397	396	398	404	407	408	406	403	401	401	399	396	401	401	391	390	389	388	393	396	398	397	400	400	401	400	398	397	399	401	411	407	401	400	400	400	399	402	403	402	398	397	394	393	395	397	401	403	401	399	397	394	393	391	390	389	391	394	391	387	392	394	393	397	397	397	397	400	402	401	395	391	386	385	385	388	391	390	391	389	388	388	385	383	380	382	393	397	400	400	394	393	392	392	392	392	394	398	399	397	394	390	389	389	392	397	399	397	399	398	397	393	393	392	389	389	390	392	391	391	391	389	388	388	390	392	394	397	401	402	400	397	396	393	390	388	387	392	391	390	386	389	390	390	388	389	390	391	391	387	378	378	381	384	385	386	384	385	389	391	394	393	394	391	389	389	389	389	396	399	397	394	392	392	394	395	394	388	386	385	385	385	384	384	384	385	385	386	383	377	374	381	389	396	401	398	394	394	394	395	397	401	402	402	401	395	391	391	390	387	385	386	388	392	394	393	393	387	387	387	386	384	379	379	377	380	380	381	383	384	381	380	379	378	380	382	383	380	383	381	381	385	385	387	385	386	377	373	375	380	386	387	388	391	393	392	391	389	388	387	386	385	387	392	392	388	387	387	386	389	389	382	387	389	391	390	384	381	378	381	383	380	379	381	382	381	384	385	385	388	391	391	390	388	387	386	389	390	391	389	381	384	384	386	384	377	377	382	385	385	378	377	376	378	381	393	393	389	387	387	386	384	384	387	388	389	387	378	375	374	374	371	377	380	382	381	381	379	377	374	371	370	371	376	380	383	381	381	382	385	386	386	386	386	386	384	382	380	380	383	384	378	372	372	375	376	379	382	384	384	379	378	378	378	379	380	384	385	386	386	384	381	381	383	386	385	383	382	383	383	379	376	377	381	383	384	382	377	379	378	373	371	373	376	378	379	386	384	382	379	377	377	377	379	380	378	386	387	389	390	386	384	384	384	384	385	382	380	381	381	386	388	391	391	389	384	383	381	383	386	381	377	386	0	0	0	0	0	0	0	0
398	397	397	397	397	396	398	402	402	403	406	408	413	410	410	406	406	407	407	407	407	405	402	398	395	393	393	395	396	398	402	403	403	402	402	401	403	408	411	408	407	409	409	412	412	409	411	404	405	410	413	413	413	412	411	409	407	406	409	412	415	410	408	405	405	405	404	404	405	407	412	417	419	415	413	407	403	403	405	403	402	405	409	409	412	412	407	403	399	398	397	398	404	406	405	406	409	411	408	405	404	400	396	395	395	394	393	396	398	398	400	407	405	403	402	405	402	399	397	399	398	398	402	406	403	397	395	394	395	395	395	397	400	404	405	402	398	397	398	402	402	400	396	391	390	389	391	392	394	400	400	397	386	386	388	388	388	388	396	393	393	393	393	396	397	399	400	403	395	394	393	393	394	396	398	397	396	395	396	401	401	404	403	401	391	388	391	390	393	390	389	391	399	403	404	403	402	398	396	392	393	397	394	388	388	387	391	393	391	392	392	396	396	396	396	393	393	394	396	394	393	398	399	400	399	398	399	399	398	395	394	392	390	389	394	398	399	397	394	394	392	391	390	389	387	387	386	382	378	378	380	384	384	387	390	389	389	395	395	393	383	375	377	380	384	390	390	390	386	388	390	388	382	378	371	378	383	388	387	388	390	393	392	388	383	382	384	386	386	386	388	388	385	385	386	388	391	393	390	389	384	389	391	390	388	388	387	387	388	387	387	386	388	389	389	390	394	397	400	398	396	393	390	386	384	377	380	379	377	373	373	375	377	376	379	382	381	383	380	379	380	381	382	382	383	382	383	384	389	390	390	386	387	385	384	384	384	385	385	388	379	380	381	383	385	383	380	378	376	385	391	388	378	381	382	385	389	383	380	381	373	373	383	393	393	390	391	387	389	392	396	398	398	393	390	389	387	385	383	379	382	387	389	385	385	384	382	382	383	383	379	377	373	374	376	378	380	383	386	382	375	374	376	377	382	385	387	386	383	380	378	380	378	374	373	375	376	381	381	384	385	386	383	387	388	388	387	386	383	381	381	382	384	386	383	380	382	386	380	378	378	381	384	381	384	381	375	369	373	374	376	377	380	380	378	373	374	381	383	386	388	386	385	383	384	387	386	386	385	380	370	370	370	371	373	376	380	381	380	379	375	374	374	371	380	385	382	382	383	380	375	371	368	365	367	371	373	374	374	373	372	374	377	379	378	375	375	373	371	370	370	369	371	375	376	379	379	378	376	383	382	383	381	378	377	378	376	376	380	381	373	368	369	371	373	378	383	391	386	379	373	370	375	377	377	380	383	379	380	379	380	381	384	378	382	382	381	380	379	377	374	377	378	380	380	372	369	370	368	367	366	368	372	376	373	371	379	380	384	383	378	378	374	373	373	375	378	384	385	385	382	382	382	380	380	378	377	377	377	380	388	391	391	388	385	376	377	371	369	370	384	382	0	0	0	0	0	0	0	0
