221	217	219	221	221	221	222	222	223	223	223	222	224	218	222	222	224	224	221	219	219	219	220	220	220	220	220	220	219	217	217	220	223	223	223	226	224	223	221	222	222	220	222	223	223	219	217	217	219	218	219	221	223	225	225	224	224	223	221	223	224	222	221	222	220	220	220	221	220	219	219	220	224	225	224	222	222	220	220	220	222	222	220	220	221	221	219	218	217	219	221	224	224	224	224	224	224	224	223	222	222	220	218	214	216	217	217	215	217	219	222	222	223	220	224	224	223	221	219	217	218	219	220	222	223	223	221	220	222	219	221	220	218	217	217	217	219	220	219	219	222	224	224	221	221	220	217	219	220	221	220	218	218	217	220	215	217	218	222	223	223	219	217	217	218	218	218	219	218	219	217	221	222	216	217	218	215	213	217	217	218	220	220	223	221	221	221	222	220	217	216	221	222	222	221	220	220	220	222	220	219	221	222	222	219	219	223	223	222	220	220	217	219	218	218	217	219	219	218	217	217	219	220	221	219	217	217	218	219	220	221	220	220	220	220	220	222	222	224	223	222	222	219	216	219	221	221	221	220	219	219	220	220	215	213	213	215	216	217	217	219	219	217	216	217	218	217	222	222	222	222	222	221	225	220	216	215	216	215	214	215	217	219	218	218	220	219	219	218	220	220	219	219	218	217	217	219	219	216	216	215	214	217	217	216	216	218	218	219	220	219	219	218	218	218	219	221	221	220	222	220	224	221	218	220	220	219	218	216	217	218	219	218	216	218	219	218	219	218	217	217	217	217	217	217	218	216	215	215	214	214	215	216	217	218	218	218	220	220	219	217	217	219	218	217	216	216	217	214	213	212	214	215	218	220	221	220	221	221	218	218	218	218	218	219	217	219	218	217	217	216	216	216	219	221	219	219	217	218	219	217	217	217	216	213	213	216	216	215	216	214	213	213	219	219	217	216	214	215	214	214	217	217	217	217	215	216	216	214	217	215	216	215	215	215	213	214	215	214	213	214	214	215	214	213	213	212	215	216	215	214	215	216	216	217	217	216	213	212	213	214	213	212	211	216	216	214	214	214	210	216	217	212	212	212	212	214	213	214	213	212	209	209	210	211	212	214	211	209	208	208	210	210	212	211	211	211	210	211	212	212	212	209	210	214	215	212	211	209	210	209	209	208	209	210	211	212	211	210	210	211	211	210	209	210	211	207	213	212	212	210	213	208	207	208	209	212	211	210	205	207	208	208	210	213	210	209	210	210	205	208	203	203	204	208	210	205	203	207	206	206	207	208	208	208	207	207	207	206	205	208	210	208	206	204	208	206	208	207	204	205	204	205	205	205	205	205	204	208	209	208	209	206	206	207	208	207	207	206	205	204	203	204	205	205	206	204	204	203	204	205	204	205	205	204	205	205	208	206	204	204	203	203	203	207	207	210	209	206	203	204	204	204	206	205	0	0	0	0	0
217	216	219	219	219	217	217	217	220	221	220	220	219	217	220	221	221	221	219	220	218	218	219	219	218	218	217	217	214	215	216	216	218	218	218	219	218	218	220	221	221	222	221	222	217	217	217	216	216	217	219	220	220	221	222	223	223	222	222	224	223	221	219	220	221	220	220	220	219	218	218	219	220	224	225	223	222	220	220	220	220	220	220	220	220	220	218	216	217	218	221	222	221	221	219	223	222	222	222	222	219	215	215	214	215	215	215	217	218	219	221	220	220	220	221	223	222	220	216	218	218	220	220	221	219	218	217	217	222	221	220	219	218	217	217	215	217	217	216	219	220	221	222	219	219	218	217	218	219	221	222	219	217	217	218	213	217	217	222	219	219	218	218	216	217	218	221	218	221	218	218	218	217	215	213	216	217	214	214	217	220	221	220	220	219	218	216	215	215	213	214	216	218	219	219	221	220	219	218	218	217	218	218	221	220	220	223	222	220	219	220	220	220	216	217	217	217	217	217	218	219	220	219	220	219	218	218	218	219	219	219	218	219	219	219	219	219	218	218	219	220	219	215	214	215	217	220	219	217	218	218	219	220	216	216	212	214	214	215	216	218	219	220	218	218	218	217	219	220	221	221	222	222	221	217	217	216	214	214	214	214	222	219	218	218	219	217	217	218	218	219	220	219	216	217	216	216	218	215	214	213	213	213	215	215	215	216	221	222	218	219	218	218	216	214	215	217	216	218	219	222	219	220	220	217	216	216	216	215	215	215	217	216	213	215	216	217	218	217	217	218	219	218	218	217	218	216	216	217	216	215	215	215	217	217	217	217	218	217	217	216	215	215	215	217	221	219	219	218	219	217	217	219	219	218	217	217	217	217	217	215	215	215	218	216	215	216	216	215	216	216	214	214	217	218	218	217	217	217	217	217	215	215	214	211	215	211	216	216	218	216	217	216	218	216	216	215	215	213	214	213	217	218	216	217	215	214	213	212	211	212	214	214	213	212	214	213	212	213	214	213	212	211	213	211	211	212	212	214	215	214	215	216	211	212	214	215	213	213	214	213	211	211	211	214	213	215	214	214	214	214	215	210	209	209	210	212	213	212	212	212	210	209	210	209	211	208	213	213	212	211	210	209	207	208	210	209	210	212	212	212	211	208	208	213	211	209	210	207	209	210	205	206	207	209	209	210	209	209	210	210	212	209	208	206	204	204	206	207	208	209	209	212	210	209	208	207	206	206	207	208	209	210	212	208	208	207	210	210	206	209	203	203	204	208	208	213	205	202	204	205	206	208	208	208	207	207	207	205	208	208	207	204	204	204	204	206	208	204	202	203	204	205	204	205	205	205	205	207	208	207	208	205	205	211	207	208	206	206	205	204	202	204	205	205	206	206	205	204	204	204	204	204	204	204	205	205	208	205	204	204	202	202	204	207	205	205	207	204	203	203	203	203	204	199	0	0	0	0	0
216	219	219	219	217	215	215	215	215	217	218	218	220	219	220	218	218	217	218	217	219	219	219	218	217	217	215	215	214	215	215	216	216	217	217	218	218	217	217	218	220	220	221	219	215	215	214	218	218	218	218	219	220	220	219	220	220	220	220	219	222	220	219	221	223	222	219	219	218	218	219	219	220	222	224	223	222	221	222	220	220	220	216	217	219	220	217	217	217	218	220	222	220	221	219	221	221	221	222	222	214	214	213	213	213	214	216	218	219	215	212	214	215	217	221	222	221	220	217	215	214	217	217	217	216	215	217	218	217	219	219	219	217	216	215	216	218	217	214	216	218	219	219	217	218	216	216	216	219	219	222	223	220	218	212	210	214	215	215	216	218	219	217	217	218	216	218	219	219	217	217	216	213	214	215	216	213	215	217	216	219	221	220	222	217	214	212	213	213	213	212	215	216	218	218	218	217	218	218	216	215	215	216	216	218	220	220	219	220	219	217	219	219	217	216	217	216	217	216	216	215	218	217	220	218	218	216	214	215	216	216	218	218	218	218	218	218	217	216	216	216	218	217	215	215	216	217	217	217	217	218	218	215	217	217	213	214	213	214	215	218	219	217	218	217	216	216	214	217	221	221	221	218	217	220	217	214	215	215	215	215	215	222	220	219	215	216	218	218	216	216	219	219	217	217	217	216	214	215	216	216	215	215	217	215	215	215	215	215	214	216	217	218	218	218	218	219	217	219	219	219	218	218	219	215	214	214	215	215	215	215	216	215	214	215	214	216	216	217	218	218	218	218	217	217	215	216	217	216	216	214	215	216	216	215	216	216	216	214	216	215	215	216	217	218	218	218	220	217	216	213	215	217	218	218	217	216	214	215	215	215	215	213	213	214	213	215	214	214	215	216	215	213	213	213	215	214	216	216	217	216	215	215	214	213	213	214	215	215	215	215	216	214	216	216	214	214	213	212	213	213	213	215	215	216	215	214	213	212	212	211	209	212	209	209	209	209	209	212	212	211	210	210	212	211	211	211	211	212	212	212	208	209	212	212	211	213	213	212	212	212	211	210	210	213	212	214	214	213	211	211	212	210	208	208	210	211	212	212	212	212	210	210	211	212	210	211	208	211	211	210	209	208	207	207	208	207	210	212	213	211	211	209	208	208	208	209	206	207	208	208	205	206	206	207	208	210	209	210	209	210	209	207	206	205	204	204	206	206	208	207	206	205	203	205	205	204	204	204	204	207	207	206	209	208	209	207	207	207	206	204	203	202	203	205	206	205	204	203	203	204	207	208	208	207	208	208	211	210	209	208	206	204	203	203	204	206	206	204	206	203	202	202	201	201	205	204	206	207	206	207	206	206	205	207	209	203	207	203	205	202	202	202	204	205	205	205	205	203	203	203	202	206	203	203	203	204	205	204	204	204	204	201	201	200	204	203	201	204	201	201	202	201	200	199	0	0	0	0	0
216	219	216	216	216	215	214	214	214	214	213	213	215	218	218	216	214	214	216	217	219	220	220	218	218	215	214	216	216	216	218	218	212	216	216	217	217	214	213	210	218	218	218	216	214	214	216	216	217	217	218	217	218	215	215	216	216	216	216	217	218	220	221	222	221	220	218	218	215	213	214	213	214	216	217	219	219	219	219	218	218	217	214	214	216	217	217	217	218	216	212	212	213	214	216	217	214	213	213	210	210	212	212	211	214	215	218	216	215	212	213	212	212	216	217	218	219	215	214	214	214	214	214	215	215	211	214	215	217	218	217	217	216	216	217	218	217	218	215	216	217	217	216	214	214	214	213	215	215	215	220	221	219	215	214	213	213	214	215	215	214	215	215	219	217	216	216	218	218	218	217	215	214	215	216	213	213	216	217	219	220	217	222	219	212	214	213	213	213	215	215	214	215	213	215	215	215	218	216	215	215	214	213	214	214	216	218	216	215	218	218	217	219	217	217	216	218	216	216	216	214	213	214	216	218	216	216	214	215	218	216	216	216	215	215	215	215	213	214	214	215	217	216	216	218	217	216	215	216	217	216	214	219	219	217	215	214	214	214	216	216	217	216	216	216	215	213	213	214	220	216	216	216	217	217	217	216	212	213	215	215	216	216	217	215	215	215	215	218	216	216	216	218	219	216	215	214	215	212	215	214	215	215	215	215	214	215	215	213	214	216	216	217	217	218	215	215	216	214	214	214	214	213	213	212	214	214	215	214	213	210	213	214	212	211	211	214	215	216	213	215	217	216	214	214	214	215	215	215	217	216	216	216	216	215	214	211	210	210	213	213	215	215	214	214	214	214	213	215	213	213	215	215	215	217	215	214	213	214	215	215	214	213	212	212	212	213	214	215	215	214	214	213	215	213	213	214	210	209	210	215	215	214	214	213	214	214	214	214	215	215	215	214	212	213	213	212	211	212	212	212	211	213	215	216	215	214	213	213	214	214	213	209	210	210	210	210	208	207	208	209	210	212	212	209	211	211	211	212	212	211	211	211	211	213	210	212	211	211	212	211	211	210	211	210	211	211	211	208	209	211	211	209	208	209	209	210	212	213	210	210	209	210	209	208	207	207	208	209	208	208	208	209	209	209	208	208	208	209	210	212	212	209	208	208	208	207	205	206	205	205	205	206	209	208	205	205	204	210	208	208	207	206	206	204	204	205	206	204	204	205	204	203	205	203	204	205	205	205	203	202	207	206	207	207	207	205	203	206	206	206	205	204	204	206	206	206	204	204	202	204	207	208	208	207	207	207	208	207	205	204	204	204	203	203	204	205	206	208	206	203	203	203	202	201	201	203	205	205	205	204	204	203	205	204	205	203	200	201	201	202	203	204	205	204	204	204	203	202	202	203	204	204	203	204	203	204	204	204	202	200	198	198	198	198	201	201	200	200	204	201	202	201	201	201	0	0	0	0	0
215	216	216	214	214	213	213	213	213	211	212	213	213	213	215	216	211	211	213	216	220	219	219	218	217	215	216	216	216	213	215	210	215	211	214	214	214	212	210	214	212	212	214	212	214	212	215	216	216	216	217	216	218	215	215	216	217	216	216	217	216	220	218	219	219	216	215	215	215	212	212	214	215	216	216	218	217	217	217	217	216	216	215	214	216	217	217	215	216	217	215	214	216	219	219	218	217	217	215	216	217	217	216	216	216	216	216	216	214	213	211	211	211	214	215	216	216	216	213	213	214	214	213	212	212	213	211	210	211	211	210	210	214	214	213	216	216	217	216	215	214	214	214	213	212	213	214	215	216	217	217	217	218	215	215	214	213	214	215	215	216	216	217	217	216	216	213	215	214	216	216	215	215	216	212	213	214	216	217	219	219	217	218	218	212	213	214	215	215	216	216	214	214	214	213	213	213	215	215	215	215	214	213	213	213	215	215	216	216	217	216	215	217	218	217	216	217	217	215	214	213	213	213	215	215	212	215	217	217	218	218	211	213	212	212	211	210	209	210	212	213	214	216	216	217	217	216	215	216	216	217	218	217	218	215	217	213	215	214	214	215	215	216	216	214	214	210	210	212	216	217	214	215	215	218	218	218	217	212	211	214	215	212	215	214	216	215	213	215	214	214	214	218	218	212	211	212	212	212	212	212	212	213	213	214	213	213	213	215	215	215	215	217	217	216	214	214	213	213	213	213	213	210	212	213	213	215	215	213	210	209	210	211	210	210	210	213	214	212	212	212	212	213	214	213	213	213	213	213	214	215	214	215	214	214	212	210	208	210	212	215	216	213	213	212	213	213	213	212	213	213	213	213	215	213	213	212	212	212	213	212	212	212	213	213	213	213	213	214	213	211	214	215	214	213	213	211	210	212	211	213	214	215	214	214	214	210	213	211	214	211	213	212	213	212	212	212	211	212	212	213	212	211	213	215	206	207	208	211	213	213	211	212	212	212	210	209	209	209	209	210	212	213	213	211	208	208	208	208	211	211	211	212	213	209	208	210	211	210	209	207	209	209	209	209	210	207	207	207	207	207	209	211	212	209	208	209	209	208	207	207	207	206	203	204	205	206	208	207	206	208	210	210	210	210	207	204	203	204	207	209	207	207	206	207	206	206	205	205	204	204	205	206	208	205	204	202	204	207	208	207	206	207	206	205	204	205	205	203	203	204	204	204	205	205	205	204	204	205	203	203	203	204	204	206	206	205	203	203	203	205	203	203	204	203	203	203	203	203	202	203	204	205	206	207	207	208	207	205	204	204	203	202	202	200	201	201	203	203	205	202	202	203	203	205	204	204	205	205	204	203	203	203	205	201	202	202	200	201	201	202	203	204	204	204	204	202	201	199	199	202	205	201	202	203	202	202	200	200	200	200	200	197	198	198	199	201	200	200	200	201	202	204	202	201	0	0	0	0	0
212	213	214	208	209	212	212	212	212	214	213	212	212	212	212	212	211	211	213	216	219	217	218	218	213	212	213	216	213	213	211	213	209	211	210	210	211	211	210	211	211	211	211	211	214	214	214	214	215	214	214	215	215	215	214	215	217	216	216	216	215	215	217	216	215	215	216	218	215	215	213	212	214	216	216	218	218	219	218	218	217	214	214	215	216	215	214	215	215	215	214	215	215	218	218	216	216	217	216	214	215	216	216	216	216	216	216	211	212	212	209	209	210	209	212	213	213	215	212	213	213	213	212	210	210	210	209	210	210	210	211	210	210	214	215	215	215	212	212	212	214	214	213	213	214	214	214	215	214	213	212	212	213	215	214	216	218	218	215	216	213	211	215	215	214	214	214	215	214	214	215	215	216	213	213	213	217	217	217	218	219	218	217	214	212	214	214	215	214	216	216	215	214	214	213	214	214	213	212	213	214	214	212	212	214	215	215	215	216	212	214	214	217	216	216	216	217	216	214	213	212	212	213	214	213	212	214	215	216	217	216	210	211	211	211	210	210	206	208	211	214	215	213	215	214	215	214	214	216	216	217	214	215	215	213	214	214	213	214	213	214	211	211	214	214	210	209	210	213	214	211	211	212	211	211	215	215	212	207	208	210	212	211	211	213	214	216	215	211	212	213	211	213	212	210	210	210	212	213	211	213	212	213	213	212	211	212	211	212	214	215	215	215	214	212	210	213	213	213	211	212	212	210	211	213	215	215	215	211	210	209	209	208	208	209	213	211	209	209	210	210	212	212	212	211	212	212	213	212	212	212	213	213	214	214	211	210	210	209	212	210	211	211	211	212	211	213	211	211	212	211	211	212	214	213	213	212	212	210	211	211	212	212	211	212	211	211	213	214	210	210	210	213	211	210	210	211	211	210	208	210	211	212	209	208	209	210	212	213	212	210	211	213	214	212	212	211	211	211	212	212	208	210	207	206	205	206	206	211	212	213	211	208	212	212	211	209	210	209	209	209	209	211	212	210	208	207	206	207	211	211	211	210	210	211	209	214	211	214	207	206	206	207	206	205	205	206	207	209	207	206	208	208	211	205	205	206	207	206	206	205	202	206	206	208	207	209	208	208	207	207	209	210	209	208	206	203	201	202	204	206	206	207	205	204	206	207	205	205	203	203	204	205	206	205	204	202	204	205	208	206	205	205	205	205	204	204	203	202	203	204	204	206	204	203	203	203	204	205	204	204	203	203	203	204	204	204	203	204	205	203	201	201	205	205	203	203	203	202	203	203	203	204	206	207	208	208	207	205	203	203	203	204	202	206	201	199	198	197	197	197	201	203	205	202	204	204	204	204	204	202	201	201	200	201	200	199	198	199	200	200	197	199	199	203	201	198	200	199	200	200	203	201	201	202	202	200	200	198	197	198	197	197	197	199	201	200	200	200	200	203	203	200	200	201	0	0	0	0	0
207	209	208	208	208	210	211	212	212	213	213	214	212	212	211	208	211	212	212	217	216	211	209	209	210	210	213	211	211	211	209	211	212	211	209	209	209	208	208	211	212	210	210	208	209	211	213	214	216	214	214	215	215	215	214	214	213	214	214	214	215	217	213	213	212	213	214	216	216	216	213	212	213	213	212	215	211	211	213	218	217	211	211	211	212	212	212	212	214	215	214	214	214	213	212	215	216	216	213	213	214	213	213	213	215	215	213	212	212	212	208	208	209	211	212	212	214	215	213	211	210	210	209	210	210	210	210	211	210	210	212	212	209	212	214	216	218	217	212	212	214	217	217	216	214	214	213	214	215	215	213	212	212	212	213	214	215	215	215	213	214	212	210	210	210	211	212	212	213	215	213	213	212	212	210	211	208	212	212	214	213	215	214	213	213	212	212	210	211	213	211	213	214	215	214	215	214	212	211	212	213	213	215	216	216	213	213	209	210	208	212	213	213	216	216	215	214	216	216	213	212	212	213	211	209	210	213	213	214	215	215	214	209	210	210	210	210	209	205	208	213	214	213	213	212	209	211	210	212	214	214	213	212	212	212	212	212	213	214	214	214	213	211	210	211	210	208	211	211	214	211	210	208	207	211	211	213	211	206	207	211	216	216	212	213	214	215	215	211	211	212	213	213	210	210	209	212	212	212	212	211	210	210	210	211	211	209	211	212	214	214	214	214	210	210	209	212	214	210	211	211	210	211	212	214	214	217	216	212	210	210	210	208	209	213	212	211	206	206	207	212	212	212	211	210	210	211	210	212	211	212	208	208	214	213	211	210	211	212	210	209	209	210	211	212	212	210	209	208	210	212	210	213	213	213	210	210	208	208	208	209	213	211	211	213	212	210	211	209	208	207	207	206	207	208	208	208	209	209	210	209	210	210	208	209	209	210	212	210	209	211	212	212	213	213	212	211	208	208	208	208	206	207	209	206	206	207	207	209	211	211	210	207	208	209	207	207	208	209	210	206	206	207	207	207	207	208	207	209	212	210	207	208	210	211	210	211	215	209	208	209	209	207	206	206	206	207	208	209	206	206	207	208	211	205	207	209	206	206	206	206	208	209	209	208	208	208	210	209	206	205	206	207	207	207	205	202	201	201	202	206	206	205	203	201	204	206	206	205	204	203	203	205	205	205	203	203	204	204	203	205	204	204	203	200	203	201	202	202	203	200	202	203	203	202	202	202	203	203	203	204	204	203	201	199	201	201	202	203	203	202	204	200	202	203	204	204	202	201	202	202	203	203	205	207	208	207	205	204	202	201	202	205	202	201	203	202	199	197	197	198	201	201	204	200	200	203	203	202	203	201	199	199	199	200	198	199	198	199	199	198	196	198	198	200	199	198	201	200	198	200	199	199	200	199	196	198	198	196	198	199	199	197	199	199	197	199	199	199	200	203	201	199	197	198	0	0	0	0	0
206	206	207	207	205	208	211	212	212	212	212	213	211	211	211	212	207	211	211	213	211	210	208	209	209	211	211	208	207	209	209	210	208	211	210	205	205	204	205	208	212	212	211	211	210	211	212	215	214	214	212	212	214	213	211	212	212	211	213	213	212	213	207	209	211	213	214	217	216	216	216	214	212	211	212	216	217	209	211	212	214	209	209	209	210	210	210	209	209	209	210	213	212	212	212	211	213	214	213	212	210	212	213	213	213	213	213	213	212	210	208	207	209	211	212	212	212	214	210	209	206	208	208	208	210	210	211	211	210	210	210	212	211	212	213	213	211	207	207	210	209	210	205	212	212	212	213	214	213	215	209	212	209	213	211	213	207	208	208	209	209	209	208	208	208	210	211	212	213	214	211	213	213	214	212	211	210	212	212	215	213	215	212	211	208	208	207	208	210	211	212	213	213	211	208	208	210	210	209	209	210	212	212	212	213	213	213	212	210	210	212	212	210	210	213	213	214	214	213	211	210	211	210	210	209	209	215	212	212	211	212	212	212	210	211	211	211	211	212	211	210	211	212	211	211	207	205	208	208	207	211	209	209	212	210	211	212	213	213	214	215	212	211	211	213	212	211	208	211	213	210	209	205	207	208	211	211	206	207	210	209	210	210	211	210	212	214	214	211	211	212	211	208	208	208	210	210	209	210	209	209	210	209	212	211	211	210	209	208	209	210	210	209	209	210	212	210	213	210	207	211	210	212	213	213	213	212	210	210	211	210	208	208	209	212	210	209	205	206	206	209	212	212	212	212	210	210	210	210	210	210	212	209	213	211	210	210	212	209	209	209	209	209	211	212	212	209	207	207	208	210	212	212	212	208	210	208	207	209	207	207	206	207	207	211	209	209	208	208	207	205	205	205	207	208	208	208	208	209	210	210	210	209	209	207	208	211	207	208	210	210	211	212	211	211	208	208	208	208	208	206	206	206	205	205	205	206	207	207	207	206	204	208	208	208	207	206	206	209	207	208	206	207	208	207	206	207	208	210	210	210	206	207	208	209	208	208	207	207	208	206	207	207	206	206	206	207	209	208	206	208	207	206	206	205	205	206	205	205	205	206	207	207	208	205	204	202	203	208	206	205	204	205	205	204	204	202	202	201	202	204	205	203	201	199	199	203	205	205	204	203	202	203	204	205	203	201	201	202	205	204	202	201	202	200	199	202	202	201	201	199	200	201	202	201	199	201	202	202	202	203	204	201	201	199	201	202	199	201	200	203	202	200	200	201	201	202	203	202	203	203	203	202	201	201	203	202	203	202	201	195	199	199	200	201	201	202	202	200	199	198	199	200	201	200	199	201	201	201	199	199	197	198	199	198	199	199	198	199	199	199	197	197	198	198	199	200	200	199	199	198	199	197	197	196	195	195	196	195	196	199	198	199	197	197	197	195	195	197	199	199	198	197	196	196	0	0	0	0	0
203	201	203	205	205	208	210	210	210	210	210	209	209	209	209	207	208	209	211	211	209	208	208	208	208	208	209	210	206	209	209	211	211	205	205	203	203	204	204	206	208	208	207	207	208	211	209	206	207	211	212	212	212	213	210	207	209	210	211	211	211	210	207	208	211	210	212	215	213	212	212	210	209	210	211	212	207	207	210	207	208	205	208	210	210	210	210	208	209	209	209	210	211	211	211	215	214	211	212	207	209	210	211	213	214	214	214	211	210	208	206	208	209	210	213	213	211	211	208	209	206	205	206	208	209	210	209	210	210	209	210	211	211	212	212	213	210	207	207	210	208	209	210	206	209	207	208	209	211	212	207	212	205	205	203	204	206	209	209	209	210	209	208	205	207	209	210	210	211	214	213	209	211	211	212	210	210	213	214	213	212	215	209	209	208	210	208	209	210	211	212	213	209	207	207	207	207	209	210	209	210	212	212	212	212	212	212	212	210	209	212	212	209	207	209	211	211	211	210	211	209	210	209	209	210	210	213	215	212	210	212	211	214	211	208	210	209	210	211	211	210	210	207	207	209	206	206	209	209	208	204	204	205	210	210	212	213	213	213	213	213	212	209	210	210	209	210	210	210	209	208	208	208	208	211	209	210	209	209	209	208	208	211	211	211	211	212	213	212	212	211	209	208	209	209	210	209	209	209	210	209	209	211	213	213	211	210	208	208	209	210	209	208	210	211	212	209	207	208	208	208	210	213	213	209	212	212	211	209	210	209	209	207	208	210	210	209	207	206	206	209	211	211	211	209	210	210	210	210	209	207	208	210	212	211	210	208	206	210	210	208	207	207	210	210	210	210	208	207	208	209	208	208	206	206	210	208	208	210	210	208	207	206	207	206	207	205	205	205	205	205	205	204	207	207	207	208	208	208	209	209	209	208	208	206	206	208	211	207	205	209	211	211	210	208	207	206	207	207	207	208	206	206	205	206	205	206	207	207	207	206	207	207	207	206	206	206	207	207	205	207	207	207	209	209	209	206	208	208	207	206	207	207	208	208	207	205	205	204	204	205	205	204	204	205	206	205	204	203	203	204	205	205	205	205	203	204	205	203	204	204	204	206	206	205	202	202	203	204	205	205	204	204	204	203	201	200	202	201	202	202	204	202	201	199	202	204	205	205	205	203	202	202	203	203	203	200	199	198	200	202	201	199	199	199	200	199	200	202	199	199	199	202	201	200	198	196	196	196	199	201	203	201	200	198	197	198	198	199	200	200	201	200	200	201	201	200	199	198	198	196	202	203	202	201	201	200	199	198	201	195	196	198	199	200	201	201	201	198	198	196	198	199	199	198	199	199	200	197	197	197	196	196	196	198	199	198	198	196	199	198	198	197	198	199	198	199	199	197	198	198	197	196	196	195	195	195	195	194	194	195	193	192	191	191	190	190	190	197	196	195	196	196	195	194	194	0	0	0	0
202	200	201	204	204	208	207	208	207	207	208	207	206	204	204	206	207	209	208	208	207	207	207	206	207	207	210	209	209	209	209	209	207	205	205	205	204	204	204	205	206	206	207	207	207	208	207	207	208	210	211	211	211	212	210	207	207	206	205	206	205	205	207	207	210	211	211	212	212	211	209	209	207	208	211	209	202	207	208	202	206	204	206	208	208	210	209	208	207	208	209	207	207	207	208	208	207	207	210	208	206	207	208	212	213	206	206	207	208	206	206	208	209	209	209	210	209	209	209	206	207	206	205	205	208	209	209	207	207	209	210	211	210	211	210	208	205	203	204	209	212	211	208	205	206	207	209	209	210	211	208	206	205	203	204	205	205	209	209	209	203	206	206	204	206	206	206	207	207	210	209	207	208	208	211	209	210	211	212	212	209	210	208	208	209	210	210	210	210	209	211	214	208	208	207	208	206	209	211	210	210	212	211	211	211	210	210	211	209	211	211	212	210	209	206	210	210	210	209	209	207	205	208	209	214	210	212	212	210	210	209	210	214	209	206	209	210	210	209	211	211	208	206	207	208	208	208	208	210	209	205	205	203	204	207	211	213	213	213	209	209	207	206	206	209	206	207	209	209	209	210	207	206	208	212	208	211	209	208	208	209	208	210	211	211	212	211	212	212	211	211	210	210	209	209	212	210	210	210	210	208	209	212	214	212	209	209	210	211	208	208	208	206	211	212	211	208	208	207	208	207	208	208	208	209	211	212	210	208	205	208	209	209	208	209	209	208	208	209	207	210	210	210	209	209	210	211	212	213	208	208	208	209	210	209	207	207	209	209	210	207	205	207	208	208	208	210	208	208	208	208	208	208	206	205	205	206	209	208	207	208	207	208	205	205	205	206	207	208	206	205	205	204	204	206	208	207	206	205	206	204	207	206	207	205	205	206	207	207	207	207	208	208	207	206	206	204	207	207	204	207	207	207	207	206	206	206	207	207	207	206	206	206	207	206	206	206	206	206	205	205	206	206	208	208	205	205	205	205	204	206	206	206	205	204	204	203	203	203	204	203	203	203	203	202	201	201	202	202	201	203	204	204	205	204	201	204	203	201	201	203	203	204	204	204	201	201	203	203	206	204	202	201	200	199	200	200	200	199	199	201	201	201	200	199	201	204	205	201	201	201	201	201	200	201	201	200	199	198	197	197	199	198	199	199	199	200	201	202	201	199	202	202	202	202	199	196	195	197	198	199	199	200	200	198	198	199	198	198	198	199	200	199	200	200	199	198	197	199	198	198	196	196	197	198	197	197	197	197	197	195	194	195	198	198	201	200	198	197	197	196	198	198	198	198	198	197	199	197	197	196	196	195	195	198	198	196	196	196	197	197	197	197	196	194	194	196	198	197	197	198	197	195	194	193	193	195	194	195	193	193	193	193	192	191	190	190	190	192	191	188	192	193	195	194	194	0	0	0	0
201	202	202	204	205	205	205	205	206	206	205	204	202	202	202	203	206	208	207	207	207	206	207	203	203	203	204	205	208	209	209	209	204	204	206	205	205	205	205	203	204	205	205	208	208	207	208	206	208	208	210	211	211	210	206	205	204	204	206	205	206	206	205	207	210	209	209	211	210	206	204	206	206	209	205	205	206	206	205	204	204	204	204	204	206	206	205	205	205	206	204	204	205	204	205	204	205	206	208	211	209	208	209	207	207	207	207	207	206	205	206	205	207	209	209	209	209	209	206	203	205	203	204	204	204	205	205	205	206	209	212	212	209	209	210	205	206	203	204	208	207	209	208	207	208	210	206	211	210	212	211	207	203	206	208	206	206	209	209	207	207	203	205	205	206	207	207	207	207	209	207	207	206	207	210	208	208	209	209	208	208	209	209	205	208	210	209	208	207	207	207	208	210	209	208	207	207	208	210	208	208	211	210	209	210	210	209	208	209	210	211	211	210	209	208	206	211	212	211	209	205	204	206	210	210	214	212	208	209	208	208	206	208	208	207	209	208	210	211	211	211	209	206	209	210	210	210	208	210	210	205	205	205	203	205	208	208	208	208	207	208	206	205	206	207	207	207	209	207	207	207	206	205	206	207	209	208	207	208	207	208	206	209	206	208	210	211	208	207	211	211	211	209	208	209	209	210	210	210	208	208	208	210	210	210	207	208	209	211	207	205	205	206	210	209	207	205	206	207	208	207	208	208	208	208	209	209	209	204	203	204	208	209	208	207	206	208	208	209	208	207	207	209	209	209	210	211	211	208	207	205	208	205	207	207	206	206	204	209	207	205	205	206	208	206	206	207	208	208	208	206	205	204	204	204	204	205	205	208	208	208	209	207	207	204	204	206	207	205	204	205	205	204	203	203	206	207	205	205	204	202	203	204	204	205	204	207	207	207	206	205	205	206	206	204	206	204	203	203	208	207	206	207	207	206	206	205	205	206	205	205	203	204	202	202	204	206	205	204	204	205	205	205	205	205	205	204	201	204	203	204	203	203	203	204	203	204	203	203	204	204	202	202	202	202	202	201	199	199	200	202	203	204	205	202	202	202	200	201	201	202	203	204	204	203	201	199	200	205	204	201	200	200	200	200	198	200	202	199	198	199	199	200	199	199	199	203	201	201	201	201	199	199	199	199	201	199	197	198	197	197	199	198	198	197	197	200	201	201	199	201	200	201	202	201	198	196	196	196	197	197	198	198	200	199	198	198	198	198	199	197	198	197	195	194	199	197	196	195	198	197	195	194	197	196	195	195	196	195	195	194	195	195	197	197	197	198	197	197	198	198	198	198	198	198	197	197	195	195	198	197	196	195	195	197	198	198	197	196	197	197	197	196	195	193	191	191	194	193	194	196	194	194	193	193	193	193	192	193	194	194	193	192	191	190	190	190	190	187	190	188	187	190	193	193	194	0	0	0	0
202	203	205	207	205	205	205	202	203	203	203	201	199	199	202	202	203	207	207	205	205	205	205	204	203	203	203	201	202	206	204	204	201	203	203	205	206	205	205	204	204	203	205	207	208	208	208	206	207	207	209	208	205	205	204	205	205	205	206	206	205	205	205	203	205	208	208	203	202	202	204	208	208	206	204	205	206	205	204	205	204	207	205	205	207	205	205	204	201	201	202	204	203	204	201	205	206	209	209	208	206	207	207	207	206	209	208	204	204	203	204	204	205	207	208	207	206	207	205	203	204	203	203	203	204	204	204	204	205	208	211	212	209	209	209	205	205	204	204	208	211	204	205	204	205	202	202	206	211	210	209	206	205	207	207	206	208	209	209	210	207	206	205	205	206	206	206	208	207	208	207	207	206	207	208	206	207	208	208	206	207	207	207	206	205	207	207	207	207	206	207	207	207	208	208	207	206	206	207	207	208	209	209	209	209	207	207	206	208	209	208	208	205	204	209	210	211	212	212	206	205	204	207	209	210	210	207	206	209	208	209	205	206	208	208	208	208	209	210	211	212	209	210	209	210	212	211	209	208	208	205	205	205	205	206	206	207	207	206	207	206	206	204	203	206	204	204	205	208	208	209	206	206	206	208	208	209	207	206	207	204	206	204	206	207	208	208	208	208	208	211	211	207	207	207	209	208	210	207	207	207	207	208	208	204	207	207	209	208	206	205	204	207	208	205	205	206	206	207	208	207	208	208	208	208	208	208	208	205	203	203	208	207	209	206	207	207	207	206	206	206	207	208	209	208	209	207	205	207	204	204	204	204	205	206	204	205	206	206	205	202	205	206	204	204	205	204	206	208	208	207	206	205	203	201	204	205	204	207	205	206	207	206	205	205	205	206	206	204	203	205	205	204	204	202	202	202	204	203	203	202	203	203	206	204	204	205	204	206	203	203	204	205	204	204	205	203	202	201	200	205	204	202	205	204	205	204	204	205	204	200	199	200	202	201	203	203	205	202	201	202	204	204	202	205	204	203	201	201	202	204	205	202	201	202	203	201	202	202	202	201	200	201	201	202	201	196	199	198	200	202	200	201	199	200	202	198	202	200	201	202	202	204	204	202	200	199	199	200	201	201	199	199	199	198	197	198	197	199	199	199	200	201	199	200	199	200	201	200	199	199	198	198	198	197	197	199	199	197	199	200	199	197	196	195	199	200	200	199	200	196	197	198	198	197	198	195	195	197	196	196	195	198	199	198	198	197	198	198	197	198	196	196	194	194	194	194	194	196	197	197	194	194	196	196	195	196	195	194	194	194	194	195	195	194	194	193	192	193	190	191	198	198	198	197	197	196	195	194	196	197	196	195	194	195	197	197	197	196	196	196	197	197	195	191	191	193	194	193	191	192	192	194	194	194	193	193	193	193	194	194	193	192	191	191	189	189	189	187	187	186	187	190	192	192	193	0	0	0	0
203	203	204	206	204	204	201	200	198	200	200	199	199	198	200	200	202	204	203	202	202	201	201	204	204	203	203	201	200	205	203	201	201	201	201	202	204	204	204	205	205	204	205	206	208	208	208	203	200	204	205	207	206	206	205	203	204	207	206	204	204	204	204	202	201	201	201	199	201	201	202	205	204	204	204	206	205	206	206	205	205	205	203	206	207	205	203	203	199	198	202	203	202	201	201	201	202	204	205	207	207	207	208	207	206	203	203	202	203	202	202	202	205	204	206	206	204	205	204	201	204	204	204	203	204	204	204	204	204	204	202	202	203	204	204	204	205	206	206	206	204	204	206	206	204	202	203	207	203	204	202	204	205	205	207	205	205	204	208	207	206	206	205	206	206	206	207	208	207	207	206	205	205	205	205	204	204	201	201	203	205	206	206	204	206	206	206	207	207	206	205	206	207	206	206	207	207	206	206	208	209	209	209	208	208	207	207	205	205	203	204	205	205	204	205	206	209	209	207	208	205	205	207	206	206	206	205	204	204	204	203	204	206	206	207	209	208	208	208	209	209	210	208	208	210	209	209	209	206	207	207	206	206	206	206	208	201	202	203	203	204	205	206	204	201	201	205	207	206	207	208	204	206	207	208	209	207	206	204	207	205	207	207	208	205	207	207	206	206	208	206	206	207	206	206	206	207	207	206	206	205	205	205	204	205	207	205	208	207	206	206	205	207	205	204	206	205	205	207	208	208	206	205	205	207	207	207	206	204	205	204	205	206	206	206	204	205	206	206	206	206	206	205	204	206	204	204	205	202	203	203	202	205	207	206	205	206	204	205	205	204	203	204	205	204	205	204	203	204	207	207	206	204	204	203	201	204	204	204	204	204	204	204	204	203	205	204	204	202	203	203	204	202	202	202	201	201	203	202	202	202	203	203	205	204	204	205	204	203	203	202	202	203	203	203	204	204	202	200	200	200	203	203	201	201	203	203	204	204	203	200	199	199	199	201	203	202	201	201	201	199	199	201	204	204	204	202	201	200	200	200	203	198	197	201	201	201	199	199	200	199	198	197	196	199	198	198	196	197	195	196	199	201	200	198	200	199	202	200	200	202	199	199	202	200	199	198	198	198	200	199	199	199	198	198	200	199	199	199	196	196	198	201	202	202	202	201	198	198	198	198	197	198	198	197	197	198	199	198	197	199	196	196	196	194	198	198	199	199	200	196	194	192	199	198	194	194	194	196	194	191	193	193	198	195	194	193	198	197	194	194	196	196	194	193	195	195	195	197	197	199	197	197	198	197	197	198	196	196	193	193	194	195	193	193	193	192	191	189	189	190	194	194	192	195	194	195	194	194	195	196	196	195	192	192	193	194	195	195	193	195	194	195	192	192	192	194	194	192	190	191	191	191	191	193	192	191	191	193	192	192	193	191	190	190	189	188	188	187	187	187	188	190	190	191	192	0	0	0	0
202	202	201	201	200	200	200	200	201	198	198	198	198	198	200	200	201	205	201	202	200	200	200	201	200	204	204	202	201	197	200	201	201	201	200	201	203	204	205	205	204	204	205	207	206	204	204	201	199	202	203	202	200	200	200	202	203	205	204	204	203	201	202	200	200	202	201	200	200	201	202	203	203	203	203	204	204	204	206	206	206	201	203	203	203	205	202	202	199	198	197	201	199	201	200	201	202	204	205	207	209	206	207	205	203	203	203	202	201	203	201	201	202	202	202	203	204	204	204	204	206	207	207	206	208	204	202	202	204	205	203	200	200	199	200	199	200	203	204	204	206	207	206	201	201	202	203	205	203	202	202	202	200	201	203	201	200	199	202	203	202	208	206	206	205	205	206	205	206	205	204	204	204	204	204	203	202	201	200	201	203	205	204	204	204	204	206	205	207	206	203	203	204	205	206	206	206	205	205	209	209	209	206	207	208	208	209	205	201	202	203	203	204	203	204	204	207	207	206	205	205	204	203	203	204	205	204	204	205	204	204	204	204	207	208	207	206	207	207	208	209	209	208	207	208	209	209	209	209	207	207	206	206	206	206	205	204	202	204	203	203	204	204	200	203	202	205	206	207	205	207	204	207	207	205	206	203	205	205	207	206	207	207	209	207	206	204	203	203	203	204	205	205	206	205	204	205	206	206	205	205	205	205	204	206	205	205	204	205	205	206	205	204	204	204	205	204	205	206	207	206	207	205	206	205	206	206	205	205	203	203	203	205	205	206	205	205	205	206	205	205	204	202	203	205	206	206	202	202	204	204	206	205	205	205	205	204	204	204	205	204	205	206	205	206	203	201	200	202	202	204	205	205	204	202	201	200	199	201	204	203	201	201	202	202	201	200	201	202	201	203	202	202	201	200	201	200	201	201	201	201	202	202	202	201	204	203	202	203	202	199	202	202	202	202	203	203	202	202	202	202	203	203	203	201	201	205	204	203	201	202	200	200	200	198	201	202	201	201	201	200	200	200	202	205	201	200	199	197	197	198	197	196	197	199	200	200	199	198	197	197	197	196	196	196	197	198	194	196	196	196	196	196	197	198	197	198	198	198	199	199	200	200	200	199	198	198	198	196	197	199	199	199	196	198	198	199	199	198	196	198	198	198	199	204	201	201	200	198	197	197	197	198	197	197	197	199	200	199	199	197	198	196	195	195	196	198	198	198	196	197	191	193	197	197	196	194	194	195	194	189	194	193	194	194	194	194	197	195	193	194	194	194	194	193	196	196	198	196	197	199	198	197	197	196	198	198	198	198	196	192	194	191	193	194	193	191	189	188	186	188	192	193	193	190	193	190	193	194	193	195	195	192	190	190	192	192	192	193	193	193	192	192	192	191	192	191	191	191	190	191	190	190	189	189	188	188	187	188	190	190	191	191	191	190	189	187	188	187	187	187	189	187	187	188	189	0	0	0	0
199	199	199	200	199	199	199	199	200	197	197	197	197	199	200	201	201	199	199	200	200	200	199	197	198	199	201	201	200	200	200	200	201	201	201	201	202	204	204	204	204	205	204	204	205	204	204	199	201	202	201	200	199	199	199	201	202	202	203	200	200	200	200	201	204	204	202	200	200	201	203	204	202	203	203	205	202	202	203	206	204	200	201	202	204	204	202	200	200	198	198	199	200	198	199	200	200	200	200	202	203	204	206	204	202	202	202	202	202	202	201	202	202	202	202	202	202	202	202	201	201	201	201	201	202	202	201	201	203	203	202	201	200	199	200	199	199	201	204	204	206	206	202	200	200	201	202	201	199	200	200	201	200	201	201	200	199	199	199	198	200	202	204	202	204	204	203	202	204	203	203	203	203	205	205	204	203	205	201	200	201	200	200	203	204	204	204	204	204	204	201	201	203	206	206	205	203	203	204	208	204	205	205	207	208	208	207	204	203	202	204	203	203	203	202	204	206	203	202	203	203	203	202	200	204	204	204	204	204	204	204	203	204	204	204	204	204	205	206	207	207	208	206	202	206	209	209	208	209	204	206	205	204	204	205	204	205	205	205	202	203	203	203	203	201	205	205	206	205	203	204	208	206	206	205	205	203	204	205	205	206	206	206	208	203	202	202	203	200	200	203	203	205	205	205	204	202	204	205	205	202	202	202	206	207	205	205	203	203	203	206	206	204	204	203	204	203	203	204	204	204	205	205	205	205	204	204	204	204	202	202	201	203	205	205	204	206	205	205	205	203	204	204	204	204	207	206	203	202	204	204	206	205	204	203	205	204	203	204	204	205	205	206	205	202	201	200	200	202	204	204	203	202	205	203	203	204	199	199	200	202	201	204	202	201	201	201	201	203	201	202	202	202	200	200	200	200	201	201	201	199	200	200	202	200	201	201	202	202	202	199	199	202	203	202	202	203	202	200	201	202	203	202	202	200	199	202	204	202	200	201	202	200	199	198	199	201	200	201	201	201	201	203	204	200	199	198	197	197	195	195	194	195	195	197	199	199	198	197	196	197	195	195	194	194	196	196	196	195	196	196	195	198	198	198	198	197	198	198	198	198	198	197	198	198	197	198	197	196	195	198	199	197	197	197	196	197	197	196	196	197	198	197	198	198	197	194	195	199	196	197	197	197	197	197	197	197	199	199	199	198	199	198	196	195	194	196	195	195	196	196	195	193	197	198	195	192	191	189	193	194	193	193	195	194	193	194	194	193	193	194	195	193	193	194	195	196	196	195	195	195	197	197	197	196	194	191	192	192	195	194	189	190	192	195	190	189	190	186	188	187	191	193	191	190	190	190	192	191	193	192	190	190	189	189	190	190	192	192	193	192	191	190	189	191	191	191	191	190	190	190	190	189	189	189	188	184	187	187	187	185	189	191	191	191	190	188	186	187	188	188	185	185	186	188	187	0	0	0	0
196	198	198	197	196	197	201	201	200	198	198	198	197	198	199	199	199	199	199	199	200	196	196	196	195	197	199	199	200	200	200	200	201	201	201	200	201	202	203	204	204	204	202	202	202	202	199	199	199	200	199	199	199	202	200	200	200	200	200	199	200	201	201	203	203	204	201	200	199	200	200	199	202	199	198	198	198	199	201	202	200	199	198	201	202	203	202	199	199	199	198	198	197	198	199	198	202	200	200	200	201	201	202	205	198	199	199	199	198	197	197	201	203	203	203	202	201	201	200	199	199	200	199	197	201	200	200	200	200	201	202	201	201	200	200	200	201	203	202	202	202	202	200	200	200	199	201	200	200	199	201	202	200	200	201	200	199	199	198	200	200	200	199	204	200	200	202	202	204	204	203	204	204	205	205	204	204	205	202	201	199	197	198	202	203	204	204	204	202	201	200	200	203	203	204	203	204	203	203	202	202	204	202	203	202	204	205	204	201	201	203	206	204	203	202	202	201	200	200	199	199	199	198	202	197	198	204	203	202	200	200	200	199	201	201	203	203	204	204	205	205	205	204	204	204	207	208	208	209	203	206	205	204	202	204	206	206	205	205	202	202	203	203	201	202	203	205	206	203	204	202	204	206	204	204	203	202	202	201	204	204	204	206	204	203	201	202	203	200	200	202	203	203	203	202	202	203	203	202	202	202	201	202	203	204	204	202	202	202	204	204	204	204	200	202	202	205	207	203	204	204	203	204	202	202	203	204	204	202	201	201	201	202	203	203	205	206	207	203	203	202	203	204	204	204	204	203	205	203	203	203	202	202	203	202	203	202	202	202	204	204	205	206	202	203	203	201	201	202	201	199	199	199	202	202	203	203	198	199	200	201	202	202	200	198	201	202	203	201	202	201	202	201	201	200	200	200	201	201	200	200	200	200	200	199	201	201	203	200	199	200	200	201	202	202	201	202	201	199	200	201	201	200	200	200	200	200	201	199	200	199	203	203	199	198	196	198	199	199	200	198	198	199	200	198	197	197	197	197	195	196	196	194	196	196	197	198	198	197	195	195	195	195	194	194	195	195	196	195	194	196	196	196	198	198	199	198	198	197	197	197	197	197	197	196	197	197	197	198	197	196	197	196	196	195	195	195	195	194	194	195	196	194	195	196	198	194	194	195	197	196	194	196	196	196	196	196	192	194	195	196	197	197	196	197	194	195	195	196	196	197	195	194	193	193	191	191	190	190	193	193	193	193	193	193	193	192	193	193	192	191	191	192	193	194	195	195	196	194	193	193	193	196	196	194	192	189	188	187	188	188	187	189	189	195	190	190	189	188	189	187	189	190	190	191	191	190	190	191	191	191	192	190	190	189	189	189	190	192	193	193	191	190	189	191	192	192	191	190	189	190	190	190	189	188	188	185	185	185	187	184	184	184	189	189	189	187	186	187	186	187	187	185	186	187	187	0	0	0	0
194	191	191	193	195	198	201	201	200	198	198	196	196	196	197	198	199	199	200	197	200	196	196	196	194	194	194	197	197	197	196	195	201	201	199	196	197	199	200	203	203	203	201	202	201	199	200	200	196	198	199	200	201	199	202	202	200	199	197	197	200	199	202	203	200	200	200	199	199	196	192	198	200	200	197	197	197	195	196	197	199	198	197	197	201	200	201	199	199	199	199	196	197	199	199	203	198	200	199	197	197	199	198	197	198	198	199	199	195	196	199	200	200	199	199	199	199	200	200	199	200	200	199	200	199	200	200	198	201	201	201	200	200	200	200	201	202	201	200	199	200	200	200	201	201	201	200	201	197	197	197	198	197	200	200	200	200	199	199	198	192	195	199	199	198	199	197	199	199	200	201	203	204	205	206	206	206	204	203	201	198	198	201	201	201	204	204	203	200	199	202	202	202	203	204	205	204	203	201	201	201	200	202	202	201	198	201	202	201	201	201	202	205	202	203	202	200	200	198	198	199	199	200	199	197	197	199	199	199	198	199	199	200	199	200	201	201	203	204	205	205	206	204	203	203	205	206	206	207	204	203	203	202	202	204	205	206	206	204	202	202	202	203	201	200	202	202	202	203	203	202	203	205	201	202	201	201	200	201	202	203	203	204	206	200	198	199	200	200	201	202	202	203	202	201	200	200	201	202	201	202	201	201	202	203	203	203	202	202	203	201	202	200	199	199	200	201	201	201	202	203	202	202	200	200	198	200	201	201	202	204	202	203	203	202	203	203	202	202	201	201	202	204	198	200	201	199	199	198	199	201	202	204	202	203	201	202	202	201	203	202	204	203	203	202	203	201	200	199	197	197	199	199	201	201	202	202	197	197	197	200	201	201	200	200	202	201	203	201	201	201	201	201	201	200	197	200	200	198	200	200	200	199	200	200	200	200	201	199	199	196	200	200	202	201	201	202	199	198	198	198	198	199	200	199	200	201	199	198	199	199	199	198	201	196	199	199	199	197	195	197	197	199	199	197	198	197	199	198	197	197	196	193	195	197	199	196	198	196	195	194	194	195	195	195	195	195	195	195	195	196	197	198	198	199	200	199	197	197	195	196	197	196	196	193	196	195	194	199	199	198	196	195	195	194	193	193	193	193	193	194	193	193	194	195	196	197	198	196	195	193	193	194	194	194	194	193	194	194	195	195	195	197	195	196	195	191	191	193	194	193	192	193	193	192	191	190	189	190	191	193	194	194	193	190	192	191	191	187	186	189	188	189	190	192	196	194	195	193	192	192	191	191	192	193	190	187	187	187	188	187	188	189	190	194	191	191	190	189	187	188	188	189	190	191	191	190	190	189	192	191	191	191	191	189	189	188	189	189	189	191	191	188	188	188	189	191	190	187	188	189	189	190	190	188	185	184	185	185	185	183	183	187	184	188	187	186	186	186	186	186	186	186	186	186	185	0	0	0	0
188	190	194	194	199	196	196	196	196	198	198	197	197	196	198	198	199	199	199	199	198	196	198	196	194	191	193	198	198	197	196	196	195	199	199	197	197	197	198	199	201	201	201	199	200	200	199	196	196	196	197	198	199	198	198	198	198	197	197	197	199	198	201	201	198	198	197	198	196	193	196	201	200	198	198	197	197	197	196	197	197	198	196	197	195	199	199	198	198	197	197	197	196	198	194	194	198	202	203	203	199	197	198	199	200	199	199	194	196	195	196	197	201	199	199	200	199	199	199	200	200	200	200	197	198	198	200	199	198	198	199	200	201	201	200	200	201	200	199	199	198	198	199	199	199	199	200	201	198	197	198	198	196	197	199	200	205	201	203	199	198	196	196	199	199	199	197	198	199	199	200	200	201	204	205	205	204	204	202	199	199	199	200	202	203	203	204	199	204	199	204	202	203	203	203	204	204	204	203	201	201	201	202	201	200	198	200	201	201	202	201	202	202	200	201	202	201	199	199	199	199	199	199	199	199	200	199	199	199	198	199	202	199	199	200	201	201	200	202	203	202	202	202	202	202	202	202	203	202	204	202	202	202	201	203	203	205	204	201	202	204	204	202	202	200	200	202	204	205	203	201	201	204	200	200	200	199	200	200	201	200	200	203	202	200	199	199	198	199	199	200	202	203	201	198	198	199	200	202	202	199	201	200	201	202	201	203	202	202	202	201	200	199	200	200	200	200	199	200	201	201	201	201	200	200	195	200	199	200	200	202	202	203	203	202	201	201	200	198	198	196	198	196	196	197	198	197	196	196	197	201	200	198	201	200	200	202	202	201	200	202	204	201	202	202	200	199	196	197	197	198	199	198	201	202	203	202	201	197	198	200	200	202	201	200	201	201	201	201	200	200	200	199	199	199	197	199	197	198	197	198	198	199	200	199	199	200	198	199	199	196	199	200	200	200	199	200	200	198	198	197	197	199	199	199	198	198	195	196	196	197	197	198	194	197	197	199	198	198	198	197	196	198	198	198	197	198	200	198	196	195	193	193	194	197	200	196	195	196	195	195	194	194	195	193	193	194	195	194	194	195	198	198	198	195	197	197	196	194	195	196	195	197	194	194	194	193	193	199	199	198	196	196	195	193	193	192	192	192	191	192	192	193	193	189	191	197	196	192	193	193	194	194	192	192	192	193	195	194	192	193	191	195	195	192	193	192	191	192	192	192	191	190	190	188	190	188	189	189	191	192	192	193	191	188	186	191	189	188	186	189	188	187	187	189	190	192	192	191	191	188	189	187	186	188	190	187	188	188	189	189	190	190	190	190	194	191	192	188	187	187	188	190	186	187	187	185	188	188	190	190	189	189	191	191	190	188	189	188	189	189	188	188	187	184	182	183	185	185	187	188	188	189	189	187	185	183	182	182	180	180	180	181	185	187	186	186	186	186	186	186	186	186	186	185	184	0	0	0	0
193	192	191	191	193	194	194	193	193	194	198	196	195	195	196	197	198	199	199	197	197	198	195	195	193	191	193	197	199	199	198	197	200	198	197	196	197	197	197	197	199	199	200	200	195	193	194	196	196	195	195	198	197	198	197	196	196	197	196	196	195	193	192	196	198	198	198	196	196	198	199	199	199	199	199	197	197	197	196	197	196	195	198	195	196	195	194	194	195	197	197	197	197	196	197	194	195	199	199	200	199	198	198	200	200	199	195	196	197	195	195	195	195	200	198	197	199	202	202	203	201	199	198	197	198	200	198	197	197	197	198	200	201	202	200	200	201	199	199	198	197	199	198	198	200	200	200	199	199	201	198	195	196	196	196	200	203	198	202	199	199	197	195	197	197	198	197	197	199	199	200	199	202	201	204	201	202	203	204	199	199	199	200	201	202	201	203	202	198	203	202	202	203	202	203	203	200	202	202	203	202	201	202	201	199	196	198	198	203	201	200	197	197	198	199	200	200	201	201	200	199	199	199	201	199	199	198	199	198	197	200	200	200	199	199	200	201	200	199	199	201	201	200	201	202	201	201	201	200	199	198	198	200	201	202	200	200	200	201	202	202	199	201	201	199	199	201	202	202	200	199	200	200	199	197	199	199	199	200	200	199	199	199	199	199	199	199	199	198	199	200	202	202	200	198	199	199	200	202	201	199	200	199	201	201	201	202	202	200	199	198	198	199	199	200	199	197	200	198	199	200	200	200	198	200	198	199	199	200	200	201	201	203	203	202	200	199	197	197	197	197	197	196	195	195	195	195	195	194	195	196	197	198	199	200	200	201	201	201	199	198	200	201	201	201	199	199	198	198	199	198	199	198	199	201	202	202	201	200	197	198	198	199	201	199	199	199	200	200	199	198	198	198	198	196	197	197	196	196	196	196	198	201	201	199	199	199	200	199	199	199	198	199	200	197	197	198	197	198	197	197	199	198	198	198	198	195	194	192	195	199	200	194	196	197	198	198	198	198	198	196	196	198	198	197	197	198	199	198	194	193	192	192	196	197	195	195	195	194	192	193	197	194	193	194	194	194	196	194	193	193	194	197	195	194	194	196	194	194	195	195	195	197	196	195	192	192	192	197	196	195	195	194	193	192	192	192	192	192	191	191	191	191	192	191	195	194	196	196	196	192	194	193	191	191	191	193	193	192	190	190	193	194	195	196	196	195	195	194	192	191	192	191	189	188	190	191	189	190	188	188	189	188	188	187	186	187	186	188	189	190	187	187	186	189	190	192	192	192	191	189	187	187	186	187	187	188	189	188	188	189	188	189	189	189	189	192	189	188	184	184	187	187	186	186	186	185	187	188	188	189	188	189	189	190	189	188	189	188	190	189	187	185	185	185	180	182	185	185	185	188	186	187	187	186	183	182	182	184	184	184	184	184	184	185	184	184	183	183	185	185	187	186	186	185	184	0	0	0	0
191	189	190	190	190	195	195	195	195	194	196	194	194	194	195	196	197	196	196	194	196	195	195	192	191	191	194	194	196	196	196	198	198	195	196	196	197	198	200	198	199	199	199	199	195	194	193	195	195	194	194	197	198	197	197	196	197	197	198	197	197	194	195	198	197	197	197	195	197	196	197	199	199	199	199	199	198	198	198	198	195	195	194	196	195	195	194	194	194	196	197	197	197	195	193	194	195	195	199	199	197	196	200	200	199	200	197	195	196	196	194	194	195	195	196	194	198	199	199	200	200	199	197	197	197	198	196	196	198	198	198	199	199	200	200	197	200	200	199	199	199	197	197	199	200	198	199	200	200	198	198	196	196	196	197	197	197	199	201	200	197	196	198	198	198	198	199	199	199	199	200	199	201	201	202	200	201	202	200	198	198	199	199	200	201	200	199	199	196	203	202	204	205	201	201	201	199	200	201	202	202	201	201	198	196	195	197	198	200	201	200	201	196	196	199	198	199	202	201	198	199	199	199	199	200	197	197	199	199	199	197	201	200	200	200	200	200	200	198	198	199	201	201	200	199	199	199	198	198	198	198	198	199	200	200	201	200	200	201	202	201	199	200	200	199	199	201	201	199	198	197	198	199	197	196	197	198	199	199	199	199	199	199	199	198	200	199	198	198	200	200	201	197	197	198	199	198	200	203	201	201	199	199	199	200	201	201	203	200	200	199	200	199	199	197	196	196	196	199	199	199	200	199	196	198	198	199	200	200	200	198	196	203	199	198	198	198	198	197	197	198	197	197	196	194	195	197	193	193	195	195	196	198	199	198	198	200	200	199	198	198	197	196	198	200	197	197	198	198	198	199	198	198	199	200	201	201	201	200	198	196	193	195	196	198	197	198	199	199	197	197	198	198	197	196	196	195	195	196	196	197	196	201	198	200	198	198	197	195	195	197	198	197	197	196	196	196	198	197	198	199	199	198	199	198	198	197	194	195	195	196	196	195	196	197	197	198	197	198	198	192	196	197	198	198	198	198	199	196	193	192	193	192	195	195	194	194	192	194	192	193	197	194	192	191	190	196	197	195	195	194	194	193	193	193	194	196	196	193	193	196	194	196	196	191	191	192	193	196	193	192	193	193	193	192	191	189	189	192	191	191	191	192	191	193	194	196	197	194	195	192	192	191	190	189	190	192	193	192	192	191	193	195	196	194	195	194	194	194	191	190	190	190	190	189	188	189	187	188	187	188	190	190	188	187	187	186	188	188	189	190	189	188	188	188	189	189	192	191	191	189	188	186	185	186	188	188	189	188	188	187	187	188	188	189	187	189	186	184	183	184	186	186	185	184	184	183	186	186	188	187	188	188	188	189	189	188	188	187	188	187	187	184	184	184	182	180	179	179	185	182	184	184	184	184	183	182	181	182	184	184	184	184	183	183	184	184	184	185	185	184	184	186	185	184	184	0	0	0	0
191	190	190	190	190	194	195	195	193	193	194	194	193	193	192	192	196	195	195	195	193	192	192	192	192	191	194	194	191	191	193	197	195	196	196	197	197	199	200	198	196	197	197	196	192	191	193	192	194	194	196	196	197	196	195	194	196	195	195	196	193	194	197	197	197	195	195	195	197	198	197	195	196	198	199	197	196	195	195	194	194	194	194	197	194	195	194	192	193	195	195	197	193	193	193	192	194	196	197	197	196	197	196	198	198	198	199	197	197	196	196	194	194	194	195	195	196	198	198	199	198	197	197	197	194	195	194	196	196	197	198	198	198	199	195	195	196	196	195	199	198	198	198	198	198	198	200	199	200	199	198	196	197	197	197	195	197	199	199	199	196	196	195	196	198	198	198	197	197	199	200	199	199	200	199	198	200	198	197	197	197	197	198	200	200	199	198	198	198	196	201	204	200	200	199	200	200	199	200	201	201	201	201	196	195	197	198	198	200	201	200	200	198	198	196	196	197	197	197	197	197	198	199	197	196	198	197	197	199	198	199	199	197	198	197	200	199	198	198	197	197	199	201	200	198	199	198	200	200	200	198	198	198	198	197	195	196	201	201	202	201	199	200	199	199	197	198	198	198	198	198	197	199	199	195	196	197	197	198	199	199	200	200	199	199	199	199	199	199	200	198	199	198	196	197	197	198	200	199	198	200	197	197	197	200	201	203	200	199	200	200	200	199	197	196	196	196	196	197	196	197	198	195	197	198	198	199	201	199	197	194	197	200	197	196	196	196	198	198	198	198	197	197	197	196	197	196	196	196	197	197	198	197	198	196	195	197	197	196	195	198	196	195	198	198	198	198	198	198	197	197	199	198	198	198	200	200	199	199	195	199	200	195	196	195	194	197	198	198	198	197	196	197	197	194	194	195	195	195	196	195	197	199	198	200	196	195	195	193	195	196	196	196	196	195	195	195	194	194	193	192	197	197	198	198	197	196	196	197	195	197	196	195	196	197	197	196	196	194	191	191	192	195	196	197	197	197	197	195	194	194	194	194	192	192	191	192	191	193	193	194	194	194	192	192	190	194	194	194	194	194	193	191	191	191	193	192	193	193	191	191	194	192	191	190	190	190	190	192	192	191	192	193	192	192	191	189	189	192	192	189	191	191	190	191	192	194	195	193	193	192	190	189	189	188	189	191	192	192	191	192	193	194	193	192	192	192	192	189	187	190	190	191	191	191	191	188	187	187	188	190	189	188	188	187	187	189	187	188	189	189	189	188	189	188	188	188	188	191	190	189	189	189	186	186	187	189	188	186	188	188	187	188	188	187	189	186	185	184	183	183	184	184	185	184	183	183	184	186	186	187	187	187	187	186	186	185	185	185	188	186	185	182	181	181	180	180	180	180	178	182	184	184	183	183	183	181	181	181	181	184	184	182	182	181	182	184	185	185	185	184	184	185	185	185	184	0	0	0	0
192	191	191	191	191	190	195	194	191	191	194	193	192	192	192	190	196	197	193	193	192	192	192	192	192	192	193	191	192	194	194	194	196	196	198	197	196	200	195	190	196	195	193	193	189	187	187	189	193	196	196	195	195	195	195	196	196	194	194	192	191	195	197	198	198	194	195	194	194	195	198	197	197	197	196	197	195	194	193	193	194	194	194	193	192	192	192	193	193	193	195	194	193	192	192	193	194	195	197	197	196	196	195	194	197	194	196	196	196	196	195	196	194	194	195	195	195	196	197	195	196	197	196	193	193	193	193	193	196	195	197	197	197	196	195	195	195	195	195	195	197	197	196	197	196	195	199	200	200	199	198	198	197	197	196	196	197	197	197	198	195	195	195	195	197	196	196	196	197	198	199	199	197	197	197	198	196	196	196	197	197	196	197	199	200	200	198	198	197	198	198	197	197	198	199	199	199	198	198	199	201	199	198	197	195	197	197	198	198	200	200	199	198	193	194	194	196	195	196	196	195	197	197	197	197	197	197	197	198	199	198	198	197	196	197	200	199	197	199	198	201	200	197	199	199	199	198	199	199	197	198	198	198	197	197	195	197	198	199	197	196	198	197	196	195	197	198	198	197	197	198	198	199	199	196	195	195	197	198	198	198	199	200	200	199	197	199	199	199	199	196	198	196	196	194	195	195	199	200	199	198	194	196	195	200	200	201	202	200	201	200	200	198	196	194	194	195	197	198	198	196	196	196	198	197	197	197	196	195	193	194	196	197	196	196	195	196	197	198	198	198	198	197	197	197	195	196	197	198	199	198	195	196	197	200	200	200	199	196	198	196	196	196	196	194	194	195	196	198	197	197	198	198	196	196	197	199	199	196	195	200	200	194	194	194	197	196	197	197	197	197	197	196	195	194	194	195	195	194	194	195	196	197	195	194	194	193	193	194	193	195	196	196	196	196	196	195	191	190	192	192	193	196	197	197	197	196	197	197	196	195	195	193	193	194	194	194	193	193	193	191	195	195	195	196	196	194	194	193	193	194	195	193	193	195	188	187	191	192	192	193	192	192	191	191	190	190	191	192	192	192	192	191	191	191	190	192	190	191	190	190	188	192	192	190	190	190	190	192	191	190	190	191	192	193	193	191	191	191	185	189	187	190	190	191	191	192	192	191	190	190	189	189	188	187	187	189	189	189	191	192	191	190	191	191	189	189	187	188	186	188	188	191	190	187	189	190	187	187	187	189	189	190	188	187	187	186	186	187	189	188	188	187	187	186	187	187	188	190	187	189	190	189	188	189	189	187	186	183	183	186	186	186	186	186	185	186	186	184	184	184	184	185	185	184	184	184	184	184	184	184	185	185	186	184	183	181	179	184	185	186	185	182	181	181	181	181	180	181	180	183	183	183	183	183	183	183	180	180	180	180	184	182	182	181	182	183	184	184	184	183	183	183	185	185	184	184	0	0	0
191	191	191	191	191	191	190	192	192	192	190	192	192	185	185	187	192	195	193	193	192	192	192	192	192	192	191	192	194	195	195	196	197	198	196	196	200	195	192	190	192	193	191	191	189	188	191	193	195	196	194	194	191	192	192	190	190	191	191	191	194	196	196	196	195	194	193	192	192	193	194	195	195	192	191	194	192	192	192	194	194	194	192	191	192	191	191	193	193	192	193	193	192	191	192	192	194	197	195	193	192	194	192	190	190	194	196	196	194	195	194	195	195	193	193	192	192	192	193	194	195	196	196	194	194	193	193	193	195	194	196	196	192	194	197	196	196	194	195	193	194	196	195	194	194	197	199	198	199	198	197	196	195	195	195	196	195	195	194	196	196	194	194	195	196	195	195	196	196	198	199	198	198	197	197	197	196	195	195	193	195	196	198	199	200	200	200	197	197	196	196	197	198	198	196	196	197	196	196	197	198	197	197	197	196	198	196	196	196	198	198	195	193	192	195	196	195	196	196	196	195	197	197	197	197	197	199	198	198	197	197	198	197	198	197	195	197	195	198	200	201	197	199	195	197	196	197	199	197	197	197	198	198	197	197	197	197	198	197	195	196	194	195	195	195	195	196	197	199	198	198	199	199	198	196	196	196	196	196	196	197	198	199	200	198	198	198	198	199	200	199	195	196	196	195	195	196	196	198	199	197	196	195	194	196	197	199	200	196	201	199	200	196	195	194	194	195	195	195	197	197	194	194	195	197	197	199	196	194	196	196	197	197	196	195	195	194	195	197	197	197	198	198	198	195	195	194	196	196	196	195	195	196	197	200	199	198	195	195	197	199	200	197	196	196	194	195	197	197	197	196	195	196	197	193	195	195	195	195	196	197	196	194	194	194	196	196	196	197	196	197	197	196	195	194	195	196	195	194	195	195	195	196	194	192	195	193	191	191	193	193	192	194	194	194	195	196	192	191	191	191	193	196	197	196	195	196	196	195	194	192	192	191	191	191	193	192	193	193	192	191	195	195	195	194	194	194	194	193	193	194	191	194	193	195	188	188	189	190	191	191	190	189	191	190	191	191	190	192	192	192	191	191	190	191	192	192	191	192	190	190	188	188	191	190	191	190	189	188	189	186	188	190	190	192	192	190	191	186	192	185	187	191	190	191	189	191	191	191	190	188	189	190	190	189	189	189	191	189	188	188	185	186	185	186	187	188	186	187	187	187	187	188	187	187	186	186	188	185	187	188	189	190	186	187	187	187	185	185	185	186	185	183	184	183	187	186	185	186	187	190	190	190	188	189	188	186	184	186	186	186	186	186	186	187	188	188	186	186	185	183	183	184	184	183	183	186	184	184	184	183	183	184	185	185	183	182	181	181	182	185	184	182	182	181	181	181	181	181	183	184	183	183	182	183	182	182	183	183	181	182	180	182	183	181	180	178	178	176	176	177	178	181	181	181	180	180	0	0	0
192	192	191	189	189	189	190	192	190	190	190	190	188	187	186	186	187	189	190	191	191	192	192	190	192	192	192	191	193	195	195	195	193	193	194	195	195	189	190	189	189	191	190	188	188	190	193	195	195	195	194	189	191	192	191	190	189	189	192	192	195	195	194	194	195	193	191	191	191	191	190	190	189	189	190	187	191	191	191	193	193	195	188	189	190	190	191	191	192	191	193	191	191	190	191	192	192	193	194	194	191	192	190	192	187	191	192	194	194	194	194	192	193	193	193	193	192	191	192	193	195	193	195	194	194	194	194	192	191	193	188	188	192	192	193	195	195	194	193	192	193	193	195	194	195	196	195	198	196	195	196	195	194	195	194	196	195	194	194	195	194	194	195	195	195	197	195	194	196	198	197	197	198	198	199	198	196	195	194	193	194	197	198	198	198	199	198	198	198	196	196	196	193	194	195	196	196	196	195	194	196	196	194	196	196	195	194	194	195	195	196	195	194	193	196	195	195	195	195	195	196	196	197	197	197	195	198	198	196	196	197	195	197	196	193	194	195	196	196	199	200	199	195	199	196	197	198	197	196	197	196	196	196	197	198	197	196	196	195	195	192	193	194	195	194	195	196	197	198	198	197	198	197	198	197	196	196	196	196	195	196	196	196	197	195	196	196	196	196	198	197	193	195	194	196	195	196	197	195	197	196	197	196	194	195	197	198	196	195	196	197	196	195	193	193	194	195	195	195	196	195	197	194	196	196	197	200	196	196	196	196	196	196	196	197	197	196	193	194	194	192	196	196	195	194	195	193	194	195	194	195	193	196	197	197	197	194	196	196	196	197	196	195	194	195	194	193	196	196	196	196	194	194	197	193	194	193	194	195	196	196	195	194	193	194	196	196	197	197	195	197	195	194	194	195	196	195	194	196	195	195	195	192	194	192	194	192	191	191	192	192	193	192	192	192	193	193	193	192	194	195	194	194	195	195	195	192	191	192	194	192	192	189	190	191	192	191	191	191	192	192	190	193	192	192	193	192	194	193	192	191	191	192	194	193	192	189	189	191	191	189	189	190	191	191	191	190	191	192	192	191	189	189	192	191	191	192	192	192	192	190	189	189	187	192	192	190	189	189	188	188	188	187	188	186	186	185	186	188	188	187	186	187	186	187	185	186	187	188	185	184	184	189	189	189	188	188	188	188	188	188	186	185	184	185	184	187	187	187	187	185	185	186	186	186	186	189	186	188	185	186	186	189	190	187	188	187	184	184	184	184	183	186	185	186	188	186	185	184	186	189	190	190	189	184	186	184	183	183	184	187	186	186	185	184	189	188	187	186	185	186	183	184	183	183	183	182	185	185	184	184	183	183	185	184	180	180	180	180	181	182	183	181	182	180	180	180	183	182	184	185	184	183	183	183	183	183	183	182	182	181	180	181	181	181	182	179	179	177	175	176	177	178	178	179	179	179	0	0	0
190	190	190	190	187	188	188	189	190	190	190	189	190	187	187	187	187	188	190	192	192	190	190	190	192	192	192	190	191	191	189	189	190	191	191	191	189	190	186	189	189	189	190	188	188	190	194	194	193	192	189	189	189	189	190	188	189	189	192	194	194	194	192	193	193	193	189	189	190	190	190	189	188	188	189	188	188	190	193	191	190	190	188	188	189	191	190	190	190	192	193	191	191	190	190	191	192	192	192	191	190	190	192	191	188	190	191	193	193	192	192	192	192	191	190	193	192	192	193	192	193	192	193	193	193	194	191	192	195	191	193	187	190	190	191	192	193	193	193	192	194	193	194	194	194	197	196	196	194	194	194	195	193	192	192	194	194	192	193	193	192	192	191	193	192	195	195	194	194	195	194	194	197	198	198	198	196	196	196	194	194	194	195	195	195	197	196	198	196	195	193	193	193	193	195	196	195	197	195	195	192	194	194	195	194	194	193	193	193	195	195	195	194	195	193	193	194	195	196	195	195	194	194	194	197	194	197	196	194	195	195	194	195	193	193	194	196	196	196	196	198	197	196	196	196	196	196	197	195	197	193	196	195	195	195	194	193	193	194	195	195	195	198	194	194	194	196	196	196	198	196	197	195	196	195	196	194	193	192	194	195	195	197	197	197	194	193	196	193	196	193	193	194	195	196	192	192	192	193	196	198	196	196	195	194	196	196	197	196	193	195	195	194	193	192	192	196	196	196	195	194	195	193	195	196	196	199	200	196	194	194	194	193	199	199	196	196	195	193	194	194	191	192	193	193	195	195	197	195	196	194	193	193	193	195	195	196	196	196	196	196	195	193	196	194	193	193	194	196	197	195	194	194	194	194	193	192	193	194	195	194	194	193	193	193	196	194	193	195	193	196	193	193	194	195	194	193	194	193	194	194	192	192	191	193	191	190	190	190	190	192	191	192	192	192	193	191	192	192	193	192	191	193	193	194	194	191	191	190	190	190	190	191	191	190	190	191	191	191	191	191	187	187	190	190	193	191	190	193	192	191	190	189	189	190	190	190	190	191	189	191	188	189	190	190	191	191	188	193	192	188	188	188	191	191	190	191	190	189	190	191	190	189	190	190	190	189	188	188	189	188	188	188	188	185	185	185	188	186	186	186	187	186	186	185	186	187	186	184	187	187	184	184	186	187	189	188	186	187	187	186	187	186	183	183	184	183	187	187	186	185	184	186	186	187	187	189	186	187	185	185	186	183	184	185	185	185	185	185	184	184	184	185	185	187	185	185	185	184	184	186	190	188	186	184	183	184	185	183	183	184	186	185	185	183	188	188	187	186	185	185	186	183	183	183	182	184	184	183	184	183	183	184	182	181	180	180	179	180	180	182	183	180	179	179	179	180	181	182	182	182	183	183	183	182	181	181	181	183	182	181	180	180	181	181	180	180	180	179	179	177	177	177	178	178	178	179	0	0	0
187	189	189	190	189	188	188	186	186	188	189	189	186	184	187	186	186	187	188	189	191	191	187	189	192	192	191	190	189	187	188	188	188	188	187	187	189	186	185	186	186	187	189	190	190	190	190	192	192	188	189	187	187	186	187	187	189	189	188	194	193	193	192	191	189	190	189	189	186	186	186	187	187	187	187	189	187	187	187	188	190	188	188	191	190	189	189	187	190	193	192	191	190	189	188	189	192	191	191	190	189	189	188	187	191	194	191	191	192	192	192	192	193	192	192	193	192	193	193	193	191	191	192	192	193	191	192	193	193	192	187	187	187	189	192	192	192	193	194	192	194	193	194	194	195	196	195	193	193	192	194	194	193	191	192	192	193	192	191	190	190	191	191	192	192	191	190	191	193	192	192	191	192	197	198	198	197	196	195	195	194	192	191	194	194	193	195	196	195	194	193	193	193	193	194	196	195	196	195	194	193	193	195	196	195	194	192	193	192	193	194	194	194	195	193	194	194	194	194	194	195	195	194	194	194	195	197	196	194	195	195	194	192	193	193	194	196	196	196	197	197	197	196	195	195	195	194	194	196	193	193	194	195	195	196	193	193	193	194	195	195	197	194	194	193	194	194	196	195	195	195	194	192	193	193	193	192	191	191	192	192	193	194	195	195	195	193	196	194	192	192	192	191	193	193	193	194	192	192	193	196	197	197	194	194	195	193	192	192	192	193	193	191	192	192	193	196	197	195	195	193	194	196	196	196	193	193	194	194	193	191	192	194	195	194	193	194	195	194	193	191	194	192	192	192	193	195	195	195	195	193	194	194	194	195	196	198	198	196	194	194	195	194	192	192	193	192	194	194	196	195	195	194	195	194	193	192	192	193	193	193	193	191	192	193	193	192	193	192	193	193	192	191	192	191	191	192	191	189	190	190	193	190	190	190	191	189	189	189	189	189	189	188	191	189	191	189	192	192	192	190	191	192	192	192	192	193	191	190	190	189	189	190	190	190	190	190	190	191	190	189	187	187	187	189	189	190	190	194	192	190	189	189	189	190	190	191	190	190	190	191	189	190	190	190	190	188	188	189	188	188	186	187	186	188	189	190	190	189	187	190	189	189	188	191	189	189	185	188	189	188	188	188	186	185	185	182	184	185	184	187	187	187	185	185	185	184	184	185	186	186	184	182	183	186	185	184	185	184	185	185	185	185	184	183	184	185	187	187	186	184	184	183	185	185	187	188	188	186	186	184	183	184	184	184	185	185	185	183	181	181	186	186	186	185	184	185	185	183	184	186	187	186	187	186	182	182	184	183	183	183	183	182	180	181	184	188	184	184	185	185	185	181	182	182	182	182	183	183	182	181	182	182	182	181	180	179	179	179	179	178	179	180	180	180	180	180	180	182	182	180	182	183	182	181	181	181	181	180	182	179	179	181	181	180	180	180	180	179	179	179	177	178	177	177	175	177	0	0	0
187	189	189	189	190	189	186	186	185	185	187	187	185	184	186	184	184	184	186	187	187	187	187	187	191	191	191	191	189	187	188	188	188	188	186	187	185	185	186	185	185	185	189	189	189	189	189	191	186	186	188	187	187	187	186	187	188	187	191	193	192	192	191	188	185	188	188	188	186	186	186	186	186	184	191	192	188	187	187	189	190	190	191	187	187	189	186	186	190	191	191	188	189	190	188	189	189	188	190	190	188	188	187	188	190	191	191	191	191	192	192	194	194	194	192	193	192	193	193	193	191	190	191	190	192	191	192	194	193	188	187	186	188	189	191	193	193	192	192	192	194	193	193	194	195	195	195	194	194	193	193	193	192	190	191	191	191	192	193	192	191	190	191	191	191	192	191	191	192	189	190	191	190	196	196	197	194	193	193	193	193	192	191	191	192	193	193	193	193	192	190	192	192	193	194	194	195	196	192	191	192	193	194	195	195	195	193	194	193	193	193	193	195	195	194	194	194	192	193	194	194	195	194	194	195	195	195	195	193	193	193	192	193	194	192	194	194	196	196	196	196	197	196	194	193	196	194	194	192	192	191	193	193	195	192	191	193	193	193	196	196	197	197	194	195	195	196	197	195	195	196	196	193	193	190	189	189	190	191	192	193	193	194	195	194	194	194	194	192	191	192	190	190	191	193	193	194	192	193	193	195	194	195	194	194	194	190	191	192	191	192	191	191	189	191	193	195	195	194	193	193	193	194	194	194	191	190	191	191	193	193	193	194	194	193	193	194	194	193	193	194	193	192	193	194	196	196	194	194	195	196	194	194	194	195	196	198	198	195	193	193	192	193	191	191	192	191	193	193	195	194	196	196	196	193	193	191	190	190	192	192	189	193	191	191	190	191	191	192	193	193	192	191	190	191	191	191	189	189	186	190	192	192	190	190	190	191	191	189	189	189	191	191	190	188	189	192	188	189	191	189	189	188	189	191	194	189	188	186	188	190	188	190	190	191	190	190	190	189	189	189	188	187	186	186	190	190	191	194	192	189	189	189	189	189	189	189	187	188	189	190	189	190	189	188	186	187	188	187	186	192	191	187	189	188	188	188	188	189	189	187	186	187	188	187	186	186	185	186	187	187	187	185	185	185	185	185	184	187	185	185	185	187	184	185	185	186	184	185	185	185	185	182	185	183	185	183	184	185	186	186	185	184	184	184	184	185	185	187	184	183	182	184	186	185	185	186	186	183	184	184	184	184	184	184	184	185	183	184	181	181	184	184	184	185	183	184	183	183	184	185	186	185	187	183	183	183	183	184	183	182	181	179	180	180	182	184	184	184	184	180	184	181	181	181	181	181	181	180	179	181	181	182	182	181	182	179	179	178	178	178	179	178	178	178	178	179	180	180	180	180	181	180	180	180	180	179	179	181	182	179	179	178	180	181	181	181	180	180	178	178	179	176	175	175	175	176	0	0	0
186	188	189	189	190	189	187	187	185	185	185	187	187	184	185	184	183	184	186	186	184	186	186	189	190	191	191	190	188	189	189	189	186	186	187	187	187	186	185	185	185	186	189	187	189	189	189	188	184	185	186	187	187	187	186	187	187	186	189	191	191	189	189	185	185	187	188	188	185	185	188	188	187	187	189	191	187	186	187	185	185	187	187	187	187	189	189	189	189	193	191	191	190	189	188	188	188	187	189	189	189	188	186	186	190	192	192	191	191	191	192	192	192	192	192	191	192	191	192	191	191	191	191	192	194	193	194	194	189	188	189	186	187	188	192	192	192	192	193	192	192	193	193	193	193	193	192	192	192	192	192	192	190	191	191	191	191	192	193	192	191	192	192	192	194	194	194	192	191	190	189	189	193	196	196	196	195	193	191	192	192	192	192	189	191	192	193	192	188	189	190	190	192	194	193	194	192	191	192	192	191	190	192	193	195	194	195	194	193	193	193	192	193	192	192	193	193	193	193	193	193	194	194	192	191	192	194	193	192	190	194	192	192	193	194	193	191	192	193	196	194	195	195	193	192	193	193	194	193	193	191	192	191	189	190	192	192	194	195	196	196	197	195	195	195	195	195	197	196	195	194	196	194	192	190	189	189	188	192	192	193	193	194	194	194	194	194	190	189	193	192	191	190	192	193	192	191	192	193	193	192	194	192	193	191	192	192	191	192	191	191	193	189	189	192	189	192	191	195	191	192	193	195	194	194	192	191	189	190	192	192	192	193	193	193	194	193	191	191	195	196	194	192	194	196	196	197	194	194	193	193	194	194	191	191	192	194	195	196	193	194	193	191	191	190	190	191	193	194	193	193	194	195	191	191	191	191	188	189	191	190	192	191	190	190	189	190	191	192	191	192	191	192	192	192	191	189	189	187	188	189	190	190	189	190	191	191	191	189	189	189	189	188	188	187	187	188	188	191	190	188	188	188	189	190	191	191	189	188	187	188	188	188	189	192	192	189	188	187	187	189	187	187	187	186	187	190	192	192	192	190	190	189	189	189	189	188	187	187	187	186	187	187	186	186	186	189	188	187	187	187	189	187	187	187	186	185	186	188	186	186	182	183	185	186	186	186	183	184	185	187	185	185	183	183	182	185	184	186	182	182	184	183	183	183	184	183	184	184	183	185	184	184	180	183	180	181	182	184	185	186	185	184	185	186	186	184	185	187	186	184	182	185	183	185	184	184	184	184	184	183	185	184	183	182	183	184	183	184	184	182	183	183	182	180	180	182	182	182	183	183	185	186	186	184	181	182	180	180	180	181	180	179	180	180	183	183	183	185	184	182	182	179	179	179	180	181	180	180	179	180	180	181	183	183	183	182	181	179	179	178	178	178	177	177	178	179	179	180	180	180	179	179	179	179	179	179	179	180	181	180	178	176	176	180	181	181	180	180	176	178	177	175	175	174	174	174	0	0	0
183	185	189	189	189	189	187	187	187	185	186	185	185	184	183	183	183	183	184	183	182	184	184	188	189	189	190	188	189	187	186	186	187	187	187	186	187	186	185	185	185	183	185	187	188	187	187	183	183	184	185	187	187	187	187	187	186	186	185	187	188	187	187	187	187	187	188	188	186	185	188	187	187	188	190	188	186	187	186	185	185	185	187	187	187	188	186	185	191	193	190	191	189	187	188	188	188	188	187	188	188	187	187	188	187	191	191	189	189	189	187	189	189	189	189	191	190	190	190	191	191	191	191	192	194	195	194	188	189	188	189	187	186	190	192	193	193	191	190	191	191	191	192	192	193	193	192	191	191	192	191	191	192	193	191	192	191	191	189	189	192	191	191	191	192	191	191	192	190	189	190	192	194	195	191	190	190	193	191	190	190	190	191	191	192	190	190	189	189	191	192	192	192	195	190	192	191	192	192	189	189	189	189	189	190	192	194	193	194	193	192	191	192	191	192	191	192	192	193	191	192	191	192	192	190	190	192	191	191	190	191	194	194	194	193	192	190	190	191	193	193	193	194	192	191	192	193	194	194	193	193	191	191	190	189	191	190	190	191	194	195	191	193	193	196	195	195	195	197	194	194	194	192	192	188	188	191	191	191	192	190	191	193	192	189	193	193	190	189	190	192	192	192	190	189	189	191	191	191	193	192	192	190	189	189	190	190	189	190	191	191	191	191	190	189	191	193	193	190	191	192	193	195	195	191	191	190	190	192	191	193	193	193	193	193	194	193	191	190	194	193	191	191	193	194	195	194	193	193	190	189	191	192	190	190	192	194	194	195	194	191	192	194	195	193	191	190	190	189	193	191	191	191	191	190	190	190	190	191	191	193	195	194	193	193	189	190	191	191	191	192	191	191	191	191	190	191	188	187	188	189	188	189	188	187	191	191	189	192	193	187	188	188	190	190	189	188	188	187	188	188	188	188	190	191	191	190	189	188	187	187	188	188	187	189	190	190	187	186	189	186	186	187	187	186	189	190	191	192	191	189	188	187	185	188	188	187	185	186	187	186	187	187	187	186	186	186	187	187	187	186	186	187	186	185	184	183	186	187	185	184	183	184	188	187	188	185	184	184	186	183	184	183	182	182	185	185	185	182	182	182	181	182	181	183	183	182	184	183	183	184	183	183	179	179	180	180	180	184	184	185	184	184	185	185	184	183	183	185	184	182	183	183	182	183	182	183	184	183	183	183	183	183	182	182	183	181	181	183	181	182	182	182	180	179	180	180	180	180	181	181	181	184	184	183	181	179	179	179	181	182	182	180	180	182	181	181	181	185	180	180	180	177	177	177	181	180	179	180	179	179	180	182	182	181	183	181	181	180	179	177	177	177	176	177	178	178	180	179	179	180	178	178	176	176	178	178	179	178	179	178	177	175	176	176	177	177	177	179	175	175	176	176	173	173	174	175	0	0	0
184	184	188	188	186	187	184	185	185	186	184	184	184	184	183	183	183	182	181	182	182	186	188	188	189	187	187	189	184	185	186	188	186	186	186	186	185	185	185	185	183	184	183	182	185	186	184	184	183	185	186	185	186	185	185	185	186	186	185	188	187	187	187	187	187	187	187	188	188	186	186	187	187	187	189	187	187	187	187	187	184	187	187	186	185	185	185	185	189	191	188	187	187	187	187	188	189	187	187	187	187	187	188	188	190	191	191	191	188	189	187	188	188	187	187	186	188	188	190	190	190	189	190	190	191	192	193	187	187	189	190	189	191	191	192	194	191	190	190	188	188	188	189	190	191	191	193	192	191	191	192	192	192	192	191	191	190	190	191	192	191	189	191	191	190	190	190	192	190	192	191	190	193	189	187	188	188	190	189	187	187	188	191	192	192	191	188	188	189	189	191	193	193	193	192	191	189	191	190	190	188	191	192	191	190	190	190	190	188	191	190	188	187	187	187	190	189	190	192	193	194	192	191	189	187	189	189	192	190	190	193	192	193	193	193	193	190	189	190	189	190	191	193	190	189	190	193	194	194	194	193	191	190	190	191	190	189	191	190	191	190	190	193	193	195	196	195	195	194	194	192	191	191	191	189	189	191	191	190	190	189	189	191	189	189	189	191	192	190	188	190	191	190	189	189	189	189	192	192	190	190	189	190	190	188	188	189	189	190	187	190	191	191	190	191	192	191	192	192	191	189	192	193	194	192	190	190	189	189	189	192	192	193	193	193	194	193	193	192	191	191	193	193	192	194	194	191	194	192	191	188	187	187	190	190	192	193	195	193	193	194	194	194	194	194	193	190	189	190	190	193	193	194	191	190	191	190	190	190	186	187	188	193	192	191	189	189	189	191	191	189	188	189	188	188	189	191	188	188	189	189	190	188	188	187	188	188	188	189	189	189	187	186	187	192	189	189	188	187	188	188	188	188	189	193	191	191	189	189	188	187	188	187	187	188	188	187	186	188	189	187	188	189	187	186	186	186	187	189	188	188	188	187	188	185	184	186	184	185	186	184	185	186	184	185	184	186	186	187	187	186	184	184	185	183	183	182	183	186	184	183	183	183	187	186	186	186	186	185	185	185	182	182	181	184	185	185	184	182	181	182	182	179	181	183	182	182	185	185	185	183	182	183	180	180	180	178	178	178	177	182	181	183	183	183	183	182	183	184	183	183	184	184	183	184	183	183	184	183	182	182	183	183	182	181	180	181	180	179	180	182	182	181	180	179	183	182	178	179	179	180	182	175	183	180	179	178	178	178	181	182	182	179	181	181	181	183	181	182	181	178	178	178	175	175	175	177	179	179	181	182	182	179	181	181	181	182	181	178	178	178	175	175	175	176	176	177	180	178	178	178	177	177	177	176	176	177	176	177	178	177	176	174	175	176	176	177	177	176	174	173	174	174	173	172	175	175	0	0	0
183	182	181	183	183	184	184	184	184	185	182	182	182	182	182	181	182	180	180	182	186	184	185	185	184	186	184	184	184	184	187	187	186	186	186	184	183	185	184	183	184	181	182	186	184	184	185	186	186	186	186	187	184	184	184	184	187	187	189	187	187	186	185	186	186	187	188	188	188	187	185	185	185	185	185	186	186	187	187	187	186	185	185	186	184	186	186	184	186	189	186	186	186	187	188	188	189	187	188	187	187	188	187	188	188	187	186	185	187	189	190	188	187	187	186	186	187	188	190	189	189	189	189	190	188	190	188	187	187	187	189	190	190	191	191	191	190	190	187	190	188	187	188	188	189	190	191	189	190	189	192	192	193	191	190	190	190	191	191	191	190	192	192	193	191	191	192	190	192	192	191	190	192	190	188	188	190	189	188	187	186	186	188	191	191	190	190	190	191	192	192	193	192	191	187	189	188	190	190	189	188	190	192	190	187	188	189	190	191	192	190	188	186	186	188	188	190	188	189	189	191	189	189	188	189	189	189	190	189	190	192	194	193	192	192	192	188	191	191	188	191	192	190	190	191	192	191	192	194	194	189	189	190	191	188	188	190	191	191	189	188	190	192	191	193	192	196	195	193	191	191	191	191	191	189	188	191	190	190	189	190	191	188	189	189	190	189	191	190	189	188	189	189	189	188	189	189	189	191	190	190	190	190	190	190	190	188	189	187	186	189	189	188	191	191	191	191	191	191	189	189	191	193	194	192	193	189	189	189	189	189	193	193	192	193	193	194	193	193	192	192	193	191	191	189	187	190	191	192	189	187	189	189	192	193	193	191	193	191	191	190	191	190	191	191	189	189	187	190	190	190	190	190	191	191	191	191	189	190	187	187	187	191	190	190	187	189	189	191	190	189	188	188	188	187	186	186	186	186	190	190	191	187	187	186	187	187	188	189	189	188	187	187	190	188	190	189	188	190	187	188	188	187	190	189	191	190	190	189	186	188	185	187	186	188	191	188	186	187	186	187	188	189	187	185	186	187	186	187	188	188	186	186	184	185	186	185	187	185	184	184	185	185	185	184	184	185	186	187	186	184	183	183	183	183	184	183	183	183	184	183	183	182	182	184	183	187	185	184	185	182	180	179	182	183	183	184	183	181	182	181	181	180	180	182	182	181	182	185	185	183	183	180	180	180	179	179	181	182	182	182	181	180	182	182	182	180	179	181	181	182	181	180	183	183	183	183	182	182	182	182	183	181	182	180	179	180	178	178	180	181	181	181	180	180	181	181	180	175	177	175	177	182	180	179	179	177	177	176	178	179	179	180	179	178	180	180	179	181	178	178	178	177	177	175	174	176	177	177	178	176	177	178	181	181	181	181	179	177	177	177	176	176	175	176	174	174	175	177	177	176	179	179	175	175	176	175	175	174	175	175	175	175	174	174	175	173	175	174	173	172	172	171	172	172	173	175	0	0	0
182	178	178	180	180	180	181	184	183	183	181	181	177	177	178	179	180	180	182	186	185	182	180	180	183	184	182	183	184	186	186	185	186	186	182	182	183	184	183	184	181	181	183	182	184	184	186	185	185	186	186	185	186	184	184	187	187	188	187	184	187	184	183	183	183	185	186	186	186	186	186	184	184	184	184	184	183	184	186	184	184	184	184	184	183	184	184	185	185	186	186	186	185	186	187	188	188	185	188	187	188	187	186	186	186	187	185	185	186	187	187	188	188	188	186	186	187	189	188	189	188	187	188	189	189	187	184	185	187	189	190	190	190	190	190	189	188	188	184	190	189	187	187	187	187	188	190	188	188	187	187	192	193	191	188	189	189	191	194	193	192	191	191	191	192	191	193	190	192	192	189	189	191	192	190	190	193	190	189	187	187	186	187	189	188	190	189	190	190	190	190	193	192	191	191	187	189	190	190	188	188	188	186	187	189	188	189	190	190	191	190	187	186	188	190	190	189	189	188	189	188	188	188	189	188	189	190	189	187	188	190	192	192	190	188	188	189	191	191	191	191	190	191	190	190	191	192	189	190	192	188	187	188	189	188	188	189	190	189	189	188	186	188	190	191	191	191	194	191	191	191	191	191	189	190	189	189	189	188	187	188	188	191	187	189	189	189	188	189	188	187	187	187	188	190	190	191	191	189	190	190	190	190	192	190	190	190	190	188	185	185	187	191	190	190	191	188	188	189	189	189	190	193	193	190	191	191	189	188	189	191	192	192	192	192	192	192	193	193	191	191	191	190	189	188	188	188	188	190	186	186	187	187	189	189	189	189	190	187	187	189	189	188	189	192	193	191	191	190	189	187	188	191	192	192	191	190	189	188	186	187	185	187	188	186	188	186	185	190	190	189	188	187	188	187	187	187	187	187	188	188	187	186	185	187	187	188	189	189	187	188	188	189	193	193	188	188	187	185	185	186	188	187	189	187	188	188	189	188	185	187	186	184	186	185	183	184	183	183	187	186	183	182	183	184	185	187	187	187	189	188	187	186	185	184	185	184	184	184	184	184	184	184	184	184	184	183	186	186	184	184	183	184	183	183	184	183	183	182	183	183	182	182	182	182	184	182	185	185	183	181	182	182	182	182	182	182	181	181	181	180	180	181	181	181	182	182	181	183	183	180	182	182	179	180	179	180	180	182	181	182	178	179	179	180	179	177	178	177	180	180	181	180	182	182	182	182	181	179	181	181	179	182	181	179	177	178	175	178	179	179	180	180	180	180	180	179	178	177	175	176	177	179	177	176	176	176	177	176	178	178	179	179	178	177	175	176	180	177	177	178	177	177	176	174	172	172	176	174	176	177	177	174	176	180	179	180	179	179	177	176	176	177	178	177	176	175	174	176	176	176	176	175	174	174	174	174	174	174	175	176	176	175	172	175	173	172	174	174	173	171	171	171	171	173	173	175	0	0	0
180	176	176	178	178	178	180	182	181	181	179	176	176	178	178	177	181	182	186	182	180	178	178	177	177	178	179	183	186	186	185	186	186	185	182	182	184	184	183	183	181	183	184	183	182	184	185	185	185	185	184	184	186	185	186	185	185	186	184	183	183	182	182	182	184	184	185	186	186	185	184	183	183	184	183	183	183	184	185	184	184	184	184	184	184	182	182	182	183	185	186	185	184	185	184	187	185	186	186	186	186	187	186	186	185	185	184	185	186	186	186	187	188	188	187	186	187	188	187	185	185	185	188	187	185	184	184	185	186	189	190	190	188	189	187	188	186	184	183	186	186	187	187	187	186	186	188	189	186	186	187	191	192	193	189	189	186	189	192	192	191	191	190	190	190	189	189	188	187	188	188	188	190	191	194	194	191	190	189	187	187	186	187	190	189	189	189	190	189	188	189	189	189	191	189	189	189	190	190	189	188	184	185	185	185	186	189	189	189	189	188	187	186	188	189	189	189	188	187	187	187	188	189	188	191	190	188	188	187	187	189	189	188	189	187	186	188	189	190	192	191	191	190	189	189	188	187	188	187	190	190	188	188	188	188	188	188	189	189	188	187	188	189	189	190	191	192	189	189	190	192	189	190	189	187	188	188	187	187	187	188	188	188	190	188	190	189	189	187	187	187	184	184	186	186	188	190	187	189	189	190	189	191	192	190	189	189	190	185	187	187	190	191	190	190	188	186	186	187	189	187	187	191	192	189	189	189	188	188	189	189	191	190	190	189	188	190	192	190	190	191	190	188	188	188	189	189	189	189	187	185	185	186	189	187	188	189	187	187	187	189	189	189	190	189	189	190	191	191	190	188	188	190	193	190	191	189	188	186	186	184	185	186	187	187	186	186	186	186	188	187	185	184	184	186	187	188	188	187	186	186	187	186	184	183	187	187	186	186	185	187	188	189	193	191	187	187	185	184	186	186	187	189	186	186	185	187	187	187	187	186	187	186	187	186	186	184	183	185	185	185	185	181	181	184	184	185	186	186	189	188	187	187	184	183	183	184	184	184	184	185	185	185	185	185	183	182	183	184	184	183	183	183	183	182	182	183	181	182	182	181	181	182	182	182	181	182	188	183	183	182	182	182	182	183	182	181	182	182	182	182	182	181	181	182	181	182	181	180	180	180	179	182	178	180	181	178	178	178	178	181	179	179	179	178	179	177	178	177	179	180	181	178	179	177	180	182	181	178	181	178	179	177	177	177	175	178	175	176	178	181	181	180	177	177	178	175	174	174	177	178	179	179	177	175	176	176	176	177	181	181	179	178	177	175	175	175	178	178	178	177	176	177	176	174	175	172	176	173	174	175	175	172	176	178	178	175	178	178	177	175	174	174	175	177	176	176	175	173	170	173	173	173	173	175	174	173	170	174	173	175	175	176	173	173	173	173	175	176	173	173	172	171	171	171	173	172	0	0	0
178	178	177	178	179	179	180	181	181	178	178	175	176	179	179	180	182	184	182	180	178	178	179	180	180	177	178	181	183	185	179	178	178	184	180	183	183	183	183	181	182	184	184	182	182	182	183	183	184	184	183	184	183	184	186	182	183	183	183	181	182	181	181	183	183	184	184	183	186	184	183	182	182	183	184	184	184	184	183	183	184	183	183	184	181	181	183	183	183	184	183	184	185	184	185	186	185	184	185	185	186	185	186	185	183	183	183	185	185	185	186	188	188	186	186	186	187	186	186	183	184	184	186	187	184	184	185	185	187	187	186	190	188	189	187	187	187	184	185	185	185	186	187	185	186	185	185	186	185	186	188	186	187	187	184	185	183	185	188	191	189	191	188	187	186	185	186	187	188	186	187	186	186	187	193	193	193	188	189	189	187	188	187	190	189	189	187	188	188	188	187	187	189	189	189	188	189	190	190	189	187	186	183	184	187	187	189	190	189	188	187	185	185	186	189	186	189	185	186	187	190	189	188	189	187	189	187	187	186	187	187	188	187	188	189	188	187	189	187	186	186	187	188	188	188	187	187	188	188	187	189	190	191	191	187	188	187	187	188	187	187	188	188	189	190	190	186	187	188	188	191	189	189	188	188	188	189	187	187	187	187	187	188	190	188	188	189	190	189	189	187	186	185	185	187	188	190	189	187	188	189	189	188	190	188	189	188	190	189	187	187	191	190	187	187	188	187	187	187	187	186	187	188	189	188	188	189	186	187	188	189	189	188	189	188	188	189	188	191	190	191	189	189	187	187	186	189	189	189	185	186	185	186	189	189	189	186	188	186	186	187	188	188	189	189	188	189	191	188	186	186	186	188	189	187	187	189	187	185	184	186	185	186	186	186	185	186	184	185	186	185	184	184	184	184	187	188	185	184	185	186	186	187	182	182	183	186	185	185	183	185	186	190	191	189	187	187	184	185	182	186	186	188	186	184	184	183	184	184	184	184	187	187	186	187	186	186	183	184	184	184	185	184	182	183	184	183	185	186	187	185	186	186	184	182	184	184	182	184	184	183	185	184	184	185	182	183	182	183	182	183	183	182	181	181	181	182	180	180	182	182	181	181	181	181	180	181	181	185	182	180	181	181	181	181	181	182	182	182	183	183	183	183	183	180	181	183	181	180	180	178	179	179	179	180	183	182	180	179	180	179	179	180	181	181	180	179	177	180	179	180	181	181	179	178	176	179	179	178	178	178	178	178	177	176	176	176	176	177	177	178	177	176	176	176	175	174	174	175	178	178	179	180	177	176	175	175	176	176	178	181	176	177	175	174	174	174	174	177	177	177	177	179	176	176	175	172	172	172	173	175	174	173	173	175	174	174	174	175	175	175	175	175	175	175	176	176	175	173	173	173	173	173	172	172	173	171	170	171	173	173	175	174	173	172	173	175	174	173	173	173	173	170	170	171	172	171	171	0	0
180	180	180	178	178	180	180	180	179	175	175	175	176	178	177	177	179	180	180	178	180	178	179	179	180	180	179	179	180	179	179	178	176	181	179	180	180	181	182	181	184	184	182	181	181	182	181	182	183	182	182	182	182	181	183	181	182	181	181	181	181	181	183	184	183	183	183	182	183	183	183	183	182	183	183	184	184	183	183	183	181	182	182	181	181	181	182	183	183	183	183	182	182	182	183	185	185	183	184	185	186	186	185	184	183	181	184	184	184	186	186	188	187	186	184	183	184	184	183	182	182	183	186	190	187	185	185	187	186	187	185	185	188	187	186	186	185	182	182	182	182	182	180	181	185	185	185	186	184	186	184	185	187	187	184	183	183	187	187	186	185	186	186	183	183	184	186	186	188	187	187	186	186	186	186	192	188	189	189	189	187	188	187	187	187	186	186	187	188	188	186	186	188	187	188	187	188	189	189	189	188	185	183	184	187	187	188	187	187	187	184	184	184	185	185	185	185	186	187	190	191	189	188	185	186	188	186	186	187	186	188	187	187	185	187	186	188	189	189	189	186	188	189	188	190	186	188	186	186	186	189	189	190	188	186	186	184	184	185	186	187	187	187	187	189	188	185	185	187	186	188	187	187	187	187	187	189	188	189	188	188	187	186	186	187	185	185	190	189	189	188	187	186	186	186	187	188	187	187	188	187	188	189	187	187	187	188	188	187	188	187	191	188	188	187	188	187	187	187	188	186	186	187	187	187	187	186	186	188	188	189	188	188	188	188	189	189	189	187	189	190	190	188	188	188	187	188	188	187	183	183	185	186	188	188	187	187	187	186	186	186	187	186	185	188	188	188	188	187	185	185	186	188	188	186	185	188	183	183	182	183	184	186	186	185	185	183	184	184	186	185	186	184	185	185	184	184	184	187	185	186	187	187	188	184	182	185	185	183	184	184	187	187	187	188	188	188	185	183	183	183	184	186	185	185	185	185	185	184	183	182	184	185	188	190	186	187	185	183	182	183	182	184	182	184	184	181	184	184	187	184	183	183	183	184	182	182	182	183	183	185	183	184	183	183	182	181	181	180	182	181	180	180	180	180	181	181	180	181	183	182	184	181	179	178	181	181	180	180	180	180	178	180	180	180	181	181	183	183	183	183	183	184	183	181	182	181	180	179	180	179	178	179	179	179	182	182	180	178	178	178	179	179	180	179	181	180	178	178	177	180	181	182	180	179	178	179	178	178	178	178	177	176	176	176	177	177	178	177	177	175	176	176	175	176	177	177	177	178	177	176	176	177	175	174	173	171	175	176	177	177	176	176	176	176	174	174	174	174	176	176	179	178	177	176	176	174	176	176	172	175	175	174	173	173	174	174	174	174	175	174	172	172	174	174	175	174	175	175	175	174	173	173	171	171	170	171	171	171	172	172	174	173	173	173	173	172	172	173	173	172	172	171	169	168	171	171	171	0	0
178	177	177	178	178	179	179	179	181	175	176	176	174	175	174	174	177	178	179	180	177	178	180	181	180	180	179	175	176	178	178	177	177	178	178	180	182	182	181	184	182	182	181	181	182	182	181	183	182	181	181	181	180	180	182	181	182	182	182	181	181	181	181	183	182	182	181	181	181	182	183	182	181	182	182	182	182	182	182	183	180	181	182	181	182	181	181	180	181	178	178	182	182	181	183	183	184	184	183	184	184	184	183	184	182	181	183	183	183	184	185	188	186	186	184	183	186	185	182	179	181	182	189	185	188	185	185	185	186	184	184	184	184	184	185	184	182	181	181	182	182	182	181	183	183	185	185	185	182	182	183	184	184	184	184	183	186	186	186	183	186	185	185	186	186	186	185	186	187	187	187	186	185	186	186	187	187	187	189	187	186	185	185	185	186	185	185	187	188	188	187	186	186	186	187	187	188	188	188	188	189	187	183	186	186	188	189	186	186	186	185	184	184	185	184	185	184	185	187	190	187	187	184	185	186	187	186	185	186	187	189	187	186	185	187	187	186	189	187	189	186	187	188	190	187	187	187	187	188	188	188	187	187	185	186	184	186	186	187	187	184	185	186	187	186	185	187	185	187	188	189	187	187	186	187	185	189	185	188	187	188	187	187	188	188	185	185	185	189	189	188	187	186	186	187	188	187	186	187	187	186	187	187	187	187	188	186	186	187	188	189	189	187	188	186	187	187	185	188	186	186	186	187	186	186	186	186	186	186	188	189	189	189	190	189	189	189	188	185	183	185	187	188	187	186	187	189	186	183	182	183	184	185	187	187	187	186	185	185	186	185	186	185	185	184	186	187	186	187	184	185	185	185	186	186	186	183	184	183	184	185	183	182	185	183	184	183	184	185	185	185	185	184	185	185	182	184	184	184	188	189	189	188	184	184	184	184	184	183	182	184	181	182	184	185	185	184	185	184	184	185	184	183	186	186	185	185	185	183	182	181	181	181	183	185	186	185	184	183	181	181	181	180	182	180	184	181	181	185	180	181	183	183	182	182	182	182	182	182	183	182	183	183	181	182	180	180	180	179	178	179	179	178	180	181	182	182	182	182	181	181	183	181	182	181	180	181	179	178	177	178	180	180	180	176	180	180	182	183	181	180	183	182	181	180	180	180	175	177	179	178	177	179	178	180	181	180	180	179	178	178	176	176	178	179	178	177	177	175	177	179	180	179	177	176	175	175	178	178	180	180	179	176	177	177	177	176	176	174	173	175	175	176	175	176	177	177	177	176	176	175	175	174	174	173	172	172	172	174	175	174	174	176	177	177	176	174	173	172	171	173	174	173	173	173	173	175	175	173	175	175	175	173	171	172	172	172	173	173	174	175	173	171	172	174	175	174	174	174	173	171	171	170	170	170	170	169	171	171	171	171	173	172	173	173	170	170	172	172	172	172	172	171	169	168	168	168	169	0	0
178	174	174	176	176	178	178	179	176	175	176	174	173	174	175	174	174	177	178	177	178	176	180	179	179	178	178	174	175	177	177	177	176	176	178	180	179	179	176	178	183	181	181	182	181	180	182	182	180	179	178	178	179	180	181	182	181	181	181	181	181	181	181	181	180	181	181	181	181	182	182	182	182	181	180	180	182	179	179	180	179	179	181	181	182	181	181	181	180	180	180	180	180	181	181	181	181	181	183	183	183	184	183	183	181	181	181	182	183	183	185	185	186	186	184	183	183	183	181	182	182	183	183	184	185	184	184	185	184	182	179	182	184	185	186	185	180	179	179	181	182	181	181	181	181	183	185	182	183	181	181	181	181	183	183	184	182	182	182	185	183	184	184	183	182	183	186	185	184	185	183	183	184	185	185	185	186	185	185	185	183	183	184	183	185	184	184	186	188	187	187	185	185	187	187	187	187	186	182	184	184	183	184	183	187	186	188	188	186	186	186	184	185	185	185	185	185	185	187	188	188	187	187	187	188	187	186	184	185	186	189	188	186	186	186	185	185	187	187	186	186	186	187	186	186	185	185	187	187	188	188	187	186	185	184	185	185	185	185	184	184	184	184	185	185	187	185	185	186	188	188	188	185	186	186	185	185	188	185	186	187	187	187	188	186	187	184	186	188	188	189	187	186	187	188	187	185	186	187	187	186	186	187	188	188	187	187	187	186	186	186	189	186	184	186	186	186	185	186	185	185	184	186	187	187	186	185	186	186	187	188	189	188	189	189	188	188	187	185	184	185	187	187	185	188	188	186	183	182	182	180	182	184	185	186	185	185	183	183	185	185	183	184	185	183	185	185	186	187	184	185	184	184	184	184	184	184	183	183	185	186	185	183	182	184	183	184	182	185	185	184	184	185	185	184	180	182	183	184	187	189	185	185	185	184	184	184	185	184	184	182	180	180	184	183	185	184	183	183	182	182	182	184	185	186	185	185	184	183	183	181	182	182	184	185	185	185	183	182	181	179	178	182	181	179	179	179	179	179	179	180	183	182	181	181	181	181	181	180	181	181	181	182	181	178	179	179	180	180	180	180	180	179	179	180	183	182	182	181	181	181	180	182	181	181	179	179	178	177	177	179	178	180	179	179	177	179	179	179	181	181	179	180	179	178	178	178	175	175	176	176	178	179	179	180	179	179	180	180	177	175	177	176	176	178	180	179	175	175	175	176	176	177	177	176	175	175	175	176	177	176	177	175	176	176	176	175	175	174	175	175	175	174	175	176	176	174	176	176	175	175	174	174	174	175	174	172	173	174	174	175	174	177	177	176	175	174	175	172	171	172	173	172	173	173	173	175	174	173	173	174	174	173	171	171	172	172	173	172	175	172	173	171	171	170	175	175	175	175	173	171	170	170	169	170	170	170	170	170	171	171	172	172	172	168	170	170	171	171	170	170	171	169	169	168	168	169	168	0	0
