0	0	0	0	0	0	0	0	0	0	0	0	0	0	0	0	0	0	0	0	0	0	0	0	0	0	0	0	0	0	0	0	0	0	0	0	0	0	0	0	0	0	0	0	0	0	0	0	0	0	0	0	0	0	0	0	0	0	0	0	0	0	0	0	0	0	0	0	0	0	0	0	0	0	0	0	0	0	0	0	0	0	0	0	0	0	0	0	0	0	0	0	0	0	0	0	0	0	0	0	0	0	0	0	0	0	0	0	0	0	0	0	0	0	1347	1356	1377	1390	1385	1390	1403	1410	1404	1407	1413	1419	1420	1405	1379	1366	1363	1367	1372	1374	1367	1354	1351	1359	1376	1385	1389	1394	1408	1424	1397	1368	1356	1371	1398	1408	1404	1393	1380	1374	1373	0	0	0	0	0	0	0	0	0	0	0	0	0	0	0	0	0	0	0	0	0	0	0	0	0	0	0	0	0	0	0	0	0	1459	1494	1529	1534	1538	1537	1544	1538	1557	1595	1604	1604	1591	1580	1569	1571	1577	1558	1520	1491	1482	1477	1455	1417	1390	1394	1428	1463	0	0	0	0	0	0	0	0	0	0	0	0	0	0	0	0	0	0	0	0	0	1490	1493	1487	1463	1453	1469	1489	1478	1481	1496	1521	1533	1532	1520	0	0	0	0	0	0	0	1297	1340	1348	1347	1347	1345	1345	1345	1344	1346	1334	1328	1330	1326	1312	1296	1296	1301	1307	1320	1333	1333	1335	1334	1325	1315	1319	1336	1310	1295	1294	1306	1322	1334	1342	1340	1327	1315	0	0	0	0	1408	1539	1594	1602	1610	1620	1633	1641	1617	1623	1636	1643	1636	1629	1628	1633	1642	1641	1637	1625	1621	1619	1606	1563	1527	1512	1482	0	0	0	0	1564	1587	1593	1602	1621	1623	1629	1623	1623	1629	1634	1635	1635	1642	1653	1661	1648	1550	0	0	0	0	0	0	0	0	0	0	0	0	0	0	0	0	0	0	0	0	0	0	0	0	0	0	0	0	0	0	0	0	0	0	0	0	0	0	0	0	0	0	0	0	0	0	0	0	0	0	0	0	0	0	0	0	0	0	0	0	0	0	0	0	0	0	0	0	0	0	0	0	0	0	0	0	0	1210	1261	1260	1269	1280	1285	1274	1271	1268	1258	1251	1260	1267	1264	1260	1260	1264	1262	1255	1247	1240	1236	1249	1253	1248	1252	1254	1257	1259	1268	1272	1249	1217	0	0	0	0	0	0	0	0	0	0	0	0	0	0	0	0	0	0	0	0	0	0	0	0	0	0	0	0	0	0	0	0	0	0	0	0	0	0	0	0	0	0	0	0	0	0	0	0	0	0	0	0	0	0	0	0	0	0	0	0	0	0	0	0	0	0	0	0	0	0	0	0	0	0	0	0	0	0	0	0	0	0	0	0	0	0	0	0	0	0	0	0	0	0	0	0	0	0	0	0	0	0	0	0	0	0	0	0	0	0	0	0	0	0	0	0	0	0	0	0	0	0	0	0	0	0	0	0	0	0	0	0	0	0	0	0	0	0	0	0	0	0	0	0	0	0	0	0	0	0	0	0	0	0	0	0	0	0	0	0	0	0	0	0	0	0	0	0	0	0	0	0	0	0	0	0	0	0	0	0	0
0	0	0	0	0	0	0	0	0	0	0	0	0	0	0	0	0	0	0	0	0	0	0	0	0	0	0	0	0	0	0	0	0	0	0	0	0	0	0	0	0	0	0	0	0	0	0	0	0	0	0	0	0	0	0	0	0	0	0	0	0	0	0	0	0	0	0	0	0	0	0	0	0	0	0	0	0	0	0	0	0	0	0	0	0	0	0	0	0	0	0	0	0	0	0	0	0	0	0	0	0	0	0	0	0	0	0	0	0	0	0	0	0	0	1343	1355	1373	1386	1377	1387	1390	1403	1393	1387	1397	1409	1413	1403	1392	1384	1379	1382	1387	1387	1373	1366	1367	1378	1378	1366	1357	1361	1378	1411	1390	1370	1358	1378	1399	1418	1406	1401	1380	1374	1375	0	0	0	0	0	0	0	0	0	0	0	0	0	0	0	0	0	0	0	0	0	0	0	0	0	0	0	0	0	0	0	0	0	1459	1502	1542	1548	1546	1543	1552	1565	1586	1601	1599	1595	1591	1581	1565	1565	1569	1556	1524	1497	1481	1480	1468	1423	1398	1391	1428	1475	0	0	0	0	0	0	0	0	0	0	0	0	0	0	0	0	0	0	0	0	0	1489	1496	1486	1468	1454	1468	1512	1491	1482	1492	1516	1536	1539	1508	0	0	0	0	0	0	0	1303	1359	1352	1347	1345	1344	1348	1349	1354	1339	1324	1324	1325	1317	1297	1292	1293	1298	1308	1312	1324	1334	1337	1331	1321	1315	1321	1323	1313	1295	1295	1293	1304	1317	1334	1341	1337	1342	0	0	0	0	1420	1550	1597	1611	1620	1631	1630	1626	1604	1611	1621	1632	1625	1619	1625	1634	1647	1644	1632	1625	1620	1622	1602	1568	1527	1520	1499	0	0	0	0	1569	1614	1608	1602	1616	1627	1638	1629	1626	1633	1639	1641	1643	1650	1661	1683	1650	1529	0	0	0	0	0	0	0	0	0	0	0	0	0	0	0	0	0	0	0	0	0	0	0	0	0	0	0	0	0	0	0	0	0	0	0	0	0	0	0	0	0	0	0	0	0	0	0	0	0	0	0	0	0	0	0	0	0	0	0	0	0	0	0	0	0	0	0	0	0	0	0	0	0	0	0	0	0	1214	1272	1256	1269	1276	1281	1273	1265	1266	1253	1246	1255	1264	1262	1261	1261	1265	1258	1256	1249	1241	1238	1248	1255	1256	1246	1250	1261	1269	1273	1271	1265	1245	1150	0	0	0	0	0	0	0	0	0	0	0	0	0	0	0	0	0	0	0	0	0	0	0	0	0	0	0	0	0	0	0	0	0	0	0	0	0	0	0	0	0	0	0	0	0	0	0	0	0	0	0	0	0	0	0	0	0	0	0	0	0	0	0	0	0	0	0	0	0	0	0	0	0	0	0	0	0	0	0	0	0	0	0	0	0	0	0	0	0	0	0	0	0	0	0	0	0	0	0	0	0	0	0	0	0	0	0	0	0	0	0	0	0	0	0	0	0	0	0	0	0	0	0	0	0	0	0	0	0	0	0	0	0	0	0	0	0	0	0	0	0	0	0	0	0	0	0	0	0	0	0	0	0	0	0	0	0	0	0	0	0	0	0	0	0	0	0	0	0	0	0	0	0	0	0	0	0	0	0	0
0	0	0	0	0	0	0	0	0	0	0	0	0	0	0	0	0	0	0	0	0	0	0	0	0	0	0	0	0	0	0	0	0	0	0	0	0	0	0	0	0	0	0	0	0	0	0	0	0	0	0	0	0	0	0	0	0	0	0	0	0	0	0	0	0	0	0	0	0	0	0	0	0	0	0	0	0	0	0	0	0	0	0	0	0	0	0	0	0	0	0	0	0	0	0	0	0	0	0	0	0	0	0	0	0	0	0	0	0	0	0	0	0	0	1325	1349	1369	1384	1396	1393	1397	1407	1380	1374	1383	1394	1406	1407	1402	1395	1392	1396	1397	1389	1380	1379	1393	1402	1390	1365	1345	1342	1352	1398	1400	1384	1372	1374	1391	1395	1396	1405	1389	1388	1379	0	0	0	0	0	0	0	0	0	0	0	0	0	0	0	0	0	0	0	0	0	0	0	0	0	0	0	0	0	0	0	0	0	1474	1533	1564	1566	1562	1555	1563	1572	1590	1584	1578	1577	1579	1570	1552	1551	1561	1560	1538	1518	1496	1480	1469	1430	1402	1408	1451	1488	1514	0	0	0	0	0	0	0	0	0	0	0	0	0	0	0	0	0	0	0	0	1500	1508	1506	1482	1469	1474	1508	1510	1491	1494	1526	1549	1553	1527	0	0	0	0	0	0	0	1285	1344	1349	1345	1343	1341	1341	1352	1356	1338	1315	1314	1312	1309	1297	1292	1309	1304	1308	1311	1326	1331	1332	1329	1325	1321	1320	1319	1315	1301	1300	1290	1298	1312	1334	1347	1355	1379	0	0	0	0	1433	1550	1587	1599	1625	1636	1634	1624	1612	1624	1636	1637	1630	1624	1620	1622	1637	1635	1629	1628	1633	1628	1598	1554	1533	1538	0	0	0	0	0	1586	1624	1614	1615	1627	1642	1646	1646	1636	1638	1645	1649	1648	1643	1661	1674	1646	1507	0	0	0	0	0	0	0	0	0	0	0	0	0	0	0	0	0	0	0	0	0	0	0	0	0	0	0	0	0	0	0	0	0	0	0	0	0	0	0	0	0	0	0	0	0	0	0	0	0	0	0	0	0	0	0	0	0	0	0	0	0	0	0	0	0	0	0	0	0	0	0	0	0	0	0	0	0	1248	1275	1263	1270	1278	1277	1271	1266	1257	1247	1251	1257	1262	1261	1260	1258	1261	1258	1254	1243	1231	1232	1240	1246	1250	1250	1253	1265	1273	1273	1268	1259	1249	1158	0	0	0	0	0	0	0	0	0	0	0	0	0	0	0	0	0	0	0	0	0	0	0	0	0	0	0	0	0	0	0	0	0	0	0	0	0	0	0	0	0	0	0	0	0	0	0	0	0	0	0	0	0	0	0	0	0	0	0	0	0	0	0	0	0	0	0	0	0	0	0	0	0	0	0	0	0	0	0	0	0	0	0	0	0	0	0	0	0	0	0	0	0	0	0	0	0	0	0	0	0	0	0	0	0	0	0	0	0	0	0	0	0	0	0	0	0	0	0	0	0	0	0	0	0	0	0	0	0	0	0	0	0	0	0	0	0	0	0	0	0	0	0	0	0	0	0	0	0	0	0	0	0	0	0	0	0	0	0	0	0	0	0	0	0	0	0	0	0	0	0	0	0	0	0	0	0	0	0	0
0	0	0	0	0	0	0	0	0	0	0	0	0	0	0	0	0	0	0	0	0	0	0	0	0	0	0	0	0	0	0	0	0	0	0	0	0	0	0	0	0	0	0	0	0	0	0	0	0	0	0	0	0	0	0	0	0	0	0	0	0	0	0	0	0	0	0	0	0	0	0	0	0	0	0	0	0	0	0	0	0	0	0	0	0	0	0	0	0	0	0	0	0	0	0	0	0	0	0	0	0	0	0	0	0	0	0	0	0	0	0	0	0	0	1315	1342	1376	1401	1404	1409	1417	1420	1385	1372	1374	1396	1413	1420	1415	1407	1398	1400	1397	1393	1384	1386	1403	1416	1411	1388	1362	1346	1343	1364	1398	1387	1373	1362	1362	1370	1390	1401	1408	1403	1373	0	0	0	0	0	0	0	0	0	0	0	0	0	0	0	0	0	0	0	0	0	0	0	0	0	0	0	0	0	0	0	0	0	1482	1537	1547	1556	1559	1565	1568	1588	1589	1574	1553	1557	1570	1556	1543	1538	1545	1554	1547	1525	1498	1476	1464	1439	1421	1433	1467	1511	1524	0	0	0	0	0	0	0	0	0	0	0	0	0	0	0	0	0	0	0	0	1514	1527	1514	1498	1481	1473	1506	1527	1541	1523	1540	1559	1561	1538	0	0	0	0	0	0	0	1262	1323	1344	1343	1337	1334	1333	1339	1345	1334	1305	1306	1306	1306	1302	1336	1336	1307	1308	1311	1340	1334	1331	1334	1335	1336	1336	1329	1314	1290	1279	1283	1291	1315	1342	1349	1374	1372	0	0	0	0	1442	1535	1576	1593	1614	1625	1632	1628	1625	1640	1655	1656	1644	1626	1620	1615	1613	1612	1619	1636	1662	1656	1596	1525	1545	1548	0	0	0	0	0	1599	1616	1600	1605	1630	1651	1664	1654	1642	1637	1645	1649	1652	1652	1642	1639	1649	1512	0	0	0	0	0	0	0	0	0	0	0	0	0	0	0	0	0	0	0	0	0	0	0	0	0	0	0	0	0	0	0	0	0	0	0	0	0	0	0	0	0	0	0	0	0	0	0	0	0	0	0	0	0	0	0	0	0	0	0	0	0	0	0	0	0	0	0	0	0	0	0	0	0	0	0	0	0	1248	1268	1263	1272	1274	1272	1271	1266	1255	1252	1256	1252	1257	1259	1260	1262	1260	1259	1252	1242	1226	1230	1232	1239	1242	1246	1254	1264	1270	1263	1254	1233	1235	1151	0	0	0	0	0	0	0	0	0	0	0	0	0	0	0	0	0	0	0	0	0	0	0	0	0	0	0	0	0	0	0	0	0	0	0	0	0	0	0	0	0	0	0	0	0	0	0	0	0	0	0	0	0	0	0	0	0	0	0	0	0	0	0	0	0	0	0	0	0	0	0	0	0	0	0	0	0	0	0	0	0	0	0	0	0	0	0	0	0	0	0	0	0	0	0	0	0	0	0	0	0	0	0	0	0	0	0	0	0	0	0	0	0	0	0	0	0	0	0	0	0	0	0	0	0	0	0	0	0	0	0	0	0	0	0	0	0	0	0	0	0	0	0	0	0	0	0	0	0	0	0	0	0	0	0	0	0	0	0	0	0	0	0	0	0	0	0	0	0	0	0	0	0	0	0	0	0	0	0	0
0	0	0	0	0	0	0	0	0	0	0	0	0	0	0	0	0	0	0	0	0	0	0	0	0	0	0	0	0	0	0	0	0	0	0	0	0	0	0	0	0	0	0	0	0	0	0	0	0	0	0	0	0	0	0	0	0	0	0	0	0	0	0	0	0	0	0	0	0	0	0	0	0	0	0	0	0	0	0	0	0	0	0	0	0	0	0	0	0	0	0	0	0	0	0	0	0	0	0	0	0	0	0	0	0	0	0	0	0	0	0	0	0	0	1336	1357	1381	1396	1414	1422	1430	1440	1398	1384	1388	1407	1422	1428	1422	1407	1400	1398	1398	1395	1387	1381	1388	1406	1422	1410	1391	1359	1358	1366	1372	1367	1357	1354	1357	1371	1393	1418	1417	1400	1372	0	0	0	0	0	0	0	0	0	0	0	0	0	0	0	0	0	0	0	0	0	0	0	0	0	0	0	0	0	0	0	0	0	1493	1540	1510	1503	1518	1545	1576	1604	1611	1581	1562	1555	1552	1544	1534	1530	1534	1544	1537	1524	1496	1485	1465	1439	1438	1451	1481	1525	0	0	0	0	0	0	0	0	0	0	0	0	0	0	0	0	0	0	0	0	0	1503	1519	1522	1512	1493	1477	1471	1564	1597	1591	1567	1563	1568	1529	0	0	0	0	0	0	0	1268	1310	1329	1334	1331	1326	1324	1329	1335	1321	1290	1294	1299	1308	1336	1350	1338	1308	1312	1314	1355	1352	1336	1339	1340	1341	1345	1336	1318	1284	1276	1273	1286	1321	1334	1341	1352	1348	0	0	0	0	1457	1541	1589	1610	1623	1629	1625	1626	1635	1647	1670	1669	1652	1634	1618	1609	1600	1602	1611	1643	1678	1660	1582	1525	1545	1550	0	0	0	0	0	1612	1597	1582	1594	1622	1657	1663	1650	1637	1626	1626	1630	1633	1639	1635	1632	1634	1546	0	0	0	0	0	0	0	0	0	0	0	0	0	0	0	0	0	0	0	0	0	0	0	0	0	0	0	0	0	0	0	0	0	0	0	0	0	0	0	0	0	0	0	0	0	0	0	0	0	0	0	0	0	0	0	0	0	0	0	0	0	0	0	0	0	0	0	0	0	0	0	0	0	0	0	0	0	1237	1261	1261	1275	1277	1270	1265	1264	1260	1259	1261	1254	1248	1251	1254	1256	1258	1259	1252	1245	1236	1234	1228	1235	1237	1241	1252	1266	1260	1247	1232	1210	1201	1129	0	0	0	0	0	0	0	0	0	0	0	0	0	0	0	0	0	0	0	0	0	0	0	0	0	0	0	0	0	0	0	0	0	0	0	0	0	0	0	0	0	0	0	0	0	0	0	0	0	0	0	0	0	0	0	0	0	0	0	0	0	0	0	0	0	0	0	0	0	0	0	0	0	0	0	0	0	0	0	0	0	0	0	0	0	0	0	0	0	0	0	0	0	0	0	0	0	0	0	0	0	0	0	0	0	0	0	0	0	0	0	0	0	0	0	0	0	0	0	0	0	0	0	0	0	0	0	0	0	0	0	0	0	0	0	0	0	0	0	0	0	0	0	0	0	0	0	0	0	0	0	0	0	0	0	0	0	0	0	0	0	0	0	0	0	0	0	0	0	0	0	0	0	0	0	0	0	0	0	0
0	0	0	0	0	0	0	0	0	0	0	0	0	0	0	0	0	0	0	0	0	0	0	0	0	0	0	0	0	0	0	0	0	0	0	0	0	0	0	0	0	0	0	0	0	0	0	0	0	0	0	0	0	0	0	0	0	0	0	0	0	0	0	0	0	0	0	0	0	0	0	0	0	0	0	0	0	0	0	0	0	0	0	0	0	0	0	0	0	0	0	0	0	0	0	0	0	0	0	0	0	0	0	0	0	0	0	0	0	0	0	0	0	0	1349	1383	1386	1392	1400	1407	1422	1437	1413	1399	1402	1417	1429	1431	1422	1408	1396	1395	1386	1385	1378	1375	1372	1380	1400	1394	1385	1361	1359	1360	1352	1346	1339	1342	1347	1391	1407	1425	1418	1392	1360	0	0	0	0	0	0	0	0	0	0	0	0	0	0	0	0	0	0	0	0	0	0	0	0	0	0	0	0	0	0	0	0	0	1520	1546	1487	1484	1494	1529	1568	1595	1610	1596	1571	1553	1544	1549	1539	1534	1545	1547	1532	1530	1506	1489	1469	1440	1436	1454	1478	1518	0	0	0	0	0	0	0	0	0	0	0	0	0	0	0	0	0	0	0	0	1453	1485	1499	1512	1521	1510	1495	1470	1564	1608	1602	1587	1575	1555	1513	0	0	0	0	0	0	0	1280	1318	1324	1326	1329	1323	1318	1318	1330	1298	1278	1283	1291	1318	1350	1357	1341	1332	1315	1325	1358	1357	1339	1331	1333	1334	1343	1340	1331	1290	1272	1266	1277	1316	1323	1327	1323	1310	0	0	0	0	1471	1561	1599	1613	1623	1624	1622	1628	1633	1643	1658	1666	1652	1637	1619	1609	1600	1598	1612	1639	1669	1657	1587	1536	1535	1551	0	0	0	0	0	1605	1603	1596	1595	1615	1641	1649	1634	1622	1608	1610	1614	1615	1623	1629	1631	1628	1565	0	0	0	0	0	0	0	0	0	0	0	0	0	0	0	0	0	0	0	0	0	0	0	0	0	0	0	0	0	0	0	0	0	0	0	0	0	0	0	0	0	0	0	0	0	0	0	0	0	0	0	0	0	0	0	0	0	0	0	0	0	0	0	0	0	0	0	0	0	0	0	0	0	0	0	0	0	1226	1256	1263	1274	1267	1272	1266	1261	1258	1260	1262	1252	1245	1241	1244	1251	1255	1254	1252	1245	1241	1238	1237	1235	1239	1243	1262	1262	1251	1227	1213	1200	1187	1113	0	0	0	0	0	0	0	0	0	0	0	0	0	0	0	0	0	0	0	0	0	0	0	0	0	0	0	0	0	0	0	0	0	0	0	0	0	0	0	0	0	0	0	0	0	0	0	0	0	0	0	0	0	0	0	0	0	0	0	0	0	0	0	0	0	0	0	0	0	0	0	0	0	0	0	0	0	0	0	0	0	0	0	0	0	0	0	0	0	0	0	0	0	0	0	0	0	0	0	0	0	0	0	0	0	0	0	0	0	0	0	0	0	0	0	0	0	0	0	0	0	0	0	0	0	0	0	0	0	0	0	0	0	0	0	0	0	0	0	0	0	0	0	0	0	0	0	0	0	0	0	0	0	0	0	0	0	0	0	0	0	0	0	0	0	0	0	0	0	0	0	0	0	0	0	0	0	0	0	0
0	0	0	0	0	0	0	0	0	0	0	0	0	0	0	0	0	0	0	0	0	0	0	0	0	0	0	0	0	0	0	0	0	0	0	0	0	0	0	0	0	0	0	0	0	0	0	0	0	0	0	0	0	0	0	0	0	0	0	0	0	0	0	0	0	0	0	0	0	0	0	0	0	0	0	0	0	0	0	0	0	0	0	0	0	0	0	0	0	0	0	0	0	0	0	0	0	0	0	0	0	0	0	0	0	0	0	0	0	0	0	0	0	0	1347	1396	1393	1385	1381	1394	1411	1425	1430	1413	1422	1430	1432	1427	1416	1404	1397	1396	1381	1374	1366	1359	1358	1367	1383	1375	1368	1356	1350	1349	1336	1335	1343	1352	1359	1385	1411	1416	1404	1379	1358	0	0	0	0	0	0	0	0	0	0	0	0	0	0	0	0	0	0	0	0	0	0	0	0	0	0	0	0	0	0	0	0	0	1546	1561	1517	1487	1495	1526	1552	1570	1587	1582	1570	1559	1558	1569	1573	1581	1573	1558	1513	1500	1494	1488	1469	1433	1428	1444	1473	1505	1501	0	0	0	0	0	0	0	0	0	0	0	0	0	0	0	0	0	0	0	1440	1467	1491	1501	1520	1521	1494	1473	1520	1566	1573	1564	1551	1517	1484	0	0	0	0	0	0	0	1307	1338	1325	1325	1328	1334	1328	1329	1329	1295	1275	1278	1294	1336	1351	1349	1341	1333	1319	1321	1347	1347	1349	1333	1322	1320	1329	1325	1323	1303	1267	1267	1266	1286	1318	1322	1319	1296	0	0	0	0	1478	1577	1610	1622	1625	1627	1628	1620	1630	1636	1649	1653	1639	1625	1614	1602	1596	1602	1600	1607	1639	1650	1596	1569	1547	1536	0	0	0	0	0	1602	1614	1614	1608	1615	1628	1631	1624	1613	1609	1609	1617	1619	1621	1624	1621	1604	1550	0	0	0	0	0	0	0	0	0	0	0	0	0	0	0	0	0	0	0	0	0	0	0	0	0	0	0	0	0	0	0	0	0	0	0	0	0	0	0	0	0	0	0	0	0	0	0	0	0	0	0	0	0	0	0	0	0	0	0	0	0	0	0	0	0	0	0	0	0	0	0	0	0	0	0	0	0	1205	1254	1269	1271	1258	1259	1261	1256	1253	1255	1260	1249	1238	1234	1238	1243	1250	1252	1249	1247	1246	1246	1245	1249	1253	1264	1268	1260	1245	1228	1215	1208	1199	1125	0	0	0	0	0	0	0	0	0	0	0	0	0	0	0	0	0	0	0	0	0	0	0	0	0	0	0	0	0	0	0	0	0	0	0	0	0	0	0	0	0	0	0	0	0	0	0	0	0	0	0	0	0	0	0	0	0	0	0	0	0	0	0	0	0	0	0	0	0	0	0	0	0	0	0	0	0	0	0	0	0	0	0	0	0	0	0	0	0	0	0	0	0	0	0	0	0	0	0	0	0	0	0	0	0	0	0	0	0	0	0	0	0	0	0	0	0	0	0	0	0	0	0	0	0	0	0	0	0	0	0	0	0	0	0	0	0	0	0	0	0	0	0	0	0	0	0	0	0	0	0	0	0	0	0	0	0	0	0	0	0	0	0	0	0	0	0	0	0	0	0	0	0	0	0	0	0	0	0	0
0	0	0	0	0	0	0	0	0	0	0	0	0	0	0	0	0	0	0	0	0	0	0	0	0	0	0	0	0	0	0	0	0	0	0	0	0	0	0	0	0	0	0	0	0	0	0	0	0	0	0	0	0	0	0	0	0	0	0	0	0	0	0	0	0	0	0	0	0	0	0	0	0	0	0	0	0	0	0	0	0	0	0	0	0	0	0	0	0	0	0	0	0	0	0	0	0	0	0	0	0	0	0	0	0	0	0	0	0	0	0	0	0	0	1351	1384	1385	1373	1371	1382	1400	1416	1421	1421	1433	1436	1431	1424	1412	1407	1406	1403	1380	1365	1350	1345	1349	1369	1377	1374	1370	1359	1350	1347	1336	1346	1362	1382	1385	1404	1411	1398	1383	1367	1354	0	0	0	0	0	0	0	0	0	0	0	0	0	0	0	0	0	0	0	0	0	0	0	0	0	0	0	0	0	0	0	0	0	1573	1559	1537	1532	1538	1540	1543	1553	1555	1567	1564	1561	1567	1577	1587	1594	1587	1567	1494	1472	1485	1496	1492	1445	1425	1426	1449	1468	1469	0	0	0	0	0	0	0	0	0	0	0	0	0	0	0	0	0	0	0	0	1469	1471	1492	1510	1510	1496	1474	1481	1510	1515	1514	1508	1484	1447	0	0	0	0	0	0	0	1331	1355	1331	1331	1335	1340	1334	1334	1332	1326	1289	1291	1312	1332	1342	1339	1334	1326	1316	1317	1326	1340	1345	1329	1325	1325	1321	1314	1317	1305	1269	1262	1268	1288	1305	1319	1312	1286	0	0	0	0	1471	1579	1613	1625	1636	1634	1630	1622	1620	1624	1629	1628	1615	1614	1608	1609	1612	1601	1597	1602	1617	1632	1624	1596	1563	1529	0	0	0	0	0	1607	1625	1622	1621	1621	1616	1626	1624	1618	1615	1629	1627	1632	1622	1614	1607	1584	1500	0	0	0	0	0	0	0	0	0	0	0	0	0	0	0	0	0	0	0	0	0	0	0	0	0	0	0	0	0	0	0	0	0	0	0	0	0	0	0	0	0	0	0	0	0	0	0	0	0	0	0	0	0	0	0	0	0	0	0	0	0	0	0	0	0	0	0	0	0	0	0	0	0	0	0	0	0	1203	1250	1268	1264	1260	1258	1252	1250	1247	1248	1249	1241	1233	1231	1234	1242	1245	1247	1246	1245	1250	1251	1253	1256	1266	1272	1270	1264	1255	1240	1225	1216	1199	1151	0	0	0	0	0	0	0	0	0	0	0	0	0	0	0	0	0	0	0	0	0	0	0	0	0	0	0	0	0	0	0	0	0	0	0	0	0	0	0	0	0	0	0	0	0	0	0	0	0	0	0	0	0	0	0	0	0	0	0	0	0	0	0	0	0	0	0	0	0	0	0	0	0	0	0	0	0	0	0	0	0	0	0	0	0	0	0	0	0	0	0	0	0	0	0	0	0	0	0	0	0	0	0	0	0	0	0	0	0	0	0	0	0	0	0	0	0	0	0	0	0	0	0	0	0	0	0	0	0	0	0	0	0	0	0	0	0	0	0	0	0	0	0	0	0	0	0	0	0	0	0	0	0	0	0	0	0	0	0	0	0	0	0	0	0	0	0	0	0	0	0	0	0	0	0	0	0	0	0	0
0	0	0	0	0	0	0	0	0	0	0	0	0	0	0	0	0	0	0	0	0	0	0	0	0	0	0	0	0	0	0	0	0	0	0	0	0	0	0	0	0	0	0	0	0	0	0	0	0	0	0	0	0	0	0	0	0	0	0	0	0	0	0	0	0	0	0	0	0	0	0	0	0	0	0	0	0	0	0	0	0	0	0	0	0	0	0	0	0	0	0	0	0	0	0	0	0	0	0	0	0	0	0	0	0	0	0	0	0	0	0	0	0	0	1330	1372	1383	1381	1371	1372	1393	1401	1409	1415	1428	1431	1427	1418	1415	1415	1417	1409	1386	1364	1348	1339	1349	1367	1383	1387	1387	1371	1364	1356	1336	1348	1375	1399	1411	1408	1396	1376	1362	1359	1356	0	0	0	0	0	0	0	0	0	0	0	0	0	0	0	0	0	0	0	0	0	0	0	0	0	0	0	0	0	0	0	0	0	1574	1558	1540	1551	1567	1565	1544	1539	1541	1559	1569	1566	1568	1574	1585	1594	1594	1582	1514	1480	1474	1503	1514	1501	1457	1436	1442	1443	1438	0	0	0	0	0	0	0	0	0	0	0	0	0	0	0	0	0	0	0	0	1463	1462	1472	1485	1498	1494	1481	1473	1467	1470	1468	1470	1455	1436	0	0	0	0	0	0	0	1334	1353	1325	1331	1338	1345	1343	1338	1330	1326	1318	1309	1312	1322	1333	1332	1332	1327	1318	1316	1320	1324	1327	1327	1325	1323	1319	1307	1310	1305	1274	1263	1274	1293	1307	1315	1314	1287	0	0	0	0	1441	1565	1605	1616	1633	1633	1634	1620	1609	1603	1605	1596	1597	1599	1603	1617	1619	1610	1604	1602	1609	1633	1639	1598	1567	1546	0	0	0	0	0	1586	1607	1610	1614	1620	1616	1625	1636	1643	1633	1640	1643	1635	1622	1603	1604	1565	1468	0	0	0	0	0	0	0	0	0	0	0	0	0	0	0	0	0	0	0	0	0	0	0	0	0	0	0	0	0	0	0	0	0	0	0	0	0	0	0	0	0	0	0	0	0	0	0	0	0	0	0	0	0	0	0	0	0	0	0	0	0	0	0	0	0	0	0	0	0	0	0	0	0	0	0	0	0	1201	1239	1262	1256	1251	1248	1247	1244	1243	1243	1240	1234	1230	1228	1233	1237	1235	1235	1239	1239	1248	1253	1256	1261	1273	1277	1273	1265	1259	1248	1233	1224	1195	1179	0	0	0	0	0	0	0	0	0	0	0	0	0	0	0	0	0	0	0	0	0	0	0	0	0	0	0	0	0	0	0	0	0	0	0	0	0	0	0	0	0	0	0	0	0	0	0	0	0	0	0	0	0	0	0	0	0	0	0	0	0	0	0	0	0	0	0	0	0	0	0	0	0	0	0	0	0	0	0	0	0	0	0	0	0	0	0	0	0	0	0	0	0	0	0	0	0	0	0	0	0	0	0	0	0	0	0	0	0	0	0	0	0	0	0	0	0	0	0	0	0	0	0	0	0	0	0	0	0	0	0	0	0	0	0	0	0	0	0	0	0	0	0	0	0	0	0	0	0	0	0	0	0	0	0	0	0	0	0	0	0	0	0	0	0	0	0	0	0	0	0	0	0	0	0	0	0	0	0	0
0	0	0	0	0	0	0	0	0	0	0	0	0	0	0	0	0	0	0	0	0	0	0	0	0	0	0	0	0	0	0	0	0	0	0	0	0	0	0	0	0	0	0	0	0	0	0	0	0	0	0	0	0	0	0	0	0	0	0	0	0	0	0	0	0	0	0	0	0	0	0	0	0	0	0	0	0	0	0	0	0	0	0	0	0	0	0	0	0	0	0	0	0	0	0	0	0	0	0	0	0	0	0	0	0	0	0	0	0	0	0	0	0	0	1332	1369	1387	1387	1379	1368	1371	1375	1381	1413	1420	1419	1415	1411	1413	1428	1435	1420	1395	1372	1359	1352	1353	1369	1378	1395	1398	1396	1382	1369	1347	1351	1375	1406	1417	1402	1376	1353	1343	1350	1339	0	0	0	0	0	0	0	0	0	0	0	0	0	0	0	0	0	0	0	0	0	0	0	0	0	0	0	0	0	0	0	0	0	1539	1548	1536	1561	1564	1548	1530	1529	1546	1567	1575	1568	1557	1558	1574	1583	1577	1585	1518	1484	1468	1479	1507	1499	1482	1466	1455	1444	1427	0	0	0	0	0	0	0	0	0	0	0	0	0	0	0	0	0	0	0	0	1486	1471	1485	1484	1499	1516	1519	1486	1456	1446	1456	1470	1461	1439	1400	0	0	0	0	0	1272	1324	1342	1329	1333	1344	1357	1357	1350	1337	1328	1323	1316	1314	1326	1333	1333	1331	1332	1325	1321	1317	1317	1326	1326	1320	1318	1314	1310	1317	1303	1275	1272	1287	1303	1311	1314	1321	1316	1250	0	0	0	1400	1546	1601	1610	1619	1624	1629	1620	1603	1600	1592	1591	1586	1594	1608	1623	1631	1614	1604	1599	1606	1640	1644	1602	1571	1552	0	0	0	0	0	1575	1582	1580	1586	1601	1610	1630	1650	1653	1648	1653	1651	1636	1616	1611	1609	1584	1474	1384	0	0	0	0	0	0	0	0	0	0	0	0	0	0	0	0	0	0	0	0	0	0	0	0	0	0	0	0	0	0	0	0	0	0	0	0	0	0	0	0	0	0	0	0	0	0	0	0	0	0	0	0	0	0	0	0	0	0	0	0	0	0	0	0	0	0	0	0	0	0	0	0	0	0	0	0	1192	1227	1259	1259	1255	1253	1254	1251	1246	1242	1239	1239	1233	1231	1233	1230	1227	1226	1232	1234	1241	1249	1249	1249	1264	1275	1270	1265	1259	1249	1233	1214	1201	1211	0	0	0	0	0	0	0	0	0	0	0	0	0	0	0	0	0	0	0	0	0	0	0	0	0	0	0	0	0	0	0	0	0	0	0	0	0	0	0	0	0	0	0	0	0	0	0	0	0	0	0	0	0	0	0	0	0	0	0	0	0	0	0	0	0	0	0	0	0	0	0	0	0	0	0	0	0	0	0	0	0	0	0	0	0	0	0	0	0	0	0	0	0	0	0	0	0	0	0	0	0	0	0	0	0	0	0	0	0	0	0	0	0	0	0	0	0	0	0	0	0	0	0	0	0	0	0	0	0	0	0	0	0	0	0	0	0	0	0	0	0	0	0	0	0	0	0	0	0	0	0	0	0	0	0	0	0	0	0	0	0	0	0	0	0	0	0	0	0	0	0	0	0	0	0	0	0	0	0	0
0	0	0	0	0	0	0	0	0	0	0	0	0	0	0	0	0	0	0	0	0	0	0	0	0	0	0	0	0	0	0	0	0	0	0	0	0	0	0	0	0	0	0	0	0	0	0	0	0	0	0	0	0	0	0	0	0	0	0	0	0	0	0	0	0	0	0	0	0	0	0	0	0	0	0	0	0	0	0	0	0	0	0	0	0	0	0	0	0	0	0	0	0	0	0	0	0	0	0	0	0	0	0	0	0	0	0	0	0	0	0	0	0	0	1339	1372	1386	1386	1382	1368	1365	1369	1372	1415	1417	1416	1401	1402	1409	1429	1435	1420	1397	1384	1377	1368	1364	1359	1368	1386	1398	1399	1392	1380	1357	1356	1376	1395	1402	1390	1366	1345	1332	1334	1333	0	0	0	0	0	0	0	0	0	0	0	0	0	0	0	0	0	0	0	0	0	0	0	0	0	0	0	0	0	0	0	0	0	1496	1522	1521	1545	1544	1531	1523	1525	1549	1575	1583	1568	1552	1561	1576	1578	1579	1582	1518	1486	1473	1477	1493	1505	1509	1492	1481	1462	1427	1376	0	0	0	0	0	0	0	0	0	0	0	0	0	0	0	0	0	0	0	0	1522	1496	1498	1518	1554	1571	1519	1467	1442	1476	1503	1503	1479	1435	0	0	0	0	0	1292	1317	1327	1317	1331	1354	1367	1372	1368	1353	1337	1327	1321	1325	1328	1330	1331	1330	1332	1336	1326	1323	1320	1321	1320	1316	1313	1313	1316	1332	1310	1285	1277	1292	1301	1305	1306	1319	1341	1347	1298	0	1389	1397	1553	1615	1616	1615	1616	1618	1620	1604	1602	1597	1595	1595	1599	1612	1625	1633	1619	1608	1601	1610	1667	1635	1587	1569	1547	1515	0	0	0	1545	1569	1577	1580	1587	1597	1617	1634	1654	1664	1665	1660	1656	1642	1625	1620	1629	1619	1568	1455	1381	0	0	0	0	0	0	0	0	0	0	0	0	0	0	0	0	0	0	0	0	0	0	0	0	0	0	0	0	0	0	0	0	0	0	0	0	0	0	0	0	0	0	0	0	0	0	0	0	0	0	0	0	0	0	0	0	0	0	0	0	0	0	0	0	0	0	0	0	0	0	0	0	0	0	0	1194	1206	1240	1254	1254	1255	1254	1250	1247	1245	1249	1246	1243	1241	1239	1234	1227	1226	1232	1237	1242	1245	1244	1247	1249	1265	1263	1259	1253	1239	1231	1217	1226	1288	1366	0	0	0	0	0	0	0	0	0	0	0	0	0	0	0	0	0	0	0	0	0	0	0	0	0	0	0	0	0	0	0	0	0	0	0	0	0	0	0	0	0	0	0	0	0	0	0	0	0	0	0	0	0	0	0	0	0	0	0	0	0	0	0	0	0	0	0	0	0	0	0	0	0	0	0	0	0	0	0	0	0	0	0	0	0	0	0	0	0	0	0	0	0	0	0	0	0	0	0	0	0	0	0	0	0	0	0	0	0	0	0	0	0	0	0	0	0	0	0	0	0	0	0	0	0	0	0	0	0	0	0	0	0	0	0	0	0	0	0	0	0	0	0	0	0	0	0	0	0	0	0	0	0	0	0	0	0	0	0	0	0	0	0	0	0	0	0	0	0	0	0	0	0	0	0	0	0	0	0
0	0	0	0	0	0	0	0	0	0	0	0	0	0	0	0	0	0	0	0	0	0	0	0	0	0	0	0	0	0	0	0	0	0	0	0	0	0	0	0	0	0	0	0	0	0	0	0	0	0	0	0	0	0	0	0	0	0	0	0	0	0	0	0	0	0	0	0	0	0	0	0	0	0	0	0	0	0	0	0	0	0	0	0	0	0	0	0	0	0	0	0	0	0	0	0	0	0	0	0	0	0	0	0	0	0	0	0	0	0	0	0	0	0	1337	1368	1382	1386	1377	1364	1367	1376	1402	1406	1411	1410	1394	1393	1394	1405	1409	1395	1394	1395	1393	1394	1376	1359	1359	1365	1373	1381	1384	1383	1363	1361	1363	1382	1386	1384	1366	1347	1345	1340	1340	0	0	0	0	0	0	0	0	0	0	0	0	0	0	0	0	0	0	0	0	0	0	0	0	0	0	0	0	0	0	0	0	0	1469	1494	1521	1536	1541	1529	1519	1521	1537	1568	1591	1585	1563	1566	1579	1578	1578	1577	1526	1509	1503	1510	1517	1514	1523	1516	1494	1457	1423	1369	0	0	0	0	0	0	0	0	0	0	0	0	0	0	0	0	0	0	0	0	1543	1539	1514	1532	1575	1615	1562	1495	1468	1491	1547	1555	1531	1480	1443	1422	1393	0	0	1307	1304	1311	1321	1336	1355	1373	1380	1371	1350	1332	1328	1329	1330	1328	1327	1327	1327	1334	1337	1334	1331	1329	1327	1322	1312	1306	1311	1323	1351	1321	1293	1291	1290	1295	1291	1299	1318	1357	1391	1407	1410	1411	1444	1554	1620	1620	1613	1622	1626	1626	1621	1602	1601	1597	1597	1601	1617	1623	1625	1613	1608	1604	1612	1654	1643	1569	1554	1535	1515	1507	1504	1530	1573	1579	1587	1597	1602	1604	1615	1632	1645	1651	1665	1663	1655	1639	1626	1630	1643	1644	1643	1632	1623	1608	1586	1551	1540	1536	1560	1571	1589	1595	1587	1588	1571	1545	1535	1541	1552	1555	1556	1535	1517	1475	1445	1439	1477	1522	1549	1555	1545	1531	1526	1523	1526	1519	1519	1523	1531	1521	1511	1520	1544	1585	1626	1654	1650	1647	1628	1610	1567	1518	1477	1458	1466	1464	1413	1390	1386	1406	1469	1505	1506	1488	1456	1456	1485	1538	1524	1460	1435	1427	1455	1487	1498	1452	1375	1398	1214	1225	1236	1243	1248	1250	1250	1251	1248	1249	1252	1257	1258	1257	1254	1243	1233	1238	1243	1242	1244	1241	1241	1240	1248	1257	1261	1255	1248	1235	1237	1226	1236	1324	1434	1460	1458	1380	0	0	0	0	0	0	0	0	0	0	0	0	0	0	0	0	0	0	0	0	0	0	0	0	0	0	0	0	0	0	0	0	0	0	0	0	0	0	0	0	0	0	0	0	0	0	0	0	0	0	0	0	0	0	0	0	0	0	0	0	0	0	0	0	0	0	0	0	0	0	0	0	0	0	0	0	0	0	0	0	0	0	0	0	0	0	0	0	0	0	0	0	0	0	0	0	0	0	0	0	0	0	0	0	0	0	0	0	0	0	0	0	0	0	0	0	0	0	0	0	0	0	0	0	0	0	0	0	0	0	0	0	0	0	0	0	0	0	0	0	0	0	0	0	0	0	0	0	0	0	0	0	0	0	0	0	0	0	0	0	0	0	0	0	0	0	0	0	0	0	0	0	0	0	0	0
0	0	0	0	0	0	0	0	0	0	0	0	0	0	0	0	0	0	0	0	0	0	0	0	0	0	0	0	0	0	0	0	0	0	0	0	0	0	0	0	0	0	0	0	0	0	0	0	0	0	0	0	0	0	0	0	0	0	0	0	0	0	0	0	0	0	0	0	0	0	0	0	0	0	0	0	0	0	0	0	0	0	0	0	0	0	0	0	0	0	0	0	0	0	0	0	0	0	0	0	0	0	0	0	0	0	0	0	0	0	0	0	0	0	1336	1361	1373	1377	1365	1354	1359	1382	1408	1398	1390	1393	1388	1384	1386	1393	1392	1386	1386	1393	1398	1401	1390	1373	1362	1341	1341	1355	1363	1368	1360	1353	1359	1366	1371	1378	1372	1366	1367	1371	1373	0	0	0	0	0	0	0	0	0	0	0	0	0	0	0	0	0	0	0	0	0	0	0	0	0	0	0	0	0	0	0	0	0	1466	1500	1511	1533	1529	1529	1518	1526	1536	1559	1590	1595	1581	1579	1586	1588	1573	1574	1552	1534	1547	1574	1572	1552	1540	1534	1516	1485	1445	1394	1356	0	0	0	0	0	0	0	0	0	0	0	0	0	0	0	0	0	0	0	1572	1560	1528	1533	1563	1627	1605	1506	1497	1513	1559	1592	1551	1507	1481	1456	1439	1389	1347	1327	1296	1297	1326	1339	1358	1371	1373	1361	1343	1337	1334	1333	1333	1333	1329	1326	1330	1340	1341	1341	1336	1335	1331	1331	1324	1314	1320	1328	1357	1330	1305	1296	1292	1290	1291	1296	1319	1355	1404	1426	1433	1443	1522	1583	1612	1619	1614	1626	1640	1646	1640	1622	1609	1606	1605	1605	1611	1616	1611	1601	1607	1619	1617	1616	1619	1587	1542	1527	1519	1522	1561	1570	1578	1585	1599	1606	1609	1609	1616	1619	1624	1632	1639	1646	1650	1634	1623	1623	1630	1644	1650	1642	1633	1622	1613	1599	1595	1598	1607	1590	1593	1592	1588	1589	1589	1587	1588	1581	1585	1594	1581	1565	1559	1553	1563	1589	1621	1633	1629	1612	1609	1596	1577	1581	1592	1605	1612	1615	1606	1589	1572	1587	1611	1627	1641	1649	1646	1643	1627	1602	1585	1561	1549	1555	1583	1568	1547	1541	1553	1559	1581	1590	1607	1611	1601	1587	1598	1622	1632	1622	1606	1593	1600	1614	1626	1568	1516	1466	1243	1236	1237	1240	1243	1247	1251	1246	1249	1252	1255	1259	1264	1265	1259	1255	1249	1248	1247	1247	1247	1243	1242	1241	1244	1255	1253	1247	1241	1237	1244	1233	1247	1375	1428	1497	1496	1445	1360	0	0	0	0	0	0	0	0	0	0	0	0	0	0	0	0	0	0	0	0	0	0	0	0	0	0	0	0	0	0	0	0	0	0	0	0	0	0	0	0	0	0	0	0	0	0	0	0	0	0	0	0	0	0	0	0	0	0	0	0	0	0	0	0	0	0	0	0	0	0	0	0	0	0	0	0	0	0	0	0	0	0	0	0	0	0	0	0	0	0	0	0	0	0	0	0	0	0	0	0	0	0	0	0	0	0	0	0	0	0	0	0	0	0	0	0	0	0	0	0	0	0	0	0	0	0	0	0	0	0	0	0	0	0	0	0	0	0	0	0	0	0	0	0	0	0	0	0	0	0	0	0	0	0	0	0	0	0	0	0	0	0	0	0	0	0	0	0	0	0	0	0	0	0	0
0	0	0	0	0	0	0	0	0	0	0	0	0	0	0	0	0	0	0	0	0	0	0	0	0	0	0	0	0	0	0	0	0	0	0	0	0	0	0	0	0	0	0	0	0	0	0	0	0	0	0	0	0	0	0	0	0	0	0	0	0	0	0	0	0	0	0	0	0	0	0	0	0	0	0	0	0	0	0	0	0	0	0	0	0	0	0	0	0	0	0	0	0	0	0	0	0	0	0	0	0	0	0	0	0	0	0	0	0	0	0	0	0	0	1322	1349	1361	1364	1348	1339	1351	1371	1395	1392	1384	1381	1380	1376	1380	1382	1376	1371	1375	1384	1389	1400	1409	1394	1366	1334	1327	1341	1362	1365	1351	1348	1351	1361	1370	1373	1380	1383	1397	1397	1410	0	0	0	0	0	0	0	0	0	0	0	0	0	0	0	0	0	0	0	0	0	0	0	0	0	0	0	0	0	0	0	0	0	1481	1512	1529	1535	1532	1522	1519	1519	1537	1554	1578	1599	1602	1593	1588	1582	1573	1560	1548	1550	1580	1612	1620	1594	1576	1565	1550	1513	1473	1455	1394	1410	0	0	0	1368	1388	1433	1461	1495	1512	1515	1515	0	1486	1509	1522	0	0	1570	1571	1565	1532	1521	1533	1544	1554	1520	1514	1531	1572	1590	1572	1552	1533	1511	1466	1408	1373	1364	1309	1303	1323	1338	1356	1361	1362	1353	1345	1338	1336	1337	1330	1331	1328	1328	1330	1338	1341	1343	1336	1334	1333	1335	1329	1326	1325	1328	1341	1326	1313	1302	1298	1292	1298	1310	1328	1356	1396	1434	1485	1499	1542	1577	1598	1606	1618	1623	1637	1658	1645	1633	1610	1607	1591	1605	1611	1608	1600	1600	1614	1628	1629	1614	1593	1572	1566	1579	1587	1589	1589	1584	1581	1594	1602	1605	1606	1600	1598	1598	1610	1619	1634	1631	1634	1632	1633	1626	1628	1631	1639	1633	1630	1617	1611	1605	1604	1602	1604	1589	1579	1578	1578	1589	1595	1600	1604	1585	1580	1575	1579	1570	1564	1569	1573	1594	1624	1629	1612	1603	1595	1596	1595	1595	1603	1607	1608	1617	1599	1581	1572	1567	1587	1608	1619	1636	1642	1633	1615	1598	1574	1556	1557	1577	1588	1583	1564	1553	1560	1576	1573	1573	1585	1599	1587	1575	1580	1604	1623	1621	1609	1597	1602	1602	1603	1582	1480	1353	1279	1244	1254	1252	1247	1250	1249	1249	1248	1250	1248	1253	1262	1267	1263	1256	1243	1241	1242	1250	1250	1241	1238	1245	1249	1246	1240	1239	1238	1239	1251	1239	1255	1331	1422	1481	1497	1497	1490	1488	1499	1501	1478	1364	0	0	0	0	0	0	0	0	0	0	0	0	0	0	0	0	0	0	0	0	0	0	0	0	0	0	0	0	0	0	0	0	0	0	0	0	0	0	0	0	0	0	0	0	0	0	0	0	0	0	0	0	0	0	0	0	0	0	0	0	0	0	0	0	0	0	0	0	0	0	0	0	0	0	0	0	0	0	0	0	0	0	0	0	0	0	0	0	0	0	0	0	0	0	0	0	0	0	0	0	0	0	0	0	0	0	0	0	0	0	0	0	0	0	0	0	0	0	0	0	0	0	0	0	0	0	0	0	0	0	0	0	0	0	0	0	0	0	0	0	0	0	0	0	0	0	0	0	0	0	0	0	0	0	0	0	0	0	0	0	0	0	0	0	0	0	0	0	0	0
0	0	0	0	0	0	0	0	0	0	0	0	0	0	0	0	0	0	0	0	0	0	0	0	0	0	0	0	0	0	0	0	0	0	0	0	0	0	0	0	0	0	0	0	0	0	0	0	0	0	0	0	0	0	0	0	0	0	0	0	0	0	0	0	0	0	0	0	0	0	0	0	0	0	0	0	0	0	0	0	0	0	0	0	0	0	0	0	0	0	0	0	0	0	0	0	0	0	0	0	0	0	0	0	0	0	0	0	0	0	0	0	0	0	1308	1333	1340	1338	1335	1337	1348	1365	1392	1403	1395	1387	1379	1371	1373	1374	1366	1365	1369	1379	1385	1388	1409	1401	1374	1349	1342	1349	1357	1356	1355	1348	1352	1362	1368	1375	1383	1398	1410	1414	1421	0	0	0	0	0	0	0	0	0	0	0	0	0	0	0	0	0	0	0	0	0	0	0	0	0	0	0	0	0	0	0	0	1489	1512	1526	1540	1540	1526	1520	1521	1522	1548	1544	1564	1587	1580	1574	1579	1575	1558	1542	1530	1524	1552	1611	1651	1642	1630	1619	1602	1575	1550	1551	1580	1599	1574	1555	1526	1491	1469	1490	1528	1542	1550	1554	1572	1588	1590	1590	1553	1567	1565	1554	1554	1538	1535	1514	1493	1499	1521	1541	1548	1569	1594	1615	1605	1590	1576	1546	1507	1474	1431	1412	1336	1317	1327	1343	1351	1355	1351	1347	1334	1341	1341	1337	1328	1325	1316	1325	1329	1335	1337	1341	1333	1327	1326	1330	1332	1324	1318	1311	1322	1303	1309	1309	1307	1310	1315	1329	1352	1377	1428	1546	1553	1558	1571	1584	1605	1626	1636	1631	1629	1636	1635	1627	1629	1615	1618	1628	1631	1620	1603	1594	1619	1636	1628	1613	1598	1589	1613	1631	1649	1652	1653	1644	1633	1623	1620	1607	1601	1588	1585	1586	1593	1597	1604	1607	1609	1608	1611	1608	1607	1601	1596	1591	1591	1593	1577	1576	1578	1577	1562	1559	1556	1549	1557	1585	1612	1631	1630	1606	1584	1577	1575	1589	1594	1583	1568	1561	1545	1559	1577	1600	1606	1604	1607	1616	1624	1632	1615	1622	1612	1592	1566	1547	1555	1567	1593	1601	1594	1569	1548	1544	1549	1554	1557	1562	1569	1563	1581	1587	1596	1594	1589	1560	1558	1587	1586	1578	1585	1603	1620	1619	1611	1605	1601	1579	1549	1538	1445	1353	1286	1246	1263	1257	1254	1254	1242	1240	1250	1252	1245	1247	1255	1264	1270	1261	1241	1237	1237	1246	1252	1266	1269	1257	1249	1238	1230	1227	1234	1243	1261	1256	1245	1275	1366	1397	1401	1404	1418	1432	1437	1444	1435	1393	1289	1153	0	1128	1147	0	0	0	0	0	0	0	0	0	0	0	0	0	0	0	0	0	0	0	0	0	0	0	0	0	0	0	0	0	0	0	0	0	0	0	0	0	0	0	0	0	0	0	0	0	0	0	0	0	0	0	0	0	0	0	0	0	0	0	0	0	0	0	0	0	0	0	0	0	0	0	0	0	0	0	0	0	0	0	0	0	0	0	0	0	0	0	0	0	0	0	0	0	0	0	0	0	0	0	0	0	0	0	0	0	0	0	0	0	0	0	0	0	0	0	0	0	0	0	0	0	0	0	0	0	0	0	0	0	0	0	0	0	0	0	0	0	0	0	0	0	0	0	0	0	0	0	0	0	0	0	0	0	0	0	0	0	0	0	0	0	0	0	0	0
0	0	0	0	0	0	0	0	0	0	0	0	0	0	0	0	0	0	0	0	0	0	0	0	0	0	0	0	0	0	0	0	0	0	0	0	0	0	0	0	0	0	0	0	0	0	0	0	0	0	0	0	0	0	0	0	0	0	0	0	0	0	0	0	0	0	0	0	0	0	0	0	0	0	0	0	0	0	0	0	0	0	0	0	0	0	0	0	0	0	0	0	0	0	0	0	0	0	0	0	0	0	0	0	0	0	0	0	0	0	0	0	0	0	1313	1320	1329	1342	1352	1355	1365	1375	1390	1407	1397	1386	1374	1368	1364	1361	1358	1356	1371	1379	1380	1385	1405	1400	1384	1367	1359	1355	1364	1363	1361	1354	1357	1369	1371	1367	1375	1393	1395	1392	1401	0	0	0	0	0	0	0	0	0	0	0	0	0	0	0	0	0	0	0	0	0	0	0	0	0	0	0	0	0	1407	1434	1455	1477	1503	1513	1527	1529	1528	1524	1518	1525	1523	1534	1546	1553	1553	1559	1560	1563	1553	1540	1525	1521	1533	1566	1599	1618	1622	1613	1590	1562	1539	1548	1554	1549	1539	1524	1512	1490	1476	1494	1530	1542	1557	1555	1577	1588	1591	1593	1584	1577	1572	1561	1543	1528	1529	1536	1552	1569	1584	1580	1585	1606	1618	1625	1624	1629	1626	1618	1563	1510	1469	1417	1358	1334	1333	1342	1350	1351	1344	1345	1347	1351	1343	1336	1326	1320	1320	1320	1323	1326	1337	1339	1326	1320	1318	1319	1316	1314	1308	1303	1301	1281	1291	1317	1318	1318	1325	1336	1362	1400	1490	1537	1552	1549	1560	1573	1595	1624	1630	1629	1618	1615	1617	1619	1616	1609	1615	1632	1634	1620	1599	1580	1570	1579	1589	1588	1581	1585	1597	1608	1617	1622	1617	1616	1612	1599	1596	1598	1588	1573	1557	1549	1559	1555	1547	1554	1566	1557	1545	1545	1557	1572	1575	1567	1559	1544	1522	1523	1531	1535	1535	1543	1541	1539	1547	1571	1597	1613	1607	1562	1559	1550	1543	1556	1559	1554	1537	1534	1528	1528	1533	1535	1535	1539	1546	1545	1547	1555	1563	1564	1564	1559	1550	1560	1565	1567	1578	1566	1563	1537	1522	1519	1529	1531	1522	1529	1529	1511	1520	1523	1535	1537	1522	1503	1500	1509	1515	1525	1532	1539	1542	1537	1540	1584	1572	1542	1505	1472	1409	1339	1286	1246	1267	1261	1253	1245	1240	1238	1249	1250	1242	1242	1249	1261	1271	1259	1250	1239	1250	1248	1250	1266	1277	1272	1254	1246	1240	1234	1238	1244	1225	1225	1233	1264	1287	1289	1286	1280	1283	1290	1297	1302	1300	1253	1192	1175	1212	1209	1205	1202	1260	0	0	0	0	0	0	0	0	0	0	0	0	0	0	0	0	0	0	0	0	0	0	0	0	0	0	0	0	0	0	0	0	0	0	0	0	0	0	0	0	0	0	0	0	0	0	0	0	0	0	0	0	0	0	0	0	0	0	0	0	0	0	0	0	0	0	0	0	0	0	0	0	0	0	0	0	0	0	0	0	0	0	0	0	0	0	0	0	0	0	0	0	0	0	0	0	0	0	0	0	0	0	0	0	0	0	0	0	0	0	0	0	0	0	0	0	0	0	0	0	0	0	0	0	0	0	0	0	0	0	0	0	0	0	0	0	0	0	0	0	0	0	0	0	0	0	0	0	0	0	0	0	0	0	0	0	0	0	0	0	0	0	0
0	0	0	0	0	0	0	0	0	0	0	0	0	0	0	0	0	0	0	0	0	0	0	0	0	0	0	0	0	0	0	0	0	0	0	0	0	0	0	0	0	0	0	0	0	0	0	0	0	0	0	0	0	0	0	0	0	0	0	0	0	0	0	0	0	0	0	0	0	0	0	0	0	0	0	0	0	0	0	0	0	0	0	0	0	0	0	0	0	0	0	0	0	0	0	0	0	0	0	0	0	0	0	0	0	0	0	0	0	0	0	0	0	1289	1315	1326	1336	1356	1379	1385	1389	1388	1385	1388	1391	1380	1369	1363	1358	1355	1347	1351	1375	1385	1384	1387	1396	1391	1378	1371	1366	1365	1368	1372	1367	1363	1369	1371	1369	1360	1356	1354	1364	1362	1361	1386	0	0	0	0	0	0	0	0	0	0	0	0	0	0	0	0	0	0	0	0	0	0	0	0	0	0	1352	1370	1379	1399	1419	1450	1483	1493	1493	1507	1517	1519	1523	1523	1524	1532	1539	1533	1533	1534	1527	1516	1520	1521	1513	1508	1516	1539	1564	1579	1587	1564	1545	1525	1509	1517	1527	1515	1504	1490	1467	1457	1468	1486	1489	1512	1515	1518	1528	1547	1551	1543	1519	1495	1512	1518	1526	1524	1524	1529	1546	1566	1583	1579	1583	1605	1615	1618	1614	1608	1615	1606	1551	1503	1452	1406	1351	1352	1349	1351	1352	1343	1346	1353	1352	1349	1345	1331	1324	1312	1319	1320	1323	1332	1336	1336	1324	1318	1315	1316	1314	1317	1311	1306	1300	1280	1285	1297	1320	1327	1329	1340	1363	1391	1458	1490	1527	1531	1534	1553	1567	1587	1612	1609	1595	1585	1581	1566	1540	1525	1540	1568	1579	1571	1558	1535	1531	1525	1524	1536	1534	1538	1547	1572	1584	1588	1585	1587	1585	1577	1568	1552	1539	1527	1503	1494	1488	1499	1491	1499	1509	1508	1505	1500	1496	1485	1484	1502	1505	1495	1490	1485	1498	1496	1504	1513	1520	1524	1527	1529	1555	1554	1521	1502	1496	1499	1488	1481	1491	1487	1471	1461	1459	1449	1463	1473	1477	1479	1478	1474	1489	1509	1512	1539	1539	1532	1526	1536	1551	1560	1560	1558	1553	1521	1494	1499	1511	1499	1501	1507	1488	1474	1473	1488	1508	1512	1499	1470	1472	1483	1490	1488	1482	1486	1484	1486	1492	1460	1438	1414	1397	1408	1371	1328	1238	1265	1260	1254	1247	1242	1235	1235	1245	1250	1238	1240	1249	1262	1268	1264	1266	1265	1269	1270	1264	1259	1256	1247	1252	1245	1253	1258	1265	1232	1233	1233	1243	1254	1247	1239	1245	1262	1266	1262	1261	1262	1262	1242	1209	1199	1239	1244	1253	1210	1215	1288	0	0	0	0	0	0	0	0	0	0	0	0	0	0	0	0	0	0	0	0	0	0	0	0	0	0	0	0	0	0	0	0	0	0	0	0	0	0	0	0	0	0	0	0	0	0	0	0	0	0	0	0	0	0	0	0	0	0	0	0	0	0	0	0	0	0	0	0	0	0	0	0	0	0	0	0	0	0	0	0	0	0	0	0	0	0	0	0	0	0	0	0	0	0	0	0	0	0	0	0	0	0	0	0	0	0	0	0	0	0	0	0	0	0	0	0	0	0	0	0	0	0	0	0	0	0	0	0	0	0	0	0	0	0	0	0	0	0	0	0	0	0	0	0	0	0	0	0	0	0	0	0	0	0	0	0	0	0	0	0	0	0
0	0	0	0	0	0	0	0	0	0	0	0	0	0	0	0	0	0	0	0	0	0	0	0	0	0	0	0	0	0	0	0	0	0	0	0	0	0	0	0	0	0	0	0	0	0	0	0	0	0	0	0	0	0	0	0	0	0	0	0	0	0	0	0	0	0	0	0	0	0	0	0	0	0	0	0	0	0	0	0	0	0	0	0	0	0	0	0	0	0	0	0	0	0	0	0	0	0	0	0	0	0	0	0	0	0	0	0	0	0	0	0	0	1301	1329	1333	1343	1364	1392	1403	1400	1385	1376	1376	1374	1367	1362	1350	1346	1343	1343	1362	1381	1396	1393	1401	1397	1386	1361	1362	1357	1361	1361	1362	1361	1356	1359	1365	1361	1348	1338	1337	1336	1337	1345	1374	1386	0	0	0	0	0	0	0	0	0	0	0	0	0	0	0	0	0	0	0	0	0	0	0	0	0	1341	1335	1346	1372	1398	1420	1442	1440	1444	1471	1492	1508	1507	1495	1488	1492	1492	1480	1465	1457	1457	1475	1481	1477	1463	1456	1471	1498	1517	1530	1515	1492	1480	1473	1474	1476	1475	1468	1452	1432	1403	1406	1440	1459	1463	1473	1475	1482	1486	1496	1488	1484	1474	1456	1460	1479	1500	1509	1486	1471	1470	1457	1461	1473	1505	1511	1517	1508	1512	1510	1514	1514	1503	1471	1424	1381	1328	1330	1362	1349	1347	1333	1338	1347	1351	1344	1336	1325	1325	1323	1321	1323	1327	1334	1338	1334	1324	1314	1311	1319	1320	1324	1324	1309	1297	1291	1288	1301	1306	1315	1317	1328	1345	1388	1445	1468	1484	1492	1509	1524	1546	1566	1586	1578	1570	1560	1553	1531	1511	1500	1518	1545	1560	1547	1527	1514	1506	1494	1497	1498	1493	1484	1489	1473	1474	1513	1546	1557	1559	1543	1523	1507	1495	1475	1454	1442	1439	1460	1445	1448	1457	1459	1455	1446	1436	1416	1397	1383	1361	1322	1312	1320	1333	1349	1358	1363	1355	1338	1323	1314	1324	1366	1417	1439	1450	1442	1430	1410	1399	1384	1383	1377	1374	1387	1404	1398	1397	1389	1375	1381	1392	1415	1415	1397	1389	1376	1371	1345	1330	1321	1315	1309	1305	1298	1307	1319	1329	1330	1325	1324	1319	1325	1305	1295	1294	1298	1315	1312	1313	1322	1325	1329	1328	1325	1328	1332	1326	1304	1291	1286	1291	1303	1301	1293	1260	1256	1249	1240	1236	1236	1237	1238	1232	1231	1239	1239	1253	1263	1262	1262	1264	1262	1259	1253	1254	1255	1259	1256	1249	1246	1248	1248	1251	1239	1237	1240	1250	1258	1261	1251	1253	1259	1260	1260	1252	1253	1258	1253	1247	1237	1230	1233	1228	1225	1209	1246	0	0	0	0	0	0	0	0	0	0	0	0	0	0	0	0	0	0	0	0	0	0	0	0	0	0	0	0	0	0	0	0	0	0	0	0	0	0	0	0	0	0	0	0	0	0	0	0	0	0	0	0	0	0	0	0	0	0	0	0	0	0	0	0	0	0	0	0	0	0	0	0	0	0	0	0	0	0	0	0	0	0	0	0	0	0	0	0	0	0	0	0	0	0	0	0	0	0	0	0	0	0	0	0	0	0	0	0	0	0	0	0	0	0	0	0	0	0	0	0	0	0	0	0	0	0	0	0	0	0	0	0	0	0	0	0	0	0	0	0	0	0	0	0	0	0	0	0	0	0	0	0	0	0	0	0	0	0	0	0	0	0
0	0	0	0	0	0	0	0	0	0	0	0	0	0	0	0	0	0	0	0	0	0	0	0	0	0	0	0	0	0	0	0	0	0	0	0	0	0	0	0	0	0	0	0	0	0	0	0	0	0	0	0	0	0	0	0	0	0	0	0	0	0	0	0	0	0	0	0	0	0	0	0	0	0	0	0	0	0	0	0	0	0	0	0	0	0	0	0	0	0	0	0	0	0	0	0	0	0	0	0	0	0	0	0	0	0	0	0	0	0	0	0	1296	1345	1347	1345	1351	1371	1391	1396	1388	1378	1367	1364	1372	1370	1364	1354	1340	1332	1340	1365	1392	1398	1393	1394	1395	1379	1357	1347	1341	1347	1348	1346	1340	1337	1346	1355	1350	1338	1338	1330	1325	1327	1339	1350	1364	1362	1354	1351	1355	1365	1377	1391	1400	0	0	0	1460	1436	1403	1363	1339	1322	1311	1296	1293	1328	1345	1348	1348	1332	1322	1308	1333	1354	1383	1394	1410	1411	1418	1423	1472	1496	1487	1468	1460	1468	1472	1465	1441	1430	1432	1449	1457	1443	1433	1432	1445	1461	1467	1470	1456	1433	1423	1412	1419	1430	1431	1421	1402	1386	1362	1334	1295	1331	1368	1418	1432	1410	1390	1389	1389	1385	1362	1346	1343	1367	1391	1406	1392	1367	1343	1325	1421	1434	1463	1475	1480	1482	1482	1475	1472	1481	1460	1437	1397	1349	1320	1326	1357	1353	1341	1334	1331	1341	1338	1336	1333	1327	1322	1325	1327	1332	1336	1343	1344	1338	1330	1317	1315	1323	1329	1337	1334	1314	1293	1275	1290	1303	1309	1305	1305	1309	1306	1317	1339	1360	1380	1374	1366	1375	1382	1387	1386	1383	1387	1398	1402	1393	1378	1372	1373	1371	1370	1369	1372	1372	1362	1355	1360	1355	1348	1346	1357	1357	1343	1340	1348	1357	1360	1356	1355	1362	1359	1333	1318	1310	1306	1312	1330	1348	1362	1369	1363	1347	1328	1310	1312	1316	1316	1307	1296	1292	1298	1308	1333	1344	1344	1333	1310	1287	1262	1285	1297	1310	1317	1332	1333	1329	1323	1308	1293	1270	1274	1285	1306	1313	1314	1305	1308	1315	1324	1327	1324	1322	1326	1322	1318	1313	1286	1276	1280	1291	1297	1295	1294	1292	1300	1299	1297	1298	1318	1326	1320	1302	1292	1295	1305	1311	1307	1303	1304	1296	1286	1282	1283	1284	1281	1274	1269	1271	1274	1285	1294	1295	1280	1272	1268	1260	1260	1262	1259	1267	1256	1257	1258	1261	1257	1261	1262	1256	1265	1262	1259	1254	1253	1255	1259	1257	1250	1247	1244	1245	1245	1239	1242	1246	1255	1265	1262	1257	1251	1250	1251	1254	1252	1252	1254	1250	1246	1244	1232	1233	1223	1215	1192	1203	1239	0	0	0	0	0	0	0	0	0	0	0	0	0	0	0	0	0	0	0	0	0	0	0	0	0	0	0	0	0	0	0	0	0	0	0	0	0	0	0	0	0	0	0	0	0	0	0	0	0	0	0	0	0	0	0	0	0	0	0	0	0	0	0	0	0	0	0	0	0	0	0	0	0	0	0	0	0	0	0	0	0	0	0	0	0	0	0	0	0	0	0	0	0	0	0	0	0	0	0	0	0	0	0	0	0	0	0	0	0	0	0	0	0	1164	1160	0	0	0	0	0	0	0	0	0	0	0	0	0	0	0	1156	1153	1183	1222	1247	1260	1260	1259	0	0	0	0	0	0	0	0	0	0	0	0	0	0	0	0	0	0	0	0	0	0	0
0	0	0	0	0	0	0	0	0	0	0	0	0	0	0	0	0	0	0	0	0	0	0	0	0	0	0	0	0	0	0	0	0	0	0	0	0	0	0	0	0	0	0	0	0	0	0	0	0	0	0	0	0	0	0	0	0	0	0	0	0	0	0	0	0	0	0	0	0	0	0	0	0	0	0	0	0	0	0	0	0	0	0	0	0	0	0	0	0	0	0	0	0	0	0	0	0	0	0	0	0	1268	1326	1356	1375	1391	1385	1376	1364	1294	1301	1333	1351	1355	1367	1358	1362	1375	1385	1383	1371	1363	1364	1370	1378	1384	1382	1372	1368	1361	1364	1378	1395	1400	1385	1382	1380	1379	1365	1353	1348	1340	1339	1334	1325	1331	1342	1347	1348	1341	1344	1333	1330	1333	1339	1346	1340	1327	1312	1301	1321	1366	1410	1428	1447	1452	1456	1432	1393	1377	1375	1363	1346	1331	1311	1307	1298	1340	1367	1395	1415	1423	1410	1388	1382	1399	1400	1404	1409	1416	1416	1405	1375	1386	1394	1394	1392	1394	1405	1417	1422	1408	1392	1379	1367	1349	1351	1375	1382	1391	1407	1416	1411	1395	1378	1368	1364	1364	1358	1343	1326	1322	1326	1329	1332	1357	1352	1359	1354	1329	1316	1315	1317	1327	1334	1341	1343	1351	1346	1343	1334	1321	1317	1307	1301	1306	1363	1380	1382	1386	1387	1378	1375	1377	1373	1366	1349	1338	1345	1354	1358	1355	1345	1342	1333	1334	1342	1340	1343	1334	1326	1321	1324	1334	1344	1347	1350	1346	1339	1328	1324	1322	1330	1337	1339	1336	1328	1296	1289	1302	1309	1314	1323	1327	1330	1327	1326	1328	1326	1325	1326	1330	1330	1329	1322	1321	1335	1364	1378	1374	1333	1340	1339	1342	1343	1342	1341	1344	1329	1312	1298	1304	1308	1317	1327	1326	1326	1309	1305	1298	1300	1315	1315	1324	1328	1312	1315	1308	1305	1307	1316	1328	1337	1340	1333	1318	1300	1303	1309	1326	1334	1332	1320	1314	1300	1305	1305	1307	1307	1312	1316	1315	1309	1288	1288	1292	1315	1320	1321	1313	1307	1307	1302	1302	1305	1307	1301	1297	1294	1289	1300	1304	1307	1303	1300	1296	1300	1306	1300	1298	1297	1294	1289	1293	1293	1285	1280	1282	1286	1292	1296	1304	1317	1328	1322	1309	1304	1303	1300	1291	1290	1293	1295	1290	1285	1273	1269	1266	1257	1271	1266	1273	1276	1275	1273	1270	1274	1279	1270	1265	1260	1262	1264	1265	1257	1265	1269	1265	1264	1257	1244	1243	1255	1267	1265	1258	1257	1261	1261	1257	1249	1243	1242	1242	1241	1242	1246	1251	1261	1272	1268	1262	1251	1250	1253	1252	1250	1248	1243	1244	1246	1249	1230	1231	1218	1211	1187	1189	1212	1234	1251	0	0	0	0	0	1258	1259	1254	1248	1230	0	0	0	0	0	0	0	0	0	1184	1194	1210	1220	0	0	0	1230	1217	1212	0	0	0	0	0	0	0	0	0	0	0	0	0	0	1194	0	0	0	0	1223	1207	1205	0	0	0	0	0	0	0	0	0	0	0	0	0	0	0	0	0	0	0	0	0	0	0	0	0	1187	1201	0	0	0	0	0	0	0	0	0	0	1212	1209	1222	0	0	0	0	0	0	0	1196	1193	1199	1206	1216	1214	1213	1217	1224	0	0	1210	1185	1161	1167	1196	0	0	0	0	1216	1211	1204	1196	0	0	0	0	0	1154	1151	1167	1191	1220	1230	1234	1234	1228	1227	1214	1193	1182	1184	1205	1213	1207	1196	1196	1204	1207	1202	1209	0	0	0	0	0	0	0	0	0
0	0	0	0	0	0	0	0	0	0	0	0	0	0	0	0	0	0	0	0	0	0	0	0	0	0	0	0	0	0	0	0	0	0	0	0	0	0	0	0	0	0	0	0	0	0	0	0	0	0	0	0	0	0	0	0	0	0	0	0	0	0	0	0	0	0	0	0	0	0	0	0	0	0	0	0	0	0	0	0	0	0	0	0	0	0	0	0	0	0	0	0	0	0	0	0	0	0	0	0	0	1287	1328	1366	1386	1382	1378	1361	1354	1353	1356	1370	1395	1403	1401	1384	1387	1391	1382	1372	1370	1372	1379	1378	1394	1396	1395	1396	1400	1401	1401	1396	1405	1402	1396	1386	1381	1377	1374	1360	1357	1359	1357	1350	1339	1346	1347	1350	1353	1360	1367	1366	1345	1335	1350	1372	1384	1383	1371	1364	1366	1376	1423	1397	1363	1373	1395	1379	1360	1340	1342	1340	1337	1327	1318	1316	1324	1347	1371	1388	1405	1402	1380	1386	1381	1391	1396	1399	1397	1392	1384	1361	1354	1354	1361	1367	1368	1371	1385	1406	1411	1407	1384	1374	1359	1348	1347	1372	1381	1394	1393	1378	1368	1361	1339	1335	1334	1341	1344	1346	1335	1340	1351	1364	1376	1360	1341	1334	1325	1319	1317	1323	1327	1329	1327	1327	1334	1332	1331	1335	1328	1321	1313	1306	1308	1309	1330	1353	1363	1368	1365	1360	1343	1323	1315	1326	1346	1366	1374	1371	1362	1353	1352	1347	1339	1337	1347	1352	1345	1338	1326	1321	1322	1332	1338	1343	1344	1338	1333	1325	1320	1319	1326	1336	1341	1339	1335	1328	1303	1291	1298	1315	1321	1327	1315	1310	1312	1315	1319	1317	1318	1317	1318	1320	1318	1320	1326	1339	1343	1312	1306	1308	1324	1331	1334	1341	1341	1332	1309	1300	1298	1294	1299	1304	1316	1318	1309	1291	1290	1293	1295	1310	1310	1314	1317	1317	1315	1313	1308	1308	1307	1311	1317	1315	1307	1301	1300	1306	1314	1326	1331	1332	1326	1317	1305	1307	1305	1306	1297	1297	1301	1302	1298	1289	1290	1291	1306	1314	1314	1301	1301	1304	1297	1301	1301	1300	1297	1294	1293	1289	1292	1301	1308	1307	1304	1293	1293	1301	1302	1302	1299	1297	1293	1287	1288	1282	1276	1274	1277	1283	1285	1306	1318	1327	1325	1318	1312	1299	1288	1273	1269	1280	1284	1287	1283	1278	1272	1253	1250	1260	1264	1275	1279	1275	1268	1269	1274	1279	1274	1267	1263	1262	1254	1258	1259	1266	1273	1279	1270	1246	1220	1220	1244	1264	1272	1267	1263	1260	1256	1249	1242	1233	1250	1269	1268	1261	1259	1255	1256	1252	1245	1237	1237	1257	1268	1266	1261	1245	1237	1231	1228	1228	1236	1226	1215	1184	1198	1176	1183	1218	1239	1258	1254	1242	1232	1230	1239	1229	1222	1217	1210	1205	1213	1235	1278	1305	1290	1266	1233	1193	1158	1176	1189	1215	1219	1228	1215	1212	1205	1194	1189	1207	0	0	1239	1197	1192	1202	1195	1191	1196	1203	1202	1205	1206	1206	1200	1198	1209	1201	1192	1193	1196	1183	1162	0	0	0	0	0	0	0	0	0	0	1173	1170	1168	1167	1184	1204	1226	1229	1208	1185	1168	1159	1158	1163	1187	0	0	0	0	0	0	0	1180	1179	1182	1185	1198	1205	0	0	0	1193	1174	1160	1161	1164	1170	1176	1178	1174	1179	1177	1197	1203	1209	1197	1177	1164	1173	1198	1215	1209	1203	1195	1200	1200	1193	1186	1194	0	0	1179	1165	1154	1157	1167	1182	1195	1191	1180	1180	1178	1186	1193	1174	1169	1169	1170	1168	1159	1173	1184	1185	1187	1176	1163	0	0	0	0	0	0	0	0	0
0	0	0	0	0	0	0	0	0	0	0	0	0	0	0	0	0	0	0	0	0	0	0	0	0	0	0	0	0	0	0	0	0	0	0	0	0	0	0	0	0	0	0	0	0	0	0	0	0	0	0	0	0	0	0	0	0	0	0	0	0	0	0	0	0	0	0	0	0	0	0	0	0	0	0	0	0	0	0	0	0	0	0	0	0	0	0	0	0	0	0	0	0	0	0	0	0	0	0	0	0	1294	1324	1353	1365	1350	1339	1337	1344	1350	1356	1370	1393	1400	1400	1401	1397	1398	1395	1380	1374	1383	1386	1389	1398	1398	1400	1414	1436	1445	1450	1439	1425	1414	1408	1402	1391	1380	1370	1356	1349	1352	1353	1360	1367	1370	1364	1357	1367	1381	1386	1379	1368	1358	1360	1376	1397	1406	1397	1392	1389	1393	1395	1364	1348	1348	1355	1360	1347	1329	1331	1329	1330	1328	1320	1315	1325	1357	1372	1379	1376	1368	1357	1349	1366	1369	1389	1385	1383	1383	1354	1350	1357	1356	1364	1365	1358	1355	1364	1377	1387	1386	1377	1371	1363	1352	1350	1351	1380	1384	1368	1355	1346	1341	1336	1326	1325	1333	1341	1345	1348	1355	1362	1376	1378	1345	1331	1328	1324	1319	1316	1325	1337	1343	1336	1325	1325	1328	1324	1325	1319	1313	1308	1309	1311	1318	1330	1351	1371	1373	1362	1345	1330	1310	1303	1316	1340	1360	1370	1367	1351	1332	1327	1324	1325	1331	1341	1351	1352	1343	1326	1321	1324	1331	1335	1330	1326	1321	1323	1324	1321	1334	1337	1341	1347	1344	1340	1328	1309	1299	1302	1310	1319	1318	1315	1309	1309	1308	1315	1312	1311	1309	1309	1311	1315	1317	1323	1333	1334	1301	1299	1299	1317	1322	1337	1336	1331	1324	1318	1304	1298	1295	1298	1312	1309	1308	1298	1289	1284	1294	1298	1308	1307	1304	1310	1315	1318	1309	1306	1305	1305	1306	1302	1310	1301	1293	1296	1305	1315	1320	1327	1328	1326	1318	1313	1315	1314	1311	1300	1296	1295	1302	1295	1292	1285	1289	1300	1312	1315	1299	1293	1298	1296	1296	1299	1296	1294	1297	1295	1296	1300	1300	1305	1312	1308	1294	1293	1298	1301	1303	1300	1298	1293	1286	1283	1280	1280	1276	1282	1283	1280	1303	1321	1326	1324	1319	1311	1299	1285	1269	1263	1269	1272	1279	1283	1280	1276	1266	1245	1252	1257	1269	1279	1275	1274	1271	1275	1272	1270	1260	1266	1257	1252	1247	1241	1247	1255	1267	1267	1235	1224	1229	1227	1243	1250	1247	1237	1215	1212	1223	1237	1256	1255	1248	1239	1225	1221	1223	1232	1223	1215	1220	1228	1244	1260	1273	1267	1257	1247	1239	1229	1230	1242	1235	1224	1198	1168	1151	1158	1188	1214	1212	1204	1194	1193	1204	1208	1198	1200	1190	1185	1190	1193	1209	1259	1278	1216	1177	1154	1140	1129	1142	1163	1191	1198	1209	1200	1199	1193	1185	1175	1170	1167	1168	1170	1174	1171	1158	1161	1165	1171	1183	1188	1202	1206	1196	1172	1165	1173	1170	1163	1163	1167	1161	1147	1129	1124	1150	1174	1202	1162	1143	1129	1125	1126	1160	1161	1152	1147	1156	1187	1201	1195	1168	1155	1146	1144	1136	1131	1144	1161	1183	1184	1186	1175	1164	1169	1155	1144	1141	1141	1147	1162	1190	1187	1165	1150	1130	1124	1128	1138	1143	1150	1149	1150	1153	1148	1157	1178	1183	1168	1153	1159	1171	1191	1202	1180	1162	1158	1176	1186	1180	1175	1177	1184	1175	1165	1159	1154	1152	1151	1155	1152	1140	1139	1139	1132	1138	1148	1148	1145	1129	1126	1126	1118	1114	1136	1171	1173	1159	1129	0	0	0	0	0	0	0	0	0
0	0	0	0	0	0	0	0	0	0	0	0	0	0	0	0	0	0	0	0	0	0	0	0	0	0	0	0	0	0	0	0	0	0	0	0	0	0	0	0	0	0	0	0	0	0	0	0	0	0	0	0	0	0	0	0	0	0	0	0	0	0	0	0	0	0	0	0	0	0	0	0	0	0	0	0	0	0	0	0	0	0	0	0	0	0	0	0	0	0	0	0	0	0	0	0	0	0	0	0	0	1281	1316	1317	1312	1304	1292	1309	1312	1336	1359	1377	1387	1381	1387	1389	1389	1389	1384	1390	1408	1403	1385	1377	1388	1390	1394	1409	1422	1440	1434	1409	1381	1360	1351	1339	1323	1314	1318	1317	1313	1335	1344	1359	1378	1395	1376	1366	1374	1390	1393	1392	1385	1373	1369	1387	1398	1404	1406	1403	1403	1394	1381	1359	1349	1345	1345	1345	1348	1333	1330	1325	1319	1316	1311	1304	1308	1357	1375	1374	1362	1348	1333	1337	1347	1369	1378	1379	1379	1380	1355	1352	1358	1360	1368	1365	1358	1352	1354	1363	1367	1373	1371	1379	1381	1363	1341	1337	1365	1366	1358	1345	1330	1331	1330	1322	1322	1329	1339	1347	1352	1360	1372	1374	1365	1338	1331	1329	1321	1313	1312	1327	1346	1354	1340	1328	1318	1320	1322	1316	1307	1302	1298	1305	1313	1312	1314	1324	1331	1334	1338	1336	1325	1310	1303	1310	1331	1356	1368	1365	1333	1321	1318	1316	1317	1318	1334	1346	1350	1346	1332	1326	1329	1335	1335	1327	1318	1313	1316	1325	1367	1360	1347	1345	1347	1342	1336	1326	1306	1297	1297	1304	1311	1324	1321	1316	1301	1295	1303	1306	1306	1302	1295	1298	1303	1314	1323	1334	1332	1317	1301	1300	1311	1320	1319	1319	1316	1308	1304	1324	1325	1314	1307	1308	1304	1298	1276	1267	1268	1277	1283	1286	1275	1272	1273	1282	1298	1293	1295	1287	1276	1263	1246	1245	1249	1254	1262	1276	1291	1317	1327	1335	1333	1322	1313	1306	1300	1299	1294	1291	1286	1283	1273	1266	1269	1267	1271	1276	1278	1284	1277	1265	1257	1256	1254	1256	1260	1269	1265	1262	1255	1262	1269	1280	1282	1274	1261	1251	1242	1243	1257	1276	1285	1285	1269	1249	1245	1260	1284	1285	1279	1275	1277	1283	1293	1296	1297	1286	1271	1260	1249	1246	1243	1244	1250	1262	1261	1242	1222	1209	1206	1209	1232	1259	1275	1274	1271	1252	1211	1225	1229	1224	1220	1205	1193	1187	1196	1206	1216	1218	1212	1199	1194	1206	1212	1200	1189	1176	1179	1189	1203	1210	1201	1192	1190	1192	1185	1181	1186	1183	1197	1191	1190	1194	1201	1186	1164	1167	1176	1187	1194	1191	1176	1167	1165	1160	1147	1129	1122	1150	1171	1165	1165	1165	1162	1160	1159	1169	1175	1171	1164	1165	1169	1176	1177	1172	1164	1148	1130	1108	1095	1114	1130	1148	1162	1163	1161	1162	1171	1173	1159	1141	1131	1132	1142	1158	1150	1151	1150	1150	1154	1165	1174	1176	1171	1156	1142	1140	1150	1148	1136	1135	1136	1123	1118	1120	1113	1104	1118	1131	1126	1108	1094	1093	1097	1140	1141	1124	1116	1119	1142	1148	1136	1134	1140	1136	1119	1111	1106	1109	1113	1137	1142	1133	1120	1121	1129	1114	1099	1083	1080	1089	1113	1124	1132	1131	1127	1110	1101	1102	1109	1121	1123	1134	1136	1134	1129	1129	1133	1137	1126	1119	1117	1137	1175	1174	1163	1156	1148	1145	1161	1149	1134	1124	1121	1132	1139	1136	1139	1132	1135	1128	1111	1099	1093	1093	1097	1103	1115	1131	1124	1098	1081	1088	1084	1072	1076	1103	1137	1144	1123	0	0	0	0	0	0	0	0	0
0	0	0	0	0	0	0	0	0	0	0	0	0	0	0	0	0	0	0	0	0	0	0	0	0	0	0	0	0	0	0	0	0	0	0	0	0	0	0	0	0	0	0	0	0	0	0	0	0	0	0	0	0	0	0	0	0	0	0	0	0	0	0	0	0	0	0	0	0	0	0	0	0	0	0	0	0	0	0	0	0	0	0	0	0	0	0	0	0	0	0	0	0	0	0	0	0	0	0	0	0	1256	1283	1284	1280	1267	1259	1262	1268	1282	1304	1324	1336	1330	1332	1346	1355	1348	1334	1326	1324	1325	1328	1324	1301	1297	1307	1326	1325	1338	1339	1329	1314	1296	1286	1292	1290	1286	1282	1280	1282	1287	1291	1292	1303	1336	1331	1363	1371	1382	1396	1398	1386	1371	1352	1354	1368	1395	1406	1403	1397	1379	1359	1346	1339	1334	1331	1334	1330	1334	1328	1309	1308	1302	1298	1284	1280	1322	1345	1350	1328	1316	1309	1315	1322	1339	1364	1375	1377	1383	1390	1379	1332	1333	1345	1344	1328	1322	1339	1347	1344	1338	1336	1348	1351	1355	1326	1309	1305	1303	1303	1290	1291	1286	1290	1293	1299	1301	1306	1303	1295	1287	1292	1297	1291	1277	1272	1276	1275	1264	1264	1289	1328	1336	1329	1311	1291	1274	1275	1270	1260	1268	1287	1294	1296	1292	1278	1257	1253	1245	1245	1238	1238	1243	1291	1284	1297	1328	1361	1370	1325	1300	1296	1297	1297	1301	1316	1332	1341	1329	1306	1293	1295	1307	1317	1316	1297	1279	1280	1303	1352	1349	1338	1330	1318	1310	1293	1300	1303	1294	1283	1284	1304	1317	1315	1302	1283	1274	1275	1287	1303	1308	1302	1296	1288	1291	1305	1320	1317	1303	1284	1275	1287	1295	1297	1285	1278	1279	1288	1290	1274	1258	1247	1241	1243	1248	1245	1232	1238	1245	1256	1255	1248	1248	1249	1260	1272	1281	1278	1263	1252	1246	1236	1239	1236	1246	1247	1246	1250	1264	1264	1263	1257	1233	1239	1241	1240	1245	1258	1262	1253	1254	1258	1245	1245	1231	1221	1212	1217	1227	1235	1226	1227	1219	1210	1205	1206	1210	1219	1229	1235	1238	1241	1243	1244	1245	1238	1226	1218	1222	1238	1257	1258	1253	1238	1234	1237	1245	1247	1245	1231	1214	1197	1201	1227	1243	1240	1220	1203	1195	1205	1220	1232	1236	1233	1231	1224	1216	1202	1194	1190	1189	1199	1216	1223	1223	1175	1175	1182	1182	1184	1186	1186	1186	1179	1176	1183	1196	1199	1209	1205	1193	1176	1171	1170	1166	1157	1152	1151	1157	1172	1183	1189	1182	1176	1170	1157	1153	1154	1157	1165	1165	1156	1153	1153	1148	1145	1146	1154	1170	1172	1166	1155	1145	1138	1148	1136	1120	1106	1118	1126	1126	1133	1132	1132	1133	1137	1145	1149	1160	1163	1156	1141	1137	1142	1146	1144	1132	1109	1097	1096	1099	1100	1101	1113	1126	1142	1149	1139	1134	1135	1110	1100	1095	1128	1139	1139	1138	1139	1138	1136	1128	1120	1116	1119	1115	1110	1122	1094	1090	1088	1087	1096	1109	1117	1116	1107	1096	1095	1094	1078	1073	1067	1065	1072	1097	1106	1089	1079	1080	1085	1067	1083	1102	1121	1123	1104	1087	1081	1080	1082	1075	1072	1070	1069	1093	1088	1076	1073	1063	1064	1079	1102	1108	1113	1113	1112	1101	1087	1082	1090	1110	1119	1125	1129	1128	1115	1096	1092	1090	1096	1094	1088	1097	1113	1148	1150	1147	1137	1120	1112	1114	1114	1110	1104	1101	1098	1107	1115	1114	1119	1110	1088	1062	1057	1057	1063	1076	1091	1106	1095	1077	1071	1068	1059	1046	1039	1041	1043	1044	1074	0	0	0	0	0	0	0	0	0
0	0	0	0	0	0	0	0	0	0	0	0	0	0	0	0	0	0	0	0	0	0	0	0	0	0	0	0	0	0	0	0	0	0	0	0	0	0	0	0	0	0	0	0	0	0	0	0	0	0	0	0	0	0	0	0	0	0	0	0	0	0	0	0	0	0	0	0	0	1230	1201	1201	1194	1190	1200	1204	1221	0	0	0	0	0	1271	1249	1228	1219	1220	1232	1240	1249	0	0	0	0	0	0	1243	1239	1215	1210	1213	1231	1250	1251	1240	1245	1242	1244	1239	1245	1260	1280	1288	1289	1297	1311	1335	1329	1314	1284	1273	1263	1265	1269	1264	1259	1254	1260	1281	1296	1297	1290	1283	1273	1262	1261	1259	1261	1269	1274	1280	1281	1269	1255	1264	1272	1286	1274	1265	1288	1304	1304	1291	1303	1299	1296	1303	1309	1327	1323	1316	1309	1292	1299	1299	1291	1293	1296	1305	1306	1306	1298	1291	1287	1278	1265	1262	1289	1296	1295	1296	1297	1295	1298	1302	1317	1345	1349	1349	1351	1342	1328	1273	1281	1284	1299	1295	1292	1296	1304	1299	1298	1298	1310	1310	1305	1283	1256	1232	1241	1251	1268	1271	1273	1271	1267	1260	1246	1243	1245	1249	1260	1255	1243	1237	1235	1229	1223	1209	1210	1212	1217	1221	1226	1230	1232	1232	1220	1200	1189	1184	1194	1221	1265	1271	1248	1238	1235	1236	1233	1220	1218	1220	1229	1242	1243	1251	1254	1263	1265	1265	1267	1275	1273	1260	1241	1243	1254	1270	1269	1262	1251	1250	1252	1252	1249	1253	1251	1248	1250	1248	1260	1278	1285	1277	1255	1233	1235	1240	1243	1247	1252	1247	1245	1242	1247	1243	1241	1239	1230	1220	1212	1207	1209	1218	1221	1221	1216	1217	1216	1211	1205	1211	1221	1226	1216	1212	1202	1189	1171	1154	1151	1155	1158	1164	1173	1175	1180	1186	1185	1190	1185	1183	1178	1186	1202	1217	1223	1225	1221	1208	1190	1185	1179	1182	1188	1197	1215	1216	1206	1189	1174	1177	1173	1174	1171	1204	1205	1182	1169	1142	1139	1143	1148	1164	1159	1157	1159	1158	1150	1133	1124	1131	1146	1151	1148	1141	1134	1137	1149	1159	1174	1180	1177	1169	1149	1138	1134	1145	1162	1162	1177	1174	1165	1158	1166	1169	1166	1155	1142	1143	1141	1131	1123	1124	1132	1149	1183	1186	1184	1193	1201	1199	1191	1171	1155	1155	1149	1152	1146	1143	1149	1172	1187	1156	1156	1149	1147	1148	1151	1152	1156	1159	1166	1169	1173	1176	1176	1175	1180	1179	1167	1154	1146	1142	1139	1140	1141	1137	1136	1145	1154	1157	1160	1150	1140	1133	1125	1128	1129	1132	1136	1130	1129	1132	1136	1135	1138	1147	1143	1141	1131	1124	1116	1119	1117	1111	1103	1098	1099	1100	1093	1096	1104	1110	1118	1129	1125	1130	1142	1147	1138	1123	1113	1116	1119	1124	1118	1097	1087	1084	1081	1079	1075	1083	1101	1114	1124	1115	1103	1092	1088	1069	1060	1102	1112	1108	1112	1113	1113	1100	1087	1076	1049	1051	1060	1068	1074	1063	1072	1071	1073	1082	1083	1083	1071	1063	1065	1056	1028	1018	1018	1022	1036	1041	1053	1057	1048	1044	1035	1011	1024	1041	1066	1095	1100	1089	1071	1061	1060	1061	1055	1048	1042	1045	1049	1060	1052	1044	1050	1055	1068	1090	1103	1107	1103	1092	1080	1067	1069	1078	1090	1111	1122	1124	1111	1095	1075	1061	1063	1071	1072	1062	1064	1059	1088	1129	1130	1097	1069	1073	1077	1081	1081	1081	1074	1073	1080	1087	1097	1093	1072	1045	1036	1037	1037	1047	1062	1071	1076	1069	1072	1077	1073	1060	1045	1031	1024	1023	1023	1021	0	0	0	0	0	0	0	0	0
0	0	0	0	0	0	0	0	0	0	0	0	0	0	0	0	0	0	0	0	0	0	0	0	0	0	0	0	0	0	0	0	0	0	0	0	0	0	0	0	1139	1137	1132	1132	1134	1155	1190	1214	0	0	0	1205	1215	1218	1224	1224	1209	1208	0	0	0	0	1240	1227	1209	1211	1206	1226	1230	1217	1197	1197	1192	1191	1189	1191	1183	1196	1222	1248	1262	1253	1228	1213	1203	1196	1204	1227	1245	1257	1247	1233	1227	1231	1232	1236	1233	1213	1205	1203	1205	1214	1215	1207	1204	1204	1207	1211	1211	1207	1211	1222	1233	1246	1259	1280	1291	1297	1283	1246	1216	1206	1210	1218	1227	1226	1225	1223	1230	1249	1251	1252	1249	1246	1237	1238	1239	1247	1257	1258	1257	1252	1237	1234	1227	1223	1219	1226	1233	1252	1267	1267	1260	1254	1244	1249	1251	1249	1284	1276	1276	1274	1279	1284	1272	1268	1270	1274	1276	1280	1281	1283	1279	1275	1261	1248	1243	1248	1265	1269	1275	1281	1279	1278	1283	1286	1289	1296	1301	1304	1298	1286	1265	1245	1263	1269	1265	1265	1272	1264	1259	1244	1251	1262	1265	1254	1230	1209	1194	1194	1207	1225	1235	1236	1235	1222	1202	1189	1188	1202	1220	1235	1230	1207	1198	1197	1188	1182	1183	1185	1190	1191	1190	1185	1187	1184	1188	1179	1165	1150	1147	1155	1185	1212	1220	1210	1194	1193	1205	1201	1194	1192	1198	1212	1219	1219	1208	1187	1228	1227	1225	1224	1238	1238	1226	1202	1196	1203	1215	1214	1216	1210	1216	1215	1209	1203	1201	1205	1205	1206	1206	1220	1227	1226	1219	1206	1192	1192	1190	1195	1198	1203	1201	1208	1211	1204	1192	1186	1180	1180	1180	1184	1184	1188	1193	1198	1190	1182	1177	1173	1165	1174	1179	1175	1169	1176	1184	1175	1155	1131	1122	1115	1117	1117	1122	1133	1142	1148	1153	1152	1157	1158	1155	1151	1161	1178	1187	1189	1189	1188	1175	1159	1144	1136	1137	1138	1156	1156	1146	1155	1147	1137	1134	1143	1145	1137	1118	1111	1102	1108	1101	1109	1113	1109	1112	1119	1124	1128	1124	1114	1098	1090	1084	1098	1108	1113	1107	1104	1100	1112	1128	1136	1143	1145	1142	1130	1122	1106	1112	1128	1131	1124	1119	1121	1128	1136	1140	1142	1137	1115	1118	1116	1112	1103	1104	1097	1096	1118	1143	1153	1146	1140	1144	1133	1119	1121	1126	1132	1130	1124	1124	1130	1109	1115	1116	1116	1108	1110	1113	1115	1119	1117	1115	1130	1143	1152	1149	1143	1132	1136	1140	1134	1124	1110	1103	1103	1124	1135	1131	1116	1103	1109	1121	1131	1116	1109	1104	1097	1084	1086	1093	1098	1102	1102	1102	1100	1107	1120	1123	1108	1102	1094	1093	1092	1092	1096	1088	1083	1078	1076	1075	1066	1062	1072	1090	1107	1114	1106	1107	1120	1126	1119	1107	1089	1089	1090	1092	1090	1079	1066	1053	1054	1057	1053	1060	1071	1082	1088	1082	1079	1075	1070	1051	1038	1029	1063	1065	1058	1022	1034	1041	1033	1027	1021	1019	1018	1043	1032	1029	1050	1045	1034	1034	1038	1035	1024	1022	1027	1017	1006	998	999	999	1015	1022	1024	1031	1030	1028	1012	1004	994	1011	1045	1065	1075	1070	1051	1041	1036	1033	1028	1023	1009	1011	1014	1028	1009	1008	1030	1043	1057	1068	1075	1075	1071	1065	1052	1042	1047	1053	1045	1054	1066	1100	1084	1065	1053	1049	1050	1054	1055	1045	1026	1020	1024	1045	1048	1040	1039	1033	1034	1031	1028	1028	1031	1043	1044	1042	1026	1014	1016	1019	1016	1016	1020	1029	1037	1042	1042	1050	1063	1077	1077	1060	1029	1020	1013	1010	1009	1004	0	0	0	0	0	0	0	0	0
0	0	0	0	0	0	0	0	0	0	0	0	0	0	0	0	0	0	0	0	0	0	0	0	0	0	0	0	0	0	0	0	0	0	0	0	0	0	0	1131	1127	1119	1105	1105	1112	1114	1137	1164	1185	1175	1151	1154	1168	1181	1185	1185	1178	1169	1167	1173	1183	1189	1200	1195	1182	1169	1167	1183	1213	1216	1200	1200	1186	1175	1164	1160	1169	1190	1206	1227	1221	1210	1192	1179	1183	1184	1195	1215	1232	1237	1219	1195	1196	1212	1210	1208	1198	1192	1192	1197	1195	1191	1188	1186	1180	1171	1167	1171	1172	1173	1167	1172	1179	1198	1221	1241	1254	1257	1234	1192	1160	1151	1162	1173	1184	1194	1196	1198	1197	1208	1223	1224	1218	1212	1206	1209	1218	1232	1234	1234	1219	1213	1205	1207	1203	1200	1176	1171	1179	1194	1216	1225	1219	1220	1212	1202	1201	1203	1189	1180	1178	1186	1195	1245	1236	1224	1235	1241	1240	1251	1254	1255	1261	1258	1237	1222	1217	1214	1221	1229	1237	1242	1243	1245	1256	1250	1252	1255	1259	1264	1267	1256	1233	1213	1227	1225	1208	1203	1204	1199	1192	1196	1205	1210	1220	1206	1183	1166	1160	1164	1170	1184	1196	1192	1189	1181	1167	1152	1156	1176	1191	1203	1189	1163	1157	1157	1148	1146	1152	1158	1159	1161	1158	1157	1154	1150	1145	1140	1124	1114	1112	1117	1139	1161	1172	1153	1132	1130	1155	1157	1157	1168	1172	1179	1187	1182	1158	1132	1124	1127	1183	1185	1189	1183	1177	1163	1157	1156	1169	1181	1188	1183	1171	1170	1166	1162	1166	1172	1173	1173	1177	1183	1190	1197	1188	1172	1161	1151	1155	1162	1170	1172	1173	1172	1180	1172	1156	1142	1139	1141	1140	1136	1137	1141	1157	1157	1148	1133	1124	1121	1124	1134	1133	1125	1122	1135	1150	1141	1122	1092	1079	1077	1079	1080	1080	1100	1108	1123	1131	1130	1134	1135	1134	1132	1141	1148	1148	1141	1140	1139	1132	1121	1106	1097	1102	1105	1123	1126	1109	1111	1107	1104	1112	1123	1116	1102	1090	1076	1071	1070	1069	1080	1075	1074	1084	1091	1093	1090	1087	1079	1071	1062	1061	1071	1087	1090	1077	1070	1072	1083	1092	1104	1111	1114	1110	1106	1095	1089	1092	1106	1107	1101	1093	1099	1100	1108	1115	1118	1110	1076	1070	1083	1084	1081	1074	1073	1073	1080	1097	1105	1108	1102	1096	1092	1092	1089	1100	1109	1114	1105	1073	1076	1078	1085	1081	1077	1073	1076	1076	1078	1081	1076	1072	1081	1075	1115	1111	1090	1077	1083	1091	1094	1086	1074	1063	1054	1065	1074	1082	1073	1063	1048	1074	1087	1077	1079	1077	1067	1047	1050	1057	1067	1071	1070	1066	1059	1059	1070	1061	1051	1052	1066	1069	1064	1066	1071	1070	1058	1055	1054	1053	1047	1044	1051	1066	1062	1030	1047	1071	1093	1103	1099	1086	1077	1075	1071	1067	1056	1053	1042	1033	1033	1031	1029	1033	1036	1038	1037	1045	1051	1057	1053	1039	1015	974	972	983	988	999	1005	1004	995	992	992	991	989	992	993	996	990	990	992	1006	1000	995	994	992	996	987	983	981	978	991	1000	1003	996	991	993	989	991	995	984	987	1016	1028	1043	1034	1012	990	989	985	983	983	985	985	988	989	988	992	1005	1030	1045	1024	1020	1027	1028	1013	987	984	996	1003	994	1000	1013	1032	1039	1033	1035	1037	1028	1024	1024	1011	1005	1003	1010	1024	1028	1018	1012	1006	994	994	991	985	979	996	1009	1009	1007	1002	1000	1001	998	998	997	984	963	972	984	999	1034	1053	1049	1021	1004	1002	997	997	993	985	0	0	0	0	0	0	0	0	0
0	0	0	0	0	0	0	0	0	0	0	0	0	0	0	0	0	0	0	0	0	0	0	0	0	0	0	0	0	0	0	1115	1130	1127	1127	1124	1083	1092	1106	1108	1110	1099	1084	1084	1090	1089	1102	1111	1121	1118	1117	1113	1118	1129	1158	1158	1149	1127	1114	1126	1138	1152	1156	1150	1140	1130	1112	1124	1145	1168	1174	1174	1161	1149	1140	1140	1152	1164	1185	1197	1187	1176	1160	1154	1163	1176	1188	1198	1209	1172	1159	1152	1162	1160	1171	1169	1166	1162	1172	1171	1162	1157	1157	1162	1161	1144	1131	1137	1134	1133	1125	1130	1139	1149	1166	1186	1195	1193	1169	1129	1108	1102	1111	1127	1140	1163	1165	1162	1167	1177	1197	1197	1186	1175	1175	1175	1189	1204	1205	1190	1171	1161	1159	1177	1183	1167	1143	1138	1140	1153	1167	1169	1166	1172	1168	1164	1160	1160	1139	1130	1132	1132	1137	1116	1118	1126	1132	1140	1205	1210	1213	1209	1217	1220	1205	1185	1174	1168	1175	1173	1170	1162	1170	1198	1204	1207	1202	1196	1188	1190	1191	1190	1164	1174	1158	1145	1151	1162	1162	1161	1154	1149	1155	1160	1154	1147	1138	1132	1135	1123	1123	1137	1118	1115	1127	1134	1122	1108	1103	1109	1121	1126	1126	1122	1120	1119	1113	1112	1116	1120	1123	1123	1124	1117	1108	1109	1103	1094	1090	1081	1073	1073	1087	1102	1087	1064	1071	1089	1121	1126	1122	1125	1137	1140	1137	1101	1053	1058	1068	1079	1090	1107	1147	1136	1135	1128	1123	1123	1133	1146	1158	1151	1127	1116	1114	1115	1121	1122	1118	1123	1140	1143	1152	1161	1144	1137	1125	1117	1117	1118	1120	1122	1114	1111	1106	1116	1105	1100	1101	1104	1108	1108	1100	1119	1138	1120	1110	1095	1089	1090	1086	1090	1091	1090	1095	1108	1110	1096	1065	1049	1042	1037	1036	1036	1030	1039	1069	1082	1091	1095	1096	1098	1080	1063	1058	1051	1052	1073	1085	1084	1081	1067	1058	1051	1054	1048	1053	1073	1074	1077	1056	1053	1054	1070	1069	1056	1054	1053	1049	1044	1038	1035	1035	1042	1054	1066	1068	1058	1052	1042	1038	1032	1028	1032	1040	1048	1044	1040	1040	1047	1049	1067	1069	1074	1072	1068	1059	1063	1059	1057	1051	1051	1064	1065	1069	1073	1082	1080	1076	1043	1032	1035	1048	1054	1045	1041	1046	1054	1063	1069	1064	1060	1059	1058	1059	1066	1069	1074	1081	1042	1042	1049	1056	1056	1054	1042	1043	1047	1050	1052	1044	1038	1031	1033	1035	1041	1056	1040	1030	1029	1039	1054	1051	1035	1008	1000	1004	1021	1040	1040	1029	1010	1012	1044	1047	1050	1049	1035	1023	1018	1033	1038	1036	1031	1024	1021	1025	1034	1031	1018	1016	1026	1038	1037	1034	1040	1042	1029	1013	1010	1030	1032	1026	1005	987	977	974	975	983	1037	1052	1035	1043	1065	1068	1057	1034	1019	1015	1017	1010	1007	1008	1010	1014	1014	1007	1008	1009	1017	964	955	957	952	953	950	952	949	960	970	977	971	966	957	962	965	969	968	958	947	944	957	965	966	968	966	965	964	947	946	953	954	970	981	973	964	961	956	953	963	971	972	971	962	965	982	982	966	968	967	964	964	961	968	969	968	957	970	976	989	1004	998	993	985	991	992	961	935	934	943	959	968	982	988	985	998	999	988	963	959	955	950	952	949	963	997	1003	1002	998	985	971	968	966	961	949	945	958	982	996	993	986	982	973	961	961	945	934	934	949	959	972	986	995	990	981	980	973	967	960	955	955	0	0	0	0	0	0	0	0	0
0	0	0	0	0	0	0	0	0	0	0	0	0	0	0	0	0	0	0	1095	1095	1093	1070	1055	1048	1051	1056	1056	1060	1057	1072	1084	1093	1080	1058	1047	1045	1054	1064	1077	1082	1069	1061	1057	1057	1060	1067	1079	1085	1094	1089	1095	1099	1103	1105	1105	1107	1085	1072	1071	1102	1114	1090	1079	1075	1078	1082	1076	1081	1082	1093	1093	1107	1123	1125	1121	1124	1129	1129	1119	1108	1108	1118	1118	1132	1152	1156	1167	1097	1094	1112	1108	1108	1120	1127	1126	1103	1108	1107	1112	1108	1087	1096	1109	1116	1110	1105	1103	1100	1095	1089	1085	1093	1104	1108	1118	1119	1111	1105	1091	1080	1079	1074	1088	1083	1096	1093	1094	1111	1121	1166	1164	1160	1135	1110	1083	1094	1116	1140	1135	1117	1096	1092	1111	1132	1126	1094	1097	1103	1110	1120	1105	1095	1079	1055	1041	1071	1078	1069	1072	1075	1082	1065	1060	1061	1061	1074	1088	1099	1086	1078	1093	1178	1178	1161	1138	1132	1130	1130	1122	1116	1110	1111	1118	1141	1142	1138	1131	1124	1122	1119	1117	1114	1106	1101	1104	1109	1113	1109	1124	1117	1110	1108	1109	1097	1105	1112	1110	1095	1086	1072	1051	1037	1033	1040	1050	1050	1054	1059	1076	1082	1083	1085	1087	1092	1091	1087	1082	1079	1077	1082	1082	1073	1054	1045	1046	1041	1049	1053	1047	1030	1022	1022	1024	1012	1010	1028	1043	1055	1052	1057	1071	1092	1083	1053	1005	1007	1018	1029	1040	1045	1044	1074	1066	1096	1081	1074	1081	1088	1093	1094	1090	1077	1066	1066	1062	1062	1054	1042	1039	1045	1070	1071	1062	1079	1095	1084	1078	1069	1054	1019	1022	1034	1029	1021	1005	1000	1020	1054	1072	1080	1074	1063	1051	1062	1055	1035	1015	1001	997	1022	1043	1052	1055	1064	1067	1028	1013	1002	995	1002	1001	988	983	992	992	1008	1010	1024	1055	1058	1038	1028	1009	992	972	969	985	1013	1012	1008	992	992	995	991	953	952	1017	1024	1026	1028	1016	1013	1012	1010	1009	1013	1029	1031	1017	991	982	982	995	1023	1047	1043	1036	1013	1002	1007	1003	1000	1001	998	1005	1011	1011	1010	1012	1021	1037	1039	1042	1037	1030	1023	1018	1003	999	993	996	1019	1027	1037	1040	1050	1046	1028	1019	1008	1002	1003	1020	1014	989	994	1008	1029	1025	1021	1016	1016	1023	1030	1029	1024	991	990	979	998	997	1002	1006	1009	1003	992	985	997	1002	1005	993	1002	1001	1002	993	998	1001	994	984	978	971	974	960	960	953	965	975	997	1009	981	978	975	993	995	993	977	955	972	981	991	990	988	983	981	987	997	1008	1006	995	963	973	989	993	991	977	958	960	957	961	973	987	984	954	937	958	964	950	937	945	959	971	980	990	1035	1019	997	992	983	988	969	970	979	980	985	987	932	919	918	909	914	921	920	915	931	933	927	922	929	929	933	945	934	936	939	943	942	944	931	920	921	922	927	932	923	927	934	926	920	914	910	928	932	942	937	912	901	906	918	933	940	935	936	931	927	926	922	929	935	940	950	951	949	955	954	945	931	932	945	956	966	975	969	970	972	949	928	921	917	922	928	949	955	963	966	964	953	949	936	932	929	923	925	923	925	945	964	967	957	946	937	929	934	930	918	922	930	954	964	968	938	935	931	920	920	913	917	921	930	941	952	953	941	924	928	950	945	939	933	928	926	0	0	0	0	0	0	0	0	0
0	0	0	0	0	0	1020	1008	1008	1009	0	0	0	0	0	0	1061	1050	1051	1037	1037	1034	1031	1030	1027	1033	1033	1033	1035	1044	1056	1065	1032	1020	996	996	998	1027	1044	1050	1057	1053	1040	1025	1025	1032	1042	1052	1056	1057	1062	1067	1072	1073	1068	1068	1044	1011	996	998	1029	1048	1045	1043	1040	1049	1056	1059	1057	1054	1056	1076	1076	1092	1098	1087	1074	1079	1065	1048	1032	1034	1056	1068	1077	1097	1091	1062	1041	1059	1063	1066	1074	1056	1053	1046	1042	1034	1037	1030	1031	1041	1045	1040	1045	1053	1062	1067	1068	1055	1029	1035	1048	1059	1063	1061	1067	1075	1082	1082	1069	1058	1052	1047	1046	1039	1028	1030	1029	1051	1071	1068	1050	1003	959	989	1006	1011	1014	1023	1035	1046	1043	1032	1006	999	1027	1040	1039	1039	1040	1030	1027	1023	1013	995	981	986	1008	1023	1019	1012	1016	1016	992	987	997	1017	1020	1013	1016	1030	1043	1068	1059	1038	1081	1083	1081	1080	1078	1070	1075	1078	1079	1075	1067	1058	1058	1058	1050	1049	1055	1071	1054	1043	1026	1028	1040	1063	1074	1073	1069	1029	1034	1056	1078	1080	1067	1021	1009	995	1000	1005	1011	1014	1013	1021	1024	1033	1048	1044	1037	1029	1032	1055	1067	1045	1038	1041	1040	1026	1025	1016	992	982	972	973	981	982	983	981	975	968	960	958	963	976	1012	1008	988	993	1025	1010	975	971	976	980	991	1004	1010	996	967	945	936	924	1017	1041	1047	1034	1012	999	1011	1016	1021	1022	1006	1000	996	1003	1002	1013	1013	992	1019	1034	1029	1014	1009	986	973	965	965	979	967	951	952	958	975	979	971	973	972	964	967	975	966	966	966	967	964	963	963	955	959	957	958	960	955	941	942	941	950	954	957	960	964	964	972	965	934	927	943	961	947	935	923	918	931	935	941	945	958	954	933	934	932	935	936	941	965	976	974	959	959	955	957	960	964	970	965	951	947	941	955	965	978	945	931	940	963	973	969	971	973	978	984	986	983	983	991	1002	1011	1013	1007	998	990	985	972	963	955	968	979	988	990	991	989	990	1002	1000	987	981	969	956	961	955	956	970	1000	999	989	978	972	977	969	936	945	948	929	921	914	918	920	929	949	954	948	937	926	917	915	925	960	946	946	955	951	954	954	915	908	905	930	934	926	924	924	931	937	940	945	942	940	919	923	930	933	939	941	939	944	943	942	937	942	951	936	941	949	943	909	905	920	925	926	916	916	922	928	936	930	929	924	913	917	933	936	926	916	911	923	934	936	943	960	974	959	929	931	928	916	915	888	900	908	908	894	886	888	890	888	892	889	878	889	909	906	901	900	897	894	891	887	879	878	885	894	899	880	886	885	892	892	882	864	871	876	894	891	882	868	862	864	879	898	887	883	883	893	898	902	900	899	894	884	875	884	893	906	913	918	917	904	901	906	911	902	890	888	887	890	909	923	924	921	912	904	900	898	901	906	908	929	937	899	902	917	923	923	912	904	899	908	905	900	899	908	922	918	907	885	875	880	900	899	896	893	890	890	892	897	897	894	898	898	900	905	912	918	921	924	914	903	894	882	884	906	915	918	917	906	906	0	0	0	0	0	0	0	0
0	0	0	0	988	996	993	984	984	973	968	987	998	1002	1002	997	971	954	950	959	959	971	990	1003	1014	1012	1008	1008	998	1001	1033	976	977	973	963	963	963	976	989	1001	1034	1014	1009	1002	1002	997	1002	1004	1007	990	991	995	995	989	983	983	968	962	959	969	986	1005	1012	1007	1002	1003	1009	1006	1010	1017	1015	1030	1030	1042	1042	1029	1024	1027	1019	1020	1012	1006	1016	1020	1022	1031	1020	1005	1011	1015	1019	1029	999	1000	1009	1013	1012	1001	995	985	984	995	999	998	997	1012	1031	1036	1023	1002	975	954	956	962	981	1007	1028	1039	1050	1057	1042	995	986	989	996	991	980	981	973	964	956	945	937	927	926	938	954	969	966	968	978	1000	997	993	965	954	972	992	1006	977	965	956	976	990	988	971	951	950	965	984	979	972	975	965	963	952	941	938	942	946	960	969	970	966	964	969	971	976	981	1028	1018	1023	1022	1030	1035	1036	1019	1011	1004	999	995	997	991	988	991	982	972	980	1001	1022	1022	1005	969	972	985	996	1005	1033	1031	990	980	974	970	974	990	974	972	968	960	953	951	948	955	951	957	977	967	960	979	986	977	978	975	968	956	941	931	932	933	929	926	927	928	921	918	921	926	937	952	937	909	908	903	899	895	924	943	946	944	939	941	936	918	906	902	895	903	907	956	941	923	911	904	924	941	951	952	967	967	967	947	928	911	933	933	920	905	903	936	943	940	933	916	906	909	914	918	923	927	921	910	910	919	932	931	923	929	932	938	936	936	934	916	903	907	913	925	928	932	923	905	901	903	908	911	918	924	930	922	907	891	882	877	898	899	896	890	879	883	881	887	926	930	921	922	919	916	919	918	921	918	924	938	943	938	930	916	917	907	906	939	936	927	915	901	889	891	898	910	921	919	926	927	929	933	933	936	936	944	949	950	950	947	944	939	937	937	935	932	927	923	945	962	973	944	925	919	914	930	942	943	936	931	931	919	918	923	927	931	929	923	911	908	884	893	904	903	900	902	898	891	881	878	880	895	899	900	894	901	889	872	886	892	904	909	917	919	914	899	884	883	869	861	907	903	892	885	884	889	908	908	910	894	900	897	897	904	913	908	891	877	895	903	907	911	913	904	898	902	897	886	887	893	899	896	897	895	898	899	888	890	894	893	897	895	905	907	899	898	896	898	906	917	913	911	905	894	895	904	872	865	858	858	866	869	866	863	870	866	865	855	859	857	857	864	870	869	871	866	865	859	869	864	851	847	846	845	840	838	843	849	851	848	846	849	855	856	850	848	844	837	830	832	842	851	864	864	866	873	876	881	881	877	866	858	851	853	853	861	886	897	885	870	860	870	875	879	872	866	868	876	886	902	906	901	890	880	877	879	881	880	882	885	871	859	866	870	874	885	883	875	877	883	881	869	863	864	879	883	867	850	850	854	860	869	873	875	868	861	868	875	879	879	878	878	882	892	898	905	901	900	888	879	867	860	865	879	893	895	899	885	885	0	0	0	0	0	0	0	0
971	965	965	959	964	968	964	953	953	935	934	935	945	944	944	939	934	931	926	934	934	945	969	991	994	989	983	983	979	944	946	940	938	936	934	934	939	934	923	919	936	990	979	974	974	959	950	946	946	944	942	952	958	962	957	957	952	947	948	951	960	964	968	965	971	974	966	971	975	977	980	982	982	994	991	987	973	955	951	961	982	990	996	997	988	980	972	962	957	956	953	947	930	938	963	979	973	959	953	948	958	965	966	961	956	963	972	975	965	947	940	938	928	924	921	934	970	979	983	979	969	944	920	917	918	930	936	940	941	943	937	937	930	915	902	906	913	918	921	922	930	941	951	953	938	925	910	918	928	928	924	925	938	965	966	953	934	929	934	942	950	952	945	928	929	923	916	910	904	902	912	906	903	899	923	936	938	939	942	916	908	917	925	967	975	998	984	967	963	953	955	937	919	912	952	959	959	961	971	980	976	961	945	943	943	922	913	917	921	938	934	935	930	931	924	928	931	929	927	920	909	905	911	915	919	916	899	904	912	914	914	909	914	917	921	921	915	916	912	911	912	911	907	894	888	892	895	904	904	897	888	873	862	860	874	883	903	912	915	892	878	872	883	883	878	873	872	877	869	897	892	886	867	863	854	855	859	887	910	918	888	870	866	866	861	858	857	860	879	885	872	872	863	857	856	868	890	892	891	881	875	867	876	878	867	877	888	887	880	875	871	868	873	881	882	887	892	893	894	894	883	879	878	883	893	893	889	875	870	873	871	864	859	858	858	859	862	867	867	866	864	867	880	890	897	904	902	903	907	895	877	882	896	899	903	896	881	872	875	877	883	892	893	885	877	875	876	883	891	891	899	889	884	882	876	860	847	835	844	871	894	906	900	893	889	893	904	905	901	896	902	909	919	919	895	885	883	877	872	876	898	904	910	903	892	888	881	874	863	865	873	869	872	871	875	877	875	879	881	880	875	859	857	862	868	868	871	858	850	835	825	846	861	878	885	886	877	863	857	862	861	848	839	837	850	856	864	868	869	871	870	867	869	873	866	877	870	857	846	831	833	844	858	873	886	887	877	864	854	856	863	874	872	865	861	860	850	848	859	860	861	858	871	873	874	872	870	867	862	881	885	888	894	894	889	846	838	832	829	835	828	824	819	807	807	833	844	841	827	832	833	835	828	827	829	832	829	835	841	836	835	840	847	843	838	837	832	816	799	815	831	831	831	833	835	841	834	825	826	825	824	824	825	829	825	829	832	848	852	861	862	847	842	841	831	826	830	830	832	839	846	833	835	839	832	834	834	840	845	850	850	859	864	860	856	856	852	848	852	861	858	856	839	836	832	842	840	839	839	844	846	856	862	859	853	844	844	851	854	844	835	832	835	840	841	841	844	841	839	844	850	862	855	856	856	860	869	873	868	856	855	842	842	842	845	852	857	863	860	860	863	863	0	0	0	0	0	0	0	0
891	912	927	927	937	948	936	912	912	913	915	918	928	927	927	923	914	915	917	921	921	936	961	978	973	954	946	946	909	915	907	903	906	903	912	912	910	913	910	906	907	923	932	926	926	919	915	918	916	920	922	931	941	950	948	948	943	942	942	932	931	931	928	933	933	934	938	941	942	945	946	947	947	935	923	922	927	932	927	931	942	958	965	968	956	949	938	932	927	915	908	900	898	900	918	932	930	922	917	918	931	934	938	938	934	930	917	913	919	914	907	904	902	901	898	902	932	945	920	895	883	890	887	881	881	874	876	883	905	909	911	915	908	894	882	880	877	884	881	886	894	890	896	903	884	885	882	888	898	902	900	899	906	925	945	936	910	905	913	914	913	911	901	886	892	892	884	882	885	892	892	878	876	872	876	869	873	880	886	876	875	880	878	851	841	849	929	923	909	908	911	906	906	898	907	945	951	943	937	935	930	939	926	908	885	885	883	877	872	875	881	882	866	878	887	901	904	905	897	888	886	887	891	890	882	876	879	870	865	874	879	883	887	882	874	875	884	878	876	878	879	881	857	846	841	848	859	868	878	865	858	845	836	835	843	849	869	879	873	851	849	853	843	833	822	822	816	817	811	804	802	870	856	849	841	842	849	862	872	874	863	855	857	861	857	846	841	838	836	832	827	827	832	842	843	849	855	851	852	845	841	837	829	823	830	836	838	831	832	827	821	812	815	826	834	843	856	861	863	862	861	859	857	855	848	843	836	829	832	840	856	855	843	831	827	828	826	829	837	842	843	853	860	864	873	879	890	891	878	845	847	862	867	867	853	845	846	852	856	856	853	844	843	852	856	864	855	865	866	864	866	857	836	836	836	838	828	822	826	845	870	882	871	858	850	853	862	868	877	873	871	873	873	863	854	849	854	858	854	856	858	871	875	870	859	864	862	853	845	831	823	841	856	857	856	845	846	843	851	859	848	842	844	844	849	848	843	837	825	810	804	834	850	859	860	860	851	839	839	842	838	830	822	824	833	850	860	859	849	847	845	845	847	849	850	852	850	837	822	815	817	823	825	826	825	848	838	825	816	810	809	820	818	820	826	832	825	824	829	837	837	835	837	854	851	847	844	828	819	833	832	832	786	794	813	813	804	788	781	794	801	806	797	790	787	787	788	786	786	801	808	808	802	789	783	781	783	788	791	798	804	809	814	820	823	822	812	800	786	794	807	809	812	818	820	817	812	806	806	806	809	809	816	816	808	806	816	825	822	803	797	810	810	813	812	809	804	816	815	805	804	801	802	802	805	801	802	798	799	797	794	794	795	799	801	804	809	812	807	800	807	808	815	816	818	816	819	819	816	819	823	831	838	846	839	832	830	828	835	828	819	819	812	815	817	825	830	828	824	819	816	809	811	815	815	816	814	824	827	825	824	825	828	829	828	825	825	823	816	809	804	804	0	0	0	0	0	0	0	0
857	870	896	896	914	921	897	887	887	887	894	904	910	910	910	906	901	896	898	913	913	928	949	960	943	922	907	866	858	850	865	869	874	875	875	875	886	890	890	888	884	878	877	880	880	881	880	883	888	900	903	897	885	884	891	891	890	889	879	884	891	888	884	887	891	888	890	893	897	898	894	894	894	881	878	881	886	895	895	899	901	906	903	896	905	904	904	905	909	902	890	877	877	881	890	904	908	895	893	889	887	887	881	888	899	897	889	882	875	875	868	871	870	873	874	875	877	874	864	850	844	851	854	859	862	861	855	849	855	863	868	867	868	859	856	855	851	842	842	849	857	860	858	857	860	859	849	854	856	857	861	868	876	892	891	876	879	884	886	891	867	854	844	838	845	843	840	846	859	868	854	855	857	852	847	835	826	829	834	842	845	844	844	835	828	838	840	835	827	879	888	878	874	869	869	876	897	908	874	844	832	826	845	854	859	862	864	859	854	850	840	840	835	833	838	853	873	876	877	857	847	849	849	846	853	836	839	841	837	834	822	819	823	828	833	835	831	811	815	829	831	830	831	826	820	813	823	839	852	841	833	826	818	809	811	807	812	825	832	831	827	823	813	806	797	792	792	797	796	792	789	786	788	818	822	830	839	850	856	855	849	843	843	846	827	835	827	819	813	815	813	814	816	823	825	832	838	838	835	823	813	805	802	804	812	817	820	821	823	819	814	800	797	802	805	809	819	825	829	825	817	815	817	814	812	814	816	815	812	818	830	828	810	811	815	814	809	799	788	782	789	799	827	827	821	818	813	818	819	819	824	833	843	835	818	809	812	822	837	842	837	816	812	808	816	840	836	833	835	834	832	829	827	829	823	819	812	810	817	835	849	849	837	825	826	837	840	846	847	852	858	859	850	844	829	813	837	835	836	833	839	846	840	835	831	840	841	838	803	797	792	787	791	805	807	817	810	807	800	808	816	810	817	814	808	808	821	821	807	801	791	814	834	843	833	826	823	819	821	825	822	816	812	813	830	848	853	849	837	835	836	840	837	836	836	836	837	827	814	809	809	811	810	799	792	811	807	800	793	795	788	784	789	796	803	809	814	810	810	822	813	807	791	784	801	814	809	807	803	792	784	776	768	772	778	781	780	778	776	770	766	787	779	772	777	784	782	776	772	776	788	784	777	768	776	778	774	773	765	777	781	787	777	776	781	790	797	789	779	781	783	787	790	793	787	789	788	789	786	772	762	766	780	799	786	780	780	784	787	776	779	778	778	787	793	796	796	787	782	783	784	778	780	782	781	780	788	785	778	769	769	770	773	775	767	773	786	800	795	788	782	781	774	783	786	779	782	784	785	789	796	801	813	822	805	806	806	798	798	794	789	790	788	790	793	803	812	811	805	795	793	794	802	802	808	810	807	804	801	797	799	804	809	801	794	787	782	777	771	768	767	767	0	0	0	0	0	0	0	0
828	844	863	863	884	877	873	869	869	867	871	878	884	883	883	881	880	878	870	875	875	886	897	898	885	880	840	840	828	816	818	827	834	831	826	826	828	838	859	862	854	851	854	863	863	866	868	869	873	873	875	870	865	855	852	845	845	842	848	854	854	853	858	858	856	863	868	872	877	875	874	874	874	872	871	872	879	874	858	860	861	865	866	856	859	863	864	867	866	863	857	857	862	866	874	868	858	850	856	860	858	855	851	850	862	865	859	854	848	848	846	849	844	841	846	853	851	843	834	833	832	833	840	846	852	850	844	830	827	835	840	848	850	847	843	840	827	812	817	830	843	846	844	840	841	841	836	794	791	794	808	818	829	840	843	847	858	862	859	856	848	828	820	823	817	816	814	819	822	830	833	836	840	837	826	816	811	807	806	787	789	800	818	824	827	813	800	810	812	810	806	803	847	843	848	838	828	822	814	811	808	810	812	820	828	828	833	838	833	821	811	807	808	811	817	819	832	844	844	820	810	806	801	814	820	804	800	804	811	805	806	804	799	792	789	789	781	781	785	793	800	804	810	806	796	801	811	814	816	817	804	799	799	796	788	782	781	780	780	783	779	781	780	783	779	776	774	779	783	784	783	779	780	786	804	820	829	834	830	822	815	823	823	820	810	797	793	796	800	807	803	804	803	803	807	820	827	831	824	802	795	792	793	796	799	802	801	805	813	815	809	795	787	778	776	781	774	788	804	801	797	795	789	785	787	792	803	801	795	791	794	792	785	786	795	799	792	784	775	773	773	776	787	793	803	804	801	791	794	793	802	796	809	806	798	797	805	814	816	811	802	792	794	790	787	787	797	798	800	801	802	811	816	820	822	815	803	794	797	805	809	809	803	801	807	818	824	825	826	827	834	828	822	813	803	797	801	809	792	790	799	816	819	817	816	817	780	767	764	769	770	770	773	781	782	779	777	773	766	771	780	794	802	801	794	789	789	792	793	790	790	791	798	815	812	806	798	796	804	813	808	799	794	792	793	807	837	832	819	817	819	818	822	825	819	815	809	807	800	800	804	800	794	778	775	777	784	781	780	778	775	771	772	775	769	763	771	784	793	794	782	776	770	766	780	787	789	774	777	775	766	757	752	752	761	768	772	770	767	754	743	739	754	757	766	771	769	762	753	755	748	738	742	762	769	775	768	762	758	764	768	769	759	755	762	771	778	778	765	761	760	756	758	765	767	767	755	750	744	742	745	748	749	749	754	748	752	751	755	757	766	767	767	765	768	778	784	773	763	757	747	753	759	759	753	750	769	765	754	744	743	750	749	752	752	760	768	769	770	773	772	769	753	749	750	755	758	770	773	779	781	781	779	759	767	776	783	778	772	766	767	768	773	773	774	780	777	773	774	768	773	775	789	789	799	803	798	790	784	773	770	779	783	773	765	760	759	758	756	756	760	760	0	0	0	0	0	0	0	0
810	821	837	837	849	845	844	845	845	837	820	822	835	839	839	836	833	839	850	852	852	848	848	848	848	827	821	821	819	817	817	815	813	806	796	796	802	809	819	830	829	818	812	818	818	834	841	831	827	846	859	850	842	829	829	817	817	820	830	835	843	834	836	838	838	834	839	833	830	837	854	856	856	856	860	858	859	852	838	833	828	838	835	831	841	843	841	836	829	819	810	814	831	839	831	829	826	826	830	830	834	829	827	825	829	836	835	831	831	829	833	830	826	825	825	831	826	817	811	813	813	817	825	835	842	837	823	811	806	812	814	817	818	813	811	814	808	798	798	799	816	828	820	821	821	817	807	780	771	783	796	804	811	800	797	800	804	808	796	791	807	814	809	799	790	787	789	793	795	802	812	817	818	809	807	797	795	791	778	768	765	762	766	777	780	782	786	791	797	798	791	790	789	792	802	821	814	807	800	800	806	807	806	806	806	805	794	799	804	802	796	794	795	799	806	805	797	790	791	795	795	797	791	803	794	787	780	775	782	786	790	792	787	780	771	765	765	770	778	786	792	787	783	778	782	792	797	788	776	779	783	782	782	777	776	773	768	770	769	763	762	764	767	770	769	767	766	768	771	774	775	773	772	777	779	779	776	803	788	786	786	790	795	794	792	779	781	778	780	790	795	793	793	788	786	785	792	794	791	792	791	793	789	788	786	782	781	789	802	803	795	783	765	755	752	758	763	769	775	781	778	771	762	756	755	761	775	783	784	781	782	777	770	768	772	775	776	771	766	761	759	765	771	780	789	795	788	783	787	788	779	777	778	780	782	789	793	804	801	794	786	781	777	777	770	768	773	781	779	775	766	767	779	791	800	809	802	791	787	788	790	785	780	776	790	799	802	791	789	799	802	806	803	801	797	790	790	795	799	798	796	795	798	791	753	747	746	744	744	747	750	758	761	769	768	764	760	761	763	766	774	777	777	781	773	776	774	780	782	781	775	776	778	783	795	788	781	779	787	793	789	780	782	784	780	780	786	784	791	785	789	785	776	775	778	785	792	783	776	775	789	787	775	759	758	761	763	763	769	768	766	765	764	760	755	750	747	755	772	776	769	767	764	763	745	734	732	734	737	735	738	729	720	723	723	730	738	742	738	734	729	724	721	737	751	757	743	724	716	722	723	727	731	748	741	735	730	732	735	734	720	723	725	730	744	749	752	747	742	737	740	739	742	735	733	734	731	734	734	738	739	740	738	734	739	741	744	744	744	746	750	750	746	744	753	759	762	756	744	733	731	739	745	745	736	729	739	745	743	740	735	732	732	730	736	739	747	749	748	750	758	755	751	745	741	745	747	754	760	765	756	746	736	742	750	757	762	758	757	755	755	757	759	757	752	750	752	755	755	752	748	751	754	754	762	763	771	768	764	757	757	761	763	759	751	749	749	745	746	745	749	749	0	0	0	0	0	0	0	0
800	815	827	827	833	836	830	827	827	811	802	798	802	801	801	799	805	825	837	841	841	839	837	835	810	813	816	816	816	817	814	806	796	787	783	783	785	796	800	807	804	797	797	802	802	805	797	799	806	811	818	821	803	796	800	804	804	810	818	818	821	813	817	815	818	808	811	807	806	801	812	814	815	815	819	829	835	823	820	814	810	806	807	814	824	836	835	823	803	802	792	786	800	809	808	812	810	807	800	798	801	801	793	795	795	795	810	803	801	803	811	810	805	805	806	808	801	793	791	793	794	785	782	790	806	812	792	784	788	792	791	787	778	774	769	773	783	783	780	780	777	791	794	794	796	800	790	769	765	767	778	787	779	775	776	777	778	776	774	757	762	787	790	784	759	762	766	773	781	784	791	790	787	774	774	777	777	772	769	764	760	755	750	753	759	762	767	774	783	781	779	777	766	757	755	775	777	777	798	799	802	802	799	791	781	777	768	770	779	786	781	776	781	789	793	780	773	774	781	789	790	782	770	761	761	766	761	756	752	759	770	780	772	768	764	759	758	762	772	778	783	776	770	763	764	768	771	765	759	752	764	769	768	763	756	751	756	759	758	757	754	753	756	755	753	752	753	758	758	758	749	744	748	752	760	759	759	754	755	771	772	770	762	764	773	774	766	761	761	766	772	772	769	768	767	769	776	778	780	781	780	780	775	773	765	759	748	752	757	759	758	752	745	739	741	747	752	756	763	765	767	768	759	752	748	748	753	766	772	772	767	759	755	751	753	758	760	759	756	750	746	751	757	768	775	775	772	773	779	778	769	764	764	763	762	756	752	755	760	761	755	749	751	747	752	756	764	769	767	762	750	747	753	748	749	767	783	783	775	773	764	756	754	751	759	771	776	773	757	758	764	778	786	789	786	785	787	782	785	775	767	765	750	747	737	728	728	727	727	729	735	743	748	750	752	752	745	738	741	752	764	763	757	760	760	759	757	763	759	756	749	752	749	749	753	746	739	740	741	742	741	752	769	764	765	762	759	763	752	746	749	755	757	760	759	761	762	753	742	741	743	736	735	740	747	751	751	749	748	743	741	739	743	751	745	738	728	729	732	734	733	721	723	725	718	705	707	712	711	705	698	700	700	706	708	710	714	726	715	710	706	705	705	706	722	725	721	710	703	705	714	723	723	725	720	713	711	702	698	702	700	701	703	708	708	721	731	729	724	720	719	722	726	728	725	720	712	721	725	724	731	731	726	720	720	718	724	733	730	722	717	713	723	729	737	740	743	734	725	720	716	718	722	727	716	715	734	734	735	738	732	718	709	706	715	727	735	736	732	730	733	734	738	741	736	732	733	745	747	744	738	733	728	736	742	744	728	724	735	741	746	745	746	743	740	737	742	741	739	736	726	727	732	732	732	731	736	743	747	750	749	750	751	750	744	740	737	734	733	731	726	726	0	0	0	0	0	0	0	0
787	797	808	808	815	815	811	802	802	791	788	793	790	792	792	796	805	814	820	824	826	826	827	822	788	799	805	804	804	806	803	792	783	777	775	775	774	781	787	793	788	787	785	784	770	770	777	783	789	784	780	777	779	783	791	795	795	795	792	780	779	793	799	796	787	786	786	782	779	771	779	784	789	789	790	795	807	800	796	789	779	777	773	784	808	827	825	796	789	789	779	769	767	776	789	797	793	779	767	771	773	775	774	776	769	766	766	768	776	780	779	777	785	781	781	780	774	769	773	778	768	764	762	767	770	780	772	762	772	776	769	767	760	752	748	754	758	763	766	761	765	764	767	774	781	783	783	766	760	755	758	750	759	764	766	767	764	758	755	748	739	733	745	746	746	746	746	751	758	762	768	764	763	754	751	756	760	761	760	757	751	749	744	740	743	749	755	747	741	728	724	730	736	736	736	758	763	762	749	748	776	775	776	771	759	753	754	759	766	770	767	751	746	759	764	761	761	767	775	781	780	763	752	742	741	749	743	738	734	745	751	757	758	758	754	741	739	738	739	745	750	742	738	737	735	743	746	743	737	730	732	740	722	730	738	742	741	738	747	746	744	744	742	735	731	732	736	741	742	743	741	736	734	742	735	731	732	735	736	734	750	748	749	749	746	743	753	750	751	756	759	761	760	754	750	753	757	765	760	764	763	761	750	741	731	733	734	737	741	746	740	734	730	731	736	739	742	747	752	756	756	758	756	748	742	734	732	731	735	744	745	738	732	732	736	744	749	748	745	739	737	742	745	754	758	759	754	754	752	747	737	737	744	746	743	736	731	716	720	732	732	731	734	737	741	743	753	757	757	750	741	738	738	730	721	721	731	753	756	748	746	740	735	733	726	727	738	744	746	744	744	751	748	748	744	759	763	761	760	749	721	724	728	734	726	715	707	704	704	710	716	725	734	740	737	737	732	729	729	732	742	740	743	734	730	730	739	748	745	737	737	739	739	734	733	730	728	727	729	728	729	738	744	749	749	747	742	729	737	739	741	739	737	730	727	730	731	727	729	730	731	729	732	736	739	736	727	724	726	726	724	721	721	721	711	705	704	707	712	710	714	718	719	718	701	695	690	697	702	700	696	696	700	705	701	700	700	703	705	696	692	686	680	682	700	700	692	687	686	691	698	705	700	696	690	693	691	676	679	683	683	687	687	683	678	679	685	685	691	703	707	700	700	705	712	711	700	688	685	691	703	711	712	704	710	713	713	709	704	692	688	687	694	701	712	719	727	719	710	705	697	695	692	690	692	699	711	715	720	719	704	701	694	690	700	718	727	724	717	711	709	714	719	714	706	702	713	716	720	726	733	728	726	729	732	727	716	711	710	722	725	726	719	718	713	719	721	723	719	714	708	709	711	711	712	712	713	716	716	719	719	736	737	732	724	721	720	717	717	716	716	717	0	0	0	0	0	0	0	0
770	776	789	789	793	794	788	777	772	772	777	782	787	786	786	789	792	794	795	801	805	805	800	769	770	776	785	792	792	790	783	776	772	767	770	770	769	771	777	783	775	766	750	739	742	742	750	763	768	773	772	770	769	776	783	786	786	782	774	762	756	763	770	770	765	763	767	766	765	763	759	765	776	776	783	782	778	776	770	769	772	769	764	762	779	794	786	777	769	766	763	761	759	761	770	774	773	757	754	751	753	760	764	757	753	749	752	761	768	771	769	762	757	754	755	747	742	736	736	744	744	748	750	752	752	752	739	734	735	741	747	750	745	736	731	736	742	745	747	746	748	749	755	763	769	766	765	755	736	734	736	740	751	757	755	753	740	740	741	739	734	727	728	733	732	732	734	731	735	742	751	755	737	728	727	747	751	752	749	743	739	738	740	737	738	743	748	747	738	727	722	724	724	724	725	742	744	737	729	728	736	738	739	746	740	739	739	744	750	750	750	743	737	736	737	738	733	735	737	741	744	742	735	728	726	726	732	734	728	732	732	733	739	740	733	725	726	720	720	720	720	704	703	711	718	721	722	720	717	713	711	704	707	722	732	733	728	720	721	719	718	707	708	709	709	713	718	722	730	735	733	730	727	722	723	718	712	707	717	723	724	722	737	741	734	723	721	726	730	733	737	748	745	740	724	727	722	716	716	734	744	742	732	720	720	723	726	728	730	731	729	724	720	724	728	730	733	736	741	740	741	742	746	737	730	722	722	721	722	721	718	719	720	724	725	728	734	731	725	720	722	728	731	740	745	746	742	739	735	727	715	710	708	709	715	716	708	704	700	705	714	723	722	721	721	718	721	738	741	734	730	733	726	724	713	711	717	731	743	744	735	726	720	712	712	717	721	727	732	734	729	716	718	718	713	718	718	715	700	708	714	714	710	709	712	706	699	696	690	690	690	686	693	707	723	723	718	712	711	721	727	730	724	716	713	717	726	735	740	731	728	723	719	717	714	714	712	714	717	714	713	713	723	732	730	722	716	718	725	733	730	701	710	716	717	719	724	722	721	723	723	720	723	724	724	716	712	711	712	717	716	714	709	699	688	683	674	681	697	703	705	704	697	686	667	676	678	687	690	692	690	694	698	699	689	691	687	685	684	685	680	675	673	683	685	687	680	678	676	677	682	688	684	673	671	671	671	670	668	670	672	674	672	668	669	672	674	669	669	679	685	687	684	682	677	669	663	670	681	685	686	685	681	677	692	698	704	699	689	676	673	671	675	679	680	676	669	671	681	685	686	682	675	670	674	688	693	690	687	683	690	684	678	676	688	710	716	707	696	694	698	700	700	698	694	694	698	695	691	702	704	702	701	712	716	704	698	693	691	692	692	696	698	698	692	691	691	694	700	697	691	690	689	689	690	687	684	691	698	697	696	701	705	709	712	713	711	705	701	705	705	710	0	0	0	0	0	0	0	0
