155	153	152	151	151	154	155	155	154	154	153	154	153	153	153	154	154	153	153	155	155	155	155	156	156	157	156	156	156	157	156	157	157	157	157	159	159	158	158	157	157	157	158	159	159	158	155	154	157	159	159	159	158	157	157	157	156	156	155	158	158	158	160	161	159	159	159	157	158	159	160	160	160	160	160	158	157	156	156	157	157	160	159	157	157	157	158	159	160	160	161	161	162	158	158	160	160	162	162	162	163	161	160	160	158	160	160	160	161	160	160	158	158	158	158	158	158	158	160	159	161	161	163	160	162	161	162	160	160	161	161	161	164	161	163	161	161	163	163	161	159	160	161	158	162	162	162	163	162	162	161	162	162	160	160	159	160	160	162	163	163	163	162	162	161	162	162	161	162	161	161	163	165	166	166	164	163	164	164	163	165	163	163	162	163	165	162	165	164	165	166	164	164	163	162	163	164	163	163	164	164	163	162	163	163	163	164	162	163	164	165	164	162	162	163	163	165	165	166	164	164	164	164	164	164	164	165	165	163	163	164	162	163	163	163	163	163	162	166	166	168	168	166	166	166	166	166	165	164	164	166	163	164	165	165	165	165	166	166	167	167	167	167	165	165	165	164	165	166	163	164	165	165	165	166	165	164	165	165	166	165	164	165	165	168	168	168	168	166	163	164	164	164	164	165	165	164	164	164	165	166	166	168	168	166	165	166	164	165	165	166	167	166	166	166	166	166	165	165	165	165	165	165	165	165	165	166	166	166	167	167	166	165	166	165	165	166	165	165	166	163	162	163	163	164	167	164	164	164	164	163	164	164	165	165	164	165	168	166	164	165	164	165	165	165	165	163	163	162	162	163	164	165	165	165	164	164	166	167	166	166	164	168	168	166	166	168	168	166	166	166	167	167	167	168	168	166	164	163	163	165	165	164	165	166	168	167	164	164	164	164	164	164	163	162	165	165	164	165	166	166	166	165	164	164	163	164	163	162	163	163	163	163	164	165	167	166	167	167	166	166	165	166	167	168	166	164	164	164	165	165	164	164	162	165	164	163	162	165	166	163	162	162	163	165	164	163	162	162	162	161	161	163	163	162	163	162	162	160	160	161	161	161	161	163	163	163	161	161	162	162	162	160	160	160	160	159	159	160	160	160	160	161	161	160	160	161	163	164	161	160	160	160	160	159	160	161	162	162	164	162	162	161	160	160	159	160	159	158	159	160	159	159	158	157	156	156	157	158	157	157	157	156	156	156	157	157	156	157	156	156	156	154	155	156	156	156	157	157	157	157	157	157	156	156	158	158	157	156	157	157	156	156	157	155	155	153	153	155	154	156	156	155	153	155	155	155	153	152	152	153	153	155	155	154	153	154	154	154	153	152	152	152	151	152	153	153	152	151	150	150	150	150	150	153	154	153	152	152	153	154	154	152	153	151	152	152	151	150	150	148	148	150	150	149	148	148	148	148	151
153	153	152	152	153	153	155	154	154	152	153	153	152	152	153	153	153	156	156	155	156	156	156	157	154	156	157	157	158	157	157	156	156	156	157	159	157	158	158	157	157	157	157	157	157	158	154	154	156	157	158	158	157	155	154	155	156	156	156	157	158	158	158	159	159	156	156	157	156	158	160	158	158	156	156	156	157	158	157	157	158	158	158	158	157	157	157	159	158	160	162	162	161	158	158	160	162	162	162	163	162	161	160	159	158	159	159	159	159	158	157	158	158	158	158	158	159	159	158	160	159	160	162	162	162	161	161	159	159	160	159	160	160	162	161	161	162	161	159	161	159	159	160	159	162	163	161	159	159	161	160	160	159	161	161	160	160	160	161	162	162	163	161	161	163	162	163	163	161	160	161	161	163	165	164	163	164	164	165	164	163	164	162	161	160	159	163	163	163	164	164	166	164	163	161	163	163	161	163	162	163	163	164	163	160	160	161	160	162	162	163	164	163	162	162	163	162	164	163	162	160	162	162	164	163	165	165	165	165	164	164	162	164	163	162	162	162	162	163	165	165	162	164	165	165	165	164	167	165	164	164	163	163	164	164	163	163	164	166	165	166	167	166	164	164	164	164	163	162	163	164	164	164	164	165	165	164	165	164	165	164	164	165	166	168	167	165	164	164	165	165	165	164	163	161	164	164	164	163	164	166	166	166	167	166	166	166	165	166	166	166	168	165	166	166	168	167	165	165	165	165	165	165	165	166	165	165	165	164	165	166	166	165	165	167	166	165	165	164	164	164	163	163	164	164	164	163	164	164	164	164	163	163	163	163	163	163	165	165	164	164	165	165	165	165	165	161	161	163	162	163	164	164	165	165	165	163	164	165	166	165	167	166	167	167	167	168	165	165	165	166	166	167	168	168	168	167	166	165	164	165	164	165	165	165	165	164	165	165	164	165	164	165	164	165	165	167	165	166	169	166	166	166	165	163	163	166	164	163	163	163	164	164	164	164	165	166	167	166	166	165	164	165	166	164	164	164	164	163	163	164	164	163	163	165	165	164	163	162	163	161	163	161	161	164	163	163	162	160	160	161	163	161	164	162	163	164	161	161	160	160	160	160	160	162	161	161	160	161	162	162	161	159	159	161	159	159	160	161	161	161	160	160	159	159	159	159	160	160	160	159	159	159	158	158	158	157	159	162	162	162	162	160	160	160	159	159	158	158	159	159	159	158	157	155	155	155	157	157	157	156	156	156	157	157	157	157	156	156	155	154	152	154	155	155	156	156	156	157	156	156	156	156	156	155	155	158	157	156	156	157	157	157	156	155	155	155	153	154	156	152	154	155	153	153	156	156	156	155	154	154	155	153	153	154	154	154	154	155	154	154	154	151	150	151	152	152	153	152	151	150	150	150	152	152	152	153	153	152	153	153	154	153	153	151	151	151	150	150	149	147	148	149	148	148	148	148	148	147	149
153	152	153	153	153	153	153	153	152	152	152	151	151	153	153	153	153	156	155	155	155	154	154	154	154	155	157	157	157	157	156	156	156	156	155	154	157	157	156	156	156	157	157	157	158	158	154	155	154	155	157	155	155	154	154	155	154	156	154	154	157	157	159	158	157	155	155	156	156	158	158	157	156	156	156	156	157	158	158	158	158	159	157	157	157	156	156	157	157	159	160	161	159	157	157	159	159	159	159	159	158	159	158	159	158	157	158	158	158	157	157	158	159	158	159	159	158	158	158	159	160	161	160	162	161	160	159	158	158	158	159	160	160	160	159	157	157	158	160	161	159	158	159	161	161	161	160	159	158	160	160	161	160	162	162	161	161	163	162	161	161	161	162	161	163	163	163	163	161	160	159	160	162	162	164	164	163	162	163	165	164	163	162	162	159	161	162	166	165	163	164	164	164	162	161	161	160	161	162	165	163	163	164	162	163	160	161	160	162	161	162	162	162	164	162	162	162	161	162	160	160	161	163	162	163	164	165	165	164	164	163	162	163	164	163	162	162	162	163	163	163	162	163	165	164	162	165	164	164	164	163	161	161	161	160	160	162	162	163	164	165	164	164	163	164	164	164	163	163	162	164	163	162	162	163	164	164	165	165	164	163	163	165	166	167	165	163	162	164	163	164	164	163	162	162	163	164	163	164	164	165	164	165	165	166	165	164	165	164	165	166	168	165	166	165	167	168	166	165	165	165	164	163	164	164	164	164	166	165	164	163	163	164	165	166	166	165	163	162	164	164	163	164	165	164	164	164	164	165	165	165	162	162	164	166	163	165	164	165	165	164	165	165	166	166	164	161	161	162	164	165	165	165	165	164	164	163	164	165	164	164	166	167	165	165	165	165	167	164	165	165	165	167	167	168	168	167	167	165	165	165	166	165	164	165	165	165	164	165	164	164	164	164	164	166	166	167	166	165	167	166	166	165	165	165	167	165	165	164	163	165	164	164	164	164	166	165	165	164	164	164	165	163	162	163	163	163	164	164	163	163	164	163	164	165	164	164	163	161	161	160	160	162	160	161	162	162	161	160	160	161	163	161	161	163	164	164	161	161	161	161	161	160	160	160	160	160	160	161	161	161	160	158	159	159	159	159	159	160	161	159	159	159	160	159	159	160	160	159	159	158	159	158	157	158	157	156	157	159	160	161	160	159	159	158	159	159	158	158	158	159	158	158	157	157	158	158	158	157	157	156	155	156	157	157	157	156	155	155	156	155	155	152	154	154	155	156	156	156	156	156	155	155	154	155	153	157	157	157	157	157	156	156	155	155	155	155	156	156	153	152	154	154	153	152	152	152	153	152	154	154	154	154	152	153	153	155	155	155	155	155	152	151	150	152	152	152	152	150	151	151	150	150	151	151	152	151	149	148	148	148	154	153	153	152	150	150	150	150	149	149	148	149	148	149	149	148	149	148	148
152	153	151	152	153	151	151	152	151	152	151	151	151	151	151	153	154	155	155	152	153	155	154	154	154	155	158	157	156	156	156	155	154	153	153	153	156	156	155	156	156	156	157	157	154	155	155	156	157	158	157	156	156	155	154	154	154	156	157	157	158	159	155	157	156	156	156	156	157	159	159	158	157	157	158	157	157	158	158	159	158	158	156	156	156	156	156	156	157	157	156	160	158	157	157	159	159	157	159	159	157	157	157	158	158	157	158	157	156	157	157	160	160	158	158	159	159	159	158	159	158	159	161	160	160	159	158	158	158	157	158	159	160	159	158	158	158	158	159	158	157	157	157	159	159	158	159	157	158	160	159	159	160	160	161	161	161	161	161	160	161	161	162	161	161	162	161	160	160	159	158	159	160	162	163	163	161	161	161	161	161	161	161	157	159	158	162	165	164	164	163	163	163	162	162	162	161	160	160	161	164	162	162	163	162	162	162	161	161	161	161	162	162	164	162	162	161	161	162	163	162	162	162	162	162	162	161	163	163	163	163	162	162	163	165	163	162	162	162	163	163	164	164	164	163	164	162	164	164	164	162	161	160	161	162	162	162	162	162	164	164	164	164	162	163	164	164	163	162	163	163	163	162	162	164	164	164	165	164	164	163	163	163	164	164	164	162	165	162	163	164	163	163	162	162	162	162	162	164	164	165	165	165	164	164	164	164	165	164	164	167	165	165	166	166	166	165	165	165	165	165	162	163	163	164	163	163	166	166	164	164	165	165	165	165	164	163	161	162	161	164	163	162	163	162	164	165	165	165	165	165	162	162	163	164	165	165	165	164	164	164	163	165	165	167	164	164	162	163	164	165	164	163	163	163	163	164	165	164	165	164	165	165	165	165	164	164	164	163	162	164	164	165	165	165	164	164	164	165	166	167	167	167	167	165	165	166	166	164	164	163	164	166	164	165	165	165	166	165	165	165	164	163	163	165	165	166	166	166	164	164	164	164	164	164	165	165	164	163	162	163	163	162	162	161	161	161	162	162	162	162	163	163	163	164	164	164	162	161	161	160	161	164	163	161	160	160	160	160	161	161	161	161	162	162	163	163	163	162	161	161	160	159	160	160	161	161	160	161	162	162	161	159	159	159	159	159	158	158	158	158	158	158	159	160	159	159	159	159	157	157	158	159	158	157	157	157	157	158	157	157	157	159	159	159	159	158	157	158	158	157	158	157	157	158	158	158	158	158	157	157	156	157	157	157	157	156	155	156	155	155	154	155	155	155	154	154	155	156	155	155	155	154	153	153	153	153	154	156	156	156	156	156	155	155	155	155	153	153	152	151	151	152	152	154	154	154	152	152	151	153	153	154	153	152	153	154	156	155	155	156	152	151	149	149	150	150	149	150	151	151	151	152	151	151	151	150	149	148	148	148	149	152	151	152	151	149	149	149	150	150	150	149	148	148	148	148	149	148	148
150	151	151	151	151	151	151	150	150	151	151	152	152	153	152	152	153	152	152	152	152	152	152	153	153	154	156	156	156	156	156	155	155	154	154	155	156	156	154	154	154	154	156	156	155	155	155	156	157	157	156	156	155	155	153	155	155	155	157	155	155	158	155	156	156	157	156	158	158	159	158	158	157	157	159	157	157	157	158	157	158	158	156	156	155	156	156	156	156	157	156	156	157	158	158	157	154	156	156	159	159	156	157	157	157	157	157	157	157	156	157	158	159	160	159	159	159	158	158	158	156	157	158	158	159	157	158	158	159	158	158	159	159	159	159	159	158	157	158	157	157	157	157	158	158	158	159	158	157	159	159	160	160	160	160	160	159	160	160	159	160	162	162	159	159	160	160	159	157	157	157	157	160	161	162	161	161	160	161	160	160	161	160	159	158	160	161	162	162	162	162	163	162	162	163	163	161	159	159	160	161	160	162	163	162	162	162	161	162	161	161	160	162	164	164	162	161	162	161	162	162	162	162	162	161	162	161	161	162	161	161	162	161	162	163	162	163	163	163	163	163	163	163	164	166	164	165	164	164	163	163	162	162	161	163	163	163	163	164	164	165	165	164	164	163	163	163	163	162	162	162	162	162	163	163	165	166	165	164	164	163	163	163	163	163	163	164	164	164	164	163	163	162	162	162	162	162	163	161	164	165	164	163	164	163	164	164	164	164	163	165	165	165	166	164	165	164	164	165	165	163	162	163	163	163	163	163	164	165	164	164	165	166	166	166	166	164	164	164	163	163	163	162	162	162	166	164	165	165	164	164	161	162	163	163	164	165	166	164	163	165	164	164	164	165	163	164	164	164	163	164	163	163	163	164	163	164	163	164	164	164	164	164	164	163	164	164	164	164	162	163	164	165	165	164	164	162	161	162	163	165	167	167	169	166	165	164	164	163	164	163	163	163	164	164	165	165	164	164	164	164	164	163	163	164	164	165	166	165	164	164	162	163	163	164	163	163	163	162	162	163	160	161	163	163	162	162	161	162	162	162	163	162	162	164	164	164	162	161	161	161	163	163	160	160	160	160	159	160	160	160	160	159	159	160	162	161	162	162	161	161	162	160	161	161	160	161	161	162	160	160	162	161	159	158	158	159	160	160	159	158	157	158	159	160	160	159	158	158	156	156	157	157	157	157	157	157	157	157	156	156	156	158	159	159	159	158	158	158	156	155	158	156	156	157	158	158	158	158	158	157	156	156	157	156	155	155	155	155	156	155	155	155	156	155	153	153	154	154	154	155	154	154	153	153	153	154	154	153	155	156	155	157	152	155	154	153	153	153	151	151	150	152	152	152	152	152	152	152	151	150	151	152	152	151	155	156	157	157	155	153	152	150	150	150	150	151	149	149	149	149	149	152	152	151	150	149	148	148	149	149	149	148	149	150	150	150	150	149	149	149	150	149	148	148	148	148	147	147	149
149	150	151	151	150	151	152	152	150	151	152	152	153	152	151	151	152	152	152	152	152	152	154	152	152	152	154	155	156	156	156	157	156	155	155	155	155	155	154	151	153	153	153	156	156	156	156	156	157	157	156	155	155	155	154	153	155	155	157	156	154	154	154	154	155	157	158	158	158	158	157	157	158	160	157	156	156	156	156	155	156	157	156	156	155	156	156	156	156	156	157	157	156	157	155	157	155	156	157	156	155	155	155	156	157	156	157	157	157	157	157	156	157	158	159	159	159	156	155	155	155	156	156	158	158	158	159	158	159	157	157	158	158	157	157	157	158	158	157	157	157	157	157	158	158	158	158	157	158	158	158	158	158	158	159	159	160	158	159	161	161	162	163	160	160	160	159	160	157	155	157	158	158	160	158	160	159	159	160	161	160	159	159	158	158	157	159	159	162	161	163	162	162	161	162	162	161	160	159	160	158	158	160	161	161	160	161	161	162	161	162	161	159	162	162	162	162	161	161	161	162	162	161	160	162	162	162	162	161	162	162	162	161	161	161	161	163	162	163	159	163	162	162	164	164	165	162	161	163	162	163	163	163	163	163	163	163	163	162	164	164	164	164	163	163	163	163	162	162	162	162	162	163	163	163	164	164	166	164	164	163	161	163	163	163	162	162	164	162	162	160	160	162	163	163	163	161	161	161	163	163	165	162	163	163	163	163	163	163	164	165	166	166	163	163	162	162	162	163	164	164	163	163	163	163	163	164	164	165	164	164	164	163	162	164	164	165	163	164	163	163	160	161	160	161	162	161	163	165	165	164	161	162	162	161	164	165	165	165	164	166	164	164	165	164	163	164	164	164	164	164	163	163	164	163	162	163	163	164	164	165	164	163	163	164	163	163	164	163	165	164	164	164	163	164	163	163	162	162	163	164	165	167	165	165	165	163	163	163	163	163	162	163	163	164	165	165	164	164	165	165	164	163	162	163	164	164	164	164	163	163	162	162	161	162	161	163	163	165	164	162	161	162	162	162	162	161	161	162	162	162	162	162	161	161	161	161	161	160	160	162	160	160	163	161	160	159	158	160	160	160	159	160	160	162	160	162	162	162	160	160	159	161	161	161	160	160	160	160	158	159	159	159	159	158	159	160	160	160	159	159	157	157	158	160	160	159	159	158	156	156	157	155	156	157	157	157	157	157	156	156	156	158	159	159	158	157	156	157	155	156	155	155	155	156	156	157	158	158	157	156	155	154	156	156	155	153	153	155	156	155	155	154	156	155	154	153	154	154	154	155	156	155	154	153	155	154	152	152	153	155	156	153	152	151	155	154	152	152	152	150	154	152	152	152	152	152	152	151	150	150	151	151	151	151	152	152	152	152	151	151	151	151	150	150	150	151	149	149	148	150	151	153	153	151	150	149	149	150	149	150	148	148	147	147	150	150	150	149	149	149	150	149	149	148	148	148	147	148	148
152	150	151	151	150	152	151	151	153	152	152	152	153	152	153	154	154	153	152	152	152	153	154	155	151	151	152	155	157	156	155	155	155	155	154	153	153	153	152	153	154	154	153	154	155	155	155	156	156	156	156	155	155	154	154	154	154	155	156	156	154	154	154	155	155	156	157	157	156	156	157	156	156	157	159	156	155	156	156	155	156	156	155	155	156	156	156	155	154	154	154	156	156	155	154	155	154	154	155	155	155	155	155	156	157	158	158	157	157	157	157	157	157	159	156	156	156	155	154	154	154	158	156	157	158	157	159	159	158	158	158	157	155	155	155	154	157	158	159	158	160	160	160	158	159	158	158	156	157	158	157	157	158	158	159	160	160	160	161	161	161	160	157	158	159	160	157	158	158	158	158	158	158	158	158	157	157	159	160	160	161	160	158	157	158	157	158	158	158	159	159	160	161	160	162	159	159	160	159	159	158	157	159	160	161	160	159	161	161	161	161	160	159	161	161	162	162	160	161	161	161	162	161	160	161	161	162	163	164	162	162	162	161	161	159	160	159	159	159	161	162	162	162	162	164	162	163	162	163	163	163	164	162	162	162	163	163	162	161	161	162	163	163	164	164	162	163	162	162	162	162	163	163	162	163	164	164	163	164	164	164	162	162	163	163	163	163	163	161	160	160	161	163	163	164	162	162	159	160	161	163	163	163	164	163	164	162	161	161	162	165	166	165	162	162	162	163	162	163	164	163	163	163	163	163	163	163	164	164	163	164	161	162	163	163	164	163	163	163	162	164	160	158	158	158	160	160	160	162	166	162	160	161	161	162	162	162	161	162	163	164	166	165	164	163	163	163	164	164	164	164	162	160	160	161	162	161	163	163	164	163	162	163	164	164	163	162	163	163	164	163	163	163	164	162	162	164	164	163	162	163	164	166	165	165	164	163	164	163	164	163	163	163	163	163	164	164	165	163	163	163	163	162	161	161	163	162	162	162	162	162	162	162	161	161	163	163	165	165	162	164	162	162	161	159	161	161	161	163	163	162	162	161	161	160	161	161	161	159	160	160	161	159	159	160	160	160	158	158	158	159	159	158	160	161	160	161	160	160	160	160	160	160	161	160	159	158	157	157	156	156	158	158	158	157	158	159	160	160	159	157	157	157	158	159	160	160	160	158	156	157	155	156	155	155	157	157	156	156	156	156	157	156	158	158	156	155	155	156	156	154	152	152	153	153	155	155	156	157	155	154	154	153	155	154	154	153	153	153	153	154	155	155	155	155	154	153	155	154	153	155	155	154	155	155	154	153	152	151	151	154	153	155	155	152	152	152	151	152	152	152	151	151	151	151	151	151	151	150	151	151	150	150	152	150	152	152	152	153	151	151	151	150	150	150	150	150	151	151	151	151	152	152	151	151	149	148	148	148	150	150	149	148	147	148	148	148	148	147	147	148	148	148	148	147	149	149	147	147	147
149	153	153	152	152	149	153	152	152	152	152	152	152	152	152	150	150	152	151	152	153	153	154	154	156	151	151	151	154	155	155	154	154	155	153	153	153	153	153	153	153	153	153	153	152	154	154	154	154	156	154	154	155	155	154	154	154	155	155	155	152	153	153	152	152	157	158	158	156	156	156	156	155	155	155	153	153	153	155	155	155	156	155	155	156	156	155	154	153	155	155	155	155	155	155	155	154	154	156	157	156	156	156	156	156	157	158	158	156	156	156	157	159	158	155	156	156	155	156	158	156	156	156	156	158	156	158	158	158	157	158	156	154	152	152	152	155	158	156	158	158	160	160	160	158	160	160	157	159	158	156	156	158	158	159	159	160	160	161	160	159	158	157	157	157	158	158	158	158	159	158	157	157	158	157	158	159	158	159	160	158	158	159	157	158	157	157	157	158	159	159	160	160	159	159	158	158	158	158	159	157	158	158	160	159	160	160	161	161	161	160	160	160	161	160	161	161	161	160	161	160	161	161	159	159	160	162	162	164	164	165	162	161	160	159	159	159	159	159	162	162	162	162	162	163	165	161	161	160	160	161	163	163	162	163	162	162	162	161	161	161	162	163	164	164	163	163	161	161	161	162	163	164	163	163	162	163	163	163	164	164	163	163	163	163	163	163	162	163	160	160	162	163	163	162	161	161	160	161	160	161	163	164	163	164	163	162	162	163	164	164	166	164	164	163	162	163	162	162	163	163	163	163	163	162	162	162	161	163	163	163	163	162	161	163	163	164	163	162	162	162	162	158	159	160	158	160	160	163	163	164	160	160	160	161	161	161	162	162	161	161	161	162	161	162	163	162	164	164	164	164	162	161	159	161	162	163	163	164	163	163	161	162	163	164	163	161	161	162	162	162	162	162	162	162	161	163	164	163	162	162	163	164	163	164	163	164	164	163	162	163	162	162	162	162	161	161	161	163	162	162	163	162	160	160	161	161	161	161	162	161	161	161	161	162	161	163	163	162	162	162	160	161	161	161	160	159	160	162	162	161	161	160	161	161	161	163	161	159	160	159	160	160	160	159	159	158	159	159	160	159	159	159	160	161	160	161	159	159	159	159	159	159	159	159	159	157	156	157	156	156	156	159	158	156	157	158	158	157	157	157	157	157	158	157	158	158	158	157	156	157	157	156	155	155	155	156	155	156	157	156	155	157	157	157	157	155	155	155	155	156	156	156	155	155	153	154	154	155	154	154	154	153	154	154	154	153	152	152	153	153	155	155	154	153	154	153	153	154	154	154	153	151	151	153	153	151	151	152	153	153	154	154	155	152	152	152	152	152	152	151	151	151	150	151	151	151	151	151	150	149	149	150	152	152	152	152	151	152	150	150	150	150	149	149	150	150	150	151	151	149	152	152	151	151	149	149	148	148	148	149	148	148	147	147	148	148	147	147	147	147	146	146	146	146	148	148	147	147	147
148	148	150	151	151	149	151	150	150	152	151	151	151	152	155	155	154	154	153	152	153	153	154	153	151	153	153	151	152	153	154	154	152	154	154	154	153	153	154	154	153	151	150	150	152	152	153	153	154	154	154	153	154	155	154	154	154	154	154	151	152	152	152	152	154	156	156	157	155	154	154	154	153	154	154	153	154	154	155	155	155	155	155	154	156	155	155	153	155	155	155	155	155	155	154	155	154	157	157	156	156	156	154	154	154	154	154	156	156	156	157	158	157	158	155	156	155	155	156	157	155	154	156	156	157	155	157	157	158	158	156	155	152	152	152	152	156	158	157	157	157	159	160	156	159	159	159	158	154	158	155	156	157	159	158	158	159	159	160	157	157	158	158	157	157	158	157	158	159	158	158	157	158	158	160	156	156	159	160	159	159	158	158	157	156	157	156	157	156	155	158	159	160	160	159	158	158	158	158	157	157	158	158	159	159	160	161	161	160	157	156	159	160	160	160	162	160	159	159	158	158	159	161	161	159	160	159	162	164	163	162	159	159	159	159	161	161	161	162	161	161	161	161	162	161	159	159	159	160	160	160	161	162	162	162	162	162	162	159	160	161	161	162	163	163	158	163	160	160	160	162	163	164	163	163	163	163	162	163	163	164	164	163	162	160	161	164	164	162	163	163	163	163	161	161	161	160	161	162	161	163	162	162	162	161	163	163	163	163	164	164	164	165	163	163	163	163	162	162	161	162	161	161	160	162	162	161	161	163	163	163	164	164	162	163	163	163	163	162	162	161	161	159	160	161	159	158	159	162	162	163	159	160	163	166	163	160	161	161	161	161	161	160	161	160	162	164	164	163	163	163	163	162	160	161	162	163	163	163	163	163	163	164	164	163	163	162	161	160	162	162	162	163	161	161	161	163	164	163	162	162	163	164	163	163	163	164	164	162	161	162	163	162	161	162	161	161	162	161	162	162	162	159	156	158	158	158	159	161	160	160	161	161	160	160	161	160	159	158	159	161	161	162	161	161	161	160	161	160	161	160	160	161	161	161	161	161	160	160	160	160	161	159	160	160	161	161	159	160	160	158	159	160	159	159	158	159	160	158	158	156	157	157	157	158	158	158	157	157	155	156	156	156	155	156	155	157	156	156	156	156	156	157	157	157	158	157	157	156	156	156	157	156	155	156	155	154	157	157	155	154	155	157	156	158	156	155	155	155	156	156	156	155	154	153	152	153	154	155	154	154	154	153	153	155	153	153	154	153	152	153	154	154	153	153	152	152	151	151	151	150	153	151	152	152	151	150	152	151	150	152	153	153	153	152	152	152	153	153	152	152	151	152	152	151	151	150	150	150	150	149	149	150	151	151	152	152	152	150	148	148	148	150	149	150	149	150	149	151	150	151	151	149	149	148	148	149	148	148	148	148	148	148	148	148	148	148	147	147	147	146	146	146	145	147	147	147	147	147	148
149	149	150	150	149	149	151	151	152	152	152	152	154	154	155	152	153	153	154	152	153	153	153	151	149	150	150	150	151	152	151	152	151	152	154	154	154	154	153	152	152	151	149	149	153	154	151	153	151	151	151	153	154	154	154	151	151	151	150	151	152	152	154	154	152	153	155	155	155	155	154	153	153	154	154	154	154	152	154	153	154	154	155	155	156	154	155	153	155	155	154	155	155	155	154	155	155	157	156	156	156	155	153	153	153	153	154	154	154	154	156	157	157	157	155	155	156	156	156	156	155	156	155	155	157	157	158	158	158	157	157	156	154	153	154	153	153	154	156	157	157	158	155	157	158	158	158	155	156	157	156	156	156	157	159	157	160	158	158	156	156	158	158	158	157	158	158	160	161	160	160	158	158	160	159	158	156	159	160	160	160	158	157	157	155	156	157	156	155	156	157	158	158	159	159	157	158	158	157	156	156	157	158	160	159	159	158	158	159	157	157	157	156	157	161	163	160	159	158	158	157	161	160	162	160	160	160	161	162	161	161	157	158	158	159	158	159	161	161	159	160	161	162	162	161	158	158	159	159	159	159	159	159	160	160	161	162	161	159	159	161	161	162	163	162	160	159	159	159	160	158	158	159	160	162	162	161	161	162	163	164	163	160	160	160	161	161	162	161	161	161	163	162	161	160	160	161	163	162	163	162	162	162	161	160	162	162	163	162	162	163	163	163	164	164	163	163	161	162	161	160	160	161	162	161	162	161	162	162	163	163	164	164	163	163	163	163	163	162	161	162	161	162	162	163	162	161	162	161	163	163	160	159	161	161	163	159	159	159	161	162	163	161	159	159	159	161	164	162	162	163	163	163	163	161	162	163	161	162	164	164	164	163	163	164	163	162	160	162	162	163	163	161	162	161	161	162	163	163	162	163	163	162	162	162	162	163	163	161	161	161	161	162	161	160	161	160	160	159	160	159	158	159	158	159	158	158	159	158	159	161	158	161	160	160	160	159	157	157	159	160	161	161	160	161	161	161	160	159	158	158	159	159	159	160	160	161	161	161	161	160	160	160	159	160	160	160	160	159	160	158	159	159	159	158	158	158	158	158	155	155	156	156	156	157	157	156	155	156	155	156	156	156	156	155	154	156	155	155	155	155	155	155	156	156	157	157	157	156	155	156	157	156	156	156	155	155	155	155	155	155	154	156	156	157	155	155	155	155	155	156	156	154	154	153	153	153	155	156	156	154	155	154	154	153	153	153	154	152	152	152	154	153	152	151	151	151	150	150	149	150	151	153	152	152	152	149	150	150	149	150	152	152	152	152	152	152	152	153	153	151	152	152	152	151	150	150	150	149	149	149	148	150	150	150	149	148	149	148	147	147	148	148	149	148	150	149	149	148	150	149	148	147	148	148	147	148	148	149	149	148	148	148	148	148	147	147	147	147	147	147	147	146	146	149	148	147	147	147	145
149	149	149	150	148	148	150	151	150	150	150	149	151	152	152	152	151	151	151	150	152	151	151	151	147	150	149	149	149	151	151	151	152	153	153	154	154	152	152	152	150	149	150	152	152	153	155	154	152	153	153	153	153	152	151	151	151	151	150	151	152	153	154	152	152	152	153	155	154	153	154	154	154	154	154	154	154	153	152	152	153	155	155	155	155	154	154	156	155	154	152	152	154	154	155	156	155	155	156	156	156	154	154	154	153	154	154	154	154	153	154	155	155	155	157	156	157	156	156	156	154	156	155	154	156	157	157	159	159	157	156	156	156	155	154	152	154	153	156	156	157	155	155	155	156	155	153	154	154	156	156	157	158	157	155	157	156	159	159	156	156	157	158	156	157	157	158	160	160	159	160	159	158	160	159	158	158	159	159	160	160	158	156	157	156	155	156	156	156	156	157	158	158	159	157	158	158	158	158	156	156	158	159	159	159	160	158	157	158	157	159	158	156	157	159	157	160	160	159	157	157	159	159	160	160	159	159	160	159	160	161	159	159	159	157	156	159	160	161	161	160	161	162	162	160	160	158	157	160	159	160	160	160	160	160	160	161	160	158	159	160	161	161	162	162	162	158	159	158	159	159	159	159	160	160	162	162	161	162	163	163	162	159	159	161	161	161	161	161	161	161	161	161	162	161	161	161	163	162	163	162	162	163	162	160	162	162	160	161	161	161	163	163	163	164	163	162	160	160	160	160	161	161	161	161	161	162	162	163	163	163	163	163	163	161	161	163	162	162	161	160	161	161	162	162	163	161	163	163	163	163	162	163	163	161	161	161	160	162	162	162	162	162	163	161	160	162	163	164	163	163	163	163	159	161	161	161	161	161	163	164	164	164	163	163	161	159	162	163	160	163	161	160	161	161	160	162	162	162	161	161	161	162	160	161	160	161	161	160	161	162	162	161	160	159	160	161	159	159	159	159	158	158	160	159	159	159	159	158	157	157	157	158	159	159	158	158	158	158	159	160	160	159	160	159	160	159	159	158	157	156	157	160	159	159	158	158	159	159	160	159	160	159	159	160	159	160	160	159	159	157	158	159	158	157	157	158	158	155	156	156	158	155	156	155	155	155	154	154	157	158	157	156	155	155	156	156	155	155	153	152	155	154	154	155	156	156	155	154	154	155	155	156	156	154	154	155	155	155	154	155	154	155	155	155	155	156	157	157	154	154	153	154	153	152	153	153	153	155	155	154	152	154	154	154	154	153	153	155	154	152	152	152	152	152	151	150	150	150	150	149	151	151	152	152	150	149	149	148	150	148	149	149	151	152	152	152	152	152	152	152	151	151	151	151	151	150	149	149	150	149	148	148	148	148	147	146	148	147	147	147	148	148	149	149	148	148	148	148	148	147	146	145	146	146	147	148	149	149	148	147	147	147	146	147	147	148	147	146	146	146	147	147	150	150	148	148	147	146	145
149	149	149	147	148	150	150	151	150	148	148	149	148	150	150	150	151	150	150	150	150	151	149	149	147	151	150	150	150	149	150	152	153	153	152	153	153	153	150	150	150	149	150	152	152	154	155	155	154	153	153	153	153	151	150	149	149	150	150	150	153	154	154	152	152	152	152	153	153	152	152	154	153	153	153	153	152	152	152	152	153	152	152	154	153	154	154	156	153	154	153	153	155	155	154	153	156	156	156	155	155	155	153	154	154	154	154	154	154	155	154	153	154	155	156	156	157	155	155	154	154	154	154	154	154	157	157	155	155	156	154	156	156	156	154	152	153	154	155	155	155	155	154	153	153	151	153	155	155	157	156	156	156	155	154	154	156	158	158	156	156	156	157	156	156	158	158	158	157	157	159	160	160	159	159	159	159	158	159	160	160	156	157	157	157	157	154	156	156	158	158	158	158	158	156	158	158	158	158	158	156	157	157	159	158	158	159	159	158	160	159	157	157	157	157	157	160	160	157	157	157	158	159	159	159	159	159	158	159	160	161	161	160	158	158	157	156	158	159	159	161	161	161	160	160	160	159	159	158	158	161	160	160	160	158	160	160	160	159	159	159	161	161	162	161	161	161	158	158	159	160	159	159	158	158	160	160	162	162	162	162	162	160	160	160	160	161	161	162	161	160	160	162	162	162	162	162	163	163	163	162	162	162	160	162	161	160	160	160	160	161	162	163	163	163	162	161	160	160	160	161	163	162	162	162	161	161	161	162	162	163	162	162	163	161	161	161	162	162	161	161	160	160	161	162	161	161	161	162	162	163	163	163	163	160	160	158	159	162	163	163	162	162	162	161	162	162	160	159	159	161	162	161	161	160	160	162	162	161	160	160	161	161	160	161	162	161	162	162	162	160	162	162	161	160	160	162	162	161	161	160	161	161	159	159	160	160	158	159	161	161	162	160	158	160	161	160	160	159	159	159	160	159	162	159	158	159	159	157	157	158	159	160	159	160	159	158	158	158	158	157	157	159	159	159	158	159	158	159	157	156	157	158	158	158	157	157	158	158	160	159	160	159	158	157	157	159	158	159	159	158	158	158	159	158	157	156	157	155	157	157	158	155	155	154	153	154	155	155	157	158	157	157	155	156	155	156	156	155	153	155	155	154	154	155	155	155	155	153	153	154	155	156	156	154	154	155	155	154	154	154	154	153	154	154	156	157	158	155	153	153	152	153	153	152	152	153	152	153	153	153	152	154	154	152	152	151	154	153	153	153	152	152	153	152	151	150	149	149	150	149	150	150	151	150	150	149	150	150	149	149	149	149	150	151	152	152	152	152	152	151	151	151	150	150	150	149	149	149	150	150	148	148	148	146	146	147	148	148	148	149	149	148	148	149	148	146	147	146	146	148	146	144	144	146	147	148	148	147	145	145	145	145	145	146	146	148	147	145	145	146	147	148	148	147	148	148	148	145	145
151	149	146	147	147	148	148	149	148	148	148	148	147	149	150	150	150	150	148	148	149	151	150	152	152	151	150	148	148	148	150	152	152	152	152	153	151	150	150	150	149	150	151	152	150	150	154	155	154	152	150	150	151	151	151	151	151	151	151	151	153	153	152	152	151	152	152	154	153	152	151	150	151	153	153	151	151	150	151	151	151	151	153	153	153	152	154	151	153	154	152	152	153	151	151	153	154	155	156	155	155	152	153	155	153	153	154	155	155	156	156	154	153	157	155	155	155	154	154	154	153	153	153	154	154	157	154	153	154	154	154	155	155	153	153	153	153	155	154	154	155	153	152	151	151	152	152	154	155	155	155	155	154	153	154	154	153	157	158	155	155	154	157	157	157	157	157	157	157	157	157	158	158	161	158	158	157	158	159	156	158	156	157	157	158	159	158	157	157	157	157	158	158	157	156	157	158	158	161	158	158	157	157	158	158	159	159	158	156	158	159	157	157	156	158	160	159	159	158	157	157	157	159	159	160	160	158	157	155	160	160	160	160	160	158	156	156	158	158	158	159	159	159	160	159	160	160	161	159	158	159	160	159	162	159	158	158	158	158	158	158	160	161	161	161	160	162	161	160	159	159	161	160	158	159	160	159	160	160	161	161	161	158	159	158	159	159	159	160	160	161	161	162	158	161	160	160	160	161	162	162	162	162	162	162	160	160	159	160	162	160	159	159	160	160	159	159	159	160	160	161	163	163	163	164	161	160	163	162	162	162	162	162	160	160	161	162	162	163	162	159	158	160	160	163	160	161	161	161	162	161	161	162	161	159	161	160	160	161	162	162	160	160	161	162	161	162	161	160	159	159	160	160	159	160	160	161	161	159	159	159	160	159	160	159	161	160	162	162	161	159	159	161	161	161	160	161	162	163	161	158	159	161	160	159	158	159	159	160	161	161	160	161	161	158	157	160	160	159	159	158	159	159	160	161	160	159	159	158	158	159	160	159	160	159	158	158	159	158	158	157	157	159	159	158	156	156	158	160	158	156	157	159	157	157	157	157	157	156	160	156	158	158	158	157	158	156	157	158	158	158	158	158	158	158	157	155	156	155	156	157	158	157	157	155	154	154	154	154	155	156	157	157	156	156	156	156	156	156	156	154	154	154	154	154	155	154	154	154	153	154	155	156	155	155	155	155	155	155	154	153	154	154	154	153	155	155	155	153	152	152	153	153	153	152	152	152	152	153	153	150	152	152	151	151	151	154	154	153	150	150	151	152	153	151	150	149	150	150	149	149	149	149	149	149	149	149	149	150	150	149	149	148	149	150	150	152	152	152	152	150	150	150	150	150	151	149	149	149	148	150	150	150	147	147	147	149	149	147	148	149	149	149	148	148	147	147	147	146	146	147	147	147	147	147	147	147	146	146	144	144	144	144	144	144	144	145	145	145	145	146	147	144	146	145	145	148	147	146	145
146	146	147	144	147	147	147	147	149	148	145	145	147	146	147	147	151	150	148	149	149	151	152	151	151	152	150	148	147	147	147	149	152	153	153	151	150	150	150	150	150	150	151	151	150	151	151	150	150	150	151	152	152	151	151	151	151	152	151	151	152	152	151	152	152	153	153	152	150	152	152	152	152	150	151	151	151	151	151	150	151	151	153	154	154	153	151	150	152	153	154	153	151	152	151	151	153	154	155	155	152	152	151	151	152	153	153	154	155	155	155	153	153	154	155	152	154	154	153	153	154	152	153	154	154	152	152	152	152	153	155	153	154	153	152	152	153	154	155	153	153	152	153	154	154	153	152	153	153	154	154	154	154	153	153	154	155	155	157	157	157	157	156	155	153	154	155	156	156	157	157	157	158	157	156	155	156	157	157	156	157	157	156	158	157	158	158	158	157	157	157	157	157	158	158	158	158	158	160	157	157	157	158	158	159	159	158	158	154	157	158	156	156	155	158	157	158	158	159	158	158	158	160	160	158	160	158	157	157	156	157	159	159	161	158	157	156	158	158	157	159	157	157	158	158	158	160	159	159	159	159	159	159	161	159	158	158	159	158	158	159	160	160	160	161	162	162	161	160	158	158	160	160	160	159	159	157	159	161	159	161	159	160	158	157	158	160	158	159	159	158	159	158	160	160	160	160	159	160	159	163	162	161	163	162	160	159	158	160	160	160	159	159	159	159	159	159	159	159	159	158	162	162	166	164	162	162	160	161	161	161	161	159	160	160	160	164	163	160	160	160	160	160	160	160	159	159	159	161	160	159	160	161	160	159	159	159	160	160	161	160	160	162	161	161	160	159	159	158	158	159	160	160	159	159	159	159	159	158	159	159	160	161	161	160	159	160	161	161	161	160	158	159	160	161	160	160	160	159	158	158	158	159	161	160	161	161	159	159	160	160	160	158	159	157	157	159	158	159	159	160	159	159	159	159	158	159	159	159	160	159	160	159	160	159	159	159	161	160	160	160	160	159	160	158	157	156	156	159	158	158	159	158	156	157	156	156	157	157	155	153	154	157	157	157	157	157	158	157	157	156	157	158	158	158	157	155	155	154	156	157	158	157	158	156	156	155	155	154	155	156	156	156	156	156	155	156	156	155	156	154	154	154	155	155	154	153	151	154	153	153	155	155	154	154	153	156	156	156	152	151	152	153	154	153	154	154	151	151	151	152	152	152	150	151	152	152	152	151	150	150	153	152	152	152	151	152	154	154	149	150	150	152	153	151	150	150	149	149	150	149	148	149	149	150	148	149	150	150	151	151	151	148	149	149	149	152	150	150	150	148	149	149	150	149	149	149	148	148	148	148	150	149	149	150	150	148	147	146	146	146	146	147	149	148	148	149	148	147	147	146	146	148	147	147	146	145	145	145	143	143	143	144	145	145	144	146	146	145	146	146	144	144	144	144	145	146	146	145	145
146	145	144	144	145	146	146	146	145	146	145	145	145	146	146	148	148	147	148	148	148	151	151	150	151	151	149	148	148	148	148	149	151	152	151	151	148	149	149	150	150	150	150	150	150	150	150	150	150	150	152	152	151	151	151	153	152	151	151	152	152	152	153	151	152	151	151	151	149	150	150	150	150	150	151	151	152	151	150	150	151	152	152	154	150	150	150	150	151	152	154	151	151	151	150	150	150	152	153	155	152	151	151	151	152	152	153	155	156	155	153	153	153	151	152	151	151	153	155	154	154	154	153	154	153	153	154	151	151	152	153	152	152	152	152	151	152	154	152	152	154	151	151	154	155	154	154	153	153	153	154	154	154	154	154	154	155	154	155	157	156	154	155	154	153	153	154	156	156	155	156	155	155	155	153	152	154	156	154	154	156	156	156	156	156	156	156	157	156	156	155	156	157	159	157	158	159	158	159	156	156	156	157	158	159	158	158	157	155	156	156	157	156	158	157	158	157	158	158	159	158	157	158	158	157	160	159	158	156	157	158	158	159	162	160	159	158	159	156	156	159	155	157	158	158	158	157	160	159	158	158	158	158	158	159	158	158	157	158	158	158	160	160	160	160	162	160	159	159	157	157	159	159	158	159	158	160	158	161	158	159	159	157	160	159	158	159	159	161	161	159	159	160	158	158	159	158	157	158	158	159	161	158	158	158	158	158	159	160	160	161	159	159	159	159	159	159	158	158	158	159	163	164	164	164	163	162	160	160	159	158	157	158	160	160	161	162	162	162	162	161	160	160	160	160	159	159	159	159	158	159	160	160	160	161	159	158	158	158	158	159	160	160	161	161	159	159	158	159	158	160	160	160	159	159	160	160	161	159	159	159	159	159	159	159	160	160	160	160	160	159	158	159	160	160	160	159	159	159	158	158	158	159	160	162	161	159	158	159	158	160	159	158	157	156	158	155	157	159	159	160	159	159	158	159	158	158	159	157	159	159	160	160	160	159	159	159	161	162	160	160	161	161	157	158	156	155	155	157	159	158	159	157	157	157	157	157	156	157	157	155	157	158	156	156	155	156	155	157	157	156	157	157	157	157	157	157	157	156	156	156	156	156	157	157	157	154	154	154	155	156	156	156	156	156	156	156	155	156	155	155	154	152	154	154	153	153	151	153	153	153	152	154	154	154	153	152	152	151	151	152	151	154	154	154	153	151	151	152	152	152	152	150	150	150	150	150	151	151	151	150	149	152	151	151	151	153	151	149	148	150	151	150	151	150	150	149	149	149	148	150	148	149	147	148	148	150	150	150	150	150	150	149	149	149	149	151	150	149	148	148	148	150	150	149	149	148	148	149	148	148	149	151	152	150	147	148	148	148	147	147	148	147	148	148	146	147	146	146	145	145	146	147	145	145	144	145	144	144	144	144	146	146	146	145	144	144	144	145	144	145	146	144	144	144	144	145	145	145	144
144	145	145	145	145	144	144	144	144	144	145	145	148	145	146	148	148	148	148	148	151	151	150	149	150	150	149	148	148	148	148	147	149	150	149	148	148	149	149	149	149	149	148	148	149	150	149	149	150	149	152	152	153	153	153	153	152	152	151	152	152	152	153	152	151	151	150	149	149	149	149	150	150	150	152	152	152	151	151	150	150	153	154	151	151	149	149	151	151	151	152	152	151	151	151	151	152	152	151	151	152	149	149	149	153	152	152	154	156	157	153	152	152	151	151	151	150	153	154	155	154	152	154	153	154	153	153	153	152	152	153	152	153	153	153	153	152	152	153	154	154	150	151	155	155	155	154	155	154	153	154	154	151	152	153	154	154	153	153	153	154	153	152	150	152	152	152	153	154	155	154	155	153	152	151	150	153	154	154	154	155	156	155	153	154	154	155	155	155	155	155	155	156	157	158	158	157	157	156	154	155	154	155	158	159	158	159	159	155	155	156	157	158	157	155	156	158	158	158	157	156	156	157	158	158	158	158	157	158	158	158	159	159	161	160	156	156	156	156	156	156	157	157	157	156	156	159	158	157	158	157	157	157	157	158	160	157	157	157	158	159	159	159	160	160	160	160	158	157	157	157	158	159	158	157	157	158	159	159	158	159	159	159	159	159	159	159	159	158	157	158	159	159	160	158	159	158	158	156	157	158	157	155	155	157	158	157	158	160	161	161	161	161	160	160	160	159	158	159	159	159	159	161	162	162	162	160	157	159	158	157	158	158	159	160	161	162	162	162	161	161	160	160	160	161	160	160	160	160	159	158	160	160	159	160	160	159	157	159	157	158	160	160	161	159	159	158	158	159	159	159	160	161	159	160	161	161	160	160	160	159	158	158	158	158	158	160	160	160	160	159	158	158	159	159	159	158	158	158	159	159	159	159	161	161	160	159	158	159	159	159	160	158	157	155	155	155	157	159	158	160	159	158	158	159	158	157	158	157	158	158	159	159	158	160	158	158	159	158	158	159	159	159	158	156	156	156	156	157	157	157	157	158	157	158	158	156	156	156	154	154	155	157	157	156	155	157	154	157	157	155	156	157	157	157	157	156	155	156	156	155	155	155	155	156	156	154	155	155	156	156	156	155	154	154	155	156	155	154	155	153	153	152	151	151	154	152	152	153	153	154	154	153	153	153	153	153	152	151	151	151	153	152	153	153	152	151	151	151	151	151	151	150	150	150	149	150	151	151	151	150	150	149	149	151	151	152	148	148	148	149	149	150	151	152	150	149	148	148	148	148	148	149	150	149	149	149	151	150	150	149	148	148	149	149	149	148	149	148	146	147	150	151	150	149	147	147	148	148	149	148	147	146	148	147	147	147	148	148	147	147	148	148	148	146	146	145	145	145	145	145	146	145	145	148	143	144	144	144	144	143	144	146	147	146	144	144	143	144	144	144	144	143	143	144	145	145	145	145	145
146	146	146	145	145	143	143	144	144	145	146	148	145	148	149	148	147	147	148	150	151	148	149	149	148	147	147	148	148	148	147	147	147	147	149	149	149	149	148	146	148	148	148	147	149	149	149	148	148	150	150	152	152	152	152	153	151	152	152	151	152	152	153	152	152	152	150	149	149	149	150	151	152	153	152	152	151	151	151	151	153	153	154	151	151	149	150	150	151	149	151	152	151	151	151	151	152	150	150	151	149	149	147	149	149	150	151	153	157	154	151	150	150	150	151	151	153	153	154	154	154	152	153	153	154	154	153	151	152	153	153	153	153	153	153	153	153	153	155	155	154	153	154	154	155	155	154	155	155	155	155	154	151	151	153	154	153	154	153	154	153	152	151	152	154	154	151	152	155	156	154	156	152	155	153	155	155	154	154	154	154	153	153	153	153	154	155	156	155	154	155	155	155	155	154	154	154	155	154	154	152	153	155	157	158	159	160	158	155	155	155	157	158	157	157	157	154	156	156	156	155	155	157	158	159	158	158	157	157	158	158	159	158	159	159	157	154	155	156	156	156	156	156	156	156	158	160	159	158	157	157	155	156	156	157	157	158	158	157	158	158	158	158	158	158	158	158	157	157	157	156	156	159	158	158	158	156	159	160	159	158	159	158	159	158	157	158	158	159	158	157	159	161	159	159	159	158	158	157	157	158	158	158	155	157	156	158	158	159	161	161	160	161	160	159	159	159	159	159	159	158	157	159	157	160	159	157	157	157	158	158	157	158	158	158	161	163	163	161	161	160	161	161	160	161	161	161	160	159	159	159	160	159	161	160	159	160	159	157	157	158	159	160	161	159	158	158	158	159	159	158	158	161	159	160	159	161	161	159	159	159	159	158	159	159	158	158	159	159	159	159	159	159	160	159	158	159	157	159	159	159	158	159	160	160	159	158	158	158	157	159	159	159	158	157	157	155	156	160	161	161	158	158	157	158	159	158	158	157	158	158	158	159	159	158	158	157	156	156	158	158	157	155	156	154	154	155	156	156	156	157	156	156	157	158	157	156	155	155	154	154	155	156	157	156	155	152	155	155	156	155	155	155	156	157	157	156	155	154	155	155	155	154	153	153	153	153	155	155	155	155	154	154	153	154	154	154	155	155	154	153	152	153	153	151	152	152	153	153	154	154	152	151	151	151	151	153	152	151	151	153	153	152	153	152	152	152	150	150	150	150	150	149	148	148	148	149	150	151	151	151	151	149	149	150	152	149	150	150	147	148	148	148	150	151	150	149	148	147	148	148	148	149	151	152	149	149	149	150	148	148	148	147	148	149	148	148	145	147	149	148	148	150	148	147	146	147	147	148	148	150	147	147	147	147	147	146	147	147	147	147	147	147	146	146	145	144	144	144	144	143	143	145	145	144	144	144	144	144	144	143	145	146	147	146	146	144	143	142	144	144	143	143	143	142	144	145	146	145	145
146	146	147	145	143	143	144	145	145	145	145	148	148	148	148	146	148	148	147	148	148	149	149	148	148	147	147	147	148	148	147	147	147	147	147	148	149	149	145	145	145	146	146	146	147	147	148	148	149	148	151	152	153	151	151	151	151	151	151	151	151	151	151	151	152	153	150	153	153	153	152	151	150	150	151	151	151	151	151	152	149	150	151	151	150	149	150	149	149	149	150	152	150	150	150	149	151	151	149	149	148	147	147	148	149	149	150	150	152	152	150	150	151	150	150	152	153	154	154	152	153	154	152	153	153	154	154	153	152	152	152	154	153	155	155	154	153	155	155	154	154	153	153	155	154	153	154	154	154	154	154	152	152	152	151	153	153	154	154	153	154	155	154	154	154	154	154	154	155	156	158	156	156	154	154	155	154	154	155	155	155	154	153	153	152	152	153	153	156	153	154	154	154	154	154	152	154	155	154	154	151	152	153	153	158	158	157	157	157	155	155	154	154	155	156	156	156	156	154	154	154	154	155	159	159	158	157	156	156	156	155	158	156	157	157	156	153	153	154	154	154	153	155	156	155	155	155	160	159	158	156	156	156	154	157	157	158	157	158	156	156	156	156	158	156	157	157	158	157	156	155	155	156	157	158	156	159	158	160	156	158	158	158	159	157	156	157	158	158	157	159	161	160	158	158	157	158	160	157	157	157	160	159	158	158	157	159	159	160	159	160	160	158	159	159	158	159	158	159	158	158	158	158	157	157	158	160	159	157	155	158	158	157	158	158	159	159	159	160	160	160	160	160	160	160	162	161	161	160	159	159	158	160	159	161	159	158	159	158	157	159	159	158	158	158	157	158	159	160	160	158	159	161	159	159	158	160	160	159	159	159	158	159	159	159	159	158	158	158	159	160	158	159	159	158	157	157	158	159	158	159	159	158	158	159	158	158	158	158	156	157	158	159	160	158	158	157	156	159	158	159	158	158	157	157	160	158	157	157	157	158	158	157	157	158	156	156	156	156	156	156	157	155	157	154	154	155	156	156	156	157	155	156	155	155	155	155	155	154	154	154	155	156	156	159	156	155	155	155	155	154	155	155	155	156	154	156	156	155	155	156	155	154	154	153	153	156	156	156	156	155	154	154	153	153	153	153	153	154	154	154	154	154	154	153	153	152	152	153	155	151	151	150	149	149	150	151	152	152	151	151	152	151	151	152	153	152	151	151	149	150	150	148	148	146	147	147	149	150	150	151	150	149	149	149	149	149	150	151	151	147	148	149	150	150	149	149	147	147	147	147	146	147	150	150	149	148	148	147	147	148	147	148	147	147	147	145	146	147	148	148	148	147	146	147	147	146	146	147	148	148	148	146	146	146	146	146	146	146	146	147	147	148	149	147	145	144	144	144	143	143	143	143	143	144	144	144	144	143	143	142	143	146	146	143	143	143	143	142	142	143	142	143	142	142	143	144	144	144	143
148	147	147	146	146	144	144	143	145	145	145	145	148	148	146	146	144	146	146	147	148	149	149	149	148	147	147	147	147	148	147	149	149	148	148	150	150	150	145	145	144	145	145	145	147	148	148	149	147	147	150	153	153	148	149	149	149	151	149	150	149	149	149	151	151	151	151	153	152	152	152	150	150	150	150	150	150	151	152	150	150	150	150	150	150	148	148	149	149	149	151	151	150	150	151	149	149	150	149	148	148	148	148	148	149	149	151	151	150	152	150	150	150	153	153	153	152	152	152	152	153	151	151	151	151	151	152	152	152	152	151	154	153	153	153	152	153	155	154	153	153	153	152	153	153	153	153	153	153	154	152	151	152	150	153	153	155	156	155	154	155	155	155	155	154	154	153	152	155	155	156	156	156	156	155	155	155	153	156	156	154	154	154	152	150	152	151	151	150	152	152	153	151	151	152	151	153	155	155	153	155	153	152	152	156	157	157	156	157	157	151	154	154	155	157	158	156	157	156	154	155	154	155	156	154	156	156	155	154	156	154	155	156	155	156	156	154	154	153	153	155	154	156	156	155	155	155	154	156	158	155	157	156	157	156	157	158	158	157	156	156	156	157	157	157	156	156	157	158	156	155	155	153	154	156	156	156	157	157	161	158	157	159	160	158	156	157	158	158	158	158	159	159	159	158	157	158	158	158	158	159	160	160	159	159	157	158	159	160	161	161	159	159	158	158	157	157	158	158	158	158	160	158	157	157	157	158	159	157	156	157	157	157	157	156	157	158	158	158	160	161	160	158	157	157	159	158	158	159	158	160	161	161	161	159	160	160	158	158	157	157	158	159	158	158	158	158	159	159	159	159	160	159	159	159	157	158	159	158	159	158	158	158	158	159	159	159	158	159	159	158	158	158	157	157	158	157	159	159	158	159	158	158	157	157	158	158	158	158	157	156	157	157	158	158	157	157	157	157	159	158	159	157	157	157	157	157	157	157	156	157	157	154	154	154	157	156	155	157	156	156	158	158	157	155	155	155	156	156	157	156	155	155	155	154	154	154	153	154	154	154	155	155	158	156	155	155	153	153	154	154	156	154	154	154	153	153	155	154	155	156	156	155	153	153	153	155	154	153	155	155	154	154	153	153	152	152	153	154	154	154	154	155	154	154	152	151	152	155	155	154	151	151	149	149	149	150	152	152	151	150	150	151	152	152	152	151	151	150	150	149	148	148	147	147	145	147	148	149	150	150	150	148	147	148	148	148	149	151	151	148	150	149	150	151	150	149	147	148	146	146	146	149	149	149	149	148	146	146	146	147	147	148	147	146	145	145	145	147	147	148	147	145	146	146	146	145	146	147	146	144	143	144	145	145	145	146	146	145	146	145	145	146	146	145	145	144	144	143	143	142	142	143	144	145	143	143	144	143	143	142	143	144	145	145	143	142	142	142	142	142	143	142	142	141	144	144	144	144	142
148	146	146	145	146	145	145	143	144	145	145	145	145	146	146	145	144	145	145	146	147	149	149	149	149	147	147	147	147	148	148	149	149	149	148	148	148	147	147	145	145	145	146	146	146	147	147	147	147	147	147	152	148	147	147	148	148	150	149	148	148	149	149	149	149	150	151	152	152	152	151	151	150	151	150	150	150	150	150	150	149	150	150	149	150	149	148	149	149	149	151	149	148	148	149	151	149	149	149	150	150	150	149	148	149	150	151	151	151	151	152	153	154	154	154	153	152	152	151	153	153	151	150	150	149	150	151	151	153	153	154	154	155	153	154	152	153	154	153	153	152	151	151	150	151	153	152	152	153	153	152	152	152	151	151	154	155	154	154	154	154	155	154	154	155	154	154	154	154	155	155	156	156	156	155	154	154	153	156	154	156	155	153	153	152	152	150	152	151	151	151	152	154	151	152	152	154	155	155	155	151	151	153	155	155	156	155	156	156	157	157	152	153	155	157	155	156	157	155	154	154	154	155	155	155	153	153	154	153	154	155	157	158	156	155	155	154	154	155	155	158	156	156	156	156	155	154	154	153	156	157	157	156	157	158	157	157	157	156	156	156	155	155	157	157	157	155	155	156	157	157	158	156	155	156	155	155	156	156	158	156	156	160	158	155	157	156	158	159	158	158	158	158	158	157	156	156	157	158	158	159	159	159	159	159	157	157	159	160	161	161	158	157	157	157	157	158	158	158	157	159	159	159	158	157	157	158	158	158	156	156	157	158	157	157	159	156	158	157	158	158	159	158	157	158	158	157	158	158	158	158	159	160	161	159	159	156	157	158	157	156	156	159	159	159	159	159	158	159	160	158	157	157	157	156	156	157	157	157	158	158	158	157	159	159	159	158	158	157	158	158	158	158	156	156	157	157	158	159	160	157	157	157	157	156	158	158	158	158	157	157	157	157	158	157	157	158	158	157	157	158	156	156	157	157	156	156	156	157	156	155	155	154	154	154	156	154	156	157	156	156	157	157	155	155	155	153	154	156	156	155	155	154	157	154	155	155	155	154	154	154	156	156	154	153	154	154	152	152	153	153	153	152	153	153	153	153	155	156	155	156	157	156	153	153	152	155	154	153	153	155	154	153	153	153	152	153	154	154	155	154	152	153	154	154	155	153	153	154	153	153	151	150	151	149	150	149	150	152	152	151	150	150	151	151	151	151	150	150	150	150	149	149	143	147	145	146	148	150	150	149	149	147	147	147	147	148	149	149	148	148	149	150	150	149	150	149	147	147	146	146	147	148	148	148	145	145	146	147	147	147	148	148	148	146	145	145	145	146	146	145	145	144	144	144	145	145	145	144	145	144	143	142	144	145	145	145	144	143	145	145	145	145	145	144	144	144	143	144	142	142	141	142	144	143	143	143	143	142	143	143	142	141	141	143	143	143	142	141	140	140	142	141	141	141	142	144	144	142	142
148	142	142	142	143	143	144	144	144	144	144	144	144	145	145	145	144	143	145	145	146	148	149	149	148	147	147	147	147	148	148	149	149	149	146	147	146	147	145	145	145	147	146	146	146	147	147	147	149	147	147	147	147	147	146	147	150	150	149	147	148	149	150	149	149	149	149	149	151	149	149	151	151	151	151	150	149	149	149	149	148	150	150	150	150	150	149	148	148	150	150	149	147	146	148	149	148	147	147	149	151	149	149	149	152	152	152	151	150	149	150	151	152	152	152	151	150	151	150	151	150	150	150	150	149	150	149	152	153	153	154	151	152	153	153	154	153	152	152	149	150	150	150	151	151	152	151	151	154	154	153	153	151	151	153	152	152	151	154	152	150	154	152	153	153	154	154	153	154	155	154	156	154	155	153	153	153	156	154	153	154	154	154	153	151	151	151	152	152	151	151	151	152	153	153	153	153	154	152	151	151	154	153	154	154	154	155	155	156	156	156	152	153	155	156	155	155	153	155	155	155	155	156	156	155	153	152	154	154	155	156	156	158	155	155	156	156	156	156	157	158	155	156	155	154	156	154	154	154	155	156	156	156	156	156	156	157	157	156	154	154	153	154	156	156	156	154	153	156	156	156	156	157	158	158	157	157	157	156	156	156	158	158	157	155	156	156	158	158	159	159	158	157	156	156	157	155	157	158	158	156	156	155	158	158	156	157	158	159	160	160	158	157	156	156	157	158	157	158	158	158	158	158	158	159	159	158	159	156	157	157	158	158	158	158	158	157	156	156	157	157	157	156	157	157	158	157	158	158	159	156	159	161	162	161	160	158	157	155	155	156	159	161	160	160	159	158	158	159	158	156	157	156	156	157	157	156	156	156	156	157	158	157	157	158	156	157	157	157	157	158	157	158	156	155	157	158	158	158	159	158	157	156	156	159	160	160	158	157	158	158	157	157	156	156	157	158	158	157	156	155	155	154	156	156	156	156	156	156	156	158	156	155	154	155	155	155	156	156	157	156	155	156	155	155	155	154	157	156	157	157	155	157	157	158	155	155	154	153	155	155	156	154	153	152	153	154	153	153	154	153	152	151	152	153	154	155	154	154	155	154	154	154	155	153	152	153	152	152	152	152	153	153	152	151	152	152	151	153	152	151	151	151	151	151	152	153	153	152	152	151	150	151	151	150	150	150	151	151	152	152	152	151	151	151	149	150	149	150	150	150	149	150	143	147	148	146	149	150	150	150	149	147	147	146	146	148	148	147	147	148	148	149	149	149	149	148	148	148	146	146	147	147	147	146	146	145	145	146	147	148	148	148	148	147	146	145	144	145	146	146	147	147	146	146	146	144	144	143	143	144	144	144	144	144	144	144	143	143	143	143	144	144	146	145	145	144	144	144	142	142	142	142	142	142	142	142	142	142	142	143	143	143	144	142	141	142	142	141	139	140	141	141	141	141	141	141	141	142	142
143	142	143	143	144	143	144	144	143	143	144	144	144	143	144	144	144	144	144	145	145	147	148	148	148	145	145	145	146	146	147	149	149	146	146	146	145	145	147	147	147	147	148	148	146	146	146	148	147	147	147	145	146	147	146	148	150	149	149	147	148	149	148	148	149	149	149	151	150	149	147	149	149	150	150	150	149	147	147	148	150	149	150	150	149	147	146	147	147	148	148	148	145	147	147	148	147	146	147	149	152	149	150	150	152	152	151	151	149	148	148	151	151	150	151	150	151	150	151	149	148	148	150	150	150	150	151	152	149	148	151	150	150	151	153	151	153	152	151	149	150	150	150	151	151	151	151	152	153	154	153	151	151	151	149	150	150	150	150	149	150	152	153	152	152	151	153	153	154	153	154	154	154	153	153	153	153	153	153	153	152	151	154	154	153	155	153	152	151	151	151	151	153	154	154	152	152	149	150	151	151	152	154	153	153	154	154	155	155	154	154	155	153	153	153	153	153	154	152	153	153	155	156	156	155	154	153	155	154	154	155	157	155	155	155	153	153	156	156	158	157	156	155	155	153	155	155	155	154	154	155	155	156	156	156	156	156	157	158	157	157	154	153	154	155	154	153	153	154	154	155	155	156	157	157	157	156	156	156	154	155	156	157	157	155	155	157	158	156	157	158	157	156	155	155	156	156	158	158	156	155	153	154	155	155	154	156	158	155	158	157	155	157	157	157	156	158	158	158	158	158	157	158	158	157	159	159	156	157	158	160	158	158	158	158	157	156	156	156	157	157	158	157	156	156	157	158	158	159	156	157	156	155	156	157	157	156	157	157	154	156	158	160	161	160	158	157	158	159	159	157	155	155	155	156	157	156	156	156	155	157	157	156	154	154	155	156	156	156	155	156	157	157	156	155	156	157	158	158	157	157	156	157	156	157	157	157	157	157	157	157	157	158	156	155	154	155	157	156	156	155	154	154	157	156	156	155	155	156	156	157	156	154	155	155	154	154	154	155	156	155	155	155	155	155	156	156	155	156	157	156	155	155	156	155	154	155	152	153	154	155	154	152	152	152	152	154	154	154	155	154	153	153	152	152	153	153	154	153	153	153	153	152	150	150	150	150	150	152	151	151	151	151	151	152	151	151	152	152	151	151	149	149	149	151	151	151	151	152	151	151	151	151	150	151	151	151	152	152	153	152	151	151	150	150	149	148	148	147	149	148	149	148	148	148	148	148	149	149	149	148	147	147	146	146	147	148	148	146	146	144	146	147	148	148	147	148	148	146	146	146	146	146	145	145	146	146	146	147	147	147	148	148	147	147	146	145	144	144	146	147	147	147	147	146	146	145	143	143	145	144	145	145	144	144	143	142	143	143	143	143	143	143	143	143	143	143	143	143	143	142	141	142	142	142	142	142	141	140	142	142	144	144	144	143	141	141	140	140	141	139	140	141	141	141	141	141	140	139	141
142	142	143	143	143	143	143	143	143	143	144	145	145	146	144	143	143	144	143	145	145	145	146	146	145	145	143	143	145	147	147	149	148	146	145	145	144	144	146	147	147	148	146	149	149	145	145	146	146	145	145	147	147	147	146	148	149	147	147	148	148	148	148	149	151	151	151	151	151	149	147	147	148	148	149	150	149	144	146	147	149	150	150	150	149	147	146	147	147	147	148	145	145	146	148	147	147	148	148	152	150	151	152	152	152	152	151	150	150	149	148	149	150	151	151	150	149	150	149	148	148	149	149	150	150	150	151	152	148	147	148	148	150	148	149	149	151	151	150	150	150	150	152	151	152	152	150	151	153	153	153	150	149	149	148	150	149	149	150	150	150	151	151	152	152	152	152	151	152	152	153	154	154	152	152	153	154	151	153	152	151	151	151	154	154	153	151	151	150	149	149	151	159	159	159	155	154	152	152	152	152	151	152	152	152	151	154	153	154	155	154	153	154	154	154	153	152	154	152	153	152	155	155	157	157	155	157	155	155	155	158	156	156	155	155	153	153	156	156	157	156	155	155	156	155	157	156	154	154	152	154	156	155	155	154	155	156	157	157	158	157	156	155	154	154	152	154	152	151	155	155	155	156	156	153	155	155	154	155	155	155	153	153	154	156	156	157	157	156	157	155	156	156	156	155	156	156	157	157	156	155	154	156	155	155	154	155	156	155	155	154	155	155	157	158	156	157	156	157	157	157	157	157	157	156	158	156	155	157	158	159	156	157	157	159	159	158	157	158	158	157	157	157	157	156	158	158	158	158	155	158	160	159	156	157	157	157	156	157	154	158	157	159	160	159	157	157	158	158	157	154	154	154	154	156	156	156	155	155	156	154	154	156	156	154	156	156	155	155	154	156	156	156	157	156	157	157	157	155	154	154	156	156	156	156	156	156	156	155	156	157	157	158	157	155	154	154	153	156	156	156	155	155	156	157	157	155	154	156	156	155	154	154	154	153	153	154	154	154	155	154	155	154	154	154	154	157	155	156	157	155	154	154	154	153	154	154	153	153	153	154	154	154	152	153	152	155	153	152	152	151	152	152	153	153	153	154	153	153	152	152	152	153	152	152	150	148	150	150	151	151	150	152	151	151	151	151	152	152	151	149	149	150	150	151	150	151	151	151	151	151	151	150	150	150	151	150	151	151	151	151	151	150	150	150	148	148	147	147	147	148	148	148	147	148	147	150	148	148	148	147	146	144	146	146	148	148	147	144	144	147	146	147	148	148	147	147	147	146	145	145	145	145	146	146	147	146	147	146	147	147	148	147	145	145	145	145	144	144	145	145	146	146	146	146	146	145	143	143	144	145	145	144	144	143	143	142	142	142	142	142	143	143	143	143	144	143	143	143	142	142	141	142	142	141	142	142	139	140	141	141	141	144	144	143	141	140	139	140	140	140	140	140	141	141	141	141	140	139	139
143	143	143	143	143	144	144	144	144	143	144	146	146	146	146	145	145	144	143	142	145	145	145	145	145	145	144	143	144	145	145	148	148	146	145	145	145	144	145	145	146	146	146	145	145	145	145	145	146	148	147	147	144	145	146	148	147	147	147	147	147	148	148	149	150	151	151	151	152	149	149	147	146	147	147	146	146	146	144	146	146	150	148	148	148	147	146	147	147	146	146	145	146	146	147	148	147	147	146	146	149	149	149	149	151	151	150	150	150	150	148	148	150	152	150	149	147	147	147	148	148	144	144	149	149	149	150	148	148	148	149	149	150	149	149	149	150	150	151	151	151	152	150	149	149	150	151	150	150	148	150	149	149	149	148	149	150	151	150	151	150	151	150	151	151	152	153	152	152	152	152	153	153	154	152	154	154	152	153	150	150	149	154	153	152	152	151	149	150	151	151	157	159	159	156	156	155	155	154	152	152	151	151	149	150	151	153	154	153	154	154	153	152	153	154	152	153	150	151	153	154	154	154	155	156	157	156	155	153	154	157	157	154	156	153	155	156	156	155	156	155	154	156	157	156	157	155	155	153	152	154	155	156	155	154	154	155	157	157	157	156	155	155	155	155	154	153	153	153	153	153	153	155	154	154	154	156	156	156	155	155	155	154	154	155	155	156	157	156	156	155	156	156	157	156	156	157	156	156	155	154	155	155	156	155	155	154	154	153	154	154	155	156	158	157	157	157	156	155	157	157	158	156	156	156	156	156	155	157	158	157	155	156	156	159	159	157	158	158	157	157	157	157	156	156	156	158	157	155	156	156	155	156	156	156	157	157	157	157	156	156	157	157	158	159	157	158	157	157	155	155	154	154	154	156	156	155	154	155	154	154	155	154	155	156	155	156	155	154	154	156	156	156	157	156	156	157	157	154	154	154	156	156	156	155	155	155	155	156	157	157	157	159	157	157	154	153	153	153	154	155	154	154	155	155	156	153	153	156	156	155	154	154	153	153	153	153	153	153	154	153	153	154	152	153	153	154	155	154	153	153	154	154	153	154	153	152	153	153	153	153	152	152	151	152	150	154	153	150	150	151	151	150	151	152	153	153	152	150	152	152	153	152	151	152	151	149	149	149	151	151	151	151	152	151	151	151	150	150	149	148	148	149	149	151	151	151	152	151	149	149	150	148	148	148	150	149	150	149	149	150	150	150	150	149	149	148	146	145	146	147	148	147	147	146	147	147	148	147	146	144	144	144	146	147	148	147	146	146	146	147	146	147	148	148	147	147	147	147	145	145	145	145	147	146	145	144	144	146	146	147	146	147	144	144	143	143	143	144	144	144	146	145	144	146	145	145	144	144	143	144	144	144	144	143	141	142	142	142	141	141	141	141	141	142	143	142	143	144	145	146	145	145	143	144	145	143	140	140	140	140	141	142	143	142	141	140	140	139	140	141	140	139	138	138	141	141	140	138	139
142	142	143	143	144	145	146	146	145	145	144	146	146	146	146	145	143	143	144	142	143	143	143	144	144	144	144	143	144	146	146	146	147	146	145	145	145	145	146	144	145	145	146	145	145	145	146	146	146	148	147	144	145	146	147	147	147	146	145	146	146	147	147	146	147	148	149	149	149	151	147	147	147	146	146	146	147	147	144	147	148	149	148	147	147	145	144	145	145	147	147	146	146	147	147	148	147	146	146	145	148	147	149	150	150	150	150	149	148	148	149	148	148	149	148	149	148	150	149	148	148	148	146	146	146	147	150	147	147	148	149	150	150	149	148	148	149	149	151	150	151	150	148	149	148	150	151	150	150	151	150	150	149	149	149	148	151	151	151	150	150	151	151	150	151	150	150	151	150	151	150	150	150	151	154	151	154	151	153	149	149	149	149	151	150	150	149	151	151	151	152	152	153	153	154	156	155	155	154	150	150	151	151	149	150	150	153	154	154	154	154	152	151	153	154	154	152	155	151	150	153	153	153	154	154	154	151	151	152	153	156	152	152	152	154	155	155	154	154	153	153	153	156	158	157	158	155	156	155	155	154	155	156	154	155	155	154	156	156	155	154	154	156	156	155	154	154	153	153	153	152	152	153	153	154	155	156	156	156	156	155	154	154	154	155	156	157	156	156	156	155	155	156	157	157	156	156	156	153	155	154	155	154	155	155	154	154	154	154	154	154	155	155	155	156	156	156	155	155	157	157	156	156	156	155	155	156	156	157	158	157	155	156	156	158	158	157	158	157	158	156	155	156	156	156	156	156	156	155	154	156	157	157	157	157	157	157	158	156	156	157	157	157	158	156	155	157	157	155	154	155	154	156	156	156	156	156	155	154	157	158	157	156	156	155	155	155	155	153	154	154	156	155	156	156	155	156	156	155	156	156	156	155	156	156	155	156	156	156	157	157	157	154	155	155	155	153	152	153	153	154	153	153	153	153	153	153	154	155	155	154	155	154	153	153	152	152	153	154	153	153	153	154	151	152	153	152	152	153	153	153	153	154	152	152	153	152	152	152	151	153	152	152	152	151	156	150	150	150	150	151	151	151	152	151	152	153	152	153	153	153	153	153	154	153	149	150	151	151	150	151	151	152	152	151	151	149	150	150	149	149	150	149	150	149	149	149	150	149	149	150	151	150	149	148	149	148	147	149	148	148	148	148	148	148	149	149	148	148	148	148	147	146	146	147	147	146	147	147	147	145	146	145	147	149	148	146	148	148	148	147	147	147	148	148	147	147	147	146	146	146	144	147	147	146	144	144	144	146	146	146	146	145	145	144	143	144	143	143	144	144	144	144	144	144	145	144	144	144	142	143	143	144	141	141	141	142	142	141	141	140	140	140	141	141	141	144	143	144	145	146	146	146	145	144	143	142	140	139	139	141	141	142	142	142	142	139	140	139	140	140	140	141	141	140	140	141	140	138	138
141	142	142	143	145	145	147	146	145	145	145	146	146	145	145	145	144	142	142	142	142	142	142	143	143	143	143	143	147	146	145	145	144	144	144	145	147	147	148	146	144	145	145	146	145	145	142	144	144	145	145	146	146	147	147	148	146	146	145	145	145	146	147	145	146	148	148	149	149	149	149	149	147	145	146	145	145	147	147	146	147	145	146	147	146	146	144	146	147	147	149	147	147	146	148	147	146	145	145	146	145	145	148	148	149	149	149	149	148	148	149	149	149	148	148	148	149	148	148	149	147	147	147	147	147	147	147	147	147	148	149	150	150	149	149	148	149	148	148	149	149	149	148	147	148	149	149	150	149	149	150	149	148	148	148	148	151	151	150	150	150	151	151	151	151	150	150	149	149	152	152	149	150	149	150	152	151	151	150	150	150	151	151	151	152	150	153	154	151	152	153	151	150	151	151	152	153	153	153	150	152	152	153	153	152	152	149	151	153	153	152	152	153	152	153	156	155	152	150	152	153	153	154	153	152	148	149	151	152	152	151	151	153	151	151	154	152	152	153	152	152	153	154	156	155	154	156	155	155	154	153	153	154	155	155	156	155	156	155	154	153	153	156	157	157	154	155	155	153	153	152	153	153	151	153	154	152	154	155	156	154	153	152	153	153	154	155	154	155	153	155	155	155	156	157	156	154	155	153	153	154	154	154	154	154	155	155	155	154	155	153	154	154	153	154	154	153	153	154	154	155	154	155	156	157	155	155	156	155	155	154	156	156	156	157	156	157	157	157	155	153	154	153	155	156	156	155	155	155	154	156	157	157	156	157	157	156	156	155	156	157	155	156	155	154	155	155	153	156	157	155	155	155	156	156	155	155	154	154	155	157	158	156	155	155	155	155	155	154	154	155	155	156	157	156	155	154	153	155	155	156	156	156	155	155	156	156	157	156	156	154	155	153	153	155	155	153	153	153	153	153	152	153	153	153	155	153	153	154	154	153	155	153	153	152	153	154	154	155	155	150	151	151	151	152	154	152	152	151	151	152	153	154	152	152	151	152	152	152	152	151	151	152	152	153	153	150	149	149	150	152	152	151	152	152	151	150	150	152	153	153	153	154	154	151	150	151	151	151	150	151	152	151	150	149	149	149	150	149	148	149	150	149	149	149	148	149	149	149	149	149	149	149	149	148	149	148	147	148	149	149	148	148	147	147	147	148	148	148	148	148	148	147	147	147	147	146	145	147	146	146	146	146	146	148	146	147	147	149	148	148	146	146	148	148	148	147	146	146	146	145	145	145	147	145	146	143	143	145	146	146	145	143	142	143	142	143	143	142	143	144	144	144	143	143	144	144	144	142	142	142	142	142	141	139	142	142	142	141	142	141	141	140	140	140	141	144	144	143	143	143	145	146	146	143	141	142	140	140	140	141	140	141	142	141	141	142	139	140	140	140	141	140	140	141	140	140	140	138	138
140	142	142	143	145	147	147	146	145	145	145	146	145	145	144	144	143	143	143	143	142	142	142	142	143	145	144	144	147	146	146	144	144	144	144	147	147	148	147	146	144	145	146	146	145	145	143	145	145	146	146	146	146	147	147	146	148	146	146	144	144	144	144	145	146	145	148	149	149	150	149	146	144	145	145	145	145	143	143	144	143	146	146	146	146	148	146	147	147	147	147	147	148	147	147	146	145	145	146	147	145	145	147	148	149	148	149	148	147	147	148	148	148	147	148	148	148	149	148	149	146	147	147	148	146	146	146	148	148	148	150	150	150	149	150	148	148	148	149	150	143	146	148	147	147	147	149	149	148	149	150	148	149	148	148	148	151	150	150	150	150	148	149	149	149	149	148	152	149	151	152	148	148	149	150	151	151	151	147	150	150	150	150	150	151	153	152	149	149	152	153	153	152	150	150	150	150	152	153	153	151	150	151	151	152	150	149	150	154	153	154	154	152	152	152	153	153	152	151	150	153	153	154	153	152	148	149	151	152	152	153	152	152	153	153	152	152	151	152	152	153	153	153	153	155	155	155	154	153	153	153	152	153	154	154	154	155	156	155	154	154	154	153	156	156	155	155	155	155	154	154	153	153	151	151	151	152	154	153	154	154	153	153	153	154	155	155	154	154	154	153	154	155	155	155	155	155	154	155	154	154	154	154	155	155	155	155	155	154	154	153	152	152	151	153	153	154	155	155	155	156	155	154	156	155	156	155	156	155	155	154	154	155	156	156	155	156	156	154	154	154	153	154	155	155	155	156	156	155	154	156	156	157	156	157	157	155	155	156	156	157	157	153	155	152	153	153	153	152	155	156	154	154	156	155	155	155	155	156	156	156	156	154	154	154	155	155	155	154	152	154	154	154	157	155	154	153	152	151	152	153	155	156	156	154	155	156	156	156	156	153	154	154	154	153	153	152	153	153	154	152	153	153	153	154	155	154	153	152	153	153	153	155	154	153	153	154	154	154	155	153	154	152	152	152	152	152	151	151	152	151	153	154	153	151	151	151	151	151	150	150	151	151	153	153	152	151	149	149	151	151	151	151	152	152	150	149	150	152	153	154	152	153	152	152	151	149	149	150	150	150	150	151	151	150	150	150	149	149	150	149	152	152	150	149	148	148	148	148	149	149	148	148	147	148	149	148	147	149	148	148	149	149	149	148	146	146	147	148	148	148	147	147	147	147	146	146	146	148	147	147	146	146	146	147	148	147	148	148	147	147	144	144	148	147	146	146	146	145	144	146	143	143	145	145	144	144	143	145	146	145	144	142	143	142	143	143	143	142	142	142	143	143	143	142	143	143	144	141	141	143	142	141	142	139	140	142	143	143	142	142	141	140	139	140	141	142	143	143	143	142	145	144	143	143	141	140	139	139	139	140	142	141	142	141	141	141	140	139	139	137	137	137	137	140	140	141	141	141	140
140	142	143	143	146	146	146	146	144	144	144	145	144	144	144	142	139	138	140	140	144	142	142	142	143	144	148	147	147	146	145	142	143	143	145	149	148	147	147	145	144	145	145	145	145	142	144	146	145	145	146	146	146	146	146	146	145	144	144	146	143	143	143	145	146	145	147	147	148	148	148	146	144	145	145	148	149	149	148	147	145	143	144	146	148	148	148	147	146	146	146	146	147	148	146	145	145	145	145	146	146	146	146	148	149	147	148	147	147	146	146	147	147	148	147	147	148	148	147	148	149	148	147	147	146	146	147	147	148	148	149	150	150	148	149	149	148	147	149	148	146	144	147	147	147	147	149	149	149	149	149	148	148	149	148	150	149	150	150	151	150	148	149	148	150	151	152	150	150	151	150	149	148	148	150	150	148	151	150	150	148	150	149	149	150	150	150	148	149	151	152	150	150	150	150	151	152	152	154	153	151	151	150	151	151	151	151	149	153	154	153	154	152	152	152	152	150	151	151	152	151	152	152	151	151	150	151	152	153	152	153	152	152	151	151	152	153	152	151	152	152	153	153	153	153	154	154	154	153	153	152	152	153	153	151	153	155	155	155	153	155	157	156	156	153	154	153	155	154	154	154	154	153	153	151	152	152	152	153	155	153	152	153	154	154	154	154	154	153	154	154	155	155	156	156	155	155	156	156	156	152	153	155	155	155	154	154	154	154	153	152	154	152	154	153	153	153	151	153	153	155	155	153	154	154	155	155	155	154	155	154	155	156	155	155	154	155	156	156	155	154	153	154	155	155	155	158	156	156	155	155	154	154	155	157	156	154	154	155	155	155	155	154	154	154	153	152	152	152	153	154	154	154	155	155	155	155	155	155	156	155	153	152	153	153	154	156	154	153	153	153	154	153	154	156	153	153	152	151	153	154	153	155	154	153	154	156	156	156	154	153	153	153	154	154	153	153	153	153	152	154	154	153	153	152	154	154	155	155	152	153	152	154	154	154	153	153	155	153	153	153	151	155	153	153	152	153	152	152	152	153	152	153	152	151	151	150	151	150	149	149	151	151	151	152	151	150	149	149	150	150	151	151	151	151	151	149	152	152	153	152	152	152	152	151	150	149	148	149	149	150	150	150	150	151	150	151	150	149	149	150	151	151	151	150	150	150	149	148	148	149	147	147	147	149	148	148	148	149	149	150	148	148	149	147	146	146	146	147	148	148	146	145	146	145	146	146	147	147	146	147	147	146	148	147	147	147	148	147	146	146	145	145	146	146	146	146	146	147	146	145	144	143	144	143	142	142	144	144	145	141	142	142	141	141	142	142	141	142	142	141	143	143	142	143	143	142	143	143	141	140	140	140	142	141	141	142	142	142	142	142	141	140	139	140	142	142	142	140	140	140	141	142	142	142	141	139	139	140	138	140	139	139	140	140	141	141	140	139	139	138	138	137	139	140	139	139	139	139	138
142	142	144	144	143	144	143	143	141	143	143	143	143	142	142	139	139	138	140	140	140	142	142	141	141	146	147	147	147	147	145	141	143	143	145	147	148	147	147	144	146	145	144	145	145	142	144	146	146	146	146	149	150	148	146	145	143	142	141	143	146	143	144	144	145	145	146	147	146	146	146	144	144	145	146	148	148	148	148	146	146	144	145	148	147	148	146	146	144	144	145	146	146	146	145	145	145	145	145	146	146	145	146	147	147	147	146	147	147	146	145	145	146	148	146	146	146	146	146	147	149	149	149	147	146	147	149	149	148	148	150	150	149	147	147	148	148	148	149	146	147	146	147	147	148	147	148	150	149	148	148	148	149	149	150	149	149	149	148	148	148	148	150	149	150	150	150	149	148	151	150	150	148	149	150	150	151	149	150	149	149	149	150	150	150	149	148	149	149	151	151	152	150	149	149	152	152	152	153	151	151	150	151	150	151	150	151	149	150	153	154	153	151	152	152	151	150	151	149	150	149	149	151	151	151	151	151	153	152	151	152	152	151	151	151	151	151	149	151	152	152	153	153	153	153	153	152	153	153	151	150	151	151	152	152	153	155	155	156	154	157	155	154	152	152	153	152	153	153	153	153	155	153	154	156	152	152	153	152	151	149	151	155	155	154	154	152	152	152	152	155	154	155	155	154	154	154	153	155	154	155	150	154	155	154	154	154	153	153	153	154	155	154	154	155	153	153	152	154	153	153	155	155	154	154	154	154	154	154	154	154	155	155	156	155	154	152	154	156	156	154	154	154	155	155	155	157	156	156	155	156	154	154	154	154	157	154	154	154	155	154	154	154	153	154	155	153	152	153	154	153	153	153	154	155	155	155	154	155	156	154	151	152	151	152	154	155	153	153	153	154	152	154	154	154	153	152	151	152	152	153	154	155	153	153	154	155	154	154	154	153	152	153	154	154	154	153	153	154	152	154	154	154	155	154	154	152	152	152	151	152	153	154	153	152	153	153	150	150	152	154	156	152	154	153	153	154	152	153	152	152	152	152	152	150	151	150	150	150	149	150	150	150	151	151	151	151	150	149	148	150	150	150	150	151	150	151	151	150	150	151	150	152	151	151	150	149	149	149	149	149	149	149	147	148	151	151	150	149	150	150	150	147	147	148	149	147	148	149	149	147	146	146	147	148	147	147	148	149	150	150	149	149	148	147	146	146	147	146	146	146	146	145	146	146	146	145	146	146	146	146	146	147	148	147	145	145	146	146	146	146	145	145	145	145	144	143	145	144	146	143	143	142	141	142	142	143	144	143	143	142	143	142	142	142	142	142	141	140	140	141	142	142	142	142	141	141	141	141	141	142	142	140	141	142	142	141	141	141	142	142	142	140	140	140	140	140	143	143	140	139	139	140	141	142	142	142	141	141	139	139	139	139	139	140	140	140	139	138	138	137	137	140	139	139	139	138	138	138	137
144	144	144	143	143	143	141	141	141	143	143	143	143	142	139	139	141	140	140	140	140	143	142	141	143	143	143	141	141	141	141	139	143	144	144	146	145	145	144	144	146	146	143	144	144	143	146	146	148	150	150	148	146	144	144	143	142	139	141	141	143	144	144	144	147	145	144	143	142	142	145	145	147	148	148	148	147	148	148	148	144	144	143	145	147	147	146	144	144	142	144	144	146	145	144	144	145	145	146	146	145	145	145	144	145	146	146	146	146	145	146	146	146	147	146	146	146	146	146	147	147	148	147	147	147	146	147	147	148	149	149	148	149	145	146	147	147	146	147	146	145	146	147	148	147	147	148	150	149	149	149	146	146	146	146	149	149	147	148	148	147	147	147	147	148	150	149	147	148	148	151	150	149	150	149	150	148	149	149	148	149	150	149	150	150	150	149	149	149	150	150	150	150	152	149	152	152	152	151	152	150	151	150	149	152	150	150	150	148	152	151	153	151	151	152	151	150	149	149	150	149	150	151	151	151	151	151	151	151	150	151	151	151	151	151	151	151	150	150	150	151	151	149	149	152	152	152	152	151	150	149	151	152	153	153	154	152	153	152	153	154	153	154	153	152	151	154	151	153	153	153	155	154	152	153	155	155	152	152	150	150	155	155	154	153	153	151	152	152	152	152	154	155	155	155	154	152	153	153	154	151	149	153	153	153	153	154	154	152	154	154	155	154	153	155	153	153	153	154	153	152	152	153	153	154	154	155	153	153	153	153	154	155	155	154	153	152	151	153	152	152	153	153	154	154	153	153	152	154	153	154	154	152	153	153	154	153	153	153	153	154	153	153	153	154	154	155	154	153	152	153	154	154	153	153	154	154	154	154	154	152	151	152	151	153	154	153	154	155	154	153	153	153	153	154	153	153	152	152	153	152	153	152	152	153	154	155	155	154	153	153	153	153	153	154	152	153	153	153	153	153	153	154	154	152	151	151	151	152	151	151	153	154	153	152	153	153	151	151	152	155	152	152	152	153	153	153	153	153	154	153	152	151	150	150	150	151	151	151	150	149	150	150	150	151	151	150	149	149	149	149	150	150	150	152	149	149	148	149	149	148	148	150	150	150	149	148	149	149	149	149	148	148	147	148	148	150	150	150	150	149	149	145	147	147	147	148	146	147	150	149	149	148	145	146	146	148	148	149	148	148	146	148	146	146	145	145	146	146	146	145	146	145	145	146	146	146	145	146	145	144	146	146	147	146	145	143	146	145	145	144	146	145	144	144	142	143	143	142	143	144	140	140	139	140	142	143	143	143	141	141	143	143	143	142	141	142	140	140	139	142	141	141	141	141	140	140	140	142	141	142	142	142	141	141	141	141	141	141	141	142	140	139	140	140	140	140	140	140	138	137	137	137	141	141	141	142	141	140	139	139	140	139	139	139	138	140	139	138	139	139	138	140	140	140	139	139	137	137	136
142	142	143	143	143	143	142	140	140	143	140	142	142	142	141	141	141	141	140	140	140	143	142	143	143	143	144	144	142	141	141	139	141	143	143	143	144	145	147	146	145	144	143	141	145	145	146	146	148	147	143	143	141	141	140	140	139	139	141	141	141	143	147	147	147	147	144	145	144	144	144	144	145	147	147	148	147	148	145	140	140	141	143	145	145	145	144	144	141	141	144	144	144	144	144	143	143	146	146	144	144	144	142	143	143	144	146	146	147	147	146	147	146	146	145	145	146	147	146	145	144	145	147	147	147	147	146	147	146	146	147	147	147	145	146	147	146	145	146	146	146	146	145	147	148	147	146	147	149	148	149	146	146	146	146	148	147	147	147	147	147	148	148	149	149	149	148	147	147	149	149	150	152	149	148	148	148	148	149	150	149	149	148	149	150	149	149	149	150	150	150	150	151	152	151	151	151	152	152	151	150	149	150	150	153	150	151	150	149	149	148	148	152	153	152	151	150	149	150	151	152	149	151	151	153	152	152	152	151	151	150	151	151	151	150	151	149	150	151	152	151	150	149	148	151	149	151	149	150	149	149	151	153	153	153	153	152	153	152	154	152	152	153	152	152	152	152	151	151	153	152	153	153	153	153	155	154	153	152	151	152	153	153	152	152	151	151	150	150	153	153	154	155	155	155	155	153	153	153	153	152	151	150	152	153	153	154	153	154	153	154	154	152	153	152	151	153	153	151	150	152	152	152	153	154	154	154	154	153	152	153	153	154	154	155	153	153	152	152	153	153	153	154	154	153	153	153	153	152	153	152	152	151	153	154	154	153	154	153	153	153	152	153	153	153	154	154	153	153	154	153	153	153	154	154	154	154	154	153	153	152	152	153	154	155	155	153	152	154	154	153	152	153	153	153	152	153	153	153	155	153	152	152	153	154	155	157	153	152	152	152	153	154	153	153	152	153	152	153	153	153	153	153	152	151	150	150	151	151	152	152	154	153	154	152	153	153	152	150	151	154	155	152	154	152	152	151	153	153	154	152	152	149	150	149	150	153	152	150	150	150	149	149	149	149	149	150	149	149	149	150	149	149	150	150	148	147	148	148	148	148	149	149	149	149	147	148	149	150	151	149	148	147	147	147	147	148	151	150	150	149	147	147	146	147	146	146	146	146	149	150	149	148	147	145	146	147	148	146	146	146	145	145	145	145	145	145	146	146	146	145	145	146	146	146	145	146	145	145	145	144	145	145	145	145	145	144	145	143	143	144	144	142	142	141	141	142	140	143	143	144	141	140	140	142	142	142	143	142	141	142	142	141	142	142	142	142	142	141	139	142	140	140	140	140	140	141	141	141	143	143	142	143	143	142	141	141	140	142	140	140	136	139	140	140	139	139	140	140	140	137	136	137	139	139	139	140	140	139	139	139	139	140	139	138	137	138	139	138	138	137	138	138	138	138	138	137	137	136	136
138	138	140	143	144	144	144	145	142	142	140	139	141	141	143	142	141	141	140	142	142	142	142	144	143	143	144	144	141	140	140	141	141	143	143	143	143	144	145	145	145	144	142	141	142	147	147	148	146	147	144	144	144	144	144	143	142	141	141	142	143	144	142	148	147	147	146	145	144	144	143	144	144	145	145	147	148	148	142	140	141	141	142	142	143	144	145	143	142	143	143	144	144	143	143	143	143	143	143	144	142	142	142	142	141	142	143	145	147	147	147	147	145	146	146	145	147	148	145	146	145	145	148	148	149	146	146	146	146	146	146	146	145	145	145	145	145	148	148	148	146	144	146	146	147	146	147	145	147	148	149	147	146	147	147	146	147	147	147	146	146	147	148	149	150	148	148	149	150	149	148	148	148	151	148	148	148	148	149	148	148	148	150	150	149	149	149	151	152	152	151	151	151	151	151	151	149	151	152	149	150	151	149	150	151	150	150	149	148	148	148	148	150	150	148	150	151	150	150	151	147	152	149	150	152	153	152	152	151	150	150	151	151	151	150	151	150	150	150	151	151	149	150	149	148	147	148	148	149	150	151	151	152	151	152	154	155	155	154	151	153	152	151	151	151	151	150	151	151	152	151	151	152	151	149	150	154	152	153	151	153	154	154	151	149	149	149	150	153	153	152	153	153	152	154	155	155	153	153	152	152	151	151	152	154	154	156	155	154	152	151	151	151	152	152	152	152	152	151	152	151	152	152	152	153	154	155	150	150	153	152	153	154	154	154	153	152	151	154	156	156	154	154	153	153	153	153	152	153	153	153	153	152	152	152	151	151	151	152	152	153	153	153	153	153	154	153	153	153	153	154	153	153	154	152	152	152	153	153	154	153	154	154	153	155	153	152	152	152	152	152	152	153	153	154	154	153	153	152	153	152	153	153	152	154	154	153	152	152	152	152	153	154	153	152	153	152	152	151	152	153	153	151	152	151	151	151	150	151	151	151	153	153	153	153	152	152	152	152	151	153	154	152	151	149	151	150	150	151	152	151	150	149	149	149	150	150	150	150	150	149	148	148	148	147	148	149	149	148	147	149	150	150	149	148	147	146	147	148	148	149	150	148	147	147	148	146	145	149	150	150	148	148	146	146	147	148	151	150	150	149	147	145	144	143	143	145	147	146	147	149	149	148	148	147	146	146	147	146	145	144	144	145	146	144	144	145	145	144	145	140	140	141	146	146	146	146	146	147	144	144	144	145	145	145	143	143	143	145	145	144	142	142	142	141	142	141	141	140	142	141	141	141	141	141	142	142	143	141	141	142	142	141	140	142	143	142	142	141	140	141	141	141	139	139	141	141	144	144	144	143	142	141	141	142	141	141	142	140	140	138	136	139	141	141	141	139	139	140	139	137	135	137	138	138	138	138	138	138	138	139	139	139	137	137	138	139	137	137	137	135	138	138	137	138	138	137	137	138	136
138	140	140	144	144	144	144	141	140	140	139	139	141	141	143	143	141	141	140	144	142	142	142	143	144	144	146	146	145	141	141	141	142	143	142	141	141	142	143	144	144	144	144	140	141	144	144	145	143	143	144	145	145	144	143	142	141	141	142	143	142	142	141	142	146	145	145	145	144	143	143	143	144	144	144	141	143	141	142	144	144	144	142	142	143	143	142	140	142	144	144	144	144	143	142	142	143	143	141	142	140	141	141	140	140	141	142	145	145	146	147	146	145	144	144	144	144	145	146	146	146	146	145	147	147	146	146	146	146	144	145	144	143	143	144	144	145	145	145	145	145	145	145	145	146	146	146	145	142	147	148	148	147	147	148	148	146	148	146	146	147	147	147	148	149	150	148	149	149	150	149	148	148	147	147	149	148	149	147	148	148	150	151	148	148	147	148	150	152	153	152	152	151	151	150	151	151	151	150	149	149	149	149	150	150	149	149	148	148	148	149	150	152	150	150	149	150	151	151	149	150	147	148	147	150	151	151	151	151	151	150	150	150	151	150	150	147	150	150	151	151	150	150	150	150	150	150	149	151	151	151	152	154	152	154	152	152	152	153	153	152	151	152	150	151	149	150	151	151	151	151	152	151	151	150	150	152	152	152	150	153	152	153	154	153	153	153	152	152	152	152	153	153	153	153	154	153	153	153	153	151	151	153	153	153	154	152	152	151	152	152	152	152	151	152	152	153	152	152	152	150	151	152	152	152	152	153	152	152	153	153	154	154	156	154	153	151	151	152	155	156	154	153	153	153	153	153	152	151	150	152	153	153	152	151	151	151	152	152	153	151	152	152	152	151	152	153	152	152	152	153	153	153	153	152	151	151	153	154	153	151	153	152	152	153	152	152	151	152	152	152	152	152	153	153	155	153	152	152	152	151	151	153	153	151	152	153	151	153	152	151	151	152	152	152	151	152	151	151	153	153	152	152	151	152	152	151	151	152	151	151	150	152	152	151	151	151	152	151	150	151	149	149	150	149	151	151	151	152	152	152	151	149	147	148	149	151	150	148	148	148	148	148	148	148	149	148	147	146	147	147	150	150	149	148	147	147	146	148	148	149	149	148	147	144	146	147	146	146	146	146	147	146	146	146	147	147	150	149	148	148	146	146	145	144	144	146	146	146	146	147	149	149	148	145	145	145	145	145	145	145	146	145	145	144	143	143	143	142	143	140	140	141	143	144	144	145	146	146	144	141	142	142	143	142	142	140	143	143	145	141	141	143	142	142	143	141	141	142	141	142	142	141	141	141	142	142	141	141	141	142	142	142	140	141	142	143	142	142	142	143	143	141	141	140	141	141	144	143	144	143	143	143	141	141	141	141	139	142	140	138	139	139	139	139	138	137	137	137	137	136	135	138	138	138	138	137	136	136	137	138	139	139	138	138	139	136	134	134	135	135	136	136	136	136	137	137	137	138	137
138	139	145	145	147	144	144	141	140	139	139	139	141	143	143	143	142	143	143	144	144	143	143	144	145	146	146	146	141	142	142	142	143	143	142	141	141	140	142	143	144	144	144	144	142	144	145	145	144	145	146	144	142	142	141	142	141	141	143	143	142	143	143	145	145	144	144	143	144	143	142	142	143	145	145	143	142	143	141	143	142	142	142	141	143	143	143	140	140	144	145	144	144	143	142	143	143	142	141	141	140	140	140	140	140	141	142	144	145	144	145	145	145	144	141	144	144	144	145	145	146	146	146	145	145	146	146	145	142	143	142	142	143	143	143	144	144	144	145	144	144	145	145	145	145	146	143	144	145	146	147	148	147	149	149	146	147	146	145	146	147	148	149	149	149	149	148	149	148	149	149	149	148	147	147	147	148	149	149	150	150	150	149	147	146	147	147	148	148	149	151	152	148	150	150	150	151	148	148	150	150	151	151	150	149	150	150	150	151	151	151	151	149	147	149	149	150	151	151	151	148	147	147	147	150	150	151	151	151	150	150	149	150	150	151	148	147	150	147	150	151	150	151	151	151	151	150	152	152	151	153	154	151	154	152	152	152	153	153	152	151	151	151	151	149	148	149	150	151	153	153	150	149	149	150	150	150	150	150	150	153	154	154	154	153	153	152	152	151	152	153	152	153	153	153	153	154	153	154	155	151	151	150	152	152	151	152	151	150	152	152	153	151	152	151	152	151	151	151	150	150	149	152	153	153	153	153	152	152	152	153	152	152	152	152	149	150	149	149	153	155	153	153	153	153	153	152	152	151	151	153	152	153	152	152	152	151	153	153	153	152	151	152	151	151	151	152	153	155	152	152	152	151	149	150	152	153	153	153	152	152	150	151	152	152	153	152	151	152	152	152	152	153	153	153	153	153	152	151	151	150	150	151	151	151	152	150	151	151	152	150	150	152	155	154	152	151	151	152	151	151	151	151	152	152	152	152	151	151	151	150	150	150	149	151	151	151	152	152	149	150	149	150	149	149	149	150	152	152	152	151	151	149	148	149	149	150	149	148	148	148	147	147	147	147	148	147	144	146	147	148	149	150	149	147	145	146	147	148	148	149	149	148	146	146	146	147	146	146	146	146	146	147	148	148	149	148	149	149	148	147	146	145	145	144	145	145	146	147	146	145	148	147	145	145	144	144	145	144	144	145	146	145	145	143	144	144	145	144	143	141	142	141	142	142	146	144	146	146	141	142	140	142	142	142	142	142	142	142	144	141	141	142	144	144	141	140	140	141	142	143	142	141	141	141	141	140	140	142	141	142	141	140	140	141	141	143	142	143	143	143	143	143	142	142	140	139	139	141	143	142	141	140	140	140	140	139	142	142	140	138	138	138	138	137	135	138	137	137	137	136	137	137	137	138	138	136	135	135	136	137	138	138	138	137	137	137	137	136	135	133	134	136	136	135	136	136	135	137	137
138	139	143	143	147	144	141	144	141	140	140	140	142	143	143	143	142	145	145	145	144	143	143	143	145	145	146	146	142	142	143	143	143	142	142	141	142	142	142	143	144	144	144	144	146	146	144	143	143	143	144	144	142	141	141	141	141	141	140	142	142	143	144	145	144	142	142	142	142	143	143	145	145	145	141	141	143	144	146	143	143	144	143	143	143	142	142	141	142	144	145	144	143	143	143	144	144	142	143	141	140	140	142	140	140	141	142	143	143	144	146	145	144	144	143	144	145	145	145	145	146	147	146	146	144	143	143	143	144	142	142	142	143	144	144	143	145	147	147	146	145	144	145	144	145	143	144	145	146	146	147	148	148	148	146	145	147	145	145	146	148	148	148	150	149	148	150	150	149	149	147	148	146	145	144	145	148	149	149	148	149	149	146	146	149	148	146	148	149	149	148	148	148	148	150	149	147	149	149	150	150	149	150	150	151	151	150	150	151	150	150	149	147	149	149	149	149	150	150	149	149	149	147	149	150	150	150	150	150	150	150	150	148	149	149	148	150	150	151	151	155	153	152	149	151	149	152	153	152	152	152	151	152	151	151	151	152	153	152	150	150	150	150	151	150	147	149	150	150	153	153	151	149	151	150	150	149	149	149	152	154	152	154	153	153	153	151	151	152	152	153	153	151	151	152	152	152	151	150	150	151	151	150	152	152	151	152	152	150	151	151	152	152	152	150	150	149	151	150	151	149	151	151	153	153	153	152	150	150	151	152	152	152	151	151	149	150	150	150	151	152	153	151	153	153	153	152	152	151	151	151	153	151	152	152	151	152	152	152	152	150	151	152	152	150	150	151	152	152	151	151	152	151	150	151	151	150	152	152	151	151	151	150	152	150	152	152	152	152	151	151	152	153	152	153	153	152	151	151	151	151	150	150	149	151	149	152	151	152	152	150	150	150	152	151	151	151	151	149	151	151	150	150	150	151	151	151	150	151	151	152	152	151	148	148	149	151	152	151	151	149	149	149	150	149	150	149	151	151	151	152	152	149	148	148	150	150	149	148	147	148	149	148	148	147	148	147	146	146	146	147	148	149	148	145	145	145	146	148	146	148	149	148	146	146	146	147	148	147	147	144	146	145	146	146	146	148	148	148	148	147	146	145	145	146	146	147	148	147	145	145	146	145	145	143	144	144	144	144	145	145	148	146	144	143	144	144	145	144	143	141	142	142	142	142	144	143	142	141	142	141	141	142	142	143	143	141	141	142	140	142	142	142	143	142	140	140	141	141	142	142	142	142	141	141	140	140	140	139	141	140	140	140	140	139	140	143	142	142	143	145	145	144	142	141	139	139	139	141	141	140	139	139	139	139	140	140	139	141	140	139	138	136	136	137	134	134	136	136	137	137	137	137	137	138	137	137	134	135	135	136	136	137	138	137	137	137	136	136	138	135	134	135	135	135	136	135	135	136	136
139	139	141	139	139	143	144	144	145	145	145	145	142	143	143	141	141	141	144	144	145	143	140	140	142	142	141	142	142	144	144	144	144	144	143	142	142	143	143	142	144	144	144	144	146	144	142	142	141	141	142	141	142	141	141	141	142	140	142	144	143	143	145	143	141	141	142	142	142	142	143	144	144	143	144	143	143	144	143	143	143	144	145	143	143	143	142	143	145	145	144	142	141	142	142	145	145	145	145	143	142	142	142	141	142	142	143	143	144	143	143	147	146	142	143	143	144	144	145	145	145	146	146	146	142	143	143	143	142	142	142	142	145	145	144	143	144	145	144	145	145	145	145	144	143	144	145	145	145	147	148	148	148	146	146	145	145	145	146	146	148	148	148	148	148	149	150	149	147	147	147	145	145	143	142	146	146	147	147	146	147	147	146	148	150	150	150	150	149	149	150	148	148	147	148	148	147	149	150	149	149	149	150	150	150	150	151	150	149	151	150	148	148	149	151	151	150	148	148	148	147	148	148	148	149	149	149	149	148	150	151	149	147	147	147	149	148	148	148	148	151	152	150	148	147	147	148	151	153	148	147	149	150	148	148	150	151	151	150	150	150	147	148	148	149	148	147	148	151	153	153	152	151	150	150	150	151	149	150	149	153	151	152	153	152	151	150	149	149	152	150	150	150	151	149	150	149	152	151	150	150	151	150	152	152	151	151	152	152	151	150	151	151	150	149	149	150	150	151	151	150	151	151	152	152	151	152	150	149	150	152	151	148	150	151	152	150	150	150	151	151	151	152	151	153	153	151	151	151	152	152	152	153	152	151	152	151	151	152	151	151	150	151	152	151	151	151	151	151	151	150	150	150	149	150	152	149	151	152	151	150	149	150	152	151	149	152	151	152	150	151	151	153	153	152	152	151	151	149	150	149	150	146	149	148	150	150	150	150	150	149	149	150	150	150	150	151	151	151	149	151	151	151	150	150	149	150	150	151	151	150	151	150	150	149	149	150	149	149	149	149	150	150	149	150	150	146	148	150	150	150	149	148	148	147	149	150	148	147	146	148	147	148	147	147	147	145	146	146	148	148	148	148	148	147	145	145	146	147	146	146	147	147	145	145	145	146	147	145	145	144	143	143	145	145	146	146	147	148	147	146	146	144	144	145	146	145	147	145	145	145	145	145	144	143	143	144	144	144	145	147	143	142	142	143	143	143	145	144	144	141	143	143	142	141	143	143	142	140	140	140	141	142	143	142	142	141	141	140	142	142	142	141	141	140	140	139	141	141	141	141	141	142	141	141	141	140	139	139	141	140	140	140	141	139	140	140	140	140	137	137	141	143	141	141	140	139	139	139	140	139	140	140	140	140	140	140	139	141	139	139	138	138	137	134	134	135	136	136	137	137	137	137	137	138	139	137	136	134	135	136	136	137	138	137	137	137	136	139	138	138	136	136	135	136	136	135	135	135	136
141	141	141	138	138	138	143	145	145	142	144	143	143	142	141	141	140	138	142	143	143	140	140	141	141	142	142	141	144	144	143	143	144	144	143	142	142	143	144	145	145	146	146	146	146	144	142	141	138	138	141	142	141	141	141	141	141	140	139	143	144	145	145	141	140	141	141	142	143	143	146	144	141	142	141	144	144	144	143	142	143	144	143	142	141	141	143	142	143	144	144	142	141	141	144	144	144	144	143	143	144	142	142	142	142	144	144	142	143	143	143	144	144	143	143	143	143	145	145	145	145	144	141	142	143	142	141	143	142	144	142	144	144	143	144	143	145	144	142	143	144	145	145	144	144	144	143	146	145	144	146	147	148	148	146	146	145	146	145	148	148	148	147	149	147	148	147	149	148	147	146	145	144	143	146	146	146	146	148	148	147	147	147	148	151	151	153	151	149	149	149	148	150	149	148	147	148	148	149	149	148	148	149	151	150	150	150	150	148	151	148	147	148	149	150	151	149	148	146	147	148	147	148	149	150	149	148	148	148	149	148	146	147	146	146	149	147	148	147	147	148	148	147	147	147	148	150	151	150	149	147	148	147	147	147	148	150	150	149	149	147	146	148	148	147	146	146	148	151	152	152	153	150	148	149	150	150	151	149	149	152	147	149	150	152	150	149	147	147	148	147	148	150	149	150	150	146	147	151	150	151	151	152	151	151	151	151	151	148	149	152	150	152	150	149	149	149	150	151	150	151	151	152	151	151	152	150	149	149	150	153	151	148	149	149	150	152	152	151	149	150	150	150	152	152	152	151	151	151	153	151	153	151	152	150	151	150	150	150	150	149	150	150	152	151	151	151	152	151	149	150	149	149	150	150	150	151	150	150	151	149	149	149	152	151	149	150	152	149	148	149	150	151	151	152	151	150	150	149	150	148	147	147	148	148	150	148	150	148	150	150	150	149	149	148	148	151	150	151	150	149	149	149	150	149	149	150	150	152	151	150	150	151	150	150	148	148	147	147	149	149	149	150	150	150	149	146	147	148	147	148	147	148	148	147	148	148	146	146	146	146	148	148	147	147	146	145	146	146	148	148	148	148	148	147	147	143	144	146	146	145	147	145	144	144	144	146	146	146	144	143	144	144	143	145	146	145	146	147	146	146	145	144	144	144	144	145	146	145	145	144	144	144	144	143	143	143	144	144	145	146	143	142	141	142	142	142	142	143	143	143	144	144	144	143	143	143	142	141	141	141	142	142	142	141	142	141	141	140	142	142	141	142	141	140	140	141	142	141	142	142	141	141	141	141	140	142	141	140	140	140	141	141	141	139	139	139	138	137	137	138	139	141	141	141	141	139	138	137	139	138	138	140	140	140	140	139	139	140	140	139	139	137	137	137	136	136	137	136	137	137	138	137	136	138	138	138	137	136	135	135	136	137	138	137	137	137	136	135	137	137	137	135	134	133	136	135	135	135	136
