386	390	383	384	384	383	388	391	393	393	392	388	384	383	379	379	375	376	378	380	377	377	379	383	383	388	392	384	384	384	384	383	381	382	384	384	383	381	380	378	379	383	382	382	377	375	376	379	382	384	381	373	372	372	378	377	375	375	375	375	377	375	375	377	379	380	380	379	376	375	376	377	376	379	379	381	382	387	389	388	381	379	378	384	384	384	388	375	364	366	370	373	373	371	368	370	373	371	370	370	372	374	377	378	375	373	374	375	377	378	378	377	371	367	365	365	367	370	371	372	373	372	369	368	367	365	365	369	367	365	369	372	374	368	365	364	364	370	371	371	372	372	371	369	366	363	363	359	361	365	375	375	375	368	369	372	371	371	369	372	372	365	363	365	369	367	372	372	374	374	371	367	361	360	358	357	358	364	369	374	378	379	377	372	367	363	364	365	364	362	365	369	370	364	362	364	365	370	355	351	352	354	355	355	356	359	359	358	363	365	364	363	363	364	366	365	363	355	356	358	360	361	361	358	349	357	360	356	355	356	354	354	356	359	361	358	359	357	358	358	356	358	357	356	356	358	358	353	353	351	351	354	356	358	357	357	358	362	366	369	371	361	357	357	356	356	353	355	358	358	356	357	363	361	358	353	356	361	364	365	364	362	361	362	364	364	359	353	349	353	353	353	352	353	355	355	354	354	357	359	361	364	360	356	356	355	354	356	359	360	360	358	356	360	361	362	365	369	368	362	359	358	353	351	351	354	358	357	354	354	360	362	362	360	360	363	364	366	363	358	357	358	357	354	357	359	357	354	355	358	361	363	363	360	359	354	354	357	359	362	361	360	357	351	350	350	354	357	359	360	362	364	365	358	354	352	354	361	360	361	354	353	351	350	350	362	361	360	360	350	350	344	345	347	353	354	350	349	350	351	352	351	352	354	354	354	354	352	350	350	352	356	356	351	345	341	344	352	353	351	351	352	353	351	352	350	343	344	346	349	349	352	352	355	350	349	350	343	344	345	346	349	353	358	357	358	355	343	344	344	345	347	351	350	351	354	351	348	345	349	351	348	349	348	350	351	352	348	349	351	351	348	345	343	346	349	350	353	353	353	353	352	352	351	351	349	348	350	349	349	353	351	349	349	356	359	356	343	344	345	348	347	347	342	345	350	352	355	353	351	348	350	351	351	351	350	353	357	352	350	349	346	345	344	344	346	350	352	350	349	347	345	343	344	344	345	344	347	353	352	349	345	342	343	346	346	345	344	348	350	351	348	345	346	349	350	351	352	353	350	344	340	351	350	348	347	345	347	349	348	345	347	348	346	344	343	344	342	342	342	343	345	347	351	352	352	344	340	341	343	345	346	345	346	349	350	346	346	346	345	345	342	340	340	345	346	343	343	343	347	344	344	349	350	349	347	347	348	348	347	347	345	344	344	343	343	342	343	346	350	350	346	0	0	0	0	0	0	0	0
375	376	375	377	377	378	379	383	386	389	389	384	379	375	372	372	369	373	375	378	376	376	376	374	375	376	379	380	380	377	380	377	375	375	375	375	375	374	372	370	372	378	380	377	374	370	368	372	374	372	369	366	367	367	368	371	371	368	371	372	371	370	371	373	375	376	376	375	373	373	373	372	373	375	376	377	379	381	383	382	386	386	383	384	367	362	362	360	361	363	364	363	362	360	361	365	368	365	366	366	369	371	375	375	375	373	372	374	377	374	372	370	366	369	370	369	368	369	370	370	371	370	366	367	365	363	365	367	369	371	371	370	367	363	362	362	360	360	363	365	367	368	369	361	357	355	355	354	354	359	370	371	367	365	366	366	362	360	362	363	364	364	360	362	367	370	369	370	370	364	363	360	351	350	354	356	357	356	360	362	360	361	362	363	359	359	360	362	361	360	360	360	362	357	362	364	366	350	349	349	350	349	352	355	356	357	355	355	356	353	354	357	360	359	356	358	356	355	355	357	358	360	359	350	349	349	351	355	356	353	353	353	354	354	353	353	355	354	353	352	353	353	353	351	351	354	352	351	353	354	353	353	357	353	350	350	349	351	355	352	352	354	354	355	355	353	352	353	354	355	353	352	348	347	346	346	350	357	352	352	354	359	358	360	362	362	358	352	348	352	353	351	351	352	354	353	353	353	354	355	356	359	360	357	357	355	353	350	351	355	356	356	356	358	360	361	362	361	360	356	356	352	348	351	350	349	351	352	351	352	353	355	358	357	355	354	354	352	352	353	354	351	349	347	346	349	350	350	351	352	357	359	360	359	350	354	353	354	357	359	360	357	350	344	345	349	351	353	352	352	352	352	350	352	352	355	355	357	355	350	348	349	349	347	347	347	343	350	351	350	349	344	345	341	342	347	348	347	349	350	350	349	350	351	353	351	350	346	346	347	350	352	352	355	350	353	348	350	351	351	349	349	348	345	345	342	343	346	349	352	353	354	352	352	350	346	344	340	339	339	341	343	344	346	341	346	352	342	340	342	342	345	349	349	350	353	348	344	341	343	344	346	348	348	348	346	341	340	346	346	346	344	343	343	345	346	348	351	349	349	349	349	347	347	346	347	347	347	347	347	349	349	347	343	351	339	340	341	342	344	344	344	346	345	331	333	339	346	346	343	343	344	347	346	344	345	344	347	347	346	342	341	341	340	341	343	345	348	347	345	343	342	340	338	339	342	343	349	348	347	346	342	341	345	347	347	346	341	344	347	349	347	344	344	344	346	346	348	344	341	336	335	337	348	346	345	344	344	344	341	343	344	345	345	344	344	340	339	339	340	342	344	346	347	349	346	337	332	333	334	336	336	337	340	341	342	341	341	341	341	340	336	342	338	340	343	342	339	340	338	339	344	345	345	345	344	343	342	346	345	345	345	345	345	343	341	341	340	342	343	342	343	0	0	0	0	0	0	0	0
369	370	369	370	373	373	375	377	376	378	378	378	374	369	367	367	365	371	377	374	373	371	371	364	366	365	367	371	371	373	372	370	369	370	368	368	368	368	367	365	372	377	378	372	372	364	360	361	363	369	363	361	362	363	363	364	364	363	364	365	367	366	368	367	370	372	372	373	372	373	372	371	371	372	372	373	375	373	372	372	371	367	368	368	364	361	359	359	361	362	364	364	362	361	362	367	372	372	364	364	367	366	366	368	368	364	364	365	367	368	365	363	364	366	368	367	364	365	368	369	366	361	363	366	368	368	367	367	370	369	367	366	362	358	358	360	358	358	358	358	362	363	360	356	353	348	346	347	349	355	359	365	363	363	365	355	355	353	357	361	362	361	359	353	357	363	358	360	362	361	351	350	346	344	344	350	352	349	349	351	351	351	353	354	355	355	345	343	344	353	357	356	351	354	359	359	352	348	347	350	350	347	349	353	355	354	353	353	354	350	351	353	356	355	355	351	352	354	356	356	356	357	357	346	346	348	347	348	348	349	351	351	352	350	349	348	348	350	349	349	347	348	348	347	349	350	350	352	354	355	355	354	350	353	347	348	347	348	352	348	348	347	352	353	353	351	348	344	344	348	348	345	345	345	345	345	346	347	347	348	351	353	354	355	357	355	351	349	347	347	349	352	353	352	350	351	352	352	352	352	353	355	356	353	351	349	348	347	348	352	353	353	352	348	346	347	351	355	350	350	349	347	347	344	341	341	343	347	350	353	353	351	350	351	351	351	350	349	349	349	347	348	345	345	345	346	346	346	349	350	353	355	357	348	350	350	352	352	354	357	352	352	347	342	341	343	346	337	337	340	342	337	338	340	341	347	351	350	353	350	348	346	341	339	337	333	338	339	338	337	338	343	342	342	341	341	347	348	348	348	347	345	346	347	348	347	344	340	340	341	340	336	343	346	348	349	350	347	347	341	340	339	339	339	340	341	344	346	350	352	352	351	350	350	346	344	340	339	339	339	338	340	340	341	341	339	337	337	337	337	337	339	346	347	349	353	347	341	339	337	339	342	344	343	341	339	337	338	338	344	344	343	341	342	341	342	343	344	343	342	344	344	343	342	342	343	344	343	343	345	347	348	340	337	334	334	340	341	339	338	336	335	338	339	337	337	337	335	335	334	337	338	337	337	337	337	338	337	335	336	337	337	338	336	333	338	342	345	344	341	340	340	338	337	338	340	337	339	342	343	345	340	341	342	343	348	341	339	336	345	345	341	341	341	341	341	341	341	338	337	332	332	335	338	346	344	341	339	339	339	340	341	342	343	342	340	337	335	337	337	338	340	342	343	340	343	333	331	329	328	327	329	336	336	335	336	336	336	335	335	336	337	335	336	337	339	337	336	336	338	338	337	339	340	342	343	341	338	338	341	341	341	345	345	344	341	339	336	337	334	332	333	0	0	0	0	0	0	0	0
365	364	362	359	364	364	367	370	369	365	365	365	367	365	364	365	358	362	362	365	365	361	361	360	360	361	365	365	365	367	367	365	362	358	359	360	360	362	366	368	371	372	375	359	359	358	357	358	359	357	354	356	359	359	359	358	358	358	359	362	365	366	366	367	369	369	369	369	367	370	371	371	371	372	370	367	365	364	363	361	359	361	365	366	366	362	359	359	360	363	365	364	363	362	364	369	372	372	367	363	359	361	366	360	356	357	360	361	364	365	363	360	358	359	362	363	362	362	367	360	359	359	362	367	368	368	365	361	364	363	359	353	353	353	353	356	355	357	360	359	356	350	350	350	351	350	345	346	349	352	353	352	357	360	350	350	348	351	354	349	350	356	355	349	345	348	352	345	343	344	347	350	346	341	340	339	342	343	348	351	351	353	353	352	351	346	344	341	339	340	341	343	350	354	354	352	351	347	345	344	344	343	346	348	351	356	350	348	345	345	348	353	353	352	351	348	350	352	353	355	350	350	344	340	345	345	344	340	339	343	349	350	350	349	347	345	344	344	343	343	344	342	341	336	346	348	351	352	353	353	352	347	345	343	342	343	344	344	346	347	347	347	347	344	343	342	342	341	344	347	347	343	344	343	344	344	343	345	344	343	344	346	349	353	353	349	347	346	346	346	349	352	352	349	348	345	345	346	347	346	348	348	350	348	347	346	346	344	345	349	350	343	339	336	335	341	340	344	344	343	342	340	341	342	341	341	342	343	348	350	352	349	346	345	345	346	345	333	333	335	337	341	341	343	344	343	343	336	337	336	344	347	347	346	344	345	347	348	351	352	351	351	345	345	342	342	334	336	337	340	340	337	340	339	338	340	344	351	343	345	345	342	341	335	332	336	341	338	336	331	338	340	340	338	338	338	340	341	340	340	340	341	343	343	344	341	337	335	334	335	336	331	334	341	344	346	348	345	341	337	339	340	337	340	341	345	345	348	349	348	349	348	344	344	343	343	341	340	342	341	340	341	342	342	340	339	338	339	338	338	336	336	337	340	347	349	345	341	337	334	338	340	339	339	337	337	335	336	338	343	343	342	342	342	340	339	338	339	338	338	339	340	340	338	336	335	336	340	340	340	341	339	334	332	331	337	338	337	337	334	335	336	336	338	337	336	333	332	335	333	335	336	336	336	336	336	334	331	326	331	331	333	333	332	332	335	339	338	338	335	337	336	335	336	337	337	333	331	339	339	338	339	338	337	340	344	340	337	335	335	335	333	332	332	334	337	335	334	336	331	329	329	332	336	340	339	339	337	337	335	336	334	336	340	340	333	332	334	334	337	339	341	342	338	336	334	336	332	330	329	329	335	335	336	336	335	335	334	334	334	335	334	336	335	337	336	333	331	333	336	336	336	334	333	337	338	334	333	335	335	336	338	343	344	343	341	338	335	332	330	329	331	331	0	0	0	0	0	0	0
358	355	352	355	357	357	361	360	360	358	358	360	361	361	359	358	353	354	355	358	358	359	359	359	357	358	363	360	357	357	355	355	355	353	351	353	353	356	359	360	362	359	359	354	354	356	354	353	351	349	350	352	355	357	357	356	355	355	357	360	363	363	361	363	366	366	361	361	360	359	360	362	369	370	367	362	359	360	358	353	355	351	357	363	364	363	360	362	362	363	365	364	360	362	364	365	370	371	361	352	352	355	356	356	355	357	358	359	363	363	361	357	356	355	355	356	358	356	358	362	356	357	362	353	354	353	352	348	350	349	350	351	353	355	355	359	360	358	354	350	348	346	344	346	348	350	349	347	349	349	348	349	346	351	349	345	341	342	343	342	344	345	345	344	343	343	343	342	342	342	344	347	347	340	338	337	333	334	339	343	351	349	344	343	343	341	341	337	340	341	346	348	350	349	349	348	343	340	339	338	338	337	339	348	352	353	353	347	344	343	345	349	350	349	347	346	344	341	341	341	342	338	335	337	344	343	342	340	337	341	349	350	349	346	344	340	341	344	347	345	343	339	335	341	342	347	348	348	348	348	343	342	341	340	340	340	340	341	346	346	346	342	342	342	340	341	341	339	339	345	346	345	346	345	345	346	345	343	340	342	343	341	339	337	337	336	336	340	343	340	340	340	348	347	344	340	340	334	335	336	340	340	337	338	337	338	344	344	342	341	339	335	333	333	335	337	337	337	338	339	339	337	336	338	340	336	337	339	342	343	344	347	345	344	342	341	333	329	332	336	334	335	337	338	338	334	332	335	336	333	339	342	343	341	340	340	343	344	346	348	344	344	345	342	339	335	335	337	337	335	334	335	335	338	335	336	338	339	337	337	337	339	336	331	333	339	342	340	329	333	328	336	334	338	338	337	334	338	339	339	337	338	338	338	336	334	329	335	334	333	331	331	331	336	337	336	336	335	333	336	339	339	337	336	337	337	337	337	341	343	340	339	340	340	340	341	342	342	340	335	336	338	338	338	338	333	334	335	335	335	335	336	337	339	337	328	327	327	327	333	336	337	338	337	335	331	333	334	339	341	342	338	337	338	340	342	339	338	334	335	339	341	340	335	331	330	327	328	334	331	333	334	333	332	331	334	335	334	334	332	332	334	335	336	336	334	332	333	335	335	335	333	333	334	334	332	329	328	323	324	326	330	330	332	333	334	332	331	330	327	325	330	332	334	338	334	329	328	329	332	332	334	336	335	335	339	339	337	334	334	332	330	329	329	331	334	333	332	331	328	326	327	328	332	334	335	337	335	334	333	334	333	329	327	324	326	333	332	333	337	341	343	342	335	332	330	329	333	332	331	331	331	332	332	332	332	334	333	332	332	333	334	335	335	333	333	328	326	325	326	329	328	327	325	329	331	328	325	330	330	334	338	341	335	338	338	334	333	331	328	327	326	326	0	0	0	0	0	0	0
354	353	349	351	355	355	357	355	353	352	353	353	353	354	353	353	344	347	347	349	352	353	353	355	352	354	357	355	350	350	349	351	351	351	350	348	348	354	357	357	356	354	350	354	352	352	351	348	347	346	346	348	352	354	356	356	354	351	350	351	352	353	352	354	357	359	358	358	357	358	359	361	361	364	360	359	357	359	357	353	351	351	353	354	356	351	353	358	361	361	362	361	358	360	361	361	358	355	353	354	354	353	353	352	353	354	357	357	356	355	353	349	346	345	348	349	354	354	353	352	351	351	348	349	351	354	353	349	347	346	344	348	350	351	354	357	359	356	351	347	346	345	341	344	347	349	349	347	347	347	346	340	339	336	336	336	336	337	339	341	342	344	344	345	337	336	341	340	339	338	340	341	340	339	340	340	337	336	336	338	340	340	341	341	344	336	334	336	338	339	336	338	340	346	345	342	341	337	336	336	336	333	337	342	346	341	341	343	344	345	343	339	337	338	337	334	336	337	338	338	337	332	333	334	335	342	342	340	338	343	346	350	345	339	335	331	330	341	345	346	345	339	337	335	336	343	345	345	346	339	339	338	338	339	339	338	340	342	344	343	338	339	338	342	342	341	339	335	334	333	342	344	346	346	344	335	333	332	333	338	341	338	335	334	332	334	333	336	338	338	335	336	338	338	338	337	330	331	334	333	334	336	337	336	335	333	331	336	337	333	334	334	332	328	332	333	333	332	332	330	332	335	334	333	333	331	332	337	334	333	337	338	337	337	336	337	334	332	333	334	334	332	330	331	331	332	330	335	337	335	333	334	333	329	328	332	333	342	344	341	336	336	332	332	331	333	336	338	338	335	334	336	333	332	333	335	333	333	334	333	334	336	334	334	339	340	334	332	325	323	323	326	327	328	333	335	336	335	334	334	334	334	334	335	336	334	330	330	331	328	330	330	331	330	331	330	331	332	333	335	336	335	335	333	331	330	331	332	330	328	327	326	328	331	329	329	330	331	332	333	332	332	329	322	323	322	321	322	328	330	329	336	335	335	331	328	326	326	326	321	323	326	325	323	321	324	331	332	334	336	333	333	333	332	335	338	337	333	328	329	330	329	331	338	318	315	314	316	322	324	330	332	331	329	329	327	330	331	330	329	331	332	335	337	335	333	326	331	333	333	332	330	331	332	329	330	329	324	321	321	322	326	328	329	328	328	322	321	324	324	322	323	331	334	334	330	328	328	326	325	326	328	329	330	330	333	329	329	331	331	329	327	324	325	330	331	331	330	329	327	325	324	327	328	328	327	327	328	334	333	334	332	331	326	326	329	332	332	332	333	335	341	339	335	327	327	329	331	331	331	329	329	329	326	326	323	321	329	329	330	332	333	331	328	327	325	321	321	322	323	324	325	325	323	322	322	324	324	324	326	333	335	333	332	329	330	330	329	328	327	324	323	323	0	0	0	0	0	0	0
353	349	348	349	353	353	354	353	349	352	352	352	350	349	347	344	340	340	342	343	342	345	346	346	344	345	350	342	339	339	339	343	349	350	348	348	351	351	352	353	353	351	350	351	345	345	342	343	344	343	343	346	348	348	349	349	344	347	350	349	348	347	348	350	353	354	353	354	354	356	359	360	360	359	358	353	354	352	353	351	350	350	350	350	347	344	344	348	355	355	356	353	355	355	356	356	352	352	352	352	352	351	351	350	346	344	349	355	354	354	351	345	343	343	343	344	344	341	340	341	341	341	344	348	351	354	350	347	346	345	342	344	348	349	351	352	355	352	347	344	342	337	339	342	345	345	344	342	342	344	340	338	336	336	338	338	336	336	337	338	340	343	343	336	335	335	335	335	337	338	338	336	335	338	339	339	337	335	336	336	336	337	338	341	343	337	333	334	336	337	332	332	334	337	335	341	337	335	334	334	334	334	335	337	336	333	333	334	335	337	336	333	330	332	331	329	331	335	336	334	333	328	328	329	326	333	340	340	340	339	344	342	332	330	325	327	329	334	339	342	341	338	337	329	329	325	330	332	332	335	336	335	336	337	338	335	333	332	328	332	333	328	329	331	335	336	336	335	333	332	332	334	330	329	328	329	328	330	333	335	337	335	333	332	331	328	331	334	337	336	332	327	334	335	333	328	328	330	331	332	334	335	335	336	335	334	332	334	336	334	330	334	331	321	322	322	325	328	329	333	334	335	334	331	328	327	329	331	330	328	328	326	327	332	334	334	333	332	330	330	331	331	329	329	332	330	330	333	336	333	333	332	330	328	325	324	326	331	335	330	330	333	334	327	326	326	334	335	335	332	325	327	327	328	327	326	328	330	332	332	333	335	337	337	335	325	324	325	325	323	321	323	324	322	325	329	330	327	327	327	331	327	331	332	329	328	328	330	327	324	327	330	329	329	330	328	330	332	331	329	322	322	326	332	330	327	325	330	331	329	328	328	327	323	322	320	318	317	319	320	330	324	321	320	320	321	320	322	324	324	327	328	334	331	326	327	326	325	326	326	326	322	321	319	322	325	327	327	330	331	329	329	330	329	328	329	327	326	327	328	325	324	324	322	322	321	319	318	318	320	320	324	326	326	325	325	325	325	327	329	331	331	332	323	323	324	328	328	329	327	328	325	328	327	327	327	324	318	317	320	320	322	323	322	319	319	319	319	321	321	320	321	321	324	324	325	324	321	323	324	325	325	324	324	325	326	326	327	329	328	326	326	325	325	326	326	328	326	325	324	323	321	324	327	328	327	326	325	323	332	333	332	328	326	326	328	329	330	331	332	332	332	334	330	326	323	326	325	327	330	327	327	327	327	327	325	320	318	318	324	328	325	325	320	318	320	319	320	320	324	323	322	320	320	319	321	321	321	321	324	329	330	332	331	328	327	326	327	328	327	323	323	318	0	0	0	0	0	0	0
347	347	343	348	351	351	351	347	348	351	348	348	348	340	338	340	337	337	337	338	337	338	338	338	338	342	340	340	342	342	341	341	345	351	352	351	349	349	349	348	346	348	348	344	342	342	341	340	338	340	340	338	338	341	340	340	341	344	346	347	347	347	347	348	350	349	348	347	347	349	355	355	351	350	350	351	343	346	348	348	347	347	348	344	342	340	340	347	350	349	349	345	342	346	347	348	349	349	349	348	348	348	346	345	341	341	344	345	347	345	342	339	337	340	339	337	334	333	334	338	339	339	339	348	349	346	344	345	343	340	339	338	341	344	347	346	345	341	340	338	333	334	337	341	339	336	336	336	337	339	339	335	336	337	338	336	336	336	334	334	331	333	334	335	334	334	332	333	333	334	334	332	332	330	333	335	335	333	335	335	333	333	334	334	334	327	326	327	329	332	329	329	330	330	331	328	327	328	331	333	334	334	334	334	334	331	332	334	334	333	330	331	330	329	329	329	326	327	332	332	325	322	326	325	325	329	330	335	335	335	335	333	330	327	325	325	328	331	336	339	339	337	330	331	329	329	322	326	329	332	335	337	337	336	335	326	324	326	327	326	326	325	325	326	330	333	335	334	331	331	331	325	322	324	324	327	325	324	331	332	334	332	329	329	328	327	329	332	333	331	329	326	324	324	323	325	324	327	331	330	330	330	330	330	330	329	327	331	331	330	329	327	327	321	322	322	323	325	327	329	332	330	329	328	328	324	323	323	324	325	325	325	324	327	329	329	329	329	327	326	325	330	329	326	327	327	326	329	332	335	336	333	330	327	324	322	320	320	321	321	322	325	327	326	325	328	331	328	330	325	322	324	325	327	324	322	326	327	330	329	331	333	330	330	323	319	324	327	328	324	321	323	321	322	325	328	325	326	327	328	326	324	324	320	326	330	330	327	325	323	325	326	333	333	330	325	328	329	329	321	320	321	321	321	322	325	325	328	331	330	330	327	323	321	319	318	318	315	317	319	322	321	319	317	318	318	320	323	324	322	320	321	330	329	324	324	324	324	323	325	325	321	320	321	325	329	327	323	324	323	321	320	326	324	323	324	323	324	326	322	324	324	324	320	318	318	319	316	316	317	317	318	321	322	322	322	324	325	325	325	330	322	320	318	321	323	324	326	326	324	323	323	323	325	321	323	321	315	315	317	319	320	318	317	317	316	316	316	318	317	316	315	316	319	320	318	318	317	319	321	324	325	324	321	321	322	321	321	322	324	323	316	313	316	318	315	310	312	317	322	322	318	320	327	327	327	326	322	320	318	329	323	317	319	321	324	326	328	329	331	326	322	323	321	317	317	318	321	324	325	326	327	327	325	326	325	322	319	317	313	313	312	312	313	314	314	311	312	315	319	318	314	311	311	316	317	318	321	321	321	323	321	321	323	323	323	323	324	323	322	315	315	314	0	0	0	0	0	0	0
338	338	341	346	347	346	346	345	340	344	347	347	342	338	336	337	332	332	334	337	338	339	337	337	339	337	338	341	343	343	343	341	341	341	342	346	346	346	347	346	343	344	335	338	342	339	339	338	336	334	334	335	336	340	341	341	341	342	344	347	349	350	349	348	349	347	341	340	340	340	343	344	346	346	346	341	338	337	335	337	338	338	340	341	340	339	336	337	340	345	345	342	336	335	334	335	337	339	343	344	344	344	342	338	334	338	340	341	338	336	336	336	337	332	333	334	334	333	335	339	344	339	337	338	336	335	336	340	335	334	331	334	336	338	336	333	329	327	334	334	337	336	338	337	337	336	338	335	331	329	329	328	328	329	335	335	334	333	333	331	331	330	333	333	332	330	327	328	331	331	331	329	329	328	332	334	334	332	328	330	331	331	327	325	324	320	322	325	328	329	328	323	323	326	325	324	325	327	327	329	330	332	333	333	331	329	330	328	325	326	325	324	326	330	329	325	322	321	322	323	319	322	324	326	325	327	320	323	325	326	333	332	330	326	324	324	326	327	327	327	327	328	333	329	329	328	320	321	323	322	319	321	321	322	325	325	324	326	323	326	326	327	325	325	326	327	331	323	326	326	330	330	319	321	323	323	323	321	324	326	325	325	325	326	323	323	324	326	325	321	318	317	316	320	320	319	321	324	325	325	324	323	323	323	327	324	325	325	325	325	326	326	323	319	321	320	319	318	321	325	327	329	328	327	325	324	324	322	318	319	318	321	319	317	319	318	319	321	323	322	325	326	321	321	319	319	322	326	328	323	323	322	323	322	322	321	319	319	319	320	321	322	321	324	325	324	325	326	322	321	324	325	324	325	322	319	318	321	325	327	326	326	325	323	318	322	326	330	329	326	322	323	321	323	321	323	321	323	324	324	321	317	315	317	322	328	329	328	324	324	325	326	327	325	324	324	325	326	317	317	318	320	320	317	318	319	322	324	322	323	324	326	321	318	318	315	313	315	316	319	319	319	318	316	314	317	317	317	317	318	316	316	320	322	321	322	321	320	319	322	321	320	319	322	325	327	323	319	319	315	315	318	320	319	321	321	316	316	316	318	320	321	318	315	317	318	318	316	315	316	316	315	312	312	312	318	318	316	316	317	318	317	314	316	318	320	322	321	320	319	317	321	322	320	318	314	319	314	311	317	317	318	317	314	314	314	314	313	310	307	306	304	312	316	316	317	316	313	312	311	318	318	321	313	309	308	317	317	317	318	317	309	309	313	315	311	306	304	308	307	308	311	317	323	325	325	325	320	318	317	318	319	317	316	317	319	320	323	325	324	316	316	313	312	311	308	312	313	315	319	321	323	323	322	324	322	322	320	317	314	308	308	310	312	313	309	308	307	309	311	313	311	310	310	313	314	316	316	318	318	317	315	315	314	317	321	321	320	319	317	314	314	312	0	0	0	0	0	0	0
335	335	340	341	341	337	337	335	336	339	341	342	342	337	336	334	332	328	334	338	338	332	330	330	331	332	335	336	340	341	341	340	340	340	342	342	344	344	343	342	337	331	331	330	337	337	337	334	331	329	329	334	337	339	340	341	341	341	341	343	345	342	349	348	347	344	336	339	341	341	342	339	339	341	334	335	333	332	330	326	328	331	330	332	337	336	335	334	334	334	335	335	332	329	331	332	335	336	337	340	340	338	327	327	325	329	330	334	336	334	334	335	336	334	331	332	333	334	336	340	338	331	333	334	334	331	330	328	329	328	325	328	331	333	333	330	328	326	327	329	333	334	336	336	335	336	336	328	328	325	323	323	323	324	325	331	332	331	330	330	330	329	329	328	326	322	324	327	328	328	328	326	327	327	332	332	330	327	324	324	327	327	324	320	318	317	318	321	326	328	324	319	321	322	323	325	325	325	325	328	322	322	322	322	328	329	328	323	319	320	320	322	322	324	332	331	328	321	322	324	321	322	320	320	324	322	320	317	316	318	325	330	330	325	323	319	319	319	319	320	322	322	322	321	327	317	316	318	316	323	320	315	315	315	319	319	319	319	320	321	325	326	324	322	322	321	322	322	323	321	321	318	318	318	319	320	320	319	322	323	319	316	315	318	320	320	321	321	316	314	314	314	316	318	319	319	319	320	315	320	316	317	316	316	318	319	320	319	319	321	322	322	320	318	314	312	313	314	317	319	322	324	324	324	322	318	318	315	312	313	317	312	317	317	317	314	319	319	319	320	322	324	321	318	316	314	316	317	319	319	320	321	322	323	323	323	324	319	318	321	320	321	320	320	317	317	319	315	314	313	321	323	324	319	315	314	316	315	314	310	313	314	314	315	317	321	326	329	325	323	320	320	318	317	321	320	320	321	322	321	318	316	313	313	317	325	327	325	321	323	322	322	320	320	317	319	321	313	312	313	317	319	319	317	317	317	317	319	320	319	318	316	313	315	315	313	313	313	313	313	316	318	315	314	315	316	316	316	315	315	313	312	312	312	314	319	318	316	315	315	318	317	319	315	320	321	317	315	313	313	314	314	316	315	316	316	312	312	312	313	314	314	313	309	310	313	312	311	309	308	307	306	304	304	310	314	314	315	315	314	314	311	311	313	315	317	316	315	315	316	314	313	321	318	316	312	311	311	308	311	313	315	314	312	311	308	304	302	302	305	310	306	304	305	306	308	310	309	310	310	312	314	312	310	308	307	307	308	315	315	311	307	307	307	307	305	304	303	304	304	304	304	312	310	311	313	314	315	315	314	315	318	317	315	311	311	319	320	322	314	313	312	312	310	310	308	306	308	306	306	313	313	315	311	311	312	317	317	315	314	309	309	307	311	310	308	306	306	309	311	313	311	308	309	310	312	313	313	313	320	314	311	311	309	309	311	319	319	317	315	315	312	311	0	0	0	0	0	0	0
329	329	334	334	333	332	332	331	332	336	337	337	337	336	333	331	328	331	335	335	333	330	332	332	332	332	330	332	334	337	337	340	340	340	341	340	340	332	332	327	328	329	330	329	331	331	331	329	329	328	329	330	335	339	339	338	338	338	340	336	336	337	338	347	345	338	335	338	339	339	339	336	334	333	334	330	330	325	323	325	329	331	330	328	329	332	334	333	332	330	328	328	328	326	328	329	330	331	333	334	331	324	324	325	327	328	330	330	329	329	330	332	332	331	330	329	330	331	326	327	327	327	328	331	330	330	325	324	322	321	320	323	326	327	327	327	326	325	324	326	330	328	324	322	322	322	319	317	325	322	322	321	319	321	321	324	328	328	328	329	325	324	324	322	320	320	323	323	320	319	320	324	325	325	329	328	325	321	319	320	322	325	322	317	316	314	314	316	315	319	319	319	319	323	325	325	324	324	325	321	320	321	321	320	320	320	323	319	316	316	316	320	323	327	329	328	326	327	327	318	323	320	320	320	322	320	316	313	314	316	319	321	321	317	316	317	315	316	317	322	322	319	319	319	320	314	314	313	314	321	317	312	313	313	314	313	316	316	312	318	321	322	320	320	319	316	317	319	320	319	318	317	317	317	317	313	312	311	311	315	315	312	312	313	310	311	310	312	311	309	311	315	315	316	315	316	316	315	314	314	314	314	312	312	311	316	316	316	316	316	318	319	315	312	311	313	311	311	314	313	312	314	313	311	309	309	313	314	315	313	311	309	310	311	313	310	317	319	315	313	312	315	316	312	311	306	309	314	316	317	315	315	317	313	320	322	319	317	320	318	318	314	315	316	315	314	313	310	310	315	318	318	316	310	307	305	305	307	307	309	309	310	311	310	314	318	321	323	321	315	316	317	314	311	318	318	317	318	320	318	318	316	310	309	319	319	324	316	317	316	318	317	317	316	314	314	315	311	311	311	312	318	317	311	309	313	313	316	317	317	314	314	312	314	316	314	311	310	309	311	312	313	312	312	314	317	317	318	316	314	310	309	310	312	312	313	318	315	314	314	314	315	316	315	314	310	309	310	311	311	312	299	300	300	305	310	309	309	309	310	311	308	305	304	305	309	308	308	308	307	308	305	302	303	306	310	314	313	314	313	312	311	309	310	311	312	311	311	304	305	304	306	312	309	310	311	310	311	312	309	308	309	308	307	305	304	303	304	304	309	309	308	305	304	306	306	308	306	307	311	307	312	309	308	306	305	305	307	308	312	310	306	303	303	303	303	303	303	304	303	301	300	304	303	305	305	303	306	304	305	309	313	314	314	307	311	314	313	308	308	311	313	314	310	308	306	304	303	305	307	307	310	311	309	308	308	314	316	311	309	308	307	307	307	302	299	299	306	309	312	312	311	307	307	306	309	309	311	312	311	312	312	310	308	306	306	307	307	307	306	306	308	309	0	0	0	0	0	0	0
322	325	325	326	327	328	322	322	323	328	328	330	330	333	331	329	331	330	330	329	328	327	331	333	333	333	333	334	333	337	337	337	340	340	337	332	329	324	324	325	326	328	329	328	328	328	328	328	327	326	327	332	336	335	333	330	329	329	331	332	333	334	334	334	333	331	329	332	335	334	334	331	326	327	328	326	323	322	323	325	330	328	327	327	327	327	324	322	322	320	324	324	324	324	324	325	325	328	331	330	321	322	322	323	324	326	327	327	328	325	324	325	326	325	323	321	322	323	324	323	322	323	324	326	326	325	322	315	319	318	315	318	321	322	323	323	323	324	322	326	326	326	322	321	318	319	316	315	315	318	319	318	317	316	316	318	325	324	326	325	321	318	319	319	319	317	316	317	314	313	317	321	320	318	325	321	319	317	315	315	314	308	311	310	312	311	310	315	315	315	316	318	317	317	323	323	323	322	320	319	318	319	319	318	315	315	316	315	313	312	315	314	313	313	313	313	318	320	317	320	321	318	319	318	314	312	313	312	312	312	311	316	316	318	317	316	314	314	315	315	323	318	316	315	315	314	314	313	310	309	309	309	309	308	309	311	313	312	307	314	316	318	319	318	316	314	312	316	318	318	316	313	312	307	308	309	311	313	312	311	312	313	313	311	310	309	308	308	307	306	310	313	313	315	315	313	314	313	306	306	311	311	310	310	309	311	310	309	310	310	309	304	310	310	309	312	310	310	309	311	311	311	309	304	308	308	311	314	315	307	310	310	307	303	310	308	308	309	311	310	311	311	311	308	305	304	307	310	311	312	312	313	314	312	313	311	311	312	310	309	310	311	308	309	311	310	309	306	305	314	316	317	315	308	305	304	305	306	307	308	308	309	309	310	313	314	315	315	313	312	310	314	307	307	307	312	313	316	317	315	316	309	309	309	315	317	316	310	312	313	314	315	314	313	312	311	310	311	310	312	314	309	310	306	303	307	306	307	311	312	309	312	312	313	314	313	310	309	309	311	311	309	309	310	310	311	310	311	309	307	307	308	310	312	311	312	311	314	316	313	313	313	312	311	308	303	304	305	308	307	304	305	305	304	302	303	306	306	306	304	305	304	303	303	303	304	305	305	306	308	306	304	304	304	306	306	310	314	312	305	303	303	301	301	300	299	302	303	303	304	304	304	305	303	303	300	305	311	313	311	308	305	304	304	303	303	302	302	303	303	308	308	303	302	303	304	303	303	303	305	303	304	303	303	302	301	296	300	299	301	301	301	297	295	295	296	296	296	304	304	303	298	304	300	301	302	303	303	301	297	300	302	309	306	304	305	306	303	302	304	306	309	310	302	302	300	301	302	302	304	306	306	308	306	306	309	309	308	307	307	306	306	307	304	298	298	300	300	297	299	304	304	304	303	304	304	304	307	310	309	309	308	308	307	304	304	304	304	303	301	301	301	305	0	0	0	0	0	0	0
318	319	319	320	319	318	317	317	319	322	325	328	328	330	329	328	329	321	321	321	322	322	324	329	329	333	332	335	335	334	334	334	331	329	324	325	325	323	323	323	326	325	327	326	326	325	324	324	324	324	327	331	328	325	323	325	327	327	329	327	328	329	329	329	330	328	328	330	330	330	330	330	324	320	318	321	322	321	324	326	329	327	323	324	322	320	319	318	316	311	311	319	320	320	321	320	319	319	319	317	318	319	320	322	323	324	325	324	323	324	320	318	316	313	314	312	318	320	322	321	320	320	320	320	322	320	314	312	311	313	313	314	317	317	319	321	320	321	321	321	323	322	320	318	318	317	315	313	313	316	316	317	316	316	316	318	319	321	319	314	313	313	313	314	313	313	314	313	311	311	313	312	312	314	319	313	313	315	312	311	311	307	306	307	308	309	312	312	314	316	315	316	314	312	312	313	319	317	317	315	316	316	313	312	312	310	305	307	308	307	308	308	307	308	310	310	309	311	313	314	314	316	316	315	311	310	309	310	310	312	314	314	314	312	311	315	312	312	313	318	309	315	312	312	313	312	313	312	309	307	306	306	305	305	308	309	311	305	307	309	311	316	318	321	319	312	309	311	315	316	311	308	304	305	308	307	309	310	308	312	311	312	311	309	310	312	314	310	307	305	307	306	309	308	312	309	307	304	302	305	309	306	306	308	311	311	304	299	306	306	305	302	305	308	309	307	308	308	307	307	305	304	301	303	308	310	309	310	307	306	305	305	305	299	302	308	311	310	309	308	304	304	304	307	305	304	308	309	307	304	302	311	313	312	304	308	305	304	305	300	302	305	307	304	307	308	307	303	308	310	309	307	305	304	303	307	310	305	306	305	304	301	304	303	307	310	312	311	309	305	304	304	306	306	308	309	308	308	307	308	308	307	308	308	309	311	309	309	310	312	312	310	309	305	307	309	309	309	311	313	314	310	308	305	305	303	300	302	304	303	305	307	310	304	304	306	306	305	305	305	301	305	307	306	308	310	311	304	302	307	308	308	306	306	304	304	303	309	310	309	310	311	309	307	304	302	303	305	306	306	305	302	304	304	302	304	302	305	304	304	302	299	301	301	302	302	304	303	304	307	306	305	303	303	304	305	306	304	296	298	299	301	295	294	295	295	295	297	299	302	303	306	304	301	300	300	295	296	302	310	306	304	303	303	301	300	299	300	301	302	301	300	302	301	297	295	296	299	299	301	302	301	300	301	300	299	294	300	299	298	299	299	297	295	293	294	294	294	299	301	301	299	301	301	305	300	300	299	294	296	299	301	305	301	299	298	301	300	301	302	304	306	304	300	298	298	298	298	298	299	304	304	305	302	304	309	309	307	304	304	305	306	304	297	296	298	300	302	300	298	299	300	303	301	301	301	303	305	306	308	304	302	299	298	302	305	304	305	304	304	303	302	300	0	0	0	0	0	0	0
314	316	316	319	318	316	315	315	315	320	323	326	328	328	327	325	324	315	315	315	316	318	318	323	323	328	331	332	333	333	331	331	327	319	322	325	326	326	321	321	324	320	323	324	323	323	322	322	319	323	331	331	329	323	318	315	317	317	319	321	322	323	324	323	323	327	329	329	330	330	327	325	321	317	316	316	319	319	323	325	326	325	321	320	320	318	317	317	316	314	312	315	317	318	318	318	317	315	314	312	315	318	319	320	318	318	318	322	322	320	317	313	310	305	311	311	309	314	316	319	317	317	317	317	316	316	315	312	310	311	312	312	313	311	310	311	315	315	316	315	310	310	316	317	317	316	315	314	313	315	315	314	313	314	315	318	316	312	310	309	309	311	313	314	311	312	312	310	308	307	307	305	309	310	313	310	313	315	314	311	307	304	302	305	307	307	309	308	309	313	314	314	313	311	310	307	310	307	308	311	309	305	306	307	306	304	306	306	305	307	308	306	303	303	306	307	308	312	314	314	312	312	311	309	306	305	309	309	312	314	310	308	308	305	303	308	309	313	309	307	306	306	309	307	309	308	306	307	306	304	302	303	303	302	304	302	296	297	306	309	311	312	313	312	319	309	307	307	307	307	304	302	304	304	305	306	308	307	309	306	305	307	308	309	310	312	308	307	302	302	303	304	302	305	305	306	306	306	300	307	307	305	303	308	309	305	304	301	298	299	302	301	302	304	305	305	307	307	305	305	305	303	304	305	307	310	308	307	304	303	301	300	295	295	302	310	308	302	298	297	301	299	299	301	299	300	303	305	306	303	303	300	304	305	304	301	299	299	301	301	301	303	303	300	299	303	305	301	302	305	306	305	304	303	305	309	310	312	305	304	301	302	304	304	308	306	305	307	305	302	300	303	302	302	306	307	307	307	305	306	306	306	307	308	307	306	297	298	309	310	303	301	300	301	301	301	299	300	303	310	310	309	309	300	294	298	297	295	296	302	304	303	302	303	303	304	303	303	303	303	300	301	299	299	305	305	305	299	299	301	309	303	300	298	297	302	301	299	300	306	307	308	306	302	300	301	297	297	301	303	303	303	302	301	302	301	300	304	304	303	299	295	295	303	303	303	302	303	302	304	304	300	297	294	298	301	302	303	303	301	301	300	299	293	293	293	293	294	297	299	299	304	303	300	298	295	295	294	298	300	302	303	302	301	298	295	294	292	293	296	297	300	300	301	299	295	295	297	299	298	298	298	297	292	297	296	290	296	296	296	298	301	298	296	294	291	291	295	295	295	296	297	298	299	304	298	294	294	296	291	290	299	298	296	295	295	298	298	298	298	297	302	301	298	296	297	297	298	298	298	297	296	294	293	292	297	308	306	303	304	303	304	300	296	294	297	299	300	300	300	301	302	303	301	299	299	300	300	304	304	304	301	299	298	301	303	303	304	303	303	302	301	300	0	0	0	0	0	0	0
311	313	313	316	317	316	314	314	315	317	321	324	325	325	324	322	319	307	305	305	305	312	314	317	324	324	325	320	321	328	325	325	317	317	323	327	330	325	321	321	318	316	318	321	321	319	318	316	316	320	325	327	325	320	319	321	322	319	319	319	319	320	320	322	323	323	324	324	328	328	316	316	316	315	314	315	319	317	317	321	324	322	320	319	317	315	317	317	317	315	313	312	312	315	315	315	314	312	311	311	315	318	318	318	318	317	316	313	316	318	312	308	308	304	309	306	307	310	312	315	315	317	316	316	312	311	304	302	309	311	311	311	311	307	309	307	307	312	314	311	308	307	308	308	309	315	315	314	315	314	312	311	309	309	310	313	309	306	305	304	307	311	310	309	309	310	310	308	305	302	302	301	305	309	305	307	305	307	307	306	306	304	304	305	302	305	303	304	305	306	307	309	312	310	307	307	305	303	302	304	306	304	302	306	304	304	307	306	304	305	305	305	301	297	303	304	305	308	309	310	309	310	309	306	305	303	306	308	306	307	306	304	300	299	299	298	299	302	302	304	303	301	301	304	299	299	301	299	297	299	297	295	297	297	300	300	298	299	299	299	300	302	303	304	303	305	306	305	304	303	303	304	304	305	305	308	301	302	307	306	304	302	304	307	306	305	298	298	297	297	298	299	293	290	290	291	294	301	307	306	304	302	303	306	299	300	299	302	301	301	301	302	300	302	303	303	304	301	299	301	301	303	302	302	303	300	304	303	303	303	304	299	297	296	301	300	293	291	292	292	295	298	295	297	297	298	297	295	296	291	295	296	300	302	297	296	296	296	297	301	297	295	296	299	301	301	299	298	299	302	303	304	303	303	304	306	308	302	302	302	300	299	300	301	300	300	300	301	302	302	301	299	302	302	299	300	302	301	303	303	303	306	307	305	302	300	296	297	299	306	305	301	297	299	301	299	297	299	300	301	302	300	296	295	294	295	294	295	297	300	301	300	302	302	303	303	301	302	298	297	299	298	297	296	295	296	296	299	299	298	296	299	296	294	294	296	299	298	298	300	304	296	297	300	298	296	295	287	290	300	300	302	302	301	300	299	298	299	301	300	297	298	298	298	301	296	297	298	297	295	294	293	292	293	295	295	294	295	297	300	298	297	296	293	293	294	296	296	294	294	294	298	300	299	297	295	291	290	295	297	292	292	291	289	289	289	289	288	292	294	296	296	290	290	296	298	297	293	291	297	297	294	291	285	285	290	289	295	296	296	300	301	300	295	292	291	290	292	293	294	295	295	296	298	299	296	297	296	296	295	291	291	296	296	295	297	294	292	294	297	296	293	291	293	293	293	295	295	294	293	292	292	292	291	290	290	296	298	302	302	301	301	299	295	295	297	297	298	297	293	292	293	302	304	302	302	298	296	294	299	299	297	298	290	298	299	301	299	299	300	299	298	296	0	0	0	0	0	0	0
311	312	315	315	315	314	315	316	316	317	318	321	320	320	320	320	314	309	308	308	308	312	316	316	315	315	316	316	314	315	313	314	314	315	320	323	325	320	319	319	317	316	316	316	316	315	315	315	315	318	321	322	323	320	321	322	322	322	322	320	319	317	316	319	318	319	317	317	318	314	313	313	313	312	313	314	317	315	311	312	314	318	318	317	316	314	313	315	315	313	310	308	309	313	312	310	310	309	310	308	306	305	304	309	317	317	315	313	308	309	308	307	307	308	305	304	305	308	311	313	314	315	316	314	310	308	304	304	304	308	310	309	312	310	308	306	311	313	310	308	307	306	306	306	306	309	315	312	311	310	301	304	306	305	307	308	309	308	305	303	305	307	307	306	306	307	307	307	303	302	302	301	300	300	302	304	304	304	304	302	302	304	304	301	302	298	301	301	303	304	304	305	305	304	301	303	301	300	303	304	304	303	303	302	302	302	301	299	296	296	301	301	300	296	302	303	303	306	303	307	302	303	304	303	303	303	306	306	305	303	302	299	297	297	297	298	299	300	302	302	303	302	301	300	297	298	296	297	296	295	296	298	299	300	302	300	298	298	294	296	295	298	298	299	300	298	299	298	299	298	303	300	297	297	296	300	301	301	302	305	302	301	297	298	298	299	297	297	297	294	295	299	299	296	293	293	287	293	300	304	298	297	297	296	296	296	294	298	300	301	302	300	296	301	296	299	299	298	299	299	300	301	300	297	299	299	299	298	299	300	305	303	301	300	294	298	294	288	287	290	294	298	299	299	300	297	295	295	291	291	293	296	296	297	293	291	290	295	298	297	294	293	292	293	294	300	301	296	296	297	299	297	297	300	301	304	300	301	300	300	296	294	294	294	297	296	295	295	293	295	298	298	299	301	304	303	304	301	300	306	306	302	301	301	301	299	298	300	298	299	297	297	297	298	296	296	295	297	298	297	297	295	294	295	294	293	292	293	295	295	297	297	300	303	304	302	299	291	291	292	295	294	293	293	294	294	297	298	297	296	295	296	297	294	293	294	297	296	298	292	290	289	288	289	290	289	288	288	288	289	289	293	293	296	298	300	296	297	296	296	297	299	298	297	294	293	294	294	294	292	293	294	291	290	291	291	291	291	292	294	295	294	292	293	295	296	294	293	293	292	292	293	297	297	295	286	286	286	286	290	291	291	287	286	287	288	287	287	288	291	293	292	286	292	295	296	294	286	287	288	292	292	289	285	284	285	287	297	297	296	296	297	293	293	293	288	286	287	291	293	293	294	296	295	295	295	296	295	294	292	289	290	294	295	295	289	288	290	296	297	296	293	293	292	291	290	289	287	287	286	288	289	290	289	287	289	290	293	294	301	301	297	293	294	295	295	295	294	291	289	290	290	290	289	289	292	290	288	288	294	297	296	292	290	295	291	299	300	300	298	295	293	293	0	0	0	0	0	0	0
312	314	313	313	313	312	315	318	318	318	318	317	319	319	313	313	311	309	307	307	307	313	313	310	311	311	312	310	307	304	304	304	304	305	308	309	313	318	318	317	315	315	314	314	317	317	316	314	314	314	316	318	320	319	321	320	314	310	309	309	311	314	314	316	316	316	315	317	317	310	309	310	310	305	305	308	311	313	312	313	314	315	315	315	314	311	307	311	313	312	310	309	309	310	312	311	311	306	305	303	303	302	302	300	308	312	312	310	308	308	308	309	306	305	304	303	304	306	309	312	311	311	309	303	301	301	302	298	298	297	297	297	298	301	303	303	303	304	302	300	298	295	295	301	302	303	305	305	304	301	297	300	299	303	304	307	310	309	306	305	303	307	307	304	303	305	306	305	303	301	301	299	297	299	300	300	299	302	299	299	297	299	299	297	295	294	295	299	303	303	303	302	301	300	300	299	297	296	295	299	299	296	299	299	299	300	303	303	294	294	299	298	292	294	298	301	302	296	294	299	301	300	300	301	299	300	303	303	302	301	298	297	295	296	297	299	299	297	297	302	301	301	301	300	294	295	297	299	297	297	299	299	302	301	298	294	291	290	290	291	294	294	294	296	296	298	295	294	294	292	292	292	292	296	295	296	298	298	297	295	297	295	298	297	297	296	295	294	296	295	295	299	299	298	295	294	289	292	297	299	294	293	291	295	292	290	290	293	298	300	301	299	294	289	295	296	296	297	297	298	300	299	296	295	297	297	295	296	297	296	301	304	302	293	292	292	294	289	286	289	294	297	298	299	296	294	296	295	291	289	291	293	294	293	294	293	291	292	293	292	294	290	290	290	291	294	295	293	293	293	295	291	294	296	295	292	293	295	297	295	294	292	292	294	293	292	291	289	292	293	298	297	296	296	302	305	305	300	300	301	298	298	297	302	298	297	296	294	295	294	292	296	294	291	294	294	295	293	295	286	283	291	292	294	294	290	289	292	291	292	293	295	295	294	295	296	296	290	289	290	289	290	290	291	290	294	296	297	296	292	293	294	295	293	292	293	290	292	292	288	287	286	288	290	291	291	289	286	284	285	287	287	290	295	296	299	292	293	294	294	292	295	296	294	291	291	292	292	290	290	289	290	286	283	284	290	289	289	290	291	291	290	291	293	294	294	292	292	291	289	289	287	284	283	280	279	281	284	286	289	291	287	285	285	286	287	287	287	286	288	287	285	286	286	291	293	290	285	282	286	291	290	289	285	285	290	291	287	284	283	288	292	291	288	282	278	283	284	283	287	293	292	287	291	292	294	294	292	292	288	282	288	290	293	289	285	289	287	287	290	291	293	293	292	292	290	287	285	286	287	288	289	289	290	287	288	288	287	286	288	293	293	293	291	293	294	293	290	288	288	287	287	287	288	288	288	287	287	286	288	294	295	295	290	289	295	296	295	295	291	290	288	288	0	0	0	0	0	0	0
312	312	309	309	308	310	314	318	318	316	312	316	314	310	310	310	309	309	309	309	306	310	309	306	306	306	306	304	302	304	305	304	304	304	304	306	312	315	316	315	312	310	308	313	315	316	314	313	309	309	314	316	316	317	315	306	303	306	307	307	310	312	313	313	312	312	315	314	303	303	306	306	306	304	305	303	301	301	308	309	313	313	312	312	310	302	305	309	310	311	312	310	309	308	306	306	303	303	303	301	302	303	303	304	306	305	306	306	306	307	309	308	304	301	300	300	301	303	306	308	300	300	300	301	298	298	298	298	297	296	296	296	299	301	302	303	302	302	300	298	296	293	288	291	298	300	302	302	303	299	298	297	299	301	303	305	298	300	301	300	300	304	305	306	303	301	303	303	302	300	295	295	293	298	299	300	300	296	295	293	295	297	297	297	294	293	294	300	301	300	299	299	298	291	291	291	291	290	290	294	295	294	297	298	298	299	299	299	295	293	292	292	292	295	295	291	291	290	296	297	298	300	298	295	297	298	299	299	301	299	297	294	293	294	297	298	295	292	293	297	295	294	293	291	292	294	296	298	298	296	294	295	297	295	295	291	288	288	290	291	292	293	293	294	291	294	294	293	290	290	290	291	292	292	293	293	295	294	295	293	293	293	295	296	295	295	294	293	293	294	295	295	296	299	294	294	286	287	290	292	293	290	289	288	288	287	289	292	298	299	295	295	287	286	296	297	297	298	300	300	298	295	292	293	291	295	294	297	297	295	290	296	294	293	290	290	292	292	287	288	290	294	296	293	291	294	294	290	283	287	289	290	291	291	292	293	291	286	284	282	284	288	288	288	288	286	284	286	287	293	293	293	292	292	291	290	290	291	294	293	291	291	289	290	290	290	287	289	290	289	293	294	293	293	293	293	293	294	294	295	293	292	290	296	294	295	295	294	289	290	288	291	288	290	291	287	287	285	281	283	285	286	292	292	292	291	291	290	290	290	291	292	290	291	294	295	294	291	289	287	290	291	292	286	289	291	292	294	291	290	292	293	294	292	289	289	289	291	290	289	288	288	288	288	289	287	286	284	283	284	285	285	286	286	288	289	290	291	292	292	290	291	292	291	289	288	288	287	286	286	287	286	284	285	285	289	293	295	290	291	288	284	282	281	283	281	280	284	284	284	286	286	284	282	280	279	278	282	285	290	291	289	284	284	285	286	287	285	284	284	284	286	285	285	287	290	289	284	282	281	289	289	287	286	286	286	285	284	281	280	281	283	282	278	277	277	281	280	279	280	283	283	284	286	289	291	292	291	290	284	283	285	287	288	285	284	280	277	278	277	286	285	283	285	286	286	284	283	285	286	288	288	286	287	288	288	288	287	287	286	287	288	288	287	287	288	289	284	281	285	285	284	286	286	285	284	280	285	285	285	290	295	290	288	292	292	286	286	288	288	287	285	285	0	0	0	0	0	0	0
305	302	303	303	301	297	303	308	307	307	307	316	310	307	307	306	305	306	306	304	304	305	306	304	303	302	302	300	304	304	304	302	301	301	300	301	307	312	312	312	307	303	303	309	309	308	306	305	301	301	302	303	304	308	308	307	306	307	309	309	310	312	311	309	308	308	308	304	301	299	298	298	299	299	301	298	297	299	301	302	301	309	311	307	301	298	298	303	304	305	305	303	304	301	303	301	298	297	297	302	304	302	301	305	306	306	303	303	304	304	305	306	304	301	298	298	295	294	294	299	299	300	300	298	294	296	297	297	296	296	295	298	297	293	297	301	301	300	299	297	294	291	286	287	290	292	297	300	298	290	291	295	296	298	298	297	296	297	298	299	298	295	296	298	296	293	299	300	297	295	290	290	295	297	296	298	293	292	291	291	292	294	294	293	294	295	295	296	298	297	294	292	292	288	290	289	289	287	290	289	289	290	294	297	298	299	299	297	291	292	291	288	294	293	293	289	288	288	293	294	294	297	296	294	291	284	283	296	295	297	296	294	293	294	296	296	294	289	290	289	286	290	292	291	292	293	296	297	292	293	294	291	285	283	291	287	286	289	289	290	291	291	291	290	289	289	291	292	290	286	287	289	290	289	287	286	285	283	287	294	292	294	296	295	298	295	292	292	291	293	294	295	295	294	292	288	286	285	287	288	290	290	290	289	288	284	285	296	297	296	292	290	285	284	286	296	295	293	290	288	286	283	285	286	291	291	290	289	289	287	288	286	287	288	289	290	292	291	293	288	284	285	284	284	291	291	289	285	280	284	287	287	285	285	286	289	287	283	282	283	282	285	285	287	287	279	282	287	287	290	295	295	293	293	294	293	291	295	292	290	290	290	288	286	287	287	286	289	289	290	287	287	287	288	290	291	290	290	291	292	291	286	285	284	287	291	295	293	287	288	287	289	287	286	287	286	280	281	282	282	283	286	290	290	290	288	289	287	288	288	289	289	290	290	291	293	293	288	287	288	290	291	291	288	286	285	284	290	288	288	289	284	284	285	285	286	288	291	290	288	287	287	287	286	287	284	284	285	285	285	284	285	283	284	285	285	288	290	292	292	288	287	288	288	284	285	287	287	285	285	284	285	286	285	288	289	293	293	288	288	287	286	284	283	279	281	281	282	286	287	281	284	283	281	279	279	279	279	278	279	280	286	287	287	283	282	283	285	280	279	275	273	281	285	283	280	279	279	283	283	287	288	287	286	285	283	284	282	278	277	277	280	279	275	280	277	280	277	277	278	281	283	283	285	288	291	291	290	287	283	286	288	286	285	283	280	276	277	276	277	281	283	282	278	278	284	283	283	283	285	283	282	283	284	286	287	286	285	285	284	284	285	284	282	282	283	285	278	279	279	279	287	286	286	283	281	277	282	284	284	287	288	285	278	287	281	283	283	284	283	282	280	282	0	0	0	0	0	0	0
295	293	292	292	292	292	296	300	304	304	311	305	302	297	297	297	298	303	301	301	301	301	302	302	301	299	299	300	303	301	302	299	299	299	298	299	300	306	309	307	300	300	298	303	304	306	304	301	296	296	296	296	300	307	308	307	306	306	308	310	310	308	304	299	297	299	301	297	296	296	296	297	298	298	299	295	295	296	296	294	294	297	301	301	300	296	295	296	296	298	297	299	300	298	297	297	297	294	290	290	290	288	292	295	298	304	302	298	301	301	299	302	302	300	297	294	290	289	292	291	294	296	299	289	287	286	287	289	290	291	293	297	296	292	287	297	298	297	296	295	293	285	285	286	289	290	293	294	284	287	290	291	291	292	295	295	294	295	296	296	294	294	294	295	295	291	291	291	291	291	290	290	290	291	292	292	292	291	289	287	290	289	291	292	294	295	294	296	295	294	293	292	291	286	290	287	284	282	284	291	292	286	288	293	295	292	292	292	292	291	290	292	293	292	290	287	286	287	291	293	294	292	293	290	288	284	281	281	280	295	296	295	295	292	290	288	288	286	286	289	289	292	291	290	290	292	293	288	289	288	287	288	290	285	282	286	287	287	289	289	286	289	287	286	287	285	285	285	284	283	283	284	287	287	283	283	284	281	281	276	279	290	289	292	293	295	295	294	293	292	293	292	292	290	292	286	285	281	279	284	291	290	290	290	289	287	286	286	287	286	285	284	284	283	285	292	288	286	288	286	286	285	287	286	289	288	286	286	285	287	287	287	287	288	289	289	287	284	285	285	284	289	286	288	288	288	285	281	283	278	283	284	289	288	286	280	279	282	282	281	282	284	286	293	291	290	283	281	287	284	285	285	289	288	287	283	284	284	289	289	288	288	285	285	284	285	286	283	289	288	286	285	286	288	289	289	288	287	286	285	284	281	283	284	285	288	287	286	281	282	282	289	288	291	286	283	282	282	282	281	281	287	290	290	288	285	283	281	284	287	287	288	287	291	290	291	290	287	286	287	286	286	286	286	290	287	283	282	282	284	284	284	284	284	284	285	283	287	288	285	285	285	283	273	273	276	277	283	283	283	285	284	282	279	280	281	282	284	285	284	282	281	281	285	281	283	284	284	283	281	282	287	287	285	284	286	291	292	285	279	274	276	278	275	277	279	280	283	284	283	282	281	280	278	277	278	278	277	277	277	278	281	282	281	279	277	276	276	276	276	274	273	274	280	279	279	278	280	283	285	285	285	286	285	281	281	279	279	277	272	276	276	275	274	273	276	278	277	277	277	278	281	281	282	283	280	276	279	278	286	286	282	283	284	283	280	272	271	273	275	275	274	274	274	274	274	276	281	281	279	280	279	280	281	280	281	282	283	283	283	284	285	284	281	280	278	274	277	277	278	278	279	279	280	280	278	277	277	276	276	276	276	276	277	275	278	278	280	282	281	279	278	278	0	0	0	0	0	0	0
291	291	291	290	290	291	295	296	297	297	294	295	292	291	291	290	292	298	299	300	300	299	298	296	298	299	299	302	303	302	299	299	297	297	297	297	298	302	304	301	298	298	295	295	301	300	298	295	291	292	292	295	299	302	304	307	304	303	303	303	303	303	301	298	296	297	297	293	292	292	292	293	298	296	296	293	291	292	291	291	293	291	293	297	296	295	293	294	294	293	294	296	292	293	291	294	293	292	290	288	288	287	288	292	291	291	293	296	293	293	283	285	288	289	287	286	287	287	290	291	293	292	288	286	288	288	286	286	290	289	286	285	285	285	289	295	293	288	289	291	289	287	285	286	288	289	288	277	281	285	289	291	286	286	291	293	294	288	288	291	293	295	296	296	295	292	291	290	284	284	284	291	289	282	286	288	291	291	289	288	283	284	284	290	292	293	294	295	294	292	292	288	289	289	283	283	283	282	283	287	289	291	278	281	283	284	288	288	291	286	286	288	289	291	288	285	285	289	290	291	292	291	289	286	284	283	282	281	281	281	287	286	286	283	283	283	285	285	284	287	291	289	289	287	288	290	284	285	284	286	285	288	290	285	282	282	284	286	288	285	283	282	286	284	285	283	284	283	283	282	282	283	284	282	280	280	280	280	277	276	276	280	282	284	286	288	290	288	288	288	290	289	287	287	286	288	285	282	281	285	285	287	288	288	286	286	284	285	285	283	282	282	284	284	286	287	287	285	285	286	287	288	289	287	284	283	284	283	283	282	282	287	285	286	286	287	282	282	280	283	284	284	286	287	286	283	281	280	280	283	286	286	288	288	286	282	280	280	283	282	281	284	286	290	292	287	279	281	281	285	285	285	288	287	285	281	282	283	284	284	286	286	284	284	283	284	282	282	283	286	286	285	286	285	281	283	285	285	284	284	283	279	282	282	280	278	278	278	280	280	282	287	289	289	287	284	279	279	281	282	283	283	285	288	288	282	280	280	285	285	284	284	286	288	289	289	288	286	285	285	285	285	284	285	290	289	282	279	281	282	282	282	282	280	278	282	280	278	280	279	277	276	278	270	272	273	277	281	281	282	283	280	278	278	279	281	284	285	285	275	274	275	275	274	274	275	281	280	275	277	280	282	283	281	282	282	280	274	275	271	271	270	272	272	275	278	278	280	279	279	278	279	278	276	275	275	276	277	278	277	276	276	279	278	277	276	274	274	274	274	275	275	275	274	276	280	278	277	282	283	284	283	281	280	277	277	279	278	273	275	276	277	276	274	270	273	275	276	275	276	276	272	271	272	273	273	270	274	278	278	279	279	279	278	269	269	272	272	270	270	271	271	270	272	275	275	275	278	280	279	278	277	276	276	280	280	280	281	280	282	283	279	277	278	277	272	272	276	277	278	277	276	276	274	275	274	273	273	273	274	276	277	277	277	276	276	276	277	279	281	276	276	276	0	0	0	0	0	0	0
290	289	290	292	292	294	293	294	294	294	294	292	289	288	290	290	291	298	299	298	295	295	290	291	294	298	300	300	301	301	298	298	296	297	297	296	296	298	300	299	296	296	293	291	295	298	297	295	290	289	289	293	297	300	300	296	299	296	297	295	298	298	299	298	297	296	293	291	291	289	288	289	289	290	290	290	289	288	288	288	290	289	288	287	294	293	293	294	292	293	292	287	288	287	287	288	290	289	287	286	288	288	290	292	289	289	289	287	285	283	282	281	280	282	281	281	281	284	285	287	288	285	286	285	287	287	286	285	285	286	284	283	284	285	287	287	285	286	286	288	284	287	283	284	283	280	276	278	282	283	281	280	282	277	284	288	296	290	289	288	288	290	292	294	294	295	296	293	281	279	277	283	283	281	280	281	287	287	281	284	283	284	284	283	286	288	289	290	290	288	287	286	287	288	284	283	282	283	281	280	280	280	278	275	278	279	285	286	285	285	282	282	281	281	280	283	283	285	287	288	290	287	286	283	281	281	282	282	282	281	283	285	285	284	282	285	284	280	281	284	286	287	283	283	283	282	283	283	282	282	284	287	288	286	286	282	284	287	287	283	281	280	280	281	283	280	282	282	282	282	282	282	283	281	277	278	279	274	274	276	276	274	278	281	283	280	279	279	279	280	284	281	280	281	283	285	284	281	282	283	285	284	285	287	283	281	281	280	282	281	280	280	282	282	282	285	283	282	282	278	275	278	275	281	279	281	282	282	282	279	281	279	282	283	282	280	282	281	280	281	280	281	281	283	277	279	279	279	281	280	279	279	286	288	285	279	279	280	281	282	281	282	283	287	286	278	280	280	287	287	285	284	280	282	278	279	281	281	281	278	283	286	282	282	280	279	280	281	282	285	281	281	278	277	277	281	282	284	283	282	282	281	282	277	278	276	277	277	279	279	282	286	289	286	282	282	278	279	278	281	282	281	282	283	285	278	278	278	285	283	281	281	284	283	287	287	286	284	284	281	280	278	278	286	287	287	283	280	276	281	280	280	279	278	275	276	279	275	275	275	274	277	276	273	274	274	275	274	276	277	280	277	277	276	276	280	285	281	276	272	272	274	273	273	273	273	272	273	274	275	277	279	281	278	279	281	281	276	270	267	267	268	274	275	277	276	275	275	276	276	278	276	276	276	274	274	277	275	275	275	274	276	276	276	276	275	273	271	272	272	273	275	275	272	272	274	274	275	277	276	275	275	275	273	272	276	279	274	273	275	276	276	276	276	270	270	270	271	272	273	271	270	271	271	270	269	267	269	274	274	275	272	268	268	267	268	269	270	269	268	269	265	266	266	273	276	275	275	278	278	277	276	273	274	276	278	279	280	277	277	276	276	276	275	274	270	269	271	276	276	275	275	274	273	274	273	271	271	272	273	276	276	277	275	274	273	274	275	279	274	276	275	275	0	0	0	0	0	0	0
288	286	287	292	293	293	292	293	294	295	295	295	292	289	291	291	294	296	298	291	286	286	284	286	288	288	290	290	295	297	296	294	296	297	297	297	291	292	296	297	292	291	291	290	291	293	295	294	292	289	289	291	294	296	295	290	286	286	290	290	289	289	290	293	295	295	292	288	288	287	286	287	288	288	287	287	285	284	287	287	287	285	285	286	287	287	290	290	292	289	285	285	284	284	283	286	288	287	285	284	287	289	287	287	288	286	286	285	284	283	279	278	278	277	280	281	281	283	283	283	282	282	281	281	282	285	285	286	286	280	285	282	281	283	282	284	285	286	286	283	284	281	281	278	281	281	283	285	283	281	281	281	280	282	283	287	291	291	289	288	287	289	293	292	291	284	284	284	283	283	283	285	285	283	279	276	276	278	276	276	282	282	279	281	280	280	283	287	288	288	287	287	289	289	283	280	282	280	279	280	279	279	277	276	276	278	281	284	283	284	282	280	280	279	283	282	282	281	284	286	285	284	281	282	280	281	281	283	284	283	282	283	283	280	274	278	279	281	283	284	284	283	283	283	281	283	282	281	283	280	281	282	282	278	279	279	282	282	282	280	276	277	277	279	279	276	281	281	281	280	279	281	278	277	277	276	275	270	272	273	272	272	271	278	280	278	278	277	278	279	278	277	274	277	279	281	279	282	281	280	279	279	276	279	279	278	277	277	280	280	279	278	278	281	279	281	281	276	277	275	275	277	275	276	276	278	279	280	276	274	275	285	275	275	274	280	279	279	277	278	276	276	278	278	277	276	277	278	279	277	277	278	279	282	281	277	278	276	277	279	280	280	280	281	281	277	277	277	285	285	282	277	279	279	280	279	279	279	280	277	282	280	280	280	278	275	275	273	275	278	279	276	274	274	276	277	282	284	282	281	281	279	280	277	276	277	278	278	279	279	279	279	283	285	282	276	277	274	277	276	279	281	282	282	278	273	271	279	278	278	277	277	280	283	283	283	282	280	278	277	277	274	279	282	283	281	279	277	276	273	273	276	276	276	272	272	271	273	273	273	273	273	276	274	273	272	271	270	271	271	273	273	273	276	277	280	278	276	274	270	270	270	273	273	272	271	270	274	275	275	274	273	275	275	276	277	275	274	266	264	265	272	275	275	276	276	273	271	270	273	274	273	271	274	275	274	273	268	271	270	274	274	273	268	269	269	268	268	272	272	270	274	270	268	269	271	271	272	272	276	274	274	274	271	270	268	271	273	272	270	268	266	268	271	274	271	270	271	271	270	270	270	270	272	272	271	269	270	269	270	269	268	268	268	268	268	272	273	272	269	264	266	269	270	271	274	271	272	271	270	267	271	270	269	268	274	276	274	273	272	276	275	274	272	272	269	269	269	269	269	266	266	266	273	271	270	270	270	272	273	274	276	277	272	268	268	273	274	270	272	274	274	274	0	0	0	0	0	0	0
288	284	285	289	289	289	289	291	293	294	294	295	292	289	292	292	293	295	293	283	284	284	282	282	286	287	289	289	290	292	291	291	294	296	296	291	288	288	290	294	290	289	289	289	288	287	291	292	292	287	288	288	290	291	289	286	282	282	281	282	284	284	286	287	291	283	282	283	283	284	283	284	286	285	281	281	279	279	280	282	282	281	279	277	277	278	278	282	288	287	284	284	283	283	283	284	284	283	282	282	281	279	285	287	286	285	284	284	283	281	279	275	276	279	279	282	280	282	280	279	279	280	280	279	279	281	285	286	287	279	278	276	274	276	275	275	276	286	288	288	281	277	276	277	280	281	283	280	284	284	281	280	279	285	282	286	290	289	287	284	285	286	288	286	282	280	280	282	282	279	282	282	284	281	276	276	276	276	276	277	278	281	280	275	273	272	278	281	283	287	286	281	280	280	280	278	277	277	278	280	282	280	276	276	276	277	279	282	282	281	280	279	280	279	283	281	280	280	278	283	284	282	281	281	279	281	281	280	280	279	279	278	277	273	276	276	278	277	278	277	283	285	283	281	281	280	280	281	281	277	279	280	280	276	276	275	278	282	274	273	275	275	274	275	275	275	278	279	275	275	274	275	275	275	275	275	271	267	269	272	272	269	270	273	276	278	276	275	277	277	276	276	275	272	274	275	275	275	278	279	279	278	277	271	268	271	271	272	271	277	278	276	275	274	277	277	277	275	274	275	275	275	274	272	273	275	276	276	275	271	271	271	271	271	273	275	277	277	274	275	272	273	273	273	276	274	275	277	278	274	273	275	277	279	278	275	274	273	273	275	274	276	279	279	280	280	279	278	278	284	283	278	276	275	279	278	278	275	268	269	269	275	274	273	276	275	274	274	274	274	275	275	272	272	273	273	278	281	281	279	279	276	280	276	273	273	276	278	277	276	275	275	275	277	275	277	271	272	273	276	277	278	276	274	271	270	276	277	277	276	274	275	277	274	271	271	272	272	267	268	271	272	274	273	272	270	273	276	276	269	271	273	274	273	273	271	270	272	272	271	272	272	273	277	273	271	270	270	271	273	271	272	274	273	266	269	271	269	267	265	268	269	273	273	272	267	268	269	269	272	272	272	270	270	272	274	268	266	268	266	268	269	271	273	276	275	270	268	269	269	275	275	273	270	269	268	266	266	264	267	266	264	263	267	267	270	271	266	267	265	268	268	266	266	269	269	268	266	267	274	274	272	271	271	268	267	269	271	269	267	264	263	266	268	269	270	270	270	269	269	270	271	272	272	272	273	271	266	260	265	267	265	267	268	269	270	269	268	265	267	267	268	267	268	271	271	271	270	269	268	266	266	265	266	265	266	273	271	270	271	268	266	265	266	268	269	269	268	268	267	267	264	265	272	270	269	270	271	272	272	270	270	269	267	265	265	264	265	268	270	272	272	271	0	0	0	0	0	0	0
287	282	281	285	285	285	285	286	288	290	290	290	288	288	286	286	286	285	285	281	283	283	282	282	282	285	286	284	284	286	288	290	291	290	288	288	286	283	286	288	286	286	286	285	286	285	283	291	285	285	287	287	287	287	284	282	278	277	278	281	283	282	282	283	284	281	281	282	281	280	280	280	281	277	280	279	279	280	281	282	284	283	280	274	273	273	275	278	281	284	281	281	278	278	277	277	281	282	280	279	277	276	276	278	279	279	281	282	281	280	276	275	275	278	281	281	280	279	273	270	273	279	280	279	278	281	281	281	280	280	281	281	278	278	276	275	275	277	285	283	279	277	276	277	273	281	281	277	276	275	276	278	279	284	281	281	282	282	280	283	282	281	278	274	276	276	276	278	282	278	279	280	281	281	278	276	275	276	277	278	280	278	277	274	272	271	275	278	279	279	281	281	279	281	281	277	275	275	276	277	281	281	279	277	279	277	278	283	278	276	276	277	278	277	276	278	279	274	277	275	277	277	277	277	278	278	274	279	279	278	278	278	272	272	272	272	274	277	277	272	275	275	272	276	278	277	278	275	276	277	276	277	277	274	273	274	272	273	272	275	276	275	274	274	273	275	278	272	272	270	269	270	271	273	273	269	267	271	274	276	269	270	270	270	273	275	274	274	274	275	274	274	270	270	269	272	273	275	279	277	275	275	274	268	270	271	266	268	267	270	271	276	274	274	275	278	273	274	273	274	275	275	273	272	271	272	273	275	272	272	270	270	270	271	272	274	276	277	275	271	272	271	272	272	271	273	274	272	272	270	270	274	273	274	274	273	273	272	272	272	274	274	276	276	275	279	276	278	274	270	275	277	274	273	273	273	273	271	268	270	271	271	268	275	276	271	273	270	273	267	268	272	271	271	271	271	273	279	278	277	275	273	272	265	271	270	274	277	276	275	272	270	269	269	270	271	271	272	273	274	275	275	274	273	272	272	276	277	277	275	274	272	271	272	271	270	268	267	266	266	269	270	272	271	269	268	270	269	268	268	267	270	270	273	271	271	270	270	269	269	271	270	271	270	266	267	266	268	272	272	274	272	270	265	268	269	269	267	265	267	267	271	267	266	263	264	265	265	264	264	264	263	263	267	268	268	267	268	268	267	269	266	267	267	270	270	269	267	267	268	269	269	270	268	266	266	266	266	262	263	262	260	258	260	267	268	268	263	264	266	267	266	265	267	268	268	266	266	264	263	265	265	264	268	265	262	267	269	267	263	262	262	263	263	263	266	265	264	264	267	269	269	270	270	266	270	269	260	261	258	258	255	254	254	261	266	264	263	263	264	265	271	265	267	270	271	270	269	268	266	266	265	265	266	264	266	267	266	268	268	266	265	265	266	267	265	267	267	268	268	265	263	263	266	263	262	264	270	270	270	264	266	262	261	261	264	264	265	267	269	269	269	263	0	0	0	0	0	0	0
282	281	280	282	281	281	280	281	283	284	284	284	283	285	285	282	282	279	281	280	283	283	283	283	281	278	282	282	282	282	281	281	282	284	287	287	283	281	281	284	284	282	280	280	280	280	279	281	281	283	275	274	274	282	282	280	277	277	279	282	283	279	279	280	272	276	278	282	280	276	277	276	272	273	274	273	273	279	279	280	283	282	279	274	273	273	274	275	278	278	275	274	274	277	273	276	276	275	274	272	277	275	275	276	278	275	275	275	271	272	272	274	274	279	281	282	277	273	269	269	275	278	279	279	279	277	276	276	275	276	277	277	277	276	275	273	273	274	278	279	278	277	274	269	272	274	277	273	273	273	275	277	277	277	277	278	276	283	281	278	276	271	274	273	272	272	274	275	273	274	275	275	277	276	275	272	270	272	272	271	271	273	274	272	269	270	271	272	273	273	273	274	276	281	282	280	274	273	274	274	275	275	271	271	271	271	276	277	275	274	275	275	276	276	273	267	273	273	273	274	273	271	273	267	274	273	269	273	274	273	271	274	270	272	271	272	273	273	275	269	269	269	271	272	272	272	273	273	273	274	272	274	275	280	274	273	272	270	271	270	272	271	273	274	274	275	272	270	270	267	268	268	269	268	269	270	271	273	276	276	271	270	269	270	271	270	271	271	270	273	269	269	269	270	270	270	273	275	273	270	272	272	270	268	267	268	266	264	266	269	271	272	274	273	272	271	268	267	270	272	274	275	272	269	270	270	271	272	271	271	272	273	271	268	271	273	272	271	271	272	271	272	272	272	270	270	266	267	268	270	268	272	273	272	270	271	271	272	272	272	273	273	274	274	275	273	275	273	275	272	272	271	269	267	264	265	266	266	266	266	271	269	268	269	271	268	271	270	268	267	267	266	267	267	268	270	272	275	274	275	273	272	267	264	264	270	273	275	275	274	273	269	268	269	270	270	270	271	272	272	274	275	273	272	272	272	276	276	275	271	271	270	269	266	266	266	267	266	266	266	268	268	265	263	263	266	268	266	264	264	266	266	266	266	269	268	267	266	266	266	266	268	271	270	265	269	268	269	271	270	269	267	266	266	267	268	268	265	265	265	266	262	261	266	267	264	263	265	266	268	267	265	262	263	266	269	267	268	268	270	266	265	265	264	265	265	266	266	265	262	262	264	263	268	268	267	265	265	262	261	261	261	259	259	258	265	262	260	262	264	266	265	265	266	267	267	265	264	263	264	264	259	258	262	265	260	267	269	268	266	262	262	261	261	263	263	263	263	264	262	265	266	265	263	266	267	265	262	258	260	257	256	261	258	257	266	265	261	262	264	264	263	264	266	268	268	267	267	267	266	265	264	264	262	263	265	264	264	265	266	265	264	265	265	260	259	260	262	264	264	264	263	262	258	254	252	257	264	269	267	263	259	258	257	257	256	258	264	265	265	264	262	261	0	0	0	0	0	0	0
281	281	276	276	276	276	276	278	279	280	278	278	279	282	283	277	277	277	279	280	281	281	281	281	279	276	274	279	279	280	279	280	282	282	281	281	280	279	278	279	277	276	276	276	276	277	277	276	277	276	272	273	273	275	282	279	279	278	279	277	276	275	274	274	272	275	275	275	281	281	279	272	271	272	272	272	277	277	270	270	271	271	271	271	271	272	273	275	277	274	274	271	271	274	277	274	275	276	276	278	279	278	275	272	274	272	272	273	273	273	272	270	268	267	272	273	274	272	269	270	271	274	276	276	275	275	275	276	274	275	276	276	274	273	274	272	272	272	274	276	275	275	271	263	272	274	274	273	271	272	273	275	275	273	274	276	276	276	275	272	270	269	269	271	273	271	272	272	273	273	273	273	276	274	275	272	267	269	268	270	269	268	269	268	267	268	269	270	272	271	271	272	273	276	279	276	272	272	273	274	275	273	270	269	268	270	275	272	271	272	272	274	274	275	267	268	272	273	274	273	273	271	272	266	269	265	267	267	265	266	270	268	267	271	270	270	269	271	271	267	266	267	267	268	268	268	269	270	272	273	271	272	273	277	272	269	271	269	268	271	272	267	267	267	267	267	269	269	269	268	269	269	268	269	270	272	273	273	272	271	270	270	271	270	269	265	265	267	268	267	267	266	268	270	270	270	271	270	265	265	270	268	268	266	266	266	266	265	268	268	271	269	268	270	265	263	261	264	264	266	269	271	272	270	269	269	271	272	270	269	271	270	266	264	263	264	265	266	269	269	272	273	274	272	270	271	268	266	269	269	268	269	268	267	266	266	267	268	266	267	272	266	266	267	276	272	271	271	267	268	267	267	270	265	267	268	262	263	264	263	264	264	264	269	268	269	269	270	270	267	265	264	264	265	269	268	269	270	271	274	274	270	262	262	264	266	273	274	273	272	270	269	266	264	268	271	272	269	266	268	268	268	266	263	264	270	267	269	268	268	265	265	266	264	264	264	265	264	262	265	268	268	266	266	265	267	267	266	264	265	265	266	265	266	268	268	266	264	264	266	265	261	261	263	267	269	267	268	267	266	266	263	264	266	267	267	265	264	262	262	261	260	263	266	266	267	261	262	267	261	266	264	263	263	263	262	263	260	266	270	268	267	263	262	263	263	263	263	262	262	260	261	262	260	260	261	261	261	261	257	259	259	260	259	260	257	258	257	257	258	261	264	262	262	261	261	263	263	262	264	263	258	258	257	259	258	259	261	262	259	260	262	262	262	263	263	265	263	264	260	259	261	261	262	263	263	261	259	259	260	262	258	259	259	259	257	262	260	259	262	258	256	261	264	265	264	261	261	265	266	257	256	261	260	261	261	262	262	262	261	261	264	263	262	260	259	259	260	260	259	258	261	260	253	255	254	252	254	258	259	258	254	254	254	254	254	254	261	261	262	260	258	259	0	0	0	0	0	0	0
281	281	273	272	270	271	271	276	278	279	276	276	278	282	282	281	277	277	279	280	274	276	276	275	275	276	273	273	274	274	275	279	280	280	279	277	277	275	276	276	274	273	274	274	273	273	274	274	274	272	273	273	273	274	274	279	279	277	274	274	274	275	272	272	272	275	275	274	274	274	271	270	270	270	271	271	271	271	270	270	270	270	269	269	267	267	270	272	274	273	271	269	269	272	274	277	274	275	275	277	277	275	268	267	268	268	269	271	271	272	269	268	267	267	268	269	274	274	273	270	270	272	273	272	273	274	274	275	273	274	275	273	271	271	269	271	272	273	271	272	269	269	266	267	264	267	273	271	270	269	270	273	273	273	273	274	274	272	269	272	268	268	267	270	270	271	268	270	270	271	271	271	270	270	273	268	265	265	270	267	266	265	264	264	265	265	266	271	271	271	270	269	271	272	274	273	267	269	269	269	274	273	271	267	264	264	268	271	271	272	269	265	265	267	265	269	270	271	270	273	273	272	271	266	263	264	264	267	265	264	265	260	262	269	268	268	268	268	268	266	266	262	263	261	261	263	264	268	267	268	268	270	272	272	268	269	268	268	268	267	268	268	267	264	263	267	269	269	268	267	266	267	267	267	267	268	267	267	268	269	269	271	270	267	263	262	265	267	267	268	265	263	262	264	264	265	266	264	264	264	264	263	265	264	259	260	261	263	263	263	264	265	265	266	265	263	262	263	263	262	265	266	268	268	270	271	273	271	268	268	266	266	266	265	264	264	265	266	267	269	269	263	261	268	269	265	266	266	268	268	267	266	265	264	265	265	265	263	263	264	265	265	265	265	265	265	264	265	266	268	264	265	267	264	259	263	262	261	263	263	263	263	264	265	265	266	267	270	270	265	265	265	264	265	267	268	269	271	272	274	273	265	260	259	260	262	266	269	262	269	269	264	265	270	268	262	262	268	265	266	267	267	266	264	265	265	265	268	259	261	263	262	264	261	260	262	264	260	263	265	267	268	266	264	263	264	265	260	256	261	264	265	264	266	267	267	265	264	264	262	261	260	261	262	263	263	270	266	265	265	264	262	263	262	266	260	260	259	261	261	260	260	263	263	265	260	257	259	257	259	266	264	264	263	262	260	259	259	265	270	263	264	264	260	258	260	260	263	262	261	260	260	262	261	260	259	260	260	260	257	258	258	259	259	256	257	255	253	252	252	258	257	257	257	259	259	260	260	259	259	262	259	256	259	255	255	256	258	260	260	259	262	262	262	263	263	261	259	259	259	258	256	254	256	261	259	260	258	258	258	259	257	259	259	258	257	254	255	257	256	256	256	255	257	261	262	261	260	257	257	255	253	252	255	257	257	252	259	259	261	263	260	259	257	257	262	260	257	257	257	257	259	259	259	258	255	253	252	252	252	252	251	250	250	250	252	251	254	258	256	254	254	255	0	0	0	0	0	0	0
278	278	273	268	267	270	270	275	278	279	277	277	276	275	281	279	277	277	277	276	273	273	273	273	274	274	274	271	271	271	272	273	274	274	274	273	273	272	274	276	272	271	271	271	271	271	272	271	271	272	271	273	271	271	271	271	271	272	273	272	272	272	272	272	272	274	275	272	269	266	267	269	268	268	268	269	269	268	268	267	266	267	267	266	265	265	268	270	272	272	269	267	268	272	273	271	264	264	260	266	267	269	268	267	267	268	264	264	266	269	267	266	266	265	266	271	270	273	270	269	269	269	268	266	266	268	273	274	273	271	272	269	267	267	269	270	271	271	271	270	269	267	265	262	263	267	268	269	267	267	268	270	271	269	270	271	272	268	268	267	267	266	267	268	269	268	268	268	265	271	271	268	268	267	269	266	266	267	270	267	265	265	264	263	264	265	266	265	264	264	265	268	268	269	271	268	266	266	266	270	269	269	263	267	262	263	263	269	268	269	264	264	264	265	265	267	263	263	263	264	266	265	262	267	268	268	267	266	267	264	264	261	264	264	266	267	267	269	268	264	261	263	261	261	260	261	264	265	264	263	262	261	260	267	268	266	266	265	264	265	266	266	264	262	261	261	267	267	266	264	265	262	262	261	261	260	262	264	266	263	260	264	265	260	259	261	266	267	265	264	263	262	263	263	263	264	264	264	262	263	264	263	261	260	260	260	260	260	260	261	262	264	264	265	264	262	261	261	264	265	265	266	266	265	264	263	264	264	263	259	260	261	259	265	265	264	264	266	267	267	266	263	261	260	261	261	261	263	264	260	260	263	262	264	264	265	263	263	262	262	263	264	263	261	262	263	263	263	263	264	265	262	263	264	264	263	262	261	262	263	263	262	262	264	264	263	263	265	267	265	261	260	259	259	262	263	267	268	268	265	268	259	258	258	259	260	262	259	259	262	261	263	265	266	268	262	262	262	259	260	261	260	261	261	261	266	258	258	257	257	258	264	264	263	262	261	261	260	259	262	265	265	263	263	263	263	261	260	257	256	258	263	264	264	262	262	264	265	265	266	260	258	262	263	262	266	269	264	262	261	261	260	257	258	259	259	260	259	261	259	258	261	261	260	257	264	257	257	258	259	264	264	263	260	258	257	256	260	263	262	262	262	263	259	254	253	257	261	261	260	260	261	262	260	259	257	259	259	260	260	259	257	256	256	255	253	253	252	250	251	256	254	254	252	256	257	255	257	256	256	260	260	260	259	256	254	255	257	260	259	258	261	263	262	261	260	259	257	257	259	255	253	253	254	255	255	252	253	257	259	264	258	259	259	259	257	256	254	252	253	255	253	254	254	254	258	260	258	256	254	252	252	248	248	251	253	252	254	257	260	255	255	257	256	257	257	257	257	256	254	253	258	258	257	255	254	253	252	250	251	249	249	249	248	248	249	251	252	255	254	253	251	252	0	0	0	0	0	0	0
276	272	272	268	268	271	271	271	272	273	275	273	273	272	274	276	273	273	272	273	271	271	272	272	272	272	270	269	267	267	269	270	271	272	270	271	271	273	273	271	270	270	268	266	266	265	268	268	266	268	268	267	268	268	269	270	271	273	273	273	271	271	271	269	269	268	266	264	264	266	267	269	266	265	266	266	268	266	265	265	265	265	264	264	265	265	268	270	269	270	268	266	267	269	269	266	262	260	262	264	264	264	265	266	266	262	263	263	264	263	263	262	263	264	266	267	270	269	267	266	265	266	265	263	263	266	269	267	267	266	267	266	265	265	268	269	270	270	269	265	267	265	264	266	266	264	263	264	266	265	266	267	265	265	266	268	270	270	269	268	267	267	264	265	267	267	268	266	265	262	269	270	270	271	271	266	265	265	267	266	264	263	262	261	263	267	267	265	265	263	263	266	266	265	265	266	264	266	266	269	266	266	263	263	258	262	264	263	264	265	264	263	265	263	265	266	263	260	259	260	260	261	260	264	270	268	268	268	269	267	258	258	264	263	265	265	267	267	265	263	259	263	262	262	260	262	264	264	262	262	262	262	262	262	264	261	262	265	262	263	264	264	262	261	260	259	259	262	263	259	262	258	258	255	255	258	260	261	260	259	259	262	260	259	257	260	262	264	263	263	263	261	263	260	263	263	262	265	262	262	260	261	260	259	259	259	259	260	260	261	264	262	259	259	259	261	261	261	264	262	261	263	263	262	261	261	260	260	260	257	258	257	261	261	257	259	262	262	266	264	262	266	261	262	260	261	260	259	259	257	257	258	261	262	262	264	262	260	258	261	262	260	259	259	259	260	260	260	261	261	261	262	262	262	264	263	261	260	259	260	260	259	262	261	263	261	263	256	260	261	261	260	258	259	258	260	257	259	264	265	265	260	258	255	255	256	258	256	259	260	257	259	266	265	266	261	261	256	259	259	261	259	257	260	263	264	264	264	262	261	261	259	259	259	258	258	260	260	259	261	263	261	261	261	261	257	255	259	257	258	260	261	263	264	259	256	256	262	262	261	259	259	260	263	259	257	256	257	256	255	257	254	253	254	253	253	253	256	258	259	259	259	259	259	258	255	258	259	258	260	262	258	261	257	258	257	256	257	259	261	260	256	256	258	255	253	254	253	258	259	259	259	257	260	259	256	256	258	258	259	257	256	255	254	253	252	253	255	254	255	255	251	251	249	256	256	252	254	255	257	258	258	256	255	253	253	254	255	255	257	259	261	262	261	258	251	252	253	252	254	254	254	254	254	252	250	251	252	255	255	255	254	252	254	256	253	251	253	251	251	251	252	253	253	254	255	255	253	250	250	247	249	248	247	250	250	251	250	249	252	251	252	256	255	255	255	254	254	253	251	251	253	253	255	253	253	251	250	251	251	251	247	247	248	253	254	249	251	252	252	252	251	253	253	0	0	0	0	0	0
272	270	270	264	263	265	263	263	264	267	269	269	269	268	271	271	269	269	268	269	271	271	272	272	274	271	270	268	266	268	268	268	269	272	272	275	271	271	269	266	269	271	269	267	262	262	264	264	261	261	263	264	268	271	271	270	272	273	274	274	277	267	267	266	266	266	266	266	264	266	267	267	264	264	265	266	267	265	264	264	264	264	262	264	265	265	263	265	267	267	266	265	266	269	268	263	260	260	262	260	263	259	260	263	260	261	263	261	261	261	261	262	262	264	264	269	269	268	266	264	265	265	264	263	263	264	270	268	263	267	265	264	264	263	264	268	270	270	268	263	265	263	264	266	267	266	264	263	263	264	264	264	263	262	262	266	269	268	267	263	262	260	260	260	263	265	264	264	263	263	265	268	269	269	262	258	258	260	263	259	259	261	260	260	261	266	265	264	263	263	264	262	264	264	263	263	263	262	260	260	260	260	261	261	260	259	254	254	255	258	256	255	255	259	260	265	262	257	256	260	258	259	262	265	260	267	268	268	267	267	267	268	264	264	262	261	262	264	259	260	259	261	260	260	261	259	263	262	260	258	259	260	261	262	257	256	258	260	260	260	261	261	261	260	258	259	260	257	259	264	258	258	257	256	256	258	260	260	259	259	257	258	260	260	260	257	259	261	262	262	262	260	258	256	255	261	261	264	261	259	259	259	259	257	257	257	257	259	259	261	260	258	257	257	258	260	261	262	261	258	258	258	260	259	258	259	257	257	257	258	258	257	260	259	257	257	259	261	257	259	261	261	259	258	260	261	261	256	257	253	256	256	257	257	260	256	260	258	258	260	259	260	259	258	258	258	258	258	259	260	260	260	259	259	258	258	258	255	257	258	258	258	260	260	260	257	253	256	257	260	256	256	257	258	258	258	258	257	261	261	262	262	255	254	255	256	259	257	260	257	256	256	259	259	253	253	259	257	258	255	256	256	257	260	261	263	263	262	260	260	258	253	253	257	259	258	257	256	254	257	258	258	259	258	257	256	255	253	256	257	258	256	256	259	256	254	255	256	253	252	251	255	256	260	257	253	254	253	255	255	256	255	254	252	253	252	254	254	258	257	257	255	255	254	254	255	254	254	257	258	260	256	255	255	256	255	255	255	257	258	249	250	253	253	256	253	252	253	256	256	256	256	252	256	257	254	256	256	258	258	256	255	256	254	251	252	253	255	253	255	254	249	249	248	254	255	252	253	254	257	257	257	256	254	253	253	253	253	257	254	256	256	260	257	250	250	249	247	249	254	253	253	250	251	249	251	252	251	252	254	254	249	249	252	253	252	252	249	251	250	250	251	255	252	252	251	248	247	247	251	248	248	248	247	248	248	251	249	247	248	249	248	249	250	250	252	252	252	251	250	250	251	251	253	252	251	251	250	251	252	251	251	249	245	246	249	251	253	252	253	254	255	251	251	0	0	0	0	0	0
263	264	264	264	262	263	262	262	262	263	266	266	266	267	268	268	268	265	265	268	271	271	273	274	274	272	269	267	267	268	268	268	270	270	272	270	264	264	264	266	263	266	265	258	257	257	260	262	260	261	261	263	264	268	268	270	268	273	274	276	265	265	264	263	264	264	265	265	264	263	262	263	261	259	261	261	264	264	263	262	262	260	260	262	263	263	263	264	266	266	265	263	267	266	261	261	260	259	260	260	257	257	259	259	259	259	260	259	261	261	261	259	258	259	266	267	266	265	264	265	264	265	263	264	262	264	264	262	260	260	261	262	261	261	263	263	263	262	259	258	259	262	263	264	265	264	261	260	258	262	262	262	262	260	258	259	258	261	261	260	260	260	260	262	262	262	262	262	262	263	262	261	261	261	260	258	257	259	259	258	258	260	258	257	260	261	263	262	263	264	264	264	262	262	261	261	261	261	259	259	261	261	261	260	256	254	253	254	258	258	259	258	255	260	260	262	259	257	256	256	257	258	261	266	261	267	266	265	264	265	266	262	263	261	261	260	259	259	258	259	259	260	260	260	259	259	261	260	257	257	259	260	259	257	257	257	260	258	257	257	257	257	256	260	262	261	259	257	256	256	256	256	255	257	257	259	259	260	261	260	257	257	256	259	260	259	258	259	260	260	260	258	256	255	253	253	259	257	255	253	252	258	260	258	256	254	253	250	252	257	258	257	257	256	258	257	261	261	257	256	257	257	256	255	257	257	256	256	254	255	257	257	258	256	256	255	257	256	258	255	257	255	259	258	258	247	255	254	253	253	254	255	254	255	255	257	254	256	257	255	258	258	254	255	256	256	258	258	259	258	258	257	253	257	254	257	257	254	257	256	256	257	258	256	252	252	252	254	255	258	254	254	254	252	250	248	256	253	254	253	253	253	250	255	256	257	259	259	259	256	254	255	254	252	248	247	248	251	253	255	257	257	256	259	260	261	259	258	259	258	256	252	250	253	256	256	255	255	254	254	248	253	252	253	254	256	253	257	251	255	256	255	254	252	251	250	248	248	250	249	249	249	259	258	250	251	249	252	255	255	254	252	253	254	253	252	251	251	255	255	254	254	253	252	253	254	253	254	254	252	251	250	250	253	254	254	253	253	253	251	251	251	251	253	253	253	254	256	256	254	254	253	252	253	252	250	250	254	254	255	254	255	252	249	249	249	250	248	247	246	246	246	246	247	248	254	251	251	252	253	253	254	254	252	251	252	253	254	252	253	251	248	252	252	248	249	248	248	249	251	253	251	249	250	250	250	249	250	250	250	249	250	249	249	250	251	250	248	246	247	247	247	254	252	251	250	247	247	248	248	246	247	248	247	247	249	249	248	247	246	245	248	249	249	249	249	248	247	248	249	249	247	250	252	251	250	249	250	252	253	250	250	244	244	246	249	249	251	252	255	257	252	252	250	0	0	0	0	0	0
256	254	259	259	261	263	261	261	260	259	260	260	260	260	263	268	268	265	265	265	269	265	265	267	267	268	269	270	267	265	265	267	268	270	266	259	258	260	260	261	260	256	256	255	257	257	259	262	263	262	261	259	261	264	264	264	265	265	267	268	262	259	256	259	262	262	264	264	262	261	261	261	259	259	258	260	263	259	259	260	260	256	258	260	261	262	264	266	265	260	258	256	252	255	256	256	252	254	259	258	261	258	256	254	256	256	256	254	256	254	253	254	254	258	259	262	262	258	259	261	262	262	261	261	259	259	259	258	258	258	258	261	262	262	262	259	257	256	256	256	256	257	262	262	263	263	262	260	257	259	261	256	260	260	258	259	258	263	264	260	260	260	257	256	255	259	258	258	260	260	261	262	258	257	258	258	259	258	257	257	259	259	257	256	260	261	262	260	259	259	260	262	262	261	259	257	255	251	257	259	260	260	258	257	255	254	253	254	256	258	257	258	258	258	260	261	258	257	255	255	256	258	264	266	266	264	260	259	259	261	258	262	261	261	260	259	258	255	257	257	259	259	261	260	260	261	262	256	255	255	254	256	256	255	256	260	258	256	256	256	254	255	257	255	259	258	256	253	257	256	255	254	254	258	259	259	257	260	259	259	258	256	255	258	258	259	256	257	258	259	258	256	255	253	253	255	256	253	252	254	254	254	254	255	255	254	251	250	252	256	256	256	253	254	255	259	259	259	256	254	255	255	254	254	256	256	256	254	251	252	255	256	256	253	253	253	251	253	255	251	252	253	251	257	254	254	247	251	252	249	254	254	253	249	248	251	251	255	255	254	252	248	251	255	255	256	256	258	257	256	256	253	251	252	252	254	256	258	257	254	254	253	253	252	250	250	251	252	254	259	257	256	257	250	249	250	251	257	251	249	249	248	251	255	257	259	259	259	254	255	252	251	253	250	250	251	251	253	253	253	254	255	253	255	252	253	256	255	258	257	255	251	250	250	253	254	256	255	254	249	250	250	249	249	251	254	251	251	251	251	256	255	255	255	253	253	251	248	247	248	248	246	244	245	245	245	246	248	248	253	249	250	253	254	252	250	249	249	252	253	253	251	250	250	253	248	253	252	252	250	250	252	252	253	253	252	250	252	250	254	253	253	253	251	251	250	248	249	249	250	251	250	252	252	248	250	249	251	249	249	254	252	250	249	247	250	249	246	246	246	245	243	243	243	249	250	248	245	245	245	244	248	249	249	248	247	251	252	251	248	250	246	245	245	246	245	244	245	246	250	251	249	248	247	249	250	249	249	249	247	248	248	249	249	249	248	248	248	245	246	247	247	246	245	243	242	246	244	244	244	244	245	245	246	247	247	247	247	246	246	245	247	249	248	246	246	246	245	245	246	247	248	248	243	245	248	249	250	249	248	248	247	246	245	245	247	247	249	250	252	251	251	251	249	0	0	0	0	0	0
250	250	252	252	261	261	260	259	259	258	258	258	259	259	262	266	263	261	261	263	264	256	256	258	258	260	264	265	263	258	261	261	265	266	257	258	259	262	262	261	257	256	255	255	255	256	256	259	262	261	260	259	259	261	264	264	264	263	262	259	259	259	256	257	257	258	258	259	257	256	258	259	258	257	259	258	260	259	257	255	254	254	252	257	258	260	259	257	256	256	253	252	252	253	255	256	250	252	256	261	262	260	255	255	253	253	253	254	256	253	252	254	254	257	256	256	256	256	256	259	260	259	259	254	253	255	256	255	254	255	254	255	259	261	258	258	256	255	255	255	255	257	260	256	256	260	260	258	259	258	256	256	257	259	259	256	256	259	263	263	260	258	255	254	254	254	255	256	258	257	259	259	257	256	256	256	256	256	256	254	257	260	262	262	261	261	254	260	260	260	260	259	255	255	255	254	252	252	257	258	258	258	259	257	254	253	254	253	255	255	252	250	257	257	254	256	259	255	254	255	258	262	265	266	263	262	256	256	254	250	250	252	257	258	259	258	256	255	253	255	256	259	260	258	259	254	253	250	248	248	249	251	254	253	253	257	256	256	256	255	254	255	256	254	258	255	253	252	251	254	252	251	251	255	256	256	259	255	256	254	254	253	253	253	253	254	254	255	255	256	255	253	252	253	254	255	256	252	252	255	255	255	254	255	253	250	248	248	251	252	253	253	253	254	255	256	252	251	251	251	253	254	255	254	254	254	253	251	248	250	252	253	254	253	251	250	250	251	252	252	253	252	252	250	256	248	250	250	250	244	248	250	249	249	248	249	250	251	251	250	244	250	250	253	253	254	256	257	256	255	255	256	251	250	249	247	247	252	253	253	249	252	251	250	248	249	250	251	254	255	259	259	250	250	249	251	255	257	257	254	250	250	252	256	257	259	259	255	253	251	251	246	249	250	250	251	251	249	249	250	249	247	249	249	250	250	251	251	250	256	253	250	249	251	251	255	254	253	254	249	250	250	249	246	246	250	250	250	249	249	252	255	253	253	249	248	247	246	247	249	248	244	242	243	245	245	244	242	243	241	245	247	253	251	250	249	251	250	250	253	253	249	248	247	244	248	251	251	249	249	250	250	248	249	250	250	246	248	248	251	255	253	251	249	246	247	247	249	249	248	247	247	250	248	246	248	249	248	247	245	249	249	249	247	247	248	247	247	246	245	240	240	241	246	250	250	248	244	246	249	245	247	246	245	245	244	249	245	244	243	245	243	241	245	244	244	243	245	244	245	247	248	246	246	246	248	249	248	247	248	248	248	248	248	248	246	246	245	245	243	244	245	245	244	243	245	246	244	244	242	242	243	244	244	245	246	246	246	245	245	246	246	248	246	246	245	243	243	245	247	247	247	245	240	243	246	248	246	244	243	243	244	243	243	242	240	243	246	247	249	249	249	250	248	0	0	0	0	0	0
250	249	252	252	259	262	264	264	264	263	263	260	260	260	259	257	258	257	260	260	258	256	246	246	250	250	257	260	260	258	255	255	256	255	256	261	261	261	261	260	257	256	255	252	251	252	252	255	256	254	255	252	252	259	263	263	264	262	261	260	258	257	256	254	254	254	254	255	256	253	251	254	256	257	257	255	255	258	257	254	250	250	250	251	250	251	251	253	253	253	252	250	251	251	251	251	250	254	259	262	260	256	255	254	253	252	252	253	251	249	247	253	254	257	256	253	255	255	254	256	256	256	254	252	251	248	248	250	251	251	252	256	258	257	260	257	256	252	252	252	254	255	258	258	258	257	257	256	249	247	247	250	254	259	255	256	256	256	260	260	259	254	251	251	253	254	254	254	254	256	257	256	257	253	253	255	254	251	250	254	251	252	254	254	253	250	252	254	260	255	253	252	255	255	255	254	255	256	254	253	256	251	249	250	251	252	254	254	252	249	249	248	251	254	253	253	253	254	253	255	254	255	253	256	258	258	256	254	252	250	249	250	255	256	257	257	251	253	253	252	253	249	250	250	252	253	254	251	249	248	248	250	252	251	252	252	253	253	255	254	254	256	252	251	250	248	248	253	253	252	251	252	248	253	252	253	256	256	252	252	251	252	252	250	251	253	253	254	254	253	252	252	251	250	250	250	250	254	257	257	257	256	256	253	251	242	243	246	249	250	252	255	254	254	249	249	249	250	249	250	251	254	255	249	249	251	251	250	248	245	244	251	251	251	248	248	249	250	250	250	250	250	249	250	250	251	251	250	250	246	244	247	247	246	248	249	250	250	247	248	248	247	250	250	250	250	255	255	255	252	246	247	248	249	247	246	244	244	246	246	246	244	251	248	248	248	250	250	251	250	250	249	248	247	249	247	254	255	254	255	251	248	246	249	250	255	248	247	246	246	247	247	247	245	244	245	247	248	246	248	246	248	248	248	250	250	252	251	250	247	252	250	249	250	248	245	251	251	244	250	249	249	248	246	246	248	249	249	248	249	250	248	248	248	248	244	245	246	247	247	246	241	241	242	243	244	245	244	243	242	242	246	246	248	247	246	247	248	247	246	247	247	247	246	243	246	249	249	246	247	246	244	245	247	243	245	242	247	247	247	249	250	249	245	243	246	247	248	248	248	246	247	247	247	248	248	248	248	248	248	248	246	245	243	241	245	243	243	243	243	244	240	245	245	243	243	241	243	246	247	245	245	247	243	239	241	240	243	241	242	241	241	242	243	243	244	242	240	241	244	246	246	244	244	245	246	247	246	247	246	248	245	244	243	242	241	243	245	244	243	242	242	245	244	243	242	242	245	241	243	241	242	243	243	244	246	246	246	244	243	241	238	238	244	241	241	240	241	243	242	241	241	241	240	238	239	241	241	242	242	241	241	241	241	240	239	239	240	238	247	247	247	246	246	0	0	0	0	0	0
249	249	252	252	256	250	251	253	253	257	259	258	255	252	252	249	251	255	254	254	251	248	240	243	250	250	253	254	254	252	254	255	255	255	258	262	260	256	259	259	254	256	254	250	251	250	251	251	253	253	254	251	251	258	262	262	262	262	260	260	256	255	254	253	253	252	252	252	252	249	250	250	250	253	251	251	251	255	257	254	251	248	248	246	249	251	251	252	253	253	248	250	253	251	251	251	256	257	258	257	255	254	253	252	249	249	249	249	248	248	247	247	253	253	255	252	253	253	253	253	254	253	252	250	247	247	248	248	248	249	253	255	255	253	259	254	255	250	250	251	251	252	249	253	256	254	253	253	248	249	248	252	256	255	255	255	255	256	258	259	257	255	251	250	251	252	253	252	255	254	255	255	255	255	251	251	249	243	244	248	247	247	249	249	250	250	251	251	252	252	252	250	250	251	252	250	252	256	255	251	251	249	247	246	246	247	247	249	252	247	247	248	251	252	253	254	251	253	252	248	250	250	251	252	256	255	255	254	250	249	250	252	254	255	255	252	248	248	249	249	247	247	247	248	250	251	252	251	250	247	248	249	251	250	251	252	251	252	254	253	252	253	253	252	246	247	249	252	252	252	251	248	246	248	248	247	250	254	249	248	249	248	248	250	249	252	253	251	248	248	248	249	249	249	249	250	249	250	255	255	256	252	251	250	249	250	248	246	245	253	253	253	253	247	247	249	249	247	247	247	249	252	245	243	246	247	247	249	247	245	244	247	247	247	247	246	247	246	247	247	246	248	249	249	250	251	249	247	245	244	245	245	244	246	246	252	250	248	246	247	249	248	247	245	244	247	250	252	250	239	241	242	243	247	247	247	246	246	246	244	244	245	244	244	248	248	249	249	248	248	247	247	244	243	244	248	251	249	248	252	249	248	247	248	249	249	249	247	244	244	248	246	246	245	244	243	245	248	246	247	246	247	246	246	248	250	251	250	250	248	248	246	245	245	248	243	243	241	245	246	248	248	246	244	243	246	249	248	249	247	248	247	243	244	243	244	244	245	246	246	245	243	242	242	244	244	247	247	245	244	243	244	244	242	245	245	244	243	245	243	243	244	246	246	244	242	243	245	244	244	243	239	239	241	245	241	240	239	245	246	247	246	247	244	243	244	244	245	246	245	246	246	246	246	242	243	244	245	246	246	245	244	242	240	240	241	241	241	241	242	242	240	241	241	242	241	240	245	246	242	242	241	241	239	240	239	240	242	240	241	240	242	242	242	241	241	240	240	240	240	242	242	240	241	243	245	246	246	248	247	246	244	243	242	241	243	245	246	244	243	242	241	245	243	243	243	240	239	239	240	242	243	242	245	245	245	245	242	242	243	239	237	235	238	234	237	238	238	240	240	239	237	239	237	239	239	240	240	240	240	241	240	240	239	237	237	240	239	234	239	239	239	241	243	0	0	0	0	0	0
252	253	254	252	252	250	249	251	255	255	256	257	251	248	248	245	248	252	247	247	246	241	244	246	251	251	251	251	254	253	251	253	253	255	256	259	258	255	253	253	252	253	252	249	248	249	250	250	250	251	250	250	249	253	255	256	256	259	260	254	254	253	251	252	250	250	248	248	248	247	247	248	248	250	250	250	248	247	255	254	251	248	250	250	249	251	247	246	246	243	245	247	249	247	247	252	253	251	249	248	249	249	251	251	251	249	248	244	247	247	247	247	247	249	253	253	254	250	248	247	246	246	247	247	247	247	247	248	248	248	251	253	251	248	251	251	251	251	249	249	249	249	248	246	247	248	248	249	248	247	248	249	254	254	255	254	255	253	255	257	256	254	250	250	250	251	253	252	254	253	253	252	254	252	250	247	247	247	245	245	247	247	246	246	249	249	250	249	251	251	251	249	251	251	250	250	250	251	250	249	251	249	246	246	246	248	249	248	248	248	247	248	249	252	254	254	254	249	249	247	246	249	250	253	254	254	252	255	249	248	250	252	253	252	251	251	247	246	246	248	248	249	249	250	246	246	246	250	248	249	248	250	250	249	250	250	250	252	252	249	249	250	250	249	250	245	247	244	244	245	244	245	244	246	247	248	248	247	246	245	245	245	249	248	248	252	247	244	245	247	248	246	247	247	247	247	248	249	252	252	252	250	250	249	249	249	249	246	245	247	249	249	250	246	248	248	249	248	246	247	248	242	241	241	244	245	245	247	244	243	242	241	244	244	244	244	244	244	243	243	244	245	249	249	251	251	249	245	245	242	243	243	244	244	245	246	251	246	246	247	246	241	244	243	243	247	246	243	240	240	242	242	242	246	247	248	247	247	245	245	244	244	242	244	246	247	246	247	245	242	244	244	242	242	241	246	248	247	243	243	241	244	245	245	243	243	243	244	245	243	243	247	249	247	243	237	240	246	246	247	252	250	245	245	245	249	251	250	247	246	247	246	247	243	243	243	242	242	243	247	246	248	245	245	245	245	246	248	248	245	244	243	242	243	243	242	242	243	243	244	244	242	239	241	243	244	246	244	242	241	239	243	244	242	241	243	242	237	241	243	244	243	243	243	244	245	243	243	245	246	245	240	240	242	243	242	240	240	239	242	246	244	244	243	242	243	242	242	241	241	240	240	239	239	238	241	243	244	245	246	245	244	241	239	240	240	240	240	239	238	239	240	240	240	239	238	239	238	239	239	239	239	239	240	240	239	238	238	238	239	240	240	239	241	240	239	237	237	241	240	240	240	240	241	242	243	245	246	243	246	245	244	243	241	239	242	245	247	246	241	237	244	245	242	242	240	240	238	239	239	241	238	244	244	245	244	242	239	241	241	237	238	238	237	234	236	238	238	238	238	237	236	235	237	237	239	239	237	237	239	238	238	238	237	239	239	239	232	234	235	235	238	239	240	0	0	0	0	0	0
