404	401	398	398	398	398	399	400	400	402	404	404	405	407	407	405	407	404	402	406	406	406	403	402	401	405	405	410	410	409	407	407	405	405	405	396	404	410	412	412	409	407	407	407	407	407	409	406	400	397	398	402	402	398	395	398	402	406	408	408	409	408	407	404	404	403	403	405	405	405	406	404	401	397	394	392	394	397	402	405	405	405	405	405	400	398	394	392	392	393	396	399	400	404	400	399	402	404	399	400	403	402	397	395	399	399	400	400	396	391	390	393	395	401	400	398	397	399	399	397	396	398	397	399	396	396	396	396	402	400	394	391	392	395	402	402	400	398	395	393	393	393	393	393	391	390	391	395	395	395	392	389	397	401	402	397	392	390	391	391	397	402	395	393	390	389	387	392	395	399	400	398	397	396	391	390	390	391	395	394	393	392	388	387	387	388	389	388	391	387	388	389	389	390	390	388	385	385	387	387	384	382	382	382	386	385	385	389	390	391	390	390	390	391	398	391	390	386	382	380	381	382	384	398	396	394	389	386	384	383	384	386	387	387	387	388	387	385	386	387	389	385	389	388	389	386	383	382	389	391	386	380	378	379	383	385	385	384	383	383	381	381	380	377	374	381	382	382	380	386	387	387	382	378	377	378	382	390	391	379	377	378	380	379	385	386	382	385	382	381	380	380	380	381	382	385	386	389	388	386	383	383	380	379	378	383	378	382	392	387	388	386	382	382	378	381	383	390	386	384	383	381	381	381	377	376	376	379	377	375	375	374	380	383	385	380	377	378	378	378	382	383	385	383	382	386	389	389	389	381	375	373	372	371	373	373	375	378	377	376	375	377	381	385	388	390	390	388	383	377	375	379	384	389	394	393	385	383	376	375	376	377	380	379	380	385	385	381	374	372	375	385	388	388	388	391	389	383	382	384	387	386	380	373	377	378	381	381	379	378	377	374	372	375	378	380	377	374	372	371	373	382	381	380	380	380	380	381	382	384	387	386	384	382	382	380	378	380	379	378	376	381	382	381	380	384	384	382	388	389	381	385	381	382	383	384	387	386	388	387	381	378	376	375	375	379	380	379	370	370	371	373	374	375	377	390	392	390	387	384	380	377	374	373	377	383	384	386	383	380	378	379	377	378	379	380	381	382	382	382	380	379	375	377	378	379	384	385	383	382	381	380	383	380	381	382	383	381	380	381	381	380	379	376	374	374	375	377	375	376	378	378	379	379	380	380	380	382	383	386	383	381	377	374	373	373	373	375	375	374	372	375	378	379	380	382	380	381	379	378	375	371	371	376	377	373	373	377	379	379	380	379	378	375	374	371	372	375	378	377	377	375	371	371	371	370	371	372	376	374	374	376	377	379	380	379	380	376	372	372	375	375	378	377	380	380	378	375	372	371	369	371	372	374	377	377	377	377	372	372	375	374	374	372	373	375	377	374	370	367	365	365	0	0	0	0	0	0	0	0
394	393	393	393	395	397	397	397	397	397	397	399	403	404	404	401	401	397	398	401	401	401	395	394	397	402	405	405	401	398	396	397	394	388	388	394	400	403	405	405	403	404	404	406	408	410	400	399	396	392	394	394	394	392	392	393	395	391	389	395	396	399	399	396	396	392	390	394	395	397	398	395	394	390	391	388	390	390	394	395	396	392	396	394	394	392	387	385	385	387	388	391	391	390	391	391	391	391	390	389	394	396	394	392	397	396	397	394	391	386	387	390	392	392	392	396	397	397	394	392	388	387	389	392	392	390	388	391	398	395	392	387	388	390	393	396	390	384	382	384	387	389	392	391	389	384	386	391	390	388	386	388	392	402	400	390	386	386	384	382	386	386	389	389	388	386	386	385	387	385	385	392	393	393	384	386	386	386	379	379	380	381	383	384	382	380	381	391	390	389	388	390	389	389	388	386	381	382	386	385	382	380	381	379	379	380	379	380	382	382	384	382	384	387	388	386	387	387	385	384	385	379	376	376	389	389	384	382	380	379	380	382	384	385	384	383	380	379	380	385	385	381	382	384	384	384	381	381	383	383	381	377	379	376	377	380	379	377	377	376	376	381	381	379	376	375	377	376	376	380	382	382	377	375	372	374	378	384	385	383	375	379	378	380	381	383	381	379	381	380	380	379	378	379	383	385	387	387	386	382	380	379	376	377	377	374	374	379	381	381	385	381	378	376	377	378	380	383	381	379	380	379	380	377	376	376	371	372	373	375	375	375	374	375	376	378	375	371	376	377	381	384	384	384	381	378	375	374	377	383	384	380	378	372	371	371	369	369	369	372	375	377	382	387	389	391	389	386	383	379	377	379	385	392	397	395	383	379	375	373	374	376	377	378	381	384	386	383	379	376	381	381	383	374	376	383	385	382	380	381	377	370	366	367	371	375	378	379	378	377	374	370	369	368	376	373	372	372	370	369	370	376	376	378	378	378	375	375	374	375	377	380	379	377	376	374	373	377	377	375	375	371	373	377	377	378	377	377	374	373	374	373	375	379	381	378	377	377	378	376	378	376	374	369	369	372	372	369	368	368	368	369	371	372	380	385	386	385	376	374	374	370	369	368	369	380	382	378	379	375	368	373	374	374	375	378	381	381	383	379	370	367	363	370	372	380	383	380	379	382	375	373	373	376	378	376	374	371	370	371	376	378	375	373	369	368	369	370	373	373	377	375	374	369	361	362	366	372	375	377	376	375	371	367	369	369	371	371	372	370	367	367	369	371	369	369	371	369	364	362	364	358	365	370	373	368	368	370	371	375	375	375	363	365	369	372	372	371	372	372	372	370	371	370	365	366	368	369	370	370	369	362	359	360	366	368	368	367	365	366	366	368	374	372	370	368	365	365	369	369	369	369	368	370	373	372	360	362	365	367	370	369	369	366	365	367	369	368	364	363	359	361	0	0	0	0	0	0	0	0
383	387	388	392	392	396	399	397	393	393	393	393	398	401	401	401	393	391	392	396	396	394	392	392	395	398	398	398	394	391	389	390	390	388	388	391	393	396	396	395	397	400	400	404	398	398	391	390	386	386	387	389	389	389	388	386	385	384	380	381	386	393	394	392	389	389	390	389	389	392	393	390	389	391	393	389	385	388	388	390	388	387	389	388	388	386	383	386	387	386	386	387	389	389	389	388	385	382	377	380	386	394	394	390	385	393	393	387	382	381	383	386	388	387	383	386	394	392	390	388	385	384	383	386	386	384	382	385	391	388	386	385	386	389	382	389	387	381	381	381	384	384	385	385	382	379	381	384	384	384	387	387	392	399	390	387	384	383	380	382	382	375	379	382	382	379	380	382	383	382	382	388	389	380	380	380	380	382	382	381	380	383	383	383	382	379	378	375	381	386	385	380	382	384	384	380	378	381	379	376	375	376	378	381	382	381	380	380	380	381	380	379	376	372	374	372	375	378	380	380	380	381	374	373	373	374	381	381	378	374	377	378	381	381	379	380	377	376	378	382	382	376	375	376	375	372	372	376	381	384	381	380	376	374	373	374	374	374	372	374	374	375	381	380	377	374	376	374	373	376	376	374	374	369	363	369	375	379	381	374	372	370	378	379	378	379	380	380	380	381	382	381	377	378	382	387	389	381	379	379	377	373	373	374	374	368	369	375	377	379	377	373	373	375	375	375	377	378	374	374	375	374	375	375	376	375	375	372	372	375	375	375	371	371	371	373	370	368	368	375	382	383	382	381	366	367	371	375	378	383	385	384	382	374	371	370	369	368	367	369	370	372	379	382	386	387	386	382	372	372	374	379	380	379	378	387	379	377	373	375	375	375	374	372	377	382	381	379	374	370	375	377	374	371	370	374	379	379	372	371	366	362	360	364	367	370	372	375	376	375	372	367	366	367	371	369	370	372	371	369	367	363	376	376	375	374	371	369	369	370	372	372	366	365	369	369	367	369	376	373	374	373	370	374	374	374	372	372	371	370	370	368	370	367	371	374	374	369	369	369	371	373	369	365	366	368	366	366	367	367	368	369	369	371	373	376	375	368	366	370	372	367	364	364	366	369	372	374	372	366	367	369	371	371	373	376	378	379	376	371	366	364	365	368	373	376	376	368	366	367	365	366	363	358	361	357	361	364	365	366	367	370	371	369	367	361	363	368	371	371	371	373	366	358	355	354	358	360	368	370	369	369	365	365	366	366	366	367	369	366	362	359	361	364	365	364	363	368	367	357	348	358	362	364	367	365	366	366	366	369	368	361	360	361	365	367	367	368	367	367	361	361	361	359	359	362	362	364	365	364	362	358	356	356	359	365	366	366	360	359	359	365	366	366	367	365	360	361	366	370	372	368	367	369	367	358	357	361	366	365	367	367	367	362	359	360	361	359	359	357	358	359	0	0	0	0	0	0	0	0
379	382	383	387	387	392	396	395	392	392	387	383	384	391	393	393	385	384	388	389	386	386	385	385	387	388	391	391	392	388	385	385	383	388	388	391	389	388	388	389	383	382	387	387	391	386	385	386	385	385	386	388	388	387	385	383	380	379	377	379	383	388	391	391	392	392	390	389	388	388	387	389	389	393	395	391	383	383	388	387	387	387	387	388	385	385	381	380	385	386	384	386	385	389	388	385	383	379	377	377	380	383	385	381	379	377	380	380	378	380	380	381	382	380	379	380	385	388	384	383	382	381	381	381	378	377	377	378	382	379	379	381	381	377	376	375	379	374	369	378	379	381	381	379	377	376	378	379	380	381	385	388	388	378	378	375	374	377	378	373	373	372	375	375	379	375	368	371	372	375	374	382	376	377	377	376	378	379	379	378	374	377	375	375	370	368	370	372	369	367	367	368	371	374	380	375	373	370	372	369	364	366	376	380	381	381	379	376	376	375	374	373	372	369	367	369	361	363	366	371	374	374	372	362	360	363	366	370	370	368	368	369	370	370	370	372	369	364	365	366	376	375	368	372	374	373	371	373	374	376	379	381	376	373	370	367	370	371	370	370	370	367	366	378	374	372	370	369	368	372	372	372	375	375	370	360	366	374	376	375	372	374	372	372	374	372	373	374	376	379	378	375	375	372	368	368	365	367	375	375	372	370	369	367	365	366	369	375	375	373	369	368	373	373	374	374	377	377	369	367	367	369	370	373	375	376	375	374	371	371	370	369	368	367	366	363	364	364	367	367	380	379	371	368	366	367	370	373	377	381	383	382	381	376	374	371	371	367	367	371	372	375	374	377	382	385	383	371	369	365	367	368	368	369	371	370	367	365	365	371	369	367	365	366	366	373	375	374	370	366	366	369	369	368	366	363	365	362	363	359	356	357	360	361	360	364	367	372	375	374	372	368	366	369	369	368	367	367	368	366	362	360	361	367	370	371	369	367	367	367	366	365	362	364	364	363	365	364	373	372	372	369	367	368	370	370	369	367	369	369	369	366	366	365	371	367	368	366	364	365	367	366	365	363	363	360	363	365	366	368	368	368	367	367	364	361	362	362	365	366	369	366	362	361	363	366	369	370	365	364	365	367	371	372	372	371	371	370	370	366	361	359	363	354	359	360	360	359	359	360	359	358	355	353	357	358	361	361	362	361	362	361	358	356	355	356	362	364	363	362	368	365	361	353	352	354	357	357	356	363	361	361	359	359	359	359	360	363	363	361	359	358	360	363	364	358	360	363	360	359	357	358	360	361	363	361	359	359	364	364	361	358	355	356	361	363	363	361	360	361	359	359	358	358	359	359	360	361	364	362	359	358	355	353	351	349	350	352	355	355	359	362	362	362	361	358	359	360	363	370	370	369	361	358	356	356	357	361	365	364	366	366	362	358	356	357	357	359	359	358	358	356	0	0	0	0	0	0	0	0
374	376	378	382	382	384	387	386	387	387	383	380	382	385	385	385	378	379	380	381	379	379	379	378	379	384	387	387	384	380	377	381	386	388	386	386	383	381	381	380	380	382	383	383	384	381	383	384	385	385	386	388	387	387	383	381	378	375	376	378	382	382	382	382	381	381	381	383	381	380	383	386	389	394	394	390	381	380	377	376	377	378	382	382	379	379	377	377	378	379	380	380	381	382	377	379	377	376	377	377	377	380	380	374	371	370	370	373	373	376	376	376	375	376	375	375	375	376	377	378	377	376	377	377	375	373	372	373	372	372	370	372	372	373	370	369	376	371	369	371	375	377	375	373	370	369	373	375	376	378	378	381	379	375	372	372	371	371	372	373	371	369	371	371	372	372	369	368	372	376	376	371	371	368	371	375	378	378	375	371	373	371	374	371	367	363	364	364	364	360	362	364	367	371	371	371	369	375	372	361	360	361	364	366	370	375	375	372	372	371	371	372	372	369	365	360	359	360	361	365	369	368	361	359	359	364	367	368	370	369	367	364	363	365	371	368	366	364	363	366	368	372	357	357	368	370	369	369	369	373	378	378	375	372	368	365	365	367	369	367	365	360	359	359	370	364	365	364	364	361	364	369	372	371	367	360	357	358	358	362	367	378	375	369	372	373	368	354	360	363	368	370	370	369	365	365	365	365	371	371	370	367	364	362	362	363	372	373	370	367	365	365	364	371	370	375	380	371	364	362	360	364	367	369	373	374	364	362	361	366	367	365	364	364	363	361	361	364	367	367	365	363	366	367	367	367	368	372	374	380	380	380	378	375	369	370	370	367	367	369	369	369	368	369	363	373	375	364	363	365	365	365	367	366	369	367	367	362	364	360	365	364	361	355	358	362	370	368	365	362	362	365	360	362	364	362	363	363	362	359	356	355	355	356	357	358	362	365	370	372	370	367	364	366	367	366	365	364	364	363	357	353	356	358	369	365	364	363	366	365	360	359	359	362	361	360	361	363	365	369	370	368	364	366	365	365	363	364	365	362	362	362	365	357	357	359	359	363	362	364	367	365	362	359	352	353	359	361	365	365	364	365	361	362	359	361	361	363	364	363	362	362	357	355	356	360	365	365	364	361	362	364	363	360	358	363	363	363	361	360	346	344	346	346	349	349	349	349	352	355	354	354	352	351	353	357	358	359	360	358	358	355	349	350	351	354	354	350	349	354	365	366	363	361	356	356	356	355	355	358	353	354	355	353	355	355	355	357	357	354	353	353	358	360	360	359	360	363	357	356	355	354	352	355	359	358	356	352	357	359	358	355	353	352	355	355	354	350	347	351	357	357	356	357	357	361	359	359	357	352	348	351	352	351	347	347	348	350	350	352	354	356	355	352	355	354	353	352	359	365	366	362	357	353	348	349	357	362	366	363	353	353	353	348	349	348	350	353	353	356	354	351	0	0	0	0	0	0	0	0
371	378	377	380	380	379	380	382	380	380	378	377	378	381	380	380	374	374	376	379	375	375	375	374	373	375	378	379	379	377	375	374	379	381	377	377	373	373	377	379	382	384	383	383	379	377	374	375	380	382	381	382	382	382	380	376	373	373	377	377	377	375	379	379	379	379	379	378	379	381	381	377	378	391	393	389	378	375	373	374	373	375	374	378	375	375	370	369	369	369	369	367	368	366	366	368	370	372	372	373	377	377	377	375	372	370	370	368	371	374	374	373	370	367	367	370	372	371	372	369	368	370	373	374	373	367	367	366	367	367	368	369	371	369	367	365	380	371	370	370	370	371	369	366	363	366	371	371	372	373	369	372	374	373	372	370	371	371	371	372	371	365	366	367	368	369	370	369	369	369	369	368	368	366	370	367	368	378	375	372	373	373	372	369	366	362	363	366	372	367	364	365	367	370	369	368	369	370	364	360	358	358	357	356	357	368	366	364	366	370	369	372	370	367	359	358	356	358	359	362	364	366	363	356	359	364	367	366	365	363	362	361	360	366	367	368	368	364	363	363	362	361	358	353	353	357	361	361	365	369	373	377	370	365	364	365	368	371	374	371	365	359	354	351	352	356	357	363	364	362	356	354	355	357	358	354	350	348	356	365	367	366	365	362	357	356	357	356	352	348	349	363	367	366	366	365	365	364	367	370	366	360	358	357	359	361	366	365	364	363	364	364	362	360	361	364	367	364	361	359	357	360	363	366	369	362	360	360	361	360	361	358	354	351	355	359	361	364	368	359	358	360	364	367	367	368	366	362	360	362	375	376	374	367	364	368	364	364	364	366	366	364	361	361	360	359	361	361	360	362	363	363	365	365	368	365	364	360	358	356	360	360	354	347	347	350	352	358	363	353	350	351	350	349	353	360	361	361	360	352	352	349	352	351	353	354	359	361	367	367	366	365	358	361	364	363	361	353	350	348	348	350	352	351	355	358	357	356	356	357	353	351	357	357	361	357	358	361	359	363	366	367	362	360	357	356	350	346	344	345	350	355	354	354	353	353	353	357	358	363	364	358	352	353	355	355	354	353	361	361	359	358	358	359	358	361	362	362	361	358	356	354	352	351	354	356	359	361	360	359	361	361	359	357	353	349	356	341	342	341	342	341	341	343	345	346	347	349	351	352	351	352	351	349	351	349	351	352	356	354	348	346	348	349	348	347	347	348	350	351	352	356	355	355	358	359	357	355	352	344	337	336	338	341	352	351	350	348	349	349	349	350	353	357	357	355	355	355	353	353	350	349	348	350	356	358	352	351	354	355	356	351	349	348	348	348	346	343	345	348	353	352	351	355	357	359	357	354	353	347	345	343	346	346	345	344	345	346	346	350	351	350	348	350	348	350	349	349	348	359	359	357	351	346	342	341	344	350	353	351	351	350	347	346	344	344	345	344	350	349	350	345	0	0	0	0	0	0	0	0
371	376	375	374	374	373	374	375	373	370	370	370	374	376	376	376	372	376	375	376	372	372	371	369	371	371	374	374	374	371	372	369	367	369	365	365	367	370	373	377	383	381	380	379	371	368	367	371	375	378	377	376	373	373	370	367	368	366	371	370	369	371	370	371	375	375	375	374	375	375	373	368	368	373	374	370	367	368	367	369	373	373	373	371	369	368	368	367	364	364	364	365	366	366	364	364	367	369	370	370	370	374	375	373	370	369	368	369	370	373	373	370	363	364	364	365	366	366	369	361	359	360	365	369	368	362	362	359	360	364	366	368	368	366	364	362	366	376	370	365	365	363	362	357	360	366	366	364	365	365	364	366	368	372	372	371	368	368	368	368	363	360	361	362	364	366	364	361	359	359	359	363	369	367	367	366	362	362	363	361	360	368	363	362	361	364	366	366	362	363	362	362	361	360	362	365	365	366	359	358	358	357	355	356	356	360	360	359	363	366	367	367	366	361	356	355	356	356	358	359	361	362	360	354	358	362	364	364	363	362	360	359	359	360	361	363	359	361	360	360	359	359	357	351	347	349	352	358	357	360	361	362	363	363	361	362	362	362	363	361	360	358	348	351	353	355	360	357	355	359	355	353	352	347	345	351	351	353	360	362	358	358	358	357	354	353	357	354	352	348	347	347	349	353	358	359	362	362	361	361	358	356	355	350	357	357	353	355	358	360	360	362	357	360	359	362	365	362	359	356	354	358	362	363	354	351	356	357	358	359	358	357	352	350	349	356	358	359	354	356	361	363	368	363	362	363	363	362	361	363	370	372	370	361	360	362	361	359	358	362	362	360	360	358	357	355	355	356	357	359	360	360	359	361	362	361	356	354	346	348	358	357	355	347	346	346	347	349	349	348	345	345	349	345	347	349	355	357	357	350	348	344	347	351	346	350	350	349	355	356	359	360	354	353	350	349	351	353	354	354	354	352	350	350	349	347	345	344	342	346	353	351	345	344	347	348	344	350	350	350	351	353	354	349	342	342	339	339	338	343	347	353	354	353	352	350	350	352	356	355	355	353	350	352	351	349	351	357	354	352	350	348	355	355	356	358	361	359	358	355	351	350	348	349	351	355	357	357	356	359	359	360	358	353	352	345	344	344	343	343	343	343	344	345	342	342	343	347	345	348	349	349	348	345	342	341	340	342	345	346	344	346	347	348	347	346	345	348	348	348	347	345	344	344	347	352	351	348	346	341	338	334	336	341	344	346	345	342	343	345	345	347	351	354	350	349	348	350	351	348	344	343	338	339	348	352	351	351	351	350	349	347	348	346	344	339	337	331	343	347	350	350	348	349	352	352	350	353	350	346	343	341	341	341	340	339	335	335	337	341	346	345	347	346	346	345	345	345	345	345	348	345	345	343	341	341	340	339	341	342	342	344	344	342	343	341	343	341	342	344	346	343	0	0	0	0	0	0	0	0
368	371	371	370	364	364	365	362	360	360	360	364	367	372	371	371	374	377	377	373	370	369	369	366	368	367	366	368	368	369	367	363	360	360	359	359	362	366	371	378	376	375	373	369	369	369	366	368	369	367	368	368	368	365	365	360	359	362	364	366	368	366	365	362	362	364	364	365	368	369	371	368	363	362	362	361	360	361	364	365	367	369	369	362	364	364	364	364	363	363	363	364	363	364	364	365	368	370	367	363	361	363	370	368	363	362	365	367	370	371	369	365	363	363	363	362	359	362	362	359	357	358	361	364	364	361	358	357	358	362	363	366	367	367	364	361	359	358	361	358	355	356	355	356	356	362	361	359	359	359	361	363	365	367	369	368	364	363	365	361	360	357	355	356	357	359	360	359	356	355	357	357	363	365	362	359	358	356	359	355	357	357	357	360	361	362	362	360	359	361	360	360	358	355	355	358	361	362	356	358	358	358	355	355	357	357	358	356	357	358	360	359	358	354	352	353	356	359	358	356	356	354	354	352	356	359	360	359	358	357	358	357	358	358	358	356	351	353	356	358	357	358	356	350	344	346	350	355	353	350	349	354	361	359	359	359	357	354	354	350	350	350	353	354	353	348	344	346	349	349	351	350	352	348	343	348	352	355	359	360	356	355	355	353	351	349	351	349	349	349	347	346	348	351	354	358	361	361	360	357	355	351	346	347	356	357	354	350	354	357	357	352	352	353	353	358	362	360	357	349	344	346	351	352	349	346	347	349	354	357	356	353	352	349	349	350	350	350	353	357	358	358	357	356	354	354	357	360	360	360	360	355	355	356	358	359	358	357	358	359	356	358	358	357	352	351	353	351	355	357	359	357	356	353	354	356	354	351	348	348	354	357	354	343	343	344	347	348	347	346	344	342	347	348	346	349	347	347	345	348	343	342	344	340	341	346	348	347	345	345	348	351	346	346	346	348	351	352	346	345	351	351	353	351	348	344	341	340	342	346	352	349	343	347	348	350	342	342	344	346	348	349	342	340	338	338	338	336	340	340	342	347	349	349	347	346	346	346	353	350	348	341	349	348	349	347	349	355	351	349	348	346	349	348	336	345	357	355	348	350	348	346	345	346	349	351	353	348	349	355	359	359	341	340	338	340	344	343	343	345	345	343	344	344	342	341	340	337	336	335	340	340	340	340	341	341	339	336	335	335	340	343	343	341	342	342	342	343	341	344	344	343	344	344	345	345	342	340	341	340	339	337	337	339	342	343	343	340	338	337	338	341	345	345	347	346	346	347	346	342	338	335	336	338	341	343	349	349	347	347	345	345	344	344	341	339	337	338	347	350	351	346	345	345	346	348	346	350	347	345	342	341	339	339	338	336	336	336	337	339	344	349	346	341	337	341	341	341	340	339	339	338	343	342	340	338	337	336	338	339	339	339	339	338	338	339	339	341	340	343	344	342	0	0	0	0	0	0	0	0
366	370	369	363	363	363	362	360	357	354	354	357	364	369	372	374	367	371	371	366	364	361	361	359	360	361	362	362	362	364	362	360	358	354	356	359	359	363	367	368	369	367	369	368	368	367	361	363	361	362	364	365	364	359	359	354	355	357	360	361	364	363	361	358	356	357	359	359	363	364	362	362	362	361	361	360	358	357	356	358	360	355	357	357	360	359	361	361	362	362	361	360	359	361	362	363	363	364	363	359	356	355	361	365	364	360	360	361	360	364	362	362	361	363	362	361	360	362	363	358	355	353	352	353	353	352	354	353	356	358	360	364	367	366	365	352	348	348	349	350	349	351	353	353	354	353	355	355	355	356	356	357	359	359	354	357	359	357	355	358	358	356	350	349	348	355	357	356	354	352	353	354	357	358	357	352	350	354	354	347	351	354	354	354	357	357	357	358	356	351	354	358	356	354	354	355	356	351	352	354	357	358	357	354	356	355	354	351	350	350	351	352	350	349	347	351	355	359	356	356	355	352	352	345	349	351	349	347	352	353	355	356	355	353	347	347	347	346	345	353	351	352	348	346	343	344	352	353	351	349	349	349	351	352	356	350	350	347	349	346	346	345	345	345	345	345	341	338	344	346	348	350	346	344	342	343	348	354	356	353	350	347	346	346	346	345	345	346	347	346	347	347	347	348	353	356	356	354	348	350	348	346	343	351	354	354	351	347	351	353	350	349	348	344	348	352	356	356	346	342	339	337	336	337	339	342	344	345	350	351	352	352	351	348	345	346	349	348	348	352	355	355	357	354	353	353	356	355	354	353	357	352	351	352	353	354	354	354	357	356	352	353	355	352	350	349	349	353	353	353	353	354	351	349	346	347	353	351	345	347	349	352	341	338	338	339	343	345	347	345	344	341	343	344	347	344	346	345	343	342	340	339	344	344	342	344	343	343	341	342	335	340	339	340	344	344	345	341	341	340	340	342	349	353	348	345	343	343	346	343	342	341	341	342	348	350	343	340	341	342	338	336	335	335	337	337	336	339	340	340	343	340	342	340	341	342	346	345	342	343	336	335	336	342	336	335	340	341	340	340	342	345	345	336	334	332	331	335	339	343	344	344	341	340	339	341	341	342	343	345	344	340	338	336	335	337	341	341	343	344	343	341	340	341	341	340	340	339	333	331	333	339	338	338	339	339	336	333	331	333	340	340	339	337	337	341	341	340	338	338	340	341	342	345	344	343	340	335	340	342	340	338	335	333	339	341	342	341	338	337	336	337	338	336	332	333	333	334	334	333	333	333	334	336	339	339	339	347	345	343	342	338	338	340	339	336	337	338	341	340	338	337	339	343	343	338	333	334	337	339	340	341	340	337	335	333	333	334	337	338	340	341	340	336	328	325	325	331	336	338	337	335	332	337	337	334	334	335	337	337	336	336	334	334	334	335	336	338	338	340	332	332	332	0	0	0	0	0	0	0
363	369	366	360	360	360	361	360	353	347	347	348	354	357	361	367	359	362	359	359	361	359	359	357	357	357	357	357	355	355	356	358	360	359	356	357	357	355	354	356	360	363	367	365	365	361	359	356	357	358	360	361	359	352	352	351	353	355	357	358	359	360	359	358	356	355	356	356	358	358	357	359	359	360	360	354	351	350	350	351	351	348	354	356	357	357	355	355	355	357	358	357	354	353	353	352	354	355	359	355	349	350	353	358	358	357	353	354	355	355	357	358	359	358	356	355	356	358	360	357	353	349	346	345	347	348	349	345	349	349	354	359	364	367	354	348	349	349	348	347	347	347	350	352	352	349	349	349	350	350	350	349	352	352	345	345	347	349	352	352	354	351	344	343	345	350	353	354	351	351	352	352	354	357	351	346	342	339	341	342	345	349	349	346	348	351	350	349	347	347	350	354	355	354	354	351	347	348	350	352	354	356	356	354	353	352	350	349	345	343	344	342	344	341	344	351	352	349	349	348	351	349	343	343	345	345	342	340	340	344	345	345	343	339	339	339	341	342	343	342	343	341	342	343	342	347	351	352	351	349	348	347	349	349	348	348	346	345	344	344	343	342	342	343	344	343	340	337	337	344	346	345	340	337	333	335	345	346	344	343	344	344	342	341	342	342	340	343	344	345	347	346	345	343	344	346	348	346	344	342	346	348	348	348	345	342	348	345	342	348	347	346	343	341	345	349	348	343	341	339	340	337	336	336	337	338	340	343	347	350	348	346	345	343	339	341	345	347	348	349	348	353	353	352	351	350	352	351	351	350	350	346	347	349	351	351	350	350	351	351	349	351	351	351	346	342	340	342	342	347	349	349	348	346	337	337	337	342	343	342	344	337	336	333	333	333	334	344	345	344	344	340	342	340	340	344	341	343	341	341	341	343	344	345	342	339	337	340	338	331	337	339	339	340	341	341	339	339	338	338	339	341	342	341	339	340	346	345	346	340	338	337	340	341	342	344	342	338	336	336	336	335	333	334	335	335	334	336	337	337	338	336	335	336	336	341	345	342	336	330	330	330	334	338	333	331	337	340	339	338	339	342	341	336	334	334	332	333	335	339	341	337	333	333	333	335	331	337	340	341	340	337	336	335	334	334	337	337	337	343	339	337	337	337	339	339	338	333	330	332	333	332	336	337	338	338	334	332	332	333	334	338	336	335	337	334	330	329	328	327	327	332	338	344	344	342	335	337	339	338	342	333	336	337	342	339	338	337	336	337	336	335	336	335	334	335	332	332	332	331	330	330	332	335	337	334	333	333	332	331	332	336	336	337	336	336	336	334	334	335	336	333	334	333	331	327	324	325	331	333	338	340	339	336	332	332	330	333	336	336	333	330	330	328	325	325	329	334	335	332	331	327	325	324	325	327	329	331	330	330	328	327	331	330	331	332	332	335	334	329	319	320	320	0	0	0	0	0	0	0
359	363	360	356	356	356	360	360	355	350	347	347	348	351	354	359	352	352	351	355	355	356	356	356	355	355	355	354	352	352	350	351	353	355	358	358	358	358	356	353	354	358	356	352	350	350	352	354	354	356	358	358	354	350	349	349	353	354	355	355	352	347	344	345	349	352	352	352	352	354	356	354	357	359	354	351	348	349	350	348	344	345	348	353	353	353	351	349	349	349	351	350	344	347	346	345	345	345	346	346	346	346	344	347	347	347	348	349	350	351	351	351	347	352	350	351	351	353	353	353	352	349	343	339	339	342	342	342	344	347	348	351	355	357	345	346	350	350	351	349	348	341	340	341	342	344	344	345	345	344	343	343	344	344	341	342	344	345	348	347	345	341	339	337	338	343	344	343	341	342	342	342	343	350	348	344	339	339	338	339	340	341	343	341	341	340	343	342	343	344	344	344	345	351	349	347	344	345	347	349	352	347	345	344	349	348	348	348	346	344	343	340	340	339	347	341	340	338	338	339	344	343	343	344	342	340	336	336	338	340	341	342	340	338	336	336	337	339	339	337	335	334	335	337	340	340	343	345	344	342	342	345	344	343	339	338	342	343	340	339	338	339	337	341	343	339	337	337	335	338	339	338	338	335	333	330	329	331	334	340	340	340	338	337	337	335	335	339	340	339	341	342	343	340	342	346	346	342	342	340	342	343	340	340	338	338	335	338	341	343	343	346	345	338	332	332	331	342	343	341	338	337	337	337	339	335	333	339	341	342	345	344	339	337	338	338	339	338	336	342	345	336	340	347	347	346	345	346	346	346	342	342	344	347	351	351	348	345	346	347	348	348	350	345	344	343	343	338	337	333	343	342	341	338	338	333	333	333	333	332	332	333	332	331	330	328	337	345	342	337	337	333	330	332	336	337	336	333	329	332	336	340	344	342	341	337	335	331	328	330	335	337	338	339	338	337	336	337	336	337	337	333	332	332	333	336	337	339	340	337	331	331	335	337	338	333	336	335	332	330	328	329	331	332	332	325	323	321	320	332	333	336	334	333	333	332	334	340	333	327	326	330	333	328	328	328	334	335	337	336	336	336	338	338	335	335	333	331	333	338	334	330	328	327	326	327	328	329	339	338	338	336	333	333	330	332	334	335	335	336	336	337	336	335	336	337	331	330	330	331	332	333	327	324	328	330	331	331	330	326	327	327	324	323	322	324	321	318	325	327	323	328	333	335	334	333	331	331	338	335	328	328	329	330	333	333	331	328	329	330	330	335	335	333	333	334	334	332	332	330	330	329	330	328	329	331	333	329	327	327	328	330	332	333	334	330	333	334	334	333	332	331	330	330	327	324	324	324	327	330	334	338	337	334	334	331	329	331	332	332	332	331	328	326	325	325	323	322	325	328	326	326	326	327	332	326	323	321	321	324	325	322	322	323	327	328	329	325	322	320	318	318	318	0	0	0	0	0	0	0
354	357	354	351	351	351	355	357	353	352	345	345	344	346	350	352	346	344	345	346	349	352	352	352	351	352	353	352	349	349	348	349	350	352	355	356	354	354	352	348	347	353	346	346	348	348	349	350	351	354	353	353	350	347	345	345	348	351	352	351	344	342	339	340	342	346	347	350	350	354	355	355	354	353	351	350	347	349	346	343	340	340	342	347	348	347	345	344	344	344	343	342	342	341	341	344	345	346	348	347	346	345	342	340	342	341	343	345	346	348	346	342	343	343	345	345	345	346	347	349	350	348	347	346	347	346	345	341	343	345	347	347	346	342	341	345	348	349	348	344	340	335	334	335	336	335	336	337	340	340	339	337	337	336	339	340	340	342	343	343	342	340	339	337	335	332	332	334	338	341	341	340	341	345	346	345	343	339	337	336	335	336	336	339	337	337	339	339	340	339	337	337	339	339	335	338	338	338	341	346	347	343	341	341	343	346	346	347	346	343	341	339	340	343	340	337	338	337	335	335	338	341	341	341	338	335	334	334	336	338	340	339	339	336	336	336	335	337	336	335	334	336	337	336	334	334	337	335	334	335	337	336	335	335	332	332	335	338	336	333	334	334	336	339	339	336	334	333	336	335	333	334	334	333	331	329	326	328	329	332	333	334	335	333	333	331	332	336	334	332	331	331	330	333	336	336	333	335	329	329	338	339	337	337	337	336	334	332	335	336	338	338	338	334	333	332	333	335	339	340	338	336	336	335	331	327	330	334	336	339	343	344	339	337	337	337	335	333	330	331	331	332	333	335	335	338	338	340	342	341	336	339	342	346	348	344	340	339	337	334	334	337	340	339	337	336	336	335	333	331	331	336	343	339	338	336	334	333	332	332	335	338	337	334	333	334	331	330	333	335	334	330	328	329	333	336	334	332	328	328	330	333	336	337	336	334	334	336	335	335	334	335	335	335	334	332	334	334	334	334	333	332	331	331	330	334	333	334	335	334	332	332	331	331	328	330	333	334	332	330	329	328	327	324	324	323	318	313	315	319	332	334	333	331	329	330	324	324	331	330	330	331	330	330	328	332	333	338	336	336	331	332	325	323	329	329	328	328	326	329	327	322	323	325	324	327	329	336	332	329	332	333	330	326	325	326	326	325	323	323	325	326	325	333	334	335	329	328	329	330	332	331	323	323	323	325	328	327	330	328	324	322	320	321	320	321	320	321	326	327	328	328	328	329	329	328	323	319	312	316	319	325	329	328	327	326	327	327	328	328	327	327	327	326	330	331	330	324	322	317	314	313	320	323	325	327	325	325	327	327	328	329	327	325	326	327	329	330	329	329	325	324	324	325	326	324	323	324	324	327	328	330	333	333	334	332	328	328	324	328	329	327	326	325	321	320	319	318	319	319	324	324	327	330	327	323	324	320	320	318	320	325	326	325	322	323	321	320	318	319	318	318	318	0	0	0	0	0	0	0
349	349	347	346	347	350	350	351	353	351	345	345	343	344	348	346	339	339	340	341	344	344	345	345	347	349	349	349	349	349	347	347	349	350	351	352	349	349	346	344	344	346	343	344	344	344	346	347	347	349	346	344	343	339	340	340	344	349	350	345	340	338	337	338	341	343	346	347	347	344	341	339	341	344	347	349	344	345	342	340	338	337	340	342	342	341	340	341	340	340	340	339	338	338	339	340	339	343	346	346	345	344	340	335	334	335	339	342	344	344	341	339	338	338	338	339	340	342	344	345	346	343	342	343	346	346	340	334	334	337	339	340	341	338	335	336	337	343	343	334	329	331	330	334	333	334	337	338	339	337	335	335	334	335	338	337	336	335	336	335	338	339	339	337	336	332	331	334	336	336	337	336	338	342	343	342	339	340	337	336	332	332	331	331	333	336	337	338	338	338	333	332	326	326	331	334	333	330	338	340	343	340	338	337	339	342	339	335	332	332	340	340	340	329	334	336	334	330	330	331	333	337	339	337	334	332	332	333	333	333	331	328	328	329	333	335	334	334	334	334	334	336	336	329	331	332	334	334	335	334	336	337	334	330	330	331	331	329	326	324	325	327	331	333	334	332	332	326	324	329	330	332	332	332	331	327	325	325	326	327	329	330	333	333	332	330	331	333	333	330	328	329	331	333	335	335	332	331	330	326	326	331	333	334	333	332	328	326	327	332	332	335	335	329	329	331	331	329	328	329	330	328	326	319	320	324	326	330	333	332	339	339	335	331	330	330	330	330	329	328	329	330	331	331	331	332	332	333	329	330	336	334	334	331	329	329	325	327	328	325	325	329	333	336	333	330	329	327	328	329	330	332	334	335	336	335	333	333	331	329	332	333	333	330	327	326	326	329	330	331	330	327	325	327	329	332	332	330	328	328	327	329	331	331	332	333	335	336	335	333	333	333	333	332	329	327	330	331	330	330	328	328	328	326	326	327	322	328	331	332	330	328	324	324	326	328	329	333	332	326	325	326	325	324	320	320	324	325	317	318	331	331	330	328	326	325	325	324	324	323	322	324	324	323	327	329	330	322	329	334	334	330	319	317	314	323	323	322	321	315	315	322	325	323	324	324	331	333	330	328	323	318	316	317	318	318	319	317	317	319	324	323	321	320	321	330	327	329	322	321	323	323	318	322	321	319	317	318	322	326	326	324	323	323	323	324	325	326	328	325	324	320	318	326	325	324	321	317	316	319	319	322	322	327	324	323	323	322	324	327	326	325	325	326	327	326	319	318	321	320	321	320	319	318	320	322	322	321	325	326	326	328	327	326	325	326	326	325	324	323	319	318	317	322	325	324	323	323	323	324	323	324	324	328	328	325	319	318	320	322	321	320	323	321	319	318	316	317	317	317	317	318	316	319	317	317	316	318	318	314	317	321	324	324	321	319	318	315	315	315	316	316	318	0	0	0	0	0	0	0
342	342	342	344	343	345	345	349	350	348	342	342	340	337	337	339	334	334	333	337	334	336	337	337	342	342	345	346	346	345	345	345	346	347	347	346	341	341	338	339	339	341	339	341	345	344	344	346	344	337	332	329	329	333	335	337	337	339	343	343	343	340	340	341	343	345	345	342	339	339	337	336	339	341	344	345	343	341	336	337	332	334	337	339	339	338	337	335	335	339	339	338	335	332	330	329	328	331	339	341	344	343	338	330	326	329	333	337	337	337	338	337	339	336	333	335	336	338	341	342	342	342	339	339	339	339	334	326	327	332	337	339	336	335	333	333	332	333	333	329	328	327	328	332	335	337	340	339	338	336	334	333	332	332	336	336	333	331	330	330	332	337	340	341	340	336	332	326	328	334	334	334	333	337	337	337	336	336	337	334	333	331	331	333	335	338	338	336	337	335	333	328	322	323	328	332	331	329	328	332	336	337	335	334	335	338	338	335	329	329	328	326	326	327	333	333	330	326	326	327	324	322	322	322	333	329	332	333	332	329	327	326	324	315	321	323	324	322	323	328	329	328	326	325	324	324	332	335	335	336	334	334	329	328	329	331	328	327	324	321	323	325	325	326	328	330	325	322	324	326	328	331	329	329	327	325	324	324	326	323	324	325	318	320	321	324	325	326	326	325	327	328	331	333	331	328	320	324	327	324	324	325	330	329	323	323	323	322	324	325	327	332	329	326	327	328	323	324	326	327	327	327	316	316	313	314	321	325	324	331	326	327	330	327	326	323	325	331	333	334	334	329	329	328	325	325	324	325	325	323	326	327	322	319	317	317	321	322	323	322	325	327	331	326	328	323	324	325	326	327	328	326	327	332	332	331	328	326	326	328	328	328	326	323	326	324	325	325	325	326	327	328	327	326	330	328	328	327	325	325	326	327	329	330	329	332	333	330	328	327	329	331	330	327	326	325	323	318	317	318	325	325	324	323	322	317	320	324	324	327	325	322	323	327	324	323	323	325	324	325	326	325	324	324	324	328	323	321	321	318	321	328	328	323	324	324	325	324	321	321	316	319	319	323	325	321	321	325	324	323	327	329	319	319	315	322	320	319	317	315	316	323	323	319	316	319	323	324	319	320	318	318	316	314	314	315	315	314	320	323	320	318	313	318	323	325	326	323	322	319	314	312	312	318	318	314	316	313	312	318	320	323	322	322	322	324	324	325	326	322	320	319	317	316	320	320	316	313	316	317	318	317	316	315	318	318	318	319	320	322	324	324	325	324	321	318	312	314	320	322	322	320	318	316	314	319	318	316	319	322	323	324	325	323	322	320	320	321	320	316	312	310	312	315	315	322	319	314	316	317	318	320	320	320	319	316	315	315	315	318	318	316	319	318	316	313	314	315	314	313	311	311	311	315	316	315	313	313	317	314	315	317	317	312	311	312	312	313	310	313	313	313	315	0	0	0	0	0	0	0
337	337	338	338	340	340	340	343	345	346	336	333	333	333	333	334	334	329	329	330	331	334	335	335	337	337	338	339	336	338	338	340	346	347	343	332	328	328	332	336	337	330	331	335	339	343	343	345	337	333	330	331	333	335	339	340	340	341	340	336	333	334	340	341	341	340	336	333	330	330	329	333	336	340	346	342	339	333	325	325	327	330	333	337	336	336	333	332	328	331	330	330	328	323	321	320	324	328	333	339	337	333	329	328	325	326	328	329	330	332	336	337	337	335	332	331	331	335	336	336	336	336	339	338	336	335	329	321	324	329	332	334	335	333	330	329	329	329	328	325	326	324	324	323	331	333	336	336	336	325	323	323	326	324	322	326	327	326	325	327	330	332	336	335	332	328	324	322	322	328	333	333	331	327	334	334	332	330	332	336	336	333	330	330	331	333	337	333	334	332	331	323	320	321	326	328	329	326	326	328	327	335	333	330	334	335	334	326	324	326	325	323	323	325	327	325	323	322	323	324	324	321	317	315	314	317	328	324	326	322	322	327	326	317	316	315	315	314	314	324	324	324	326	325	322	321	323	324	327	326	322	320	318	320	327	329	328	326	321	319	321	320	317	321	323	323	323	322	323	325	327	329	326	322	320	315	316	318	323	322	319	312	313	316	317	321	324	323	322	324	327	329	331	325	320	317	319	318	317	323	323	323	324	320	317	318	319	321	322	323	324	327	326	324	325	319	320	319	319	318	319	318	316	313	315	315	315	315	316	321	321	322	323	319	315	313	314	326	328	329	330	329	328	326	325	324	324	322	320	323	323	320	314	312	312	314	318	321	322	323	319	316	318	321	319	319	323	323	323	322	321	321	326	328	330	328	324	322	324	323	323	323	319	318	319	319	322	324	324	324	324	325	326	325	325	325	325	323	320	320	321	324	325	325	325	328	331	323	326	325	325	325	324	325	321	319	320	319	317	315	317	316	317	321	311	317	317	320	321	319	320	321	321	326	324	321	317	318	319	317	314	314	313	319	321	321	324	321	319	319	318	323	320	319	326	326	324	322	319	316	318	319	323	323	322	321	320	323	322	321	320	319	316	313	318	319	319	319	318	315	315	319	319	316	320	316	312	318	309	309	310	319	315	315	313	311	313	315	317	320	314	312	317	323	325	324	322	314	312	313	313	313	316	315	317	316	315	313	314	316	316	322	318	316	318	319	318	315	313	315	316	316	315	314	313	313	312	310	311	310	310	308	309	307	311	312	314	316	317	320	320	319	313	312	312	311	312	314	317	320	320	316	312	310	311	314	313	312	311	316	318	318	321	320	317	314	316	317	313	309	305	309	311	311	307	305	306	311	314	313	314	314	317	319	316	313	313	313	314	316	319	318	315	314	313	312	312	312	311	309	308	309	313	313	313	312	312	312	308	313	314	310	309	307	307	307	308	310	310	308	308	307	312	0	0	0	0	0	0	0
334	334	337	338	335	334	334	337	340	333	330	327	327	328	329	330	329	324	325	329	331	332	336	335	335	330	327	327	326	328	328	325	329	331	330	326	325	329	329	329	327	325	326	329	333	332	332	333	327	327	329	330	331	331	333	337	337	337	334	333	334	336	339	339	334	332	331	332	331	331	328	333	337	333	336	333	329	324	325	324	322	324	324	324	329	330	330	328	327	326	325	322	322	317	320	321	323	327	330	331	332	331	330	329	331	330	329	327	325	327	330	333	337	335	332	328	325	326	327	327	329	332	336	338	337	333	327	321	322	326	331	333	332	332	328	326	326	326	323	322	322	322	322	321	320	326	332	331	328	326	326	326	323	321	316	316	322	323	323	325	327	330	330	328	325	322	321	321	319	319	322	322	322	323	329	332	330	329	324	323	324	330	328	329	327	326	324	333	328	322	321	319	318	318	318	319	321	323	324	325	325	327	328	327	325	326	331	324	323	323	321	322	322	323	323	321	318	319	322	323	324	319	315	310	311	314	316	315	316	318	324	325	324	316	316	319	317	317	318	321	320	321	322	324	322	319	315	316	317	315	312	312	310	311	313	316	323	321	319	315	315	315	314	315	314	315	316	315	314	317	321	321	319	319	318	317	316	307	309	311	319	316	312	315	320	321	321	323	323	323	326	330	327	323	319	319	317	316	315	316	319	320	318	317	315	316	317	318	319	320	322	321	319	314	314	314	316	313	314	314	313	314	314	313	314	315	316	317	316	314	314	313	314	317	314	312	314	316	320	321	325	324	321	318	316	316	316	317	319	321	317	314	311	306	307	311	314	317	313	310	310	311	317	317	318	318	318	313	315	318	317	318	323	322	322	315	316	319	320	320	320	314	314	313	316	313	317	322	321	321	321	321	323	321	323	322	317	316	315	316	318	319	319	321	324	324	324	318	316	315	316	318	322	322	319	319	319	315	315	313	313	314	313	313	313	314	317	318	318	318	319	320	321	323	323	319	313	313	315	316	318	318	317	317	317	317	311	309	308	312	315	315	316	315	313	316	324	319	315	310	313	317	326	324	320	318	318	319	319	319	319	313	309	307	314	316	317	318	317	314	313	314	314	318	315	313	312	314	318	319	320	318	314	313	313	313	313	311	311	309	309	309	321	321	318	318	315	309	311	311	312	313	314	315	316	317	315	314	314	314	315	319	314	314	314	317	316	315	313	314	316	314	313	312	311	309	308	305	307	306	305	305	302	298	302	306	309	315	315	314	313	313	311	310	309	308	311	315	317	316	315	310	310	308	309	310	309	309	307	304	308	308	308	305	302	309	313	317	312	308	306	309	309	311	307	304	305	309	311	310	310	312	314	316	314	311	311	311	309	311	316	315	313	311	312	311	311	309	305	304	303	308	307	311	310	309	309	308	307	305	308	309	305	304	305	307	307	307	308	306	306	304	304	0	0	0	0	0	0	0
333	333	333	327	324	327	329	329	329	327	324	324	324	324	325	324	324	319	319	322	331	334	330	329	329	327	321	318	316	321	325	325	328	329	330	326	324	323	323	317	315	326	327	326	325	321	322	322	323	326	326	328	329	329	329	330	332	332	332	335	335	336	336	334	332	329	325	327	328	330	330	328	325	325	329	323	322	323	321	321	322	323	324	325	323	324	325	326	328	329	330	326	326	321	320	321	321	321	321	320	319	320	323	325	328	330	328	325	328	328	329	332	335	335	332	328	323	321	321	321	324	325	326	328	326	325	324	318	321	322	323	327	328	328	325	324	323	323	321	320	319	320	320	321	320	321	323	325	326	327	326	325	323	320	315	315	317	319	321	325	328	328	329	328	325	323	321	321	318	317	315	313	313	317	325	329	328	320	321	317	315	320	328	321	322	317	313	314	315	317	318	317	315	318	319	318	320	321	323	322	322	323	323	322	323	325	325	323	322	322	321	320	320	317	317	317	318	319	321	322	323	321	321	317	315	315	324	320	316	316	314	318	322	323	322	320	319	318	318	318	318	319	313	314	315	318	314	313	313	313	311	310	312	312	310	309	311	311	313	313	313	311	312	312	312	316	316	315	314	317	319	319	316	313	313	310	309	307	308	309	311	316	315	314	319	315	315	319	319	316	318	320	329	326	321	318	318	316	315	315	314	316	313	312	314	315	317	317	316	315	313	312	313	308	307	310	314	312	310	309	311	311	311	312	313	315	315	317	316	316	313	313	312	313	314	313	311	308	315	317	319	318	315	311	312	313	314	315	317	309	305	304	308	308	307	310	311	312	310	309	309	309	308	311	310	312	313	313	313	316	312	314	317	317	317	315	313	310	314	315	313	309	304	304	308	311	314	317	319	317	317	318	318	317	311	313	314	315	312	312	314	315	314	317	319	321	322	315	314	313	312	312	315	317	319	318	316	315	311	310	315	313	314	315	314	317	318	317	315	316	318	318	318	317	316	315	309	306	307	315	318	317	312	315	312	311	307	308	308	311	314	313	310	309	311	313	312	311	311	311	311	312	314	318	319	317	317	319	316	317	312	309	306	306	305	313	313	313	311	306	307	313	312	314	310	311	307	313	316	317	317	316	314	311	310	310	312	310	307	305	307	309	316	313	312	311	309	307	307	310	312	313	308	308	308	309	306	311	310	311	314	315	313	311	312	312	311	309	309	309	312	312	311	307	306	305	304	303	307	306	301	302	302	303	304	305	307	306	308	307	306	305	302	301	300	305	310	312	314	315	313	310	308	307	310	309	304	303	304	303	309	308	308	308	305	307	307	308	300	308	306	307	306	311	306	298	299	305	305	309	308	310	312	312	311	309	310	307	306	306	308	310	309	310	308	308	309	306	303	300	299	304	303	305	308	307	307	305	306	303	302	301	299	301	304	304	303	302	304	303	303	302	302	0	0	0	0	0	0	0
331	325	325	320	320	323	325	325	326	326	325	324	324	324	322	320	319	321	321	323	327	330	330	327	327	327	328	327	325	324	324	324	324	322	322	320	317	317	317	319	319	325	327	326	320	320	321	321	320	321	322	325	327	327	327	327	329	329	331	332	330	332	332	330	329	327	321	320	324	326	326	325	319	317	318	318	320	320	320	321	320	323	324	322	322	320	321	321	325	326	324	321	316	316	318	319	320	317	319	319	317	314	318	322	326	324	323	326	326	325	325	327	331	335	330	326	323	320	318	316	317	320	314	317	319	319	313	313	318	321	326	328	329	330	326	322	322	321	321	319	318	315	319	319	316	318	322	323	325	325	324	321	320	316	316	314	316	318	321	321	325	325	326	324	321	321	322	321	320	316	312	309	310	311	312	316	316	317	319	318	315	312	317	319	316	314	310	310	314	316	318	318	318	318	318	317	319	324	327	328	328	323	321	319	318	318	316	314	319	323	320	317	313	308	315	314	310	311	312	315	317	320	319	317	316	318	322	322	318	310	311	317	320	323	323	321	318	317	315	315	315	312	312	309	310	311	311	312	313	312	311	312	311	310	312	310	310	313	314	312	312	313	315	318	316	313	316	313	314	315	317	314	313	313	312	306	306	305	307	309	309	311	315	313	312	312	309	308	308	308	307	309	311	312	309	310	311	311	312	313	313	309	308	309	309	308	312	316	316	313	310	310	309	308	308	309	308	304	305	301	303	308	309	311	312	315	315	316	314	313	313	311	312	315	314	313	302	307	308	316	317	316	310	308	308	311	312	311	308	304	301	300	301	304	307	309	309	310	310	309	308	308	305	305	310	311	312	314	313	311	311	311	312	316	316	310	311	312	312	313	307	306	305	303	305	305	305	306	307	306	309	308	309	309	309	309	309	311	310	311	312	313	313	313	315	317	311	309	309	308	306	307	312	316	319	319	315	313	311	310	310	310	314	314	313	309	306	305	307	312	314	315	312	311	309	306	305	306	306	306	304	305	308	305	305	306	306	308	308	310	311	310	307	305	307	309	312	310	308	309	309	310	312	312	314	315	311	310	310	312	311	305	306	307	309	308	303	302	303	309	310	308	309	306	307	303	303	310	314	314	309	309	310	311	310	305	303	301	303	304	306	313	308	307	306	306	306	307	308	307	312	305	305	306	306	307	306	309	307	309	311	313	312	310	310	309	308	307	306	308	309	307	306	305	299	299	298	294	292	297	299	299	297	300	301	302	299	303	306	305	303	299	294	294	299	303	303	301	301	302	305	306	305	306	302	300	298	301	300	302	307	307	306	305	305	307	308	307	301	304	306	306	303	299	294	296	301	301	304	305	306	308	308	308	307	305	306	305	305	305	306	305	305	302	305	306	307	304	301	298	298	300	301	302	304	304	305	301	299	302	300	296	294	297	305	305	301	301	301	301	300	302	300	0	0	0	0	0	0	0
321	316	316	316	317	319	321	321	322	321	317	317	316	316	313	314	317	321	321	328	328	327	325	324	324	325	326	326	324	320	319	319	318	317	314	317	317	318	318	318	322	320	325	323	317	317	317	317	315	314	317	322	324	323	324	323	322	322	322	321	323	326	327	324	323	317	315	316	319	321	321	319	315	314	316	318	318	318	318	318	320	323	323	323	322	321	318	319	319	316	315	314	312	310	310	315	313	315	319	317	318	316	313	314	315	318	320	319	316	314	314	317	320	321	319	315	320	319	316	307	305	307	311	311	315	314	308	309	312	315	322	324	323	322	323	319	315	313	312	309	308	311	313	314	314	316	318	320	320	320	319	318	314	314	314	313	316	317	319	318	322	321	323	319	318	317	319	319	318	314	311	311	314	319	316	313	313	315	317	312	313	312	309	311	312	309	309	311	314	316	316	318	313	310	310	311	314	316	320	322	318	310	309	310	311	309	309	308	309	307	308	310	311	313	317	318	319	310	310	309	308	310	315	315	314	315	317	318	310	311	308	309	315	310	310	313	313	312	311	310	310	311	309	307	308	308	309	311	313	309	309	309	309	309	308	309	306	307	307	309	313	310	309	310	317	316	315	313	307	311	313	311	310	312	306	306	306	305	308	309	309	309	309	309	309	309	308	307	306	304	306	310	311	309	306	309	310	310	311	312	311	309	306	305	306	308	309	309	309	308	307	307	301	305	305	303	303	304	303	299	299	301	303	305	305	304	303	303	306	310	310	312	311	311	313	308	306	304	303	311	316	311	306	307	306	308	310	309	305	305	299	298	302	305	308	309	308	308	309	308	307	307	306	302	301	304	305	308	311	310	309	307	306	307	307	305	306	308	309	310	307	305	305	306	304	305	304	303	303	305	305	307	308	302	303	306	308	309	309	311	310	306	305	307	309	311	307	308	308	307	307	307	307	314	317	310	309	309	309	309	308	309	310	311	310	307	301	304	303	304	309	315	312	307	305	305	305	305	305	305	303	300	302	302	304	303	304	306	309	310	311	305	301	301	301	303	308	307	304	305	306	308	309	307	300	301	303	303	302	306	301	301	300	298	300	300	299	296	300	303	307	305	304	305	307	306	301	305	306	307	307	307	307	308	308	308	302	299	301	307	309	303	300	301	302	303	303	306	306	309	307	307	304	304	303	305	306	308	303	305	308	308	305	303	306	294	296	295	296	301	303	305	303	297	297	298	297	291	290	294	297	295	296	297	297	296	297	298	303	301	304	305	304	298	298	294	291	295	295	298	302	303	304	301	300	298	295	296	296	297	298	304	302	298	304	306	306	302	302	301	303	303	301	298	295	298	298	301	304	305	304	304	303	300	296	294	299	303	304	303	299	298	298	297	296	296	296	296	292	293	297	298	302	301	299	299	299	297	294	294	297	294	294	296	304	303	301	300	299	299	299	300	299	0	0	0	0	0	0	0
309	306	306	307	310	312	312	312	314	315	315	312	312	312	317	319	320	320	325	325	326	322	321	322	323	323	324	322	320	319	318	318	317	314	312	316	319	319	318	318	316	311	313	312	311	315	316	316	316	312	314	316	319	320	319	316	315	314	314	315	317	318	319	323	320	317	315	314	316	318	319	319	314	314	317	317	317	316	314	313	316	319	321	320	321	321	320	316	313	312	310	310	310	308	309	309	311	318	318	316	317	316	314	311	312	316	318	318	310	307	307	311	318	320	317	316	309	307	305	303	303	304	310	308	311	316	309	305	305	307	311	314	316	315	316	310	308	306	307	306	304	302	301	303	305	308	315	314	317	316	315	313	312	312	313	313	310	312	317	317	313	315	318	319	315	315	315	315	314	308	311	314	315	314	312	308	308	311	312	312	311	310	311	311	309	308	303	306	308	309	309	311	308	308	309	310	313	304	304	305	307	308	308	307	307	307	308	308	308	303	304	306	307	309	313	311	311	307	309	305	309	311	310	314	313	312	313	309	308	309	306	307	309	304	308	307	305	304	305	305	306	307	309	307	307	308	309	308	310	307	306	306	306	305	301	304	304	305	305	307	305	306	307	308	310	311	304	311	308	303	301	301	300	298	305	306	305	307	307	308	307	307	303	306	306	307	305	305	305	302	304	309	306	305	302	304	302	305	309	309	309	307	304	303	303	303	308	308	308	308	305	300	299	303	302	302	303	301	297	298	299	299	300	298	298	299	303	304	308	308	309	308	306	303	305	306	306	305	305	304	305	306	306	307	306	307	307	303	306	303	296	297	300	303	306	307	305	303	300	298	303	305	305	301	301	299	301	305	306	306	304	301	301	303	304	303	299	301	302	305	303	299	301	303	304	303	304	306	303	305	306	308	305	304	303	303	305	310	309	307	305	305	305	304	301	307	305	305	305	310	308	306	304	306	307	305	304	307	308	306	304	309	307	304	304	301	300	298	299	302	302	307	309	309	308	306	305	305	302	301	299	298	300	300	302	303	303	303	308	308	309	308	304	299	301	300	303	302	300	302	305	302	305	302	300	298	297	296	297	300	299	298	298	298	297	294	295	296	299	302	304	303	302	304	305	305	304	304	304	304	303	304	304	305	306	302	299	298	296	295	295	299	299	299	298	299	300	303	304	307	305	303	302	301	299	297	297	292	298	301	293	293	296	288	291	292	294	295	293	291	295	296	296	294	290	291	294	293	289	292	291	294	293	294	292	291	295	295	296	299	301	303	297	296	290	288	289	287	287	291	296	301	301	301	300	298	294	295	296	296	297	297	297	297	297	303	301	298	298	300	302	302	300	299	299	299	296	298	298	301	300	301	300	296	292	296	299	299	301	295	295	297	297	296	293	293	292	290	292	294	293	293	296	297	294	294	292	293	293	293	292	290	292	292	294	296	298	298	298	297	297	298	299	0	0	0	0	0	0	0
310	308	309	309	308	309	311	312	312	313	313	311	315	315	316	315	316	303	309	309	313	318	321	322	322	322	320	319	318	317	316	315	315	313	310	310	316	320	315	315	308	308	310	310	311	313	315	315	315	312	312	312	314	314	313	310	307	307	307	310	315	317	316	315	313	313	309	314	315	307	307	310	310	313	314	312	318	317	316	313	310	310	313	309	309	308	313	312	310	309	310	310	312	311	312	311	311	314	316	316	315	314	309	309	305	311	312	310	308	302	303	314	314	317	316	313	308	298	301	303	312	312	308	311	310	315	310	305	305	305	307	306	310	311	309	304	303	304	303	304	301	299	299	300	304	308	309	307	311	311	312	313	310	311	312	312	311	311	309	309	311	308	307	306	304	304	305	305	305	307	309	305	305	309	309	307	307	306	307	309	310	309	311	309	304	301	302	304	305	306	306	310	309	306	307	304	303	302	302	304	306	305	304	304	306	306	306	308	308	300	300	301	304	305	310	309	308	304	301	305	309	311	309	311	310	309	307	307	306	306	303	301	301	302	304	302	300	299	300	302	304	304	305	305	304	305	304	306	306	305	305	304	302	300	300	299	300	301	302	303	303	305	301	299	300	300	304	300	299	299	303	301	301	299	300	305	304	302	304	305	305	304	303	298	303	303	302	302	302	301	301	302	300	299	299	299	299	302	306	307	307	305	303	302	301	301	303	304	302	300	302	299	297	301	302	302	302	300	297	297	300	300	299	299	299	300	303	305	307	308	308	305	303	302	302	304	304	302	302	304	304	303	301	302	304	305	303	302	303	303	296	296	297	299	301	300	297	294	295	295	293	293	296	301	301	297	299	300	302	302	301	300	300	303	303	301	298	295	298	299	300	300	298	302	304	302	301	305	306	306	308	305	303	302	303	304	308	307	306	306	307	302	299	299	304	305	302	301	300	303	294	304	305	306	305	303	302	303	301	300	300	306	299	299	300	300	297	295	295	295	299	301	302	304	300	298	303	300	299	295	292	293	294	298	303	303	303	306	302	302	301	310	317	310	302	300	299	298	297	289	290	305	302	301	295	292	292	293	293	294	295	296	297	297	298	298	298	299	299	300	302	302	299	302	303	303	303	302	299	296	300	300	299	300	300	299	298	296	294	293	293	296	297	298	298	298	298	298	300	300	302	303	304	302	298	286	287	290	292	291	292	292	294	290	286	292	294	295	294	289	288	293	292	292	291	289	288	290	288	288	291	291	289	288	286	287	289	293	293	295	299	296	295	289	289	287	285	287	286	287	293	294	298	299	303	298	296	295	293	293	294	292	288	289	298	295	289	290	294	299	293	291	291	291	292	292	293	291	294	292	289	288	288	285	285	289	297	299	290	292	294	296	295	294	292	293	293	293	292	294	293	290	293	292	292	291	293	291	292	293	290	288	289	291	294	293	295	295	295	294	295	296	296	0	0	0	0	0	0	0
309	309	308	308	308	307	306	307	307	310	311	311	308	308	306	308	303	303	308	308	315	318	319	315	310	310	311	311	310	311	314	313	313	311	308	310	315	316	310	308	307	310	314	313	311	310	310	305	305	304	305	304	305	308	306	304	303	305	309	309	309	311	310	307	307	306	306	309	308	310	305	306	306	307	310	309	311	312	314	313	311	311	313	314	304	302	302	301	302	307	306	308	308	300	300	302	302	300	310	312	312	307	306	305	304	303	303	303	302	301	303	314	313	312	312	308	300	300	302	305	307	309	310	310	310	306	307	305	303	301	302	304	305	309	308	305	303	303	302	299	298	297	295	297	304	307	303	303	302	301	302	302	301	311	311	311	305	306	306	305	305	305	303	302	303	306	307	305	302	298	298	301	301	306	307	304	303	304	302	302	304	305	307	304	301	298	300	302	302	303	304	308	308	303	302	300	300	300	301	302	303	303	302	301	301	304	305	304	305	294	293	298	300	298	302	308	305	301	295	296	293	295	307	307	307	304	299	304	304	302	301	301	300	301	302	301	299	298	297	302	300	298	301	303	302	301	301	302	302	297	300	302	300	298	296	297	300	299	299	302	305	303	304	303	299	300	297	294	294	292	299	300	298	298	300	301	302	301	301	303	301	302	300	301	303	303	303	300	297	295	296	295	294	294	295	299	300	302	303	304	304	302	300	300	295	299	300	300	303	301	300	297	296	297	300	301	300	299	299	300	301	301	298	295	297	300	303	305	306	307	306	303	297	296	298	301	300	299	300	301	301	301	301	301	301	301	300	301	301	301	292	292	293	294	297	297	294	292	294	295	301	300	297	296	297	299	299	299	296	296	297	295	292	293	299	298	295	296	297	298	297	296	302	300	299	296	298	298	304	303	303	299	299	295	303	306	306	305	302	301	301	296	295	307	300	300	298	297	296	294	294	297	304	300	301	301	302	304	299	298	295	293	294	297	298	295	293	292	290	297	299	299	301	301	295	292	295	297	295	291	289	291	294	298	296	297	296	297	298	298	300	303	304	300	300	299	296	294	293	292	290	291	292	292	290	290	290	289	292	290	292	293	293	298	298	296	291	294	297	298	297	297	298	297	301	303	300	295	294	293	292	292	292	294	294	295	296	293	290	287	291	292	293	293	298	298	295	295	296	298	299	297	295	292	288	286	286	287	288	289	291	290	293	291	286	288	290	294	287	289	289	287	291	290	290	288	287	284	286	287	290	289	286	285	284	286	289	289	289	288	291	293	289	287	285	285	285	286	287	290	288	291	291	294	298	297	295	292	292	292	293	287	286	283	282	283	285	286	286	284	284	289	290	290	290	290	290	286	289	288	287	286	284	282	279	283	284	286	287	289	291	293	293	289	290	293	292	292	290	290	288	287	289	289	289	291	292	294	295	294	291	289	289	292	292	293	292	293	293	293	293	293	293	0	0	0	0	0	0	0
308	308	308	308	306	305	303	301	301	303	308	308	306	301	301	296	295	301	311	311	313	314	312	309	307	308	308	309	308	309	312	314	314	310	309	312	312	308	305	307	308	313	314	313	310	306	304	303	301	301	300	302	302	303	301	300	300	304	305	305	306	309	310	308	307	303	304	303	306	306	303	304	304	305	305	304	303	308	310	310	312	310	311	312	303	303	302	300	302	304	306	305	305	298	297	299	300	300	295	301	304	304	303	302	301	300	298	297	301	302	306	303	309	308	306	303	301	301	302	304	303	304	304	304	301	305	306	304	301	298	298	299	302	308	309	304	303	302	302	300	299	298	297	297	299	298	298	299	300	299	299	294	292	295	297	300	297	296	294	295	304	304	302	300	302	304	306	304	302	297	296	298	297	296	296	297	299	301	300	300	301	299	301	300	302	300	301	300	300	299	296	296	296	298	302	300	297	299	299	300	300	302	299	300	301	301	302	302	299	293	292	293	297	296	298	297	297	297	295	292	292	293	295	293	295	294	301	301	302	298	300	293	293	294	300	300	299	299	297	299	297	296	295	296	296	298	299	299	298	296	292	295	298	297	296	296	297	296	293	298	298	296	296	297	298	297	296	294	288	288	292	300	300	298	298	299	298	297	300	297	297	298	300	301	301	301	301	300	299	295	293	290	289	288	292	291	299	298	302	303	303	300	299	297	294	294	300	298	300	299	299	299	296	295	300	300	299	299	297	296	299	295	297	294	293	295	297	298	295	294	292	290	292	295	297	298	297	298	297	299	296	296	297	299	299	298	300	299	299	299	295	292	294	295	297	296	292	291	292	296	297	296	292	292	293	297	293	292	292	295	296	296	292	292	295	296	298	298	297	291	291	301	298	300	298	295	294	295	296	295	295	290	289	292	299	297	303	302	299	299	293	292	298	298	292	294	294	294	293	293	291	290	290	299	300	300	302	297	293	294	293	292	294	296	297	293	290	290	297	295	293	294	284	282	288	289	291	291	290	286	286	287	292	287	287	289	290	297	298	299	298	299	297	300	292	295	294	293	291	291	289	288	288	287	288	287	288	288	288	289	289	288	291	293	290	288	288	287	291	295	291	292	292	292	292	290	291	291	291	292	291	292	291	294	294	294	291	291	289	287	290	289	290	291	293	294	293	286	290	292	294	292	290	284	283	284	285	287	286	287	287	289	289	290	286	286	290	290	286	288	288	287	288	287	285	282	283	286	282	281	287	286	285	285	285	285	286	287	286	285	290	286	287	285	284	284	284	286	286	290	289	288	286	287	294	294	294	289	288	290	289	285	284	281	282	284	284	281	284	281	279	283	285	289	290	288	286	288	288	286	285	283	280	278	279	283	286	287	291	289	289	289	288	285	286	288	290	290	290	288	288	286	287	287	289	291	292	293	291	287	287	287	288	286	286	283	283	283	291	291	290	289	290	0	0	0	0	0	0	0
302	304	305	305	302	302	298	299	304	304	304	304	301	299	299	296	297	302	307	300	300	299	300	300	300	302	302	304	304	304	306	308	306	306	307	304	302	302	304	308	309	312	312	312	305	300	299	300	298	298	297	300	302	302	300	299	299	299	301	301	303	310	309	307	306	303	303	304	305	304	302	303	302	302	301	301	302	306	308	310	309	310	307	306	304	301	300	300	302	302	302	301	301	297	298	297	294	295	295	296	298	299	301	300	299	296	296	295	297	301	303	301	304	301	300	300	302	301	300	299	299	297	297	300	297	301	304	301	298	296	293	295	300	300	302	301	302	301	298	297	295	296	294	293	296	296	294	293	291	290	294	291	291	293	295	297	296	296	294	293	298	301	302	299	297	297	300	300	299	299	296	296	295	294	294	296	299	299	299	298	298	297	295	294	294	294	296	297	298	296	294	288	288	290	296	299	297	297	297	297	299	300	294	292	295	299	299	299	296	292	290	294	296	295	294	294	295	293	293	294	295	293	292	294	297	294	293	299	299	298	294	293	293	293	296	298	297	293	298	295	292	292	291	293	297	296	298	298	298	296	294	293	293	294	294	295	291	291	297	295	292	290	292	293	292	292	290	290	290	287	290	297	299	296	294	295	296	289	290	291	292	293	297	298	299	299	300	296	298	296	294	289	287	286	287	289	291	290	293	295	301	300	296	293	290	289	290	290	291	296	295	294	294	293	298	298	298	295	295	293	293	295	292	289	290	291	294	291	289	287	288	289	293	291	292	290	291	291	294	296	292	290	291	290	291	292	298	299	298	292	291	292	296	298	300	296	293	290	295	293	293	293	292	291	291	288	289	289	288	289	293	295	295	294	296	295	292	291	292	289	290	292	296	291	294	294	293	293	291	290	290	289	289	292	294	294	292	295	293	292	291	291	292	292	292	292	292	291	292	293	291	291	289	285	287	288	290	286	286	288	289	290	293	294	292	290	287	292	294	291	290	288	282	281	286	287	288	290	289	286	287	289	289	288	286	286	287	295	295	297	296	293	292	292	289	288	292	290	290	288	285	285	285	284	287	286	287	288	289	288	286	285	286	287	286	285	285	286	286	288	289	290	288	287	284	285	284	287	290	291	293	294	293	292	291	289	289	288	287	287	289	288	288	284	286	284	284	286	286	288	287	289	287	284	283	283	284	285	284	284	284	286	287	286	283	283	285	286	283	285	285	286	286	286	283	279	279	282	283	282	282	283	282	281	279	283	285	285	284	282	283	285	284	280	280	283	283	285	283	283	287	287	288	287	286	291	291	287	285	287	286	283	282	280	278	281	281	280	282	276	274	274	280	281	281	287	286	285	286	286	283	280	279	279	281	282	285	289	291	291	289	285	286	285	285	286	289	287	288	289	290	287	287	287	290	292	291	288	285	281	280	282	281	282	281	281	279	279	282	288	288	286	284	0	0	0	0	0	0	0
299	303	303	298	298	296	294	297	303	303	302	302	300	299	299	301	302	305	304	300	300	298	298	298	298	298	298	298	300	299	301	301	299	299	298	296	299	301	305	309	300	300	302	301	298	298	298	298	296	296	296	298	300	300	299	299	297	297	298	300	300	301	304	305	302	299	302	303	303	300	300	301	301	301	298	296	299	300	302	300	300	296	295	295	297	297	297	298	299	300	299	299	299	297	296	296	292	292	293	293	296	295	297	298	298	298	299	299	301	302	302	302	302	301	302	301	303	302	299	296	294	295	294	296	296	299	299	297	295	291	290	295	297	296	293	291	295	297	297	294	294	294	293	294	292	294	293	292	289	287	290	290	289	291	292	293	295	294	291	289	289	289	287	288	293	291	291	291	291	292	294	294	293	291	291	297	300	300	295	295	299	298	295	293	292	292	292	295	294	295	298	299	292	288	291	292	294	295	296	296	297	293	290	289	291	294	295	297	293	291	291	290	291	292	292	291	292	294	292	293	290	290	289	292	289	293	291	289	288	300	295	294	294	295	297	296	296	292	286	284	289	292	290	293	295	295	295	296	296	292	292	295	295	294	292	290	289	290	292	291	286	286	288	288	289	288	289	289	288	286	287	294	295	293	292	292	294	290	287	287	287	288	294	296	295	295	295	297	297	295	294	290	286	285	285	285	287	289	292	293	295	296	295	290	289	287	288	287	287	291	292	290	290	290	292	294	291	290	290	292	294	293	287	287	286	287	287	287	287	287	290	292	294	295	291	288	286	286	286	288	287	287	289	288	289	292	293	292	292	296	296	288	288	291	291	290	289	295	296	295	290	290	293	292	290	290	282	277	282	286	292	293	293	291	295	294	289	288	286	286	287	289	289	292	293	293	290	290	289	288	288	287	290	292	294	292	292	292	288	288	287	288	291	291	291	291	290	289	288	287	287	286	281	284	287	287	287	288	288	285	286	287	287	290	290	290	290	290	286	280	281	283	285	284	284	287	288	287	287	287	287	287	288	286	285	285	284	286	292	288	289	290	289	289	288	287	286	287	289	288	285	283	282	282	284	284	284	287	282	282	284	282	284	284	287	288	287	286	286	281	284	286	287	283	283	284	286	286	286	285	289	295	294	292	289	286	288	284	284	285	284	285	283	282	281	281	283	281	284	286	285	281	281	281	279	281	281	284	283	283	283	284	284	281	279	280	281	281	281	283	283	283	284	284	279	277	276	274	280	283	286	282	281	280	279	279	284	285	284	281	280	281	280	279	279	278	284	284	283	281	281	281	287	285	285	285	283	285	285	286	283	283	282	278	278	279	279	279	281	277	273	272	275	278	280	282	285	286	286	283	281	279	278	278	280	282	284	286	288	283	278	282	281	280	282	283	280	282	282	282	281	280	280	278	288	285	284	282	281	277	279	281	281	280	278	280	280	278	277	277	277	278	277	0	0	0	0	0	0	0
295	301	297	295	295	291	292	293	298	298	299	297	296	299	299	300	300	301	298	298	298	301	302	297	296	296	296	297	297	297	296	298	296	296	293	294	295	298	301	299	295	295	294	293	295	295	295	295	293	295	295	298	298	300	299	298	295	297	297	299	299	298	297	294	295	296	298	296	300	298	299	300	298	293	293	293	294	296	297	297	298	294	290	292	295	297	297	296	298	298	297	297	294	294	291	294	292	292	293	294	294	294	294	295	293	296	298	296	293	293	289	290	293	297	296	296	300	300	295	293	291	291	293	292	293	293	295	295	293	291	292	293	294	293	290	286	285	291	293	291	291	289	289	290	289	287	291	289	289	290	290	288	287	289	291	290	294	292	286	286	286	286	289	287	290	292	298	294	291	289	290	292	293	292	290	295	295	293	292	292	293	295	297	297	298	297	289	290	288	288	286	288	288	283	287	289	291	290	290	287	291	291	289	288	287	287	289	289	288	289	288	288	288	288	287	288	288	292	293	290	290	286	287	285	287	290	289	288	288	289	292	292	292	293	294	294	293	288	284	280	285	286	289	284	292	290	291	291	290	290	291	294	295	295	292	287	288	289	290	286	286	284	284	284	286	286	287	287	286	286	285	289	288	286	288	289	291	292	289	285	285	280	285	285	286	291	292	292	292	291	291	291	290	289	288	287	289	289	288	290	291	288	290	289	285	287	287	286	285	284	285	286	286	287	289	289	289	288	288	289	288	286	284	282	282	284	283	285	286	285	286	290	291	292	291	289	287	286	285	287	286	287	287	288	289	289	289	289	290	283	283	284	284	286	286	286	284	284	284	286	286	285	290	290	289	286	283	278	281	285	290	292	292	292	292	292	288	284	285	286	288	288	287	290	289	290	288	289	288	288	286	286	288	286	282	285	286	287	286	285	283	286	288	291	289	289	285	282	281	281	281	281	281	281	285	287	287	285	284	287	287	288	285	286	288	288	286	286	284	282	281	280	279	279	280	280	281	282	283	287	287	285	285	283	282	283	285	286	288	287	286	286	286	287	285	285	285	286	287	287	284	281	280	281	284	282	282	281	281	283	284	279	281	282	285	288	287	285	283	280	281	284	285	282	284	284	285	283	284	284	284	280	278	277	281	280	279	277	279	280	279	280	281	280	279	280	280	280	282	285	285	285	286	284	283	278	281	280	277	280	282	282	279	276	276	276	274	275	279	281	281	281	281	277	276	277	276	277	277	280	281	285	279	279	279	280	279	283	284	283	281	279	278	277	276	280	282	282	282	280	281	279	277	284	283	282	281	282	281	282	283	283	283	280	278	278	278	279	280	278	273	272	272	277	280	278	277	277	281	280	280	277	276	277	280	279	278	278	273	271	273	275	276	277	276	275	277	279	281	281	279	276	276	274	274	281	281	279	275	274	276	279	277	275	273	278	278	277	273	270	269	271	272	0	0	0	0	0	0	0
292	289	292	291	291	288	288	291	294	294	296	293	291	294	298	298	299	302	298	296	295	295	299	300	298	296	294	294	294	295	295	293	290	291	291	293	291	292	294	295	289	289	289	290	292	293	291	288	289	294	294	296	298	299	297	293	294	294	298	298	297	297	296	293	292	293	289	289	291	292	295	295	292	291	291	292	292	294	295	294	293	289	289	291	293	295	295	293	291	285	292	290	290	287	288	289	290	290	291	292	294	294	293	291	291	293	296	285	287	288	289	289	286	289	289	291	293	290	288	287	287	288	290	292	294	294	295	292	290	289	291	290	290	286	285	284	284	285	287	287	285	285	286	286	284	284	283	286	288	288	286	286	287	288	288	292	295	290	288	287	284	284	283	282	285	294	289	293	289	285	284	286	286	288	290	287	290	285	288	288	289	290	291	290	289	288	287	289	286	285	281	279	281	283	287	288	287	286	287	284	283	285	292	291	290	290	288	289	288	288	286	286	286	285	284	284	285	286	287	288	288	290	285	284	283	285	288	288	288	288	287	288	288	286	281	289	284	282	286	288	284	281	280	284	285	286	288	287	288	288	288	288	289	287	284	285	287	288	291	287	287	289	284	284	287	286	284	284	279	280	283	282	282	283	283	283	286	283	280	279	279	279	281	282	285	287	283	282	286	289	289	291	291	287	285	287	288	290	291	291	290	285	284	285	283	284	287	287	285	282	281	282	284	284	285	289	287	286	286	286	285	283	281	277	278	279	282	283	284	284	282	282	286	287	288	287	288	288	287	284	282	282	281	281	284	284	283	282	287	286	281	277	280	283	278	281	281	282	283	284	283	282	282	283	286	282	281	280	283	288	291	291	292	292	289	284	282	285	285	287	287	284	286	286	285	287	285	287	287	287	282	281	280	282	281	282	284	286	283	282	281	282	288	286	285	283	282	282	281	280	281	281	281	282	286	284	283	283	279	278	279	280	285	284	283	282	286	286	286	284	282	281	279	277	276	275	275	277	281	284	285	282	280	280	281	282	284	286	284	281	278	280	283	283	281	281	280	284	286	286	284	281	279	280	282	282	281	280	279	279	279	277	279	281	281	281	285	282	281	279	278	284	283	280	281	282	282	280	280	282	283	281	279	278	278	280	278	278	278	279	279	278	279	278	278	278	278	275	274	276	283	285	284	282	279	277	277	277	272	274	278	279	275	274	273	271	274	274	276	279	279	278	275	274	273	276	275	276	279	278	277	274	281	279	279	278	279	275	284	284	279	276	276	276	275	276	279	280	277	278	274	274	273	275	279	280	280	280	277	276	279	282	282	280	278	277	277	278	279	280	278	272	274	277	275	275	275	275	276	277	275	276	275	280	278	278	278	274	271	270	271	272	274	275	275	274	275	279	280	278	276	276	274	271	270	271	278	272	274	272	274	274	276	274	272	269	272	271	270	270	268	270	270	0	0	0	0	0	0	0
284	286	283	281	284	284	287	289	292	293	293	293	289	288	293	293	296	298	298	294	294	294	296	297	293	291	288	288	291	291	291	288	288	288	288	289	287	287	287	288	289	290	290	289	290	289	289	287	290	294	294	292	293	292	292	290	288	290	292	293	294	294	293	292	294	290	293	291	291	291	291	291	289	286	287	287	288	289	288	288	288	287	287	289	290	292	290	286	284	283	284	285	286	287	287	287	288	288	286	285	287	288	288	288	288	286	287	286	284	281	281	286	286	284	288	289	289	288	284	282	282	283	281	281	285	288	288	287	285	284	287	286	283	284	282	282	283	284	284	283	282	283	283	284	282	283	284	286	286	285	284	284	282	280	288	289	291	290	289	286	284	282	282	282	286	290	288	290	283	282	279	281	284	286	286	286	287	287	286	287	288	290	288	290	286	281	278	281	286	286	286	281	282	282	285	284	283	286	282	281	281	281	284	282	281	281	284	288	286	286	285	285	285	284	282	280	280	281	280	286	286	286	282	282	282	282	285	285	285	285	280	283	285	284	282	279	280	281	286	289	284	286	283	280	284	284	286	283	281	284	281	280	274	280	280	278	284	289	287	283	287	287	285	284	283	281	280	279	278	277	280	282	282	282	282	282	279	276	278	281	283	277	277	277	277	278	281	285	284	285	287	286	284	284	285	285	284	284	284	284	286	287	286	285	284	285	286	286	283	281	281	282	281	281	281	286	284	282	284	284	281	282	280	280	279	278	279	280	282	281	282	283	279	282	283	285	286	286	281	282	279	280	279	279	282	283	281	277	274	272	274	277	281	282	282	277	281	281	281	281	282	281	283	282	283	283	281	280	280	288	289	290	289	281	280	279	278	277	279	284	286	284	284	283	283	282	275	272	274	281	282	282	278	278	277	278	281	282	281	280	279	281	283	279	278	281	282	280	279	279	280	280	280	281	283	280	282	282	279	277	278	276	277	278	277	274	282	286	285	282	280	280	280	283	279	278	277	278	279	281	282	276	276	276	277	276	278	277	281	280	278	278	280	279	278	278	278	279	278	277	277	275	275	276	281	281	281	278	277	278	277	275	276	274	276	279	278	277	277	278	276	274	276	276	276	276	276	276	278	282	281	279	278	275	273	274	278	277	277	277	277	279	278	277	274	271	275	275	274	274	274	274	274	277	275	275	269	268	268	275	272	272	272	273	273	273	274	274	276	277	276	274	272	271	271	272	274	272	269	275	274	273	271	270	273	273	273	275	273	273	275	273	273	270	271	271	271	275	274	270	268	269	270	273	275	276	277	275	274	273	271	274	272	272	273	276	275	277	278	275	270	268	270	272	272	272	273	271	274	274	270	269	268	268	267	268	268	269	272	270	269	269	269	272	273	273	272	274	273	275	271	271	270	270	265	269	278	278	272	271	273	273	272	268	267	267	269	267	268	269	266	270	270	0	0	0	0	0	0	0
284	281	279	279	282	282	286	289	290	292	292	290	286	284	286	286	291	295	295	284	284	284	283	285	285	285	285	285	287	288	287	282	284	286	286	288	286	283	283	286	285	288	288	287	288	288	287	288	290	294	287	287	286	285	287	287	286	287	289	290	292	292	291	290	289	284	292	291	288	290	288	288	287	286	287	287	287	287	286	284	284	284	285	286	288	287	285	283	282	282	283	284	285	286	286	286	282	281	282	283	283	282	283	285	285	286	285	285	285	285	281	281	281	281	283	289	287	282	279	277	275	276	278	278	281	282	285	285	284	284	283	280	278	282	279	281	281	282	283	281	281	281	283	282	282	282	284	284	284	282	280	281	276	276	278	283	290	289	289	283	282	278	277	278	284	284	283	283	283	282	280	280	284	284	284	285	282	283	286	286	287	287	284	284	278	276	278	280	286	286	284	281	282	283	285	282	282	283	279	278	280	278	282	281	280	279	281	278	277	278	282	283	285	283	274	276	276	278	281	283	284	281	282	282	281	281	281	281	275	275	279	281	284	281	280	279	281	278	281	282	288	286	285	283	282	282	279	283	283	280	276	275	274	276	279	279	283	277	279	280	281	282	281	281	280	281	278	278	277	277	280	283	284	283	280	276	274	274	276	284	284	277	275	274	276	277	275	279	282	285	284	278	276	277	275	278	277	280	284	284	285	286	285	285	281	282	281	281	284	282	282	282	282	281	281	285	282	280	280	281	281	282	283	282	281	279	279	280	281	282	282	282	279	281	282	283	282	283	280	279	278	280	276	279	281	280	280	280	278	273	274	277	282	282	279	283	282	278	279	280	279	279	279	280	282	281	280	280	279	287	288	287	280	277	278	278	277	277	278	279	279	279	276	276	276	274	272	271	271	279	284	282	281	275	275	271	274	277	278	278	280	280	278	276	278	276	278	280	279	277	272	276	279	280	276	277	278	277	276	277	276	276	276	277	275	274	274	273	272	278	278	276	275	275	277	275	276	276	273	276	271	274	273	273	274	274	274	278	276	278	282	279	279	278	277	276	275	270	270	276	274	275	277	277	277	279	281	281	281	278	277	274	275	275	273	273	278	273	272	273	274	273	273	274	272	272	272	274	276	278	280	278	276	274	271	270	266	271	275	273	273	275	270	274	271	269	270	271	273	272	274	275	275	270	271	269	268	266	267	269	271	271	272	272	272	275	277	274	276	275	274	272	270	265	266	266	268	267	269	271	272	272	267	266	267	269	269	269	269	270	272	271	268	270	266	270	274	274	271	271	270	269	268	272	272	274	275	271	267	268	266	268	270	270	269	267	270	268	265	265	265	268	268	268	269	267	265	265	266	266	266	265	266	266	266	268	271	271	269	269	267	266	267	269	270	272	270	271	271	268	268	268	268	264	262	263	265	266	266	266	267	268	269	266	266	266	267	268	268	269	269	272	271	0	0	0	0	0	0	0
279	279	279	281	283	283	285	288	288	286	286	282	282	281	281	284	284	290	289	281	280	280	280	281	283	283	282	281	281	284	281	280	283	285	286	286	287	281	282	283	282	285	285	287	287	288	280	281	283	286	285	285	282	283	288	288	284	286	288	290	289	288	288	288	287	284	282	284	288	282	282	284	284	284	285	285	285	286	279	279	281	282	280	283	283	285	284	281	281	281	281	282	281	279	278	276	278	280	281	282	280	281	281	283	284	284	284	283	283	284	277	277	278	276	276	275	275	279	277	274	273	278	278	279	278	279	281	283	283	283	282	279	278	277	279	280	280	281	284	282	281	282	282	283	281	281	280	282	281	277	276	274	274	274	278	281	283	287	287	281	279	276	276	276	280	279	281	282	283	281	276	280	282	282	279	278	279	278	277	281	282	281	280	276	274	273	273	278	279	275	282	282	282	284	284	281	281	279	278	276	276	278	280	281	283	282	280	275	274	273	279	279	284	283	272	275	274	276	277	280	281	280	280	281	282	281	278	277	276	273	278	280	281	280	279	279	277	277	279	278	280	281	279	283	282	280	281	282	282	277	278	276	281	275	278	280	281	276	278	278	279	279	279	279	277	279	279	278	277	276	277	280	284	282	280	277	272	273	275	281	277	275	275	273	274	275	274	274	275	278	276	272	274	275	273	275	276	278	285	283	280	281	279	278	279	281	281	281	282	282	282	280	281	281	282	281	281	281	280	281	282	283	283	280	279	279	279	279	279	280	281	280	278	278	283	280	280	281	281	278	279	276	276	276	276	279	280	280	280	280	273	278	279	281	283	281	282	276	276	276	278	277	276	277	280	279	278	277	277	277	280	279	281	278	278	278	275	275	278	278	275	276	275	276	276	273	271	271	278	271	277	277	279	275	274	272	273	275	279	278	281	272	272	273	274	276	278	279	278	276	272	276	276	275	274	275	275	270	270	272	273	272	274	275	274	271	269	270	270	273	270	270	268	274	274	271	272	271	272	272	267	272	271	272	271	269	269	273	273	276	279	278	278	275	275	273	269	268	270	270	273	275	276	276	274	276	278	278	277	273	274	274	273	272	273	273	276	273	277	274	273	273	273	270	270	267	270	273	270	272	276	277	271	270	269	269	267	264	267	272	272	271	268	269	270	267	267	268	269	271	272	272	272	268	268	268	268	270	270	271	267	268	268	270	273	275	275	273	272	270	268	267	266	269	270	273	268	266	268	269	271	270	265	264	262	265	267	266	264	264	268	268	265	265	270	269	269	272	271	271	270	268	269	270	268	268	267	266	266	267	265	262	267	267	269	269	265	266	265	265	264	267	265	265	265	265	266	266	265	264	265	264	264	265	266	268	269	268	269	265	265	264	265	267	268	266	260	264	265	265	264	266	260	259	258	261	264	265	266	265	263	264	265	265	265	267	268	268	269	269	271	271	272	0	0	0	0	0	0	0
279	277	279	282	282	282	286	287	286	283	283	275	273	275	277	283	283	283	279	280	280	281	281	281	282	280	280	279	279	283	281	280	280	282	285	285	285	280	280	281	282	284	286	286	288	279	279	281	283	285	282	280	280	281	287	288	282	283	288	287	286	286	286	286	282	281	280	280	276	277	279	280	280	281	273	272	272	273	276	276	278	278	281	280	279	278	276	275	277	278	281	280	280	279	276	275	277	277	279	282	278	278	280	281	283	282	281	281	276	275	272	270	274	275	276	277	278	278	277	278	274	277	276	277	277	278	279	280	281	283	282	281	278	277	277	279	280	279	282	282	281	282	277	276	276	279	278	279	274	271	271	271	272	272	275	280	280	281	280	279	277	278	277	277	277	277	278	280	280	277	276	276	278	277	277	279	279	279	276	274	275	277	278	275	273	273	272	271	276	272	275	276	280	282	282	277	276	277	277	275	275	276	279	279	283	284	281	277	271	269	271	276	277	281	271	272	271	273	274	272	271	274	278	279	280	277	279	277	274	271	271	271	278	276	275	275	273	275	275	275	277	277	278	278	276	277	279	281	279	279	278	279	280	279	275	275	276	281	279	277	271	275	277	278	278	280	279	277	276	274	273	275	279	276	276	278	276	273	271	277	275	275	273	273	272	271	272	273	270	270	270	269	271	274	275	274	276	277	280	278	278	276	276	272	271	274	274	275	280	281	276	273	273	275	276	277	273	278	280	281	281	280	278	279	278	278	278	276	276	275	279	279	277	277	277	279	280	280	280	279	278	276	274	274	275	278	278	275	276	279	273	274	276	277	278	280	278	275	275	275	275	274	275	277	278	277	276	274	275	275	276	274	276	277	272	269	271	273	275	277	275	273	276	275	275	271	271	268	278	268	274	275	276	275	275	275	275	275	273	275	275	271	271	271	273	274	276	274	274	273	275	278	277	273	270	270	270	268	268	270	271	272	274	275	272	272	269	267	269	270	269	267	268	263	263	264	271	271	270	270	267	266	269	268	268	269	273	273	270	268	268	266	269	268	268	267	268	267	270	270	269	270	275	272	273	274	277	275	273	273	272	273	270	271	275	275	275	273	273	272	273	269	268	269	268	267	270	271	267	266	269	271	272	271	269	268	266	266	269	267	269	266	266	269	267	266	266	266	266	268	270	269	268	266	266	265	270	266	266	265	263	262	267	268	271	272	272	270	269	269	266	266	268	268	269	272	268	265	264	264	264	263	262	262	262	262	261	260	259	260	263	266	264	265	269	268	266	266	270	267	267	266	266	268	268	266	265	263	263	266	263	259	262	262	262	262	265	266	266	266	263	264	263	263	262	262	264	263	262	260	260	261	263	262	264	268	267	266	265	263	260	260	261	264	265	262	260	262	263	263	261	262	258	256	256	258	262	264	264	261	261	264	259	260	260	261	261	267	267	267	267	268	271	0	0	0	0	0	0	0
277	277	276	276	276	276	276	280	282	275	272	272	270	272	275	277	277	276	276	280	281	281	281	281	281	279	279	279	279	283	282	281	280	281	281	281	283	283	279	279	281	283	285	285	280	278	279	281	284	282	280	278	278	280	280	280	280	281	286	282	281	280	281	281	280	278	278	277	273	272	276	276	276	277	273	271	273	273	275	276	277	277	281	280	276	274	273	276	277	275	277	277	276	277	277	275	275	277	279	278	278	277	277	277	277	275	275	275	271	271	271	270	271	279	280	279	278	276	276	278	274	277	275	274	274	276	276	277	276	275	277	281	280	279	278	278	277	276	276	277	281	282	276	274	275	277	277	273	268	268	269	271	271	272	273	277	280	279	278	279	279	278	277	277	279	278	278	279	281	279	277	277	272	272	278	278	278	279	277	275	274	276	274	274	273	273	270	269	266	271	275	275	275	273	274	275	274	274	276	275	275	278	275	276	273	280	282	275	275	275	269	269	269	270	270	270	270	271	272	271	271	274	274	274	276	278	272	270	273	273	272	271	272	275	271	271	272	272	273	273	275	275	275	275	273	272	273	273	277	277	277	278	277	276	274	273	274	279	277	276	270	274	274	275	278	281	277	275	273	271	269	269	274	273	275	276	276	273	270	275	270	273	274	273	272	270	268	269	268	268	268	268	269	272	273	274	275	276	277	275	272	271	268	271	268	270	271	271	274	272	271	273	273	275	274	274	277	278	279	280	279	278	275	275	275	277	276	275	273	274	277	276	276	275	277	277	278	275	275	277	278	278	279	273	271	274	273	270	270	273	274	275	275	276	276	278	277	274	269	268	273	272	274	275	276	274	273	273	270	269	266	271	272	276	274	270	271	272	272	271	270	272	275	275	274	272	268	268	268	272	270	271	269	268	267	267	274	273	271	273	272	270	271	271	271	271	274	274	274	272	270	269	269	271	271	269	268	267	266	265	265	271	272	271	271	270	267	269	269	270	267	267	266	262	262	262	269	269	268	267	268	266	266	266	265	267	270	271	270	269	268	268	268	268	268	267	268	267	270	270	264	265	269	270	270	273	273	273	270	269	270	270	269	269	274	275	273	268	263	267	267	267	267	267	268	268	266	265	265	265	265	265	267	267	266	266	266	264	266	268	268	266	268	268	267	267	268	268	267	266	266	266	265	264	264	266	266	268	264	264	262	260	262	263	262	263	269	267	263	261	258	261	265	265	265	264	265	263	262	262	262	262	262	262	262	262	263	265	265	265	264	265	266	268	268	268	268	267	266	264	263	263	264	265	262	263	262	260	260	264	262	258	261	262	263	264	263	265	265	265	263	259	258	258	259	257	259	261	260	260	258	257	257	259	260	260	264	260	258	260	258	259	260	261	262	263	260	261	261	262	256	258	255	253	255	257	258	260	258	258	260	259	259	259	257	255	257	265	265	267	264	266	268	0	0	0	0	0	0	0
275	275	272	272	270	271	271	272	274	275	271	271	275	275	277	277	276	276	278	281	282	281	281	280	277	274	275	281	284	284	282	282	280	280	280	278	278	277	277	278	273	275	277	277	279	279	280	282	281	281	280	280	280	280	280	280	285	282	276	276	277	277	278	278	276	272	270	264	265	267	272	270	269	270	270	272	277	277	278	276	276	280	279	274	273	273	273	273	274	274	275	275	276	278	278	276	275	276	278	278	275	270	269	269	268	271	270	271	272	272	272	272	274	274	276	275	274	274	275	274	278	272	272	272	272	271	272	274	274	274	275	276	277	279	278	277	275	273	272	271	272	277	274	272	272	274	277	274	271	269	268	271	270	270	270	273	277	277	276	277	276	277	276	275	277	276	275	274	279	277	277	273	271	271	273	272	273	274	274	268	267	269	271	272	272	270	261	261	264	264	265	267	267	268	268	268	272	272	270	270	273	272	274	274	269	268	269	269	268	267	266	268	268	271	274	269	270	270	270	270	270	271	271	270	271	270	269	271	273	275	270	269	270	277	273	272	271	272	272	272	273	274	273	272	271	271	272	272	272	272	269	274	273	272	269	273	270	268	267	270	266	273	272	273	277	280	273	271	269	266	265	268	272	272	272	273	273	273	271	271	271	270	273	272	272	265	267	267	267	267	267	267	267	269	272	272	270	270	271	271	270	270	269	267	267	269	272	272	272	271	272	276	275	273	273	272	272	274	273	272	272	270	270	270	274	277	276	273	273	275	274	273	273	274	274	275	274	274	273	273	273	272	272	269	273	273	272	270	267	265	266	267	271	272	273	272	272	272	271	268	269	269	268	269	272	273	270	269	266	267	265	267	268	272	270	272	273	269	267	266	269	270	270	266	264	263	265	267	268	268	265	272	268	267	267	266	273	267	267	270	270	269	270	266	267	267	264	272	273	273	270	269	270	270	269	267	266	266	265	265	266	268	270	270	273	269	266	269	267	265	266	267	267	267	266	263	263	262	264	265	263	261	260	262	262	264	266	268	267	267	269	269	270	268	267	266	268	269	269	265	263	264	266	268	270	271	271	269	265	266	267	266	265	263	262	261	261	259	260	261	261	262	263	265	268	267	266	262	262	263	266	266	266	265	264	265	265	263	263	265	268	266	264	264	263	263	265	266	266	263	262	261	263	262	262	263	264	265	266	264	259	257	257	257	258	260	260	262	262	259	258	260	265	263	263	262	262	261	260	261	261	262	261	261	261	261	263	261	259	258	261	262	264	268	268	268	266	262	259	260	260	260	262	262	258	258	258	256	255	256	256	256	258	260	262	261	261	259	258	259	261	258	256	256	253	253	255	256	256	254	253	255	255	257	257	259	255	257	259	257	258	259	259	259	261	261	259	255	255	256	256	257	255	254	255	256	257	256	255	259	259	259	259	259	255	252	251	254	263	261	262	262	266	0	0	0	0	0	0	0
273	273	272	268	267	266	266	269	271	273	275	275	275	275	276	276	275	275	278	283	279	279	277	277	276	273	274	277	281	281	278	276	277	279	277	277	277	275	275	276	272	273	272	269	269	270	270	275	280	279	279	280	280	280	280	281	277	275	273	273	272	273	275	273	273	271	271	269	269	272	274	275	273	271	270	271	272	276	276	276	274	273	272	272	273	274	274	274	275	275	275	275	276	278	276	276	275	272	268	270	274	270	268	266	268	268	269	271	271	271	271	272	271	272	270	270	269	268	269	273	272	272	272	271	270	271	272	273	274	274	274	275	274	272	271	270	272	271	270	269	267	267	266	267	269	271	271	273	273	273	271	270	268	268	268	271	276	276	275	276	276	276	274	274	272	271	271	275	271	272	269	267	264	262	262	262	266	268	271	270	265	265	267	267	267	264	262	262	263	263	264	267	266	266	268	267	268	272	272	270	269	266	264	266	267	266	271	271	269	272	268	268	268	268	273	268	268	268	268	267	266	267	269	270	270	270	270	267	271	274	270	269	269	272	273	272	272	272	271	272	272	272	272	270	270	269	269	271	271	267	269	268	266	270	269	272	269	267	265	266	267	267	273	275	276	270	269	268	266	260	263	263	267	269	269	270	272	273	271	271	267	266	271	270	268	265	268	266	266	266	266	267	267	269	269	269	266	267	267	270	270	269	269	267	266	267	268	267	266	266	265	266	268	271	271	271	271	270	272	270	267	269	269	268	268	266	266	268	269	268	265	266	267	268	267	268	268	268	272	271	273	269	266	265	266	265	267	267	267	263	264	264	264	267	269	271	270	269	268	270	268	268	265	265	268	268	269	268	267	267	268	268	265	268	270	270	271	268	264	267	266	268	266	264	263	263	263	267	267	268	267	264	264	264	264	264	263	265	266	265	267	268	265	264	263	265	263	262	266	266	266	268	269	268	268	269	269	266	267	268	268	268	269	268	267	264	264	266	267	268	269	268	268	266	264	264	264	263	262	261	261	262	266	262	262	264	266	267	267	267	268	269	270	267	265	266	268	269	269	265	263	263	264	266	266	266	266	266	263	263	262	264	257	259	260	261	260	261	261	260	259	260	262	260	260	259	260	259	260	263	264	265	265	264	264	263	263	263	264	268	267	265	263	263	260	258	257	257	258	259	258	260	259	258	258	261	262	262	262	258	260	256	256	256	257	258	258	258	259	258	258	260	258	257	255	256	260	259	257	257	259	260	261	260	260	260	260	260	258	257	257	258	258	258	259	260	259	257	256	257	257	255	256	259	258	256	254	253	252	254	254	255	256	258	259	259	261	253	254	256	257	256	256	254	253	255	254	255	252	252	252	252	250	249	249	256	252	256	255	260	257	257	257	257	257	252	252	252	254	255	256	254	253	254	255	256	247	252	253	255	256	257	257	258	253	250	249	249	256	254	254	260	259	0	0	0	0	0	0	0
270	270	270	265	264	265	266	266	269	273	274	274	274	274	273	272	269	269	276	278	269	272	274	274	275	270	266	271	272	272	273	273	274	273	268	267	267	270	272	271	272	272	267	266	266	266	268	269	270	272	273	274	274	274	275	275	274	271	268	268	270	271	272	269	269	266	265	266	269	272	274	274	272	273	273	270	270	273	271	271	270	269	269	270	269	272	275	276	276	275	274	274	274	272	275	271	269	266	265	267	268	268	268	267	267	267	267	267	271	269	269	269	268	268	267	266	265	264	266	268	265	267	266	264	264	265	267	268	271	272	270	269	265	264	265	266	267	269	271	271	271	266	266	270	271	271	271	272	272	272	271	264	264	267	271	273	274	275	273	273	273	274	274	272	269	269	270	270	268	271	269	267	264	261	262	263	263	266	267	267	265	265	266	266	264	263	262	261	263	262	267	267	266	266	265	266	267	270	270	267	266	264	264	264	263	263	266	274	273	271	267	267	268	268	267	269	267	267	265	260	259	265	268	267	270	270	270	271	270	267	266	266	266	271	272	271	270	269	270	270	270	271	269	269	269	270	269	270	267	267	267	266	266	268	268	266	267	268	265	268	269	271	273	274	267	263	263	266	264	260	262	263	263	265	266	268	269	270	270	264	263	264	264	269	263	263	264	266	267	267	267	267	266	266	266	265	264	263	265	266	267	267	268	266	266	266	266	265	265	265	265	265	265	266	268	269	268	268	270	268	267	265	266	266	264	264	263	265	260	267	265	264	264	264	261	261	263	264	266	269	270	269	268	264	261	263	263	265	267	263	264	264	264	266	269	271	267	265	267	268	267	266	267	266	267	268	269	267	266	265	264	268	266	267	268	267	268	265	264	263	264	267	266	264	263	263	264	264	265	268	266	267	264	264	263	265	267	267	263	264	264	264	261	260	262	263	262	261	263	264	264	263	263	268	267	267	267	270	266	268	265	268	266	267	264	263	262	264	267	267	269	268	266	263	264	264	264	262	261	260	261	260	260	262	261	265	261	261	264	263	266	263	263	264	263	265	266	262	264	266	261	262	262	266	262	259	261	262	260	260	262	258	258	259	261	261	260	259	259	260	258	261	261	260	259	258	260	261	259	259	256	256	261	261	261	261	260	262	263	268	269	266	261	258	258	257	256	257	258	258	257	254	255	256	260	263	262	262	262	258	255	256	256	257	256	257	257	255	256	257	258	255	255	255	256	255	256	259	258	257	258	256	257	257	260	259	261	260	259	258	257	255	255	254	250	250	251	251	252	255	257	257	257	256	258	253	253	250	250	251	253	253	256	258	258	261	254	252	251	251	254	255	257	253	252	252	257	255	254	251	251	250	249	248	248	247	251	251	253	257	257	253	253	252	252	251	250	250	251	252	253	253	255	259	256	252	248	247	247	252	254	255	255	254	251	250	249	249	250	250	250	251	251	251	0	0	0	0	0	0
269	269	269	262	261	262	266	266	268	270	272	271	271	269	269	267	268	268	265	265	269	271	273	273	273	270	266	267	270	271	271	271	269	268	265	269	268	268	268	270	271	263	263	264	263	263	267	268	268	270	270	273	273	274	274	272	271	267	265	266	268	269	269	266	264	264	262	262	263	264	266	267	267	271	273	272	270	268	268	268	268	267	267	269	270	271	274	275	275	270	269	271	272	272	270	269	264	264	263	264	265	264	265	266	265	263	265	265	263	265	263	266	266	265	263	263	262	262	266	263	264	260	263	263	263	266	265	267	267	266	264	263	264	264	265	268	267	266	265	269	268	267	267	267	269	271	270	271	271	271	264	261	261	263	263	263	263	266	264	266	265	268	268	267	265	265	265	266	266	269	268	266	264	262	262	263	265	266	266	263	263	265	265	264	264	260	260	260	261	264	268	266	266	264	265	266	266	260	261	262	263	266	267	265	264	262	260	261	261	266	263	266	266	268	267	266	265	266	262	260	260	261	262	264	267	270	270	268	267	265	264	262	263	271	265	266	268	271	271	269	269	266	266	266	269	271	271	270	266	264	266	266	267	265	261	266	263	260	264	264	269	274	272	269	266	266	264	261	263	264	264	265	264	264	264	265	269	269	267	264	263	263	264	263	263	263	263	264	266	267	268	268	266	265	263	264	263	262	263	263	265	266	266	266	265	265	263	263	264	264	264	264	265	266	267	266	265	268	268	265	264	262	262	263	264	264	262	261	258	258	263	263	263	263	262	261	260	261	261	264	265	268	265	263	261	261	261	264	264	261	263	264	265	265	266	269	264	263	265	265	264	263	264	265	266	266	266	266	265	263	262	261	265	267	267	267	265	262	260	263	263	265	264	262	262	263	263	264	264	266	267	266	264	263	263	262	261	261	261	262	264	260	257	259	262	265	263	264	263	263	263	263	262	261	263	265	266	269	265	264	263	261	262	263	263	262	262	261	261	268	267	263	262	263	262	263	263	260	259	259	259	258	258	256	256	258	257	257	258	261	261	261	261	261	261	263	263	264	259	262	259	258	263	260	260	260	254	254	257	257	259	259	259	259	259	259	259	258	259	260	260	259	259	257	256	257	259	260	259	255	254	256	258	259	261	261	260	261	263	267	265	264	260	257	256	255	254	255	257	258	256	254	257	258	259	263	262	262	261	258	256	255	258	257	256	254	257	256	255	257	254	253	253	255	256	257	256	257	257	257	257	258	259	261	263	262	261	261	260	258	257	255	253	252	249	250	250	250	251	254	255	256	255	256	255	251	248	250	252	252	250	250	250	253	259	255	254	252	249	252	252	253	251	251	250	251	251	256	254	254	255	252	250	247	248	247	250	252	250	250	255	254	252	252	251	250	250	249	248	250	252	254	254	256	253	249	246	245	246	249	252	252	252	251	248	253	247	247	248	250	251	250	249	249	0	0	0	0	0	0
262	262	262	262	260	263	266	266	267	267	267	268	268	266	263	261	262	263	263	264	267	265	270	270	270	266	265	267	269	269	269	267	267	264	263	262	264	264	266	269	264	262	262	262	263	263	265	266	266	269	271	269	270	272	272	271	270	264	264	265	265	267	266	263	262	262	263	264	264	264	262	264	266	269	269	265	265	264	264	265	265	267	266	270	271	271	271	270	269	267	267	268	270	269	266	264	263	262	262	263	264	263	262	264	262	262	262	262	262	262	262	264	263	262	261	260	260	261	261	261	263	259	258	259	261	262	260	265	265	264	263	262	262	264	265	264	266	263	262	261	262	262	266	267	269	269	269	269	270	266	260	260	261	261	261	261	260	259	259	259	263	266	266	267	264	260	259	259	265	265	265	261	263	262	261	262	265	264	263	260	263	264	263	260	260	260	259	260	262	265	266	265	266	266	265	266	261	260	260	261	263	267	268	267	264	262	260	258	260	261	261	258	267	270	267	264	262	260	260	257	259	260	262	263	267	270	270	268	266	264	262	262	261	262	265	266	268	270	271	272	269	265	264	264	268	269	271	269	267	264	265	263	261	260	263	261	260	260	262	262	261	259	265	264	266	265	264	260	259	261	264	263	262	264	265	265	267	263	266	264	263	263	263	263	262	262	262	262	264	267	268	269	266	265	261	261	262	260	263	262	266	265	266	266	265	263	262	263	263	263	264	264	264	266	264	263	264	265	264	261	263	262	260	260	261	263	261	259	257	257	258	263	263	262	261	260	258	258	260	259	260	260	261	260	260	261	261	263	263	259	260	261	262	262	263	263	263	263	262	262	262	262	261	261	262	263	263	264	264	260	258	262	260	263	263	263	264	261	258	261	262	263	263	261	261	259	260	261	263	263	265	263	260	257	256	254	254	258	260	262	260	259	259	259	263	266	264	263	262	263	261	262	262	260	262	262	259	259	258	258	258	258	257	260	260	260	258	257	256	260	259	256	255	251	259	259	258	257	257	258	257	255	257	258	261	261	261	259	257	256	258	259	257	260	261	263	263	264	256	261	257	254	259	256	252	251	252	254	256	257	257	257	259	258	256	256	257	256	255	258	256	257	257	252	255	252	255	257	259	257	256	258	258	260	261	261	261	259	259	259	255	257	257	256	254	253	253	254	257	257	256	256	255	256	257	259	261	258	258	257	256	256	255	256	256	254	253	254	255	252	250	250	251	253	255	256	254	252	250	250	251	251	258	258	258	259	259	258	260	259	256	255	253	252	251	251	250	250	251	250	252	253	255	255	256	253	248	251	243	245	252	246	249	257	255	254	252	247	248	249	250	249	250	248	249	249	250	254	254	254	252	251	247	246	247	249	250	252	250	250	248	251	252	252	248	248	246	246	246	248	252	253	253	251	252	248	246	246	247	248	247	247	245	248	247	244	251	248	250	250	250	248	248	247	0	0	0	0	0	0
